2.811210022263513700e-02 -3.340216840913014240e-02 -7.663846068839267334e-01 -8.796583722954250950e-01 -4.696906143658632349e-01 7.477883943456849203e-02
-2.419656185277850591e-02 4.881341711983237103e-02 -8.306793886069687716e-01 8.937970007829584285e-01 4.360300497898255134e-01 1.049033701635480598e-01
4.998856075416529404e-02 -8.290521106411587182e-02 -7.822866108081950598e-01 -9.127871324490479665e-01 -3.951743087169898305e-01 1.032323426329808252e-01
1.777689285558884530e-02 -1.993983341204535673e-02 -8.263315158349545664e-01 -8.957828276232644438e-01 -4.443229681271171905e-01 1.225666063727534616e-02
2.191386026607029108e-02 -1.800991883188443263e-02 -9.641905985964495107e-01 -9.559631934524553953e-01 -2.887403927965644934e-01 -5.256765480662798501e-02
-4.506851392840331705e-02 9.358395373764494263e-02 -8.275230385020992951e-01 9.042741252058213997e-01 3.262214319410090546e-01 2.754412529480725347e-01
6.393595076549035520e-03 1.494790870828829540e-02 -8.651084262884696230e-01 -8.786414952873105033e-01 -4.542723449115372292e-01 -1.470569937400200977e-01
8.907769065200221367e-03 1.570482425696235335e-02 -7.023990667969154389e-01 -8.441543681663580267e-01 -5.142253363837734348e-01 1.515773931912396955e-01
-7.110096517770086999e-02 1.207531834580499591e-01 -7.735927066368243343e-01 8.805478911221628069e-01 4.014655990334491387e-01 2.519142398377380299e-01
3.015506956883476364e-02 -3.050440602428565462e-02 -7.358820302670460167e-01 -8.781437395096339804e-01 -4.634262459124374733e-01 1.187421044092655670e-01
-3.220885018281981205e-02 7.551025040223895146e-02 -7.713342483324948651e-01 -8.228161749184417229e-01 -5.682227153839618516e-01 9.822831275203763174e-03
1.018344859781310230e-02 -1.134229137654673043e-02 -9.215669583687784439e-01 9.505015350293909426e-01 3.008428862906358248e-01 7.771994386958178125e-02
3.317123037174967565e-02 -5.601806614063963713e-02 -8.735733116790059816e-01 -9.268867091347650078e-01 -3.746892020641648946e-01 2.211402916350487663e-02
5.083218534605309265e-03 1.178303569497592303e-02 -8.107367137174356087e-01 -8.586875393995199168e-01 -1.187863156456107766e-01 -4.985433992094762123e-01
-7.630845241589537253e-03 2.900340644001275781e-02 -8.078625631722645695e-01 -8.742516432066991250e-01 -4.849043266591688828e-01 -2.349166527950313776e-02
5.710586418882539900e-02 -1.003383744452349124e-01 -8.237388703081698349e-01 -9.576854107159107343e-01 -2.759564443645448062e-01 8.177221359101724540e-02
8.141422670534413653e-02 -2.703240863809584504e-01 -1.005169708247984461e+00 -5.511945451378203603e-02 -5.179924889560701962e-01 8.536074197892133952e-01
1.749106332611157638e-03 2.267761119461183042e-02 -9.423690089731984187e-01 9.544778633873086671e-01 2.645931997282597314e-01 1.377042009568300862e-01
-6.725496099599249933e-02 1.218758633185505341e-01 -7.402838823862887274e-01 -4.112314926927974623e-01 -7.351540035987893518e-01 5.389223046138699180e-01
7.321557209197915306e-02 -2.286696349360042013e-01 -9.803508188513457844e-01 -3.451563953674906954e-02 -5.177603802416571588e-01 8.548291404013925732e-01
2.660681492519760896e-02 -5.702554373046669900e-02 -9.455670624489304066e-01 9.553046981469076604e-01 2.941801685190870153e-01 2.917125551852609022e-02
2.731341050881690505e-02 -3.674712304140478891e-02 -7.326208212972071809e-01 8.690684509732715668e-01 4.729980501149525507e-01 -1.448891718189152245e-01
3.423980765264841158e-02 -5.792339768157246660e-02 -8.606058149810125180e-01 -9.169308584751765245e-01 -3.981406793307731840e-01 2.686634024213186214e-02
-1.012512787195343766e-02 2.094534868810143599e-02 -7.667116904672178768e-01 8.531703513269758288e-01 5.172481711796438342e-01 -6.748837698387953610e-02
-2.303481815678014299e-02 8.169186639432117480e-02 -8.745306527658256446e-01 -9.234201825011257858e-01 -3.312225772880759145e-01 -1.938730792148096460e-01
-2.653949471161499291e-02 7.043225414569226350e-02 -6.943561914476585883e-01 -7.923330168395997797e-01 -5.938560789899770542e-01 1.397975245578705339e-01
2.222741711220347499e-02 -1.934952252290402311e-02 -7.832586514375681208e-01 -4.406217247082938604e-01 -8.942831894477861754e-01 -7.816695456638499129e-02
2.364636265680275864e-02 -4.840712401219028627e-02 -9.390436269708661854e-01 9.497096663671050765e-01 3.095812735962609752e-01 4.702110853009042885e-02
-1.305825369510735801e-01 1.845571878698168133e-01 -6.953602945522210366e-01 8.329725552818688650e-01 3.213534030098883498e-01 4.504316957332797910e-01
-2.495316440163499946e-02 6.009232998334451681e-02 -7.706745246810895456e-01 -6.134648969956276732e-01 7.893465261432150992e-01 2.434916466292867676e-02
7.220574515162832274e-02 -1.665726865957077030e-01 -8.734153203592167625e-01 -9.740007318988164187e-01 -2.117626722288134256e-01 8.049313580102186727e-02
2.365432576861378408e-02 -1.344519079392073567e-02 -7.162449912325261625e-01 -8.627405773778217268e-01 -4.886692738681802650e-01 1.299270446170768256e-01
-4.205393010846628782e-02 8.429038012278865233e-02 -7.297823139206059961e-01 -7.911134421909694625e-01 -6.089392896130605415e-01 5.772749042091510768e-02
-1.068189199629540533e-03 1.818665271493051169e-02 -7.756192427031812775e-01 -8.557201339829598741e-01 -5.149361108239635110e-01 5.083162466099248877e-02
4.885375578273525032e-02 -1.168789902290473387e-01 -8.731508160493731685e-01 9.409042801631678499e-01 3.335224500537360970e-01 -5.883800541133257095e-02
-2.824226214927718845e-02 7.353520598697532717e-02 -8.309739141117543637e-01 -8.980739847486080007e-01 -4.085262417302958915e-01 -1.630013120667331283e-01
-1.864953808645609251e-02 3.815420050089459586e-02 -8.337018356801201291e-01 8.941209879329399257e-01 4.353061763328218148e-01 1.051484273982324219e-01
-1.873413719412978309e-02 4.118445634071576933e-02 -7.261574710508547081e-01 8.274065005720326882e-01 5.484014212769803276e-01 -1.210552103485453002e-01
4.993579208108671341e-02 -6.593725450449727798e-02 -7.049055227079732422e-01 4.874180762827419466e-02 5.584484323852660914e-01 -8.281060225330854063e-01
3.043845432763057218e-02 -4.712708462329943948e-02 -8.308172533807868243e-01 -9.137113922772518437e-01 -4.045734685198294489e-01 3.810249588413223976e-02
2.186526729598780097e-02 -2.677521095916820734e-02 -9.581815991651013720e-01 -5.001266279520355518e-01 5.536068896612428292e-01 6.658774419763222596e-01
7.104901350957710214e-03 1.454168905061021221e-02 -9.104786823472452717e-01 -9.316217879848506245e-01 -3.448595109767385036e-01 -1.146854909776924697e-01
6.094955381952845558e-02 -1.379713207330022506e-01 -8.245765985684543331e-01 9.364261894086547411e-01 3.354011087448501294e-01 -1.030149894059656790e-01
8.081091513765065529e-03 2.313968961233337190e-04 -8.018365164333015604e-01 -8.787008105150084791e-01 -4.768453246657099465e-01 2.243706631269944823e-02
1.795221355857678711e-02 -2.236534555580153155e-02 -7.666396022034166480e-01 5.301827005100905321e-01 -8.196272947008818033e-01 -2.170654322114452528e-01
2.151998009311473573e-02 -2.689642634807419899e-02 -8.138622820041162553e-01 -9.021678804152265529e-01 -4.302904975044581359e-01 3.071161513927840939e-02
4.819255261841534632e-02 -1.081635717043665235e-01 -8.383044518001839807e-01 9.233001780645874179e-01 3.750596700342199719e-01 -8.274675280470479566e-02
4.912749838326180285e-03 1.423476260062066581e-02 -6.944996074355292981e-01 8.308884411251530322e-01 5.288463836663828133e-01 -1.730488396020092856e-01
-1.764659573430088155e-02 3.215521746782601387e-02 -8.011178971430663598e-01 8.752526297059072258e-01 4.832400231611043151e-01 2.029566968959644821e-02
4.882904706832322250e-03 -5.929441142531695352e-03 -8.784906664596949799e-01 9.199854894532253358e-01 3.883431398865242468e-01 5.306886939236968304e-02
4.901094357188602590e-02 -7.900958489702354648e-02 -7.760182749683746106e-01 -9.127871324490479665e-01 -3.951743087169898305e-01 1.032323426329808252e-01
4.348236727716676270e-02 -1.034565246583216275e-01 -8.371199622817795394e-01 9.128033791358695082e-01 4.034450954817285773e-01 -6.341960241026940726e-02
-8.725070089351954356e-03 3.530976804682280090e-02 -7.932196148252791401e-01 -8.497604510234989528e-01 -1.398711483051600646e-01 -5.082747659958491981e-01
4.332227477983922187e-02 -8.918618543651005148e-02 -9.663842233037331919e-01 -9.580115783783502703e-01 -2.847840856245094088e-01 3.334426889337569616e-02
-6.471281809207482527e-02 1.157041909531481283e-01 -7.879187683735165981e-01 8.835992426422648593e-01 4.117640465189110199e-01 2.229411321322019857e-01
-2.193875775207046810e-02 4.086059555531605658e-02 -8.108023950555287573e-01 8.815662141948312769e-01 4.689020867810070325e-01 5.451461274382733702e-02
1.170597905861346481e-02 -2.351381201891423675e-02 -8.254474451488720277e-01 8.946630880824172349e-01 4.464069162387371836e-01 -1.728652530307520432e-02
4.924278790032639297e-02 -1.049946271891285948e-01 -8.132379535689260308e-01 9.234399425339459011e-01 3.727719418403857565e-01 -9.110297420749044472e-02
5.837330575733680298e-03 1.456842245286325832e-02 -7.254793755564047375e-01 -8.475424942074515355e-01 -5.181543835284736499e-01 1.148379525367774628e-01
3.427042705243749793e-02 -5.580956406911655870e-02 -8.311160183548500502e-01 -9.137113922772518437e-01 -4.045734685198294489e-01 3.810249588413223976e-02
1.225595112786665580e-02 1.629704974608897974e-02 -6.823728691344715935e-01 -8.387793369792326814e-01 -5.183271240026884330e-01 1.666919805502958540e-01
-7.077320860530623980e-02 1.189868868385378919e-01 -7.257613176255706122e-01 -6.863969971219923139e-01 7.244473220154828974e-01 6.352353868060854614e-02
-1.634088441398400676e-02 6.234832267737754063e-02 -8.722584847616643433e-01 -9.286510264276411908e-01 -3.307220530571488570e-01 -1.680184357043972287e-01
4.585185268799192582e-02 -9.007264841814627276e-02 -8.888292683595419019e-01 -9.343934350007755407e-01 -3.537488767052487937e-01 4.207898355742238639e-02
-4.333733498061176706e-03 4.412584762351547812e-02 -6.763519839626974672e-01 -8.216447098445637254e-01 -5.453414159281163576e-01 1.658394128606336115e-01
-5.167192342271618305e-02 1.233301038631570701e-01 -8.206986252443081442e-01 -9.023591383074537342e-01 -3.446901462369225122e-01 -2.587212565681420440e-01
6.778608374327932135e-04 2.889104358556539298e-02 -8.891642196442879342e-01 -9.310917703501480069e-01 1.168267979549922342e-01 3.455714317848198602e-01
2.048527398130130933e-02 -2.942238068684793068e-02 -7.517700811813180506e-01 8.708213890955538439e-01 4.774838862652173166e-01 -1.169583115932968514e-01
-2.810161567330417970e-02 7.313427219246593225e-02 -8.659033448202564376e-01 9.231044795007267156e-01 3.319528259382555913e-01 1.941273841509695841e-01
2.888934213771636103e-02 -5.645291199971736590e-02 -8.511117204397379288e-01 2.726795663514891901e-02 5.557233843092066472e-01 -8.309199592456937289e-01
4.397380978864207784e-02 -8.821106957090232847e-02 -9.340801716061656323e-01 -9.487390970248199551e-01 -3.159692416116408054e-01 7.587102997432619220e-03
-7.863169876723849483e-03 2.965519921494826072e-02 -7.760831500823501816e-01 -8.638278711866954618e-01 -5.031866232627240088e-01 2.458924827071820932e-02
3.766597426946453886e-02 -6.436536831050823637e-02 -8.399355987060638240e-01 -9.229670878519282695e-01 -3.825166704583353727e-01 4.257642027695404674e-02
-1.768331415741454180e-02 4.839510589644981098e-02 -8.737905223081674499e-01 9.244365185473961688e-01 3.375377233651352116e-01 1.774412817848513846e-01
6.504201722827421261e-02 -1.756632790000569322e-01 -9.274808998948007588e-01 5.132260709515588243e-02 5.369530513288180984e-01 -8.420495298197295808e-01
8.123514840505285939e-02 -2.277979313263427397e-01 -9.696681136592473216e-01 -9.874797100773059499e-01 -1.444521898157778983e-01 6.338286079900394554e-02
3.778838877534743818e-02 -5.344795542064059019e-02 -7.699129269687852162e-01 -8.889253024481014176e-01 -4.480195278655381141e-01 9.534311364063843830e-02
-1.108166306773222809e-02 3.931690117231468468e-02 -7.353143221420065379e-01 -8.305504823769672695e-01 -5.501101624875712748e-01 8.697531460871371634e-02
-8.264061390114467442e-02 1.661565677570068233e-01 -7.840731708779321574e-01 9.067736899118132854e-01 1.400268486266488810e-01 3.976857515016147260e-01
-7.888742194310885414e-02 1.452293756181358975e-01 -7.806549409230275627e-01 8.936349825971916516e-01 3.278336302547814607e-01 3.064989865439816663e-01
7.517521046524605621e-02 -3.205908170854100958e-01 -1.028932951733705359e+00 8.999402830909237760e-01 1.929636657706960620e-02 4.355859698235826083e-01
-7.325454298045318280e-02 1.203461005022251479e-01 -6.852014565195501117e-01 6.911661632358506724e-01 -6.002722739491679338e-01 -4.024456881688862619e-01
-1.180116548609876220e-01 1.678530082002261115e-01 -7.040454971742136081e-01 8.158337473610405288e-01 4.832576547483836138e-01 3.176119264038012591e-01
6.532042843438631841e-02 -1.476878739201324398e-01 -8.898120407626585182e-01 -9.555566105402137911e-01 -2.844778575851995006e-01 7.735575348112642968e-02
2.214612881011220058e-02 -2.019380519254708548e-03 -6.738044717473753442e-01 2.833781499171013074e-01 4.432250512691330857e-01 -8.504401084597521532e-01
2.115888316248484835e-02 -2.330780878649260993e-02 -7.859523739867338987e-01 -8.864894753936849447e-01 -4.596500877830672072e-01 5.346219989158541158e-02
-2.669760553322061969e-02 7.167492308545689306e-02 -6.900931412291869682e-01 -7.817387496637773214e-01 -5.962731510911789545e-01 1.826002644081049509e-01
3.391566507305551759e-02 -7.950403576250128501e-02 -9.682395620664248082e-01 9.592500636783560797e-01 2.810093577409510934e-01 2.954752434786913143e-02
7.130120253239680128e-02 -1.972095932536093166e-01 -9.411544639365488907e-01 -4.192927982166357315e-01 4.127798137762357378e-01 -8.085829423766739410e-01
4.310150382357407634e-02 -8.735530720145957828e-02 -9.564917425801604534e-01 -9.552092998340113716e-01 -2.954986304155484689e-01 1.599227729727183134e-02
-6.747310994615199516e-03 1.295127146587774815e-02 -8.716712893055583722e-01 8.803580582839195534e-01 4.472921231322374847e-01 1.577955823159255533e-01
2.090424718488104877e-02 -1.735892359379968830e-02 -8.045338416572861417e-01 -8.471740327133195914e-01 -5.311350831672125850e-01 1.384491694482938712e-02
1.713628202545603579e-02 -3.447088765506215596e-02 -8.214040475161741295e-01 9.010821691899379982e-01 4.319593324004573076e-01 -3.823688690396821049e-02
7.257676041520186305e-02 -2.649991363191714355e-01 -9.997290552891913151e-01 9.356155035586676272e-01 -1.016704145930446002e-01 3.380632430435748792e-01
3.013547973949753933e-02 -5.483617224888090447e-02 -7.820083132205303267e-01 8.890946958826022595e-01 4.498609352825443386e-01 -8.447343168202350872e-02
-7.142896576593159297e-02 1.370887813033531966e-01 -7.745638029511974221e-01 -8.687269559885142378e-01 -4.303904466775830828e-01 -2.451071997057622243e-01
6.790819765786267059e-02 -1.781888014050356794e-01 -9.492721462966680068e-01 -3.279182414765507286e-02 -5.363539233156554564e-01 8.433558947520156668e-01
-2.980031612146721506e-02 5.285451043901029378e-02 -7.942294782576373446e-01 8.604797348472823515e-01 5.079011822555470346e-01 4.013745109704686120e-02
-7.841764756760077892e-02 1.356657633913621597e-01 -7.724726726804425070e-01 8.745611038774048218e-01 4.113083346485644776e-01 2.568430054203527102e-01
-4.756325938207376508e-02 7.945405581350881152e-02 -7.694379273143546749e-01 8.479186205989454050e-01 5.271107787562773206e-01 5.646450000250177043e-02
-2.298647413876282741e-02 4.103243204491371227e-02 -7.757819289599598989e-01 8.448591408012721127e-01 5.345204056400294501e-01 -2.238231799778967260e-02
4.370765731656290655e-03 1.950491837766802489e-02 -6.825400140471110655e-01 8.286357270056415869e-01 5.234366776967737112e-01 -1.984360762855261473e-01
3.583944913192407822e-02 -6.311218223545375650e-02 -8.829964962137155648e-01 -9.312846668023717633e-01 -3.642746424030970376e-01 3.585286723672909386e-03
4.404783481351573493e-02 -8.735160588665949466e-02 -9.172111624187081480e-01 -9.488194454836471614e-01 -3.151577780552748398e-01 2.042632623274147352e-02
-3.112139846461932369e-02 7.927599710685702405e-02 -6.842110796290241659e-01 -7.817387496637773214e-01 -5.962731510911789545e-01 1.826002644081049509e-01
2.652646426948961772e-02 -3.978027391451292166e-02 -8.731509803389031488e-01 -9.238912945344395222e-01 -3.825268278861584381e-01 -9.904636834871066026e-03
3.627891729601257637e-02 -7.964564339860109865e-02 -8.442951115724974809e-01 9.214748580070337702e-01 3.852736096184917747e-01 -4.948062037257260071e-02
6.861867344334383889e-02 -1.597984098323653457e-01 -8.933618431975879348e-01 -9.595680430003258321e-01 -2.704653026779266223e-01 7.795954656013649731e-02
-7.480420082492549028e-03 3.143951859594678461e-02 -7.514007961845274863e-01 -8.378907221951424900e-01 -5.435345347414634043e-01 5.009338481958684752e-02
4.197754007044358221e-02 -6.441947220609368918e-02 -7.307523116069888358e-01 8.812320457461615408e-01 4.456919767571005386e-01 -1.574444136969715691e-01
7.025241270348792089e-02 -2.234975895928485445e-01 -9.574292882183123021e-01 7.205641635639169484e-01 4.116869370770996905e-01 -5.579436817703993245e-01
-6.771617399266202089e-05 3.175153265236169836e-03 -8.616546857230722445e-01 9.119066295679478795e-01 4.045475408449104027e-01 6.904770920429438574e-02
1.059120216549427548e-02 2.103203624857245477e-03 -7.479606218853993571e-01 -8.669874887258404161e-01 -4.902712867357362780e-01 8.925670728491927330e-02
5.115401368538264465e-02 -1.292441694734898228e-01 -9.038166588124916245e-01 9.481776890870386998e-01 3.108805133073155869e-01 -6.566868632264825922e-02
4.284927125217673910e-02 -4.445614543608525371e-02 -6.919645500739561861e-01 1.150832515570446024e-01 5.085658835619245588e-01 -8.532974787774406655e-01
3.160163098634889700e-02 -6.978006839337831668e-02 -8.549467687690258666e-01 9.251743693759559850e-01 3.778421363504729791e-01 -3.588462411552667541e-02
1.178886569432808715e-03 1.290551464122914258e-02 -8.133254139958869811e-01 -8.874282595815181640e-01 -4.608426542078314370e-01 -9.753571591905721427e-03
5.989937271711723993e-02 -1.030941259640363178e-01 -8.024764786472866618e-01 -8.998530702296188011e-01 -4.316211939079752646e-01 6.298886383943065603e-02
-5.971614407136353886e-02 1.250057755153317351e-01 -8.167827157559891527e-01 9.020148359228403745e-01 3.300562417610038990e-01 2.782662628665085736e-01
2.663068445423260114e-02 -3.267999305386989906e-02 -9.752183804374554565e-01 -9.602511467590246763e-01 -2.771714519480648620e-01 -3.307145858560590901e-02
-9.710396437024269856e-02 1.424090014828318096e-01 -7.154733234083754390e-01 7.718906973604237054e-01 6.332101737758866200e-01 5.682980868479142050e-02
-2.235464892459825686e-02 4.536735394200792221e-02 -7.820392252253277610e-01 1.228600348834654049e-02 5.851616288859454729e-01 -8.108236073264214472e-01
2.208819016811865849e-02 -4.158777543579396385e-02 -9.532740265438502947e-01 9.553046981469076604e-01 2.941801685190870153e-01 2.917125551852609022e-02
-1.090259906711465859e-01 1.642859255361279469e-01 -7.228724303909296323e-01 8.495802198410653538e-01 3.423811369940049643e-01 4.012338558565308744e-01
-2.394203404571887839e-03 1.399606878165805292e-02 -7.350128507222916108e-01 8.463709176601937889e-01 5.206275563417909202e-01 -1.122640517557449147e-01
4.948969014068983069e-02 -8.980219596544802840e-02 -8.224068847965831930e-01 -9.270692814566151574e-01 -3.663144062342136853e-01 7.972642701633268769e-02
5.607585167324067449e-02 -7.828196971737730325e-02 -7.186999627408685587e-01 -9.071076211259482269e-01 -3.988784462678330867e-01 1.343567966207231956e-01
-4.379600146469661559e-02 9.204667247913404793e-02 -7.617484874737773248e-01 -8.152107093963518736e-01 -5.791621794268174694e-01 1.633770814856124734e-03
4.473481213784669813e-02 -8.150504672219374691e-02 -7.657864762900550293e-01 8.969010530468192188e-01 4.280327577979308740e-01 -1.111596117994491095e-01
6.333848267495392759e-02 -1.165505339847948824e-01 -7.886333335515333109e-01 -9.240704408332899300e-01 -3.700793438004749691e-01 9.557771534399915614e-02
-4.012185631288282123e-02 1.162166686724072917e-01 -8.516579012150130579e-01 -9.210747467837241409e-01 -2.803551762727440888e-01 -2.702263606208262781e-01
-6.921061803351101840e-03 3.195345060255696396e-02 -8.435828941403854531e-01 -9.005308120995675347e-01 -4.276038418847337708e-01 -7.873506756654738425e-02
2.141783796427360748e-02 -1.953558988408162639e-02 -8.390228155467590598e-01 -9.053906844417772826e-01 -4.205237643783386048e-01 5.854461648282635600e-02
-6.154862739721615739e-02 1.036915816886297970e-01 -7.409499311345747463e-01 -3.593466280477084634e-02 5.604473940672115573e-01 -8.274100667095963813e-01
4.867056264514360575e-02 -5.757695671903166612e-02 -7.042513709885597217e-01 -8.945946870052768896e-01 -4.236236756233487943e-01 1.422790477663310460e-01
2.365062510748228500e-02 -3.706383521314685764e-02 -7.593985765580517633e-01 8.708213890955538439e-01 4.774838862652173166e-01 -1.169583115932968514e-01
6.270839325486955718e-02 -1.375257588649837770e-01 -8.084520610801593232e-01 9.306662338295449421e-01 3.475921494545536339e-01 -1.141930770541443041e-01
-6.506430673614854547e-03 5.861870107008613356e-02 -9.061191544573606871e-01 -5.586256498313495467e-01 -6.139491769828773204e-01 -5.576771390621546587e-01
-6.939364405050274520e-02 1.088442476697398797e-01 -7.219929360684772535e-01 7.529197067199633331e-01 6.525385265195261519e-01 -8.547155456904852178e-02
-2.583069176212956369e-02 6.896117085812500380e-02 -6.965880176169598759e-01 -7.923330168395997797e-01 -5.938560789899770542e-01 1.397975245578705339e-01
6.814752365774982834e-02 -1.461918997124049269e-01 -8.493885292658589492e-01 -9.425648725683508644e-01 -3.235383178863383002e-01 8.303263129328730674e-02
5.543631330506335053e-02 -1.358713919912910018e-01 -8.749271173534931556e-01 9.427628803261112189e-01 3.247881465549491420e-01 -7.556991025940848483e-02
7.698083256783336270e-02 -2.176922047236960200e-01 -9.730747466717731831e-01 -7.301608281892406627e-01 -4.078564180707909270e-01 5.481955009086321162e-01
1.688406534642273096e-02 -3.391497525661394535e-02 -9.504251709763884559e-01 5.403872647769937254e-01 6.802767766511994552e-01 4.951818971003414949e-01
3.262863695096838990e-02 -3.304909823076184611e-02 -7.150946206960351326e-01 2.055722191383635433e-01 -9.143040840745950693e-01 -3.489815246729323639e-01
3.586008482136233272e-02 -7.896289896448777101e-02 -8.467789159711466285e-01 9.214748580070337702e-01 3.852736096184917747e-01 -4.948062037257260071e-02
-5.104284630425750396e-02 1.305783247415359394e-01 -8.304799687734880642e-01 -9.155011489758438925e-01 -2.763725369547369026e-01 -2.923625609429367223e-01
-2.770370094246409759e-02 1.097076810366370420e-01 -8.895930294021442419e-01 -9.350400108428645884e-01 -2.405738685426105083e-01 -2.604311653727682252e-01
-4.139721081543305120e-02 7.984419171911319446e-02 -8.165018799787411297e-01 8.985184779457316973e-01 3.955601016016239702e-01 1.902544370336686219e-01
-4.304206407170202420e-02 1.136654288707134169e-01 -8.578569219468582530e-01 9.237869968797843834e-01 2.575669011945682096e-01 2.833317416119424670e-01
8.310554792489361839e-03 -2.294487222804860241e-02 -8.417958917437158295e-01 9.057291926231679779e-01 2.316703368123555762e-01 3.549415228899456265e-01
-2.348249868961348880e-02 5.467327370582648199e-02 -8.531618203711600623e-01 9.043028063370511793e-01 3.977699048758565614e-01 1.549694719161987810e-01
3.154094634196218105e-02 -6.098799951275114123e-02 -9.816574349318781811e-01 2.357278943830696041e-02 1.379320221509978128e-01 9.901611388372267841e-01
5.710100531561051324e-02 -1.523569073186391287e-01 -9.245063659460041050e-01 9.572345561247499468e-01 2.845670663309156079e-01 -5.218801893604724934e-02
6.853649891115254356e-02 -2.387272378007239126e-01 -9.750151364395985842e-01 9.879121925509311009e-01 1.419493114933604583e-01 -6.228878531302978194e-02
4.731968543093404561e-02 -1.038061572258279636e-01 -8.417044917414493455e-01 -1.923497418036999029e-01 9.560599480315393750e-01 2.212486216860574118e-01
4.964497258260746476e-02 -1.207830400843592639e-01 -8.822215905700937499e-01 9.406514577916275099e-01 3.333421917490302921e-01 -6.370100591386809730e-02
1.143661117538762040e-02 -1.466466159240477395e-03 -7.596232771488728996e-01 -8.659386936612504249e-01 -4.934986906007187701e-01 8.129711677312341511e-02
-5.886727256038049028e-02 1.154883544245796784e-01 -7.821876180020408409e-01 -8.765400664186975277e-01 -4.179261571024686095e-01 -2.387786405277236568e-01
3.396381067571070667e-02 -6.752831401912004483e-02 -8.782407188384977470e-01 4.329731009312381973e-01 -3.887223394669709342e-01 8.132829991271874892e-01
6.252670989683532798e-02 -1.933449807516900432e-01 -9.432557519553380621e-01 9.473867293068568562e-01 2.910484335537264489e-01 -1.332261027696074462e-01
1.321663666707446894e-02 -2.638248252861727719e-02 -8.223994335547331058e-01 9.010821691899379982e-01 4.319593324004573076e-01 -3.823688690396821049e-02
-1.264593737874535329e-01 1.739281447355304766e-01 -6.870447386153875069e-01 7.290362433666210951e-01 6.837227923239781457e-01 3.208269182265039571e-02
-2.452458267842960726e-02 4.169554738030817331e-02 -7.849187889853708189e-01 5.378221217585096303e-01 6.686905236093152460e-01 -5.134202459801077145e-01
1.049545814641188700e-02 2.068245452020081587e-02 -6.775951401412551034e-01 -8.387793369792326814e-01 -5.183271240026884330e-01 1.666919805502958540e-01
-3.468085259379534435e-02 6.511029030704557075e-02 -7.199468500805243920e-01 7.981291520959893360e-01 5.897779396900186821e-01 -1.230928041338477663e-01
-6.651518355402707972e-02 1.417164475936097956e-01 -8.106398040368274494e-01 9.095023621924180901e-01 2.458708873187178678e-01 3.351909305687100771e-01
2.340037254337814371e-02 -2.157136991147843089e-02 -9.745254109632655037e-01 -9.602511467590246763e-01 -2.771714519480648620e-01 -3.307145858560590901e-02
4.110389262408395417e-02 -6.878762249769307391e-02 -7.486921653820978184e-01 8.926693998764552163e-01 4.241562317090341039e-01 -1.524232056696128434e-01
-4.879856954612623449e-02 1.443266786550934933e-01 -8.587618455187503441e-01 7.939607087569239274e-01 -3.223901923876873465e-01 5.154521867277632730e-01
-6.015326042031204912e-02 9.629416847800949253e-02 -7.355940990190052986e-01 7.994614981607045534e-01 6.000452407678305011e-01 -2.840813247149408249e-02
-6.737358394934170325e-02 1.170970816468199505e-01 -7.273342977166595835e-01 -7.748052024141580674e-01 -6.320571634378655546e-01 1.344025516256119011e-02
6.309891152520699653e-02 -1.465165866333257849e-01 -8.328606047738073004e-01 9.364261894086547411e-01 3.354011087448501294e-01 -1.030149894059656790e-01
2.211805736630060790e-02 -5.956377848531440970e-03 -7.005724498071478346e-01 -8.539019487734714753e-01 -5.006101853828608395e-01 1.422705316353494731e-01
3.296686059969743815e-02 -7.589541764442477023e-02 -9.716254506163973792e-01 9.589386846932361763e-01 2.816541427048624424e-01 3.327976706641731092e-02
3.770629652585615055e-02 -3.792972960177468794e-02 -7.263908900711469885e-01 -9.437132934309457877e-01 1.549424045175489262e-01 2.922294835981437133e-01
-1.177530321504512284e-01 1.738043568444872233e-01 -6.977730881952961539e-01 1.795830440054425325e-01 -5.259900335821683370e-01 8.313148710795257301e-01
-2.731346965157618878e-02 9.207445302273953303e-02 -8.710237558706938055e-01 -9.278343855506365756e-01 -2.865010248010423921e-01 -2.388315636129884068e-01
-7.501304456270981025e-02 1.192433990517896419e-01 -6.875975376050031951e-01 8.806309559875679094e-01 -2.134137789748260794e-01 -4.230173498807184296e-01
-8.854546761661603871e-02 1.321584968199737975e-01 -7.297117942577121541e-01 3.426895982197880608e-01 -4.108504186217533105e-01 8.448465971940054553e-01
-2.565595658809254054e-02 6.461074823526195832e-02 -7.454345096345901256e-01 -2.650943735465124962e-01 -9.593380791502463811e-01 -9.692999023159708238e-02
-2.577026814965995699e-02 6.028687049575427032e-02 -8.540527828312132197e-01 9.102076982135646199e-01 3.829831719252634326e-01 1.576256201726995154e-01
-2.145839600654693424e-02 5.552445550417774156e-02 -8.676848456850102531e-01 9.244365185473961688e-01 3.375377233651352116e-01 1.774412817848513846e-01
-8.747581067459167525e-02 1.420163095604767278e-01 -7.189861738098068944e-01 -7.760848246122072913e-01 -6.249789368710779724e-01 -8.422394834093432925e-02
4.322567405356286981e-03 -3.482819443716597598e-03 -8.849090064817674017e-01 9.262773429663855307e-01 3.663448110995897178e-01 8.832759074908982933e-02
6.376112416250846737e-02 -1.350461777271271535e-01 -8.569254260818442992e-01 -9.448796007074207193e-01 -3.186633683090997482e-01 7.520769817567921067e-02
2.104477512697696187e-02 -4.353819247501775069e-02 -8.331898625859277541e-01 9.009291894950615109e-01 4.326595881923850917e-01 -3.364931293454661437e-02
8.114042554399747420e-02 -3.123556385292041715e-01 -1.029736402519318084e+00 -4.585900071982867282e-02 -5.000892826924659973e-01 8.647587301606809440e-01
4.379173775098197524e-02 -8.472905645021115706e-02 -8.917969540228596337e-01 -9.388006116685899682e-01 -3.435962974291281724e-01 2.439253827864752006e-02
-9.088547400943600141e-02 1.354358020042491229e-01 -7.039967689644557325e-01 7.216488886804987013e-01 6.857530061949410616e-01 -9.468735903383332375e-02
1.328734671472530000e-02 -3.226400026931854764e-02 -8.370729265048321155e-01 6.506505627138310377e-01 6.056902969649298196e-01 -4.580317777214918396e-01
-7.007816764401354759e-02 1.272284556812549039e-01 -7.020856039096974310e-01 -6.345864928456099729e-01 -7.699306948160925534e-01 6.713202125601104575e-02
-3.788966806241016866e-02 1.344234699501909436e-01 -8.758071340871682597e-01 -9.351358177878091871e-01 -2.390345917169900969e-01 -2.615023255212405862e-01
5.044421589027461850e-02 -1.113647980776583668e-01 -9.518787108079475034e-01 -9.599639804497005491e-01 -2.758183845659097355e-01 4.892213174646628526e-02
7.938698829785276190e-03 -1.436491473419110147e-02 -7.992826319387058565e-01 8.902570684879926866e-01 4.543818267642193431e-01 -3.129708474564602688e-02
-4.641125546860720187e-03 4.410756450582780513e-02 -9.059065847883586153e-01 -5.222546819994174916e-01 5.331612885090843967e-01 6.655742539829948567e-01
4.557776372509583784e-02 -5.168883195391687363e-02 -7.061350262153965884e-01 -8.892989040183701954e-01 -4.370051702747564382e-01 1.348107579715226156e-01
-1.269077399668242477e-02 5.406336716565600387e-02 -8.749615881862382594e-01 -9.208093196593551966e-01 -3.528027519357283537e-01 -1.662540677849778104e-01
6.644601821059274716e-02 -1.566998323993528675e-01 -8.367067544184038086e-01 9.290138061249518797e-01 3.519297895442757285e-01 -1.143624556423649130e-01
1.954141163394457203e-02 -2.171871097261524400e-02 -7.300226205817977876e-01 8.579314230289205589e-01 4.984312978637934211e-01 -1.245789496238656202e-01
8.797186596243251888e-02 -3.126445791902802140e-01 -1.019376729996127828e+00 -9.903016344963482265e-01 -8.423359958250381530e-02 1.104869830126394420e-01
3.016836456352205847e-02 -2.269262475576235005e-02 -7.079446417426483729e-01 -8.630638920821857019e-01 -4.817919991892336551e-01 1.516482367229851635e-01
-7.195633434065203116e-02 1.116304481304403323e-01 -7.324165801085992245e-01 7.918934177367923377e-01 6.093764404755589448e-01 3.956221351844956685e-02
-4.816486545526715152e-02 9.750579225893066249e-02 -6.982205184614236337e-01 -7.656021592960781108e-01 -6.272068462409750023e-01 1.430556035590089536e-01
1.628368787709874588e-02 -2.092153168717076489e-02 -7.761667419501977472e-01 5.301827005100905321e-01 -8.196272947008818033e-01 -2.170654322114452528e-01
-2.757358157095694817e-02 9.522109231267335272e-02 -8.737879407563314826e-01 -9.278343855506365756e-01 -2.865010248010423921e-01 -2.388315636129884068e-01
-2.750582537763285665e-02 5.250681150617769744e-02 -7.335010831333148573e-01 8.100968242078179227e-01 5.759227476276284063e-01 -1.098003833028397130e-01
-7.024996341388370195e-03 6.413098570634521989e-02 -9.258780358475554584e-01 -9.443269720096281183e-01 -2.764836841771755038e-01 -1.783349161520054460e-01
7.193088346139293876e-02 -1.721101242517578123e-01 -8.855912474295500880e-01 -4.724741333253221764e-01 8.794552848957075675e-01 -5.767664351794053734e-02
6.294130308202745827e-02 -1.635386867175523118e-01 -8.954941690060811421e-01 9.442557945050561452e-01 3.186657997291121869e-01 -8.266258299031463419e-02
7.183717638821277007e-02 -1.408171312767516892e-01 -7.850328494765945742e-01 -5.616065099681889494e-01 7.155315614703163796e-01 -4.154668608941042285e-01
-1.804149403961837969e-02 3.408956739878168940e-02 -7.635293588296482303e-01 8.356368083747554021e-01 5.460592368632382065e-01 -5.941745808758680525e-02
-1.323567643615317091e-01 1.922580253729503641e-01 -6.902081886659682253e-01 5.148330754945772414e-01 -6.570206417389424791e-01 5.507002639419585899e-01
-1.655716505931282764e-02 6.332224957271649635e-02 -9.049072287691602989e-01 9.458695736990802017e-01 2.616690871896953929e-01 1.919896829510155389e-01
4.268009614342076208e-02 -8.436651650421168880e-02 -9.357456556205895337e-01 -9.487390970248199551e-01 -3.159692416116408054e-01 7.587102997432619220e-03
2.208398283885936592e-02 -2.084566158749699694e-02 -7.133643262644741023e-01 8.607293430801234990e-01 4.836524160155427077e-01 -1.588248672065791789e-01
-1.286008828402530110e-03 1.252344390495437575e-02 -8.918498971586441559e-01 9.292543820610352778e-01 3.585020894191420782e-01 8.923309533167993191e-02
6.226935658818755215e-02 -1.514357027542058143e-01 -9.431777290576404127e-01 -9.639366153328174924e-01 -2.343948639748819895e-01 1.260366984767057330e-01
6.838122461754569947e-02 -1.725482135988464782e-01 -9.456664765723468147e-01 -3.279182414765507286e-02 -5.363539233156554564e-01 8.433558947520156668e-01
5.731511484760939273e-02 -1.127087953116478192e-01 -8.013547651678768480e-01 -4.100416120992210200e-01 8.661242466378299421e-01 2.858227872880734211e-01
-4.975989955979089746e-02 8.996367929051909962e-02 -8.095698854639450381e-01 9.565768705781954040e-01 -5.220535623139584830e-02 -2.867669636753494289e-01
3.794430800867793635e-02 -7.094819828138405893e-02 -9.638247299427055159e-01 -9.574278611089059865e-01 -2.886586710821608115e-01 2.839433307222988517e-03
1.579092565567355791e-02 -2.648244925560387653e-02 -7.800784585841024077e-01 8.765749023099855819e-01 4.735646504816557467e-01 -8.574941664189929258e-02
-5.631581706815418781e-02 8.996535832353259876e-02 -7.622719924965457583e-01 7.960578686645928270e-01 1.033261314931283870e-01 5.963351241440087991e-01
-4.948939885969729641e-02 1.111252699157864315e-01 -8.348993208840257418e-01 9.096434327904405759e-01 3.339043155478308433e-01 2.470966070988379892e-01
-5.488676292733619261e-02 1.111112666707483460e-01 -7.891387284958507609e-01 -8.765400664186975277e-01 -4.179261571024686095e-01 -2.387786405277236568e-01
-9.250766758522939448e-02 1.376684612416978204e-01 -7.229426887502934385e-01 7.897157060140836959e-01 6.029770538798862045e-01 1.129945846888689570e-01
-2.388526488535834894e-02 3.839597774767743166e-02 -7.990011550563862475e-01 8.371108430835388914e-01 1.018243748650127650e-01 5.374730068341253553e-01
5.345498516600282607e-02 -9.437173528519991750e-02 -7.982302098349285391e-01 -9.123388384966486520e-01 -4.002710450136673925e-01 8.614484485012655068e-02
-5.983153247140032133e-02 1.184721208383338192e-01 -6.699531601385888546e-01 -7.444968519959032083e-01 -6.427087362206558296e-01 1.806928824105622500e-01
-4.617236000044221828e-02 8.389690455525035395e-02 -7.027088068469368176e-01 7.672031802706843484e-01 6.158686462800311290e-01 -1.791789348995843356e-01
-3.706909371412049625e-02 8.288926026715419393e-02 -6.706347474401104236e-01 7.636028194885430276e-01 6.042127168371210777e-01 -2.276789996496216273e-01
-9.011914403711346680e-03 4.356816310694170552e-02 -9.133268222081343257e-01 9.391301990434401947e-01 2.871624112496128367e-01 1.886059882663757015e-01
-2.344406157044055805e-02 6.145156073890643833e-02 -7.592539854330028204e-01 -8.890202720670512537e-01 -4.571864830446676908e-01 2.496949288779433743e-02
-5.408138987282833446e-03 5.259086433159299023e-02 -9.147958070828086097e-01 -9.360703172864012211e-01 -3.083299590244730215e-01 -1.694254923655317269e-01
7.355665466400976293e-02 -2.227291232312490210e-01 -9.767389458626187793e-01 -3.451563953674906954e-02 -5.177603802416571588e-01 8.548291404013925732e-01
-5.820651190865662461e-02 1.158021848142258697e-01 -7.851625118732253883e-01 -8.765400664186975277e-01 -4.179261571024686095e-01 -2.387786405277236568e-01
6.276602869926013739e-02 -1.075032855275492860e-01 -7.918455409829707747e-01 -9.495367428289228640e-01 -2.962989215726827275e-01 1.028927747351833927e-01
-1.817637514722665604e-02 5.061073109045177709e-02 -6.896354301663668585e-01 7.951359372694064565e-01 5.722715526389995366e-01 -2.006591919221523412e-01
3.158199847764760898e-02 -8.072542797359884281e-02 -8.912962379859958872e-01 9.432957169166700240e-01 3.304414241213291525e-01 -3.164894423726168776e-02
1.952817631945323248e-02 -4.909303665270126071e-02 -8.532726884554334701e-01 8.914921218336538944e-01 4.439585150214445108e-01 -9.023654275559955806e-02
-8.870548893040529348e-02 1.575127131465194341e-01 -7.690602210806913863e-01 8.928378690223085501e-01 6.016301199024051694e-02 4.463417430937473562e-01
7.781611545835541432e-02 -2.068248629843429665e-01 -9.501625716054723503e-01 -9.348991858781515729e-01 1.771036339192999173e-02 -3.544712333503172719e-01
5.882495431355616589e-02 -1.504214362122954229e-01 -8.932204021778810121e-01 9.474872903864679508e-01 3.088189768211335173e-01 -8.305825733337354744e-02
3.236070074006115738e-02 -3.456304285839619655e-02 -7.004663086109785830e-01 8.619804233683101558e-01 4.722367712412162133e-01 -1.843425659403159500e-01
-1.449238193974104055e-02 6.224411913534996788e-02 -6.647633374396140216e-01 -8.081306645285548651e-01 -5.730968276512468096e-01 1.359590202403401227e-01
4.726847665605747768e-03 -4.370931610675771010e-03 -7.678583305924046032e-01 8.619322179592462385e-01 4.995061909813273138e-01 -8.698515284334429332e-02
2.449189895928855637e-02 -3.049311028658773307e-02 -9.320635565128280176e-01 -9.506386542832742093e-01 -3.081086682498302420e-01 -3.681300764405646270e-02
-1.217194979944357866e-03 2.000712160698250863e-02 -8.439412052276243914e-01 -9.005308120995675347e-01 -4.276038418847337708e-01 -7.873506756654738425e-02
-4.221258789690415097e-02 7.591527498597144819e-02 -7.158218909642762862e-01 7.865359876090881608e-01 6.069136693297204621e-01 -1.140917971483091792e-01
-9.569530606712459489e-03 1.790172028667346565e-02 -8.038832161654994035e-01 8.689276079017690391e-01 4.949389410644434717e-01 5.067979048443948522e-04
9.095421758354369987e-03 -5.194052130312281149e-03 -9.320595400509306128e-01 9.505015350293909426e-01 3.008428862906358248e-01 7.771994386958178125e-02
4.905220669135368361e-02 -1.143656128455889376e-01 -8.578136453885297774e-01 9.367779311350549198e-01 3.430092336936354513e-01 -6.922263603208778093e-02
-8.847473375682314914e-03 1.704739107928567726e-02 -8.192876443605071612e-01 8.868178673303470649e-01 4.619050496159715080e-01 1.406397251567867088e-02
2.195685837669449081e-02 -3.304582511380348836e-02 -7.358538068395990006e-01 9.425932903589939738e-01 -1.033230981045037827e-01 -3.175566506440887782e-01
-7.958023603489075559e-02 1.239502362846777034e-01 -7.078386753046213009e-01 6.211778727241641374e-01 -7.733760657901119773e-01 -1.265998076652981030e-01
2.011316855302306382e-03 1.249343543309289553e-02 -9.202093571669863747e-01 9.444465463807272254e-01 3.125294004096839662e-01 1.017157554613841441e-01
-8.302606573996633779e-03 1.998056151824552373e-02 -8.827575549667920907e-01 8.768621729137007215e-01 4.517668725586914680e-01 1.643758576300120289e-01
-4.234706603600579128e-02 8.787267701262549413e-02 -7.095000270404286935e-01 -7.941216018800409948e-01 -5.999146413037591552e-01 9.733090247634235137e-02
1.460844403282500654e-02 -2.396683816992907154e-02 -9.236030166568950373e-01 9.430176560680536557e-01 3.245849715021400517e-01 7.322770390274857544e-02
5.585111125563529955e-02 -1.308866802938930540e-01 -9.536448734827458473e-01 -9.611773406933669106e-01 -2.687808394450696414e-01 6.240977555504316487e-02
6.181003220595380349e-02 -1.017027396397395672e-01 -7.506301702326267922e-01 -9.151520165698758813e-01 -3.867077610366604912e-01 1.138151752715886034e-01
5.269087269343548929e-02 -8.820812191046634165e-02 -7.351353365634447634e-01 8.912918429919939323e-01 4.259616507366684734e-01 -1.554204707161414012e-01
-1.003660329801399527e-02 5.616720378356696713e-02 -8.946502543893677384e-01 -9.334676948190260282e-01 -3.293712905852523298e-01 -1.419599086624770967e-01
5.741397029221997905e-02 -1.329051081952780655e-01 -9.390901448792375872e-01 -9.588409838223848070e-01 -2.778068586901105141e-01 5.871385702927293948e-02
-7.141272428148998097e-02 1.226168347661893004e-01 -7.344717738170843946e-01 -7.994293505008884804e-01 -5.973879541791491388e-01 -6.356371417230279042e-02
6.364953024721910083e-04 -7.153894717610741714e-03 -8.495652529905656225e-01 8.715069255800593773e-01 4.776871697790053273e-01 1.108631881848815420e-01
6.181383792539509731e-02 -1.522363749372985797e-01 -8.661714912154176993e-01 9.438457712054749704e-01 3.191734940863111269e-01 -8.534307734243878896e-02
8.016645097109434404e-02 -2.908301179777891265e-01 -9.974128909339889937e-01 3.971524215778550471e-02 5.067389543187796885e-01 -8.611842611870342834e-01
1.652584744197712827e-02 -1.433859878240881930e-02 -8.911025400723291412e-01 -9.264962721677526547e-01 -3.752099527932303835e-01 -2.867314046558222876e-02
4.559541401176833708e-02 -7.593178481078390052e-02 -7.422679287841571494e-01 8.926693998764552163e-01 4.241562317090341039e-01 -1.524232056696128434e-01
4.003120389686977421e-02 -9.819380127300651739e-02 -8.533139089129614385e-01 9.128033791358695082e-01 4.034450954817285773e-01 -6.341960241026940726e-02
-3.476354555912215642e-03 3.663291323032186880e-02 -6.701281395184093270e-01 8.012107301224757894e-01 5.436375450207411308e-01 -2.500391680925828641e-01
2.434605940153821563e-02 -5.321008655768221657e-02 -8.932329681925330611e-01 9.342315095000977010e-01 3.563256066707328196e-01 1.560604651738124564e-02
5.458123886603062636e-02 -1.476288641217222697e-01 -9.457239322051834707e-01 9.590958650306330435e-01 2.813861942749907308e-01 -3.093430704862809924e-02
-1.396639529062033459e-02 6.087131934974086139e-02 -9.143306394162602491e-01 9.458695736990802017e-01 2.616690871896953929e-01 1.919896829510155389e-01
-1.273429629364799913e-02 3.792843409836917784e-02 -8.021619906669116284e-01 -8.742516432066991250e-01 -4.849043266591688828e-01 -2.349166527950313776e-02
-4.084408909475521071e-02 8.602878402695396387e-02 -8.152779798110166842e-01 -2.559514117078294237e-01 7.114499617814554755e-01 6.544675902792548294e-01
5.587949138823679329e-02 -9.566379893977335069e-02 -7.790386022053628068e-01 -9.127871324490479665e-01 -3.951743087169898305e-01 1.032323426329808252e-01
3.550555907479094331e-02 -8.518832789495033031e-02 -9.483228884151699845e-01 9.548181747530153363e-01 2.968685918951199931e-01 -1.383084623327439193e-02
-7.200603427848042450e-03 2.792486964797728788e-02 -8.926829866929629764e-01 -1.732969755906453024e-01 6.794846882813619926e-01 7.129296715962352149e-01
6.082971898715040793e-02 -1.528544423651151951e-01 -8.790836106769355229e-01 9.473244083763656676e-01 3.101453188596572375e-01 -7.991461996287062275e-02
-4.470311188247015448e-03 2.461269915173616013e-02 -7.677946044220054223e-01 -8.557201339829598741e-01 -5.149361108239635110e-01 5.083162466099248877e-02
-3.776147840706264858e-02 7.640667681061988348e-02 -8.036125490364830481e-01 -2.559514117078294237e-01 7.114499617814554755e-01 6.544675902792548294e-01
-7.770624243821755428e-02 1.444929338044709799e-01 -7.532267548539542945e-01 -8.997871276939924945e-01 -3.821571428342186438e-01 -2.105683808575758709e-01
1.569504179151397227e-02 -1.027514719796253362e-02 -7.677358983577377005e-01 -8.659386936612504249e-01 -4.934986906007187701e-01 8.129711677312341511e-02
-1.057302895043305407e-01 1.517825043403520646e-01 -7.020291807751372071e-01 7.450963480466923361e-01 6.667202807183703062e-01 -1.776230295596694861e-02
8.415866277606758039e-02 -2.604405421396004949e-01 -9.833566529048520799e-01 -9.416575065108282461e-01 9.256959526748632927e-02 -3.235923522950178710e-01
2.835654317313569817e-02 -3.914725477137971643e-02 -9.665488263871828689e-01 -9.579200042986092400e-01 -2.861790106413137913e-01 -2.215489185058710023e-02
2.881251703406919468e-02 -3.386777237583776801e-02 -7.612899505265278144e-01 -8.817449313914192954e-01 -4.628737039951185683e-01 9.096048656081576200e-02
-4.162570230881362798e-02 6.901003462968514912e-02 -7.950829228692974926e-01 3.674485119560544355e-01 7.913068556349476257e-01 4.886870688757921077e-01
2.279021437383928553e-02 -3.086487178197459477e-02 -7.411291306994419736e-01 8.723808895335142255e-01 4.695266960340504503e-01 -1.360009753202618965e-01
4.936456685977059534e-03 1.820556856081599617e-02 -8.664654683489924070e-01 -8.786414952873105033e-01 -4.542723449115372292e-01 -1.470569937400200977e-01
-7.834707204502879690e-03 5.085176818992785674e-02 -8.967962616107831852e-01 -9.334676948190260282e-01 -3.293712905852523298e-01 -1.419599086624770967e-01
7.317708382086724264e-03 6.061749645170129951e-03 -9.481353524153387502e-01 9.562661490359132266e-01 2.729301745347004760e-01 1.051863681114740684e-01
2.020155237376855680e-04 2.331162140389986953e-02 -6.893786874455456459e-01 8.308884411251530322e-01 5.288463836663828133e-01 -1.730488396020092856e-01
-1.030997985132449946e-01 1.523158749045995519e-01 -7.211537182649737643e-01 8.141804090065207777e-01 5.572552932228770350e-01 1.630239239040083832e-01
3.446576975519666242e-02 -6.421814476286472062e-02 -8.566906266148852644e-01 -3.936562507142316036e-01 3.903865032577228944e-01 -8.322458376872916563e-01
3.832831192739995924e-02 -6.769166265774208269e-02 -8.961807013073098682e-01 1.339013329591376700e-01 -7.191853897631546033e-01 -6.817938164745890317e-01
2.648648439088148107e-02 -4.580539724085321007e-02 -7.731828431325369344e-01 8.901973649391926591e-01 4.456592188515698383e-01 -9.453312703981761600e-02
5.285003957432197336e-02 -1.023485173467352516e-01 -7.966829209157640923e-01 4.514104245934129067e-01 -8.433021832821849806e-01 -2.916677154569810582e-01
3.189223451701991841e-02 -6.241992239029168360e-02 -7.996394634428409809e-01 9.023981908347035175e-01 4.227544883598986503e-01 -8.340352360550597199e-02
3.800722241950805352e-02 -6.967604994083284597e-02 -9.075843573007547072e-01 -9.405766224484685134e-01 -3.395547879211497366e-01 4.261842706331115185e-03
4.085474482936615748e-02 -8.194984483925156493e-02 -9.751297333635619013e-01 -9.603371509373863635e-01 -2.461763018996684649e-01 1.309571873264951392e-01
6.177135178114739888e-02 -1.659725767797697316e-01 -9.184273341409309177e-01 9.507907626642357890e-01 3.000933150754852008e-01 -7.707741484615455996e-02
-2.987883698277010724e-02 7.332095097375372628e-02 -6.714687662742084839e-01 7.736853061405081222e-01 5.828668470255552458e-01 -2.483491205958982539e-01
2.050809602938413745e-02 -2.066643346346074342e-02 -8.244027096392578802e-01 -9.563237102280353064e-01 2.627712045943622621e-01 1.280478632844464781e-01
-5.461426677600140361e-02 1.398147878976435665e-01 -8.419791201646108503e-01 9.205231167613050491e-01 2.042526492594372300e-01 3.330436109258870792e-01
4.389635328142599269e-02 -8.886516426060374341e-02 -9.438697392243967643e-01 -9.536322323511835508e-01 -2.995914853618379392e-01 2.881852389671420850e-02
1.972085024411439694e-02 -1.483785680217843995e-02 -9.417903134119786079e-01 -9.417142034389404115e-01 -3.307389572113107468e-01 -6.153130279895441257e-02
7.701632537284340552e-02 -2.208779372270866515e-01 -9.565700530170541116e-01 -4.199156045159458950e-01 4.329322512789942623e-01 -7.976468835810175406e-01
-1.261926901639149889e-01 1.776816806686663808e-01 -6.868841190492077642e-01 -9.813426135180947085e-02 5.280750318785925046e-01 -8.435084039032202385e-01
