2.871650833614404486e-02 -1.842761741399816522e-01 -8.454259485718631506e-01 8.795339875031069621e-01 1.957458391535964268e-03 4.758320430399043954e-01
6.976503982994852401e-03 -8.371576094493730913e-02 -7.986351343788090640e-01 -8.716307293437096648e-01 -8.195949287761158941e-02 -4.832623647574858516e-01
3.056862136960178736e-02 6.285690334025524628e-02 -8.610192847970097318e-01 -7.136699605911200894e-01 -6.753714132801622028e-02 -6.972187044902830033e-01
6.443373116306115589e-02 -2.385674580769923392e-01 -9.054930003619009460e-01 2.517901864819021007e-01 4.575817053278005142e-01 -8.527723523547833251e-01
-3.015233713951012348e-02 -4.653657915811103274e-02 -7.365721497723681788e-01 -8.907403444900616751e-01 -1.243660037961356185e-01 -4.371667139633412247e-01
-3.237641334015743666e-02 -5.865901561378679407e-02 -7.285919141597952953e-01 -8.907403444900616751e-01 -1.243660037961356185e-01 -4.371667139633412247e-01
3.971666939154831766e-02 -5.113760031819707813e-02 -8.570168190960359977e-01 -8.292654660088326635e-01 -7.306969518362323168e-02 -5.540574036423717708e-01
8.780564704636975581e-02 -1.034295308491371412e-01 -9.281864394082653957e-01 -8.402177477761452185e-01 3.588076622372080027e-02 -5.410607238907482186e-01
-1.911018739241666931e-02 -2.601204020856555735e-02 -7.854646478208258120e-01 8.465366711069829408e-01 2.687841277909549520e-01 4.594896703069215049e-01
2.586650906514311246e-02 -1.681344274595163168e-01 -8.401350116570698301e-01 8.786368800708445059e-01 -5.420905308200232864e-03 4.774597854950840548e-01
2.704209222809382876e-02 -4.765889230888505773e-02 -8.381986895313504604e-01 -8.385222106095540084e-01 -8.027048434231029428e-02 -5.389222129935986594e-01
1.254619173322191455e-03 -1.180604292447130776e-01 -7.994998319252730745e-01 5.965422506819364479e-01 6.729631323778159091e-01 4.373304992926608237e-01
-6.975430072651689697e-03 -9.412953023633201244e-02 -7.849355773547519455e-01 8.806494047839552586e-01 8.356626278430952237e-02 4.663403323517376076e-01
-3.070157064065743083e-02 1.239335979258719411e-01 -8.071190685554024968e-01 -7.294597523840685716e-01 -2.089375898253489350e-01 -6.513321373997656982e-01
7.594665574405858044e-02 -1.560944405474932462e-01 -9.137480871097505286e-01 -8.866259533060935061e-01 8.884567534992453275e-02 -4.538731815118365875e-01
9.135249366368498880e-02 -2.170662341893492275e-02 -9.348823327889669299e-01 5.122266324087252354e-01 -8.195639607105373869e-01 -2.567854967782911557e-01
3.488657294347539961e-02 -1.911362600772757436e-01 -8.469139250897625981e-01 -5.496266511913733277e-02 9.721911728727578028e-01 -2.276475979036317321e-01
2.536104747241941029e-02 -4.506389244352063117e-02 -8.359504428291268940e-01 -8.446240317815405518e-01 -8.618545710209628286e-02 -5.283770546884087871e-01
-4.314091675688046246e-03 -1.206732970841404573e-01 -7.725934420556267446e-01 -8.835445953047049716e-01 -5.034374521948566800e-02 -4.656333916560541630e-01
-7.004285580060243266e-02 3.195788890736210586e-02 -6.921014921036013900e-01 9.351724726504833107e-01 2.185659677861185590e-01 2.787137673716507669e-01
4.191928427531100426e-02 1.119512344313457336e-01 -8.737414778730495657e-01 -6.529150677526391888e-01 3.479123415298747413e-02 -7.566316701854862714e-01
-2.646554735786237414e-02 -1.201547435683112015e-02 -7.557534653639604860e-01 -8.698255489017722164e-01 -1.865355201616051284e-01 -4.567362632808675826e-01
5.614502333047589888e-02 9.874236707078515307e-02 -8.926918687730951429e-01 6.313181227799377071e-01 -9.120631328422403039e-02 7.701420883620860858e-01
6.599265380714650076e-02 2.343534528618506155e-02 -9.066409813265590145e-01 7.308945687317979223e-01 -7.327428988017594368e-03 6.824510518585085173e-01
-6.954456869358131843e-02 1.813303199810601118e-01 -7.933844235773330755e-01 5.913065945515435518e-01 1.160066205764250236e-01 7.980595060659911866e-01
1.608172976999015097e-02 -6.631665887511849211e-02 -8.310041300009054499e-01 8.576694485407982960e-01 9.478490400679785710e-02 5.053898881182179448e-01
8.810178864095127849e-02 -9.805171806790684286e-02 -9.282719501917765514e-01 -8.397086237989236368e-01 3.833197575704007376e-02 -5.416826439459543341e-01
-2.537323104590922390e-02 -1.215814977308869865e-01 -7.420770046914594298e-01 9.213484251640731149e-01 1.025944838719762137e-01 3.749552657674313227e-01
3.174773426100539059e-02 -8.669940538415726872e-02 -8.539472972646927618e-01 8.521700795145144003e-01 6.279977545822114371e-02 5.194827656261783444e-01
6.501510409616635677e-02 -2.822023135440031028e-01 -9.435642506567810672e-01 8.423522852991087717e-01 -1.815707587324961181e-01 5.074196360259174421e-01
-9.209666550909126337e-02 1.953201400988514580e-01 -7.780534000334793365e-01 6.791589835441934619e-01 2.743876938091415751e-01 6.807749030019532022e-01
7.440271326101421945e-02 -6.697496972783202607e-02 -9.182800717898265130e-01 8.149707547796075646e-01 -1.817609480561075894e-02 5.792169700825195999e-01
-6.357095994953902707e-02 1.595331148785764791e-02 -7.002839417644483033e-01 9.184605155795295683e-01 2.042855101712645338e-01 3.386705060312321103e-01
-6.098687394387482946e-02 9.863733134418826987e-02 -7.474147413990226418e-01 -8.568462478695217932e-01 -3.078187972360264535e-01 -4.135965371954751224e-01
2.750536187926033369e-02 1.325491383701553061e-01 -8.664675327418839279e-01 6.132031173116651024e-01 -6.078230482017550618e-02 7.875832961281007405e-01
-4.073487957815309472e-03 -8.244069217532389027e-02 -7.786619218248430618e-01 -8.753400829264376126e-01 -7.869672106595239358e-02 -4.770603371857746744e-01
-7.034974203907021217e-02 1.571457860176533328e-01 -7.901392157597344479e-01 6.903445148632904038e-01 2.365717270157230434e-01 6.837091989837245087e-01
-1.239251893241834213e-02 -8.412939350125875348e-02 -7.763686144343858730e-01 8.947646087969134410e-01 8.155773536070395902e-02 4.390269133519492661e-01
-1.056733689829162798e-01 2.259795440743316286e-01 -7.741242217790843538e-01 4.992597677125421018e-01 5.151082460339189567e-02 8.649198340264240281e-01
2.712284510707368285e-02 -1.004991670251490082e-01 -8.348309060972575191e-01 -4.252557483966528523e-02 -9.789911052951034698e-01 -1.994191345824864459e-01
6.142455618438451281e-02 -2.477923153460579175e-01 -9.116466832207372750e-01 6.802987810425699111e-01 3.821762788114980713e-01 -6.254077553291049751e-01
4.378095450274953337e-02 -1.604473186956163755e-01 -8.782822776655583308e-01 9.831373657448064796e-01 1.827187492879512876e-01 -7.401265770753187589e-03
5.814178848145513945e-02 -2.243871634281799643e-01 -9.129344897841435991e-01 8.389610284967164988e-01 -9.005802755514519253e-02 5.366879394365111633e-01
-6.084437860614417409e-02 3.387750029967379756e-02 -7.182049615654910735e-01 9.044527677650976427e-01 2.213793255954675243e-01 3.646318486925549385e-01
-3.997070576031735989e-02 -4.896189217976774227e-02 -7.150119010504115691e-01 -9.036665470286798785e-01 -1.124434013620999179e-01 -4.132109065252080882e-01
4.560630285754142116e-03 -1.112775798421238166e-01 -8.103676796270705696e-01 8.626518026977553211e-01 1.136849393259383584e-01 4.928565733281543570e-01
5.635478903526363464e-02 -2.270308625617611098e-01 -9.097500724188577470e-01 8.972801771688441175e-01 -3.546405559998876134e-02 4.400347536504912171e-01
-5.559393950023513303e-02 3.910085880245250944e-02 -7.340303753231811612e-01 8.889118485281574111e-01 2.336088740226022198e-01 3.940337796739587506e-01
-2.403652680198556033e-02 2.840826629019112259e-02 -7.772052456717828406e-01 -8.519402067567456438e-01 -2.131260103817332330e-01 -4.783044927763474008e-01
-5.581274570455015127e-02 4.365442207879797337e-03 -7.137629758445539485e-01 9.042459332558474561e-01 1.962584939335815515e-01 3.792385736567204235e-01
-1.229081120365035397e-02 6.315141232643137204e-02 -8.217834622020309121e-01 7.846347747306721132e-01 1.916275700952594641e-01 5.895991389603055799e-01
-2.636058531014539436e-02 -1.056488670859493662e-01 -7.431974421681299958e-01 9.050839180252614469e-01 8.713105055794469200e-02 4.162106213934365639e-01
1.281466099998378703e-02 -1.156452292953268485e-01 -7.984806792654440821e-01 -7.453636226325439651e-01 6.057846307966057164e-01 -2.783128655788491002e-01
1.728958317781090779e-03 -3.903467167820469375e-02 -7.988488448338789683e-01 -8.589531517191388854e-01 -1.297874164380881379e-01 -4.953329281262090489e-01
2.012666631450618637e-02 9.851083674074945229e-02 -8.617839880984908829e-01 6.934589783938096552e-01 4.958126389580968379e-02 7.187881075501373340e-01
-2.113091948430342176e-02 -9.459601598671719958e-02 -7.434251183450467648e-01 -8.946578433328841173e-01 -7.160154329334805778e-02 -4.409768274648491748e-01
1.085534365045249215e-02 -5.456028123099677940e-02 -8.106650266041247610e-01 -8.548101511049388535e-01 -9.210095655847992668e-02 -5.107024763685452662e-01
-5.847094406090987823e-02 9.681121913436895043e-02 -7.512679008739133746e-01 -8.568462478695217932e-01 -3.078187972360264535e-01 -4.135965371954751224e-01
7.326761201594889084e-02 -4.392527690992464873e-02 -9.163950185781464253e-01 8.039736966407630137e-01 -7.729457532080989852e-03 5.946146235975415806e-01
2.135018002093856584e-03 5.466791064823344620e-02 -8.261772216752173437e-01 -7.744590290027150159e-01 -1.483588331941117222e-01 -6.149820070615509282e-01
-9.497863014652125485e-03 4.944022574990032670e-02 -8.039537214749054028e-01 -9.170791161469585839e-01 -3.972749875927041874e-01 -3.374135386035986839e-02
4.894133158366038155e-02 -1.274138002009883863e-01 -8.599275378234033651e-01 -8.224409833085772892e-01 3.108276517346074755e-02 -5.680006079957941045e-01
-2.707543923965466739e-02 6.664763524794876937e-02 -7.893078509543075549e-01 -8.238596213218587483e-01 -2.249090955154874338e-01 -5.202607260881879636e-01
8.674670944713816501e-02 -8.416593989875724782e-03 -9.314555681697486156e-01 7.425198868296887245e-01 -5.675961533136221482e-02 6.674148363123656447e-01
-9.837305811142817158e-02 1.842264129471572476e-01 -7.469636626855800099e-01 -8.315147578257079397e-01 -4.234423144708860387e-01 -3.595550219835531025e-01
-4.626548205825797150e-02 -5.914353803965560069e-02 -6.990332252852683448e-01 -8.639171091911532763e-01 -6.108021061499208787e-02 -4.999164293339727339e-01
-1.907814211891083536e-02 8.359413621829020133e-03 -7.776187048384995970e-01 -8.600886001099343758e-01 -1.776554708135866245e-01 -4.782113901309085757e-01
-5.788373265740048151e-02 -1.651368365461241411e-02 -6.977837578075626324e-01 9.285031299324593146e-01 1.746520701145483356e-01 3.276867286148908986e-01
-7.825291531364378383e-02 1.477724049991562816e-01 -7.448154849724132331e-01 -8.766025382430004953e-01 -2.812002921444785031e-01 -3.905052952826488233e-01
3.844037814060587144e-02 8.529424427816142615e-03 -8.628325812366615111e-01 -5.825133044863780585e-01 7.421997244908976610e-01 3.313877171260212195e-01
-5.592910817545650864e-02 -7.708006630772884765e-04 -7.108274844184114816e-01 9.042459332558474561e-01 1.962584939335815515e-01 3.792385736567204235e-01
1.932970653947364142e-02 1.807525213548192775e-02 -8.398971337063609877e-01 -7.875838282020272141e-01 -1.300622166300057503e-01 -6.023251060348797647e-01
-2.349123044125931217e-02 3.025610008342069154e-02 -7.789998793234924612e-01 -8.519402067567456438e-01 -2.131260103817332330e-01 -4.783044927763474008e-01
5.364414328585791897e-02 -8.461592025934176753e-02 -8.753572540159497706e-01 -8.363584452498011856e-01 -2.581133112312260919e-02 -5.475749503446878386e-01
-4.573731706901062143e-03 1.977255400788827805e-02 -8.059548829169570494e-01 -8.183183116842526195e-01 -1.869472854290681885e-01 -5.435125143296487549e-01
-5.777614404438171508e-02 1.412936837279378521e-01 -7.934218677426780886e-01 7.353524266790141262e-01 2.685823479355191057e-01 6.221899476484079594e-01
4.566898343228666113e-02 -1.126363770077605519e-01 -8.673234836998687802e-01 -6.547774675650465115e-01 -4.248526078079086221e-01 6.251133734035162481e-01
5.398482592804787483e-03 -2.118637488893562043e-02 -8.288448488761038790e-01 8.464827417737967874e-01 1.408918811217162170e-01 5.134359217206171389e-01
-9.099919936649919494e-02 2.109445636755991060e-01 -7.749808100599804295e-01 -6.056913174391697074e-01 -2.134559759810092383e-01 -7.665341312014732900e-01
9.467690878241653840e-02 -2.480041035467211649e-02 -9.412559649028309217e-01 5.977658765120670292e-01 -8.189733570854047795e-02 7.974765095484647182e-01
1.959891058366002373e-02 -6.858537863032190818e-02 -8.227506572430978160e-01 -8.540944958822005439e-01 -9.242450512391223172e-02 -5.118401146416033942e-01
-4.506045580490573160e-02 1.112062419926624912e-01 -7.924251920877567468e-01 -2.969456437245657221e-01 -3.941436590763989223e-01 8.697551728405358284e-01
-3.542449328395685243e-02 7.844675514570752239e-02 -8.006508634721397621e-01 8.321101422273320392e-01 1.767265035190176414e-01 5.256999659086464272e-01
-4.668442061977193941e-02 1.133596222214474786e-01 -7.828359115024924320e-01 -7.933705307065959111e-01 -2.910993056470600471e-01 -5.346254719503494846e-01
-9.881918849931723911e-03 -4.919351822841790123e-02 -7.753636187119401502e-01 -8.709103322688228621e-01 -1.342536010932963153e-01 -4.727485206120591310e-01
-5.856226970584223201e-02 1.280106597152318171e-01 -7.729934150325838971e-01 -8.056581384234786647e-01 -3.010634214506539563e-01 -5.101723044780466232e-01
8.165280439775286087e-03 9.538306979383377737e-02 -8.417721040646040098e-01 -7.332524640779888303e-01 -1.215414203566746454e-01 -6.690056106350975584e-01
-9.268362052549311558e-02 1.775868259507405733e-01 -7.677199690899996209e-01 7.963014604522595796e-01 3.944683481643205814e-01 4.585833690596625711e-01
-6.618512208051807733e-02 5.998221067886309876e-02 -7.279885601456187461e-01 5.238352900897830233e-01 7.724168273814322472e-01 3.591223101320160649e-01
-6.767197483778485123e-02 1.275114699930040285e-01 -7.716266176616254358e-01 8.230633247233845040e-01 3.134049721454252868e-01 4.736497513245561675e-01
5.546575079928899032e-02 -1.083134274062990537e-01 -8.906456605939055970e-01 8.421787692001027059e-01 2.879925002052200617e-04 5.391983287890642629e-01
5.567369758304217819e-02 -1.158514212930947113e-01 -8.776090618741917426e-01 -8.523912264264479344e-01 -5.152823679024447732e-03 -5.228791882637410238e-01
-5.049636950725665437e-04 -7.050732987056844425e-02 -7.876076930591495717e-01 -8.714087054127562793e-01 -1.037230043857463729e-01 -4.794667939409969493e-01
8.927613986253093992e-02 -3.519920192707570034e-02 -9.362826891822034758e-01 7.718412017961152616e-01 -3.658170844630604518e-02 6.347621112015729983e-01
3.926470786889089265e-02 -2.530709696170189288e-02 -8.718901718316983684e-01 8.161540876628045060e-01 6.390145827828656866e-02 5.742900911744892589e-01
2.482525772019334928e-02 3.009307565507060231e-02 -8.496464007176163236e-01 -7.870610061489433651e-01 -1.255120313613947713e-01 -6.039716074314661620e-01
-4.181500355994714063e-02 8.092876555398763327e-02 -7.726723345993712355e-01 -8.270242314112579152e-01 -2.692543131164603087e-01 -4.934906640725853499e-01
-6.120389817227355617e-02 9.098037296944984018e-03 -7.025682256956566896e-01 9.184605155795295683e-01 2.042855101712645338e-01 3.386705060312321103e-01
-5.237014934682511502e-02 -4.609332653261213886e-02 -6.983796837017126613e-01 9.460000419030979435e-01 1.742281167560283395e-01 2.733651112541335970e-01
1.242633643473373909e-03 4.398947891304561680e-02 -8.220335105886450444e-01 -7.972652658944349158e-01 -1.723006635816383969e-01 -5.785158399971458421e-01
-5.859589482946831601e-02 1.508307744931461913e-01 -7.958801675677574794e-01 6.778698020732913943e-01 2.039948067790189612e-01 7.063134221040310301e-01
4.902037946681675690e-04 2.766533100355251379e-02 -8.161575732104930925e-01 -8.115229245770227973e-01 -1.823734965968972777e-01 -5.551310211337294742e-01
1.203454436130067459e-02 -1.026052168924275754e-01 -8.047585784258302066e-01 -8.759421287492766828e-01 -4.749146642008821723e-02 -4.800728566576693557e-01
-7.274410116061083564e-02 1.184438575108006236e-01 -7.545917625961573449e-01 8.656077132390418427e-01 3.304928910078515081e-01 3.761618478452444791e-01
-1.903578129777784567e-02 3.981567256329261034e-02 -7.904557983244375752e-01 -8.400365891795061879e-01 -2.022121813247658717e-01 -5.034369499386607272e-01
-6.869900810115264767e-02 2.148048426955095208e-02 -6.860466945903072045e-01 8.486370905525840724e-01 1.790215312381096824e-01 -4.977613684202579214e-01
6.233327399455960982e-02 -2.485417442692980095e-01 -9.271707909538494663e-01 8.543464168043947149e-01 -1.707533091732487407e-01 4.908518182709283306e-01
-1.017332233624113486e-01 1.978607309673137693e-01 -7.552492974497259093e-01 -8.010866146960484713e-01 -4.408958297037934293e-01 -4.048099592458519469e-01
-4.239581286703003604e-02 1.817073961746105276e-02 -7.516277753109283921e-01 8.803438684692365124e-01 2.150664524608724149e-01 4.227778308692577980e-01
6.068186572951236174e-02 -1.658469253574181360e-02 -8.897818531993865188e-01 -7.830695629335353569e-01 -3.096421487624463967e-02 -6.211628425817012911e-01
-2.859786784074230467e-02 -1.119830487262733071e-01 -7.368001044637789709e-01 9.206351488483909273e-01 1.062234028068860248e-01 3.756960359133788563e-01
1.084305553233315747e-02 -7.649411864172472875e-02 -8.064584252891923155e-01 -8.647527462552458966e-01 -7.369400289752543742e-02 -4.967613932069899763e-01
5.616268104751704487e-02 3.415890315067315192e-02 -8.825917983520730203e-01 -7.966245335253444582e-01 6.927302757217066592e-03 -6.044347483906241658e-01
7.390446470480806218e-02 -1.179083375559955293e-01 -9.194759312926169548e-01 8.332307365644340269e-01 -2.839314695428121413e-02 5.521959514975849359e-01
3.488661400158758752e-02 1.415479610597011328e-01 -8.701388270425183258e-01 2.813964907582252040e-01 -4.561418468483592892e-01 8.442455984740009356e-01
1.159413858037906808e-02 2.340447480824166954e-02 -8.306735052601790237e-01 -8.050322412330448429e-01 -1.476733015517940339e-01 -5.745569480774672666e-01
-6.216469111099491573e-02 1.496746585161612131e-01 -7.861641700804297139e-01 -4.403958551991277726e-01 7.554008583880791328e-01 4.852020546844191817e-01
2.119251194348319395e-04 -1.527479819929120908e-01 -7.794421426206152859e-01 -8.770066015182735875e-01 8.969261428266062444e-03 -4.803946015962289318e-01
7.104717381974104407e-02 -6.337293103098132208e-02 -9.135259572695026975e-01 8.056933563994158609e-01 -3.721260717795991723e-05 5.923328574957372750e-01
-2.632396218848881073e-02 1.007148402185536334e-02 -7.793321751315165358e-01 8.635069436446376479e-01 1.853384390124409864e-01 4.690473550740139608e-01
2.035433200625935690e-02 -1.038996992321903345e-01 -8.167651783550924360e-01 -4.274013639302967626e-02 -9.787787883217894391e-01 -2.004129842910257753e-01
-5.650501588106762035e-02 1.350077738245406000e-01 -7.922343235069888578e-01 7.472433631901611584e-01 2.425916770065345285e-01 6.186894490901023724e-01
2.740418084071400556e-02 -1.107010049336650953e-01 -8.240032919168367442e-01 -8.663984272107879692e-01 -9.309937920771015757e-03 -4.992665524372568164e-01
8.867705575500009485e-02 -1.078668477390257452e-01 -9.299699266047164459e-01 -8.596398315516555755e-01 5.583240539993777896e-02 -5.078406270840273296e-01
-6.351583512658617869e-02 1.625407602349691338e-01 -7.818523633848152299e-01 1.078656865680655691e-01 -7.680462999891418674e-01 -6.312447027375270858e-01
9.525089710578374391e-02 -6.626000381665540784e-02 -9.370564093754034651e-01 -8.724548348461578229e-01 4.754363691338806680e-02 -4.863765657827393007e-01
-4.927107361609080367e-03 -6.925900713026723887e-02 -7.798309317787679440e-01 -8.775003999474175753e-01 -9.767523844584966031e-02 -4.695237969333064254e-01
-5.158585414798836505e-02 6.404845073640601098e-05 -7.216622720843369754e-01 9.069434752725701321e-01 1.873573176017744313e-01 3.772940076407000354e-01
-2.153911430591513160e-02 2.777150924393068446e-02 -7.952730966128502832e-01 8.404922306795987730e-01 2.045141647959431708e-01 5.017437259847399300e-01
-3.862532462066927547e-02 -2.117309735429748555e-02 -7.276063608467936428e-01 -9.019906889052461407e-01 -1.432221597050355455e-01 -4.073084949981581881e-01
1.003479096268246329e-02 -7.452040289341373136e-02 -8.192205175665603356e-01 8.609657017323716355e-01 7.027247905309218223e-02 5.037855090494537391e-01
-7.861801159232183200e-02 1.703236459555770854e-01 -7.775301027854237823e-01 -3.364500235534305661e-01 -3.982754209203457352e-01 8.533335049918158166e-01
7.666963135376961280e-02 -4.150058589508839185e-02 -9.257285791316803847e-01 8.084474978368715314e-01 -1.041815386927693737e-01 5.792744170398935744e-01
-9.481979556300901280e-02 1.464170867468526649e-01 -7.334464462799560325e-01 9.389904156518128486e-01 3.401491739195084962e-01 5.094643064937864202e-02
-7.322883187643620777e-03 -9.588390262981733025e-02 -7.702658416246870310e-01 -8.788409540818536980e-01 -8.349582597455058874e-02 -4.697520883118292967e-01
3.629631216781313563e-02 1.385678243494209705e-01 -8.677196202471089137e-01 -6.331759857805896452e-01 3.330030088619437278e-02 -7.732911877111153798e-01
-3.048876967279839575e-02 1.644969278468184568e-02 -7.744043544392836820e-01 8.561573930117144515e-01 2.168645667468765137e-01 4.690034947429222445e-01
-1.922915779527318778e-02 -1.057525772613604198e-01 -7.454719356604114777e-01 -8.946578433328841173e-01 -7.160154329334805778e-02 -4.409768274648491748e-01
-3.524394382399120319e-03 -3.458339570960800025e-02 -7.907957162150622832e-01 -8.632654310362998240e-01 -1.262775747953418515e-01 -4.886990584004825555e-01
1.306676827428789045e-02 -1.591034932131176610e-02 -8.231322099126013869e-01 -8.356892874383258230e-01 -1.345743108439454438e-01 -5.324595474979297860e-01
2.545325473867956698e-02 -8.751068524356434009e-02 -8.298720203540810303e-01 -8.579349608382308423e-01 -6.773402626401626991e-02 -5.092737030885936544e-01
-8.890534661810799155e-02 1.917795338058641830e-01 -7.696284646075686187e-01 -7.127583087284672381e-01 -3.128235129413741711e-01 -6.277874187091937452e-01
3.222299574038497809e-03 1.716992302917774993e-01 -8.412605756606250651e-01 1.109626693070275977e-01 -6.747816451091783740e-01 7.296279993558432153e-01
9.980506820629692771e-03 -8.847509733154480804e-02 -8.031795520357940532e-01 -8.647527462552458966e-01 -7.369400289752543742e-02 -4.967613932069899763e-01
-1.203818407524008885e-02 -2.555759384993110117e-02 -7.712263515971393701e-01 -8.435225367166789834e-01 -2.432306832350298043e-01 -4.788617386929962527e-01
2.159515549571120255e-02 1.150706134319529061e-01 -8.559051736251428455e-01 -6.514284603242451732e-01 -4.433200754298479568e-03 -7.586971120352675735e-01
1.556373570639395763e-02 1.093133867137760507e-01 -8.501380060296667152e-01 -6.860179620548202406e-01 -6.493455562021582805e-02 -7.246812121371412063e-01
-3.493759560021122978e-02 -7.309913073231577574e-02 -7.319206706924560324e-01 9.076970918261655363e-01 1.053412338339137083e-01 4.061886432984926909e-01
7.853589810260970527e-02 -3.000074265393332662e-01 -9.459380281529646828e-01 -9.024417583732052828e-01 1.263957568444689650e-01 -4.118531114317228736e-01
6.433846193016711998e-03 -5.531240858835434482e-02 -8.167567668722174323e-01 8.556462473922418210e-01 9.571110364006922555e-02 5.086343322698284597e-01
-5.211515088815089902e-02 1.825291208349726357e-01 -8.065621583456912269e-01 5.969656396793202591e-01 5.610265113654702013e-02 8.003027661939641213e-01
-3.423935977672479952e-02 7.587128897143309569e-02 -8.015271400532693047e-01 8.109397711831385358e-01 2.225461728172258291e-01 5.411560666553082433e-01
4.583778864755477800e-02 -1.767527796588686251e-01 -8.630178024448794671e-01 -8.674413656582871113e-01 4.215551336456470344e-02 -4.957503301439706855e-01
-4.804136594520949655e-02 -1.124112713721112100e-02 -7.245686078683928333e-01 9.069434752725701321e-01 1.873573176017744313e-01 3.772940076407000354e-01
3.323577162095894821e-02 -1.389534604198659762e-01 -8.535038625072799423e-01 8.671780960624941859e-01 1.377021575069987784e-02 4.978077247970413843e-01
-1.818510658043429040e-02 -5.604526169459133483e-02 -7.716813138270974815e-01 8.756551318960565933e-01 1.377613507909653534e-01 4.628713646493466394e-01
-3.024853917258592262e-02 9.303967009505557939e-02 -7.908873520395205414e-01 -8.879801993715090713e-01 -4.553972383827378234e-01 6.406653414623589282e-02
-7.943339948118442739e-02 9.054044938520909580e-02 -7.120815484809391860e-01 8.988085720529486178e-01 2.867529265966347052e-01 3.315356841916181074e-01
-7.864112898700992282e-02 1.546063863119769843e-01 -7.768696400629396814e-01 8.368728946737633567e-01 5.095859839216309028e-01 -1.999146896828241093e-01
5.797069286222019530e-02 -1.722521711845734493e-01 -8.838663810609952431e-01 -8.699745680918805624e-01 4.266913534218954446e-02 -4.912469804105625282e-01
1.293592378445746795e-02 -2.509520014161833665e-02 -8.148246143728961055e-01 -7.863447747192254811e-01 3.928178820275595173e-01 -4.768186309606123885e-01
-7.706972046223749262e-02 1.646779718984550389e-01 -7.683773841776166957e-01 -7.934521101923015518e-01 -3.413134141405191335e-01 -5.039235082421993361e-01
7.093101913870622499e-02 4.444703508591865693e-02 -9.032224621665401187e-01 -7.440165379728438388e-01 1.495881252333754532e-02 -6.679937313708830260e-01
-7.453048325413200170e-02 7.050432341546687687e-02 -7.084451391402082354e-01 9.175316236139218207e-01 2.530025754863008403e-01 3.067986578616325732e-01
-5.399866426542691139e-02 1.870403436243968653e-01 -7.988568701121186999e-01 -5.812229456905517733e-01 -7.091393143127544541e-02 -8.106485685744211356e-01
2.670030590526722893e-04 1.191733872870045507e-01 -8.404343394479291129e-01 3.505878243685126017e-01 -8.071060631365507554e-01 -4.750452402169407784e-01
7.595106427036198149e-02 5.990534316559147088e-02 -9.142630127848864197e-01 6.677074935983247084e-01 -7.772281440024364496e-02 7.403552303552316527e-01
-1.012913182575399390e-01 2.261000902246243782e-01 -7.710204132335182203e-01 -5.413940262562774164e-01 -1.267175000984837874e-01 -8.311649556512882286e-01
-4.715487111158056521e-02 1.212268705009530434e-01 -7.981252370701767962e-01 7.548065860047200593e-01 2.459296423272993026e-01 6.081000154157748527e-01
1.799709575877645601e-02 -2.528620908501453060e-02 -8.341898187235298190e-01 -6.167680013962161256e-01 -4.541060405447028825e-01 6.429501818916685263e-01
-1.660053248621227648e-02 -1.241150728688443228e-01 -7.656026603427139587e-01 6.257672593284971940e-01 6.428293757410632470e-01 4.417982920257345625e-01
-1.979797512765595416e-02 6.562518215441173752e-02 -8.125684618551544114e-01 7.859914392311178055e-01 1.963296947632977574e-01 5.862355400430326879e-01
-4.142037900925756716e-02 5.204461322459630335e-02 -7.716590227367629007e-01 8.556418959768896659e-01 2.454297019591858697e-01 4.556766476848453928e-01
4.183985095276904209e-02 -3.793374840135235043e-02 -8.741448722591607101e-01 8.161540876628045060e-01 6.390145827828656866e-02 5.742900911744892589e-01
7.670028281155971683e-02 -1.310799904670937044e-01 -9.243143741352870535e-01 8.298357269755519683e-01 -3.082166122831192512e-02 5.571558950904891283e-01
3.443944691119647100e-02 -1.558157372033767973e-01 -8.416594479924633943e-01 -8.691577049603050886e-01 6.561167188976264886e-03 -4.944914913254359612e-01
3.694064466484416748e-02 -1.447171170992977984e-01 -8.598878159179013103e-01 8.678438273261734892e-01 -4.263304451722699055e-03 4.968187955452273430e-01
-1.656779208403062970e-03 -2.922487494655875984e-02 -8.000392542370334814e-01 -2.516417781744785809e-01 9.656210167818886081e-01 -6.521094560193470280e-02
-1.215521985980830000e-01 2.244824406148403784e-01 -7.656436801917259061e-01 7.752911130912590876e-01 3.802646499967243243e-01 -5.043039618370900312e-01
-5.532207008302823803e-02 1.194103000481617355e-01 -7.864627801899642945e-01 7.893418961770575226e-01 2.865039945683909295e-01 5.430053701723053239e-01
2.934163191701996340e-02 1.454888915303926278e-01 -8.659684040766250090e-01 5.498816321921283778e-01 -1.594925485406699650e-01 8.198733545723526639e-01
-3.856990931666809397e-02 1.139143637484144600e-01 -8.057606517148998559e-01 7.115141823381099240e-01 1.969499596488441251e-01 6.745059538106756847e-01
-1.069834950527829946e-02 -9.466793688157583431e-02 -7.639787918310775305e-01 -8.869831168241607555e-01 -7.677496376259416999e-02 -4.553751809312290288e-01
-1.222162439661864802e-02 -1.191095295208050298e-01 -7.706300965033627826e-01 8.933840008493113549e-01 6.563085034944801666e-02 4.444745420256213109e-01
-4.003499625374779686e-02 1.853455352586997826e-02 -7.421376313583578632e-01 -8.818835853334581198e-01 -2.120984511072838974e-01 -4.210648274996336426e-01
7.664027814914908809e-02 -9.351274476592541518e-02 -9.103766931570832499e-01 -8.287127295426290896e-01 6.853556750703981848e-03 -5.596322369680558628e-01
1.896497780518644621e-02 -1.338923974444154452e-01 -8.285183837499594528e-01 8.702847360281326106e-01 2.353767998708842027e-02 4.919862354347617761e-01
3.115390928550339569e-02 -7.832195344300987849e-02 -8.404064797879109427e-01 -8.546284358564263384e-01 -6.111507854691783370e-02 -5.156308600149939192e-01
2.612328386921148812e-02 7.967737748049919660e-03 -8.588021687627053202e-01 7.941513573642980939e-01 1.015685478306756484e-01 5.991723055081991101e-01
6.750422088802110476e-02 -7.854204477816534302e-02 -9.088412029041422757e-01 8.298009855494969944e-01 -3.461802756043024995e-03 5.580486899032749415e-01
-1.123547936338712902e-02 -1.219337897219978512e-01 -7.592298446043563853e-01 -8.902098017634744176e-01 -4.866876762864065509e-02 -4.529435504582715044e-01
7.944577839600891478e-02 -8.393666553968985589e-02 -9.144138508039012514e-01 -8.287127295426290896e-01 6.853556750703981848e-03 -5.596322369680558628e-01
5.571096136101697655e-02 -4.329925428523908465e-02 -8.811376017649168446e-01 -8.127545962738490504e-01 -3.915024528141163029e-02 -5.812892778386143933e-01
-4.893313808684623435e-03 -9.091557744270127583e-02 -7.894434277945395761e-01 8.806494047839552586e-01 8.356626278430952237e-02 4.663403323517376076e-01
-1.320319380398320142e-02 -1.474043922270213691e-01 -7.645227484503899218e-01 9.112054033088318183e-01 8.156806204937197546e-02 4.037961914559111132e-01
-5.212515549088569261e-02 4.616161954010062490e-02 -7.465148719798969656e-01 8.793222570877784472e-01 2.463128412839395431e-01 4.075810991798902716e-01
2.703168415039232386e-02 1.014950753233151842e-01 -8.604937325507269197e-01 -6.514284603242451732e-01 -4.433200754298479568e-03 -7.586971120352675735e-01
-9.670458320187270626e-03 -3.416451078944525432e-02 -7.800211933711073131e-01 -8.709103322688228621e-01 -1.342536010932963153e-01 -4.727485206120591310e-01
4.428380258945285863e-02 2.338062388310507139e-02 -8.674625882268167665e-01 -7.122804221140651704e-01 -1.330620370825311150e-01 -6.891669569563358966e-01
1.549516344090242498e-02 -1.403992872885303778e-01 -8.217268720295792805e-01 8.777283128315368499e-01 3.343424272771822192e-02 4.779907533280614018e-01
4.898276893348027516e-02 -1.572627861028401963e-01 -8.809252872068146223e-01 8.559882531866679356e-01 -2.035056444322308825e-02 5.165945846921735640e-01
1.675023270606534886e-02 -1.517771492188880467e-01 -8.236224434504948455e-01 8.787280818600210486e-01 8.669718038907571478e-03 4.772439566298706803e-01
5.490730767137881607e-02 -2.617182012918719408e-02 -8.926950093715075862e-01 7.976195651166204659e-01 4.859278279923039123e-02 6.012002751188658678e-01
-7.645772664176170297e-02 9.661256793607692073e-02 -7.094714952345405612e-01 -8.881666538083657914e-01 -2.834289951413338504e-01 -3.617015341079219404e-01
6.739320720569991208e-02 -1.761639442796330279e-01 -9.089298012515568681e-01 -4.046201324573854841e-01 5.499038781865795977e-01 7.306765858883992326e-01
-2.640331576098629493e-02 8.518038987431388043e-02 -7.937774687965524212e-01 -8.885944003142781655e-01 -4.565756670857428201e-01 4.403012554283106117e-02
2.814277917762651390e-02 -1.245706745949140826e-01 -8.311104525738676196e-01 -8.670521277605931498e-01 -1.720103328208941185e-02 -4.979204074948690439e-01
4.383246473323244158e-02 2.689762440739782226e-02 -8.724076256559667453e-01 -7.743050253628007695e-01 -7.430519176207633913e-02 -6.284349339232447873e-01
-4.853969195406993703e-02 -1.897351244436829704e-02 -7.066251375411838342e-01 -9.053847260094013416e-01 -1.712930945752016154e-01 -3.885063367047342786e-01
-7.373804921011115066e-02 2.153699217182151182e-01 -7.882683457870840460e-01 -2.366805933675553489e-02 -7.871948796261428738e-01 6.162499853611472789e-01
-1.004909552481036278e-01 1.731971837026066718e-01 -7.457410736164616916e-01 8.644803093250140735e-01 4.232165534925646511e-01 2.712223140510438557e-01
3.736940070295426825e-02 -1.345892639587264183e-01 -8.468157008269422414e-01 -8.641725279175418439e-01 -1.145354492198078986e-02 -5.030652624673318529e-01
-5.559777742779297566e-02 2.743741818676865077e-02 -7.124285768032202482e-01 -8.950610775684871845e-01 -2.151692926214088530e-01 -3.905993381135468567e-01
-5.236728400981693204e-02 1.262131653580195710e-02 -7.265823622655835923e-01 9.062384644121919131e-01 2.160871078832341252e-01 3.633706199274948645e-01
5.262789114678261687e-02 1.127971983419827767e-01 -8.881442421925188624e-01 6.313181227799377071e-01 -9.120631328422403039e-02 7.701420883620860858e-01
-5.038281380508208979e-02 9.698831966502191593e-02 -7.669785680915557347e-01 -8.355720476296389920e-01 -3.213796382334335733e-01 -4.455720832244314811e-01
-6.131720213649911183e-02 1.292742759898635463e-01 -7.691685147195277406e-01 -8.202118174892918390e-01 -3.089842495115731613e-01 -4.814367123565492235e-01
5.381909282078303769e-02 -2.013531149926565955e-01 -9.023119776180337226e-01 8.389610284967164988e-01 -9.005802755514519253e-02 5.366879394365111633e-01
5.771925430844078442e-02 -2.273055699601391200e-01 -9.125545097281143603e-01 8.972801771688441175e-01 -3.546405559998876134e-02 4.400347536504912171e-01
8.500581081432333208e-02 -1.308418480716148358e-01 -9.265864823780066706e-01 -8.872252100070330272e-01 8.626601340743852986e-02 -4.531992957394831989e-01
4.402508574127257657e-02 -9.908735178633949758e-02 -8.593926925874982858e-01 -8.473492937339868192e-01 -2.809913512859655432e-02 -5.302920073068596585e-01
-1.507444044055454915e-02 5.887057260819782839e-02 -7.977502237717368772e-01 -8.387593743114656331e-01 -2.559348481850325374e-01 -4.806038550502305107e-01
-1.697650852864977106e-02 -2.119325583440970218e-02 -7.677494394779219578e-01 -5.858249950937212125e-01 -7.092196221514637244e-01 -3.921945979724558717e-01
7.866423339000976067e-02 -1.098075242916115718e-01 -9.141739636754351306e-01 -8.401814806319217732e-01 2.157610620522304457e-02 -5.418759555877827871e-01
-1.740614235635606216e-04 1.172644054657361462e-01 -8.362739251445403532e-01 -6.636612072164351783e-01 -6.983895319551634839e-02 -7.447659515932358865e-01
-4.781350963598970244e-02 1.808326344904215566e-01 -7.997269234148526307e-01 -5.312578690550328053e-01 -2.094804704820137642e-01 -8.209037757579993322e-01
6.436754641835831792e-02 -2.660084986020060799e-02 -8.940687311623032318e-01 -7.982218708134561913e-01 -2.394205963228736994e-02 -6.018875499091421721e-01
-2.758456430191112696e-02 8.582130921881617192e-02 -8.141479642640234715e-01 8.185196980239408671e-01 1.438136668465221368e-01 5.561862396490532268e-01
-8.858213250274358727e-03 9.904795386898088139e-02 -8.363737017552906883e-01 2.309606393966671112e-01 5.582633004793743359e-01 7.968684147256422934e-01
-3.525455763114589830e-02 -2.509432740103441362e-02 -7.441979202581362474e-01 3.462144317096052526e-01 -9.381316627161334631e-01 6.674629986576786043e-03
3.741276461397368552e-02 -5.824317665351871204e-02 -8.655894520278790694e-01 8.375840792238155030e-01 5.564412177803539777e-02 5.434672409100149704e-01
4.783406462624190114e-02 -1.408877575855558284e-01 -8.804850708624257782e-01 4.646196063780577701e-01 -2.413742593825587146e-01 8.519783379151256719e-01
6.496015496212097229e-02 -2.928919542681815980e-01 -9.472981220202687513e-01 8.423522852991087717e-01 -1.815707587324961181e-01 5.074196360259174421e-01
-2.921575155831935763e-02 -3.559540927881600647e-02 -7.501790647039191517e-01 4.148300749323674541e-02 9.824647370297110438e-01 1.817751374155913147e-01
6.658742590229078939e-02 -2.215303730812682170e-01 -9.160858778824940707e-01 -2.506223699692597950e-01 -4.386014576163128065e-01 8.630279190430847347e-01
6.623913396256886355e-02 1.114829266720878884e-02 -8.977814554975902528e-01 -7.656264270126408311e-01 -4.593345857093097950e-02 -6.416434302972092718e-01
3.601786201184503655e-02 -1.747859485934530333e-01 -8.587432900198728181e-01 8.753577564532155630e-01 -1.352534637424746174e-02 4.832865229060803736e-01
-1.227107808492771887e-02 5.381919013590205636e-02 -8.064096531610446261e-01 -7.988635000308134115e-01 -2.014488558864140633e-01 -5.667763816361557350e-01
-3.465307051342193106e-02 -7.477223537061339353e-02 -7.195798855823234419e-01 -9.026205407278697912e-01 -9.092171881573120340e-02 -4.207248513027497250e-01
1.121301297606084116e-02 -5.648026258258780248e-03 -8.227931344752855702e-01 -8.281742132574602122e-01 -1.308394604546534723e-01 -5.449848695911860830e-01
2.749284793219983897e-02 9.420016111732057440e-02 -8.604498557043718243e-01 -7.000772504713279609e-01 -6.444525700212329344e-02 -7.111530441630939947e-01
1.620450979964647292e-02 -6.986658588906051459e-02 -8.168551561149628437e-01 -8.540944958822005439e-01 -9.242450512391223172e-02 -5.118401146416033942e-01
-7.140835894461333710e-02 6.014983051100680767e-02 -7.167123878369110468e-01 9.199733646221421868e-01 2.190342419991566092e-01 3.250738519439385632e-01
-7.292150859196834187e-03 -1.526147558155543094e-01 -7.766634239991245803e-01 9.023849559062758763e-01 5.248540934870956493e-02 4.277226591607312667e-01
5.381996138421898945e-02 -1.484151652883176353e-01 -8.826194945220285915e-01 -2.538089107801632105e-01 -4.388973419089002292e-01 8.619455667696708234e-01
8.765077781751130781e-02 -6.459818628219253511e-02 -9.361589293519610999e-01 7.857272187077616321e-01 -3.611708942784466747e-02 6.175178488376076302e-01
4.128538544918049918e-02 -1.372639850067465528e-01 -8.737370781234325978e-01 8.237989900563045254e-01 -3.345102322605748857e-02 5.658942065681025202e-01
4.903837563733182137e-02 -1.129136689447557823e-01 -8.667893373344515151e-01 -8.564572474887186537e-01 -6.424253424024106186e-03 -5.161779849935400621e-01
-7.390971928937888069e-02 1.193228084386499938e-01 -7.526817310130247130e-01 8.656077132390418427e-01 3.304928910078515081e-01 3.761618478452444791e-01
5.269522553200049753e-02 6.524578995981134000e-02 -8.842890045416029743e-01 -7.064747498384815749e-01 -1.611776580714621016e-02 -7.075546943283188561e-01
-8.894420028341873397e-02 1.634245491383695958e-01 -7.450786926014777434e-01 -8.394581762594585106e-01 -3.898516671848619719e-01 -3.785837396195555482e-01
6.134338710545987616e-02 -6.538717524464558728e-02 -9.049426357895971051e-01 7.718422588734881185e-01 7.007879484044592100e-02 6.319402581975467337e-01
-5.664481968565419912e-02 -1.496058171671996867e-02 -6.898626858588021715e-01 -9.009661950460073898e-01 -1.472825996761628342e-01 -4.081271262939414335e-01
-6.773939606703636984e-02 1.873075866206710127e-01 -7.957409223021317812e-01 5.665364879507224227e-01 4.470328955227698825e-02 8.228232031996096651e-01
2.913891564243837815e-02 -1.466665611894946708e-01 -8.461512849577832451e-01 8.726377266844554947e-01 3.804952090716335385e-03 4.883532740819628848e-01
-4.555282826105123452e-03 -4.348583029762608659e-02 -7.866743491454232240e-01 -8.632654310362998240e-01 -1.262775747953418515e-01 -4.886990584004825555e-01
-2.146015676982691855e-02 -1.078352655595725962e-01 -7.532458856500013900e-01 8.971741153058747642e-01 8.544545795990449166e-02 4.333332211348938090e-01
5.154502857872263893e-02 -1.716969466465651795e-01 -8.928308398947183422e-01 4.803120754567354878e-01 -2.882887066121735398e-01 8.283658200398682503e-01
6.339566929117390615e-02 -3.399093603395195867e-02 -9.034936846486548712e-01 7.908415612985465470e-01 1.893470402622047730e-02 6.117279639728074869e-01
6.643730313073030469e-02 -1.141551006209953339e-01 -9.078293457409041256e-01 8.395433152362553608e-01 -1.747300800788157901e-02 5.430117087441798107e-01
5.795776055930813853e-02 3.082198590034215466e-02 -8.979414434717351012e-01 7.264669710694876548e-01 -2.893395112183806683e-02 6.865919941403358928e-01
6.475389509990520098e-02 -1.820046266483686948e-01 -9.055927687257241399e-01 -3.869333030354540903e-01 5.956299386848727950e-01 7.039230037044734711e-01
-8.383391390355623973e-02 1.467253485101966681e-01 -7.567522835357769484e-01 8.306720380805230342e-01 3.594516905729438494e-01 4.251804879053161512e-01
-4.837602624952322405e-02 -4.319100376255519819e-02 -7.088827521184929426e-01 6.753508811896402619e-01 6.536218688266491883e-01 -3.415840158261729265e-01
-4.110957763151255884e-02 2.110279409051477734e-02 -7.411806864747956247e-01 -8.818835853334581198e-01 -2.120984511072838974e-01 -4.210648274996336426e-01
-2.759922555187204266e-02 -9.948811127702933410e-03 -7.544384917014272940e-01 -8.698255489017722164e-01 -1.865355201616051284e-01 -4.567362632808675826e-01
-4.400071020754620088e-02 5.267425943432917090e-02 -7.671529643122423359e-01 8.556418959768896659e-01 2.454297019591858697e-01 4.556766476848453928e-01
3.808323102282867162e-02 -9.062018048587773544e-02 -8.686323490936758152e-01 9.071735659012218900e-01 -3.538316644278540202e-01 2.276823984814725921e-01
5.333419900155802335e-02 -7.323198240712533447e-02 -8.754222483877558414e-01 -8.364023387650272312e-01 -2.600497920119701836e-02 -5.474987385968463904e-01
-1.022899999587985331e-01 1.670333903329952741e-01 -7.292187596394548166e-01 9.298163888213815120e-01 3.348683818711403748e-01 1.526586057258799978e-01
-1.343822282747048763e-02 -1.419116830392188333e-01 -7.540075361100520013e-01 -8.442015909815949737e-01 8.152013835797639052e-02 -5.297906575490363146e-01
6.679260109398391099e-02 -3.482055859788680818e-01 -9.744693311058284513e-01 9.116515934234015184e-01 -1.741565894971930928e-01 3.722376318204259071e-01
8.600262919180901022e-02 -7.784105427691209722e-02 -9.348136250257772506e-01 7.967376003746495794e-01 -3.334309989332653879e-02 6.034048672647154277e-01
2.843072703007973323e-02 1.117081748498138377e-01 -8.617546482104697647e-01 -6.514284603242451732e-01 -4.433200754298479568e-03 -7.586971120352675735e-01
5.747785877637779511e-02 -4.887917543937447123e-02 -8.949988353052283907e-01 8.075637644190991615e-01 3.377273552433229103e-02 5.888125072826299045e-01
6.003737510471265915e-02 -1.946927730550096214e-01 -8.938551200652332662e-01 -1.665611926308555035e-01 8.318218722037244994e-01 5.294617474689532477e-01
5.888897615511786560e-02 -5.747366751224490533e-02 -8.846264230002148787e-01 -8.127545962738490504e-01 -3.915024528141163029e-02 -5.812892778386143933e-01
-9.612661059437060951e-02 1.447539388676765126e-01 -7.184815076953604551e-01 9.319908001490131433e-01 3.108456778181297175e-01 1.864620953957926985e-01
-3.048155991085517436e-02 7.126691474115097978e-03 -7.557821397640310801e-01 -8.739971694789845369e-01 -1.823364083082734677e-01 -4.504246684496326925e-01
-1.010825207461421710e-01 1.660602075305609160e-01 -7.330376691291683455e-01 9.300824863907526385e-01 3.425923166290840705e-01 1.325785544343906219e-01
9.229386322290694666e-02 -2.723919971711121976e-02 -9.308583775777271585e-01 -7.895695474463456653e-01 3.832793407595500024e-02 -6.124629778320007656e-01
1.770733759434907698e-02 -8.122426612865968343e-02 -8.313976891634197175e-01 8.607502620419006378e-01 7.035418704794368927e-02 5.041421176212341759e-01
4.862892748670647608e-02 -1.957853062462828475e-01 -8.772946090931323937e-01 6.970992629213802749e-02 9.965117611927264418e-01 -4.587849148474180960e-02
5.650680910306012800e-02 5.683733465365910231e-02 -8.958950773532455836e-01 7.077472532254505122e-01 -2.906551253005484892e-02 7.058675665684003286e-01
3.397276719573229936e-02 2.283250002785170915e-02 -8.667717687787472869e-01 5.799428274771610825e-01 -7.477768674330060872e-01 -3.232585240792206216e-01
1.687785356731039479e-02 1.061134227164224064e-01 -8.510952824224560231e-01 -6.860179620548202406e-01 -6.493455562021582805e-02 -7.246812121371412063e-01
7.333990282440866482e-02 -2.876259247271862329e-01 -9.494730108473433683e-01 -2.301855532742893840e-01 -4.585179856937066645e-01 8.583564922916322448e-01
-5.868966252508987791e-02 1.579379431518450894e-01 -7.980173799793995881e-01 7.038860042907576497e-01 2.158764438518970263e-01 6.767140119381673813e-01
-6.472222042703543177e-02 1.066565676103702343e-01 -7.621845465617607118e-01 8.497539181865025881e-01 3.208658059883857661e-01 4.182862812406236142e-01
6.723461279848027584e-04 -8.732985995907036059e-02 -8.005193766895376539e-01 8.772543696760931597e-01 8.664027141027071111e-02 4.721421758900118948e-01
-5.173768747458283579e-02 1.653354408470602277e-01 -8.028199701009521849e-01 -3.791583562609834868e-01 7.834579524477983670e-01 4.923744282797114513e-01
2.393480914616728100e-02 -1.026025829640170722e-01 -8.448880887082405033e-01 7.998559762168536702e-01 -4.515509924605051184e-01 3.953885664989777449e-01
-2.122089748985166516e-02 -1.212088980485665768e-01 -7.515310345443017015e-01 9.077191748354072054e-01 7.158296739336256209e-02 4.134268719075820386e-01
6.147867378286226564e-02 8.955189728767090629e-02 -8.982570868363854988e-01 6.367668204860651437e-01 -1.000953970792787251e-01 7.645318357083692451e-01
1.161244212712022120e-02 5.416855025371992982e-02 -8.485460682694810908e-01 7.390832009709484840e-01 1.086056499445904600e-01 6.648013499103695434e-01
-3.386511181928495567e-02 6.942924597151545196e-02 -7.934957558063581162e-01 8.157130033430913807e-01 2.614441959535367399e-01 5.160031284587356382e-01
6.585492434780429449e-02 -1.235898010386177331e-01 -9.072325269007700532e-01 8.395433152362553608e-01 -1.747300800788157901e-02 5.430117087441798107e-01
-3.608060639195764807e-02 5.660333968486437606e-02 -7.693781072296818069e-01 -8.468093206884905744e-01 -2.457820538054190929e-01 -4.717045223678558719e-01
5.043089063506221714e-02 -9.552145624131470891e-02 -8.629527944517190186e-01 -8.602270371825713191e-01 -9.929354092607258278e-03 -5.098145274777862168e-01
-8.918968184103809316e-02 1.299656029967043158e-01 -7.074107674890091069e-01 -8.572406314615763634e-01 -3.588100388227739579e-01 -3.693153879969765518e-01
-4.257204680275498282e-02 8.377752492952560137e-02 -7.870257333769992147e-01 8.130822096985619307e-01 2.601892374977092248e-01 5.207675882407277745e-01
-1.059951859472301264e-02 -1.111693397634089531e-01 -7.616363939908831204e-01 -8.902098017634744176e-01 -4.866876762864065509e-02 -4.529435504582715044e-01
-8.997355088808783527e-03 1.168697475954822151e-01 -8.278246306774559304e-01 -7.154177125768900192e-01 -1.368685727188943824e-01 -6.851601931907186360e-01
-6.213517562506700939e-03 -1.195927965320996017e-01 -7.626283205413100230e-01 -8.730594209410417195e-01 -1.009022834256130818e-01 -4.770597202715714524e-01
-6.165061926028762157e-02 3.187677048138748415e-02 -7.149904129373375605e-01 9.044527677650976427e-01 2.213793255954675243e-01 3.646318486925549385e-01
-5.330405708263276365e-02 1.529362588449109939e-01 -7.920996095155794503e-01 -6.896669930224520462e-01 -2.188017137564720604e-01 -6.902791093409968992e-01
1.007458951671864932e-03 5.811877045376521132e-03 -8.233797021005958561e-01 8.200669738765606898e-01 1.524662475106724202e-01 5.515833588198201243e-01
-1.007081200731286263e-01 2.076587168610761203e-01 -7.648125942005071787e-01 -7.210350049036106101e-01 -3.731555272876901919e-01 -5.838351429627168798e-01
5.215805245586299134e-03 -4.561672012366443929e-02 -8.168413852641317474e-01 8.513705802536908340e-01 1.230784472838778593e-01 5.099213967786441204e-01
-2.553320846482045811e-02 1.107624273939739751e-01 -8.087805626401387560e-01 -7.411386974684309736e-01 -1.857188770994597227e-01 -6.451526407011856090e-01
-1.570206413292321579e-02 7.962206764606363785e-02 -8.106687724677501539e-01 -7.883374086241410339e-01 -2.013381194634210059e-01 -5.813665726671144451e-01
1.393944040648903947e-02 5.240188900441539697e-03 -8.293998124174390973e-01 -8.040583745337879229e-01 -1.429805198683858636e-01 -5.771019851640165621e-01
