-5.122048114002464986e-02 6.514548331820768645e-02 -5.761420963682594154e-01 2.417452561047079285e-01 -7.626567623765921899e-01 5.999282406689347980e-01
6.580917281426533483e-02 1.340474430906608005e-01 -5.257567251701364963e-01 -8.913695868398503475e-01 -1.555772989344207102e-01 4.257416631165246712e-01
6.775328227681777504e-02 5.063850552512996067e-02 -7.318851598443848472e-01 6.441124788098971932e-01 -6.441421287431752241e-01 4.125530664285262938e-01
-5.894015836526706603e-02 -1.377237608639648725e-01 -8.140339657613310242e-01 5.431496947799979713e-01 -5.657458616615897995e-01 6.204192365434684220e-01
-3.803327733256184340e-02 -7.371356885355867528e-02 -7.558759224104613095e-01 -5.257548890615730830e-01 6.446029868260820805e-01 -5.550394454475707784e-01
8.409294679424231256e-02 3.202578712877132694e-02 -7.805536344905711355e-01 6.506370049622892671e-01 -5.963298573424458127e-01 4.701725098468010344e-01
-4.136472375130145762e-02 -1.735191981030188369e-03 -6.607813853663820902e-01 -4.254298864449667095e-01 7.336447142173189162e-01 -5.298819161100057906e-01
5.153586772447069086e-02 1.287130606270833200e-01 -5.402538477408205253e-01 9.381233113754393615e-01 -2.563803148282129407e-01 -2.327955902128884813e-01
5.274968582571293307e-02 3.823684543467719549e-02 -7.127258125198530081e-01 -6.431194180647961112e-01 6.418972282022041842e-01 -4.175707874532476604e-01
7.652554277178799658e-02 1.401790795095143871e-01 -5.596068044933206753e-01 7.154795218433843695e-01 -6.755773981959037888e-01 1.780006541269305020e-01
-4.628748783151985513e-02 -7.839153974586951512e-02 -7.534729287517027974e-01 -5.198974071640172223e-01 6.317408396954204974e-01 -5.749871281038012594e-01
3.028134237217507477e-02 7.572779409433021136e-02 -6.049515957212361350e-01 -5.360838853299269013e-01 7.684342121878903198e-01 -3.494609125907296443e-01
-1.005537485266139175e-01 -2.955710976256957848e-02 -6.652082299196432347e-01 3.808075526395397481e-01 -6.845128183625546203e-01 6.216331790936165946e-01
2.431800388769801008e-02 7.119339991955313252e-02 -6.251896214238035210e-01 5.546627145637651468e-01 -7.432844831523593987e-01 3.740019387351953828e-01
7.016991062960269143e-02 1.046477675144079078e-01 -6.404389347128198740e-01 6.894735178400243081e-01 -6.601103054221251210e-01 2.981285844611517577e-01
-3.428043516908288457e-02 5.022010570660824513e-02 -5.937050092060293105e-01 -3.052506895167736989e-01 7.648999516192844794e-01 -5.672301830494831387e-01
3.783667342342257080e-03 3.869601173256401270e-03 -7.072171991333509045e-01 -6.996842847009240307e-01 -4.150132971200709009e-01 5.815546964440094779e-01
7.953314690759816230e-02 -5.799282113804669035e-03 -8.189461143202301230e-01 6.201104048805163860e-01 -5.734335361394649055e-01 5.353849693346939276e-01
-7.396203200070188000e-02 -7.008694177147313520e-02 -7.200392303509416392e-01 -4.784753114364874160e-01 6.613792135973183273e-01 -5.776148475992883835e-01
6.834821859983668257e-02 9.330698322892666541e-02 -6.407294554166610423e-01 -6.640355284493739685e-01 6.734693585602068433e-01 -3.248012315824312934e-01
-4.137489624370525171e-02 5.867601050451544051e-03 -6.504602656788670556e-01 -4.063257231928418811e-01 7.509972192972376170e-01 -5.204830288103836633e-01
-1.178002433166866758e-01 -9.124834598751491166e-02 -7.079269982015302665e-01 -1.793355590051486370e-01 7.489454472663477080e-01 -6.379024018573068444e-01
-7.779975836034178083e-02 -4.827308293648051307e-02 -6.920804054681091166e-01 -4.251670211873724847e-01 6.787216144107438565e-01 -5.988071260650877914e-01
6.607477665320427018e-02 1.318476483435241098e-01 -5.530111814794672620e-01 6.497424534321523115e-01 -7.329035979035687376e-01 2.017103378311866924e-01
-1.156912612842405791e-01 -6.035689185149195612e-02 -6.893195074667461952e-01 4.317613564573346552e-01 -6.536681939562154486e-01 6.215303880584935881e-01
8.159266385216766559e-02 1.413773348636348237e-01 -5.413024154242690456e-01 -7.769503997545808005e-01 6.105273962001906973e-01 -1.536371530919921902e-01
2.804765956947623609e-02 2.859733715518468847e-03 -7.307459011446870711e-01 -6.012189710638531359e-01 6.614909772893594608e-01 -4.482916860679993509e-01
-2.577454570093348253e-03 -6.529902226666271792e-02 -7.963933919497074854e-01 -5.422301866827589772e-02 5.733599881443072199e-01 8.175073016442482299e-01
-5.146813372917076468e-02 -1.153919084376310300e-01 -7.996594319147870555e-01 5.471007893785354570e-01 -5.846982584194080346e-01 5.990064046925496211e-01
-1.258348570315159509e-01 -7.767406141748608994e-02 -7.004034133097897241e-01 4.383046405555410807e-01 -6.371224489894693477e-01 6.340063304582523873e-01
-7.046443622888515224e-02 -8.612128065207599881e-02 -7.518718662716477041e-01 4.352976634951439827e-01 6.303123701968960102e-01 6.428236617708152911e-01
9.414250382043878873e-02 4.313850348199557705e-02 -7.803039002392188062e-01 6.552801766741778167e-01 -5.893917996115264346e-01 4.724671381255466374e-01
-5.283435155063465755e-02 -2.837333496063367266e-01 -9.301922771410754409e-01 6.082873845748364428e-01 -3.854154038673015537e-01 6.938598015657841955e-01
-3.704831900139607392e-02 4.716521095215833737e-02 -6.068671289547549197e-01 3.221756172174745636e-01 -7.674853760572238892e-01 5.542283547499541330e-01
5.007367117246049222e-03 3.805628155135385576e-02 -6.688900073234195220e-01 5.979703477492813724e-01 -6.989807999647800196e-01 3.922464843605352192e-01
8.005684016288298899e-02 -1.424233334278211631e-02 -8.191208544882114806e-01 -9.299138875286303563e-01 -2.300804476829773626e-01 -2.869201097437936165e-01
1.170041705031507921e-03 -9.789322061897347271e-02 -8.315736222627692076e-01 5.697836459720541091e-01 -5.776141095845304108e-01 5.845584121297570102e-01
-2.072254982366542042e-02 -4.643889915451258205e-02 -7.602281813902306284e-01 4.910300931095842869e-01 -6.576949269474906545e-01 5.712502347731049923e-01
7.121586259139783825e-02 1.650279498105140796e-02 -7.706559801782824071e-01 -6.587876919037505274e-01 6.004234364509192234e-01 -4.533105711944052096e-01
-2.289109636810995538e-02 -2.660670014327906120e-04 -6.751291717413777649e-01 -4.700753753468002727e-01 7.262810280435620935e-01 -5.015426300889598288e-01
6.341064145011797437e-02 7.385593725118236308e-02 -6.872651326456558074e-01 6.550520755495965464e-01 -6.635566468312962263e-01 3.613853272674085182e-01
-2.429414327525519779e-02 -8.246857925005077194e-02 -7.786504070155347845e-01 -5.560414868456664550e-01 6.140681990640018961e-01 -5.601233005372601159e-01
-4.692888957618272794e-02 -1.762407195116509340e-01 -8.537726226916072525e-01 9.344340504666401870e-01 1.248834448356162530e-01 -3.335223089007660624e-01
8.354847679023957863e-02 1.344849214502017443e-01 -6.023963891376709068e-01 7.285842737838111871e-01 -6.392700031649972692e-01 2.459650768876364135e-01
5.119084963117829373e-02 7.373035473931516433e-03 -7.685912376237243882e-01 6.238469023555471837e-01 -6.060889389430783591e-01 4.934280499852450874e-01
6.626402981058078512e-02 3.116347351521405601e-02 -7.573441856227407509e-01 6.373199779850987623e-01 -6.121218347188031039e-01 4.681133464467333027e-01
-7.559110969781183964e-02 5.534509271179987450e-02 -5.791603952501779284e-01 2.238357547025074668e-01 -7.320662444892822585e-01 6.434101091808527295e-01
9.958035590728356312e-02 8.041830921706803748e-02 -7.265686864042640858e-01 -7.084144721284876267e-01 5.896327000107745020e-01 -3.879203716704242022e-01
-1.988877959763641831e-03 -6.056024096524482286e-02 -7.767966122173658450e-01 -5.705213459149444111e-01 6.283315312925986662e-01 -5.288713271098164359e-01
-3.426792651682967344e-02 -1.897688067197104977e-02 -6.907745429592759834e-01 -4.811456508811789434e-01 7.076505190037517545e-01 -5.174259421326372621e-01
-1.022039809604826655e-01 -4.929141160584140507e-02 -6.863512595744548639e-01 4.186800215818007875e-01 -6.800769429460004067e-01 6.018325275369260652e-01
2.476801649163128463e-02 6.073448181704287768e-02 -6.206167145301590971e-01 -4.485958535430735750e-01 7.907482706126114369e-01 -4.165080223802722359e-01
-2.725415451698940186e-02 -1.176255644293822122e-01 -8.121876384066823995e-01 -5.598344946223275942e-01 5.794408078358095349e-01 -5.923121549027565713e-01
-5.283839671626336387e-02 4.219201131360437312e-02 -5.953976539166482285e-01 3.357633832681547470e-01 7.908109549484140244e-01 5.117430839688015265e-01
3.547911973864185421e-03 3.327955224530206035e-02 -6.505996515019564219e-01 -5.001126375227925580e-01 7.486362733488309829e-01 -4.352368091239183778e-01
2.767636662448355600e-02 -5.883960680762953532e-02 -8.184852456006697086e-01 5.854685926309990407e-01 -5.871786782757335565e-01 5.589702378669544336e-01
-4.637611130926881653e-02 3.010452245217709252e-02 -6.141232340952321733e-01 -3.303447746598660584e-01 7.504047632147421432e-01 -5.725076603850369761e-01
-1.113046339858106137e-01 -1.924909491213875820e-02 -6.472971514381673508e-01 3.472057723296756437e-01 -6.998965626677245977e-01 6.241738165181692777e-01
-7.183200443193198115e-03 3.220183490970683540e-03 -7.093296872212256909e-01 6.075537927573072539e-01 -6.647874385656390439e-01 4.346677471719606611e-01
-1.023633482769607250e-01 -2.153227003933275152e-02 -6.549755102149633634e-01 3.658152019985513315e-01 -7.126292723468735657e-01 5.986140310593501823e-01
-3.826058084663667286e-02 -8.028866068874898620e-02 -7.754784098234644985e-01 5.308098668807039733e-01 -6.252698672192905649e-01 5.720825800263978911e-01
-3.090989466898302548e-02 7.639734506806128422e-02 -5.617819726127922797e-01 -1.928184140749699960e-01 7.635737871190988457e-01 -6.162597916611225468e-01
-9.895630781878937687e-02 -8.372448939532242673e-02 -7.264624273364078677e-01 4.774674621710723876e-01 -6.397026207964423561e-01 6.023332794342999286e-01
6.377811874956480775e-02 8.262991868134855755e-02 -6.535248722405867516e-01 -6.640355284493739685e-01 6.734693585602068433e-01 -3.248012315824312934e-01
-4.790447342208525860e-02 -2.636704620171628766e-01 -9.229300414461847346e-01 5.109940952841015571e-01 -4.803111647235708825e-01 7.128718114967578234e-01
9.039833466016981844e-02 1.462740199239052075e-01 -5.735058108906700980e-01 -9.607344060064253455e-01 -2.427995973052167744e-01 -1.343047157173039852e-01
1.006207879982796115e-02 6.982212809863119762e-02 -5.928272040075202032e-01 -4.231654997014608899e-01 7.937941205859473381e-01 -4.368316082721064308e-01
-4.472130326148727325e-02 -7.630880896990326068e-02 -7.650216096618663864e-01 5.366061329497600063e-01 -6.268167015903155503e-01 5.649377670931036155e-01
3.188939293463768226e-02 9.229812624609190497e-02 -5.716218307076620375e-01 -4.574206654821627582e-01 8.071031144259095402e-01 -3.732973311903693414e-01
4.243516626510963896e-02 1.091410379785360679e-01 -5.613835551903696430e-01 8.632094425942566929e-01 1.664806491083246076e-01 -4.766063907340980510e-01
3.267533068993064282e-02 5.667211026859780842e-02 -6.402080437209379804e-01 -5.937634301929306524e-01 7.537617902836569739e-01 -2.815815201214400543e-01
-6.501971572460292503e-02 -1.728128836148299166e-02 -6.749378521375537510e-01 4.443469477722131744e-01 -7.103634297436468570e-01 5.458384263574345141e-01
3.385376552277225958e-03 1.661795848223598937e-02 -6.743528488110539509e-01 5.315805940636025850e-02 7.345564877870612852e-01 -6.764621105206755081e-01
-7.568056035242085033e-02 -5.949123512117027168e-02 -7.182212348289959136e-01 4.865673823990634417e-01 -6.588639849335121701e-01 5.737163338644420962e-01
-3.351047489082596698e-02 4.829508136861944412e-02 -6.072262257819617259e-01 2.981081558079922145e-01 -7.760094672562621865e-01 5.558244634499364123e-01
1.859717936130939400e-02 1.195258872010912000e-02 -7.047245612796432246e-01 -5.780380470325486852e-01 6.881847934200601147e-01 -4.384902579170784631e-01
-5.359715790800116675e-02 -6.001596676591718083e-02 -7.254892941263267891e-01 -5.115469871126668844e-01 6.534481979693022025e-01 -5.579651714458747636e-01
4.716309257788373760e-02 1.148485464651919918e-01 -5.679699656585973644e-01 -2.001333252355880499e-01 -8.030891024247626131e-01 5.612437489155094328e-01
8.224985824278845115e-02 -3.041264450681333952e-03 -8.092012233871356264e-01 -6.494541430915892199e-01 5.777237633884504397e-01 -4.944133586761739751e-01
-5.414432083390525660e-03 -1.152858380838755470e-01 -8.416132873674645465e-01 5.598795913714599282e-01 -5.577454853263651424e-01 6.127436794972137557e-01
6.921382516341126334e-02 4.730633265416004513e-02 -7.390459796573299878e-01 6.455864816454272015e-01 -6.211242176806887061e-01 4.443228566338117691e-01
7.079553573171720737e-02 5.162461173180030172e-02 -7.206838231086626356e-01 -6.702489797468776933e-01 6.173807501320272006e-01 -4.118340861496103678e-01
-3.695752557574395747e-02 5.286109251306831541e-02 -5.887030286030806581e-01 -3.052506895167736989e-01 7.648999516192844794e-01 -5.672301830494831387e-01
-3.790235976614669822e-02 -1.409503632052215918e-02 -7.009413015073158171e-01 5.432836730056720409e-01 -6.297846772736361842e-01 5.551703440537937295e-01
1.873960624770781500e-02 -3.639504402268142064e-02 -7.838172230426451170e-01 5.778417366311607850e-01 -6.252409227946440495e-01 5.245690763569522685e-01
-6.042849382158022031e-02 -1.267940930809379474e-01 -7.914919298219192934e-01 -5.266906080406079660e-01 5.964233639408886845e-01 -6.057030413884750830e-01
-8.430983270736629176e-02 -5.561146026345695909e-03 -6.469358031855524382e-01 3.386878117099276775e-01 -7.253470206592380620e-01 5.993014815765995706e-01
-8.669841485187458618e-02 -5.962591102187865533e-02 -6.987000386359965010e-01 -4.296641498034521334e-01 6.835057231205242667e-01 -5.900920647112327666e-01
-1.296121442107318021e-02 5.218870702689807489e-02 -6.168161164361893878e-01 4.432016170649444864e-01 -7.754182114862225861e-01 4.497765266513203408e-01
3.013758121011168856e-02 1.305760205976118637e-01 -5.162646546044967755e-01 1.639538452878929464e-01 -8.147326653542715791e-01 5.561742718069921931e-01
-2.346131086551302147e-03 -6.258403463255285404e-02 -7.787354658024986387e-01 -5.675635906751765880e-01 6.111962545136655489e-01 -5.516436431323820111e-01
2.706974315153206842e-02 8.952449807380859215e-02 -5.720396181028795102e-01 -3.573762717673043543e-01 8.246905794581282922e-01 -4.383693061001396885e-01
-4.503624761909011398e-02 -2.269794761369171021e-01 -9.002517472675221066e-01 4.965461059748676464e-01 -4.848558319910889480e-01 7.199699902255817241e-01
4.953939314593841514e-02 4.090127479204812289e-02 -7.036856892816011344e-01 -6.431194180647961112e-01 6.418972282022041842e-01 -4.175707874532476604e-01
1.008963609533309186e-01 6.268474895142611691e-02 -7.648696701490482752e-01 6.652673843832378475e-01 -5.938308966605421180e-01 4.525308535859422499e-01
7.108694919181768324e-02 -1.740479884468835656e-02 -8.216469598832599752e-01 6.038587996503345101e-01 -5.831352567319733060e-01 5.434223242018977329e-01
-1.867093539611789504e-02 -5.968585277656734966e-02 -7.713848906861253685e-01 5.582879956803507016e-01 -6.308739334919211128e-01 5.388066387115583167e-01
-5.184283864348980531e-02 -8.832088396104705030e-02 -7.716815677414606833e-01 5.209479283662169502e-01 -6.322157586631893533e-01 5.735124152351667171e-01
8.221267419153599487e-02 -1.790903585921910929e-02 -8.281406628724328201e-01 -8.041132359361237159e-01 6.256342517536064851e-02 5.911748655200615987e-01
1.074334431067323209e-01 1.188453926275898770e-01 -6.809983363004330492e-01 -8.378547717559915453e-01 4.594480911445537608e-01 -2.947996488962310035e-01
-2.205226446143917704e-02 1.281757839906917662e-02 -6.710989541779295298e-01 4.774404285721556285e-01 -7.227776440621956899e-01 4.996429869504205312e-01
-8.163551163769429408e-02 2.165469013080889571e-02 -6.159323380687169447e-01 2.970497668088339371e-01 -7.356543174357961234e-01 6.087480277396306594e-01
3.607478416348543215e-02 1.116301537702345664e-01 -5.532296938705544287e-01 4.453368781537358490e-01 -8.249107324916544748e-01 3.481340953948156569e-01
-3.287203524954406680e-02 -8.656321530645968987e-02 -7.874361281620809727e-01 5.382395193148495904e-01 -6.221937264399788337e-01 5.684832333732036114e-01
5.126528895363024335e-02 7.776977559036117593e-02 -6.580139276220137168e-01 6.523267826964611604e-01 -6.803543271740489784e-01 3.340475386414792913e-01
-5.618943174536587815e-02 -1.445553294443997078e-02 -6.848313445740299432e-01 4.312332223485016436e-01 -7.706028016262223002e-01 4.692645629799299667e-01
-1.036700637114886837e-02 2.546728842667083520e-02 -6.636770876869415581e-01 5.076641911604955482e-01 -7.313397046516447730e-01 4.554330965283538424e-01
-1.058469092973324081e-02 3.568196771592666711e-02 -6.316242785325270059e-01 -4.493617230524157291e-01 7.587190699788032289e-01 -4.716136286260859678e-01
-1.398092250253685394e-02 -1.882626519085919131e-02 -7.051357161199339751e-01 -5.651324909906318972e-01 6.169224546699925149e-01 -5.477517252831560768e-01
-1.249877691897499365e-01 -6.813302541410803936e-02 -6.834590364753566627e-01 -3.402899836228907016e-01 6.684190131768442678e-01 -6.613764055888493587e-01
-5.519158273329528158e-02 -3.234231363351179611e-02 -6.901359849377467492e-01 -4.504706095180570080e-01 6.959204816010359229e-01 -5.592592540571968973e-01
-2.992320830780705737e-02 -1.082462755168697444e-01 -7.961798657316792038e-01 -2.409183140031422032e-02 6.442107371974586938e-01 -7.644685145506552315e-01
-1.080375561428969892e-03 4.697277809257881936e-02 -6.299091009126026597e-01 2.977518491721203309e-01 7.596634160491092524e-01 5.781481908915575563e-01
5.770237567005576801e-02 1.243508693542121069e-01 -5.306630080748592215e-01 7.478672603763932836e-01 3.609745660871050976e-01 -5.571282827996923981e-01
-1.741818549669112148e-02 1.528014130537220204e-02 -6.721359848735883880e-01 5.025720232728807524e-01 -7.303554801185077050e-01 4.626037549396532778e-01
7.079519390974321758e-02 -3.225824425394324679e-02 -8.274485901611968730e-01 -6.398264248882368221e-01 5.668573027831672606e-01 -5.189363586184051469e-01
-8.931949049870678559e-02 -1.486237710687220680e-02 -6.527678767030844487e-01 -3.608684725656333137e-01 -7.960575192328738225e-01 -4.858666191260205824e-01
-1.020235860523587834e-01 -2.894388853576786852e-03 -6.340151141790386635e-01 3.140819875157380148e-01 -7.129573914035848281e-01 6.269324231216306664e-01
-5.517591676947926349e-02 -2.956995729869879574e-01 -9.321204025543362581e-01 9.399054269398500194e-01 1.566104953147441081e-01 -3.033989801668570685e-01
4.812298522734259620e-02 6.874055285761090928e-02 -6.433081088996438490e-01 -6.384992946744091347e-01 6.542744751897199285e-01 -4.052697395753824261e-01
-7.441990568124864924e-02 3.133059703800454565e-02 -5.996063727866345339e-01 -2.087565320678844705e-01 7.193317937717872423e-01 -6.625575301723263255e-01
1.471831132037970842e-02 -3.349909110237744847e-02 -7.759358199883775731e-01 5.778417366311607850e-01 -6.252409227946440495e-01 5.245690763569522685e-01
4.131033329966327106e-02 2.104455426042014729e-02 -7.369208664539541598e-01 6.138570310356534776e-01 -6.522270495987548822e-01 4.447239831848467939e-01
4.804052981676654177e-02 4.568378923355384535e-02 -7.094931027061057716e-01 6.300460440173509813e-01 -6.521034626410361357e-01 4.216669970837850223e-01
-6.437390826143268852e-02 -8.165773580054704051e-02 -7.410640412457737414e-01 -4.922658928937612144e-01 6.380641529553433555e-01 -5.920713026375185040e-01
3.066678473900255608e-02 1.217622670344563895e-01 -5.203832141794714206e-01 -1.338963508068004571e-01 8.089117986569269725e-01 -5.724801037889765132e-01
-7.613873881720782666e-02 -9.805575474685855608e-02 -7.488938354326322155e-01 -5.041119638321359675e-01 6.224918637812723032e-01 -5.986443079554210067e-01
5.202848963528255988e-02 4.351406561224254940e-03 -7.603990049836008014e-01 -6.357019591454381446e-01 6.224784733062825870e-01 -4.565123978699057172e-01
8.757157918158521570e-02 1.247663631928278560e-01 -6.372975838127535875e-01 7.207793129759123563e-01 -6.316809328159521675e-01 2.854056430814569945e-01
4.696229928952216914e-02 1.016026034883710516e-01 -5.958466425732129590e-01 5.991711892425222175e-01 -7.368165290716358617e-01 3.132016737958608910e-01
-1.149678773420965139e-01 -5.686838101198375683e-03 -6.307597723195746964e-01 3.083591361036833733e-01 -7.022081302879045195e-01 6.417307729406117600e-01
-9.259104614201045524e-02 -1.339782934284478380e-02 -6.527407687533793856e-01 -3.604296316883887630e-01 -7.965197747580116117e-01 -4.854345774874501140e-01
-2.772037482145399412e-02 -1.385802035031014623e-01 -8.318294316259400301e-01 -5.587737187586581111e-01 5.685119058164643802e-01 -6.037931302768785313e-01
-3.741376350453851779e-02 -1.457722981328000711e-01 -8.442874121902649298e-01 5.032986665574374907e-01 -5.571204904842298467e-01 6.605355488723648749e-01
4.357721409166490090e-02 8.704961827133916863e-02 -6.236320073806582709e-01 6.302455741695521807e-01 -7.187300901598041580e-01 2.936282917883957788e-01
3.593467419568625171e-02 8.870546955229482999e-02 -6.056270649172714737e-01 5.601146921507647036e-01 -7.587338816072444203e-01 3.325574063797981372e-01
6.965452754117611167e-02 1.499607356239764655e-01 -5.078884699156990257e-01 -5.163998887449563480e-01 -6.631252333446508995e-01 5.418450699284794725e-01
-8.582960113197474206e-02 -1.125175401940006412e-03 -6.407079775703674596e-01 3.386878117099276775e-01 -7.253470206592380620e-01 5.993014815765995706e-01
3.959666164895394441e-02 9.544463235353445318e-02 -5.667391209107457417e-01 -4.280931598309611896e-01 8.526661761419638275e-01 -2.994939708397895139e-01
4.581276309986737072e-02 -2.024751168236201687e-02 -7.957685733893635760e-01 6.035773694859188909e-01 -6.124360583702007643e-01 5.105060562348212594e-01
1.239030556399739772e-03 4.261013654816112745e-02 -6.482277350518391712e-01 4.985961355758047331e-01 -7.475695762990594018e-01 4.387956496832192688e-01
-6.072026387930175989e-02 -9.767983602992039160e-02 -7.735094925108367825e-01 5.306299745504158283e-01 -6.119604600018490048e-01 5.864607621170832008e-01
2.132339445274653716e-02 5.118521849810748342e-02 -6.593943323446066485e-01 5.670997399520040227e-01 -7.207439055599168531e-01 3.986553744082811379e-01
8.379957844794577726e-02 2.543593671299539463e-02 -7.771114428426552090e-01 -6.587876919037505274e-01 6.004234364509192234e-01 -4.533105711944052096e-01
9.762327419800537599e-05 5.858468523373572268e-02 -6.185431211748916303e-01 4.339942348809162076e-01 -7.795917666191983786e-01 4.515370211950348045e-01
4.167832598851865800e-02 4.561301908441453556e-02 -6.998765351065657780e-01 6.118846421714575490e-01 -6.812695401075470336e-01 4.018320524751084477e-01
7.154577045900664678e-02 -8.642938109090472082e-03 -8.017807882173604295e-01 -6.437148284438959367e-01 5.795390810217052602e-01 -4.997656182751696319e-01
9.971426035407635405e-03 1.005284965117404367e-01 -5.398392607527773279e-01 -4.262126669612990859e-02 6.211545782491876277e-01 -7.825282215647504369e-01
-1.012564111992689114e-01 -6.674361899858746727e-02 -6.964045223137173002e-01 -4.087138129823692512e-01 6.590224444539379833e-01 -6.313813719008258829e-01
-4.785733084446700675e-02 -6.006179935946250742e-02 -7.434422317549420622e-01 5.117791868121985832e-01 -6.522455031722550478e-01 5.591581775646462527e-01
7.388162516757763865e-02 1.184338895050314755e-01 -5.817915801541291287e-01 -4.672054695819445325e-01 7.794075503177229081e-01 4.174241484394993207e-01
-7.677767735377069580e-02 -2.253259184098992118e-02 -6.620217009983884182e-01 -3.813340699945585444e-01 7.078713580009514672e-01 -5.945607349827884969e-01
-9.824517371295243828e-02 -3.554634881517597378e-02 -6.735101592922296820e-01 3.933462367676409666e-01 -6.958232180461102478e-01 6.009232790038093741e-01
2.940479277792956356e-02 1.027609820222308984e-01 -5.644599760627206919e-01 4.727245715023992712e-01 -8.039133162581881820e-01 3.609083809509487928e-01
-9.056904515879128648e-02 -1.179685188297507209e-01 -7.681951958377327694e-01 5.156937830020221769e-01 -6.016439034286731324e-01 6.099873241635211940e-01
2.325165386742754272e-03 3.668876300776598154e-02 -6.433305745428010702e-01 -5.001126375227925580e-01 7.486362733488309829e-01 -4.352368091239183778e-01
-2.168952795391810087e-02 -1.036686044611885849e-01 -8.074185214892900531e-01 -9.402697190057809351e-01 -1.001515562274426924e-01 3.253652121939450415e-01
-1.091942248308673416e-04 -3.565115541263561699e-02 -7.485666014465439666e-01 -5.729402710706006374e-01 6.425082344584047700e-01 -5.088443911832868372e-01
-6.435516283205727772e-02 -1.508076453059067346e-01 -8.200424564155179841e-01 6.540343236075126798e-01 -3.379224380288575746e-01 6.767920872911385999e-01
-3.178860297804057822e-02 3.712691586016378387e-02 -6.253239344145818945e-01 3.894462037868324233e-01 -7.669814728972362827e-01 5.099716409648783477e-01
3.100518553608846983e-02 -7.617895381030734270e-02 -8.284970910686358936e-01 -5.964954390826429087e-01 5.687537197310287285e-01 -5.663147512167799880e-01
-2.872435157787041338e-02 -7.455211698404837217e-02 -7.782561950689256269e-01 5.553747535499573562e-01 -6.166407054600160365e-01 5.579544098661625151e-01
1.202708039253175612e-02 -9.492535066093868434e-02 -8.278847988106398104e-01 -5.809956211208632260e-01 5.785220769369497917e-01 -5.725000390698153918e-01
6.837315095892777285e-03 4.608949710744624645e-02 -6.250561605525316589e-01 -4.642598313721427727e-01 8.049099625508615574e-01 -3.695710502199546776e-01
9.585920612322901269e-02 2.858135555436536190e-02 -7.905913649522406939e-01 -7.002485047432149834e-01 5.559773434923852564e-01 -4.478182947670202863e-01
-7.434466813072539235e-04 2.008473109334546827e-02 -6.911470510512857102e-01 4.856707154533778104e-01 -7.240275467481388505e-01 4.898041115597902007e-01
8.465719944102195749e-02 1.280333821825172802e-01 -5.996638091381064628e-01 -7.565152765688308856e-01 6.107119784831908094e-01 -2.339134789941184622e-01
3.006886083999738696e-02 1.896166974380966014e-02 -7.095460316275051804e-01 -6.086546711729641235e-01 6.719054937861281829e-01 -4.219982211803148253e-01
-1.181174278532313125e-02 -2.339733258031981983e-02 -7.336691322975182894e-01 5.419553929977515283e-01 -6.718934908423858099e-01 5.048202541145565547e-01
2.803329828182284100e-02 3.642987357980161101e-02 -6.949393496629759914e-01 6.063037326038150931e-01 -6.868849731668859038e-01 4.007303550621141297e-01
5.293049590182964670e-02 8.549805981540181676e-02 -6.485747855363311887e-01 1.364192526427961127e-01 -6.026563573946251973e-01 -7.862538409446551135e-01
-7.648040834407342226e-02 -1.016615659911592473e-01 -7.523555712884633095e-01 -5.041119638321359675e-01 6.224918637812723032e-01 -5.986443079554210067e-01
-1.155144284054560599e-01 -7.656694892575163780e-02 -6.975317510331098259e-01 -3.920711026574386082e-01 6.640739198928162779e-01 -6.366208285778666154e-01
-1.851091141446855465e-02 -3.228926647441644066e-02 -7.309899604582381638e-01 6.676098921367389361e-01 4.193772492248153405e-01 -6.151583168207992447e-01
8.628508668657310088e-02 1.286313687537616324e-01 -6.033674178890231499e-01 -7.565152765688308856e-01 6.107119784831908094e-01 -2.339134789941184622e-01
3.186191284111234562e-02 -6.158480845857655650e-02 -8.257529486994025225e-01 5.854685926309990407e-01 -5.871786782757335565e-01 5.589702378669544336e-01
-2.951017913223514394e-02 9.605963409927012822e-03 -6.544595505872775609e-01 -4.599677317597817283e-01 7.425807662989238889e-01 -4.868300435086811428e-01
2.187205055427358241e-02 9.596356952175914834e-02 -5.596354387179481860e-01 3.547130298473308851e-01 7.525090396040604590e-01 5.548953160468210744e-01
-5.729894364436694670e-02 -1.263086452574101459e-01 -7.937352275585278782e-01 -5.266906080406079660e-01 5.964233639408886845e-01 -6.057030413884750830e-01
8.356645855189007155e-02 9.642762269258149666e-02 -6.844600769436547383e-01 6.982170514398461370e-01 -6.241872482091553875e-01 3.505470414248697542e-01
9.335490120913932099e-02 1.068919986633324049e-01 -6.852808496871672927e-01 6.954902819707354800e-01 -6.328924920246573604e-01 3.402063509446670020e-01
2.151905034621229632e-02 6.638472762952575545e-02 -6.122372392172675815e-01 -5.299132292221317986e-01 7.541249576825954648e-01 -3.879272066968176835e-01
3.691287282847333789e-02 -1.464800925737280365e-02 -7.786458067879739042e-01 5.977245244766877796e-01 -6.299995383245571290e-01 4.958084050820055766e-01
5.032706069599476167e-02 9.912109097025009752e-02 -5.849074573227713847e-01 -5.980015610437040552e-01 7.533149745913210182e-01 -2.736981586451947002e-01
3.492439969348042073e-02 7.781699217489093656e-02 -5.991015924024721828e-01 -4.345033892691647637e-01 8.055638997062972706e-01 -4.028319850801213575e-01
1.035327226149818786e-02 5.657361889689407723e-03 -7.250968250627426448e-01 4.995707851225549279e-01 -8.426360485268014067e-01 -2.009813931068545612e-01
-9.040507806769296217e-02 -6.192417058159588317e-02 -7.092896165537290187e-01 4.562754279258698920e-01 -6.586664452343599097e-01 5.983069845768106410e-01
2.287299021808714833e-02 4.038191865252383633e-02 -6.635474460159322962e-01 -5.883661718910455640e-01 7.124503572006889440e-01 -3.824130441013839365e-01
6.556045427372401979e-02 1.322164175459148161e-01 -5.500145608479923842e-01 6.497424534321523115e-01 -7.329035979035687376e-01 2.017103378311866924e-01
-3.400746745831119411e-02 -1.328118344070892132e-01 -8.316595238417961999e-01 5.458043152181920599e-01 -5.598178229846856313e-01 6.234594249491202111e-01
6.892181816216895462e-02 6.826081201532464837e-02 -6.904474566988401119e-01 -6.805421597503409359e-01 6.249998750629063293e-01 -3.824101528119943638e-01
-1.674825413167741264e-02 -4.262311234668049453e-02 -7.369439489242083363e-01 8.329991145189910573e-03 6.984698671441403883e-01 -7.155909836905212096e-01
-6.523954868864685619e-02 -3.820417787230253465e-02 -7.015649267851299387e-01 4.616477609417136141e-01 -6.991529831556195784e-01 5.459546235376161460e-01
-1.880626782072998895e-02 -7.253339193146572661e-02 -7.676207724739656513e-01 -4.799490417900896255e-01 6.518366285395645887e-01 -5.871609038236013101e-01
-3.852128001737034624e-02 -1.994628744388574904e-01 -8.671216458427178919e-01 -5.145429376996992765e-01 4.796006904260362580e-01 -7.107944449742363835e-01
-8.451192649896138720e-02 -9.214592981216272738e-02 -7.471659604145816092e-01 4.964156652751898213e-01 -6.182993202054603010e-01 6.093253957475071036e-01
3.819169763031634440e-02 1.123760052299851570e-01 -5.541703623226801323e-01 4.453368781537358490e-01 -8.249107324916544748e-01 3.481340953948156569e-01
1.791498633381835570e-02 -8.339385810109302410e-02 -8.222523164806802010e-01 -5.831170026399037365e-01 5.759113415396989177e-01 -5.729752943349291083e-01
6.809687512029403977e-02 4.077807967383263038e-02 -7.523227429393929411e-01 5.251082364329545671e-01 -1.264601066977655563e-01 8.415872987660055760e-01
9.509665755451546243e-02 1.363020144216391394e-01 -6.301440007348884098e-01 7.117126686858217255e-01 -6.468726756384826082e-01 2.738992857683567594e-01
1.519209024304974363e-03 5.999182663017504913e-02 -6.022754593558822256e-01 -4.296002735960104957e-01 7.805402965826211403e-01 -4.540929974542068925e-01
3.273239733772019544e-02 4.930867602767211727e-02 -6.621283251949205972e-01 -5.953883286916666906e-01 7.069773348866648099e-01 -3.817011737135372895e-01
4.764734385868338307e-02 -2.054652390747572501e-04 -7.606593670877648261e-01 -6.149326730898752036e-01 6.161599579656824588e-01 -4.921429810190008358e-01
-7.833347756802670758e-02 1.406937853432311235e-04 -6.339877731694480989e-01 -3.167908476146605867e-01 7.230333710843627193e-01 -6.138943746003598934e-01
-6.733149540313701498e-02 4.935628654687624489e-02 -5.889993454704640641e-01 2.141705785435571996e-01 -7.369659320475125952e-01 6.411023149916548203e-01
9.074951787199961317e-02 6.194767512751868377e-02 -7.384318378102721070e-01 -6.802870321900694739e-01 6.034587325098438315e-01 -4.159893171604774342e-01
-3.828211866966319682e-02 -3.447700071786031356e-02 -7.210422571580712425e-01 4.954221764058999167e-01 -6.910669848733297371e-01 5.262920192662303709e-01
1.440611168857561589e-02 -4.674817051310772853e-02 -7.912177995752154303e-01 5.731571629041256610e-01 -6.084025911651929075e-01 5.489418490834638842e-01
-2.236616325376611369e-02 -1.418578411701773012e-01 -8.399090807036975193e-01 -5.650090127949038976e-01 5.664501084737001424e-01 -5.999159024985596389e-01
8.033333562468067401e-02 1.451692650548923047e-01 -5.559359491747969395e-01 7.260165339019396535e-01 -6.702800836323496991e-01 1.537029667469832495e-01
-2.717764260979822939e-03 -2.069632793948157981e-02 -7.199849008701576514e-01 -5.843400541259315961e-01 6.919286672089605128e-01 -4.240063922142383590e-01
-8.753479615863561311e-03 6.055616920719722462e-03 -7.023528879837316330e-01 8.899781694829815848e-01 -4.432542252405461403e-01 1.070726372614605876e-01
1.503573675934017978e-03 -3.261750563687292048e-02 -7.465519869574888112e-01 -5.729402710706006374e-01 6.425082344584047700e-01 -5.088443911832868372e-01
7.821898976262370295e-02 1.028420667306038511e-01 -6.700955925016598425e-01 6.773565194106270226e-01 -6.103324262850648996e-01 4.107097211375771995e-01
-3.783856506678977966e-02 -9.225993328231645030e-02 -7.765490870988663863e-01 -5.331346648583382697e-01 6.258912348557312821e-01 -5.692342147632684091e-01
-9.118861123921509493e-02 -1.343981582765784999e-01 -7.734440654523115910e-01 -4.685392136917416739e-01 6.273355114581357084e-01 -6.220298717076886419e-01
1.043308780904090294e-01 8.499849328239209023e-02 -7.283128634786190103e-01 -7.440699553103025110e-01 5.590820955845826612e-01 -3.657692059226365644e-01
1.466394440538144189e-02 5.148113067610256971e-03 -7.249826312224212366e-01 5.730405740425462691e-01 -6.712078271977646171e-01 4.702175594439713113e-01
8.733104228198586283e-02 9.808785421281383810e-02 -6.649572127813723199e-01 -7.303144457694982217e-01 5.834456761941477776e-01 -3.552913638561231435e-01
-6.200485105670758279e-02 5.549433525602571332e-02 -5.837229298228854280e-01 2.141705785435571996e-01 -7.369659320475125952e-01 6.411023149916548203e-01
3.138319923678092871e-02 7.365566787045813024e-02 -6.032423320857053239e-01 -4.837239758164491032e-01 7.781444986510129835e-01 -4.006273261267767061e-01
1.239444102796065893e-02 2.347815083678884626e-02 -6.803267363054553707e-01 -9.274629115182083661e-01 -9.429530548678859148e-02 3.618299920146497706e-01
-1.094953559591269887e-01 -4.635513019848765126e-02 -6.694726038396900947e-01 -3.781610084517120773e-01 6.719821506375340814e-01 -6.367371835469783914e-01
1.924154662240217320e-02 5.774517319911072304e-03 -7.298628642976815462e-01 5.932498493601982004e-01 -6.627541325019264962e-01 4.569590529639616094e-01
-3.132245905358375243e-02 -8.550322716102454201e-02 -7.752642693316379452e-01 -5.428617801326228731e-01 6.226929254567237226e-01 -5.635198383884869600e-01
-1.044860581093807507e-02 7.883853320079273197e-02 -5.760049824477774250e-01 2.695046025133491785e-01 -7.873665546121827452e-01 5.544557492733408477e-01
-4.591820497110681975e-04 -5.207958202895485861e-02 -7.683713066679858095e-01 -5.708383103903975631e-01 6.280491304054535151e-01 -5.288647399738326538e-01
6.871420399079856967e-02 1.117607514882440478e-01 -6.204490638471776842e-01 6.589527147608481572e-01 -6.902993498648538617e-01 2.987777222040962632e-01
2.410746214941525412e-02 3.468892571793774637e-02 -6.921260256021860569e-01 5.830064702840853652e-01 -6.980463353717616393e-01 4.157340126582689810e-01
-8.452771465092129288e-02 4.044929868112007859e-02 -5.868744668812087006e-01 -1.671591753840323824e-01 6.984321355799747444e-01 -6.958809970635250197e-01
8.543565354147748814e-02 1.339132160558531570e-01 -6.094723587593751102e-01 7.285842737838111871e-01 -6.392700031649972692e-01 2.459650768876364135e-01
5.487739785104042006e-02 1.120087478288305793e-01 -5.849206129139922217e-01 6.499277397928302502e-01 -7.208390476796749935e-01 2.408007483128787041e-01
-7.410565292574841645e-02 -5.323618397013401421e-02 -7.004679718111890274e-01 -4.296641498034521334e-01 6.835057231205242667e-01 -5.900920647112327666e-01
-9.392909472500264589e-02 -5.748686321381727554e-02 -6.910838418996337884e-01 -3.954033622558828509e-01 6.854015781143182329e-01 -6.114579771620818338e-01
6.457261085045272464e-02 8.026787914044657135e-02 -6.600468063670263952e-01 -6.640355284493739685e-01 6.734693585602068433e-01 -3.248012315824312934e-01
-5.016697626636108798e-02 4.530151466527837512e-02 -5.888507621086979116e-01 -2.463946492464357818e-01 6.991147667760000406e-01 -6.712139894984794353e-01
1.764587416785816376e-02 -6.350342136931889925e-02 -8.130326850744442613e-01 5.795674845741395353e-01 -5.883293198725405571e-01 5.638884128998559175e-01
-1.581601342801059254e-02 -7.849258809356451927e-02 -7.772741051453470051e-01 -5.440967391460057589e-01 6.092776375728173877e-01 -5.768357641516083101e-01
-1.047385351768625149e-02 -1.287865268897502580e-01 -8.388242423526229841e-01 -5.755128115714399639e-01 5.729040870364712212e-01 -5.835802522139039716e-01
8.087100675682096229e-02 1.482437694864653377e-01 -5.443007596820547134e-01 6.735709417538163768e-01 -7.259762496594004411e-01 1.387828208221348059e-01
4.956167213268208860e-02 1.166025685651667088e-01 -5.466110499201242146e-01 7.478672603763932836e-01 3.609745660871050976e-01 -5.571282827996923981e-01
7.292613554464925929e-02 9.204655055383911821e-02 -6.536893166975785707e-01 -7.056327645853648356e-01 6.409514145693649967e-01 -3.020988012308969406e-01
-6.782209752595705354e-02 4.938920665330193832e-02 -5.819264979518532499e-01 2.245960846055456150e-01 3.739644754294593199e-01 -8.998373019033096831e-01
4.585358701817512234e-02 7.836290870015802379e-02 -6.549161819999546053e-01 4.798475372038412678e-01 -2.289676096791160576e-01 8.469475631686059769e-01
-7.226177045874782046e-02 -2.395568741427176601e-02 -6.738110362425111521e-01 4.728213101625062809e-01 5.547453585743304938e-01 6.846149251925847112e-01
-9.990246200631032469e-02 -8.359827936650751634e-02 -7.152016304342007080e-01 -4.299386043631975851e-01 6.455242207666969101e-01 -6.312299714698078601e-01
6.085690936476288726e-02 1.064248411512900144e-01 -6.146253487983510677e-01 6.794410571504473362e-01 -6.818246540126804422e-01 2.710627068387884697e-01
2.773301523260260706e-02 9.356448417777796234e-02 -5.649800435968168610e-01 -3.573762717673043543e-01 8.246905794581282922e-01 -4.383693061001396885e-01
8.737304437134452151e-02 1.572176164227708645e-02 -7.941039935953529971e-01 -6.627651509951124620e-01 5.795135295201414571e-01 -4.742430007174947559e-01
8.606086524782091685e-02 1.478958443512925769e-01 -5.694099749579867309e-01 7.166546180787503051e-01 -6.710821616895192854e-01 1.898812540734932108e-01
-2.786119500553398132e-02 3.698454158449396983e-02 -6.285372749724416064e-01 3.894462037868324233e-01 -7.669814728972362827e-01 5.099716409648783477e-01
-3.715245127429483984e-02 -1.189648175612924436e-01 -8.160023307168058349e-01 5.551948448469430364e-01 -5.774581028671202931e-01 5.985823449522085227e-01
2.087581417298040726e-02 -3.539078613587117177e-04 -7.404802329031894281e-01 5.919789326893601933e-01 -6.483448711469762538e-01 4.787586775290620933e-01
6.859767251659718013e-02 1.364683782333567796e-01 -5.443486754723307897e-01 6.497424534321523115e-01 -7.329035979035687376e-01 2.017103378311866924e-01
1.043837576331190127e-02 2.664086617817227123e-02 -6.868846050196211195e-01 5.666569826286848022e-01 -7.066736689649066872e-01 4.236887886525105840e-01
-6.954980892354818700e-02 2.805086726450064030e-02 -6.140879734764329578e-01 2.962038174039080540e-01 -7.371742260272068359e-01 6.073198984361870556e-01
-1.432875101830948742e-03 -7.004660521579797461e-02 -7.926270558179712156e-01 -1.887824044136073021e-01 6.974240820532759955e-01 6.913471295636964831e-01
-9.796252001727195902e-02 -6.402907198641330511e-02 -6.957033793869432658e-01 -4.087138129823692512e-01 6.590224444539379833e-01 -6.313813719008258829e-01
8.069798401344714656e-02 1.317406552160322319e-01 -6.013991554310627041e-01 6.971538462351789533e-01 -6.692863733712770546e-01 2.569674397643011421e-01
-1.008892286448942466e-01 -7.960126733770618579e-02 -7.248651023048250375e-01 1.324882671544416468e-01 -9.878890536112435727e-01 8.075937605934545294e-02
3.044368177251135024e-02 7.998384492033610779e-03 -7.409999313477702021e-01 5.919789326893601933e-01 -6.483448711469762538e-01 4.787586775290620933e-01
-6.155003035928630767e-02 2.153572941315002459e-02 -6.165990756258920014e-01 -3.303447746598660584e-01 7.504047632147421432e-01 -5.725076603850369761e-01
1.636624052884615502e-02 -7.514828324846099805e-02 -8.119903047985855826e-01 -5.876553766106649146e-01 5.903345241140501853e-01 -5.533229689608186730e-01
-3.906758067993552908e-02 2.859242492262287216e-02 -6.200784123639070389e-01 -3.076720300185646906e-01 7.601314119177283724e-01 -5.723094954307641480e-01
1.021419111962252602e-01 1.062700219259701678e-01 -6.901395368610970804e-01 -7.264381653330893585e-01 5.990625409664132039e-01 -3.367664828309959724e-01
4.456086984795851191e-02 -2.953794585215861052e-02 -8.106392982232345501e-01 5.946652740730061781e-01 -6.421257265862558850e-01 4.837848313741855422e-01
-9.450423941473456990e-02 -8.265707457591173202e-02 -7.343311300001421627e-01 5.203640605994273027e-01 -5.661279487438097835e-01 6.393124354238710616e-01
-4.121402183120390084e-02 -1.185779827824619444e-02 -6.896387223237155917e-01 -3.189403467291303529e-01 -7.985623791577235453e-01 -5.104656519514887414e-01
-7.780259511124995586e-02 -1.075687162104647099e-01 -7.573847224616622187e-01 -4.839747979326317062e-01 6.309074827630071214e-01 -6.064026246312875790e-01
4.234817213132337221e-02 -6.214215295490049806e-02 -8.370599988668027125e-01 5.883873007351240192e-01 -5.692002567387631773e-01 5.742921312904788467e-01
6.111005354219981034e-02 1.186907105447102539e-01 -5.816751617609621228e-01 6.345992461169264187e-01 -7.284597737901923331e-01 2.581281751327629825e-01
7.691643609563619810e-02 1.379711139986843083e-01 -5.330225921052160754e-01 -7.231713105344501624e-01 6.770782230682826919e-01 -1.363390460087751388e-01
-2.854774565264290784e-02 -1.294037438587316013e-01 -8.224189423703293089e-01 -5.599405319016189653e-01 5.681272049803020030e-01 -6.030738592369940809e-01
3.172345257409797930e-03 7.825807306390089590e-02 -5.863473917565187321e-01 3.378421216229745561e-01 -8.026780431972522223e-01 4.914983823231947047e-01
-8.889207621134727344e-02 -8.407689171273888262e-02 -7.239281025118169399e-01 -4.344665814974063012e-01 -6.070308315235259933e-01 -6.653963924923355089e-01
1.034882491019202128e-01 7.332327235033961332e-02 -7.545669669892475229e-01 6.630270473387530616e-01 -6.045292270229805087e-01 4.415195897944421688e-01
-4.614492676977240831e-02 2.859909758571821045e-02 -6.162298410081359368e-01 -3.303447746598660584e-01 7.504047632147421432e-01 -5.725076603850369761e-01
-1.970035392850061698e-02 -1.001790512232008934e-01 -7.999153855498446486e-01 -9.102719049246978944e-01 3.507393409272425711e-01 -2.199703930775343541e-01
1.022448304969725275e-01 1.260926023454910505e-01 -6.544501211323142664e-01 -7.618180809998883474e-01 5.724010267915308203e-01 -3.032989877821034574e-01
3.163721310582117557e-02 -5.032989473155069504e-02 -8.015924544363920434e-01 -5.991614798049531565e-01 5.956087670682238544e-01 -5.350287073694354190e-01
-1.493665450633871634e-02 9.408276927134802403e-02 -5.451332283041497861e-01 -1.335884752888760185e-01 7.510341315518987981e-01 -6.466079589009698925e-01
9.552390937102507584e-02 3.012282958273858682e-02 -7.881689291835247690e-01 -6.890329575512110782e-01 5.642168540580078107e-01 -4.548548394874079581e-01
-8.455626691488214719e-02 -8.944680832069391851e-02 -7.330299469389832678e-01 -4.696163077619619486e-01 6.463860307600236554e-01 -6.013697886677743520e-01
-4.830423055110132785e-02 5.115406931728304352e-02 -5.948038826327984863e-01 2.448006124504613912e-01 -7.553888155985083452e-01 6.078325406002559328e-01
-6.854265438551451761e-02 -1.508199413128304134e-01 -8.142397297070700368e-01 5.884080990009582512e-01 7.638597614033291183e-01 2.651304847408680332e-01
7.538563559659243463e-02 5.602724768229273150e-02 -7.355369504560750338e-01 6.581217390468678818e-01 -6.262610914754980218e-01 4.179387776909961882e-01
4.365164155629293330e-02 6.065080300533198104e-02 -6.588778733461094772e-01 -6.262813064112020545e-01 6.880537869801152118e-01 -3.665429189906690977e-01
6.722070759231023318e-02 6.746449783826516389e-02 -6.887216102610306256e-01 -6.805421597503409359e-01 6.249998750629063293e-01 -3.824101528119943638e-01
3.090768299364746174e-02 -6.745334849397592591e-02 -8.307629701024271673e-01 5.805256761341125449e-01 -5.716549515512950874e-01 5.798280397806904185e-01
4.760322955500282532e-02 -6.539825764224699127e-03 -7.815098275214453771e-01 6.158496354695034425e-01 -6.160197712046002749e-01 4.911709152394017619e-01
4.641346293822570107e-02 8.523747400440579922e-03 -7.609172147115303986e-01 6.132603054040022261e-01 -6.340977020304031653e-01 4.709903418283136189e-01
-9.938910301262297853e-02 -8.048554489125098188e-02 -7.123680630686562987e-01 -4.299386043631975851e-01 6.455242207666969101e-01 -6.312299714698078601e-01
-1.660551237218329743e-02 5.993667920164807289e-02 -6.016824816790139474e-01 3.704536237061483717e-01 -7.835641586141941506e-01 4.987898575735208451e-01
4.177655228798368009e-02 6.969686155610110845e-02 -6.570324862701050206e-01 6.206762659862494758e-01 -6.908865732479765320e-01 3.707245820646839496e-01
4.084124556239302622e-02 -3.516005351512734717e-02 -8.070866992193542755e-01 5.957550313820125787e-01 -5.976902298979172024e-01 5.365093956936747288e-01
-1.032817632897534976e-01 -5.528907436719214530e-02 -6.923788936100020441e-01 4.186800215818007875e-01 -6.800769429460004067e-01 6.018325275369260652e-01
4.849403097868102558e-02 -2.275579879163921147e-03 -7.643090733578274953e-01 -6.149326730898752036e-01 6.161599579656824588e-01 -4.921429810190008358e-01
-8.263795914827383113e-03 2.594915870209544423e-02 -6.496360705899009158e-01 -5.001126375227925580e-01 7.486362733488309829e-01 -4.352368091239183778e-01
-2.978424715884224472e-02 3.831944612462517136e-02 -6.250610573384514090e-01 3.894462037868324233e-01 -7.669814728972362827e-01 5.099716409648783477e-01
1.418996269926491591e-03 5.266528171851575860e-03 -6.933165548771762499e-01 -5.458908566340688884e-01 7.013610179132536704e-01 -4.583621877893144236e-01
3.109489695033762144e-02 1.220729195878517276e-01 -5.296270807187359875e-01 2.539360128242019177e-01 -8.331598603944089243e-01 4.912852006915287006e-01
-9.886467844752905298e-02 -1.272583771729039748e-01 -7.701989600821751436e-01 5.388531423213860361e-01 -5.594404204020007043e-01 6.298124379772129799e-01
3.114568069880584503e-02 6.345231464280361167e-02 -6.516104733195919874e-01 5.838765442030080521e-01 -7.132955774909415236e-01 3.876823445314690475e-01
-5.115111247669158062e-02 -1.321314768106870152e-01 -8.158202679547109648e-01 5.513815445288350325e-01 -5.626107974106610010e-01 6.159930868036885832e-01
-7.198673745567149562e-02 1.705395203593470382e-02 -6.262004928368831713e-01 2.970497668088339371e-01 -7.356543174357961234e-01 6.087480277396306594e-01
-3.268507450318108853e-02 -1.895255226454993225e-01 -8.703097605121953295e-01 -9.444842425324260216e-01 -1.310537332522007103e-01 3.012879596144035221e-01
-7.094533821561715969e-02 -7.303852596633579348e-04 -6.494741978016113082e-01 3.829486750676689422e-01 -7.343313471903031298e-01 5.604531959027364563e-01
-4.596926264123197409e-02 -9.664154166052417796e-03 -6.806090096496276720e-01 4.486771712704263892e-01 -7.152199521498531221e-01 5.358630571587577052e-01
-6.773917543748279868e-02 6.303616751858509559e-02 -5.730938251950894458e-01 2.170659692311717737e-01 -7.473733959446491326e-01 6.279453575239604124e-01
6.363363999372154134e-02 -3.654546195722720159e-02 -8.335170688881925471e-01 6.023028452679004552e-01 -5.711701781660649679e-01 5.576700728530595841e-01
1.840776766646510382e-02 -4.374532184975749027e-02 -7.792057899943179988e-01 -5.829819727797171947e-01 6.224243569029868084e-01 -5.222259466435692499e-01
6.081037547282226730e-02 6.005684546346414660e-02 -7.060826018153032457e-01 6.436173071428565873e-01 -6.550794109381991026e-01 3.957622105646769750e-01
