-1.899219186667442175e-02 5.437064528688534404e-02 -7.101029690451946541e-01 4.115727456110372939e-01 -7.970822413410024732e-01 -4.418911354722974139e-01
-1.058016740910149578e-01 1.593848047371332066e-01 -7.414337778204035390e-01 8.413199032508729136e-01 4.447405164448574033e-01 3.072241745473536234e-01
2.333224263989708280e-02 -3.945522656555405794e-02 -9.811815535369474706e-01 9.608487818518908208e-01 2.703380921857498342e-01 6.072013115191852994e-02
-2.486208555476414339e-02 5.763992338408371885e-02 -7.805297381884734875e-01 -8.517235412571719788e-01 -5.238894193376034680e-01 1.033854798560993569e-02
-1.772364797440891676e-02 6.274936442748919874e-02 -9.096706932232921927e-01 9.334453887895530766e-01 2.786790905789012229e-01 2.258709158383087057e-01
1.189896321246483764e-02 -1.984966811282060095e-02 -7.925633710601517334e-01 8.809321401753488212e-01 4.668612899309702025e-01 -7.745385962022702242e-02
-5.759804318170931754e-03 2.534151248137660184e-02 -8.055387831556556355e-01 -8.673860717495023298e-01 -4.975658634710279915e-01 8.343503059117074461e-03
-1.014065344023855064e-01 1.598714156629627570e-01 -6.976005473676134550e-01 -6.906733214097137141e-01 -7.171254782718836651e-01 9.328135669144338449e-02
1.588865145657481284e-02 -2.847408988846909794e-02 -9.639508020570326519e-01 9.737795624164797825e-01 2.267168370179802606e-01 -1.878402599368105344e-02
1.320590073979430006e-02 -8.532952483708543603e-03 -9.662832772730913788e-01 9.523533660666401168e-01 2.846867176008278655e-01 1.094373746176629109e-01
2.699622497668019080e-02 -3.601269790997439768e-02 -9.410016736841462226e-01 -9.469914960847263252e-01 -3.202253703796894002e-01 -2.574526186315221829e-02
-6.218382136820425204e-02 1.155507678996707255e-01 -7.808261464752672687e-01 -8.591352977534497670e-01 -4.771894036743585255e-01 -1.848697194648193098e-01
-7.329195631055880622e-02 1.108835079023770820e-01 -7.619478732356688155e-01 7.303611638981144516e-01 6.021840160963669308e-02 6.804015831675968018e-01
6.146281446139923582e-02 -1.239658814563375649e-01 -8.394916631466798895e-01 -9.375356173157771700e-01 -3.399392089962778862e-01 7.394795772236899267e-02
2.062988322284651371e-02 -4.192270947166521627e-02 -8.294977356769438481e-01 8.983899161198644068e-01 4.362771194570386757e-01 -5.057502992991323026e-02
5.333684480799348593e-02 -1.423741572942532063e-01 -9.562677757090304320e-01 9.613911201652032279e-01 2.744177048505750394e-01 -2.054354721167664377e-02
-6.279503097441195558e-02 1.016710552695140740e-01 -7.745140448027557634e-01 8.302047214723445867e-01 5.522891909771686647e-01 7.574146800010683744e-02
3.222886431602129797e-03 3.904499478584917693e-02 -9.501990853830876160e-01 -9.417015273133416686e-01 -3.023851300915860740e-01 -1.475176821781509218e-01
7.450591888126990858e-02 -2.440753155495492821e-01 -9.822018674950689920e-01 7.462976179136192323e-02 5.130348471173615810e-01 -8.551173277967356601e-01
-2.862969126807382581e-02 5.621282472985766193e-02 -8.366045747477586225e-01 8.848920808266602656e-01 4.474028446884956711e-01 1.296020827568170053e-01
-4.994435520847888450e-03 5.948478922975072164e-02 -9.623850443786446940e-01 9.533775244829980622e-01 1.893047533761534340e-01 2.350212887375607573e-01
-1.046984020522147840e-01 1.702447056591662733e-01 -7.542962214813344612e-01 8.638503740401345388e-01 2.780994366877893587e-01 4.200276593090670474e-01
1.242748129409594615e-02 -8.572291452530600778e-03 -8.573374104691848796e-01 -9.053472209696415973e-01 -4.237399184207675251e-01 -2.812278470045074738e-02
-3.797817341322340390e-02 6.888774698840249844e-02 -8.160359604996775262e-01 8.743724071749027216e-01 4.778669663657185707e-01 8.435671892381257919e-02
6.241656807835238574e-02 -1.459409335620130421e-01 -8.412607347574920791e-01 9.344742549287584632e-01 3.403498056563702967e-01 -1.044982136929266670e-01
-8.678838896525678526e-02 1.383252812373386986e-01 -6.944947217664048100e-01 6.970990374370427123e-01 6.590840310070240626e-01 -2.822431081105086781e-01
2.872160934011086172e-02 -2.993590510888785583e-02 -7.759801822940951554e-01 -9.462430497479589198e-01 2.262040677226998808e-01 2.312051265638058462e-01
-8.036454682770642621e-02 1.361133438472918733e-01 -7.377635174218740710e-01 -2.485395220193040156e-01 4.038133886645066672e-01 -8.804333325866893212e-01
-8.603381202767375335e-02 1.472703757396733315e-01 -7.672915534315728481e-01 3.778586702342421333e-01 -6.211402012105464721e-01 -6.865913455389108799e-01
5.422727882463354576e-02 -1.313911768202316865e-01 -8.771976375656584946e-01 9.459244214024122854e-01 3.176805390940476981e-01 -6.562060709431596917e-02
3.217092626980925379e-02 -4.571999989925795704e-02 -7.947700669922098671e-01 -8.959981239312484469e-01 -4.392151402723394882e-01 6.540200659943036510e-02
-2.414809989246107305e-02 4.410094786431623809e-02 -8.169605955607408543e-01 8.687614830822403267e-01 4.916263872342873653e-01 5.964042997588527018e-02
-3.511806235701937784e-02 9.817522002649033130e-02 -8.598562605321506958e-01 -9.095885101808683926e-01 -3.401281888638673090e-01 -2.386662047444786661e-01
-5.206343619408912438e-02 1.204586837452457648e-01 -8.295313751596022911e-01 -8.983653516572785991e-01 -3.450280605804290079e-01 -2.718369591387489459e-01
-5.285282744591036051e-03 3.194804202562209761e-02 -7.009921831398560066e-01 8.248256422331130544e-01 5.265481305345629526e-01 -2.059362186340450707e-01
-3.484042035029134149e-02 8.653156136796999465e-02 -8.403073738776301038e-01 -8.967144633519081864e-01 -4.015209845438623137e-01 -1.862365973336779501e-01
2.852470757554549218e-03 1.220037050082297715e-02 -7.216672269164089437e-01 8.390678170005806402e-01 5.173904076805382335e-01 -1.681438803942814919e-01
7.242671522295693332e-02 -2.482475892459817535e-01 -9.855300435177247742e-01 7.303634397335435624e-01 4.034146418072155904e-01 -5.512040209179737138e-01
-1.279822098808009248e-02 3.941233207945672723e-02 -8.289849858807907257e-01 -8.875464597420726909e-01 -4.552999018202563697e-01 -7.045055856256793314e-02
-3.561733378338560740e-02 8.221315111991302216e-02 -8.085304142084382972e-01 -3.547831670725583031e-01 -7.989875414544979071e-01 -4.855386832812211839e-01
2.952278180629713789e-04 3.768602840888912731e-02 -9.050190307045181681e-01 -8.898873423910618197e-01 -4.094133743087628452e-01 -2.011994204496766747e-01
-2.540100687035842450e-02 5.464204115098809239e-02 -7.629636356635940420e-01 -6.204329618462626206e-01 7.530913823417771935e-01 2.188979435655462602e-01
-1.001692043122328485e-02 2.726327443567320638e-02 -7.423167535749669588e-01 8.231669587354608630e-01 5.491022405084057256e-01 -1.445091260608157013e-01
-6.258934310321889738e-02 1.287732047567523574e-01 -8.261591152200616905e-01 9.008211202296153575e-01 3.252407565197942274e-01 2.876451975032651709e-01
5.042084466918203556e-02 -1.079688026874925377e-01 -8.181921601242055919e-01 9.231457127337996393e-01 3.732644218712241058e-01 -9.206337179544046845e-02
7.079472932885302883e-02 -1.419088638905918465e-01 -8.034554830045478324e-01 -9.963536661446288356e-01 -7.625038810451036098e-02 -3.827858767076972035e-02
-1.908846717146008704e-02 2.865590580426941036e-02 -8.148362618937692314e-01 8.535347004692881434e-01 5.202105629019772026e-01 -2.931698040402766145e-02
8.169673032832612536e-02 -3.120427603766122715e-01 -1.041585147717150273e+00 -6.017158973210800371e-02 -4.948462953754965699e-01 8.668947593233319315e-01
-5.788953427728257654e-03 3.919888567300357229e-02 -9.198442304286101878e-01 -1.908164986661121387e-01 6.797711660435246106e-01 7.081668063758935761e-01
6.097467157517429126e-02 -1.018352959768849958e-01 -7.590829206711805499e-01 -9.313776552612867965e-01 -3.537784803052171356e-01 8.588626288830222832e-02
4.091548270183689023e-02 -9.383066252807781282e-02 -8.699938318117502734e-01 9.347380686345998502e-01 3.523655796918946370e-01 -4.586110872681403716e-02
3.443264992049562684e-02 -7.226415664910011694e-02 -9.082665525526811834e-01 3.955344927444869874e-01 -6.319416457365119033e-01 -6.664849746492341742e-01
-1.293467662059472056e-01 1.822419139744287375e-01 -7.134106602232699323e-01 8.230728807621670029e-01 3.967167189876439903e-01 4.064072807290070588e-01
6.739483669534733490e-02 -2.203229091300666909e-01 -9.722790124222012720e-01 9.671065182054933151e-01 1.977535147987717068e-01 -1.599954056502240485e-01
7.427406969023328531e-02 -1.853679213724894748e-01 -9.551458612428102013e-01 -9.749531755150979695e-01 -2.218815370095120199e-01 1.532609171716214913e-02
-9.431967304277234787e-02 1.766266638622253360e-01 -7.692612278021309091e-01 -8.821616980346610459e-01 -2.786169800066701785e-01 -3.796884472466419136e-01
3.563006607611624021e-02 -8.819793195234282290e-02 -9.098014308066983968e-01 -4.682924164101864156e-02 6.894077682115143935e-01 7.228581819810481202e-01
5.471836411778113751e-02 -9.190100214526047973e-02 -7.409010558413892111e-01 8.402574009783021491e-01 4.752252826298614674e-01 -2.610142349577064813e-01
-3.708100787480335392e-02 8.351860415207590371e-02 -7.136851462940980717e-01 -7.832538837252767117e-01 -6.028151888994502938e-01 1.520763021032218165e-01
5.347808408551055215e-02 -1.007312764711180697e-01 -8.608582249256443442e-01 -9.678900612784500090e-01 1.971913927308448777e-01 1.558986334490066739e-01
2.341668053144119188e-02 -2.784827125553141630e-02 -9.278753674099482485e-01 -9.408528341181858767e-01 -3.352603362494088746e-01 -4.895356442293576082e-02
-2.454162921040218409e-02 6.444268034141101276e-02 -8.798849585179587818e-01 9.181914685049454850e-01 3.251826159914749104e-01 2.262315040432531787e-01
4.081371696697116969e-02 -8.538706128226114522e-02 -8.205833203416026400e-01 9.157133609250792672e-01 3.936212003200793563e-01 -8.081702346582367302e-02
-1.563149521043621232e-02 7.108504274284287161e-02 -9.029840277248768476e-01 -9.288293600634136560e-01 -3.250937277359904898e-01 -1.777360066809955674e-01
1.967628629325206963e-02 -1.268351974671997652e-02 -7.496260911671430716e-01 -8.662941952226987929e-01 -4.898564941694903419e-01 9.785183924399319666e-02
6.404957574564507095e-02 -1.365528884986645930e-01 -8.635830509410866718e-01 -9.480616391766391038e-01 -3.109662324574834491e-01 6.692630718112482779e-02
6.198415406417220885e-02 -1.583621659057170838e-01 -9.503694353869347466e-01 -4.720469497559142552e-02 -5.313324194411036538e-01 8.458472538367222127e-01
-9.823653036885864054e-02 1.783456753253177263e-01 -7.686862364105214729e-01 6.921332529481026841e-01 -5.401993641011800795e-01 4.786817389332478911e-01
2.695608016258633013e-02 -3.782088905283394198e-02 -8.155229692147174525e-01 -9.011352056820725043e-01 -4.307950077834110103e-01 4.869293941855941388e-02
-1.009412888715714440e-01 1.800847923072531331e-01 -7.573403815945335404e-01 -8.651579518108625244e-01 -3.004893213366941485e-01 -4.015070188440620913e-01
2.345612792637626759e-02 -2.012511017102138963e-02 -9.729010077930363432e-01 -9.572736215181079089e-01 -2.822667271783417808e-01 -6.287056762614604000e-02
5.734551705972297519e-02 -1.561374733621583577e-01 -9.567711282164998998e-01 9.542301480375705580e-01 2.989750395496672541e-01 7.664874589369441611e-03
-4.616243301712625452e-02 1.141645300128066864e-01 -8.413396815262161876e-01 -9.015127690432295227e-01 -3.397609183561038360e-01 -2.680247108194044880e-01
4.762733732393809732e-02 -9.925151322225506112e-02 -9.596499815583787729e-01 -9.562221644320393343e-01 -2.920577933322535125e-01 1.847748908267524137e-02
4.404678164439845833e-02 -6.522218766086407271e-02 -7.677253004018336213e-01 -9.065415772716534093e-01 -4.098015052611695963e-01 1.012180565092129503e-01
-8.411037059836526386e-02 1.679605131198782519e-01 -7.868021190123476449e-01 -8.893988936958443503e-01 -2.891889402480326554e-01 -3.540329994941536218e-01
1.472042668421788146e-04 2.190546643218854728e-02 -8.820009042110997788e-01 -9.119593488412345295e-01 -4.041850932969887067e-01 -7.045960841202351943e-02
7.934521755277627875e-02 -2.468934140056566473e-01 -9.845427187323867457e-01 -4.068687232073947002e-01 4.313656277065308631e-01 -8.052214212928856529e-01
5.767762482106540689e-02 -1.311180411636631016e-01 -8.354032745740042065e-01 9.309464535940908947e-01 3.540882002766037040e-01 -8.922021612538599822e-02
-1.167264968783395390e-01 1.626028320148905359e-01 -7.222252542051000868e-01 5.416277289094255654e-01 -1.544598278862197305e-01 8.263059753177253164e-01
3.543214444889340731e-02 -5.372686159286388374e-02 -8.694094018361597787e-01 -8.927051775809106138e-01 -5.991698923724755876e-02 -4.466401463381659553e-01
5.897970466250603873e-03 1.816284642378629410e-02 -9.195305768039255812e-01 -9.325635300852719300e-01 -3.389075090277979263e-01 -1.243662441318735129e-01
-8.177691601943759547e-02 1.362250351441015028e-01 -7.419587432847689623e-01 -8.028310582080997460e-01 -5.918146043438040627e-01 -7.223410594621494651e-02
6.630048540426829173e-02 -1.208343416601370818e-01 -7.755256717001194344e-01 -9.422524916329149125e-01 -3.256695121348664457e-01 7.810000561716638756e-02
-3.469533187484961272e-04 4.858462300491563080e-02 -9.455952565671595922e-01 -9.487012620040945476e-01 -2.770519227896647840e-01 -1.523422054139558224e-01
-8.654289686860866526e-02 1.309406100093240821e-01 -7.258424108037668798e-01 7.454460229469014321e-01 6.637930702090224511e-01 -6.073703001569508153e-02
-2.995540276091280055e-02 8.492152597590918450e-02 -8.876451057692854585e-01 9.270590391396102969e-01 2.606397093293868483e-01 2.694967158802404339e-01
4.781134220007699637e-02 -9.957271075452092668e-02 -9.552045020853429103e-01 -9.562221644320393343e-01 -2.920577933322535125e-01 1.847748908267524137e-02
2.989917036535018335e-02 -6.607481504390387561e-02 -9.428699281482363359e-01 9.471690846709467371e-01 3.191539465445814017e-01 3.180382757812655337e-02
4.411310321588610139e-02 -1.037060039360907099e-01 -8.808748191383259929e-01 9.347997593649579606e-01 3.524889185274452941e-01 -4.360013998335830060e-02
-1.073870476851776501e-01 1.578413405738205155e-01 -7.338660818534572527e-01 8.199760324322669103e-01 5.258651576474031586e-01 2.260644647199326895e-01
-3.002562503475191338e-02 5.259505599730707887e-02 -7.594154004067731334e-01 3.186845368694068981e-01 9.446921358788364920e-01 7.743987583288933219e-02
-2.938189653326876011e-03 9.430813419396864156e-03 -7.750589151139093413e-01 8.492902631787254686e-01 5.207660674697434100e-01 -8.665305442919875312e-02
9.838710831449519120e-03 -1.994638933961021335e-02 -8.359977811665419978e-01 8.978539833738110598e-01 4.401829049612340228e-01 -9.860766687680209627e-03
3.232844637915663778e-03 4.220600136117948903e-02 -9.561674622882476715e-01 -9.488639722057112813e-01 -2.729149463381875806e-01 -1.586650380998388399e-01
-3.192656652290605523e-02 1.161411150621335514e-01 -9.072223767360541036e-01 9.344218642024035848e-01 1.624730844854289091e-01 3.169515365450929489e-01
-4.887537322713742839e-03 2.910165228434240248e-02 -7.076918143522707982e-01 8.367299883251586579e-01 5.219693166965118092e-01 -1.656229424468609046e-01
3.361496689259020620e-02 -5.283200775952618528e-02 -9.798640497885259260e-01 -9.567254728150170751e-01 -2.897905591858750962e-01 -2.641593219289129629e-02
-6.714973977941255702e-03 2.307523552562420338e-02 -8.315140064638891770e-01 2.731817990627545545e-02 -5.641625282034903321e-01 8.252117054536091123e-01
4.527409190849207565e-02 -9.131063696531921403e-02 -9.559066248316724357e-01 -9.560317585188412570e-01 -2.926728661398225739e-01 1.859758395257535626e-02
-8.879408298463646598e-02 1.497488424122588868e-01 -7.534678753945116547e-01 -8.357999326821603514e-01 -5.003807137455770215e-01 -2.259593189934034907e-01
7.283885150248614257e-03 3.822245185576560178e-02 -9.787970081070984651e-01 -9.518520426554214486e-01 -3.063302844687014193e-01 -1.180871330950313686e-02
1.801325163580317495e-02 -1.511577398056324767e-02 -9.713800612719191152e-01 5.023473073387225707e-01 -5.708220539139442495e-01 -6.494685254690952814e-01
6.162972866637574099e-02 -1.108865149909990799e-01 -7.847298212585098742e-01 -9.266405215922950411e-01 -3.622725844819010832e-01 1.004784468230021238e-01
2.725965811312117126e-02 -3.552843103937695229e-02 -9.522731334056298014e-01 -9.487898849366070975e-01 -3.128549512462668880e-01 -4.381248363965975501e-02
5.060228943242799093e-02 -1.193057549792066602e-01 -8.668372288400539860e-01 9.399913255787269994e-01 3.359791501475148379e-01 -5.945013459110888576e-02
-1.887466534877379337e-02 4.814449037178168689e-02 -7.749692345373163649e-01 -8.423084906398232707e-01 -5.373038006278894052e-01 4.267355652963292223e-02
4.810702632647064630e-02 -6.060270995156780832e-02 -7.207702567096535562e-01 -8.992959340508863697e-01 -4.164747506256215037e-01 1.334751103796874283e-01
-1.977759865064870545e-02 6.008966599463981539e-02 -7.322372630906435198e-01 -3.500858571830324784e-01 -9.307181891855442757e-01 -1.058467992884179198e-01
4.306984100425182566e-02 -1.080455055836451184e-01 -9.662032872331464128e-01 9.579562531210537024e-01 2.866352532977821110e-01 -1.265103447104546849e-02
-1.961149597818963308e-02 5.120691813604889842e-02 -8.794374573789913718e-01 9.188160816550857701e-01 3.685204468823692903e-01 1.413141476343161007e-01
-2.982958501995360001e-02 6.732499925703663846e-02 -7.736411434562129319e-01 3.433773051987486502e-01 -9.275881850319487310e-01 -1.472147589869325923e-01
9.404096588547733795e-03 2.499095083643955439e-02 -9.651870121070281749e-01 -9.520770316775389874e-01 -2.787575796953182250e-01 -1.258711146947324722e-01
5.161912781915083299e-03 1.786182503442144617e-02 -9.124986073153601440e-01 -9.285267311644609389e-01 -3.597581474913909005e-01 -9.171796348918313802e-02
-4.715304715364478788e-02 7.367869658953274392e-02 -7.846781400959637054e-01 8.103001806357276182e-01 5.834625915391784545e-01 -5.463535060831265638e-02
-7.873263780607797635e-02 1.173749424851637246e-01 -7.447414261811428071e-01 1.736106434071212901e-01 9.837904889866480040e-01 4.489563759628645984e-02
-9.147268288741608466e-02 1.528086212837111990e-01 -7.710876110255456828e-01 8.757140477532957545e-01 2.933339370032866378e-01 3.835102449344606756e-01
2.758891875482002293e-02 -4.162525271287691175e-02 -8.579860925989829523e-01 -3.798255114034937985e-01 3.862261999313488237e-01 -8.405723665298925340e-01
5.350871265903431317e-02 -1.135848563477527967e-01 -9.125815843186052545e-01 -9.483554841301401472e-01 -3.155191032926660255e-01 3.270429907029196587e-02
-9.249788313435841625e-02 1.501323221902147176e-01 -7.652054216115138363e-01 8.680052900491188606e-01 3.912366409661420241e-01 3.057788534419518811e-01
-2.244184712532080322e-02 6.368836635580782390e-02 -8.515814768155426373e-01 -9.024163267251233966e-01 -4.025369404406086704e-01 -1.536515045180132932e-01
5.127116022840329940e-02 -9.545759620589540362e-02 -9.061951229403126806e-01 -9.272503632920432448e-01 -3.627682208007817488e-01 9.276843079307151019e-02
-1.453107325897804239e-02 8.610436450505321027e-02 -9.454268667801505321e-01 9.370189294913537914e-01 1.219080412515107514e-01 3.273132372103169097e-01
5.400093766744199636e-02 -1.104292113752054078e-01 -8.800347491502645836e-01 -9.449560165210240115e-01 -3.236991374856967307e-01 4.771787119868309279e-02
3.024332414442996303e-02 -4.475818300976787401e-02 -9.509789485645384621e-01 -9.487898849366070975e-01 -3.128549512462668880e-01 -4.381248363965975501e-02
-3.457779942735012685e-02 6.204223897271167465e-02 -8.125027628460724793e-01 8.743724071749027216e-01 4.778669663657185707e-01 8.435671892381257919e-02
3.232519358217824865e-03 3.809521242476760199e-03 -9.113530734364639896e-01 9.277006036592776450e-01 3.602804203558863660e-01 9.782437670845375854e-02
8.123578229393670080e-02 -2.526296439232178503e-01 -9.885737931301448178e-01 -4.088275904529384830e-01 4.308586563194796715e-01 -8.045003539831518946e-01
2.529085378311009963e-02 -2.674753003239531760e-02 -9.687410967593983457e-01 -9.527367094548472304e-01 -2.987971642928476390e-01 -5.489095615584571597e-02
3.795486332250440353e-02 -6.822019403798885995e-02 -9.511808549428006909e-01 -9.522320301432721790e-01 -3.053551343005710406e-01 -3.521750346468846375e-03
6.575876388642630521e-02 -1.903374592466657578e-01 -9.500267619704463318e-01 7.001079452966318950e-02 5.325426451145434115e-01 -8.435027088182530663e-01
2.596656496270208225e-02 -1.660981923764115811e-02 -6.954969104928180323e-01 8.105674315419379994e-01 4.981424646631216757e-01 -3.079521453454352464e-01
-3.764838765143324606e-02 8.391475679761502271e-02 -8.187524096589877676e-01 -8.728014673406895296e-01 -4.664130887245178103e-01 -1.437930084336303815e-01
-5.318536153614814715e-02 1.040891732579510703e-01 -8.265202429124448580e-01 8.917759912287319679e-01 4.014561401272989105e-01 2.087308051584690904e-01
6.754621564330384742e-02 -2.229881223959582492e-01 -9.746581790125389277e-01 9.671065182054933151e-01 1.977535147987717068e-01 -1.599954056502240485e-01
7.150575017627114338e-02 -1.793615283873803423e-01 -9.458657744265256406e-01 -9.178418890600655855e-01 4.077580887494565431e-02 -3.948462993333533011e-01
2.226059000642368821e-02 -3.764728670801557875e-02 -9.722727928787349150e-01 9.608487818518908208e-01 2.703380921857498342e-01 6.072013115191852994e-02
3.822581614826477125e-02 -6.901008839315109222e-02 -9.559545216678928536e-01 -9.522320301432721790e-01 -3.053551343005710406e-01 -3.521750346468846375e-03
5.301754670632329719e-02 -1.042040698448380709e-01 -7.832473134284642091e-01 9.177106097568423770e-01 3.774473892232618755e-01 -1.238576001231560253e-01
5.609863467086514087e-03 -1.093305650548358383e-02 -8.548038852239193686e-01 9.060180881082223747e-01 4.223971311940751261e-01 2.668122148134242921e-02
-1.385241526842103180e-02 4.745023032022795823e-02 -7.287055676669542681e-01 -8.227291371033320644e-01 -5.548412755625965476e-01 1.235634488563557704e-01
4.902086006137795771e-02 -9.411810824842802015e-02 -7.801932833810383272e-01 9.101303191846074059e-01 3.974132456342823194e-01 -1.171559400771027132e-01
8.219057617400409022e-02 -2.679432773563452108e-01 -1.016014839895497124e+00 -6.942036208046817314e-02 -5.127464502596458251e-01 8.557288653976498072e-01
1.625754309929573066e-02 8.684251070392971436e-03 -6.947873216610424008e-01 -8.627157577934591037e-01 -4.838612868642997444e-01 1.469686236204220398e-01
5.645603564949074754e-02 -1.110406072211936462e-01 -8.441915934612242989e-01 -9.303110126592891715e-01 -3.613998318909206198e-01 6.254263533032478062e-02
2.498121139087290579e-03 1.888676916446117501e-02 -7.409906172095385157e-01 -8.525826035364568733e-01 -5.114897154464781437e-01 1.071502456342369597e-01
-1.605026648587623561e-02 7.755658442553871323e-02 -9.105608809671426052e-01 -9.383271726320839834e-01 -2.731288877540096749e-01 -2.119969994470123353e-01
-4.089685061062028892e-02 8.276827314795119628e-02 -7.478197689489297639e-01 -7.960979324054253681e-01 -6.029933897516313035e-01 5.125479426984500680e-02
-3.708439265377536792e-02 8.991494849876256745e-02 -8.368020564194339483e-01 -8.889936244137933707e-01 -4.136102642222205805e-01 -1.965117937469706422e-01
1.970733032178122873e-02 -4.134503504396488255e-02 -8.498238619844578068e-01 9.043443875141405908e-01 4.260808056279462575e-01 -2.482691779327656639e-02
5.536541171745491818e-02 -1.630096896391468875e-01 -9.410177317297707678e-01 9.510233468281229507e-01 2.835829376395466728e-01 -1.230256528841051633e-01
-3.539906389220358329e-02 9.003024684169792791e-02 -6.799896462717526235e-01 -7.814784356229717011e-01 -6.104141339878799144e-01 -1.291744544563647734e-01
3.614763807471163288e-03 8.861846980583521979e-03 -8.432503429536628570e-01 -8.944195137468372581e-01 -4.459014439534392804e-01 -3.443306127994853749e-02
6.046785625646389911e-02 -1.065720544892311689e-01 -7.935570602637648241e-01 -5.638546849558379037e-01 -8.186489505015622781e-01 -1.090036242335238048e-01
-7.914227751753061257e-02 1.336477024257135826e-01 -7.697101531430208254e-01 -3.108533508913768340e-01 6.535117547349995615e-01 6.901395370957849051e-01
5.503814617804358295e-02 -1.240498026348818700e-01 -9.552128731185315358e-01 -9.614559171127199377e-01 -2.706829685458531087e-01 4.830372644158141548e-02
4.857658143408430038e-03 1.172500608465188945e-04 -8.609868316134482447e-01 1.765903624377212211e-01 -7.034395784441609401e-01 -6.884683023730397977e-01
-7.589794037255684182e-03 3.582253552083928400e-02 -8.662824683220371469e-01 -9.043975483496696777e-01 -4.173485670140328896e-01 -8.879891975941998916e-02
3.170520190651624631e-02 -7.132684217573914687e-02 -9.504350098182547946e-01 9.525187838357546122e-01 3.041046697426405543e-01 1.511013834398148258e-02
-8.124959980520669867e-02 1.256036157800100306e-01 -7.206345435444225789e-01 7.164269063872584775e-01 6.809228595925753691e-01 -1.519096675286067955e-01
-6.042817208800059514e-03 3.831080682725997860e-02 -7.164207804340622099e-01 -8.289131238015610137e-01 -5.366943340879631874e-01 1.576775981153173689e-01
5.723396923562494576e-02 -1.074931227841259135e-01 -8.162511340077329702e-01 -9.278776444593778150e-01 -3.647240205093552068e-01 7.758521622066832935e-02
4.804171761737200536e-02 -1.226247995855986733e-01 -9.395749584719035319e-01 9.561827858174770656e-01 2.912998096281924632e-01 -2.930701310108798849e-02
-6.935698196700851303e-02 1.266860913752319295e-01 -7.551388428464298475e-01 -7.016681841678771292e-01 -4.199101366615392017e-01 5.756190028616510190e-01
4.784515915610770137e-02 -1.107268931812601387e-01 -8.619484232069887231e-01 9.399913255787269994e-01 3.359791501475148379e-01 -5.945013459110888576e-02
2.470814864771426339e-02 -3.306772013924449971e-02 -8.150721603012633931e-01 -9.011352056820725043e-01 -4.307950077834110103e-01 4.869293941855941388e-02
-3.715315046511950825e-02 9.380809094646379298e-02 -8.448597593311958365e-01 -8.967144633519081864e-01 -4.015209845438623137e-01 -1.862365973336779501e-01
-6.942057007978318095e-02 1.229619668009178518e-01 -7.648170394045239462e-01 -8.245504414743883848e-01 -5.505332537527810599e-01 -1.304979156031508269e-01
-1.476105495405395478e-02 4.128471766509731605e-02 -7.801446406212886320e-01 -8.423084906398232707e-01 -5.373038006278894052e-01 4.267355652963292223e-02
-1.210946909699815895e-02 2.735915875662491004e-02 -7.585227116521758850e-01 8.308839904118625608e-01 5.486526901651134214e-01 -9.280097010184790163e-02
7.393595456260840075e-03 -1.365131684710217327e-02 -8.115606331215222680e-01 8.856864326924375197e-01 4.615260801722393391e-01 -5.052940001021179184e-02
-3.787513265174356769e-02 7.884740509203874703e-02 -8.442727734878375800e-01 8.988865862233786919e-01 3.902681309582370917e-01 1.992327560067477243e-01
-4.066021733236960256e-02 8.161324133744941867e-02 -7.606990420788257712e-01 -8.314577744942409643e-01 -5.554681068718994030e-01 1.153912827001648926e-02
-1.745035799021186704e-02 9.843077390870985655e-02 -9.289549355404271846e-01 -9.437967279044805480e-01 -2.446268222158009820e-01 -2.222733772843577815e-01
-9.379855569359865641e-02 1.495878584665103483e-01 -7.173111715698913260e-01 -7.352644797467544624e-01 -6.746237690613928750e-01 6.533693473170323895e-02
3.059044037611921910e-02 -5.334309032833397385e-02 -7.769613469661637017e-01 8.893877429939879287e-01 4.459154847569406499e-01 -1.007413672035594038e-01
5.011485603475342626e-05 4.987630155467618481e-02 -9.503272465186972662e-01 -9.488639722057112813e-01 -2.729149463381875806e-01 -1.586650380998388399e-01
4.258010425338540350e-02 -8.529402963379013880e-02 -8.013217396405866166e-01 9.120043547937245476e-01 4.000047796618612095e-01 -9.079775925069838438e-02
5.869535540281414776e-02 -1.580106667865360803e-01 -9.381989461656597973e-01 9.564395852537976861e-01 2.838905666933100314e-01 -6.804017858658742424e-02
6.309416695378883798e-03 2.290952011775557184e-02 -9.772505619290795531e-01 9.578183387829050099e-01 2.143236439439995533e-01 1.914403445925696723e-01
5.196441558355060358e-02 -1.033544408219343874e-01 -8.703178179735558961e-01 -9.335083692756036555e-01 -3.553321490326152854e-01 4.797070310373177660e-02
4.495300045059454075e-02 -7.459141608104236099e-02 -8.005804678122782070e-01 -9.068818096540391949e-01 -4.124910431452780690e-01 8.611923503802827728e-02
5.236187802872391273e-02 -7.290883417480607809e-02 -7.307971598405212932e-01 -9.115324310509995698e-01 -3.916869319767486979e-01 1.252596282163427055e-01
-3.322884242659954884e-02 9.024777202150346955e-02 -8.557587562735101683e-01 -9.095885101808683926e-01 -3.401281888638673090e-01 -2.386662047444786661e-01
-3.004499290906065961e-02 4.753471287580420673e-02 -8.062678393992168679e-01 8.753524645050427822e-01 4.714448863353897790e-01 1.072277111252450954e-01
-6.975957050909768753e-02 1.231744214612611604e-01 -7.158586163561951876e-01 -7.525767672429826138e-01 -6.473440570960234952e-01 1.207223307783670679e-01
-4.640561430585486008e-02 9.714210131531808567e-02 -8.086798061666465864e-01 -8.723563925582642486e-01 -4.640571476227552949e-01 -1.537702445304796883e-01
-5.690314497076370825e-02 1.108068765457673743e-01 -7.931914741381300704e-01 -8.594458203212410607e-01 -4.830231500541497525e-01 -1.674560194323122253e-01
6.757583456052594639e-02 -1.667190637247691898e-01 -8.651987599795613049e-01 9.050155460740481050e-01 4.078601201115521491e-01 -1.208179779125703041e-01
-5.141342139877260603e-02 1.134926843877854391e-01 -8.443941134396359960e-01 9.088637522134053182e-01 3.288581786975741661e-01 2.565520964955925187e-01
-6.270218912999305644e-03 1.197403184227129741e-02 -8.315498808023479294e-01 8.937353888675958480e-01 4.475357490171401054e-01 3.080272775833965693e-02
-2.733346051791188391e-02 5.137295458143781302e-02 -7.530184203155165790e-01 8.154906973288650329e-01 5.695490191675313119e-01 -1.029020764386425896e-01
6.448466198804943261e-02 -1.165127705565017630e-01 -7.643502196886124977e-01 -1.773301284724366211e-01 7.398990404657648234e-01 -6.489248303569447041e-01
-1.455287787617969529e-02 6.398222508420818577e-02 -9.375625838527683609e-01 9.154575640033952855e-01 2.766125446322498793e-01 2.922720456373492093e-01
-4.058399149759790020e-02 1.284978184949454594e-01 -8.663698479489631010e-01 -9.427826855747584167e-01 -2.392766009431873120e-01 -2.321799216588736336e-01
-1.796143523732102176e-02 3.381616632576107950e-02 -8.277487273095986975e-01 8.806525265148674730e-01 4.718987665716020685e-01 4.198430243771332504e-02
-9.314886898910005111e-03 4.461666050132095246e-02 -7.119303625459757479e-01 -8.231538938007907369e-01 -5.473489441886399964e-01 1.510854076877623242e-01
6.279228695439155461e-02 -1.235304204172534420e-01 -8.220629939928820740e-01 -9.374440233960811275e-01 -3.378920948069261132e-01 8.383099227585767699e-02
-5.077293863434730048e-02 1.291760766912613267e-01 -8.437763431423120908e-01 -9.092217412964667123e-01 -2.796647343380524453e-01 -3.083884912272950585e-01
3.849220328285316451e-03 4.108979607183169645e-03 -8.830155651374149706e-01 -1.652318332300564963e-01 7.002665056784936892e-01 6.944964091428168507e-01
-6.095354772597513793e-02 1.132170062251414283e-01 -7.795628064014784586e-01 -8.423392147813897335e-01 -5.263614663917559611e-01 -1.157940151276913715e-01
-4.270569232641320372e-03 1.068192412544802065e-02 -8.770990055636139759e-01 9.184761178227360823e-01 -1.331609458537846569e-01 -3.723839194817638032e-01
8.228521195806458299e-02 -2.625553945124784461e-01 -9.944229283598415847e-01 -4.088275904529384830e-01 4.308586563194796715e-01 -8.045003539831518946e-01
9.362365223513319928e-03 1.068406674154205767e-02 -9.254731764140110561e-01 -9.445243561083320749e-01 -3.133373578790922820e-01 -9.845527347730094470e-02
9.715120004561535877e-03 1.113946389733995630e-02 -9.303066242041569955e-01 -9.445243561083320749e-01 -3.133373578790922820e-01 -9.845527347730094470e-02
1.913657881956989590e-02 -3.577899395971523289e-02 -8.051414505839276092e-01 8.990544935712133645e-01 4.340322825690373088e-01 -5.759336139973442181e-02
-5.522532955607642458e-02 1.065117617347451640e-01 -7.700521030011636681e-01 -4.727497993946674915e-01 -7.297727684819056426e-01 4.939021497772167479e-01
-2.464689586230225937e-02 5.307434236237616731e-02 -7.549273905716644695e-01 -3.158623915478209754e-01 9.291285213726813152e-01 1.922267941196173224e-01
6.978070303847515310e-02 -1.727611047293491631e-01 -9.290361077371507292e-01 -9.766298143555453004e-01 -2.027267637253687138e-01 7.138672832740879104e-02
-5.629283758963577432e-03 1.055293815303766890e-02 -8.808674100932678552e-01 9.467198165160068957e-01 3.199668434143916884e-01 3.664434651249699748e-02
-4.489350930373077475e-02 8.222517474758317402e-02 -8.276239159376533872e-01 4.048579141766108225e-01 7.485045110942007973e-01 5.251962168563243383e-01
4.035034634611785881e-02 -7.591227314813510374e-02 -9.780296907878562873e-01 -9.587090869876586652e-01 -2.843492921069609158e-01 4.729334578974170658e-03
5.066388739412148318e-02 -1.041442317406354595e-01 -9.046964367255263539e-01 -9.460268658907650119e-01 -3.204540979155635072e-01 4.839772868656901095e-02
-3.742607360594257804e-02 7.299910872742881862e-02 -7.174043973105959093e-01 7.925426038461881317e-01 5.910982134121263165e-01 -1.499303944825600698e-01
1.198348584794947137e-02 3.253339561116583810e-03 -7.401439697831112552e-01 -8.525826035364568733e-01 -5.114897154464781437e-01 1.071502456342369597e-01
-9.653658708769349492e-03 4.151860776604034131e-02 -7.268077932186701728e-01 -8.285336050764121607e-01 -5.450067818077465320e-01 1.284510531005762235e-01
-6.978416492606408228e-02 1.460644878745194775e-01 -8.050514721600450230e-01 -8.882871684877465812e-01 -3.454303094866260637e-01 -3.026942476955837291e-01
-4.985243070352135542e-02 9.579664778073258835e-02 -7.360962435324354125e-01 -7.951127589774414917e-01 -6.024025084344566405e-01 7.004939930617200272e-02
-2.027334049740504157e-02 1.077090378318185659e-01 -9.264551275805203989e-01 -9.401964498998914843e-01 -2.332427053177243692e-01 -2.482508328519964225e-01
-2.015173425387270512e-02 4.416898211036979910e-02 -8.572391090857864882e-01 8.958309686864778243e-01 4.295616085186755861e-01 1.138582453276637402e-01
2.904774547273386923e-02 -1.737769583546633356e-02 -7.045098714932696016e-01 -8.764383004500054808e-01 -4.616914741930562838e-01 1.367365648308755122e-01
4.997177982608982244e-02 -1.041408998685095372e-01 -9.270249793892449963e-01 -9.495923952590020756e-01 -3.125812818093688938e-01 2.381648858842991962e-02
-7.198741375142690690e-02 1.235407666461916382e-01 -7.454353523497171397e-01 -7.909401800441109298e-01 -6.110576449544179445e-01 -3.197164579044722149e-02
-4.126136270435819958e-02 6.965642368786811867e-02 -7.759647655983228365e-01 8.281191526102668066e-01 5.603409160911340114e-01 -1.538592974773107282e-02
3.662814080073508588e-02 -6.486711322868457530e-02 -9.096871299169504432e-01 -9.399089942319276414e-01 -3.412540438781281882e-01 1.080555869683021489e-02
5.639439213020711050e-02 -1.261069140809193134e-01 -9.393958825732587892e-01 -9.564803545202651414e-01 -2.893656989412420333e-01 3.758754704731309682e-02
-3.879092971415377261e-02 7.876081331853757028e-02 -7.766874892467275915e-01 -8.386378392026947459e-01 -5.442899385397581558e-01 -2.085755167370361221e-02
4.689982041944202457e-02 -8.432726399735911149e-02 -8.869737122462998391e-01 -2.190512663812211602e-01 -9.521767298034289340e-01 -2.130164733480273687e-01
8.420606883062724257e-02 -3.062976199944659750e-01 -1.038131496291556655e+00 -6.017158973210800371e-02 -4.948462953754965699e-01 8.668947593233319315e-01
4.566919527456511640e-02 -8.233141912499016002e-02 -8.350575820767939250e-01 -9.183461170660490724e-01 -3.908996157048267306e-01 6.195078459171422108e-02
-1.429430631582350418e-02 5.590099196614668753e-02 -6.981789456285915074e-01 -8.231538938007907369e-01 -5.473489441886399964e-01 1.510854076877623242e-01
-4.772386553768277750e-03 6.305344584963742949e-02 -9.288256674041553973e-01 -9.048954821239413304e-01 -3.572692156397289653e-01 -2.313501112769398294e-01
3.216979035040404278e-02 -6.693881849092267466e-02 -8.278982276602244728e-01 9.116092651983068729e-01 4.069274284258750929e-01 -5.812585998767758055e-02
2.176358093072281938e-02 -4.675982582323198744e-02 -8.709367437241540832e-01 9.194759680558944881e-01 3.928613663581106974e-01 -1.496298736595774552e-02
6.308024061783626402e-02 -1.989286365226480002e-01 -9.671398009123314266e-01 9.747034978455133558e-01 2.229386150200129424e-01 -1.585765495524346300e-02
-3.652848707364788478e-02 8.236800869187095586e-02 -8.205329364653797253e-01 -8.728014673406895296e-01 -4.664130887245178103e-01 -1.437930084336303815e-01
6.933594187227744288e-02 -1.941598686682736996e-01 -9.724460839715841631e-01 -4.709874846774169538e-02 -5.313230756931466292e-01 8.458590291110847925e-01
5.874461560017677636e-02 -1.319948441586592525e-01 -9.265440917746582405e-01 -9.544891199339704535e-01 -2.940719482856869460e-01 4.972131493770375055e-02
-1.017383032559672495e-02 3.902131922487799692e-02 -7.413756087075756840e-01 -8.373908024712946041e-01 -5.375878951673649375e-01 9.887314552497729336e-02
-3.451195482726004959e-02 7.458747776979858524e-02 -8.033616610314298079e-01 -8.565820670683172988e-01 -5.073560061689100786e-01 -9.411187694069915455e-02
-4.117918762038239033e-02 8.890417869965058784e-02 -8.352568059462383010e-01 -2.589776789564861015e-01 7.169376406285159486e-01 6.472487784865477156e-01
-3.619910139531950372e-02 5.735752913033381056e-02 -7.995545046129396427e-01 8.768670522713696291e-01 4.760499725132177895e-01 6.693725652492224509e-02
-4.242902078917615977e-02 8.757427777702812832e-02 -8.010334960298807205e-01 -8.588486283030888346e-01 -5.028197026099209266e-01 -9.773116355172213610e-02
6.911677559084485056e-02 -1.556250611467702993e-01 -8.774210116583309738e-01 -9.550725114127461834e-01 -2.887355951752474947e-01 6.684499998163766221e-02
-3.784052947312143561e-02 7.645221549074139589e-02 -8.016231338749105761e-01 2.911475846783593280e-01 -7.021338122574615204e-01 -6.498008876731095063e-01
-1.100770234136033005e-01 1.824803003962424952e-01 -7.476845564554470691e-01 7.402103891210669584e-01 -4.431345610045963057e-01 5.056879874789415030e-01
2.536762767243049173e-03 5.329269197631907561e-03 -7.489203373315760359e-01 8.463132436517876167e-01 5.188364902234721132e-01 -1.206755568960788116e-01
-6.194372529657529020e-02 1.257963139417372922e-01 -8.034155745630640055e-01 -8.764671442291827042e-01 -4.130635292779037404e-01 -2.473537262044444573e-01
3.879099363087221142e-02 -9.189589090269315030e-02 -9.087947856798018753e-01 9.442340079014045484e-01 3.292221429409232236e-01 -5.909223285384018406e-03
5.211724818022808736e-02 -7.386669719691152380e-02 -7.357248079131843976e-01 -9.178167868213196190e-01 -3.841436278459721687e-01 1.002298309602649429e-01
-8.425124207878308125e-02 1.408318632741109022e-01 -6.887868781170347621e-01 4.208323138099608340e-01 2.558956694227327855e-01 -8.702974032042416486e-01
1.256864028058401334e-02 1.793508654767991470e-02 -9.752709301199317116e-01 -9.590179817632947801e-01 -2.620486773918339618e-01 -1.077729155764433899e-01
4.285302542309107898e-02 -7.828795446468132802e-02 -9.163871831092763598e-01 -3.618683733111859313e-01 6.266276191991433375e-01 6.902094662158214655e-01
-7.250829761721172551e-02 1.323790286453993270e-01 -7.594232887923576536e-01 -8.522859081409538407e-01 -5.165553370748595663e-01 -8.233659286020945933e-02
2.090842263736937892e-02 -2.134939658652723268e-02 -8.342248067120078270e-01 -9.510087481737808934e-01 2.882222778896763038e-01 1.118493604140150949e-01
7.533933411564905890e-03 -1.786947304468550213e-02 -8.311378705312166826e-01 9.623843900893603864e-01 -2.440230575357797416e-01 -1.194530581576676714e-01
6.943339879605794907e-02 -1.400366901389373253e-01 -8.131465131058369655e-01 -9.432821541306233293e-01 -3.183488867628299634e-01 9.419535018013144856e-02
4.636944614518415109e-02 -1.194784944569018820e-01 -9.735592562775270409e-01 9.588930383081150088e-01 2.837340194641477797e-01 -4.375760842445736674e-03
1.505088010068180576e-02 -1.981348128973001860e-02 -9.501562514460627495e-01 9.443286378013872051e-01 3.183183953979252245e-01 8.316743941871959644e-02
-4.007321558573662471e-03 2.246247813998935097e-02 -8.218461707185306109e-01 -8.771148484881169383e-01 -4.795115159373790070e-01 -2.717073140539334047e-02
-6.741839400702849538e-02 1.239656817553737161e-01 -7.263131390976986790e-01 -8.214763962060344094e-01 -5.682803834945939769e-01 4.726453439507645460e-02
-4.439520532573252437e-02 8.137517858686289796e-02 -7.201147547063033727e-01 7.737488644964564122e-01 6.094036009431944567e-01 -1.730316325066372507e-01
2.951589602323874753e-02 -3.052590858951683209e-02 -7.472103988054892287e-01 -8.828384132645252791e-01 -4.565253299780024365e-01 1.103673826501792576e-01
-4.898210753642268794e-02 9.048853395725769966e-02 -7.826412760601314522e-01 7.345812866247926343e-02 -5.652630343117849288e-01 8.216334982058851599e-01
-1.218448620258522075e-02 4.362088971549528404e-02 -9.051360546780193861e-01 9.369119299773100984e-01 3.088017294632262599e-01 1.638216327189788990e-01
-6.335358764371312040e-03 6.950027978037302823e-02 -9.452732323787947921e-01 -9.439881831625747122e-01 -2.708051759846376583e-01 -1.885493747254300134e-01
5.242533456292219202e-02 -1.067424131230529927e-01 -8.862266058181674788e-01 -9.449560165210240115e-01 -3.236991374856967307e-01 4.771787119868309279e-02
1.686475756293846079e-02 -1.185442334828950769e-02 -7.723611400619904144e-01 -8.703840432059495313e-01 -4.868949389201486788e-01 7.324572196659873136e-02
3.672114494720542244e-02 -8.636143722000906575e-02 -9.180616451464600480e-01 9.416227720650461874e-01 3.365684358348978167e-01 -8.260939909473007450e-03
7.998492340671634060e-02 -2.423785889808453275e-01 -1.000222568088720898e+00 -7.398106262927978127e-01 -3.995716384277273048e-01 5.413157516537271396e-01
8.168416301509855149e-02 -3.291832801698539868e-01 -1.040595125320779468e+00 8.302502506810789662e-02 9.276612227398043364e-01 3.640762297065421316e-01
-5.475255569389901600e-02 1.564868310236297577e-01 -8.544887536039010856e-01 -8.996302338506990681e-01 -3.371286046297254924e-01 -2.775062995359752760e-01
-1.014636049511769000e-02 2.117827099434329077e-02 -8.480801333687658650e-01 8.947137307328782985e-01 4.436029860616725329e-01 5.199741142808694816e-02
2.564401425672290999e-02 -5.421089314230191636e-02 -8.445675138217680900e-01 9.154007927220254581e-01 4.013633781929902833e-01 -3.080304091153543422e-02
-1.616555088363783033e-02 6.506944215213576743e-02 -8.891900832362836793e-01 -9.288293600634136560e-01 -3.250937277359904898e-01 -1.777360066809955674e-01
7.130904656170909683e-03 -1.092152198586198060e-02 -7.932492762532186159e-01 8.717420301274252381e-01 4.871722025673742573e-01 -5.224057766686845961e-02
1.393569273486755522e-02 -2.386731598747187169e-02 -9.163879518984504591e-01 9.347922774842802873e-01 3.475070223071779485e-01 7.350011838732449510e-02
1.458251799365091993e-02 -1.185070287457174083e-02 -8.046061172558278685e-01 -8.903451045931516372e-01 -4.530600751872548848e-01 4.496846671089389791e-02
1.068204231765168717e-02 -2.897163570694643100e-02 -8.548298455812106678e-01 8.945914438393787194e-01 4.428089844972941114e-01 -6.021919841587457939e-02
2.698078626772716995e-02 -2.470685771024306102e-02 -7.682469741003161712e-01 -4.826469998495911962e-01 -8.727335413946406550e-01 -7.340326464781692095e-02
5.028924243702946606e-02 -1.113882836794943126e-01 -9.211187111334626643e-01 -4.172436250479243797e-02 -5.456161443743311468e-01 8.369958784675450847e-01
4.215435540613914067e-02 -4.522903573711215680e-02 -7.116745346012043338e-01 -8.940034438912500825e-01 -4.299354444503011297e-01 1.261481506638376660e-01
3.687642335875753602e-02 -6.562265809450837373e-02 -9.220138878337333921e-01 -9.429577022427012567e-01 -3.328659389273951330e-01 -5.571219179692200006e-03
-4.725099728579695152e-02 1.017778801453260856e-01 -8.165398929844192022e-01 -8.871761255208638897e-01 -4.106421282607157774e-01 -2.104556124300275277e-01
-2.394122908534635982e-02 6.348688238137735473e-02 -7.512546146035051775e-01 -3.127444536781710527e-01 -9.455069850740275283e-01 -9.059496602883083949e-02
4.393591101803120264e-02 -7.235611159371375944e-02 -7.479452860222768340e-01 8.961734307526035836e-01 4.187615479421658571e-01 -1.466695195948679864e-01
5.008672920033171300e-02 -1.126807257698788228e-01 -8.121563741117419077e-01 5.314592381256931786e-01 8.422701390649711684e-01 9.017810737829798362e-02
-1.948268983544100205e-02 5.633807624881979892e-02 -7.259076554027857897e-01 -8.065557565723783240e-01 -5.739795796877986689e-01 1.414752757246862669e-01
5.569336938205194341e-03 1.007849536156697930e-03 -7.462321585351154862e-01 8.463132436517876167e-01 5.188364902234721132e-01 -1.206755568960788116e-01
-5.524813179869120933e-02 1.082725420149149714e-01 -7.943753784588171163e-01 -8.594458203212410607e-01 -4.830231500541497525e-01 -1.674560194323122253e-01
-1.486258472559967743e-02 4.120492636654705249e-02 -8.034533851214988864e-01 -8.579700115336700295e-01 -5.135024084255681576e-01 -1.423853398546270042e-02
-1.008881778352300473e-01 1.617142288795677119e-01 -7.208912249102201741e-01 -6.001878976324691584e-01 1.526863832869211103e-02 -7.997132962625443930e-01
2.963106561313470430e-02 -4.673661930096761202e-02 -9.011832330394685675e-01 -9.325159181323994240e-01 -3.611030674743901381e-01 -4.317069639678027329e-03
-4.947236326978591420e-02 9.456674593591898881e-02 -7.749661483546512741e-01 -8.258273165025742379e-01 -5.606103085255222940e-01 -6.103544292520153569e-02
2.561572815545900758e-02 -5.604363358428837011e-02 -8.769300519656285653e-01 9.213541711209943808e-01 3.885951853800369560e-01 -1.001365354901927011e-02
2.001654624783925224e-02 -4.487468723693884692e-02 -9.500516110931688241e-01 9.696793600033265514e-01 2.443439225908627388e-01 -4.241023042776458606e-03
-3.868760579385313592e-02 7.411352621319715339e-02 -7.793524008616314891e-01 -3.145273425681469059e-01 3.824259305531748088e-01 -8.688054778933876898e-01
7.052028361150748659e-02 -2.571370183471041182e-01 -9.990385420758484125e-01 9.895984185590865900e-01 1.346051868099728543e-01 -5.075838521079108212e-02
1.315154367187630451e-02 -2.575119211883022605e-02 -8.354593204145568386e-01 -2.296488292251816221e-01 9.613045457974530583e-01 1.521676229184645013e-01
-2.293659215705276880e-02 7.852699846832010555e-02 -8.810159232894919645e-01 -9.154892265114595862e-01 -3.485465461446164981e-01 -2.009845300318114092e-01
-1.375006211303368524e-02 4.729242456976932157e-02 -9.181871525564198055e-01 9.580960080009338631e-01 -1.334656835543724662e-01 -2.534540407372471438e-01
-8.377534255561287779e-02 1.646418091074386414e-01 -7.900643164372068705e-01 3.556102788866146169e-01 -7.958422192060037315e-01 4.900780465185594625e-01
4.423610722095841497e-02 -7.006314231724355968e-02 -7.399933811634477054e-01 8.866005343255766169e-01 4.381757531365320091e-01 -1.481266414148201815e-01
1.927335424060083735e-02 -3.071180345237286766e-02 -9.601081426073604375e-01 9.534981982925183619e-01 2.955190730888619388e-01 5.924241127453280797e-02
5.712401123004106490e-02 -1.267883177030973696e-01 -8.246939817213295720e-01 9.308019317838478468e-01 3.524194788408992474e-01 -9.699626137622799349e-02
-3.686835586600785419e-02 6.854135415089886163e-02 -8.110066196082434953e-01 -2.625782208810196194e-01 7.142332762182727057e-01 6.487861782293692370e-01
6.979641767022772003e-02 -1.480733807207078034e-01 -8.394311475068361172e-01 -9.482001443332936930e-01 -3.066276474123445506e-01 8.304199015372662473e-02
4.665966523557606854e-02 -9.469998479901302335e-02 -9.371491701096948956e-01 -9.512263350659885264e-01 -3.083200863261673641e-01 1.035296309045647886e-02
-2.463397651710469427e-02 5.398969147029284571e-02 -7.195238270304500361e-01 6.354182634713128053e-01 -6.849552388793848090e-01 -3.564827501840529544e-01
9.937894855983777850e-03 5.333456430282437592e-03 -9.719702767611724248e-01 9.566104385066374061e-01 2.596133637415008466e-01 1.322776258743779687e-01
5.861555918928565423e-02 -1.479732021710720991e-01 -8.937871821638398995e-01 9.504349087889719661e-01 3.029814485639018007e-01 -6.982639888622467483e-02
-5.054302090080685372e-02 1.141674070917493289e-01 -8.567225620440861444e-01 9.417120956715446800e-01 1.976086575197397721e-01 2.722666842255095365e-01
