3.141054499950040463e-02 1.863549428285395148e-03 -7.433736037256247764e-01 -1.325798869687275505e-01 -7.480629653076803498e-01 6.502494702085036549e-01
1.075016384666071523e-01 5.310023979756427898e-02 -6.766507616918280288e-01 2.669816270808084927e-03 -7.381927517404280881e-01 6.745845635344577262e-01
-2.381100198513702582e-03 5.583642418225263915e-02 -6.869002312819592060e-01 -5.917864879039206327e-01 -6.646942960057358185e-01 4.560375484450617245e-01
6.264111742151017015e-02 -5.458660990517488765e-02 -7.968664546926123027e-01 -1.573418844944752815e-01 -6.997532816857655602e-01 6.968420740409758674e-01
-8.284230253096666607e-02 -4.636149163472082918e-02 -8.286673504698812698e-01 3.316340600708598818e-01 6.644420076698481781e-01 -6.697280557394761358e-01
1.954969432916941335e-02 -2.983748779278988517e-01 -9.914448432063794892e-01 -1.808933764087776175e-01 -4.602962664646862989e-01 8.691403416307995622e-01
-2.418589688572149107e-02 1.008772114143540871e-01 -6.004963815966550822e-01 1.823225103159387961e-01 8.581052741181190990e-01 -4.800144172446928481e-01
-9.639839236601743799e-02 -6.098668997419261217e-02 -8.498257430207897256e-01 3.637521116810404354e-01 6.441328947355691170e-01 -6.728872232158671363e-01
-1.093511802181193066e-01 7.554862251269116313e-02 -7.189587211358589025e-01 -5.141758473358797321e-01 -6.615990683141182993e-01 5.458112043759459908e-01
1.014255808922452824e-02 1.118497956940670834e-01 -5.816665616846931064e-01 -8.999127345063136219e-02 8.453758118431067281e-01 -5.265370902921673313e-01
-1.108573976828536867e-01 2.622065468885385539e-02 -7.775757674425197719e-01 -4.142596982128989858e-01 -6.772774202191821358e-01 6.080166103798538835e-01
5.898801304221342606e-02 -2.493466281584173772e-02 -7.674248325295753848e-01 -1.368074617712075336e-01 -7.063275807460763778e-01 6.945394640199468173e-01
1.885619895262164933e-02 -4.304177291545131095e-02 -7.963685114312424318e-01 -2.000059243260601527e-01 -7.149483866737273985e-01 6.699600246485701849e-01
1.091038177674320681e-01 -2.318792243592592006e-02 -7.567083543715805716e-01 -1.128885337446580012e-01 -7.004536630969534494e-01 7.047133068156445912e-01
7.774818095869569234e-02 -1.232868201281804715e-01 -8.541883263397833659e-01 -2.598273431261675093e-01 -5.638207239134934712e-01 7.839616974378667003e-01
-2.140856167609492614e-02 1.029632965344989826e-01 -6.103061914126863829e-01 -1.828162646085627063e-01 -8.593810369935984683e-01 4.775379007475524795e-01
-3.921023409216180082e-03 -1.080232676285744764e-01 -8.656552900655491989e-01 -2.298383306195379561e-01 -6.389431312433465626e-01 7.341158061334545071e-01
1.984573621276631422e-02 -1.361829691582550073e-01 -8.698031749768335708e-01 -3.089411130709375786e-01 5.653673792184957803e-01 -7.647974340765661960e-01
1.106198112259577232e-02 -2.585376973894887853e-01 -9.585214037122948838e-01 7.116671565021287504e-01 3.869251758627849092e-01 -5.863606114326983532e-01
8.293748514989950082e-02 2.865447551889348937e-02 -6.962837595956037351e-01 3.566989269713437966e-02 7.383696971099688033e-01 -6.734521877198915707e-01
3.709828416793967826e-02 -3.670669883068214401e-02 -7.848033112680548040e-01 -1.649082984658438722e-01 -7.155007394399778287e-01 6.788696082149687783e-01
-2.764306823063093776e-02 1.090891693310804683e-01 -6.017561476533273002e-01 -2.273796433942947559e-01 -8.521788274744052094e-01 4.712639852293313281e-01
1.387269634200084811e-01 -3.000987688091307642e-02 -7.587179189233469456e-01 -1.347009455741038919e-01 -6.662388974542003961e-01 7.334721445156958675e-01
9.210925667631855718e-02 8.097958925796765184e-02 -6.442455635500877742e-01 2.315401481012654972e-02 -7.639491856801372549e-01 6.448608635177264237e-01
-1.113897388019502444e-02 6.633276157715944921e-02 -6.546541424362433137e-01 1.414835539052752833e-01 8.214555973328333538e-01 -5.524428527774534192e-01
-2.844676135758626712e-02 1.268825737772973361e-01 -5.519171190841511976e-01 2.751830263217786010e-01 8.762701364495520950e-01 -3.955059417898429963e-01
2.303718103863626812e-02 1.323434068453863653e-02 -7.316477658720638155e-01 -1.441953656690276031e-01 -7.671650643495602218e-01 6.250323676107585325e-01
2.434755472217649264e-02 -2.990221109559327850e-01 -9.764147278291781529e-01 -3.094917604998486116e-01 4.535982094669224196e-01 -8.357412964255783727e-01
-1.052634873555715056e-01 5.217045118415934712e-02 -7.345963171862214258e-01 4.596621536869198166e-01 6.806104255378682133e-01 -5.705086792653242256e-01
-5.430114353075927991e-02 -1.033303167529917022e-01 -8.785553693451858548e-01 -2.484211690813412365e-01 -6.109647243655887960e-01 7.516708244525258653e-01
8.232787068031492683e-02 8.641681433743596263e-02 -6.294820244640207951e-01 -1.409437982854128135e-01 7.317006806569265054e-01 -6.668950139647705777e-01
5.782801613339812880e-02 5.692576216755088764e-02 -6.631213196792538067e-01 -1.852318084151954869e-02 7.752173977600937960e-01 -6.314228994751307500e-01
1.491775904618026366e-02 -9.871681660725763197e-02 -8.561910569044945962e-01 -2.762048942009864838e-01 -6.430344579696917195e-01 7.142951366788428125e-01
7.823016315803091314e-02 -6.811405139698287203e-02 -7.934004892617099181e-01 1.767390358664653882e-01 5.955173499449850638e-01 -7.836596194238252266e-01
9.080602011260777151e-02 7.888427359116327586e-02 -6.503873956218785279e-01 -2.353067775599392286e-01 -8.818832196166010995e-01 4.085495164518191391e-01
-4.311242619766168793e-02 1.391295723897686409e-01 -5.542476444873523089e-01 -4.853288158724642365e-01 -7.784674850488310094e-01 3.980506440210591634e-01
-6.443887331177351740e-02 -7.309546195005293956e-02 -8.462652546214987082e-01 2.999579404682166106e-01 6.539252789935807719e-01 -6.945552270649424376e-01
1.226293953442544882e-01 2.195042374718165698e-02 -7.095778406152806195e-01 -4.899221544380887722e-02 -7.233279677738416735e-01 6.887644110013756427e-01
1.187075378161719652e-01 6.041724779608265150e-02 -6.682380870280917318e-01 -8.827161752696990882e-02 -7.685446194142734333e-01 6.336775911364881386e-01
-8.762412560758688074e-02 1.088251652794906682e-01 -6.456996465381443784e-01 5.830278594841733497e-01 6.441894596195226752e-01 -4.950741915919375513e-01
-8.031320586825542451e-02 1.103268046779244810e-01 -6.348940603943235006e-01 6.000700040256929935e-01 6.330199132607458035e-01 -4.890825898393467153e-01
-2.502429215583672900e-02 -4.426574623235299375e-04 -7.512274499008962936e-01 2.197961824064542935e-01 7.495397826404618380e-01 -6.244035173177983067e-01
-8.001396056680852575e-02 6.805570660068416093e-03 -7.804189991872196863e-01 -3.492501443480977574e-01 -6.959144740144885821e-01 6.274769968134054077e-01
-1.893186497425240061e-02 -8.123369946849479106e-02 -8.465000793613940422e-01 -2.420514091878153418e-01 -6.606336863646955493e-01 7.106154007269936956e-01
-8.571680385164814897e-02 1.252634165186378434e-01 -6.287580622519884921e-01 8.524811983970388418e-01 -4.447336093519949074e-01 -2.747504742348883533e-01
-4.625296241888879334e-02 -6.151490176568107787e-02 -8.394101568993194151e-01 -1.249878139773506480e-01 -8.152764810521154204e-02 9.888029575965050499e-01
1.334969498305106292e-02 1.228696807521655401e-02 -7.350498152098169369e-01 -1.444690965137868099e-01 -7.673055760711523510e-01 6.247966333796999283e-01
2.228505077292445083e-02 -5.406304301060105288e-02 -8.066894176154606466e-01 -1.894226486176975865e-01 -6.973909067499833858e-01 6.912054567008948380e-01
5.223207935041813965e-02 -2.975730659828123778e-02 -7.739031153312340150e-01 -1.607292308671730841e-01 -7.121942048388396618e-01 6.833341268653425615e-01
-2.906215737062807156e-02 -3.714895784237402104e-02 -8.060194992679131643e-01 -2.499985678310756021e-01 -7.131074033358992814e-01 6.549645390324139171e-01
-8.685493414047042171e-02 7.444021906047737502e-02 -6.902796650269323875e-01 5.222170166480211151e-01 6.788520975432309479e-01 -5.161871919995653091e-01
-3.382043235301224887e-02 -1.360372418833255721e-02 -7.706247752839524567e-01 2.611511281146931540e-01 7.280412463498475706e-01 -6.338422768305878030e-01
3.883581732443230211e-02 -1.403415200331697699e-01 -8.709903315286445791e-01 1.952411601918768447e-01 6.324008670318309600e-01 -7.496332655000833567e-01
-1.037680491599541344e-01 3.618330278158453372e-02 -7.521022240017347649e-01 4.579649182566139509e-01 6.698333687601393249e-01 -5.844582035882942561e-01
1.339771064650200350e-01 -5.333327963781844122e-02 -7.747362865540889931e-01 4.398714101747763783e-02 6.785073466210019832e-01 -7.332754680244225609e-01
-3.281113298772006526e-02 9.757212931643165221e-02 -6.245827412940416767e-01 -1.989715386297006006e-01 -8.531452555123384407e-01 4.822380115794652755e-01
-7.643035008801300767e-02 -5.498237080403336335e-02 -8.407360864853019589e-01 7.127222268116506498e-02 4.994981892926568245e-01 8.633781495772544501e-01
2.576729140138666815e-02 -5.889113332980894927e-02 -8.106064165574805580e-01 -1.894226486176975865e-01 -6.973909067499833858e-01 6.912054567008948380e-01
-7.965371481189323366e-02 1.057101168285394521e-01 -6.405059005406084083e-01 5.402474037214941571e-01 6.838983681042927198e-01 -4.903221031898012394e-01
1.041817000219294638e-02 -1.865966723554840778e-01 -9.220948152926227159e-01 8.878788333037760383e-01 -2.281255342805572905e-01 3.995371296642354908e-01
-3.787380844939544633e-02 7.228368071071614165e-02 -6.556764611577455826e-01 2.785547885299659576e-01 8.158659820668793250e-01 -5.067247074034109122e-01
1.013163943090380492e-01 1.063347514935401861e-02 -7.274049049044840620e-01 -9.030360352559603510e-02 -6.809459449895765015e-01 7.267447139075348117e-01
-9.809710309783375992e-02 5.792965201225452193e-02 -7.310963506449783544e-01 -4.558720517179346565e-01 -6.940173607052159133e-01 5.572437307877470269e-01
-1.950294580194431374e-02 -1.252435362176181899e-01 -8.850246972753070818e-01 -2.352895124688568484e-01 -6.089004294561097819e-01 7.575480924207603772e-01
-8.325334963795291698e-02 8.214165158667530164e-02 -6.904634337884891782e-01 -3.393987736732425042e-01 -9.364818119677830177e-01 -8.837583539993913717e-02
-8.546957395264853652e-02 1.036688663575667940e-01 -6.498379359422320478e-01 6.000700040256929935e-01 6.330199132607458035e-01 -4.890825898393467153e-01
5.640657516883261502e-02 -1.282402503767798574e-01 -8.643908707065591779e-01 -2.212190042622415309e-01 -6.070115772517641339e-01 7.632817941203288159e-01
3.737000358935874816e-02 6.517957840154126395e-03 -7.262404345229777070e-01 1.024525179470198444e-01 7.669189753423040212e-01 -6.335130360349550127e-01
8.132560970626763475e-03 5.450886132102592159e-03 -7.402177286299710390e-01 -9.936253940143523478e-01 -5.458751438395859773e-02 -9.863457630671006171e-02
-1.209406831344602589e-04 -8.806448769237572652e-03 -7.640929811526298021e-01 -1.966209729323195599e-01 -7.490324575907230109e-01 6.326852064642810580e-01
-5.140841251543184359e-02 -8.604788958682629829e-02 -8.530553981078301540e-01 2.929493189386541130e-01 6.596518561302682215e-01 -6.921272464202452568e-01
-3.293202973843426667e-02 1.230076637711856845e-02 -7.503194172259020078e-01 -2.552438494617511600e-01 -7.613561934624692995e-01 5.959759424576516196e-01
5.707373839723931842e-03 -1.914091050688451409e-02 -7.633591367784119397e-01 1.947850963151832315e-01 7.313229299999611799e-01 -6.536249217324542338e-01
-5.653985474277324272e-03 -6.729740775249408447e-02 -8.184018261694080421e-01 2.359557399478946216e-01 6.940138875426021814e-01 -6.801982157310073607e-01
-3.013382542237110981e-02 1.135669115770476523e-01 -5.793149427418189390e-01 2.837426939336935017e-01 8.562885038827536821e-01 -4.315785927933472599e-01
1.299344329408449183e-01 2.024555542714071010e-02 -7.044864151296562627e-01 -2.493227031957262821e-02 7.083015208825106379e-01 -7.054695864544652251e-01
-1.482538697867601986e-02 -7.960818382543265181e-02 -8.435754489293172398e-01 -2.488837395425861632e-01 -6.558118489304397558e-01 7.127185299918449291e-01
1.165406006988696647e-01 5.021153698614762989e-02 -6.732293368540039902e-01 -6.420305171111365117e-02 7.157243541998623559e-01 -6.954254934614997330e-01
5.972063015374722006e-02 1.385453765016601141e-02 -7.245622887850494687e-01 -8.539497217412014840e-02 -7.603063440867270373e-01 6.439269848894800807e-01
9.906823956952326427e-02 -5.667666910112694606e-02 -7.824345609048765082e-01 1.271272736250826929e-01 6.767429728404701361e-01 -7.251603995059963115e-01
6.730024537266303744e-03 9.167955206626855758e-02 -6.130295496944709877e-01 -1.440785182907352267e-02 8.511613051627506810e-01 -5.247064383055676240e-01
-6.796245000948287693e-03 7.506266290510256456e-02 -6.593181977576577646e-01 -1.938770093309099274e-01 -8.289372279133593313e-01 5.246663486752489725e-01
1.000961345346220409e-02 -2.469885043133037555e-02 -7.672067487980855915e-01 -8.911372293967503300e-01 2.780880832843104500e-01 -3.585267860541830331e-01
6.963646768123868402e-02 6.517330777275558151e-02 -6.625026376808927919e-01 1.750880469221539892e-03 -7.783095392953147673e-01 6.278783285474164311e-01
3.789046711402092871e-02 2.389251259987963671e-02 -7.158894777984802227e-01 -1.101307211127688229e-01 -7.611133022510842006e-01 6.392008803213832246e-01
1.071404346990680739e-02 -5.732908067681211084e-02 -7.992915092838083213e-01 -3.493287618226201818e-01 6.400063651458040015e-01 -6.843692488242958394e-01
6.706388606030855466e-03 -6.327303240676469820e-02 -8.206676542021460463e-01 -2.076058624289018884e-01 -6.962495986236721945e-01 6.871217521673487205e-01
-4.390959596486098543e-02 7.129343084305012068e-02 -6.605726650847750792e-01 2.810075670274259640e-01 8.031416456428541739e-01 -5.253553505080296171e-01
-7.661110569930430769e-02 1.359263147001959875e-02 -7.704166349017395055e-01 -3.526126989541442103e-01 -7.180810981140454130e-01 6.000198505612965860e-01
9.159597257184019098e-03 6.728273229211034767e-02 -6.619453224241351741e-01 -8.726118566366067308e-02 -8.209571644272216639e-01 5.642825707499640187e-01
-4.643104563628502879e-02 5.312448813659841063e-02 -6.892204965502650715e-01 2.717447351452852433e-01 7.868812250903982619e-01 -5.540512038801584938e-01
1.149420562086919534e-01 -5.012473792152066787e-02 -7.816323177192756599e-01 -1.431552260260927356e-01 -6.676307776065573130e-01 7.305995661467928892e-01
1.643654722212583826e-03 9.747667882879297889e-04 -7.520574940964671606e-01 -1.824390278824998268e-01 -7.483232024493920997e-01 6.377526054679624190e-01
2.358567573840033085e-02 -5.739073911465002870e-02 -8.096904604421090168e-01 -1.894226486176975865e-01 -6.973909067499833858e-01 6.912054567008948380e-01
-3.077062074678979520e-02 -2.598703249349421790e-02 -7.945239736731667390e-01 -2.507439154957110672e-01 -7.125256348606963108e-01 6.553126799538074865e-01
1.088648680223856247e-01 -4.204892450166216461e-02 -7.670885828946968354e-01 9.814001746964080841e-02 6.812508137563445532e-01 -7.254418417263901464e-01
-8.395795578031063633e-02 3.619570259259440037e-02 -7.373182488787818345e-01 3.983669073890904744e-01 7.192665064763695826e-01 -5.691744018827009644e-01
-4.896630318474706756e-02 -1.107938755862181018e-01 -8.828513847946543036e-01 -2.076132864577205084e-01 -5.682200190410952034e-01 7.962554447205757446e-01
1.219332471823887931e-01 -3.390095752601679502e-02 -7.577550388582647845e-01 6.860086402250274717e-02 6.913965762074284482e-01 -7.192111622215077160e-01
8.798026754557845830e-02 2.534587201345648091e-03 -7.204919271522626234e-01 6.215288497512341803e-02 6.819495725484568949e-01 -7.287535930547760499e-01
4.645686404552706872e-02 2.237883291957497647e-02 -7.162563519941217427e-01 -8.539497217412014840e-02 -7.603063440867270373e-01 6.439269848894800807e-01
3.905549064134312964e-02 -1.023743036339005014e-01 -8.381576587456995853e-01 1.903808292038829120e-01 6.600891059209940126e-01 -7.266618967002914653e-01
4.397958597335294845e-02 3.987897061942183990e-02 -6.950498053801914544e-01 -6.783210487113473797e-02 -7.783015828651511647e-01 6.242158694380908202e-01
1.185771313410968752e-01 3.482448753134907704e-02 -6.893794682962651743e-01 -1.520113345165562298e-02 7.289022247946729260e-01 -6.844490282198968378e-01
-5.421701404021058573e-02 8.035225894838764205e-02 -6.536589219452805244e-01 3.680767352903395739e-01 7.805474004628478735e-01 -5.052378376257029569e-01
9.956509389154925838e-02 -2.730173560174609104e-02 -7.539050612259786677e-01 8.954129121546700043e-02 7.034550634681382419e-01 -7.050768262030064903e-01
9.604797999114868257e-02 -7.508798942651104431e-03 -7.427812887378905105e-01 -9.288923078181578197e-02 -7.140995237491762904e-01 6.938540631760846678e-01
2.542717666986221009e-02 -1.069538334549053615e-01 -8.556143272392631172e-01 -2.159977183253238286e-01 -6.352054649490193050e-01 7.415247824430106771e-01
1.533378355608320913e-02 -2.019684333404389576e-01 -9.350681535446342396e-01 2.962713684213535981e-01 -5.018001891213231813e-01 8.126621970114906723e-01
1.326133264508481679e-01 -3.771720480426012795e-02 -7.602841932087214261e-01 4.305071195250538552e-02 6.812121740777895562e-01 -7.308191363727374323e-01
-1.008064580763380624e-01 -2.594041327821470372e-02 -8.265567334477731398e-01 -3.457232643132484573e-01 -6.610647424480341483e-01 6.659345544456347632e-01
-9.145817187827176564e-02 -2.326897831270496528e-02 -8.190516243432727217e-01 -3.457232643132484573e-01 -6.610647424480341483e-01 6.659345544456347632e-01
1.865929556304407252e-02 -2.663611128748842316e-01 -9.746793870246258651e-01 -1.822699518134386909e-01 -4.600501455570485954e-01 8.689830425496605226e-01
1.231242673573649943e-01 -2.836786113716887117e-02 -7.596771001370846710e-01 -1.086169218830760341e-01 -6.921076960225002184e-01 7.135750145479256012e-01
7.376164045594761631e-02 -9.360783559690981359e-02 -8.215632101808020282e-01 1.575241038689016160e-01 6.654067203332024727e-01 -7.296711952898448095e-01
1.014051758944070902e-01 -4.424248391719996787e-02 -7.702471444747983620e-01 1.073303810996905083e-01 6.867558767052801549e-01 -7.189204094360912567e-01
-1.261382764691426194e-03 -5.709246492353879654e-02 -8.170036972448841972e-01 -2.113624744939110456e-01 -6.981858368243953894e-01 6.840047087803046155e-01
3.248422561400292341e-02 4.454274576964478705e-02 -6.793451083114101507e-01 5.978692980350801961e-02 7.960620643186379075e-01 -6.022546909550970939e-01
-1.730649335381283585e-02 -5.160481679017282775e-02 -8.167696524921177481e-01 -2.290274893616886520e-01 -6.980343042734010739e-01 6.784500859858670907e-01
1.205275227825246091e-02 -1.644273913517301866e-03 -7.412162857151586293e-01 1.679187674643481398e-01 7.485607083352853186e-01 -6.414515986961368821e-01
1.165167359944665471e-01 3.463819894596519011e-02 -6.965248897715679011e-01 -2.645788448987365996e-02 -7.283808873172834542e-01 6.846614224119886849e-01
-3.680861220528786060e-02 -4.830978303392391426e-02 -8.100907674640052125e-01 2.504510526895646905e-01 6.970414617038110938e-01 -6.718686410843291990e-01
-1.001001328812670954e-01 -6.099113676805349021e-02 -8.587124252016411496e-01 -6.343182702363639458e-02 -5.651957177896181905e-01 8.225145615201726601e-01
5.976834217518056658e-02 -3.182976808000160390e-03 -7.297578338315356961e-01 1.375524296681603920e-01 6.876698251395201300e-01 -7.128741408446289674e-01
-5.729512424095251077e-02 -6.983838567478331712e-04 -7.771778821506261092e-01 -2.971166882057325598e-01 -7.194176823443079183e-01 6.278215287165629377e-01
-4.205323829455019646e-02 1.180815102147876883e-01 -5.793443824733891523e-01 3.290009486632105018e-01 8.288652481324988441e-01 -4.524829015741466121e-01
-8.352330426900313187e-02 8.770287576604965038e-03 -7.801932759404398565e-01 -3.492501443480977574e-01 -6.959144740144885821e-01 6.274769968134054077e-01
7.195161494691625081e-02 -4.137168594748966838e-02 -7.723463590165389192e-01 1.312188458210660214e-01 7.130570739400914348e-01 -6.887170854606284864e-01
5.441518374897422183e-02 -1.297002235875690801e-01 -8.661290940975060471e-01 -2.212190042622415309e-01 -6.070115772517641339e-01 7.632817941203288159e-01
8.749515827251998223e-02 -3.482270783833524286e-02 -7.631860579195699490e-01 1.047441437783193235e-01 7.077290517052203800e-01 -6.986760720939112490e-01
-3.001331474935410928e-02 6.747969196273709280e-02 -6.592596097709736425e-01 2.158032234667711935e-01 8.157302534813180017e-01 -5.366685404387472325e-01
-4.718029744835133821e-02 -7.073294561910627165e-02 -8.467741852847091577e-01 -2.616086658963495126e-01 -6.574898064508440942e-01 7.065890321404403318e-01
-6.143943742533297669e-02 1.094411548262958500e-01 -6.264444637926170900e-01 -4.832786732354185100e-01 -7.420760407579930495e-01 4.645049770764084207e-01
-7.430736264785402223e-02 1.149001136766482078e-01 -6.314101832855797403e-01 -5.257148070230655001e-01 -7.030882752678527803e-01 4.788432090544637587e-01
1.602949329388477428e-03 -3.733055729810711570e-02 -7.803622550782329803e-01 2.630642876007457942e-01 7.158017626873021122e-01 -6.468578028615433739e-01
3.693570563565191228e-03 1.899334569178508930e-03 -7.356015767198198496e-01 -4.001227236977895618e-01 6.793208374699298835e-01 -6.151625848178799982e-01
2.684394789055373140e-02 1.633310535319316276e-02 -7.160688430824380113e-01 9.789266637799845516e-02 7.632584099435546499e-01 -6.386341875595469286e-01
-3.935929115682401669e-02 -7.077942634341830019e-02 -8.318858691479777967e-01 2.952982196417287541e-01 9.412927735892157033e-01 -1.636058552287999457e-01
7.959617857652380099e-03 4.336964854519728685e-02 -6.959641368910870485e-01 -1.108428148385397771e-01 -8.021995315196460696e-01 5.866768974728164832e-01
4.797134620733928961e-02 7.334991504464536891e-03 -7.236668771317686932e-01 7.651766276190052896e-02 7.623245043995905412e-01 -6.426557377611864519e-01
-9.942534511236472694e-03 2.132906217529856319e-02 -7.176721278691904349e-01 9.955155218438910270e-01 5.675219899916954247e-02 7.568377419661360961e-02
1.013956682461006203e-01 4.828242234203343475e-02 -6.820730852745788830e-01 -2.927143309785364134e-02 -7.447171833736792035e-01 6.667379545161440380e-01
1.088084635656357130e-01 2.819158549343946107e-02 -7.037337205480613811e-01 -3.432383517702956854e-02 -7.294911787884927890e-01 6.831284611319567990e-01
-6.892613864584492232e-03 4.713931195355590409e-02 -6.765957515085927465e-01 1.436869136048224416e-01 8.192243191361213706e-01 -5.551806785134715261e-01
-1.124722141531663139e-01 8.943828364438414363e-03 -7.889160900447214075e-01 4.324563390803048968e-01 6.603195268672983342e-01 -6.139703879072734294e-01
-5.076117028228390587e-02 7.510149584075258289e-02 -6.592532254505407696e-01 3.680767352903395739e-01 7.805474004628478735e-01 -5.052378376257029569e-01
7.428917961500011713e-02 -7.085525397098745015e-02 -7.964592371528136372e-01 1.175738460393732920e-01 7.327594157643203543e-01 -6.702537052014273522e-01
4.450630985583783200e-02 7.753536971964816726e-02 -6.460052907372652031e-01 -1.832592734279199845e-02 -8.024479822659578154e-01 5.964406057138629258e-01
6.142682354397485667e-02 3.748683559945564792e-03 -7.259684700224389164e-01 8.948757194574058493e-02 7.395326406177399337e-01 -6.671457471409143469e-01
2.729898691804147695e-02 -4.396238781991381600e-02 -7.950492897435329498e-01 -1.807175581477425130e-01 -7.149144918142983363e-01 6.754542423961974462e-01
-4.515111648611663114e-02 6.057474896962379562e-02 -6.903559700654280373e-01 -2.672924498980677188e-01 -8.035799184499792247e-01 5.318026522041929827e-01
-5.885622266640279376e-02 6.140248031618907726e-02 -6.854246146188122113e-01 3.556998419694472613e-01 7.729248502427663592e-01 -5.254186885714168254e-01
-1.008796258508172158e-02 3.326610001550592277e-02 -6.976477520078731009e-01 7.340442003537858140e-01 5.789119354430897202e-01 -3.550212429256976443e-01
-9.807984937363288525e-02 6.475776976956966469e-02 -7.225622205539169451e-01 -4.560255270326813992e-01 -6.953587219914297846e-01 5.554430361837393582e-01
-3.812993451729549538e-02 7.457860796505833001e-02 -6.521222473822146926e-01 2.785547885299659576e-01 8.158659820668793250e-01 -5.067247074034109122e-01
-1.142750967993370198e-01 3.020050558559257345e-02 -7.797351065261985958e-01 -3.883654274140935225e-01 -6.354094198722681774e-01 6.674032993078892195e-01
-1.170337433565121349e-01 4.407807051007707477e-02 -7.620724103231297786e-01 -4.485695628557621606e-01 -6.759281021682647106e-01 5.847277554371766994e-01
-2.970977334093688471e-02 -7.267307078667506470e-02 -8.421889190100877443e-01 -2.470304516104211423e-01 -6.781436315752064070e-01 6.921684556024941815e-01
2.653682271118468564e-02 -3.333992538439325276e-02 -7.840148906496033909e-01 -1.797382651061004699e-01 -7.143858525461123099e-01 6.762743598116178756e-01
-7.116326839737929441e-03 7.412414639860780141e-02 -6.456590666971918635e-01 -9.075784837854848908e-01 2.601510632717833338e-01 -3.295796110929814504e-01
-8.938287393024725580e-02 8.494991251436191659e-02 -6.923075535041927075e-01 -4.154182253958656479e-01 -9.076080902280923013e-01 -6.062386132097661445e-02
3.841726521335474959e-02 8.710089173955534725e-02 -6.224871685196293747e-01 -8.868818109454069953e-02 7.993982740357618022e-01 -5.942194931191563390e-01
-3.166600919153484545e-02 6.405638043370054380e-02 -6.651275810270869115e-01 2.158032234667711935e-01 8.157302534813180017e-01 -5.366685404387472325e-01
3.620706287578723953e-02 -7.805012216183083995e-02 -8.262785987872308668e-01 -1.999007746206175606e-01 -6.778569867338930521e-01 7.074952903321152231e-01
-9.134930088801918036e-02 -4.014603288915250673e-02 -8.402686302915255423e-01 -3.240078524596230469e-01 -7.280491061592482271e-01 6.041220162891126622e-01
5.742471891306833755e-03 -4.539842333650218748e-02 -8.076681744315364897e-01 -1.350049819915021265e-01 -7.060773250955374447e-01 6.951463628786422877e-01
2.307959953617485724e-02 9.313837113142901802e-02 -6.121474199813810024e-01 -5.318683368067664285e-02 8.339154653734046629e-01 -5.493233631788132509e-01
2.088338105937469907e-02 -1.338680066273307268e-01 -8.794690166458978275e-01 -2.381902331618722390e-01 -6.117465721105556087e-01 7.543417954331298469e-01
1.201005446109596336e-01 1.685426363858843687e-02 -7.078929642807133549e-01 1.254995330538654155e-02 7.116936174226867751e-01 -7.023778851813624602e-01
4.612201913954409177e-02 -3.920278213092559527e-02 -7.852420710290598516e-01 -1.649082984658438722e-01 -7.155007394399778287e-01 6.788696082149687783e-01
4.354103432919553818e-02 -1.157439718844081450e-01 -8.487344510500679506e-01 1.967150102164529069e-01 6.450717134639568640e-01 -7.383669069265060836e-01
-8.469577489444579665e-02 9.696912857253459084e-02 -6.581268683552966570e-01 5.417836311989776554e-01 6.778362882625872388e-01 -4.969994600391926531e-01
5.534727275927273787e-02 9.621868233798638870e-03 -7.299929221308893990e-01 -9.838653665172789053e-02 -7.374412601468780526e-01 6.682069119955755809e-01
-6.032636637483926312e-02 3.300013049019558803e-02 -7.254831696442499700e-01 3.412748673665225163e-01 7.483041576325555333e-01 -5.688342048205204948e-01
-1.030970687700320243e-01 9.569805842013212605e-02 -6.798501981143044715e-01 5.635596897597140442e-01 6.455324329134587424e-01 -5.154496620764880133e-01
6.996358365956160952e-02 -6.393441801542767977e-02 -8.087491087396335709e-01 -1.930815754813433593e-01 -6.168896834262109774e-01 7.629984427847489314e-01
2.370405006381171020e-02 -1.120261724158498617e-01 -8.510263563742600512e-01 2.108350834790811146e-01 6.430255237434755466e-01 -7.362518206353025896e-01
2.687709922456112815e-02 1.221202610135526528e-01 -5.809611666093762450e-01 1.434908048495716071e-01 -8.126450893097193484e-01 5.648170922913191561e-01
-3.284065505621747150e-02 1.296641259832830573e-01 -5.646385390012043093e-01 -2.648758075379364918e-01 -8.690324752571981781e-01 4.178796041080176105e-01
2.005590952549645908e-02 -3.052880119030260478e-02 -7.722442172495445067e-01 1.651045818868097925e-01 7.348354236950358498e-01 -6.578429729980544982e-01
-9.393285404877996236e-02 6.546107102006366862e-02 -7.084999810553181954e-01 5.020195598580385887e-01 6.794997635109327749e-01 -5.350293757435453657e-01
8.154329046887145993e-02 -4.572030611837195335e-02 -7.748512117482894146e-01 1.277988743834821417e-01 6.970724594235410132e-01 -7.055192655197524143e-01
-1.784710468796747024e-02 1.095185837246998167e-01 -6.054379019930410388e-01 -1.460065743746704336e-01 -8.835827264572332362e-01 4.449310572951455933e-01
2.030185865005850951e-02 6.580155165037696041e-02 -6.625025912695966523e-01 4.051085180851434209e-01 -7.092446146870230450e-01 -5.769394813256546461e-01
-1.051060164420986910e-02 -6.182922216392158082e-02 -8.249047013011381324e-01 -2.290434332669437356e-01 -6.796445291168686786e-01 6.968661418944108732e-01
1.422779786218680564e-01 -3.173099235379992639e-02 -7.565258824296520190e-01 -8.860879651437592042e-01 3.988402402278873882e-01 -2.361664260693150663e-01
2.362297213408697666e-02 7.045066600583287098e-02 -6.560332708254530409e-01 -3.540202115379878500e-02 -8.108470670230275568e-01 5.841863836126105491e-01
8.431981194424206794e-02 -1.477079064333377927e-02 -7.521476412543369738e-01 -1.047179447673956404e-01 -7.262366554380454975e-01 6.794221606202247576e-01
7.918948343459936146e-03 -7.545036341790703482e-02 -8.321054023413880785e-01 -2.083672145089746075e-01 -6.775098643823519451e-01 7.053818027014717718e-01
-6.301140073720454260e-02 1.273378854290657392e-01 -5.994170105481332333e-01 -5.379245734024188375e-01 -7.129713593236307601e-01 4.497877211685972210e-01
6.962047328396608892e-02 4.974713198867091596e-02 -6.813670055674172499e-01 -1.959239425287108774e-02 -7.725950224046918002e-01 6.345967770505408501e-01
7.705403278925200203e-03 1.139021635114503134e-01 -5.900197658610270013e-01 7.040749375686849998e-02 -8.520420737096069397e-01 5.187167719011112066e-01
-6.977722950066612972e-02 -5.746124546327530808e-02 -8.335160212132700641e-01 3.106298682778730336e-01 6.648882844092406375e-01 -6.792883439225261277e-01
-1.797148354731114769e-02 3.188615869818847010e-02 -7.068881814185364876e-01 2.103688221469977304e-01 7.999156156333920853e-01 -5.620319977851228055e-01
-4.845154410287051683e-02 -5.575733380424692520e-02 -8.376990806034331216e-01 -2.681712641832230126e-01 -6.098819335618422821e-01 7.457400352544045763e-01
-1.010949564385464905e-01 1.102811338098563937e-01 -6.611027171987474693e-01 8.782442712553649722e-01 1.406071584358140891e-01 -4.570739841685793614e-01
-1.120020289828446286e-01 7.800723618430668860e-02 -7.184142058480506021e-01 -4.969801552765339414e-01 -6.658091206251209870e-01 5.565149954437125235e-01
1.278733705863625836e-02 1.025755367393438588e-01 -6.083494269581642966e-01 7.313086851338378158e-02 -8.381340120617987166e-01 5.405397801232310062e-01
-9.714535082098525731e-02 9.102084780394789632e-02 -6.878532422635083021e-01 -4.804139449760859715e-01 -6.975427967395191331e-01 5.316356724198669781e-01
3.343126103807197991e-02 -3.408774017563118153e-02 -7.727287824714137443e-01 1.573293914833039375e-01 7.175343155694303698e-01 -6.785218998350772690e-01
6.689424129452536949e-02 -6.252678908440303940e-02 -8.016836975664558551e-01 2.995711052194292012e-01 -8.661901765373426487e-01 -3.999646621738185415e-01
-4.231394708628086199e-02 -1.708021958486239875e-02 -7.781173695290350967e-01 2.611511281146931540e-01 7.280412463498475706e-01 -6.338422768305878030e-01
8.196969990542311846e-02 -1.190494263920523627e-01 -8.496974385680335917e-01 -2.175909570516752767e-01 -6.081046899678189677e-01 7.634545575530209405e-01
-6.802400387567056339e-02 6.523658417903449580e-02 -6.916644216038286830e-01 1.089193801680899826e-01 6.990198358420183222e-01 7.067586842219888421e-01
9.287711967222883613e-02 -7.888629833677252012e-02 -8.041625080404893877e-01 1.520610613471214678e-01 6.617455461790533455e-01 -7.341459430754713189e-01
-3.288339416146299210e-02 8.389926431007385665e-02 -6.475746639137867078e-01 -2.892724228257644303e-01 -8.186946341570354724e-01 4.960449187271150362e-01
-1.414478587545360891e-02 -2.410621692276528061e-02 -7.752738407443010571e-01 2.314891120014651027e-01 7.285410038647266440e-01 -6.447020991997387540e-01
7.863248041410630940e-02 -3.353872983706138124e-05 -7.281067517425416913e-01 6.676232376695211135e-02 7.385035129228082473e-01 -6.709361769392885311e-01
6.136335411388325889e-02 -7.809582368070105973e-02 -8.102406514918706337e-01 1.621626542025248197e-01 6.802751985989693440e-01 -7.147929264850941822e-01
-9.671874686443530933e-02 -4.592337924525522613e-02 -8.440729783648047713e-01 5.800962165416653077e-02 4.616707775288455551e-01 8.851525162204824104e-01
5.387926900256551771e-02 1.109959039789649021e-01 -6.020308448807959456e-01 1.042484081945297958e-01 -7.912461723470276542e-01 6.025460680604303176e-01
-2.860249556149843664e-02 -5.587238176979059459e-03 -7.588352172056029854e-01 2.629104572571601128e-01 7.432609702803459895e-01 -6.151757647394358042e-01
7.647035877858304742e-02 -3.764488336510941197e-02 -7.676976175944030256e-01 1.047441437783193235e-01 7.077290517052203800e-01 -6.986760720939112490e-01
-1.132000457768558149e-01 4.960423127420281186e-02 -7.445685404943255259e-01 5.084261980540851766e-01 6.479036842913065142e-01 -5.672068555774157916e-01
2.867782668238921481e-04 -6.664502951439159328e-02 -8.260347866910504600e-01 -2.256994655237845038e-01 -6.763356792934732686e-01 7.011631765694161800e-01
1.392228496668587202e-02 -1.679145900781016110e-01 -9.115240380350755345e-01 2.857819450915915493e-01 -5.703820343456242892e-01 7.700603968231410912e-01
1.090666434644648256e-02 -1.944172582145951289e-01 -9.276457364743707634e-01 8.878788333037760383e-01 -2.281255342805572905e-01 3.995371296642354908e-01
6.830573111787541229e-02 -5.001900265989630591e-03 -7.308098966895223425e-01 3.324425831580841983e-02 7.956184988780973244e-01 -6.048851325102930776e-01
-5.326043785646900758e-02 4.012217892325691676e-02 -7.235925587398748249e-01 -3.160640419719674687e-01 -7.629909246417124757e-01 5.638691074059007935e-01
-8.430533435953951882e-02 -6.115672161129424161e-02 -8.439386955466147144e-01 3.261533904043185106e-01 6.464440651314972142e-01 -6.897347581382519133e-01
8.748327877563012028e-03 -5.820374836706392052e-02 -8.003032954653164222e-01 1.189035160472900338e-01 7.063785633009890264e-01 -6.977759519934909616e-01
7.142476699319418379e-03 6.941129936211599960e-02 -6.591604658008114459e-01 -8.726118566366067308e-02 -8.209571644272216639e-01 5.642825707499640187e-01
4.084159060792600521e-02 1.569582351193115136e-02 -7.251410291070514713e-01 -1.101307211127688229e-01 -7.611133022510842006e-01 6.392008803213832246e-01
-3.316929218210491748e-02 3.985328506226796380e-02 -7.141911519342605263e-01 -2.591512511728004120e-01 -7.763806510064490407e-01 5.745204206626383092e-01
-7.641834215695360311e-02 -8.210857432714765980e-02 -8.684293234199892408e-01 -2.672335461940012480e-01 -6.346203334182382028e-01 7.251505114117364759e-01
2.506553576602644356e-02 -1.195450657181589826e-01 -8.572033072822827782e-01 2.108350834790811146e-01 6.430255237434755466e-01 -7.362518206353025896e-01
-4.167468487592025650e-02 -3.923045364365007615e-02 -8.129932315820357358e-01 -2.748402803316487009e-01 -6.954692189866337193e-01 6.639167009115998219e-01
6.220462047508779763e-02 8.353461960567380371e-03 -7.303830773709117929e-01 -9.838653665172789053e-02 -7.374412601468780526e-01 6.682069119955755809e-01
-5.230906451874808155e-02 -2.386728636621968797e-02 -7.904789290571616611e-01 2.982830011469722598e-01 6.991346521684369542e-01 -6.497984221003264560e-01
9.467200110389893675e-03 -1.230830316289429766e-01 -8.765996465145334815e-01 3.160811229727389371e-01 -5.645828962793018047e-01 7.624558196572227553e-01
-1.569769092822632592e-02 7.036034872615568037e-02 -6.636118770419944246e-01 9.272212511144494185e-01 -2.464397538006273536e-01 2.820074453422128924e-01
9.184641156037344489e-02 -5.776740315606563453e-02 -7.934107895818670597e-01 -1.550319158762453187e-01 -6.726367475189892753e-01 7.235502131482074439e-01
-9.298127901092068104e-02 -1.299041219930913670e-02 -8.092118247517473550e-01 -3.506704500173591921e-01 -6.841570261242799766e-01 6.394993347059901856e-01
1.242325931397463556e-01 -3.436704704267189853e-02 -7.651524831316979247e-01 -1.144761314938234908e-01 -6.748191413061422894e-01 7.290503013133247112e-01
-2.798385239382718097e-03 8.210743525481239979e-02 -6.412047928691342324e-01 -7.214466955092080358e-02 -8.431338715899847625e-01 5.328418351003152420e-01
-3.053653252601350870e-02 -1.038673461555437161e-01 -8.709201843393741260e-01 -2.518300619257216599e-01 -6.414896141277925956e-01 7.246189998038023994e-01
-7.987062406372369416e-03 -9.759841955761529297e-02 -8.479787966659294574e-01 2.385213415157429184e-01 6.543282634966737232e-01 -7.176085933368955283e-01
8.097850572000539482e-02 -5.754807120960726049e-04 -7.376150479645080527e-01 -8.249866468748026649e-02 -7.369178189247412858e-01 6.709292797873596115e-01
7.073733218176034288e-02 1.179249559824659295e-02 -7.253313648071435527e-01 -9.838653665172789053e-02 -7.374412601468780526e-01 6.682069119955755809e-01
2.267931337426659904e-03 -1.133324904063654354e-01 -8.682321393552058231e-01 -2.380271312550449880e-01 -6.339679326262980252e-01 7.358177391093743136e-01
1.008477881823113265e-01 6.836751087892267709e-02 -6.522846482722486350e-01 -9.710320825914019183e-02 7.308394971729019751e-01 -6.756068356062142621e-01
-5.612315572596993790e-02 -6.389477354879853632e-02 -8.363352295464889785e-01 1.683332857716458020e-01 7.479690996239937162e-01 6.420328113959549166e-01
9.564510608878960818e-02 4.721203866559968432e-02 -6.834562785769118243e-01 -1.167380267360096195e-02 -7.500099173366900907e-01 6.613235563835219155e-01
-1.803202027854308720e-02 -3.648629796620597027e-02 -8.012007766043844903e-01 -2.262472280731323004e-01 -7.158580943737802293e-01 6.605750377578343269e-01
-5.816388371726917417e-02 7.903107264957601186e-02 -6.585754172103340798e-01 3.680767352903395739e-01 7.805474004628478735e-01 -5.052378376257029569e-01
1.895597548060149948e-02 -3.100038033938053439e-01 -9.845892770753964518e-01 1.386322934480211100e-01 6.790884512798298633e-01 -7.208466983705370534e-01
-1.152995887860918806e-01 1.835429079770843630e-02 -7.810183079986590116e-01 4.613921542646129970e-01 6.580504177446809821e-01 -5.950520377993092636e-01
8.297971854118948998e-02 -6.966960231927747660e-02 -8.036667170843693198e-01 -3.417549313349226847e-01 6.652217945157671286e-01 6.638399890105181056e-01
7.649238145730261063e-02 -6.206913771287291687e-02 -7.917838607358248515e-01 1.434276168776756066e-01 6.780719940709984961e-01 -7.208653754851668261e-01
-8.211888865479591293e-02 3.974298473953322142e-02 -7.421044744062772480e-01 -3.808466713963933881e-01 -7.132387108689943744e-01 5.884270168884351282e-01
-1.137231545669868150e-02 9.088715087997838171e-02 -6.205218017233502525e-01 -9.158164862446532828e-01 2.440917605955092162e-01 -3.189033959240344940e-01
-7.117422565654844824e-02 1.026921060360111715e-01 -6.350585847343099832e-01 5.652746430623958318e-01 6.736937877756787874e-01 -4.760265310076107759e-01
1.449914359599270910e-02 -7.737770215099525062e-02 -8.319076628463941692e-01 -2.208336434608765275e-01 -6.747765072903075811e-01 7.042081845057526213e-01
-1.275571760093781142e-02 -1.313977041117236066e-01 -8.792756459226613863e-01 2.561908275402592361e-01 6.382200220734389751e-01 -7.259762140103602768e-01
1.030938627657723983e-01 2.557138949651093646e-02 -6.991286129780527325e-01 2.686392706531370161e-02 7.281720593345453185e-01 -6.848677108954088766e-01
-7.694676481413781355e-02 1.300671996529620747e-02 -7.642496771293527669e-01 -4.698962232284640411e-02 -4.389608563743347958e-01 -8.972766251079244970e-01
-1.086594234576203494e-01 2.070302141810840754e-02 -7.733721526984725925e-01 4.380883838449174394e-01 6.668196659168867946e-01 -6.028516410250864821e-01
1.043846599466637659e-01 6.338522885177484689e-02 -6.580582301374592324e-01 -9.605049593828730858e-02 7.168457143211155458e-01 -6.905841904427432176e-01
4.163029119581295595e-02 5.826522688045154136e-02 -6.613594428580814588e-01 2.027116870131613711e-03 8.013404027306959554e-01 -5.982051903390683822e-01
-2.417645291810566113e-03 -4.842159018503099793e-02 -7.979851800184867283e-01 2.234151876050805285e-01 7.119809343705342242e-01 -6.657092481258223282e-01
-6.918052990149906045e-02 4.292093568322234015e-02 -7.179201715781887705e-01 4.147501057887617582e-01 7.223674319936138621e-01 -5.533241752744613162e-01
-1.132940567537422116e-01 2.064053176228547448e-02 -7.778894756244754127e-01 2.425403373397745921e-01 7.001189785847269365e-01 6.715709944515078078e-01
1.087616109576832052e-01 5.907263900464643225e-02 -6.699781320743268820e-01 4.316488720980135238e-03 -7.472044186840950397e-01 6.645802619880351036e-01
8.764222625927974020e-02 -5.219263853537811637e-02 -7.801412835146901426e-01 1.277988743834821417e-01 6.970724594235410132e-01 -7.055192655197524143e-01
-1.212106553387081453e-01 6.284081121557273664e-02 -7.369165797671546336e-01 5.662757135962902533e-01 6.128077178186580598e-01 -5.511792060418284622e-01
-1.125138586686360654e-03 4.999146303007260400e-02 -6.802677998867171505e-01 -9.298279324485949626e-01 2.791605352511001836e-01 -2.397694968020133155e-01
1.493180402547765288e-02 3.777382621938927404e-02 -7.022323886197630038e-01 -1.245503451929957234e-01 -7.835569488072996469e-01 6.087082383934856455e-01
-3.427866816851674048e-02 1.520834672734103221e-01 -5.085662572771242340e-01 -5.584042155818060849e-01 -2.540854457714012971e-01 -7.896995113760779672e-01
1.231252096107613749e-02 -3.418097056811866125e-02 -7.799155748323287618e-01 -8.894175587547286099e-01 2.698172806890254960e-01 -3.689648238251971857e-01
8.971827503750191835e-02 -6.574260326280721711e-02 -7.890695632094869572e-01 3.209821075423859860e-01 5.251441360702979733e-02 -9.456282160559498218e-01
-8.644393050097436138e-02 9.048003845893597130e-02 -6.686303243296617405e-01 5.217878609609847285e-01 6.839506460786407560e-01 -5.098518822975649512e-01
-2.975413376440419824e-02 2.653045157737138685e-02 -7.183125662837127612e-01 2.697194130660180433e-01 7.727461365726003839e-01 -5.745562171166915810e-01
5.316327248040482906e-05 -4.137233343577148559e-02 -8.003212595071864666e-01 -2.131671781837537749e-01 -7.137986897939366804e-01 6.671215665781128346e-01
1.144488462454369138e-01 -5.943041081594503672e-02 -7.902325954987488021e-01 -1.431552260260927356e-01 -6.676307776065573130e-01 7.305995661467928892e-01
-7.042944697838622592e-02 7.715728914895748913e-02 -6.868951741008826328e-01 -3.393987736732425042e-01 -9.364818119677830177e-01 -8.837583539993913717e-02
2.000109078531427109e-02 2.003997542823693356e-02 -7.126238496033903136e-01 1.219099885667590116e-01 7.845135406415846280e-01 -6.080102459972674955e-01
3.011560948908442378e-02 -8.115013441589935539e-02 -8.309523350734466796e-01 -1.985261748137115978e-01 -6.772647822159025832e-01 7.084488497300859278e-01
-3.162439555095842431e-02 -1.228762512674319851e-01 -8.869328176411658271e-01 -2.105475845615778496e-01 -5.672311219448856745e-01 7.961900331782805207e-01
3.268934368572590666e-03 6.866608888604290584e-02 -6.485495465075553634e-01 7.500731233066150472e-02 8.210743086203289298e-01 -5.658717900908115661e-01
-8.371028251820436528e-02 4.477418461985453735e-02 -7.366004149616852681e-01 -3.831700243759149083e-01 -7.345643999233009147e-01 5.599963167602818315e-01
-9.277618229537769323e-02 -6.644704451557396918e-02 -8.610115624954961522e-01 -2.581311728658479132e-01 -6.159575180941793127e-01 7.442880044029733799e-01
-1.450166648068846459e-02 5.791763314263352613e-02 -6.633258270604263096e-01 7.623844301649376209e-01 5.719185709768384029e-01 -3.027856152691115188e-01
9.301890408741383953e-02 -8.827653624865537674e-02 -8.208748748251570859e-01 -1.837296870305352436e-01 -6.430669768961859711e-01 7.434435185871632878e-01
4.226376421245151699e-02 -6.537821777569521875e-02 -8.162658271184040082e-01 -4.985593328517084165e-03 -9.471747292946695040e-01 3.206792416804249424e-01
-2.021511357570862644e-02 4.808949575388169612e-02 -6.973308059051388508e-01 -2.133543132888463256e-01 -7.978877793833959453e-01 5.637863323207457089e-01
-3.017758842823805784e-02 1.076307865772763023e-01 -6.128244679538140671e-01 -2.601737702594879575e-01 -8.098194256601223273e-01 5.258346765785542054e-01
7.685269128634622917e-04 -5.196812098613693559e-02 -7.977558659008955333e-01 6.933233103128351171e-01 5.459592547190588174e-01 -4.703522930351908826e-01
-1.033038355535196295e-01 -2.991650665081576829e-02 -8.318093586235674186e-01 -3.479165288773877207e-01 -6.609020223109814962e-01 6.649530854422474047e-01
9.379758836070424891e-03 -6.060942659511590891e-02 -8.068494239964679737e-01 2.142367017201769197e-01 6.955661092572107407e-01 -6.857772402820363489e-01
6.029925612062237567e-02 3.673230307567418307e-02 -6.973233022509692791e-01 -5.597847594692348383e-02 -7.668809687504283268e-01 6.393434053770042924e-01
1.772613923659379850e-02 7.452791240471118295e-02 -6.507314295501912538e-01 -3.540202115379878500e-02 -8.108470670230275568e-01 5.841863836126105491e-01
-3.206592140326383622e-02 2.511185777188823694e-03 -7.505430184155360562e-01 2.646105099625027379e-01 7.419671092093531595e-01 -6.160081873391783924e-01
2.149931403636386185e-02 -1.143551724410484527e-01 -8.537358005720175891e-01 2.247751209070036060e-01 6.414044278719336356e-01 -7.335369826583520991e-01
-6.340930512072578962e-02 1.352391249938147411e-01 -5.808028622932215335e-01 9.151109806208951314e-01 -4.291094962741312524e-02 -4.009121394384775883e-01
-5.068364696136586772e-02 7.642409846249247074e-02 -6.571534449311279280e-01 3.680767352903395739e-01 7.805474004628478735e-01 -5.052378376257029569e-01
-1.023149075076572323e-01 6.018277219051397509e-02 -7.224405286034992768e-01 4.814676302523502871e-01 6.805198302449609882e-01 -5.523419970114129551e-01
5.135714250933055142e-02 1.361945502572670558e-05 -7.465632353146619549e-01 -1.601485960043727841e-01 -6.829573230740459966e-01 7.126862718316957501e-01
1.000719260482296341e-01 -5.708481476715791120e-02 -7.910138597629725599e-01 -1.546837507675009604e-01 -6.727080314009235007e-01 7.235584577193412414e-01
2.342359662585790508e-02 8.891496073275600986e-02 -6.183658462052779026e-01 -5.041896755502274508e-02 8.193327508254427682e-01 -5.710969892544509596e-01
1.047105598903996619e-02 -6.668778736316695321e-02 -8.085944690954589564e-01 1.249162017535131036e-01 6.965005535173687257e-01 -7.065995481809159706e-01
1.687245539018386239e-02 -2.835994882673586459e-01 -9.840290507990360203e-01 2.894271990828899410e-01 -4.451639332014737938e-01 8.473847821430515737e-01
-3.868996756631019190e-02 -5.571748388952001835e-02 -8.184773206060104167e-01 2.504510526895646905e-01 6.970414617038110938e-01 -6.718686410843291990e-01
-6.334366901401482230e-02 9.290311339823102482e-04 -7.624503163517718507e-01 3.459823963164563865e-01 6.612396275296246184e-01 -6.656262738381094612e-01
-8.418784696001662890e-03 5.593059758972277612e-02 -6.644959710373387063e-01 6.427773667411861014e-02 8.204994978885012946e-01 -5.680219595515390019e-01
7.405102248665085263e-02 4.432092261029049046e-02 -6.784354823296423476e-01 1.207391530027559015e-02 7.532655517574434745e-01 -6.576056790394044782e-01
-1.158980224346469606e-01 6.710679666158329837e-02 -7.348847316095071802e-01 -4.965539188173407337e-01 -6.629751593267623200e-01 5.602661366018795164e-01
-6.327468915896687640e-02 -1.053441923910512501e-01 -8.757362869256868354e-01 3.674815010098193557e-01 6.869930590033821449e-01 -6.268954325058890831e-01
-9.759140914023411995e-02 -3.745146946916315736e-03 -7.927327687462010219e-01 4.023140229638227372e-01 6.801390101289237489e-01 -6.128248965467318898e-01
-5.901274286555432264e-02 1.391519340529822624e-01 -5.745276575511197859e-01 -4.776142818955134151e-01 -7.845925107819415878e-01 3.953469232893080942e-01
3.164109788235489745e-02 5.074161075161932183e-02 -6.823159752568832559e-01 -6.726822814917562954e-02 -7.961976427172813287e-01 6.012855388358470110e-01
-6.186053315621301181e-03 -1.020393473020125841e-01 -8.514294875549321961e-01 2.385213415157429184e-01 6.543282634966737232e-01 -7.176085933368955283e-01
2.700269791316996931e-02 1.070085726663101700e-01 -5.901234249736017068e-01 -2.861456677195307607e-01 9.548449575847836046e-01 7.994850730474266365e-02
