-9.305810501075976364e-04 -1.766518485928349202e-01 -7.629731529502189469e-01 5.398818742325780518e-01 1.527534732422936026e-01 -8.277644219749570320e-01
9.638317717655872641e-03 8.709243531385525705e-02 -7.606634497480021517e-01 -3.663620297991478925e-01 9.577386612359731211e-02 9.255302424498009772e-01
8.514444375928742481e-02 1.147060541764438890e-01 -7.066784510491284088e-01 7.355885103468864372e-01 -1.248948660894171475e-01 -6.658159023860538150e-01
2.427159168058154806e-02 -1.054823106691042123e-01 -7.378942477747554296e-01 5.598990408163525556e-01 6.579341502311268630e-02 -8.259444839894052315e-01
-1.429384480281165005e-03 1.913584993846340343e-01 -7.642810960123426200e-01 4.337605736056692751e-01 4.748984457432706141e-01 -7.657174616109434506e-01
4.980266619923241073e-02 -9.812699441881118922e-02 -7.197043416234649715e-01 5.843832270565072484e-01 2.983216574348913561e-02 -8.109292730084884937e-01
-1.188005401904532604e-01 1.743070811740920004e-02 -8.060424792689148132e-01 3.972185151851649887e-01 8.717157996810162568e-02 -9.135746093450483052e-01
4.424756769586116190e-02 6.181330429644853880e-02 -7.311833543142849390e-01 5.353281142229305845e-01 -1.065560732272155947e-01 -8.378959442442224237e-01
-5.064924243824612399e-02 -6.644711454946239382e-02 -7.804382188633013362e-01 4.751242422622704020e-01 7.028004307748279833e-02 -8.771075589457261179e-01
2.868364246037149318e-02 1.896094292487799926e-01 -7.599262471625957138e-01 2.518445524192874929e-01 -1.647651564920583900e-01 -9.536386971085413222e-01
9.760403893048658075e-02 -2.167569152771848043e-02 -6.892932941280780490e-01 -7.533545627029649694e-01 -4.470583308638215736e-01 4.822818176749755215e-01
1.031793414440599493e-02 8.063730971262283997e-02 -7.568283866760301404e-01 5.270124284457167185e-01 7.604248470340494448e-01 3.794890674011454079e-01
2.021751039093712399e-02 -3.153612392568296008e-02 -7.473337312408092625e-01 -5.434996958872945205e-01 7.332821916717774391e-03 8.393773348698163606e-01
8.079365127021197190e-02 -3.098377705001529453e-02 -6.982972826920806897e-01 -1.018085509587843968e-01 9.909273497031813038e-01 8.773828447092833771e-02
-4.878011939944985886e-02 -8.731668162459138571e-02 -7.898672271870290640e-01 -4.581773118397231559e-01 -8.630530223290890923e-01 -2.126335617064018246e-01
4.910986566100253997e-02 -3.075411510777553009e-02 -7.215632123951003507e-01 1.388532902629596721e-01 9.752378807889452439e-01 -1.721361079420498374e-01
-5.251478491825766620e-02 -8.867537249832393997e-02 -7.945791678446949557e-01 -4.999601977308961720e-01 -1.388139065435703423e-01 8.548511566553536056e-01
1.036540635124310328e-01 3.472455940288451254e-02 -6.757117386661275482e-01 7.160986762511105663e-01 -4.149758903467447302e-02 -6.967644049287508023e-01
9.669408370081308823e-02 1.478411999220595185e-01 -7.002976757214958159e-01 5.873705845478667253e-01 -2.458739756392332165e-01 -7.710653568351095721e-01
7.734066224260215117e-02 1.899923675389706412e-01 -7.417942203164297199e-01 -7.439265645962060969e-01 1.902906882924665366e-01 6.405955982031613649e-01
-4.137209883616948386e-02 9.008206295504926631e-02 -7.792824846424780683e-01 -2.860812003271936410e-01 -7.195194311859233992e-04 9.582051080594070624e-01
-3.285889255289886624e-02 -1.463515072978622544e-01 -7.787408940215605480e-01 5.259267712567990971e-01 1.103301303863838123e-01 -8.433435205207435725e-01
-1.133997206431401200e-01 -1.914062302453197958e-02 -8.074918882832798905e-01 4.306201748136954666e-01 1.113484528214441910e-01 -8.956382010040063735e-01
2.357576383339363840e-02 -1.240602660006359520e-01 -7.482257801333390690e-01 -5.641955172231530868e-01 -6.227550392281993447e-02 8.232892444071265858e-01
-7.244770865893845890e-02 -2.499301485719038207e-02 -7.885991473428807241e-01 4.409545708004798947e-01 7.034126713586676127e-02 -8.947687816569627195e-01
-5.015369961185973946e-02 -3.408027334099693606e-01 -8.515456380188914931e-01 6.810960855772580924e-01 -3.016388581792551205e-01 6.671747308221823713e-01
-3.126686068071371505e-02 -1.246682866095103759e-01 -7.831610868464938813e-01 -5.088613098083633046e-01 -1.160478807147955066e-01 8.529906545570831167e-01
8.639388555435600914e-02 6.610644075625539406e-02 -6.972715895902500405e-01 7.154277364365471126e-01 -9.749524701032723228e-02 -6.918510177398552452e-01
3.931775847712400129e-02 -3.544756849682485778e-02 -7.263366896278150575e-01 5.743423701951287930e-01 -1.161873944393821204e-02 -8.185327401468895925e-01
1.083739727574547507e-01 5.821417549227815742e-03 -6.749913506648927974e-01 -7.710357423682961953e-01 2.133916197494001299e-02 6.364342261041416871e-01
5.692638542135203955e-02 1.083094959827723969e-01 -7.387188606597431262e-01 -5.354160250618734684e-01 1.622487309636796993e-01 8.288576653488936019e-01
1.022137749285473018e-01 5.214576573509881185e-02 -6.854828190197919113e-01 -7.573478571949662230e-01 5.585944967431289571e-02 6.506181253886764715e-01
-2.815307619643004147e-02 -2.148010950335389191e-01 -7.968358249556249939e-01 -9.394096664723925461e-01 1.838985285061622565e-01 -2.892936393208405677e-01
6.256456015016462202e-02 4.168804223529972569e-02 -7.234349553166747882e-01 -5.999093043210117493e-01 1.034658390763297242e-01 7.933496371293746741e-01
1.044486385106915133e-01 5.671982122233900497e-02 -6.832740503632092066e-01 -7.573478571949662230e-01 5.585944967431289571e-02 6.506181253886764715e-01
-4.818003148161837529e-02 -2.400776881553727260e-01 -8.060262113571717846e-01 8.830390514420832782e-01 4.120502661133172706e-02 -4.674870901000637846e-01
8.382656867586723431e-03 1.678502936784795063e-01 -7.622832599934828979e-01 2.455141038251708319e-01 -1.015114578235372100e-01 -9.640634049446452636e-01
-1.065027744670286602e-01 9.494768749809678887e-02 -7.985344204929779588e-01 2.321590497146459320e-01 -3.284838386061855187e-01 9.155329286323555804e-01
-7.643217532880049181e-02 -1.329128796738541229e-01 -8.106391980438494294e-01 -4.914240379246881396e-01 -1.355227396935266559e-01 8.603115726152678056e-01
4.214470643256865157e-02 -5.578253421743913781e-02 -7.240038566707207579e-01 5.690577292622170935e-01 -1.675442208812609468e-02 -8.221268698366585026e-01
-2.272394809018370848e-02 1.294923747972382549e-02 -7.712707318575565685e-01 -3.995569439730337069e-01 9.551635590927799041e-03 9.166586140873100863e-01
4.779214967722560103e-02 1.940469574776077233e-01 -7.549938394712579770e-01 3.341562285528748566e-01 -2.097112683196950267e-01 -9.188910701813700621e-01
-3.575097203908755850e-02 -1.367128156461388244e-01 -7.769769234797820889e-01 8.911206259194053292e-01 -2.699395462621525382e-02 -4.529628643439162494e-01
9.937911771976691566e-02 1.310665676262304236e-01 -6.935109726022359311e-01 6.674208342076235478e-01 -1.720516559795702560e-01 -7.245327168184243494e-01
8.792705835619528398e-02 1.678582159110696970e-01 -7.226469854281595273e-01 -7.708753738198141914e-01 1.476065950316592379e-01 6.196478444578993328e-01
-7.321612189840068230e-02 -1.571002005603696072e-01 -8.127671814802840400e-01 -4.932579269193282379e-01 -1.396013021556783418e-01 8.586082307826343740e-01
7.885471034531896023e-04 1.217505147856175612e-01 -7.670543862924611433e-01 -3.241082219162143563e-01 6.803810346383902530e-02 9.435701759611491157e-01
1.578096100831637150e-02 8.464511313131481982e-04 -7.510521698655852063e-01 -5.031702812906886368e-01 4.483140618425453250e-02 8.630236457046768228e-01
-6.747514421964660725e-02 -2.346583383857685570e-02 -7.860285403735122189e-01 4.409545708004798947e-01 7.034126713586676127e-02 -8.947687816569627195e-01
-5.694333718490598994e-02 -2.826210540414361011e-02 -7.885991970242753890e-01 -4.304691137309777371e-01 -7.304517361232083783e-02 8.996447880889502091e-01
2.426704979362824185e-02 -1.208890303680704992e-01 -7.475121661259281902e-01 -5.641955172231530868e-01 -6.227550392281993447e-02 8.232892444071265858e-01
8.290355828478533640e-02 9.073742142214169526e-02 -7.047696692371417937e-01 7.271729910733996105e-01 -1.075081728534761916e-01 -6.779833580723590991e-01
-5.838719771591159569e-02 -8.219267117942791190e-02 -7.898760711199467321e-01 -4.622526921488402940e-01 -8.624763975604535782e-01 -2.060507516421431484e-01
-5.635664322910430984e-02 -9.667801878790502346e-02 -7.824837066622958304e-01 5.090354949724174016e-01 1.192310654351020349e-01 -8.524475455377863442e-01
-7.161887348095084815e-02 -4.556297327242891243e-02 -7.897444393485125724e-01 4.565925844861923322e-01 8.038414514754452234e-02 -8.860370201075786767e-01
1.008191022323670335e-03 3.166875500024036311e-02 -7.526401778083533500e-01 4.473121439224293505e-01 -5.458116908462277289e-02 -8.927108949043220942e-01
5.279605905723909476e-02 7.777980877924749181e-02 -7.362009780097753531e-01 -5.336106409425278585e-01 1.340552818197907892e-01 8.350382418123861727e-01
-2.904105288125809203e-02 1.128184208687325746e-01 -7.659871937141438103e-01 3.338588622021244068e-01 4.921941904543678664e-02 -9.413371919338641147e-01
-1.307684368529225469e-02 1.865122439563396683e-01 -7.684552334974917853e-01 1.956139761104504216e-01 -3.854683028955076252e-02 -9.799231164866398780e-01
6.049350494330195394e-02 2.161874458700494550e-01 -7.647468695507142478e-01 4.599875506286957294e-01 -7.018328035333282200e-02 8.851473100142475126e-01
3.014121858481427080e-02 1.131718107291215109e-01 -7.457765389032231518e-01 -7.539439448913111130e-01 1.925496663657650376e-01 -6.280868999940691921e-01
3.627012145105645846e-02 -5.394504349641235375e-02 -7.364817601472242181e-01 -5.774060662696730573e-01 1.650024571641844559e-02 8.162903751277971187e-01
8.348192134027269951e-02 -8.415453562902905360e-02 -6.929227256713044181e-01 6.402559640970414412e-01 4.914127268650771152e-02 -7.665881787223947086e-01
-6.163687890262283670e-02 -8.205345431710290086e-03 -7.895738142279105087e-01 -4.114249044037071590e-01 -5.211648775082516200e-02 9.099524271855745639e-01
6.995540964696618513e-02 -7.273820034202896356e-02 -7.113304714230631598e-01 -6.421248898286150419e-01 -4.333769386081047677e-03 7.665877929536166757e-01
-3.200950140873923960e-02 1.207840271024467615e-01 -7.786200298018642885e-01 -4.720650297255695182e-01 -5.441387239220072392e-01 6.935904099962213465e-01
-5.424216643769850382e-02 1.297490161960559441e-01 -7.771177844303157611e-01 2.618986985431435710e-01 5.089144827181838089e-03 -9.650819510830858095e-01
-5.815734408859123822e-02 -1.083463238443441168e-01 -7.887515773106702488e-01 5.040590462877637679e-01 1.140926978164119587e-01 -8.561000725151486357e-01
-5.284110626914421960e-02 9.075009836859571077e-02 -7.766296560079843925e-01 3.225782511068598368e-01 -5.839627118485618031e-04 -9.465426196956958638e-01
-5.949652748678928293e-02 1.531483270022839793e-01 -7.831178962132357979e-01 -2.009127257018424040e-01 -5.542922687689509631e-02 9.780397115960505205e-01
5.591115323045109387e-02 -1.608290676675159514e-01 -7.248969915552108123e-01 -5.776034595943332350e-01 7.839704371795306326e-01 -2.275183445201577614e-01
-4.316627857004290414e-02 1.446635951187441038e-01 -7.797352019140785240e-01 -2.306409955452047855e-01 -4.332496021424195559e-04 9.730388190964935902e-01
-6.614557838734907991e-02 8.327760396608295534e-02 -7.875567790821867975e-01 -2.935850260022586644e-01 -4.255734856279601297e-02 9.549851855346017659e-01
-4.538795793618647517e-02 -9.620989823490183612e-02 -7.767894394209440279e-01 2.419517464189642475e-01 -3.485115951180735583e-01 -9.055379729603110217e-01
9.680887127984975915e-02 1.357980704981518183e-01 -6.973424961555315660e-01 7.753957925586273392e-01 -1.182573826708158138e-01 -6.203036001235413543e-01
5.323457733295534205e-02 2.736396957102370589e-02 -7.289580474264097942e-01 -5.918188639604233803e-01 9.045568018458231829e-02 8.009795266939963021e-01
9.323523813924909642e-02 -6.549586869655922572e-02 -6.904669020555486147e-01 -6.888050076145385558e-01 -2.110100421630068182e-02 7.246395028606975597e-01
-8.075550796002978204e-02 -2.719142969732200182e-02 -7.928116222257227674e-01 4.292621921498682158e-01 7.295590152907698023e-02 -9.002285303314759846e-01
-2.502237286301159727e-02 -1.274704730715127410e-01 -7.713573175628338774e-01 5.326323333713486319e-01 1.109914236687790240e-01 -8.390373658660084111e-01
2.063588580397078542e-02 -1.185162746458712502e-01 -7.387896282320783881e-01 3.950891675129247771e-01 6.992525749902835930e-01 -5.957771278619228283e-01
4.796904179253777545e-02 -6.043114361876264495e-02 -7.282287718884391525e-01 -5.789123622685221626e-01 -1.777050120264648050e-02 8.151961028486862659e-01
-4.195061645323933802e-02 -3.649638055568714679e-01 -8.606548197195590388e-01 -4.932276724663551826e-01 -3.403661555501047431e-01 8.005481517494519306e-01
-1.333278049233374563e-02 -9.822042036420301769e-02 -7.719173753282561057e-01 -8.889714758370366177e-01 6.457348396762288556e-02 4.533872299882343859e-01
-4.101959272912814730e-02 -1.796553031275422152e-01 -7.919003319642629046e-01 9.388920596950232067e-01 -1.856541955991338755e-01 2.898520655404674962e-01
-1.158993407980511703e-01 1.887956125725205256e-02 -8.101154910577235135e-01 -3.478743080962715117e-01 -1.133458721637667643e-01 9.306643750729772790e-01
-7.726371599395315259e-02 -6.191178688703336680e-02 -8.014303322198045310e-01 -4.343233243355173467e-01 -8.582747354365485859e-02 8.966587392778024856e-01
-3.763203544422222269e-02 -1.129757040673275981e-01 -7.855123900927977187e-01 -4.965675387242369787e-01 -9.011354654334341463e-02 8.633077250984922957e-01
-3.625920153931738027e-02 1.157210807629681926e-01 -7.778279562513563672e-01 -2.811632579862156645e-01 1.232819530392837738e-02 9.595807615615921105e-01
-1.423185403146565858e-02 1.771741531691263527e-01 -7.683184700797452971e-01 1.956139761104504216e-01 -3.854683028955076252e-02 -9.799231164866398780e-01
-1.108244692107724222e-01 7.602973253144452992e-02 -8.021395234845136724e-01 -2.919412826515371262e-01 -1.003075381872946398e-01 9.511617555739820817e-01
-4.359460615578701626e-02 -3.064055978593816509e-01 -8.220955986521303327e-01 4.853541637388344432e-01 2.842499767486802997e-01 -8.268211937654665888e-01
5.846241454429543759e-03 6.748812429726364082e-02 -7.529108144602827402e-01 4.222631851970481409e-01 -7.740948827890742345e-02 -9.031619863300498485e-01
3.013286563177170613e-02 1.462258962416742580e-01 -7.524118753356521250e-01 3.696656387066949434e-01 -1.358191480700970122e-01 -9.191846792549820400e-01
6.372122686867925934e-02 -1.188921631301105286e-01 -7.212634433642104437e-01 -4.814150509800539934e-01 6.307614994087892279e-01 6.085881033617466240e-01
1.585302471319109327e-02 -1.193720938176297125e-01 -7.512741889544638507e-01 -7.650871506913284326e-02 9.845677648382773484e-01 1.573935607317808183e-01
1.823852852595005125e-02 8.193461275279649569e-02 -7.485063426750070414e-01 4.465675732475614668e-01 -1.219824636804810319e-01 -8.863958941004994596e-01
-1.885595980683639223e-03 7.399238296630281098e-02 -7.644367578914149641e-01 -3.868232700264291890e-01 6.299856683210998398e-02 9.199994230124060035e-01
-5.553274093617403123e-02 6.642609664894308374e-02 -7.778862378235791297e-01 3.432462221514473444e-01 7.589485073233031599e-03 -9.392147947594746693e-01
3.944035634633336757e-02 -1.107157623630652954e-01 -7.250031051949618055e-01 4.405248628383212073e-01 -6.172470275227930347e-01 -6.518772524298993565e-01
2.152586140393329336e-02 -1.199333144193509559e-01 -7.450059454835327166e-01 -7.650871506913284326e-02 9.845677648382773484e-01 1.573935607317808183e-01
3.573802784775235303e-02 -1.764897009747966317e-02 -7.378118967811148066e-01 -5.435663293537804641e-01 3.021598349359113159e-02 8.388221742028357797e-01
-4.613716283924720885e-02 -7.027224971502755990e-02 -7.782850217765158174e-01 4.763260217887896886e-01 6.821032336933470497e-02 -8.766190009078722589e-01
-5.338692348613961053e-02 -3.452527069521871828e-01 -8.444252087406560747e-01 9.035668749388349186e-01 1.682943179383246946e-01 -3.940100570581187012e-01
-1.034314812005657919e-01 -1.860308521374933605e-02 -8.090684064909968720e-01 -3.990665146943581654e-01 -8.688789521975165409e-02 9.127959303776386202e-01
5.173817939009969086e-02 1.410861573586813245e-01 -7.406144745619841485e-01 5.332947226157748188e-01 -1.957384566441292273e-01 -8.229721717170866979e-01
4.513497429251039222e-02 1.908314917847666881e-01 -7.533910992544387009e-01 9.071016330807205597e-01 -3.522965041150505905e-01 -2.303341061384616972e-01
-2.343323035047090511e-02 -1.303812271105974363e-01 -7.684386965448741780e-01 -1.364549682164681137e-03 2.194859585306532801e-01 -9.756147046924031896e-01
4.892003199646446920e-02 2.563275242681515784e-03 -7.215434327171774687e-01 5.780147765023972983e-01 -6.256292051460081438e-02 -8.136244828675986973e-01
-3.942372016966008696e-02 -2.524454372690250192e-01 -8.015377806274086581e-01 3.289434761810506452e-02 3.502478337932981023e-01 -9.360792791307162020e-01
6.304397379933444900e-02 -1.153912549559822365e-01 -7.072724433459016691e-01 5.846562347441279783e-01 1.444695912003803318e-01 -7.983142391271836891e-01
-3.268246415823920781e-02 -1.908134504774095797e-01 -7.992988745147985297e-01 -4.778412171285257304e-01 -1.966226337562156368e-01 8.561584614473527477e-01
2.105890493061240293e-03 7.224264973739941142e-02 -7.549858869837695607e-01 3.988827207181846468e-01 -6.874015664020599603e-02 -9.144218752728625610e-01
9.246327069594439951e-02 -3.742702586051189356e-02 -6.839783047031643415e-01 6.773345978630759268e-01 1.105968434013295670e-02 -7.355919561278261298e-01
-9.805646351038072028e-02 1.060255239474105216e-01 -7.955419057010694184e-01 -1.524681528880120207e-01 -1.480633389726047078e-01 9.771543941502802699e-01
-1.556024253640720008e-02 -1.429548533692519552e-01 -7.674033481717683625e-01 5.333925645320779507e-01 1.063448757658813915e-01 -8.391562068531891461e-01
6.814493993076699285e-02 -1.387623866919053262e-01 -7.099042098260119893e-01 5.589441319391507124e-01 1.247982426129064237e-01 -8.197602430049405475e-01
1.062695258889960609e-01 8.626212357278767451e-02 -6.780876493843340791e-01 7.133662565726354154e-01 -8.671433466699003667e-02 -6.954057866791204523e-01
-7.175194882703472832e-02 -1.680564316289974436e-01 -8.136384845639912378e-01 -4.438894090413902926e-01 -9.980800867582555191e-02 8.905057854641099668e-01
2.150996162846109672e-02 -2.687857797075896352e-02 -7.466672410558217177e-01 -5.419103429057001708e-01 3.142484927250122073e-02 8.398485929618665358e-01
-7.241357331507224104e-02 3.992453302111314412e-02 -7.849608186041656666e-01 3.662681522544035673e-01 1.913102286883435268e-02 -9.303126595979100966e-01
-2.263849903288299090e-02 -9.560843822063399416e-03 -7.634259652967778642e-01 4.541380894012049252e-01 1.552620374672921376e-03 -8.909299552293634683e-01
8.232354461731676565e-02 -1.294670613460884717e-02 -7.013935623424963905e-01 -6.920061557442052091e-01 1.768893796618624739e-02 7.216748449861302150e-01
-1.171835992066919477e-02 -8.455744653420073365e-02 -7.678587135121290874e-01 -5.189105940966384223e-01 -5.692911660055001433e-02 8.529307539404089589e-01
-5.540712334524414834e-02 -9.348542799641533507e-02 -7.814757208699665281e-01 4.767015091775533286e-01 6.103157841444597359e-02 -8.769440219216299015e-01
-3.009327841500023318e-02 -1.566422656247811740e-01 -7.785189533552462349e-01 5.237435413718890542e-01 1.379536153333053572e-01 -8.406316094983000697e-01
-5.534286310967615613e-02 -8.392686752207831336e-02 -7.844793876211213490e-01 4.895938714529893265e-01 9.445231959578502534e-02 -8.668198200079697546e-01
1.995216691802034412e-02 -1.455322591323700565e-01 -7.528702184225583016e-01 -5.623744776862023009e-01 -8.499565862134576821e-02 8.225026959607455446e-01
-4.449645663197963202e-02 -1.836836129404986404e-02 -7.820969629732710260e-01 -4.340368605742556118e-01 -3.667624559161689057e-02 9.001482414981143432e-01
8.670776789362442949e-02 -6.578785479643098344e-02 -6.966209663749545200e-01 -6.759736136649934224e-01 -1.629014070536669370e-02 7.367457532585371949e-01
-5.036057122329496566e-02 -3.737170002188002216e-01 -8.532210273574831749e-01 5.999289797600279028e-01 3.234412434986071450e-01 -7.317588272430791685e-01
-1.237894850700366062e-01 2.755859710171288789e-03 -8.098229966820587045e-01 4.043414822517532037e-01 1.096089385911268171e-01 -9.080164350447527122e-01
5.611069792232290659e-02 -6.666679143566059396e-02 -7.221834481422589880e-01 -6.106820267487126364e-01 -7.042710582506685017e-03 7.918445948756205333e-01
5.187689893104129729e-02 -1.611026824982495220e-01 -7.248569769961447085e-01 5.273020944053424808e-01 1.883485529755431764e-01 -8.285392711439560909e-01
5.851971897636935871e-02 2.965617024747500136e-02 -7.170576372626590311e-01 5.917502289723436393e-01 -8.046329847094259302e-02 -8.020955829016604977e-01
-6.293590503215805432e-02 -1.567024653125740491e-02 -7.833507157772010565e-01 4.251862801796203462e-01 3.790523196610342399e-02 -9.043117938723419513e-01
-6.822846927214498355e-03 -1.356697720051820710e-01 -7.609651350139986503e-01 5.302210962497354574e-01 1.051509646232401674e-01 -8.413137724597943290e-01
6.945534265014793873e-02 2.493852257835802166e-01 -7.642779451358244769e-01 8.463725966184251215e-01 -2.817736537032830002e-01 4.519480454345246034e-01
-9.489570083780579646e-02 1.041053497833458741e-01 -7.949514334666376580e-01 -2.513191988777244701e-01 -8.425059253197905718e-02 9.642305211584359936e-01
-1.055931164912856379e-01 5.478006555724156817e-02 -7.972044527067100317e-01 3.589690802104315570e-01 6.765502179697507890e-02 -9.308941924185194505e-01
9.520114145364527714e-02 -7.587977015340056919e-02 -6.887733445568881008e-01 -7.089324678401511814e-01 -1.150534473649468710e-02 7.051825175687265190e-01
9.425770577723482924e-02 6.842136123677415582e-02 -6.924588599305340209e-01 2.854315056309507104e-01 9.310037099709650432e-01 -2.275103241911183571e-01
-3.826514890254042317e-02 8.106881203985585177e-03 -7.762956685095584453e-01 -5.267689527552362749e-01 -8.361247781466978335e-01 -1.530026986111264475e-01
3.267134738636534629e-04 2.028642313727501700e-01 -7.721286236058051422e-01 -1.030318126224679526e-01 1.311368358747293066e-02 9.945916131209313615e-01
2.102541561337221629e-02 -1.841079548421613032e-01 -7.571108672255753014e-01 -5.754553015677358330e-01 -1.067717845544733091e-01 8.108335106053764507e-01
-1.865360800322623733e-02 1.279856872948221258e-01 -7.666290979330407929e-01 2.966910348674315356e-01 -5.103093411126630868e-02 -9.536090779732667722e-01
2.165812842343918521e-02 7.456343695695910601e-02 -7.469286239833545782e-01 -7.263538494774801624e-01 3.271377730421501373e-01 -6.044757751955562863e-01
-1.007523561252929856e-01 -5.506440501905329743e-02 -8.123049313442866071e-01 -4.255985012323709182e-01 -1.252991467510722878e-01 8.961953132951614442e-01
-8.548043232357825649e-02 -1.222906974573993444e-01 -8.140085139425231597e-01 -4.815587162755607942e-01 -1.356826659999624818e-01 8.658472249341544469e-01
-4.775701111742521737e-03 -8.461069974541655936e-02 -7.553096819794599126e-01 5.219202014393601319e-01 5.019258413280245495e-02 -8.515162992142716325e-01
5.759818708652018893e-02 -2.199125030677400935e-02 -7.249065832203832604e-01 -5.058290979049957503e-01 -5.940666930126786704e-01 6.254771682208696282e-01
-1.257024003611108831e-01 7.931491756539715138e-03 -8.150935831907053508e-01 -3.355761196952412040e-01 -1.250299703103704418e-01 9.336788390096848467e-01
-5.892855759909640390e-02 -1.505250207457872191e-01 -8.032897401369855084e-01 -5.012547219103600238e-01 -1.338631484953290152e-01 8.548826593383943573e-01
1.888116375749611386e-02 -1.491655285731771086e-01 -7.456909273066641974e-01 5.481992372477526576e-01 1.174246016783496299e-01 -8.280634391166312724e-01
3.979971576617822443e-02 -1.140048018114115103e-01 -7.361662511184687840e-01 -5.885689092505084208e-01 -5.600515231085666928e-02 8.065048431214187907e-01
9.756705005361701599e-02 2.178265285735039164e-02 -6.883324794660153900e-01 -7.574593902863947514e-01 5.382430723275894585e-02 6.506598312619862323e-01
-4.559941597130976604e-02 -2.175613686876073649e-01 -7.992039569081319517e-01 8.989028470052776720e-01 2.911071649721747381e-02 -4.371798689679399219e-01
-6.417542541978017712e-02 -8.339598191696228485e-03 -7.907292790731652588e-01 -4.114249044037071590e-01 -5.211648775082516200e-02 9.099524271855745639e-01
1.995211667910880629e-02 9.558158156824221596e-02 -7.494244776968681521e-01 4.090496662006188888e-01 -1.084305961504550414e-01 -9.060470056236702430e-01
-1.354386052894867264e-02 -7.766947311110505847e-02 -7.684323240001393884e-01 -4.990678470130403555e-01 -6.240283451974728418e-02 8.643131205307885701e-01
5.130411158533939447e-02 7.001580985547316283e-02 -7.275807636678890411e-01 5.965970752296579915e-01 -1.146145138137285163e-01 -7.943144484715485287e-01
-4.677055091042105553e-03 3.413735328724469727e-03 -7.502011451173234979e-01 5.246497498471066612e-01 -5.716496897409187317e-02 -8.493967308081420420e-01
-7.372754316325746959e-02 -1.636591530508432757e-01 -8.070173967930425185e-01 5.261640657603547933e-01 1.743361900268770859e-01 -8.323210130409093299e-01
2.725616228307509853e-02 -8.449213675026040482e-02 -7.433131976612852299e-01 -5.691068531669627450e-01 -3.251575930867706132e-02 8.216204203127970285e-01
-1.233969294462067406e-01 -7.218572477573453883e-02 -8.199702144203523391e-01 4.947262481965875036e-01 1.464338736445415512e-01 -8.566230559556419211e-01
3.126111350994500993e-02 1.302427728597255752e-01 -7.571722465480803521e-01 -3.990587509726076787e-01 1.453874338778584352e-01 9.053256913081576540e-01
4.248785779179040795e-02 8.945026022801869786e-03 -7.349625188951860455e-01 -5.432742397131865575e-01 5.686024620898335463e-02 8.376276098990010910e-01
8.311345663595973154e-02 2.141415180705179278e-01 -7.424276800719057379e-01 -8.441937384033046943e-01 1.638573506809032354e-01 5.103799571578887528e-01
1.091314015432200552e-01 7.251148971347780303e-02 -6.759206196198590533e-01 -9.824977352680600573e-01 -1.349031945099180008e-01 -1.284497111874998709e-01
-2.479073881243810951e-02 -9.680634672553617426e-02 -7.775805442760496122e-01 1.639005278536656215e-02 -1.886956497916698616e-01 9.818988328332978188e-01
1.132283218675745468e-02 1.557475776030456671e-01 -7.670224626021794334e-01 -2.447373145339799549e-01 6.865839819499294783e-02 9.671554534985539187e-01
-9.205097591738840845e-02 -8.725137453991441139e-02 -8.122163454469962796e-01 -4.603897840460307589e-01 -1.264811778943768505e-01 8.786602064418871372e-01
-1.769268463769480687e-02 1.519499740935788268e-01 -7.677449073517085276e-01 2.345613003127349772e-01 -4.064342333234514243e-02 -9.712513106994639100e-01
-1.141806824922579969e-02 -4.576733526784414197e-02 -7.691969816597946652e-01 -4.308644708395186207e-01 -4.345807880372702658e-02 9.013696262659789404e-01
1.575030632386164101e-02 -5.605312817223157690e-02 -7.500010761254066738e-01 -5.425479733147653416e-01 -1.998447765605668169e-02 8.397870666453817190e-01
-8.624240209094713450e-02 -8.076220239237422160e-02 -8.082785597158460567e-01 -4.507609117152642786e-01 -1.072900795576964966e-01 8.861734814911393920e-01
8.865803532861238345e-02 5.918840391890402373e-04 -6.887398358284783084e-01 6.872022556139382177e-01 -3.758131347811956985e-02 -7.254934215803577890e-01
2.118409616650682864e-02 -3.024965149910877060e-02 -7.396996310762813387e-01 1.164779911636182469e-01 9.782952545861284266e-01 -1.713804902220512905e-01
-3.789189018860392166e-02 -1.738588968163520820e-01 -7.826083862156262283e-01 5.855610705158462714e-01 1.674322074236352098e-01 -7.931485917617107084e-01
1.119361203762233442e-02 1.591755501815354246e-01 -7.673733155684226981e-01 -2.378613063344653389e-01 9.409356287587815337e-02 9.667307796766300143e-01
-1.082005602316900711e-01 3.841525444023433621e-03 -8.026664331777675354e-01 4.113494456269650157e-01 9.891581659547184213e-02 -9.060945286280230881e-01
-4.564460108234644903e-02 -2.450299580396881893e-01 -8.033491884536686500e-01 5.885197040623557641e-01 1.663554036348755538e-01 -7.911829356171901084e-01
8.261542236034395345e-03 -1.147663450375970562e-01 -7.491945962819859250e-01 5.398240224668846565e-01 7.053693689429228753e-02 -8.388173611110126826e-01
5.090821806521559495e-02 -2.231060378570306688e-02 -7.269078276317566534e-01 -5.872589623280326521e-01 3.279400892039797955e-02 8.087344830933890227e-01
-3.246659122498371085e-03 -5.697124021695787986e-03 -7.494430552340216600e-01 4.165893413572795412e-01 -3.411410365842206058e-03 -9.090883801626901128e-01
-9.555337136293373668e-02 1.083812295996965241e-01 -7.903051644183882729e-01 3.316709531154615753e-01 2.960130786152244051e-02 -9.429306132650314698e-01
-1.082920011958765812e-02 -1.893535095155762793e-01 -7.797195235980788341e-01 -5.526495001677301788e-01 -1.202669304482421736e-01 8.246904846091748231e-01
-1.816037495700223783e-02 -1.748344050489988588e-01 -7.738265346327349858e-01 5.330474141813912325e-01 1.570817670762987561e-01 -8.313758311899137610e-01
-5.346720503666127153e-04 -4.960696231765010511e-02 -7.515133767289796651e-01 5.158852052533186017e-01 3.417764032619489793e-03 -8.566509054975419701e-01
-4.092289072476457124e-02 -2.913539538086160618e-01 -8.161498475802462238e-01 3.679607235115615188e-02 3.501634183665570110e-01 -9.359656134160997398e-01
3.356397929260944435e-02 -3.035166562146874789e-02 -7.384769179849589582e-01 -7.140626070863199948e-02 9.884015128678543816e-01 1.340283376459910358e-01
1.065077585686255296e-01 9.835020176245728388e-04 -6.770900448025862772e-01 -7.710357423682961953e-01 2.133916197494001299e-02 6.364342261041416871e-01
-1.312606225518901659e-01 2.028393323640952442e-02 -8.113105210507067788e-01 5.060676020221451799e-01 7.471836432412354290e-02 -8.592512718735325628e-01
3.333403307741137495e-02 -7.542641539217626034e-02 -7.388062022708117293e-01 -5.716377647506311055e-01 -1.097134898829713566e-02 8.204327488662792600e-01
-5.751934099545581019e-02 1.345037841128052802e-01 -7.780104156816929351e-01 2.825778141556370970e-01 6.465188342454380142e-03 -9.592225916265310071e-01
-8.576305441944984120e-02 7.186020785655992732e-04 -7.929860824244508999e-01 4.091957317137367989e-01 5.080774159039433413e-02 -9.110309690354896350e-01
3.648964545550311550e-02 -2.555053269997589749e-02 -7.370402105653700575e-01 -5.435663293537804641e-01 3.021598349359113159e-02 8.388221742028357797e-01
-2.052231534845267227e-02 1.487124044990922045e-01 -7.744285678945596052e-01 -2.465139995378909099e-01 3.179075778014047587e-02 9.686176726405505422e-01
-2.150430669642290626e-02 -1.426614770136075960e-01 -7.831236178375948764e-01 -5.632118550118678790e-01 -1.053352557135913414e-01 8.195711624244982341e-01
2.950237257075495525e-03 5.361630734029514816e-02 -7.608452772234532979e-01 -4.188654278131829223e-01 7.933708672798976680e-02 9.045758011644986496e-01
9.586229111091465471e-02 7.711249839048878174e-02 -6.888504773258843361e-01 7.582061606016741173e-01 -8.732171020751056112e-02 -6.461411122596240064e-01
-5.606334233283722518e-02 1.682047760338998763e-02 -7.859705774486805963e-01 -3.931875101935365380e-01 -3.521637712406499449e-02 9.187836462465269749e-01
-4.379540557645747456e-02 1.655146842078726033e-01 -7.745002625967994936e-01 2.307727070699067129e-01 7.128394149787580479e-03 -9.729815741669891604e-01
2.375936156863544743e-02 -1.476885516188392866e-01 -7.504899300506947535e-01 -5.623744776862023009e-01 -8.499565862134576821e-02 8.225026959607455446e-01
-1.016710109250659605e-01 3.145786842652360110e-02 -8.033307200532475711e-01 -3.558874136398459398e-01 -6.414271414802294458e-02 9.323249760863785429e-01
1.067368918024726582e-01 -3.083396075301503281e-02 -6.759488282378117718e-01 -7.907713953710429067e-01 1.208007262878515141e-02 6.119923791259307411e-01
-8.595826254253083332e-02 1.074996435818317969e-01 -7.872369187658836420e-01 3.051045366060478048e-01 4.168116427058410345e-02 -9.514062761446643313e-01
-7.618822346671848267e-02 1.173942615968020242e-01 -7.889802098681429898e-01 -2.567867137137990197e-01 -5.889805748590042772e-02 9.646717589338120735e-01
6.552849666976016951e-02 6.382229657983091997e-02 -7.160441202191228927e-01 5.885693372149098934e-01 -1.048794223632639189e-01 -8.016148963530740357e-01
9.177066497323604910e-02 -2.938572461665014957e-02 -6.940713653099910285e-01 -5.986631186067599142e-01 5.612834114935000285e-01 5.714572620959915694e-01
3.920754277143763400e-02 -1.731132398885963097e-01 -7.425451803595488620e-01 -5.976673708753061920e-01 -8.109340880203820545e-02 7.976324798049944098e-01
-1.122523476754529875e-02 -4.256856818761836636e-02 -7.689335619133994548e-01 2.969359128795829791e-02 -1.475428302923642576e-01 9.886098339920265099e-01
1.526163592264378512e-02 1.223401139161429951e-01 -7.547755410510526008e-01 3.525695939895091557e-01 -1.301900446751336204e-01 -9.266850779318501763e-01
-1.379881698692943075e-02 -8.640316761128497003e-02 -7.608650652472344067e-01 5.220714890585168577e-01 5.834112809046033271e-02 -8.509040328294110722e-01
3.288654595819230642e-02 -1.353253825190575688e-02 -7.398079713152870829e-01 -5.435663293537804641e-01 3.021598349359113159e-02 8.388221742028357797e-01
8.939493395530380762e-03 -1.155664386892851087e-01 -7.572533328558985755e-01 -5.427257973711969719e-01 -7.219313399553516086e-02 8.368015656484524278e-01
7.500640565228471057e-02 2.933866113066591411e-02 -7.034932247361669333e-01 6.527557742505365468e-01 -7.002006641323355041e-02 -7.543255858593613805e-01
-6.332812788306887986e-02 -5.773087736864374736e-02 -7.940518696055568482e-01 -4.486137474357734800e-01 -7.745557478812016561e-02 8.903630380613707374e-01
-8.130331377283926686e-02 -1.421122117858050760e-01 -8.148773460749247910e-01 -4.846572309881774232e-01 -1.423446529694123441e-01 8.630442446490734776e-01
-5.185351929654496289e-02 6.435684592328697051e-02 -7.765174118330938624e-01 3.574461854296558938e-01 1.499471726729578258e-03 -9.339325329521017682e-01
1.089606553890074686e-01 3.320020721753654674e-02 -6.699060656175167550e-01 7.253577341773786991e-01 -3.689507249214813572e-02 -6.873826525995969661e-01
6.869517597278101961e-02 -2.662064329825042722e-02 -7.047822398801404375e-01 6.285460420624924271e-01 -2.892940492718319018e-02 -7.772341748393044591e-01
6.382707643485488469e-02 -1.415300364473749163e-02 -7.091831092753385635e-01 6.285460420624924271e-01 -2.892940492718319018e-02 -7.772341748393044591e-01
-1.458489057731207628e-02 -1.632734704431093309e-01 -7.780490088481724076e-01 -5.420873555085035100e-01 -1.258825147130825661e-01 8.308398711468460984e-01
-6.307259667761412093e-03 -7.676707626368628468e-02 -7.640730301410157965e-01 -5.149435546906878658e-01 -3.248013256449638897e-02 8.566085316357240353e-01
2.143320971683581114e-02 -9.178628486229174765e-02 -7.475120383561398851e-01 -5.400264471491605933e-01 -4.274727665029807999e-02 8.405617804292778716e-01
4.903977967445309963e-03 -2.964561077464585026e-02 -7.472705312014683576e-01 8.748239822553198486e-02 9.852094767136365672e-01 -1.473401404721460251e-01
3.029900449103690996e-02 -5.395302246105801447e-02 -7.406087111382856358e-01 -5.411424650431551076e-01 9.091650853964542908e-03 8.408817838505999731e-01
3.401356131326101206e-02 6.337498762659611595e-02 -7.459465858261011828e-01 -4.901991082293787327e-01 9.882116270922394752e-02 8.659903071581799283e-01
5.021479128244719925e-02 -8.526826072656364108e-02 -7.271140131382658467e-01 -6.111060941163561910e-01 -3.998831401078203202e-02 7.905379664990330735e-01
5.503282060560560351e-02 1.788847882482156315e-01 -7.557737393644997637e-01 -4.430745596039542544e-01 1.956083361128751474e-01 8.748841714620937404e-01
-1.075383314222958381e-01 5.815009684917390315e-02 -7.977096363010586222e-01 3.589690802104315570e-01 6.765502179697507890e-02 -9.308941924185194505e-01
-1.722120543308053656e-02 1.044466962446954084e-01 -7.737659056876142749e-01 6.569108295879280690e-02 5.635170601709570404e-01 8.234884361762360161e-01
6.644996651502732554e-02 -1.555801998774865432e-03 -7.079480736268289887e-01 6.262914734283903107e-01 -6.490533015818676643e-02 -7.768824160887878305e-01
9.617862155630611809e-02 -8.656911115466046913e-02 -6.851535905931362969e-01 -8.716446060725751011e-01 3.976832514703993460e-01 -2.865025518289783246e-01
-8.059647709521523817e-02 -6.574533079247518730e-02 -7.962718064621060465e-01 4.745681537208202849e-01 1.031622709613634753e-01 -8.741525114784639561e-01
6.388998284261587779e-02 -1.324375247557567081e-01 -7.121892072514567351e-01 5.988718255445838468e-01 8.970206296223846854e-02 -7.958053006038701138e-01
8.457002599794631592e-02 8.358787671557516008e-02 -7.096543983295279245e-01 -7.474702386712782642e-01 1.035215004619188806e-01 6.561795038271273084e-01
9.441226360357077296e-02 1.213323676116997429e-01 -7.044366432752257046e-01 -7.933636414051026264e-01 1.065623188644751196e-01 5.993484835174455183e-01
3.427355707889641334e-02 1.235247412481527418e-01 -7.476447460136993461e-01 -7.668563533294959766e-01 1.892301263991090499e-01 -6.132889144776421109e-01
8.593600584059932213e-02 3.830697705966592398e-02 -6.942771599331578614e-01 6.991546089120993512e-01 -7.443879938854007505e-02 -7.110848739655217798e-01
-2.680441614627852506e-02 -1.433305843393151424e-01 -7.713602719585130885e-01 1.674067749676676209e-02 2.186828099600447162e-01 -9.756523860191845809e-01
3.236767239539344032e-02 -1.197037716458080880e-01 -7.321499400211420872e-01 1.137322283404896966e-01 9.847692725877684738e-01 -1.315084027872904793e-01
-4.940046303298268465e-02 1.643624897283694208e-01 -7.758381168927825922e-01 2.307727070699067129e-01 7.128394149787580479e-03 -9.729815741669891604e-01
5.125714852457264464e-03 2.431310059900887444e-02 -7.500338440206308910e-01 4.589369650601867745e-01 -6.150234733099947670e-02 -8.863375899588835649e-01
1.861334391065874033e-02 -1.703031864775413629e-01 -7.489201275558534654e-01 5.552830474074559319e-01 1.339900089294371599e-01 -8.207968169827282168e-01
-1.906808359221620619e-02 -8.231959965828623826e-02 -7.637686282227155177e-01 5.040184442578760082e-01 6.098017582715370422e-02 -8.615374780031102020e-01
-1.140108473899782288e-01 -1.071931306728823724e-01 -8.231502337610755449e-01 6.921847317902667385e-01 3.802757070675478746e-01 6.134090671735403788e-01
-1.031625495494730982e-01 -1.955576883192305850e-03 -8.071775849382831769e-01 -3.851488499629704410e-01 -1.076660999680251335e-01 9.165524394653457030e-01
5.352052832527806614e-02 1.619607833121825546e-01 -7.526298692033724924e-01 -4.919380276154766141e-01 2.022506755400057255e-01 8.468126364370136550e-01
-1.591988324477157509e-03 -1.281262700245728268e-02 -7.522647232664849692e-01 4.957198759622121753e-01 -1.506332068930703663e-02 -8.683518301620720692e-01
1.564038434408578093e-02 -1.817544497404317561e-01 -7.606227556910916121e-01 -5.754553015677358330e-01 -1.067717845544733091e-01 8.108335106053764507e-01
9.689003219264567812e-02 -8.031772703057210583e-02 -6.817367050784723936e-01 5.594828335155315191e-01 8.599906217321205693e-02 -8.243683159284811435e-01
7.687866526318283544e-02 1.177694288658593519e-01 -7.236350753868171504e-01 -7.054134270474945456e-01 1.479666694915870717e-01 6.931794584814788829e-01
-1.128166102858442488e-02 9.357228683934307178e-02 -7.619816459068201597e-01 3.612136022363992560e-01 -4.763322280264018632e-02 -9.312657030326190188e-01
1.261132990934859914e-02 -1.097163183718374846e-01 -7.432130559496294975e-01 4.607909130669605169e-01 -4.351022851704692274e-01 -7.735358659263013026e-01
-3.506047296023965393e-02 -9.592876359395165198e-02 -7.741027428928916043e-01 5.000295960419793850e-01 8.920796666412945941e-02 -8.614013824958410837e-01
4.569111943613372168e-02 -4.242411724038575027e-02 -7.217656446862228403e-01 5.743423701951287930e-01 -1.161873944393821204e-02 -8.185327401468895925e-01
-2.857182957486239031e-02 2.980170527408638678e-02 -7.739852950797101450e-01 -3.962247714845202329e-01 2.689292748933464535e-03 9.181496055472386786e-01
5.611588395241170341e-02 -1.147056784861375939e-01 -7.122743672669261672e-01 5.939758719211595261e-01 -3.898616052941007021e-02 -8.035376424677771467e-01
-7.559183187676023208e-02 -1.010104051234522321e-01 -8.054250260816948614e-01 -4.777326584704596479e-01 -1.192432203039785477e-01 8.703749545122974052e-01
-3.364026631636636219e-03 -1.454070284580860073e-01 -7.683820685477134038e-01 -5.457902736458232207e-01 -9.672511276241477218e-02 8.323203888856234300e-01
3.836040502935186142e-02 -2.456635772388789801e-02 -7.274343716392593917e-01 5.727112272907911583e-01 -3.920292032109395225e-02 -8.188192603825178439e-01
5.903128302596658689e-02 -1.420970865404529715e-01 -7.168364869880412549e-01 5.857422199574935373e-01 9.232011742135123877e-02 -8.052223591521630031e-01
-8.175027139218153660e-02 7.395848130855737709e-03 -7.973790579444782756e-01 -3.875088508238844209e-01 -7.632960820806178326e-02 9.187005395905436522e-01
-5.553739661725927423e-02 -1.711072789143238404e-01 -7.970466857071596412e-01 5.250331405272933294e-01 1.621010919552716423e-01 -8.355019074394479661e-01
4.428444150701572185e-02 1.428214606230618078e-01 -7.532879956586331360e-01 -4.144883929894846442e-01 1.846795910026531318e-01 8.911188589318976838e-01
4.644932526061211486e-02 -1.021939807020924018e-01 -7.304588551643970140e-01 -5.946745015513369426e-01 -2.582768273620751620e-02 8.035515963577862797e-01
4.652624209794171267e-02 9.837912180837878398e-03 -7.321604428172518997e-01 -5.846880793039681556e-01 6.506256650978708977e-02 8.086449853668766785e-01
1.937288522234337576e-02 1.175906457808630345e-01 -7.524872999576375232e-01 3.825006788604437546e-01 -1.421800237595769179e-01 -9.129502021003258472e-01
-8.647688001153831794e-02 -8.695843589266008533e-02 -8.092535299963640183e-01 -4.603897840460307589e-01 -1.264811778943768505e-01 8.786602064418871372e-01
4.863692775205293722e-02 -1.123766065749377263e-01 -7.214743752635739416e-01 5.834628738389443514e-01 6.447452239401285645e-02 -8.095765009025793768e-01
7.580117678185505081e-02 1.989029359977910472e-01 -7.462082800275591232e-01 -6.933318883483641226e-01 2.188184430329142283e-01 6.865925877752705464e-01
9.005352127898913484e-02 1.171682623835516718e-01 -7.017168034769616369e-01 7.355885103468864372e-01 -1.248948660894171475e-01 -6.658159023860538150e-01
-2.943854432486801148e-02 -1.596387503168266997e-01 -7.786027750254518320e-01 5.237435413718890542e-01 1.379536153333053572e-01 -8.406316094983000697e-01
6.521176029340734759e-02 1.781691694557194783e-01 -7.491973946975242216e-01 -5.688679183265007433e-01 2.190850915923203412e-01 7.927111795230709079e-01
-2.017484579132216779e-02 -1.146720321654073199e-01 -7.627328608375297803e-01 5.193237764648003241e-01 9.943140215373190427e-02 -8.487733569475899298e-01
-1.492674234559764393e-04 -6.117346509787264380e-02 -7.515209478915506613e-01 5.217482921715340671e-01 2.821155506399017354e-02 -8.526328798357233341e-01
8.817188369662960767e-02 1.315665242484820863e-01 -7.141851385568154242e-01 -7.575662752154719293e-01 1.290513302739989543e-01 6.398742789100579920e-01
7.816537582113458615e-02 9.683802695614224243e-02 -7.102638897281948749e-01 6.713890835217954933e-01 -1.380313609895833238e-01 -7.281373784603609733e-01
-1.377330728573864654e-02 9.807126961729074888e-02 -7.660117217541655421e-01 5.611217297174230234e-01 8.270469230692995000e-01 3.370150561223405478e-02
-3.538242201910826029e-02 -1.975677979864052247e-01 -7.862519823401195040e-01 4.827508080553118419e-01 1.954992982938215107e-01 -8.536578247099753103e-01
6.746491561985611118e-02 1.663735384507949444e-01 -7.442488826636227683e-01 -6.566201550828429934e-01 1.984594298932399470e-01 7.276426503617234864e-01
1.626555984762780016e-02 -8.974612516041111099e-02 -7.507282877630679918e-01 -5.400264471491605933e-01 -4.274727665029807999e-02 8.405617804292778716e-01
1.054201771133319622e-02 -1.842807134535701108e-02 -7.510957622628814390e-01 -1.149698093299633267e-01 -9.797377018754405142e-01 1.639999343489577932e-01
6.013612672798451797e-02 -2.560625580786986960e-02 -7.115907233599298998e-01 6.182429829418034650e-01 -3.992033130341512970e-02 -7.849725990070266501e-01
-7.779631495144957720e-02 1.284957480840712984e-01 -7.887323699375083930e-01 -2.184019688363069145e-01 -7.348249235881236519e-02 9.730883327453689891e-01
-5.010084795984044714e-02 -2.654596047987522467e-01 -8.159807929781053293e-01 9.404558813379696458e-01 -1.641018269053919620e-01 2.976799047015692423e-01
-2.203258442923158519e-02 -3.581036266876698460e-02 -7.713887213257032416e-01 -4.610451448180981071e-01 -2.035852411328989420e-02 8.871431141228496298e-01
-7.408261527252085754e-02 -5.753925067863500942e-02 -7.994323867534999239e-01 -4.454131178518656586e-01 -8.404154463542175268e-02 8.913720733906647098e-01
-4.041190623180079648e-03 1.915658031780290704e-01 -7.723177801288187982e-01 5.339226731823061289e-01 1.594916131167970763e-01 8.303547461219585868e-01
-3.319815648243273909e-02 -1.551208311949798246e-01 -7.760583247668065843e-01 4.805964988528952375e-01 1.299145766307873984e-01 -8.672653619678249992e-01
7.581148801474635324e-02 2.345516323582176876e-01 -7.511165370886564441e-01 6.933756449627885843e-01 -2.768570726430322204e-01 -6.652671465659247829e-01
-3.743763769611909570e-02 -1.929470046385234339e-01 -8.008803585266547342e-01 -2.019983864482772021e-02 -2.754321790591797714e-01 9.611082567835085300e-01
6.497502980602803957e-02 2.314592327084386558e-01 -7.652125657817215876e-01 -3.708376401913289211e-01 2.480289462758620833e-01 8.949642933808096279e-01
-1.131380930683407587e-01 -5.596871268282458539e-02 -8.089269692153884250e-01 4.335480549552893637e-01 4.249511632945800893e-02 -9.001279070957810546e-01
-8.882673840530821985e-02 -2.727543290821449196e-02 -7.966670905732889940e-01 4.292621921498682158e-01 7.295590152907698023e-02 -9.002285303314759846e-01
-9.573316681002046191e-02 4.008956566943656236e-03 -8.034780235568157458e-01 -3.751180490375993770e-01 -7.966016760648363115e-02 9.235478910068130043e-01
-2.088750177364002720e-03 1.183299653664019457e-01 -7.677960672274370957e-01 -3.241082219162143563e-01 6.803810346383902530e-02 9.435701759611491157e-01
3.980705577794969863e-02 -1.305479552218461459e-01 -7.374567455797667037e-01 -5.869730307504396061e-01 -8.016709266554011837e-02 8.056276425403974262e-01
6.978504039847549523e-02 1.968788669148277826e-01 -7.430410290092016590e-01 6.597212286491110911e-01 -2.286406361779118601e-01 -7.158850186712016894e-01
-1.220937667107848540e-01 -4.375154402017544103e-02 -8.206433426709340839e-01 -4.079835925275555053e-01 -1.301289289669247118e-01 9.036679977039303591e-01
5.255782603402205794e-02 -1.204218160925125680e-01 -7.272692523680189813e-01 -5.941586356187269491e-01 -6.009025913719777401e-02 8.021001661117626025e-01
5.574794211805287475e-02 4.456284410166273802e-02 -7.289644169354141390e-01 -5.999093043210117493e-01 1.034658390763297242e-01 7.933496371293746741e-01
3.529038977603937699e-02 -2.084470146878006011e-02 -7.263951946159474815e-01 3.988644104896504894e-01 -6.820376094248241650e-01 -6.129697230490380733e-01
-6.603800009406210481e-02 -1.446288235738649869e-02 -7.847586403997524052e-01 4.251862801796203462e-01 3.790523196610342399e-02 -9.043117938723419513e-01
-3.162001001199647721e-02 -7.904062049794163478e-03 -7.679894687597337288e-01 4.523398609334139397e-01 4.294738554679672186e-03 -8.918353017410146633e-01
2.164026389862626354e-02 -1.079399971310228551e-01 -7.438332745913532884e-01 -1.130398786190155297e-01 -9.874038374304214827e-01 1.107052287359392290e-01
-1.162073520125173204e-01 -5.724609744817991258e-02 -8.137889109671082588e-01 4.624139725234279741e-01 1.216834130080667598e-01 -8.782747093101397340e-01
3.320906065528111961e-02 1.006397955006922001e-01 -7.515684998028897557e-01 -4.373610599109673536e-01 1.193268810214368897e-01 8.913340556375318746e-01
-8.457366159540902206e-02 4.026721159430699665e-02 -7.899509112968887692e-01 3.817544160006548504e-01 5.438671106892972729e-02 -9.226622629776854989e-01
1.066566471188366283e-01 -5.492935174752262145e-03 -6.766635987187362700e-01 -7.590682353010792527e-01 2.594741773177570640e-02 6.504937706619164928e-01
9.882660760514655474e-02 -6.276206358209172713e-03 -6.853850966574749348e-01 -7.265293782529473887e-01 3.870702108835797489e-02 6.860443346124585062e-01
