4.346482718075050933e-02 -8.672500609085972978e-02 -8.175908151022527326e-01 9.027257441273742744e-01 -9.341095251077756456e-02 -4.199531221942607861e-01
-9.892561595005190667e-02 -3.026276702524173523e-02 -1.030595651127070633e+00 8.094951181318713607e-01 3.741583989534284088e-02 -5.859331946950896430e-01
-1.092117185560173391e-02 -4.627631375188307611e-02 -9.179478382532368919e-01 8.065096240749837220e-01 -9.567669576374768226e-02 -5.834279699861499857e-01
1.003263554246662387e-01 1.686912758573312354e-01 -8.365478288478027658e-01 -7.136548604902651638e-01 -1.464829766020178947e-01 -6.850105675567589314e-01
-2.295215045923362784e-02 9.189246872431780511e-02 -9.497296546462421496e-01 6.827334550399484225e-01 -3.257779383961423303e-02 -7.299408994690995689e-01
3.982042074986384683e-02 -3.807948643504672354e-02 -8.591250477321454859e-01 -8.806635421613022707e-01 7.271228057482118090e-02 4.681288815716422858e-01
-5.467617414885041910e-02 -1.179560862366387658e-01 -9.744683036851469193e-01 8.212025416624024743e-01 1.419664175952406460e-02 -5.704602010043838822e-01
-4.877272834504704085e-02 -1.420015746094824005e-01 -9.664039775938526589e-01 8.324291596471755650e-01 3.403743437043485476e-02 -5.530851175276508824e-01
6.204400120499820731e-02 -1.539074966210479505e-02 -7.987308371426365960e-01 9.227550156586865615e-01 -1.633714471772493848e-01 -3.490457725341309381e-01
-6.264268705587053288e-02 -1.984834573306522576e-01 -9.996818769704225449e-01 6.908671904663135077e-01 -3.815765720012789242e-01 6.140861868149579683e-01
6.735066707966747002e-02 2.044886139120248025e-01 -9.023919574462314630e-01 -5.060487537740552266e-01 1.001485596535985623e-01 8.566708380720304827e-01
8.664669283151253676e-02 1.440996203956042554e-01 -8.473864056062784256e-01 8.700385660715542757e-01 -3.198648865779618600e-01 -3.751257760839976085e-01
-3.587596628799502585e-02 6.301762701629284869e-02 -9.686207021773792780e-01 -6.958453189280532358e-01 3.418616525601744782e-02 7.173775841431095923e-01
3.276415980994734200e-03 1.821328207425693124e-01 -9.352019857875486508e-01 5.857950663623946452e-01 -6.666726711758083623e-02 -8.077125823710749053e-01
3.427465384099679345e-03 -1.067070027541964505e-01 -9.004846841272002855e-01 -8.456673284498857912e-01 7.876830469383193367e-02 5.278658198520651545e-01
-3.400755112478245912e-02 -1.136341406414691779e-01 -9.423530404797756388e-01 9.797568190335076421e-02 9.926184814721441541e-01 7.147947954138911264e-02
-3.850622815614375416e-02 -1.372052816282278431e-01 -9.605934611591445682e-01 -7.036066533780339638e-01 3.914743989295157989e-01 -5.930307515676888075e-01
-4.638109031484326933e-02 3.261292052583709966e-02 -9.689774413045146861e-01 7.335791756719423073e-01 -3.913356300337540727e-02 -6.784763498215206079e-01
9.308376022826230639e-03 6.651755696865324641e-02 -9.149858486352907549e-01 7.111762080833040622e-01 -1.410609153646908143e-01 -6.887163561385256649e-01
-6.992188249119078713e-02 -1.372560459919157372e-01 -9.977246108869037844e-01 8.363123498456943583e-01 5.582984426055574018e-02 -5.454032287999539541e-01
5.558531407708946354e-02 1.234780708758707601e-01 -8.932487562413872206e-01 -6.997095001932952529e-01 2.217421233273811076e-01 6.791443484867656366e-01
3.804660130417136105e-02 1.249294759618346934e-01 -9.097884902553994291e-01 -6.309676811257407536e-01 1.593244533747814329e-01 7.592730101430134049e-01
8.273848421016700982e-02 2.146949057142872597e-01 -8.950177885183437931e-01 -4.556635829351374789e-01 9.424407627530648202e-02 8.851490006059585802e-01
-3.535244362051735700e-02 -1.500659615016179116e-01 -9.462964217092965091e-01 8.449895440395008839e-01 1.564762870428283714e-02 -5.345538533953800853e-01
2.826523167843058085e-02 -1.111005545676045994e-02 -8.692446459545739579e-01 8.325769015358295277e-01 -1.736804271506970643e-01 -5.259760567304839762e-01
3.732555076000413502e-02 1.189888891945127813e-01 -9.091018569810935812e-01 -6.511709249674724198e-01 1.776367069680584165e-01 7.378493252789153356e-01
6.418516624853343178e-02 6.193702957900611844e-02 -8.568903097741185082e-01 -8.883278473688852594e-01 -3.686343570968908523e-01 2.738290458602315458e-01
-7.869411614824317613e-02 -9.899355902181264377e-02 -1.018714324390457060e+00 -8.042787260902338753e-01 -4.093703451829793644e-02 5.928405265866345530e-01
7.162990677495340019e-02 1.193048823160184763e-01 -8.587131771123847068e-01 8.210833445614572623e-01 -3.016540760930106480e-01 -4.845894753915354625e-01
-8.870218047556400684e-03 -1.454992545015858785e-01 -9.174924872053116243e-01 -8.501624875632022293e-01 2.582310401255118529e-02 5.258867863328617887e-01
-2.250043315934239022e-02 -1.589717160090548254e-01 -9.392997049777410679e-01 -8.500112940699032782e-01 3.095139623766883421e-03 5.267553702282664618e-01
-7.332433219410117164e-02 -2.802970585348807386e-01 -1.036458018266969594e+00 6.916375744359978261e-01 -3.615471993857126143e-01 6.252368257265701335e-01
2.821565451176383243e-02 5.918612926259489426e-02 -9.015306763797278355e-01 -6.622982431607186138e-01 4.309091767034945453e-01 -6.129260302344339273e-01
-2.400689199132794230e-02 8.372646676064771087e-02 -9.585018403252060226e-01 -6.744678274823062702e-01 4.838874078440453391e-02 7.367168244696178370e-01
4.282004376025512482e-02 8.081920573590632706e-02 -8.930005155694309416e-01 -7.565808256954558164e-01 2.199048267931937306e-01 6.158143562333033838e-01
8.398299963303949844e-02 8.520143205129626640e-02 -8.040505906400345904e-01 -4.892750654661937593e-01 -1.397906812563945167e-01 -8.608533416017648543e-01
4.962745606261156905e-02 1.276845921903238812e-01 -8.950848979523754467e-01 3.574339154023866705e-01 -3.763574630236608543e-01 8.547491188334230827e-01
-2.492990720033049293e-02 -4.193774347604229541e-02 -9.315129888542537095e-01 8.219010207853962857e-01 -8.517631081362042611e-02 -5.632261607099811052e-01
-4.752437302058335616e-02 -8.865282959178050204e-02 -9.786296500525878406e-01 -4.386558955704304430e-01 4.005434418348708392e-01 8.044538249547820152e-01
2.545112189347868009e-02 2.604428388742188391e-02 -8.853720996789880004e-01 7.996171435522502202e-01 -1.829040819003881491e-01 -5.719777273299339049e-01
2.549887789520230083e-02 1.579499589769278456e-01 -9.242490372676939181e-01 -5.756751122677640220e-01 6.639679717214631849e-02 8.149783005950392845e-01
1.361533847190014683e-02 4.185351924230289178e-02 -9.155460309679605002e-01 -7.420085348813674209e-01 1.341049036944609585e-01 6.568403222765070160e-01
3.570282624576427699e-02 1.071465060963442545e-01 -8.978105056856343635e-01 6.820902763435688909e-01 -2.094418109077245682e-01 -7.006332726621302687e-01
-1.909313478094831892e-03 -1.158355698313140864e-01 -9.139639625861315508e-01 -8.484560847843477527e-01 -4.748072036897872661e-02 5.271317229930851944e-01
3.933402301488731628e-02 1.025425729824082643e-01 -8.888606934234526413e-01 1.861097691202526494e-01 1.069329613872665313e-01 -9.766926310805030820e-01
1.676961037795819329e-02 4.730625083031287509e-02 -9.131845168023072778e-01 -7.281755227706816491e-01 1.571339197853992009e-01 6.671351731774605165e-01
-1.847569679537074475e-02 1.417987116716362406e-01 -9.582610191896832053e-01 -5.997940488471970033e-01 -5.170536188607264272e-01 6.106575588580830383e-01
-6.536735657286542323e-02 -3.966635958182563454e-02 -9.987379173784665110e-01 -7.648961599156547386e-01 -2.433460218169317818e-03 6.441490066883994725e-01
-5.656021305219742501e-03 1.746489727677158210e-01 -9.410653002887220397e-01 6.107482849952761139e-01 -1.103874229888358177e-01 -7.840925641920172273e-01
-6.183465463296543285e-02 -1.926558225725970575e-01 -9.922560249327549986e-01 8.824799649658843226e-01 2.586940118767926955e-01 -3.928186854681198215e-01
8.535512181889381988e-02 1.202569960590191139e-01 -8.296525946737195456e-01 8.958876270818533216e-01 -2.850448729804819226e-01 -3.407855337733505241e-01
5.845532147224936220e-02 -3.165690973669051285e-03 -8.139357693778116465e-01 9.188114970389519298e-01 -2.016070030714048888e-01 -3.393229276391542815e-01
5.894585169687955456e-02 2.090585388080686835e-01 -9.069005120056442548e-01 -4.603682313189113584e-01 -6.034264160901046253e-02 8.856748032974314233e-01
4.543381105428399153e-02 -7.754658162444272307e-02 -8.154525711980579183e-01 8.988017528620541041e-01 -1.172131152806338422e-01 -4.223937673052333697e-01
-4.277800710930445595e-03 -6.003838003549225727e-02 -9.063789066972083308e-01 8.237464485941380365e-01 -8.388541252790894520e-02 -5.607183125184763695e-01
-9.011316319759381244e-02 -2.723772767052138818e-02 -1.027921409141329123e+00 -7.587452481219596478e-01 -4.426576152736124564e-02 6.498816744675516288e-01
1.637565415548561040e-02 -1.260519911904032786e-01 -8.821499904497150935e-01 -8.451539501293123813e-01 1.392163544668986730e-01 5.160751953250291013e-01
3.348624918034125847e-02 -4.289260441044968203e-02 -8.500075446467928453e-01 8.614256191948949093e-01 -1.602893025281962036e-01 -4.819265940884734922e-01
-3.993427253160572281e-03 9.984873047268685853e-02 -9.333488411857548961e-01 6.693543790641387492e-01 -7.798467280896353993e-02 -7.388390257928585392e-01
2.117927507795345360e-02 3.011280060327546637e-02 -9.038805934672168307e-01 -7.773146064863404314e-01 1.620380879016655451e-01 6.078862234103992179e-01
-5.070896475794998970e-02 -5.741724734376234263e-02 -9.694977225019910660e-01 7.912184493666741814e-01 -2.381678570722580573e-02 -6.110696573226098716e-01
-5.615317968215743222e-02 -1.163401326864346580e-01 -9.765551674804096027e-01 8.213020993047225327e-01 1.393841257078308644e-02 -5.703232261907825729e-01
-5.960112278300850469e-02 -1.841467271765805658e-01 -9.941952800489738395e-01 6.908671904663135077e-01 -3.815765720012789242e-01 6.140861868149579683e-01
1.090414785752235605e-01 2.323115764181601650e-01 -8.836079238258178759e-01 -4.698816449854083532e-01 1.527608351642964213e-01 8.694109310019706438e-01
8.281687020424050721e-03 -1.153956172317383844e-01 -8.784014450902617455e-01 8.597224955339881625e-01 -5.066328058868295459e-02 -5.082425234794941682e-01
1.174712927669118168e-01 2.213093350278674543e-01 -8.654886218879223048e-01 -9.399937239218756346e-01 3.395356813891426961e-01 3.357558712956849184e-02
-4.732109618505021126e-02 -5.901172659240655483e-02 -9.762497366633134943e-01 -7.882600979771664518e-01 2.046523456984922218e-02 6.150017822015063640e-01
-2.118161995339728348e-02 2.250955532686025468e-02 -9.404172352035455873e-01 7.327771859078050509e-01 -9.143806718011351919e-02 -6.742971716412603511e-01
5.247290792727757336e-02 -3.737413777160378259e-02 -8.259880654511674303e-01 -9.063853368421378454e-01 1.547068737615760470e-01 3.931048261831494028e-01
1.361574552516017084e-02 1.216857702282617276e-01 -9.292828066219058769e-01 -6.249278185825852816e-01 9.395346664489070965e-02 7.750083661916296052e-01
-3.934043084487724024e-02 -1.813216591422713020e-01 -9.543661160840063440e-01 8.455004860576107450e-01 4.600465597060592049e-02 -5.319891913426156860e-01
1.994035221681936254e-02 -1.325846376848037744e-01 -8.562386103164075779e-01 8.708606928051322305e-01 -4.978934860166180087e-02 -4.890017121573168035e-01
-5.578916280727859965e-03 1.546284904905284863e-01 -9.465938022227161630e-01 -5.968044204398427199e-01 3.750911592021531626e-02 8.015095445260443929e-01
5.482064858117902117e-02 5.656399375640197569e-02 -8.659244717447699413e-01 -8.336944020751867468e-01 2.479312171974318579e-01 4.934407314840321690e-01
-5.093680871970318602e-02 -1.919617524540463693e-01 -9.741536572835403085e-01 8.383960399837091515e-01 1.259399226687828721e-01 -5.303123758859636938e-01
9.756059510824627301e-02 1.937305582630324818e-01 -8.833085170055141599e-01 -7.483401250413204142e-01 3.853128957124228871e-01 5.399268743550820204e-01
6.938793987691429252e-04 3.858658711951902520e-02 -9.187494953381041274e-01 7.308793058270304233e-01 -1.257827004971193985e-01 -6.708160348183772603e-01
2.654386964224066461e-02 5.014816758324617402e-02 -8.913840626213126450e-01 7.667960769156157985e-01 -1.889451634228268562e-01 -6.134521184623478174e-01
6.381849126998921651e-02 1.166109656585248427e-01 -8.813486530162931709e-01 -7.432765898222156720e-01 2.491673588262434402e-01 6.208506570164935567e-01
-5.560242993833235114e-02 -2.376277488967124263e-01 -1.007936698136623122e+00 -9.965398072690653253e-01 8.089327503386344043e-02 1.909687362974001740e-02
-1.272889621984985183e-02 -2.757853809445446214e-03 -9.231230202941822505e-01 9.409560010850787082e-01 -3.267041472566841187e-01 -8.869162410994904655e-02
-8.343056403710293056e-02 -7.734197164003799030e-02 -1.023227673808634774e+00 -7.919556537167418142e-01 -4.988133300988225466e-02 6.085376694693973576e-01
-5.463087874569982211e-02 -2.048757400351177149e-01 -1.002004790133749657e+00 -8.085191870465155972e-01 -1.011933180467845389e-01 5.797039214636416915e-01
1.189215823533663723e-02 1.075218473737369895e-01 -9.289555430472511421e-01 -6.249278185825852816e-01 9.395346664489070965e-02 7.750083661916296052e-01
-6.558903192864688758e-02 7.764276981631076935e-02 -9.968898996151533964e-01 -6.847906493001222339e-01 -2.409255076721933050e-02 7.283414828421115317e-01
-6.214801061183213710e-02 -3.056993748671807398e-01 -1.041731512386998126e+00 -8.939597500542447728e-01 -1.268154415363999810e-01 4.298299769337643461e-01
5.957256087986117707e-03 3.140867653648214686e-02 -9.112960061914062715e-01 7.534895750328418629e-01 -1.435751438918770051e-01 -6.415914887007573286e-01
1.019878150493738235e-02 4.590570060934444363e-02 -9.095064417064463447e-01 7.485654597562868551e-01 -1.376099738931147454e-01 -6.486241188431056681e-01
2.146263185204824384e-02 -1.475867323435729739e-01 -8.627724126046165676e-01 -9.053586335518506445e-01 9.827890573505160265e-02 4.131186286536187580e-01
8.676415150220552486e-02 1.463295084926206913e-01 -8.697710611041937767e-01 -8.498060632467632214e-01 2.968894172540578191e-01 4.355299401781515534e-01
-2.343233211364049995e-02 -1.674830224354178776e-01 -9.279533119746387060e-01 8.453938280161185093e-01 3.267713795420607720e-02 -5.331430204057590050e-01
1.072317638689926633e-01 1.973345779878916961e-01 -8.496481617999078750e-01 6.409737530359126412e-01 -4.652332809072580733e-01 -6.105003212573483218e-01
2.459909267319220633e-02 -1.241789630121749033e-01 -8.484966330292510461e-01 8.839966136611603353e-01 -5.499437096136585573e-02 -4.642473545408360991e-01
5.386252973386152637e-02 -3.640244940572485988e-02 -8.229571555517014581e-01 -9.249952215496823893e-01 1.554619030536817659e-01 3.467209783228897280e-01
-3.885926143160332163e-02 -1.669965399630610192e-01 -9.652202141924578482e-01 -8.427999277680086054e-01 -2.906495774438695723e-02 5.374416340269486669e-01
-9.470162126918741860e-03 -2.906327231507402353e-02 -9.178317467899060889e-01 3.227003662024190977e-01 9.464622110630915852e-01 -8.588171073545930109e-03
1.620312425265080930e-02 -1.623878780354423221e-02 -8.860823796188879165e-01 8.115750481864925092e-01 -1.324733409092683500e-01 -5.690314183851619134e-01
1.299990669450311852e-02 2.151203787537122117e-02 -9.163962252233222028e-01 -7.913553275354329175e-01 1.489716839321439668e-01 5.929284804828562905e-01
9.516321932400580164e-02 1.797824036304430939e-01 -8.731067100562920347e-01 -8.079522549369899664e-01 3.606442455514182188e-01 4.659923624834224620e-01
5.154716825147973719e-02 -4.953428692414024032e-02 -8.229425218633567019e-01 -9.148549062185138414e-01 1.624382322816628477e-01 3.696678526205965376e-01
-6.223915848434105093e-03 -1.516114705785490679e-01 -9.128088734761899969e-01 -8.614110494037083843e-01 9.492939688243214741e-03 5.078197397318041650e-01
-4.723602002454709708e-02 4.585126117982709498e-02 -9.768396697312539123e-01 -5.801263763976058918e-01 -7.392517065006827259e-01 -3.419945932958758927e-01
7.375078528842150816e-02 5.784007501923559003e-02 -8.185889427416717101e-01 -1.391545092730027966e-01 -9.773036933184433561e-01 -1.597295012673607684e-01
-2.710148885409293523e-02 -8.515273421418272093e-02 -9.483215128810780215e-01 -8.055280303728672431e-01 3.437439190474580325e-02 5.915597970322087340e-01
6.886610263587149283e-02 1.806258743416396528e-01 -8.894514746554478268e-01 6.114272304754178045e-01 -2.448818688902773821e-01 -7.524557210374345217e-01
9.077789341110983901e-02 1.215690261107780779e-01 -8.290946673463864824e-01 -9.360217108133107589e-01 2.670013709142820546e-01 2.292893909800816643e-01
1.394251836596380190e-02 -1.121479866845466189e-01 -8.692018973398440984e-01 8.636317906508003128e-01 -7.727365389163520781e-02 -4.981655473750948304e-01
-4.945102127687958996e-03 1.140799152641387565e-01 -9.358052329315615925e-01 6.528478592472962694e-01 -1.030812551607032251e-01 -7.504424878101694230e-01
3.443465076584982434e-03 1.698957516947197446e-02 -9.110587232667413105e-01 7.662000217204708585e-01 -1.193981604244015587e-01 -6.314123898078172203e-01
8.699004267060887752e-02 1.506993649406375702e-01 -8.554891952084294759e-01 -2.284703768717740446e-01 -9.691045862677478695e-01 -9.293862365500524247e-02
-6.599897285315931006e-02 -1.169996376276550981e-01 -1.002464540710446661e+00 -8.115355620467817888e-01 -3.539519612777959623e-02 5.832299817606172443e-01
5.542065390773794065e-02 1.270602398826691654e-02 -8.429055724739984434e-01 -8.740894172842877952e-01 1.979398199192203833e-01 4.436073920506293788e-01
-1.908495090023963267e-02 -6.616082677422989444e-02 -9.437435150541062523e-01 -8.493652990835427463e-01 7.843681955565283415e-02 5.219446848572344422e-01
8.996304070973878964e-02 1.655616645539123299e-01 -8.579768720794088699e-01 8.354573832074190243e-01 -3.542423764043207690e-01 -4.201467596014891170e-01
2.735057438776170718e-02 8.075571637227588195e-02 -8.994097055139496089e-01 7.094755786880097004e-01 -1.820885850870251343e-01 -6.807996404422661518e-01
2.518919341067881248e-02 1.881899770198541474e-02 -8.957798735434603365e-01 -7.733701952714473471e-01 1.627838077725648203e-01 6.126989252421356502e-01
-7.584212667733918056e-02 -9.235400719049410845e-02 -1.003423501289280262e+00 8.083988330777273079e-01 2.363788924907838165e-02 -5.881603326223363570e-01
1.853222876170545694e-02 1.902187127163947403e-02 -9.043090203235675251e-01 -7.773146064863404314e-01 1.620380879016655451e-01 6.078862234103992179e-01
-5.964551754305006531e-02 -7.687117877931099065e-07 -9.918460664726259646e-01 -7.463833226972488299e-01 -7.229280992218047562e-03 6.654770267227488878e-01
3.275051333601097792e-02 1.202967716865793596e-01 -9.132175035789676931e-01 -6.309676811257407536e-01 1.593244533747814329e-01 7.592730101430134049e-01
-4.424348648369404169e-02 1.324107285739984374e-01 -9.706294117888631945e-01 6.626627482656790580e-01 -1.303388943537784825e-02 -7.488045137331662549e-01
-7.602817858416024976e-02 -9.984600636539385510e-02 -1.015156436380182381e+00 -8.042787260902338753e-01 -4.093703451829793644e-02 5.928405265866345530e-01
-1.987680099713046503e-02 -2.367856150028321144e-02 -9.272164312014561371e-01 8.065761129361783688e-01 -8.805818607356731553e-02 -5.845346267811670771e-01
6.320729248169165704e-02 1.119034577056382262e-01 -8.678205601496121746e-01 7.775266543324031998e-01 -2.636932215215528341e-01 -5.708924475995847958e-01
-8.032641098269459323e-02 9.002506326494356254e-03 -1.014663353690464120e+00 -7.328779504862792393e-01 -3.431386462875653937e-02 6.794942739900537987e-01
3.602290507886956455e-02 -5.223275525658267748e-02 -8.555777174285860154e-01 -8.761544486400822951e-01 1.283432940994566618e-01 4.646303702814676972e-01
1.702040474560957348e-02 1.300391190009334876e-02 -8.929012301267493790e-01 7.800717340619509610e-01 -1.642802079351331768e-01 -6.037384392254399046e-01
4.713084254206393112e-03 -2.980047747985823184e-02 -8.933966868835919728e-01 8.176585185977577330e-01 -2.975120891287194244e-02 -5.749342680104769787e-01
8.200055966082281378e-02 1.617656401212519968e-01 -8.683378374234941299e-01 7.695811386863432579e-01 -3.250699377616584895e-01 -5.496129606749305951e-01
-6.700480814238121696e-02 -2.516798549635115845e-03 -9.908806481337737448e-01 7.593684507545536144e-01 -9.050962036787499332e-03 -6.505979066096337915e-01
3.838246949370687638e-02 -8.596549351094213975e-02 -8.283623685565573158e-01 8.988835571465054741e-01 -1.007422797563781308e-01 -4.264496966362302799e-01
5.096485522685654385e-02 -6.659355711347250684e-02 -8.175349431968846892e-01 -9.259544845959942760e-01 1.419286720527825063e-01 3.499493456286213444e-01
-6.548317863301923725e-02 -1.302075981781378178e-02 -9.984394393638746923e-01 -7.603989867728154772e-01 -2.305291657904934982e-02 6.490469504990183935e-01
1.710663427577032922e-02 8.268276971364690864e-02 -9.071235879038908045e-01 9.174015561060540058e-01 3.491035812271908179e-01 -1.910525436327433213e-01
-3.284966616168631670e-02 -1.603971157374029510e-01 -9.556328648336163134e-01 -8.370763944757034780e-01 -1.663824338735214736e-02 5.468329531662661225e-01
-9.896038845812202278e-02 -7.314400672100759837e-02 -1.034710815071949064e+00 9.233167594074522810e-01 8.110446643711412273e-02 -3.753774464739084715e-01
-3.054660489288251596e-02 -1.807975727273732069e-01 -9.402373380905647560e-01 8.483226199972685455e-01 5.520553893981282323e-02 -5.265938481138331406e-01
-3.254885661283553420e-03 -3.117939297053535716e-02 -9.109310261900918082e-01 3.461035529916501874e-01 9.381763900240797094e-01 -6.114884131517545236e-03
1.358168496436195846e-02 -7.999078847524677960e-02 -8.883548875846265513e-01 -8.491137426311564651e-01 9.531051138676703560e-02 5.195399488914236308e-01
1.203334618975718390e-01 2.373230787953705123e-01 -8.775394778435755549e-01 -6.475515546393331157e-01 3.112810810955384810e-01 6.955437244603501767e-01
3.341468974348330012e-02 -3.998319750801659217e-02 -8.511031263014324777e-01 8.614256191948949093e-01 -1.602893025281962036e-01 -4.819265940884734922e-01
6.779752891938420345e-02 1.444834908194846390e-01 -8.803647046071159110e-01 4.375772832045328742e-01 8.884574481134719370e-01 -1.384539061024916140e-01
-7.670489390886882364e-02 4.070446381914978942e-03 -1.002126097280675365e+00 7.550569431110728535e-01 4.779940402782679489e-03 -6.556417961276629347e-01
-2.047539320589228384e-02 -3.168408819631194501e-02 -9.327384661193801607e-01 7.895901516772719786e-01 -7.895360292022730875e-02 -6.085340754306021172e-01
-8.741766711815270041e-02 -8.005380627833143248e-02 -1.028638807611609307e+00 -7.919556537167418142e-01 -4.988133300988225466e-02 6.085376694693973576e-01
4.456763471437340945e-02 -6.063429337001507297e-02 -8.223017226851691008e-01 9.042104540392155165e-01 -1.233724811249247710e-01 -4.088797937135997818e-01
-2.668106553769119052e-02 7.123927126935529486e-02 -9.601298801860270737e-01 -6.744678274823062702e-01 4.838874078440453391e-02 7.367168244696178370e-01
-1.767816885488100731e-02 -7.771958839245632356e-02 -9.232412765930527732e-01 8.186571826485158354e-01 -5.126643780988386634e-02 -5.719896586934766214e-01
-3.415058314451727833e-02 9.652896757582846501e-03 -9.485902306602960188e-01 7.875106473620183678e-01 5.410117040878265060e-03 -6.162773003486814449e-01
-2.452456997146824740e-03 -6.479921400301466572e-02 -9.029850726087725876e-01 8.237464485941380365e-01 -8.388541252790894520e-02 -5.607183125184763695e-01
2.006793406785602543e-02 -3.859979874047090448e-02 -8.742101612041489611e-01 8.342942793731455975e-01 -1.496732376633694572e-01 -5.306137741640413186e-01
-4.624626923651466853e-02 -1.434898458281854972e-01 -9.626946115948964433e-01 8.280011034766341371e-01 8.419471705072340342e-03 -5.606632546704696241e-01
-8.472997904623964793e-02 -4.303728139859922669e-02 -1.013077805043697488e+00 7.873189203659443081e-01 2.131829660805160259e-02 -6.161772860658975004e-01
1.343984739117205784e-02 1.843624140124933974e-01 -9.335754456115522570e-01 -5.181998550140791693e-01 -6.255059527271163156e-02 8.529691279843700791e-01
-4.842458144188060282e-02 -3.831867143731883946e-02 -9.673466140493554022e-01 7.797710912320053867e-01 -4.034333902836289426e-02 -6.247635234829976847e-01
8.203844217753125667e-02 8.226584911154498359e-02 -8.059167343704493058e-01 9.157940912764487296e-01 -2.494155947689484787e-01 -3.148222410650101111e-01
1.916143692705008297e-02 3.651766011105640058e-02 -8.965483989574227763e-01 7.745215774319517132e-01 -1.654020908282136382e-01 -6.105394945799795803e-01
5.282038981531913396e-02 -1.968126678063469165e-02 -8.331183496461053162e-01 -8.984277525436374923e-01 1.883285702782049043e-01 3.966861770674090515e-01
-1.223389296760099033e-02 -4.308528758400538561e-02 -9.372161410997148501e-01 -8.280170713452867925e-01 9.600753168420796124e-02 5.524221967125145794e-01
-8.902060135709591315e-02 -5.749406079406440412e-02 -1.019425076919865170e+00 7.981719168130601005e-01 4.232181903962216329e-02 -6.009413073205592815e-01
-7.360598212885123559e-02 3.205038612012324484e-02 -1.006475030315622687e+00 -7.171645324995937765e-01 -2.507704792044833722e-02 6.964525647825806631e-01
-6.192478175788233147e-02 6.054463341583657572e-03 -9.943366555650050564e-01 -7.463833226972488299e-01 -7.229280992218047562e-03 6.654770267227488878e-01
4.851533650962969180e-02 2.121334040211312819e-02 -8.607582259360790911e-01 -8.433682034635919811e-01 1.972850647664709800e-01 4.998086399880283803e-01
-4.355293078524902911e-02 -1.961675804441535276e-01 -9.634851483407461670e-01 8.016065932235703073e-01 2.874038542768591609e-01 -5.242383944803238327e-01
9.271826448898279338e-02 1.372650827414703956e-01 -8.399536235769582415e-01 -9.118014634965406762e-01 2.993663056154740598e-01 2.810656617726704498e-01
-7.413322774176506202e-02 1.161973014642122106e-03 -1.007991383680820086e+00 -7.399466357441977227e-01 -1.103933646027721420e-02 6.725749841477606239e-01
1.284389035961799701e-02 3.151341713619854046e-02 -9.143156918746758732e-01 -7.554511973706784511e-01 1.431864437843991811e-01 6.393677585768501315e-01
-3.658733305105622835e-02 -1.850066971854230635e-01 -9.624639093997637840e-01 -8.529796181327786719e-01 -2.112563463653174822e-02 5.215165180617610252e-01
-5.045297856153600075e-02 -8.221044597457240199e-02 -9.684656957956087053e-01 8.103233214710773291e-01 -8.423275602569025092e-03 -5.859224889933857261e-01
4.285658429629869703e-02 -8.237920861169908959e-02 -8.198649298592386447e-01 9.027257441273742744e-01 -9.341095251077756456e-02 -4.199531221942607861e-01
8.222907300593869373e-02 1.321571136365218002e-01 -8.616466208933197812e-01 -8.329895011648900116e-01 3.001600564866930831e-01 4.647928909083839932e-01
1.190256498524322297e-02 2.545207595642964143e-02 -9.140380064741342458e-01 -7.643567301044748019e-01 1.537772475105905479e-01 6.261879488556624240e-01
2.932249194352790859e-03 8.670904219054538509e-02 -9.250594091021387966e-01 6.881153191792148682e-01 -1.123421107357181620e-01 -7.168518380155908254e-01
-3.974125263610606661e-03 -3.742511258313677147e-02 -9.220148179152033441e-01 -8.086975231837549849e-01 9.489778326209671877e-02 5.805193594777011690e-01
1.104094610723905523e-01 2.135373199247062592e-01 -8.740480593281830801e-01 -7.829066011711016682e-01 3.983356245925167016e-01 4.778974618296304433e-01
9.209558869805352377e-02 2.044138545162085263e-01 -8.787249979043185721e-01 6.178862260285370445e-01 -2.992045284199096322e-01 -7.271129636151670850e-01
-2.926485129747325928e-02 7.065451440167983162e-03 -9.586159036942868417e-01 2.967005792781829410e-01 7.026705260007788389e-01 6.467015526081405508e-01
-1.320731500065407474e-02 -2.807153213042631185e-02 -9.237518598633265299e-01 7.907970140843784135e-01 -8.172655914954310430e-02 -6.065977679194078931e-01
-7.101901705099271378e-02 2.304536604992918694e-02 -1.003915583096754105e+00 -7.328779504862792393e-01 -3.431386462875653937e-02 6.794942739900537987e-01
-6.640386671359659780e-04 -1.372358968418102565e-01 -9.044535782343423591e-01 -8.596422752128272116e-01 3.904826297679430541e-02 5.094019943280643226e-01
8.054595126348446099e-02 7.628182414594661398e-02 -8.055174779992542167e-01 9.157940912764487296e-01 -2.494155947689484787e-01 -3.148222410650101111e-01
5.136689213778485724e-02 2.113255242308040294e-01 -9.069067386167031231e-01 -6.824918799266045666e-02 -7.015712926533846927e-01 7.093234591235518804e-01
2.934000778265938650e-02 1.200434187234831196e-01 -9.159985236203764813e-01 -6.309676811257407536e-01 1.593244533747814329e-01 7.592730101430134049e-01
-2.785199901274881470e-02 -1.462871134932091921e-01 -9.345209018117640598e-01 8.407555334143805847e-01 -7.390536584437888343e-03 -5.413644918186772959e-01
-7.486963394310364173e-02 -2.890996922121666368e-01 -1.031185584506643993e+00 8.853781217643028612e-01 1.340190656692519522e-01 -4.451342174426227150e-01
9.102825266886452327e-02 1.145138845281875178e-01 -8.183470631228491055e-01 -9.767157851795027490e-01 2.055149767269891792e-01 6.156191454213091191e-02
4.184783571895445142e-02 1.021845412929482805e-01 -9.004438415701698784e-01 -7.169583386960290960e-01 1.874285971092013448e-01 6.714471398106530708e-01
-1.057088819567594297e-02 1.305041406268751814e-01 -9.528490630913707404e-01 -5.811387550095888921e-01 8.829677062792129494e-02 8.090002643526051918e-01
-1.282551530726089642e-03 -4.991931719642562354e-02 -9.162253431347242572e-01 -8.008592928549108647e-01 9.768945589519617556e-02 5.908309091904659915e-01
-5.044635640671460419e-02 -1.239594857171376074e-01 -9.684763204874147213e-01 8.265023023457351847e-01 1.027217420471906659e-02 -5.628396100616116504e-01
2.808500451472348627e-02 -1.054610482883937828e-01 -8.572385643481887918e-01 -8.899729745471202103e-01 8.736893343474914919e-02 4.475653852189930837e-01
-6.259517659089067210e-02 -1.176613954983039487e-02 -9.951495568923625079e-01 -7.478647865906721259e-01 1.270764087273284050e-03 6.638498671660053585e-01
6.336193897717984358e-02 4.537501738394437989e-02 -8.296222492798536186e-01 9.019259206647355365e-01 -2.333468537140515053e-01 -3.634265806113009534e-01
-6.403963442584308108e-02 1.052253783327416897e-01 -9.942518331229087680e-01 -6.523865655977323375e-01 -3.703035182137701803e-02 7.569811900381547831e-01
-7.040780634477880606e-02 2.803081905811959096e-02 -9.948688353884238555e-01 7.389509045563320555e-01 -4.917969786863389883e-03 -6.737413259022739798e-01
5.413715740916302116e-02 1.845668387588640935e-01 -9.046334274814761267e-01 -6.518731709262705065e-01 -6.992544229358540475e-01 -2.934358891328309737e-01
5.778166227968604962e-02 -3.114084859831724519e-02 -8.024747797416496020e-01 9.127911209441599283e-01 -1.651227907254567695e-01 -3.735596786439095984e-01
-6.181107144261571706e-02 -1.030887585307592724e-01 -9.959781667504394864e-01 -8.005163789975282551e-01 -2.182126227364559329e-02 5.989134824575836902e-01
-5.318905352843921255e-03 -1.816452755324974092e-02 -9.317432803798955110e-01 -7.653036565984545625e-01 8.300703693386513038e-02 6.382947164253318650e-01
3.133741027384077862e-03 -1.713595671582990865e-01 -8.874913394365117059e-01 -1.740415042209699781e-01 8.899862398486737547e-01 -4.214665439729718410e-01
-6.785739044921166446e-03 -1.827869894184747934e-01 -9.107760314543464908e-01 -4.166968686466245853e-01 9.003005588756897160e-01 -1.257880095566299428e-01
6.164745640932748488e-02 1.108804643950476315e-01 -8.694961978335641328e-01 7.833279603608016561e-01 -2.748793820986946690e-01 -5.575290412292673858e-01
-4.585041100990079783e-03 -1.248438915320255610e-01 -9.117656604037636114e-01 -8.475266439677818786e-01 4.862427540457522207e-02 5.285208298696359996e-01
-3.054268335251783192e-02 -1.789511320164426100e-01 -9.525749983793061482e-01 -8.482265885305985131e-01 -2.374828165194632634e-02 5.291008161289516565e-01
4.996140195710763177e-02 1.611932952223183446e-01 -9.074171068361730486e-01 -5.521992295908181303e-01 1.218935506179996686e-01 8.247532801735583119e-01
5.360426940669874712e-02 -1.117139988442008604e-02 -8.214395062088385435e-01 8.998681117295806997e-01 -1.731067658799639586e-01 -4.003391426013927501e-01
-1.600496909537884758e-03 1.119783713988408563e-01 -9.348061463997320297e-01 6.074786114239658641e-01 7.668032774672506324e-01 2.073221414318621725e-01
2.875265344510435049e-03 1.205762224599932209e-01 -9.289396692326975513e-01 -3.853314547187458583e-01 -7.889671141093123063e-01 -4.785922720420365817e-01
6.814968640987156823e-02 7.592400651139658008e-02 -8.522745811095812085e-01 -8.800857099298046160e-01 2.650197437507516574e-01 3.939716723314483637e-01
-5.803309203236561853e-02 -1.766886217381420099e-01 -9.780636786305539898e-01 8.147528802262098413e-01 9.711283424612368598e-02 -5.716177407916765985e-01
5.921505227034851160e-02 1.672215249050780506e-01 -9.018350595225368416e-01 -5.999374417763597700e-01 1.726912757316016178e-01 7.811867825565336210e-01
4.415337638446596019e-02 1.510370934187457159e-01 -9.098047442004182361e-01 -5.521992295908181303e-01 1.218935506179996686e-01 8.247532801735583119e-01
2.570689526213005421e-02 -2.828777906587522095e-02 -8.809874379558468860e-01 -8.395525837296410332e-01 1.510055472761857864e-01 5.218704665381094232e-01
5.112152811634158162e-02 1.569258844443821577e-01 -8.971928261608357325e-01 5.891704286117239731e-01 -1.720862438781183279e-01 -7.894710448885369214e-01
4.406056352347584998e-02 1.057189750013527441e-01 -9.014560796884630856e-01 -2.217581834147001330e-01 -1.078064001718220533e-01 9.691238765867886684e-01
2.537660261192785024e-02 1.582480526746102567e-01 -9.168563821494604138e-01 5.918813631388627483e-01 -7.851099875941115747e-02 -8.021922930586414813e-01
-3.054964220824867710e-02 -1.594198768972135694e-01 -9.390133167063171582e-01 8.417000600358801599e-01 1.365111858214398434e-02 -5.397727817304724951e-01
6.432161318762213975e-02 2.976061411904793244e-02 -8.176607882081986522e-01 8.978833122913491005e-01 -2.118039972953163208e-01 -3.859334453483416194e-01
1.334957998553202262e-02 5.050332191708778451e-02 -9.018408984248789118e-01 6.984572757650528985e-01 -1.158490731864745271e-01 -7.062127343603312735e-01
-5.990025991914262743e-02 3.348430658250697162e-02 -9.921637709227624224e-01 -7.299638774055278168e-01 -3.204443983374330278e-03 6.834782141530517663e-01
-3.545959208005035335e-02 -3.681940460439547813e-02 -9.622887783733469202e-01 -7.749111609303368509e-01 3.930795249659235768e-02 6.308467147700171918e-01
-7.513150280111276225e-02 6.613936534660742883e-02 -9.959834537353420281e-01 7.036257102120244689e-01 -7.012141317809233998e-02 -7.071024305873453430e-01
3.353114906913630400e-02 3.346010167912172317e-02 -8.765107117565542616e-01 7.898027143227578373e-01 -2.096337537434340981e-01 -5.764246366523914089e-01
-6.647058112028644827e-02 6.680832633888407479e-02 -9.970783356989008084e-01 -5.779147318650018628e-01 -8.042244801213684902e-01 -1.386994890650913859e-01
7.584795416795551970e-02 5.597115387453260871e-02 -8.184004038112328017e-01 -9.345413808198854699e-01 2.343563288727273652e-01 2.677863302197482365e-01
2.427072880360226642e-02 9.358652019882333917e-02 -9.156074200682315922e-01 -6.789600649556486456e-01 1.553370398037502986e-01 7.175539242875266233e-01
2.806637633690229477e-02 -3.138136864052955277e-02 -8.610345845776824492e-01 -1.017872906595195387e-01 -9.841260589522852209e-01 -1.453796669112906725e-01
5.282039802434172066e-02 1.141490378414920792e-01 -8.973309877839285020e-01 -6.455446104675318653e-01 1.856975339917207868e-01 7.408026604742428134e-01
6.163311900698428825e-02 1.642413370032674846e-01 -8.994293953733946134e-01 -5.826034645710908011e-01 1.659342385303542722e-01 7.956375000922927265e-01
-1.867422468290550613e-02 1.898303393802353413e-03 -9.501351523242186348e-01 -8.026597978336742489e-01 5.045095853620695271e-03 5.964157911637091303e-01
6.140194714693891082e-02 -2.561743228077282761e-02 -7.964749483187172352e-01 8.907529889871110829e-01 -1.381375255964842619e-01 -4.329863007447330436e-01
7.271826373200101362e-03 -9.579460752652697864e-02 -8.830445775152924170e-01 8.545772967648990193e-01 -8.471136371932763698e-02 -5.123686453236669935e-01
-7.044959535645031745e-02 -4.009687309695161156e-02 -1.004938371168338174e+00 -7.776264973681993320e-01 -2.662501555177482562e-02 6.281625101339092243e-01
-2.967360516315595623e-02 -8.411878929637278679e-02 -9.519380168143378729e-01 -8.122018743074496117e-01 3.960228775794913392e-02 5.820307330165670479e-01
-4.851066680911176460e-02 2.532709999978013937e-02 -9.708320807241161976e-01 7.350566007912725519e-01 -5.652530079103728483e-02 -6.756453833215043669e-01
1.412591924800034142e-02 4.927210854235268556e-02 -9.059336017624992632e-01 7.472418653575898517e-01 -1.732086483888493345e-01 -6.415826983173857911e-01
-7.218686379391389685e-02 -1.277920783443146392e-03 -9.969300620845824579e-01 7.572549236169435760e-01 3.474765563194626670e-03 -6.531101795732308091e-01
-7.327632650817988980e-02 -2.759058063852509735e-01 -1.024044116449078556e+00 8.853781217643028612e-01 1.340190656692519522e-01 -4.451342174426227150e-01
5.900664774485140512e-02 7.114125018433234415e-02 -8.662785841368535467e-01 -8.369991935612440814e-01 2.597938037549198942e-01 4.816010065483430913e-01
-2.459245584346383962e-02 -1.155247429676085208e-02 -9.511776963941335206e-01 -7.578613392763529077e-01 5.262748953185290152e-02 6.502895799379131425e-01
6.910536074653600425e-02 1.414700094655877705e-01 -8.883465003919277514e-01 -8.773925245652430815e-01 4.754160583850085553e-01 -6.451301625789696015e-02
5.744694071561320947e-03 -1.233220309563011624e-01 -9.002760163311788189e-01 -8.436476734555058421e-01 1.445961402213726266e-01 5.170595316848859424e-01
4.353461417124036836e-02 7.839987033401930872e-02 -8.912586695192212805e-01 -7.565808256954558164e-01 2.199048267931937306e-01 6.158143562333033838e-01
-8.212173996335310477e-02 -4.599194556686933555e-02 -1.016724181058711540e+00 1.458357838768540027e-01 7.527668575839153720e-01 6.419298889008522302e-01
-2.652341062340977246e-02 1.079423297066361975e-01 -9.618441594929182381e-01 -6.303744428050522819e-01 1.400893189512359728e-02 7.761648096154434295e-01
1.113859825293255085e-01 2.066740888141801458e-01 -8.650277355657479683e-01 -8.589321062180664823e-01 3.879597304107330613e-01 3.342497337133232271e-01
9.295730772159491173e-02 1.897282194680545431e-01 -8.814860405315132486e-01 -6.923000810661958937e-01 3.082101568322452301e-01 6.524776601395496645e-01
8.729571661100082869e-02 1.701042593796415481e-01 -8.658553296052241555e-01 7.695811386863432579e-01 -3.250699377616584895e-01 -5.496129606749305951e-01
-8.391446043882920536e-02 -5.223034760440830454e-02 -1.022123286769502037e+00 -7.798247428962546968e-01 -4.705662798835373584e-02 6.242267569795096893e-01
-6.246422342558648200e-02 -2.427509580827402202e-01 -1.001656732839747432e+00 -2.916099556138695426e-01 4.329367294873832650e-01 -8.529533527970010187e-01
8.366143177666596209e-02 1.450732531796603830e-01 -8.684482608828314465e-01 -7.800038293350630703e-01 2.949830375907687707e-01 5.518867943304687218e-01
3.418079597179556756e-02 -1.007799934058756924e-01 -8.335688849101885456e-01 8.905411732498448307e-01 -7.802958839614718145e-02 -4.481604646569328221e-01
-2.763779865257165805e-02 -1.386696396588614766e-01 -9.342922334729732992e-01 8.407555334143805847e-01 -7.390536584437888343e-03 -5.413644918186772959e-01
5.602276462631970710e-02 -2.871352571334976136e-02 -8.079082767259513354e-01 9.169882739539039207e-01 -1.680786387487157862e-01 -3.617762798020604520e-01
-6.127408645556932376e-02 -9.612756540064973376e-02 -9.832875929558796413e-01 8.164904783795593479e-01 1.500413578889671536e-02 -5.771639062040753165e-01
-5.868009991317486157e-02 -1.803237434745555423e-01 -9.849475035345643947e-01 8.524094659541153751e-01 7.680166185196245221e-02 -5.172036417975000022e-01
-3.280760688670690539e-02 -4.891619717009555030e-02 -9.581160184638184418e-01 -7.845540705961951966e-01 4.358126831847661947e-02 6.185269463513235477e-01
4.345065886195330351e-02 4.937887439826329182e-03 -8.494003542373393945e-01 8.625581066591608836e-01 -2.088787385751120218e-01 -4.608288024937610139e-01
1.459451597943662617e-02 -1.987927936603037585e-02 -8.875291156521085689e-01 8.115750481864925092e-01 -1.324733409092683500e-01 -5.690314183851619134e-01
2.747756053066445492e-02 -8.125753001392840152e-03 -8.714768991414009180e-01 8.325769015358295277e-01 -1.736804271506970643e-01 -5.259760567304839762e-01
-9.222302191330983279e-02 -4.171900246465698459e-02 -1.022606411650601288e+00 7.873189203659443081e-01 2.131829660805160259e-02 -6.161772860658975004e-01
1.780220907135787387e-02 1.225159645435982547e-01 -9.260076963026987462e-01 -6.249278185825852816e-01 9.395346664489070965e-02 7.750083661916296052e-01
-7.890797855457679089e-02 -8.167528751275554555e-02 -1.007138783994493858e+00 8.038969365392892863e-01 2.545583202223035413e-02 -5.942236246050824899e-01
-1.516040724931420197e-02 -1.883123299238248505e-01 -9.236708010298554372e-01 -2.088827702705328138e-01 9.662759064897010752e-01 -1.505950225658683750e-01
-9.546239939981894518e-02 3.718055890515781919e-02 -1.025030820925514785e+00 3.253234648327895107e-01 -3.091095667514051626e-01 8.936531312382602898e-01
8.480189317069446175e-02 2.006248034461054486e-01 -8.914762050206582744e-01 -5.426796749080252669e-01 2.089405730739483658e-01 8.135370964899204527e-01
-6.700863880448360010e-02 -5.011489681239178484e-02 -9.991091945062551272e-01 -4.857371829413941189e-01 -7.653714394598600812e-01 -4.222155240718896141e-01
-7.468146235938807886e-02 -3.575688117123128618e-01 -1.060254492555916084e+00 7.894804565846393896e-01 4.988122277162742590e-01 -3.576408396025785308e-01
8.633115363075606619e-02 2.077082043154832858e-01 -8.920541760720754887e-01 -4.812478833622130248e-01 1.427859522707908835e-01 8.648772436557187193e-01
2.012681927736745605e-02 5.386871659160889780e-02 -9.138219364180899529e-01 -2.561174803528830646e-01 -1.463439149063595068e-01 9.555036864542023611e-01
6.347811859948539193e-02 -2.251974840343223469e-02 -7.972479644677875621e-01 -7.413122126746641838e-01 2.720496359593297941e-01 -6.135513009633258852e-01
-1.193674462168283629e-02 9.675648208453901944e-02 -9.402187358568926401e-01 6.693543790641387492e-01 -7.798467280896353993e-02 -7.388390257928585392e-01
-5.742543133258826843e-02 6.524646498991525101e-02 -9.815507847002076236e-01 7.004677568951559463e-01 -2.374862826883700553e-02 -7.132888084118642613e-01
7.720929813466655134e-02 1.343112775634855982e-01 -8.587303527819123428e-01 8.295218948323189734e-01 -3.210843659500028369e-01 -4.569444779579722726e-01
-7.027623369786607788e-02 -5.093564000721901436e-02 -9.960271279516927923e-01 -1.739220431441057813e-01 -7.412048837763205444e-01 -6.483567252483086740e-01
2.908690466605630756e-02 -3.040972181607254007e-02 -8.691783724321801019e-01 -3.979805774477325198e-01 -9.171211383253591309e-01 2.236688648799898746e-02
1.545112573272977401e-02 -2.957106065552570287e-02 -8.778251990243061131e-01 7.990095806252718313e-01 -2.319015067356407223e-01 -5.548021099840617643e-01
-3.041635427104894679e-02 2.671321558215343506e-02 -9.512201505592348116e-01 7.491396920732102949e-01 -6.768883765559376153e-02 -6.589445674844663925e-01
5.684744332374686709e-02 8.594523158460305734e-02 -8.767012628340301594e-01 -7.912339505119343475e-01 2.418668333490640310e-01 5.616487073633961158e-01
1.047290940605696274e-01 1.964774672954161527e-01 -8.544379709601293005e-01 8.623098902090099438e-01 -3.878626235748332540e-01 -3.255522054623079531e-01
1.578699033337783997e-02 -1.276261151871407318e-01 -8.767889745852829320e-01 -8.739226905061183714e-01 7.073910606630523512e-02 4.808899145246107176e-01
-3.690015681170268069e-02 -1.700292230374066960e-01 -9.623120129520308375e-01 -8.427999277680086054e-01 -2.906495774438695723e-02 5.374416340269486669e-01
-4.892412549361368525e-03 1.248826500481711593e-01 -9.332671620727274187e-01 2.053710834117195572e-01 -5.390255536041681506e-01 -8.168685149153543934e-01
-3.082030579110024704e-02 7.148628718550405214e-02 -9.639856791638253819e-01 -6.934077537768396082e-01 1.482287093469388840e-02 7.203929271580969962e-01
-2.176811694734503977e-02 -7.628047965098451455e-02 -9.393766092650790434e-01 -6.978673884671620087e-01 4.066500328059590719e-01 -5.895904162492262568e-01
-5.773204188772699391e-03 -1.421830958647504750e-01 -8.996603871258882501e-01 8.521876588253700646e-01 -2.510853906939712610e-02 -5.226334809515512658e-01
5.695807668094918230e-02 1.576718101201118605e-01 -8.886513709918831827e-01 9.396385246722480655e-01 2.587064675210710152e-01 -2.239428646207114737e-01
9.445024584671067591e-02 1.551396597839075076e-01 -8.374698233300457151e-01 8.933628844003180802e-01 -3.240177658805907246e-01 -3.113121330267974995e-01
-7.493546345082379573e-03 1.253534265791955149e-01 -9.351156033888979868e-01 5.973731531518864379e-01 -1.461460209692945211e-01 -7.885344992124411201e-01
3.314795900921234384e-02 1.174794827805801245e-01 -9.122960453150834592e-01 -6.309676811257407536e-01 1.593244533747814329e-01 7.592730101430134049e-01
1.794359640304208996e-04 6.586928481895222565e-02 -9.241824906713103083e-01 6.905556586065279001e-01 -1.232600738432266252e-01 -7.126989803294703218e-01
-7.772419554134808728e-02 -6.355315539194369978e-02 -1.004644487092329008e+00 7.896043425315568687e-01 1.337000740696035923e-02 -6.134706391973830941e-01
-6.719799134187687262e-02 -2.096553285777860431e-01 -1.000582035522349367e+00 9.867105492450006787e-01 -1.554069878233525770e-01 -4.744428463262808510e-02
-2.909151404362196602e-02 9.668355334504538656e-02 -9.556857969612162496e-01 6.827334550399484225e-01 -3.257779383961423303e-02 -7.299408994690995689e-01
-4.650238000345246342e-02 -1.886291346754479237e-01 -9.786569671691381922e-01 -8.494930592172179606e-01 -2.976342213224440758e-02 5.267596046060765147e-01
1.187461433444852131e-02 -6.622529553239263345e-02 -8.806473236268277383e-01 8.438816172989135334e-01 -9.361859287521971662e-02 -5.282985662038408581e-01
-2.776586820455989590e-02 -9.717063986934433573e-02 -9.465543207327647979e-01 -6.824394028403002466e-01 4.069500797312558538e-01 -6.071804460435951123e-01
6.092418798046109196e-02 1.031273934219981286e-01 -8.789742239519540146e-01 -7.903096587094007308e-01 2.782859405094861294e-01 5.458640661056388677e-01
8.133876600163107706e-02 1.327711240049653796e-01 -8.502166283898119348e-01 8.739829014948949926e-01 -3.137967516766428377e-01 -3.710599500508669490e-01
3.909219482349908514e-02 1.934492681638891667e-02 -8.757750845330531941e-01 -8.346445737048013847e-01 2.039824196992401917e-01 5.116244795147838476e-01
9.259803650849855738e-02 1.900503377864169452e-01 -8.774359922519539001e-01 -6.121245968229895862e-01 4.264369516878080968e-01 -6.659241730103379053e-01
-3.723481998330071402e-02 -4.815512957681503808e-02 -9.525546788967489409e-01 7.884474659573387223e-01 -4.769848969361717428e-02 -6.132499062424707770e-01
-1.901490284250275178e-02 -3.102777647298923802e-02 -9.377280659522402306e-01 3.069841664048150176e-01 -3.761698149638831867e-01 8.742179315747181656e-01
-1.884665401355135189e-02 -1.723961447977391259e-01 -9.208312466869418289e-01 8.520178950984156341e-01 2.333321100031541390e-02 -5.229924164808511522e-01
-9.543807085012946667e-02 -3.776672684940598351e-02 -1.026540951925786649e+00 7.894594352620593058e-01 3.139952533409436086e-02 -6.129990782085270595e-01
4.917146346855159889e-03 -1.239250477657705407e-01 -8.962169679042787385e-01 -8.614781059704774702e-01 6.004779210422248048e-02 5.042318272351784536e-01
2.792445081033218326e-02 -3.043940494047353909e-02 -8.670147684980817893e-01 -8.589012555083960776e-02 -9.837677199719676580e-01 -1.575562105218867304e-01
-5.644517748317262607e-02 -9.660045765534745754e-02 -9.765101133958455915e-01 8.051782408393777235e-01 -4.955839048338151268e-03 -5.930121753709042265e-01
7.172722663545029465e-02 8.666452723738439501e-02 -8.373841993227083558e-01 8.678637053768381016e-01 -2.679704292302944046e-01 -4.183353175954868108e-01
1.136431909584664085e-02 1.096677101812626037e-01 -9.296492041929900196e-01 -6.422283536901718382e-01 9.562725224051707440e-02 7.605249307848757079e-01
2.829088328926700549e-02 -4.283943955180341545e-02 -8.641991713470502656e-01 3.768265729571809719e-01 9.262032574191896295e-01 -1.221719523575543268e-02
-5.262286435859912098e-02 -1.285350076713736300e-01 -9.717559215654123506e-01 8.265023023457351847e-01 1.027217420471906659e-02 -5.628396100616116504e-01
