-1.405140970344085499e-02 9.393548435211201975e-02 -7.491709506121108086e-01 -2.413287603497648801e-02 -1.115829485460791415e-01 9.934620525656947532e-01
1.876798480753442272e-02 2.386031115089229659e-01 -7.535469933982050783e-01 -1.235261297498840699e-01 1.189365250905744936e-01 9.851880014841806199e-01
4.428213937368197933e-02 1.441324383931922026e-01 -7.405332200593890413e-01 -2.953433546809815513e-01 8.535473474079253303e-03 9.553530491595015883e-01
-2.063074920448736485e-02 1.974194572120291369e-01 -7.456069677153775999e-01 1.904195584294695875e-01 3.022233576972894672e-02 9.812374851116051344e-01
-3.890047179409646810e-02 -6.054100385676478013e-02 -7.573269939786633209e-01 5.351480536472250082e-02 1.831843214231420602e-01 -9.816209400738753477e-01
-8.796181493168112042e-02 9.282399766622959070e-02 -7.390022726688670884e-01 1.531055273935001682e-01 -1.262548169604260084e-01 9.801114317646986152e-01
-6.505797454055266271e-03 -5.332014927914756688e-03 -7.466593574017262869e-01 6.033809009119806693e-02 1.347114051606435325e-01 -9.890460819414793603e-01
-9.140347632666544209e-03 -2.046291735046574037e-02 -7.590411555886578121e-01 -2.969510496887696124e-02 -7.619688015353841271e-02 9.966505085513950313e-01
-3.743984413530849435e-03 -2.466036493550052833e-01 -8.048301451489782155e-01 -3.958649554331051812e-01 3.121507094176751984e-01 -8.636277390577422608e-01
5.459605327368319966e-02 -1.449713462858726598e-01 -7.727281473966394199e-01 -1.524824735706114265e-01 -2.605161041939491051e-01 9.533522196488530831e-01
3.689215211643339515e-02 4.833354516542760597e-03 -7.408739821920947710e-01 1.495293345153259623e-01 9.425250812111872489e-02 -9.842547652067945574e-01
4.586780829531902220e-02 -5.798567415956208670e-02 -7.552281442948377554e-01 -1.470277850352272597e-01 -1.708898570411005180e-01 9.742584293646665561e-01
8.068645794234229063e-02 -1.384840062417752593e-01 -7.660614927750164505e-01 -1.969311224290203610e-01 -2.505872064711142655e-01 9.478524067447681167e-01
6.142725223561534831e-02 6.717733666849155794e-02 -7.378147068757372473e-01 -2.402299586700782918e-01 -6.148265157773773193e-02 9.687669743092726105e-01
-1.410451309850046520e-01 -1.677771649527756009e-02 -7.534614853113804633e-01 1.934332382480225543e-01 -2.235561711924071160e-01 9.553042555451509710e-01
7.081253713121612135e-03 -1.530090443752369356e-01 -7.744104023197015962e-01 1.162416859845641082e-01 2.751147573493205600e-01 -9.543582873994915783e-01
-5.886021160958448961e-02 -1.287509366158602897e-01 -7.746081666352042649e-01 7.598199028166054136e-02 2.540394154200517618e-01 -9.642047047001358617e-01
1.638200992527037367e-02 2.603217197375883862e-01 -7.468382999316773851e-01 -6.402337845749578316e-02 -1.608830920621268645e-01 -9.848947343241396535e-01
4.840715753215252271e-02 7.805828491396722690e-02 -7.405927026547864944e-01 -2.556809225522175266e-01 -5.131418774238749592e-02 9.653984255110351631e-01
-2.074856033998671162e-02 1.608721210789848255e-01 -7.449766240103047332e-01 1.940828564246184773e-01 9.507725439902635009e-03 9.809390643658862929e-01
-1.669237638665860713e-03 -8.878992185214880373e-02 -7.565064379677554074e-01 2.260482318921099021e-02 2.001557785617334717e-01 -9.795032854855213467e-01
2.023398929916455855e-02 6.591631835485244062e-02 -7.387985716530238722e-01 9.939701294763131356e-02 4.033288870948032595e-02 -9.942301000801762045e-01
-6.830616067241204736e-02 3.627145888103558424e-02 -7.422121139468318418e-01 -2.882327190763425001e-02 1.319434494539698244e-01 -9.908381023874314186e-01
-2.407505762153051149e-02 1.697687314756485266e-01 -7.380039578596668814e-01 -1.747724582457697851e-01 -1.357251802033325461e-02 -9.845152993190701141e-01
3.119329725663235343e-03 1.710101700854596909e-03 -7.418896300165926938e-01 -4.717706352003777637e-01 1.092782976632353797e-01 -8.749232660196306632e-01
-7.501428313643206114e-02 1.816600782177954509e-02 -7.445035133592183829e-01 -2.862011433311612701e-02 1.599248830153215950e-01 -9.867142042395533608e-01
3.097928497297108841e-02 1.764278086402183351e-03 -7.492596738145859137e-01 -1.608749418380109319e-01 -9.429455743557479952e-02 9.824600701945324088e-01
-4.052277296432694326e-03 -1.004584935334715962e-01 -7.699055233290542644e-01 -9.014683316941478342e-02 -2.035448011599192975e-01 9.749066941970879752e-01
-9.987824146634115274e-02 8.934231877549042578e-02 -7.378545007975801928e-01 1.665839843510049934e-01 -1.504555919064447800e-01 9.744808315312443181e-01
-4.425682302309703192e-02 -5.134207923055933431e-02 -7.558904574506208895e-01 4.906989186333926556e-02 1.884739756712270065e-01 -9.808515209791958123e-01
-1.649833163990358648e-02 -2.416918574825214217e-01 -8.142068792474065342e-01 9.276702182803231445e-01 -1.442411300551023345e-01 3.444161182583717062e-01
7.533263287247018991e-02 -1.056227393827176286e-01 -7.590695614394440405e-01 -1.948660223493866583e-01 -2.148980246539490546e-01 9.569984703924865332e-01
-1.293101298882513850e-02 8.599628046274729321e-02 -7.371652634876452170e-01 2.931789676651174736e-01 6.481319952040015542e-01 -7.028307119866745722e-01
4.210541633507722953e-02 -1.454887200031536147e-02 -7.397623193438440659e-01 2.363588697759405610e-01 -5.257146987427896434e-01 -8.171649406356208400e-01
-5.666757401912370790e-02 7.516059822779729005e-02 -7.447758570262134059e-01 8.139878231451949664e-02 -7.500359221792493591e-02 9.938554720844077206e-01
7.999717090839625691e-03 1.481433964289428917e-01 -7.396336718601673743e-01 3.684734437980322769e-02 -2.131998005791582024e-02 -9.990934549192515002e-01
2.423462866138606162e-02 1.684620266975933034e-01 -7.464207851632684854e-01 -1.204898626662120470e-01 5.209287031019090713e-02 9.913468242030751831e-01
-1.308557370982604828e-01 6.904625822514091904e-02 -7.338056266621129087e-01 8.154268097417605166e-01 -3.204342663516621670e-01 4.820798677626423889e-01
-7.331433884524533873e-02 -4.886158283782778000e-02 -7.630509555208639938e-01 -1.258109603977767763e-02 -2.001241417587838745e-01 9.796897692166371963e-01
-1.356363438511266062e-01 4.213871500193226705e-02 -7.369875788738905475e-01 4.519079357651421824e-02 1.647216362986335669e-01 -9.853043056391387333e-01
6.113563785420659397e-02 9.490501991646532742e-02 -7.365415590168408189e-01 -3.602776217146782534e-01 -5.210926208944877125e-02 9.313885655815774545e-01
6.681836134901243673e-02 -9.740956377826959223e-02 -7.589589520792121569e-01 -1.948660223493866583e-01 -2.148980246539490546e-01 9.569984703924865332e-01
1.217210527363380562e-01 -2.670166182455220930e-03 -7.199601737559326864e-01 3.411178793003730170e-01 1.760344861203679834e-01 -9.233907364263267414e-01
9.863332752396018754e-02 -6.406467090119394303e-02 -7.445227707244741477e-01 -2.685752700939316728e-01 -1.748533789595654031e-01 9.472558366990377898e-01
1.117327816812589969e-01 6.544827027796316921e-02 -7.132004902759909726e-01 3.988575392368446382e-01 1.281127178427506619e-01 -9.080197106455744072e-01
6.089216517459953432e-02 -8.044639408827487792e-02 -7.565696993664368097e-01 -1.789580417680966540e-01 -1.914524206571567022e-01 9.650492163154392733e-01
2.866149527707246777e-02 9.104760552955197539e-02 -7.408285498186319984e-01 5.558743315235039478e-02 -9.876538557796935569e-01 1.464578384349481399e-01
-8.832159464060584247e-03 2.387441746735359249e-01 -7.496777623513229960e-01 3.629917547220829488e-01 -9.089342302038040666e-03 9.317480184364760332e-01
5.332282246196615172e-02 -1.035109423231018178e-01 -7.556114175448338521e-01 1.595334436879562445e-01 2.188432300058880398e-01 -9.626301060249734531e-01
2.121795653805897200e-02 8.243318721513848146e-02 -7.381656393282608475e-01 1.006833958863333350e-01 1.060415961920123211e-02 -9.948620032906906330e-01
-4.208803017906304067e-02 1.386841162965153085e-01 -7.422243423002953255e-01 1.299447366329979370e-01 -2.962501178663938875e-02 9.910785660572134503e-01
5.432774323814757583e-02 -4.397136646386283487e-02 -7.512351956607258296e-01 -1.945448193209561305e-01 -1.421387748680179586e-01 9.705405102077890866e-01
-5.699525198932870601e-02 -1.016904822472054076e-01 -7.653441926645582205e-01 2.810115797190680387e-01 7.811637600336629461e-01 -5.575084502264191499e-01
-8.702406966090607543e-02 -1.292877548775479279e-01 -7.833467188568148387e-01 -3.836412048574443928e-02 -2.721511202688429720e-01 9.614894497579102861e-01
2.834666023390508202e-02 -1.838282021963157931e-01 -7.809696004942618952e-01 1.207842869302587496e-01 3.114642911701412942e-01 -9.425503442027011181e-01
-4.278608331396439174e-02 -6.006545137607659061e-03 -7.580190672157429699e-01 5.148427001642000289e-02 -4.391647164814727750e-02 9.977077294773525340e-01
1.503802621851548600e-03 8.313095207103048112e-02 -7.396013124162583718e-01 2.486295220230846578e-02 1.876988497659155125e-02 -9.995146447280055524e-01
-1.044410888326511577e-01 -1.113281458399371093e-01 -7.729989177474911877e-01 5.383668156121765302e-02 2.699065767038887342e-01 -9.613802845754972903e-01
1.175494505673231604e-03 -1.185898143332977800e-01 -7.762048130875339735e-01 -2.606292096257949997e-01 8.946771205487861200e-01 3.628019639643184080e-01
2.603984082449889437e-02 -4.306503753261688161e-02 -7.485597658658830200e-01 1.106622234982839459e-01 1.436520624025900139e-01 -9.834215562300320235e-01
-5.049807886436954996e-02 9.928444742614454810e-02 -7.414382304753271979e-01 2.657964074513166075e-01 9.347990580365291846e-01 2.355907274915371719e-01
-1.467578522649427733e-04 1.236957080226840956e-02 -7.545135652781155278e-01 1.430369667844595682e-02 -1.042897349039838550e-01 9.944440936799753272e-01
-8.768791937282813601e-03 -8.028386129186029785e-02 -7.588712082410608017e-01 8.691525640375206974e-02 2.071582469646606472e-01 -9.744389149242751458e-01
-1.297757490648375478e-01 2.511351646700867371e-02 -7.454090987488982689e-01 1.363710116657685933e-01 -2.079154370092233250e-01 9.685938871531857286e-01
-2.568297945601307614e-02 -1.080760411010207311e-01 -7.665348671058225261e-01 8.724766138598909204e-02 2.297868400194049698e-01 -9.693223683257145007e-01
-1.096916437631050151e-01 -1.059320804967156526e-02 -7.544085003018700109e-01 4.787673297347093404e-02 -1.952562526523492492e-01 9.795829797622808144e-01
-9.869930782588369478e-02 7.063451812160482200e-03 -7.486851628507062983e-01 2.652152022368676199e-01 8.906519451392201914e-01 3.693237186022323426e-01
4.331753184118247030e-02 2.180621736380669029e-01 -7.360145864904604762e-01 4.502781630917715994e-01 -1.843191701407076097e-02 -8.926980678134608382e-01
-7.595958025991686458e-02 8.828972786299697784e-02 -7.412526996847956795e-01 1.035976543991808524e-01 -1.111092776436116425e-01 9.883937749826749997e-01
2.098405307681735360e-02 -2.304950161310721085e-02 -7.463121865721760173e-01 1.133370661329899526e-01 1.232281550469130627e-01 -9.858851511429210790e-01
3.328231027857567192e-02 2.335896417610798803e-01 -7.415722293905644413e-01 3.980248081662945414e-01 -6.654024081411229197e-02 -9.149582768829322976e-01
-1.782658507126151301e-02 -1.599841328710244204e-01 -7.794524532326249089e-01 1.040376665796268474e-01 2.824507403794274674e-01 -9.536234808307624267e-01
-1.192995318341135702e-01 -7.015810829381438629e-02 -7.680078444392063330e-01 1.991273228315473473e-02 -2.509476151351782147e-01 9.677958346423000124e-01
1.272708029091650372e-01 -2.467852805291302631e-02 -7.272580449278112091e-01 -3.546002884461915139e-01 -1.902554311671443288e-01 9.154569931707781105e-01
-2.831276044303157949e-02 -3.796544826425576891e-02 -7.526808493786486531e-01 5.882703641879308970e-02 1.555571493966098062e-01 -9.860737056923193355e-01
5.792340864081942792e-02 1.172831356976110906e-01 -7.366721848990788191e-01 -3.832979729401438385e-01 -3.761960939855683167e-02 9.228582929836393056e-01
-3.564836744640991623e-02 1.537834193985615217e-01 -7.426229538377051576e-01 1.544480567973096630e-01 -2.357195083786135098e-02 9.877196772795571178e-01
-1.034549195223332663e-01 2.190136248777012351e-02 -7.427663888552427096e-01 -5.583740111806748119e-02 1.896576877656886706e-01 -9.802612642085539729e-01
8.124247389652022866e-02 1.654882929581717177e-01 -7.193975230840645718e-01 -8.671166348847180183e-01 -4.523804754206887657e-01 2.084721731175516179e-01
1.010913087347103806e-01 2.739537330417051927e-02 -7.283285223051931823e-01 -3.569439905834545512e-01 -1.468920910517453327e-01 9.225040385672055310e-01
1.314897779737767870e-02 7.436740455583414587e-03 -7.437188792049347352e-01 1.172055493940012960e-01 9.793705120405582498e-02 -9.882667621612619691e-01
-6.590064022969582824e-02 9.662697154457390580e-02 -7.415480275199120008e-01 1.267990445896505780e-01 -9.997577005385677174e-02 9.868773215011529265e-01
-3.420247915444253606e-02 -1.046288942925784060e-01 -7.736315366747227307e-01 -7.027712726645927999e-02 -2.314243943245141155e-01 9.703112258933758172e-01
-4.752796274459167303e-02 1.717652277958006124e-01 -7.338262818613534577e-01 -1.700009498084082415e-01 2.257451982948043695e-02 -9.851852963370431038e-01
-7.034758013615195760e-02 -1.567326815531251694e-01 -7.838436673836958191e-01 8.813536648142321350e-02 2.939102407571034803e-01 -9.517609613517916678e-01
-2.899906546083215117e-02 -3.285961878673094444e-02 -7.589479325277270760e-01 -5.150805442038191434e-02 -1.582077807648149259e-01 9.860614678788027776e-01
4.559770099553206446e-02 -1.206205424818195537e-01 -7.680212471789032991e-01 -1.599825374828673097e-01 -2.383634095582791435e-01 9.579083842854153596e-01
-3.151280141996842116e-02 6.623141757943067087e-02 -7.404206029640147957e-01 -3.105660507176066440e-02 6.007453009243320791e-02 -9.977106484926328012e-01
-2.977846538630435011e-02 -5.720743939359004999e-03 -7.505548353698291431e-01 -3.901854936279610664e-01 -8.491866635823838161e-01 -3.558613366974893166e-01
6.838679173837985958e-02 -1.663233274171589116e-01 -7.697075638454647928e-01 1.343346920320439841e-01 3.062090081989086721e-01 -9.424384509422865097e-01
-5.431282775285107417e-02 1.343020241946902837e-01 -7.342035845612092659e-01 -1.430592854701693839e-01 5.578354316937609442e-02 -9.881407982429603054e-01
-3.009529488371391268e-02 1.041197906978737486e-01 -7.425320152626937453e-01 -3.645153875195457638e-01 -9.272647326079173080e-01 8.549063061554230958e-02
-4.722051702198232226e-02 -9.450170234361980615e-02 -7.749419475912610045e-01 -8.961035663432204146e-02 -3.108051150352115766e-01 9.462400141886931904e-01
3.189147066448266843e-02 -1.377239678120883992e-01 -7.744051415058091914e-01 -1.385211590363130407e-01 -2.461161461121408878e-01 9.592907437905068280e-01
-3.648025764737101301e-02 -1.984216431366312566e-02 -7.501553003639623851e-01 3.193446941318350135e-02 1.636882781445447299e-01 -9.859951000189466352e-01
1.083307405752075570e-01 1.779815617715934176e-02 -7.270555561722062965e-01 -3.569439905834545512e-01 -1.468920910517453327e-01 9.225040385672055310e-01
6.350681629250108022e-05 -1.217576029982066904e-01 -7.745789826077714713e-01 -9.041610628910519420e-02 -2.312993606580122374e-01 9.686720464030702527e-01
-3.620484036952553719e-02 -1.313657647293057229e-01 -7.805418852929066897e-01 -7.671844290948569289e-02 -2.549556327321957361e-01 9.639045107559512937e-01
1.177930692129359330e-01 -7.929061515429131068e-02 -7.367436905481086207e-01 2.396303157118032379e-01 2.123913142017261890e-01 -9.473474766122117474e-01
-1.762739582471907875e-03 -3.498022219291113677e-01 -8.615377118468910966e-01 -9.922166000092240701e-01 -5.378427497920650752e-02 1.123097076440712216e-01
-3.449903111947780210e-02 -6.473266528326059033e-02 -7.578692648199736315e-01 5.351480536472250082e-02 1.831843214231420602e-01 -9.816209400738753477e-01
-3.637493111719587724e-02 -1.501722752517161419e-01 -7.785563635410526206e-01 9.328077397329297138e-02 2.790377152768467317e-01 -9.557387983439935564e-01
1.715578805119186145e-02 1.726740158033202854e-01 -7.405287235698495563e-01 1.301956942045725818e-01 -6.123357651423391723e-02 -9.895956398033819434e-01
-6.910366913765518537e-02 -8.294716927139365870e-02 -7.636692496027577270e-01 5.668701589964907084e-02 2.382482073481541895e-01 -9.695485412932062230e-01
1.227170318377520941e-01 -7.020111882250927582e-02 -7.332873435490950831e-01 2.584894095794667002e-01 2.181107944209588756e-01 -9.410690232349149253e-01
1.219038595993694601e-01 7.098918809673582242e-02 -7.078618348966421170e-01 3.998270228427076578e-01 1.332401224310888754e-01 -9.068546860325998882e-01
-1.129985426940057075e-01 1.016294263481216237e-01 -7.334749055119117456e-01 2.069123705553392312e-01 -1.767464196649393415e-01 9.622619051208435303e-01
-7.721805843077897413e-02 1.435027211910697431e-01 -7.350697368817188382e-01 2.330264863991416968e-01 -1.161622790036349606e-01 9.655076289564740177e-01
-3.392007194274551576e-03 -1.742786672131382553e-01 -7.929523164913077071e-01 -1.793536728453763440e-01 -3.213151402120321687e-01 9.298326950088363629e-01
5.818676727707874224e-02 1.960033516786583441e-01 -7.283898893934768193e-01 4.525397128876985087e-01 1.807858109944519842e-02 -8.915609755731517261e-01
-5.939029903441692820e-02 9.275934227831067469e-02 -7.366380606549455257e-01 -1.099357781696282677e-01 9.631732049870708745e-02 -9.892608849288379025e-01
-4.943798029540733691e-03 -2.416104312112870786e-02 -7.453734644499274697e-01 7.320558880364172460e-02 1.356155529742303911e-01 -9.880533202005880034e-01
6.483129760610853616e-03 1.171594030242823110e-02 -7.509837437035878915e-01 -8.638798533896609178e-02 -1.043728877085001033e-01 9.907791965420263969e-01
-2.002109849349877763e-02 1.204377649690471924e-01 -7.452115722628893657e-01 8.631161578878382423e-02 2.896079917666189319e-03 9.962639799275289088e-01
-1.153393149455862465e-01 8.006041116695369886e-02 -7.320734929235923616e-01 -1.147011724058016047e-01 1.438396235145245616e-01 -9.829312304306615511e-01
1.808628795819482854e-02 2.457422321901643336e-01 -7.560212458732666896e-01 -9.222181589640298105e-01 1.001447497393363750e-01 3.734765004342862071e-01
7.966173636205238495e-02 1.451426084475478107e-01 -7.250601176473460141e-01 -5.101156553399407434e-01 -9.598938183670285840e-02 8.547327399554262017e-01
9.220151084259260721e-02 4.621935937592839411e-02 -7.294100213406299327e-01 -3.833864876053986737e-01 -1.133234462807281018e-01 9.166092938895255005e-01
1.219138450461718232e-01 6.062657532176192812e-03 -7.234242553992936697e-01 -3.794374778894688549e-01 -1.760171024134285500e-01 9.083199766771946626e-01
2.450355102010981240e-03 -1.342274609428509569e-01 -7.729272203565777932e-01 -9.370451708326126283e-01 1.182723779574902101e-01 -3.285696158070015027e-01
4.334461984455035416e-02 5.020303216928305445e-02 -7.431915889981559609e-01 -1.668846916756519250e-01 -4.487696071663267727e-02 9.849545969643271892e-01
-5.352223944086163809e-02 1.691044419737587623e-01 -7.382252809150625650e-01 2.107191486743359432e-01 -6.085714104787105089e-02 9.756504746913426951e-01
-8.221417800238740858e-02 1.105058545915899026e-01 -7.377287763406099597e-01 1.542108056715641717e-01 -1.140426178813705171e-01 9.814343119745156940e-01
1.332568866658170002e-02 1.637779517219385139e-01 -7.499537663779350938e-01 -5.852504466612600265e-01 4.450040074424236880e-01 6.778298813441167026e-01
1.026361923727297093e-01 -5.296704949960719805e-02 -7.413393360159611367e-01 -2.685752700939316728e-01 -1.748533789595654031e-01 9.472558366990377898e-01
7.674389384841959205e-02 3.450740808134727944e-02 -7.358162911298448128e-01 -2.967349609737303662e-01 -1.034862411275975363e-01 9.493360631689914397e-01
-1.687024297713311978e-03 -2.347745238970712356e-01 -8.122552883577717209e-01 -6.353641509731779990e-01 -2.413293534568650700e-01 7.335342792386898569e-01
-7.845406626591674981e-02 -9.594065896721432063e-02 -7.673618141709040996e-01 4.719606132131831666e-02 2.374098008209196420e-01 -9.702623966071887152e-01
-7.913551274432317761e-02 9.523191526938120169e-03 -7.547995795536512897e-01 1.804111925480766584e-02 -2.332019281218660478e-01 9.722609622607900626e-01
7.460971545044102482e-02 2.284907431165968117e-02 -7.378394906909527817e-01 -2.940165572976276009e-01 -1.260951161994338376e-01 9.474461914565396325e-01
9.498810149602392172e-02 1.475077085785538034e-02 -7.324874960341140051e-01 -3.407160334221137066e-01 -1.285466661622466367e-01 9.313368559160928317e-01
-1.418843262905170738e-02 -1.186579410782436783e-01 -7.694634149301273762e-01 5.441149253097052885e-01 8.083274309964277871e-01 2.248237361888844321e-01
1.826122313980059475e-02 -5.008288926030435989e-02 -7.578005054325767098e-01 -1.225432498756524047e-01 -1.514837399023205022e-01 9.808342512652785672e-01
-8.281768333671973847e-02 1.114887526437289972e-01 -7.293273882074319259e-01 -1.115260321186809234e-01 1.730276789464068599e-01 -9.785823248343912262e-01
7.406726004208961933e-02 8.745124819295278795e-02 -7.226973906158730143e-01 2.911406248039126732e-01 1.351753065983472002e-01 -9.470822419805106085e-01
6.599566334549003543e-02 -1.334632539419307873e-01 -7.676094442111117688e-01 -1.822416927972951295e-01 -2.324784779311513672e-01 9.553751737957144607e-01
-5.167735012879711570e-02 1.078862282576344284e-01 -7.425716015556674821e-01 1.042778031887926227e-01 -5.915898715219515547e-02 9.927871645026671299e-01
2.143154881726789043e-02 -8.384782750970767862e-02 -7.562546397640087514e-01 1.181617477991964010e-01 1.962206443396361799e-01 -9.734142284207565332e-01
6.051074860948252310e-02 1.670214862181566839e-01 -7.336722140453447727e-01 -4.713695951676712403e-01 -4.964548947367297682e-02 8.805373530557263351e-01
-1.109991530076635119e-01 6.599313733221678913e-02 -7.348232022745314618e-01 -1.136421270331658129e-01 1.572249111400777222e-01 -9.810024435649343788e-01
1.058280746041773274e-01 5.774920301272801898e-02 -7.222770407437048013e-01 -3.831077447146306048e-01 -1.156403554914308129e-01 9.164364484902840502e-01
4.436629176556809023e-02 -1.073439600714507919e-01 -7.542429031542140505e-01 1.493054579809839633e-01 1.176991348134459325e-01 -9.817610676133247116e-01
-4.415701584979197375e-02 1.355708490811425582e-01 -7.419831590214075456e-01 1.938260468640413958e-01 -5.152432047917786251e-02 9.796819422425919743e-01
9.376939834699661580e-02 5.392706161545259003e-02 -7.278003545134599239e-01 -3.831077447146306048e-01 -1.156403554914308129e-01 9.164364484902840502e-01
-2.622078845826794971e-02 8.199556098444094054e-02 -7.396228233143895547e-01 -3.954807324840562549e-02 6.841695897393067216e-02 -9.968726446377682571e-01
1.485360744285202893e-02 -1.166692788845095398e-02 -7.528029558404756294e-01 -1.141362526625337576e-01 -1.237360137353528816e-01 9.857293313750172814e-01
-1.165397766058631351e-01 9.982401863401177411e-02 -7.329417750414646271e-01 2.642565271729548360e-01 -2.058602752916127709e-01 9.422261060400262123e-01
-2.908611861815879607e-02 1.022555006076429351e-01 -7.467629576709947647e-01 -1.981079026386084740e-01 -6.625062383489034312e-01 7.223840689418041805e-01
-6.176621476927971616e-02 1.518976747048118026e-01 -7.375758704633624818e-01 2.127202184430657672e-01 -8.380690687827524465e-02 9.735124606418915638e-01
-5.751778409860459906e-02 -7.114196003424050341e-02 -7.605398384423965874e-01 4.494341681037507946e-02 2.063643666450170056e-01 -9.774424982906205761e-01
-5.751930979557502710e-02 2.788313784449753321e-02 -7.436234302658620843e-01 -2.413952624387806500e-02 1.247450878452049522e-01 -9.918951286961807945e-01
7.383302210507943983e-03 2.128277844788705742e-01 -7.511909102860043763e-01 9.221390632370998763e-02 8.504314053033860954e-02 9.921009322288025789e-01
5.766665418840558749e-02 1.735195479839508892e-01 -7.291603544464292375e-01 3.879446206613701986e-01 1.075709824740477515e-03 -9.216820569742466551e-01
-5.933821912937797816e-02 -9.019917971298953285e-02 -7.642035756622479470e-01 -3.029584994241658613e-01 -8.581940095426894288e-01 -4.143901417887496663e-01
-5.617298757954725108e-02 5.013404789770858905e-02 -7.410267406236593635e-01 -4.045630035566762789e-02 9.739218416225346731e-02 -9.944234763045558534e-01
5.820857030140694915e-02 1.465985231561287017e-01 -7.292791495996068241e-01 3.592287387765119577e-01 1.876906279907186031e-02 -9.330607887585251614e-01
-3.406423303747137948e-02 9.615058637924245311e-02 -7.351208576121673888e-01 -1.618130456266074491e-02 1.368717499364059953e-01 -9.904566065466957614e-01
6.771156251041754622e-03 9.173302089904401824e-02 -7.392445164052847684e-01 6.892389047753225140e-02 1.310147350018492363e-02 -9.975358884338774157e-01
1.843229637358661729e-02 -4.406138446483633814e-02 -7.495866099038468455e-01 1.194722189718995381e-01 1.494950577614236886e-01 -9.815180164412873332e-01
1.003375999179384470e-01 1.055764086385195116e-01 -7.183154334534005425e-01 -4.700496028269943727e-01 -1.195145336942202152e-01 8.745110903345011399e-01
-7.128139522802461048e-02 -1.274991116450863333e-02 -7.496045623933298430e-01 7.020150517016075960e-03 1.733908777566174064e-01 -9.848280667190126847e-01
-1.018233805181106800e-03 1.055742800313852064e-01 -7.423546460650218837e-01 9.960599427932831373e-01 -8.161471532240793803e-02 -3.469335102702301998e-02
1.894097587037552391e-02 -1.201048402088379236e-01 -7.644226058125943579e-01 1.172138376968896722e-01 2.216701125536143790e-01 -9.680512783178560898e-01
3.568841713055016102e-02 2.092102637370834572e-01 -7.390111148743380154e-01 3.503916276835483679e-01 -4.752571626801603555e-02 -9.353967145241026682e-01
-7.225623956737630554e-03 -1.145081116776964225e-01 -7.766869268890068678e-01 -9.456466818059861001e-02 -2.145842205611197817e-01 9.721168323910814868e-01
-2.356428752808463478e-02 -1.689157283145241439e-01 -7.898697101650825614e-01 -1.048537283170631190e-01 -2.887003075824483012e-01 9.516605634677791636e-01
-5.110908214559944929e-02 -9.968191441492582627e-02 -7.666222206313617615e-01 7.473421573975365384e-02 2.327991451782391308e-01 -9.696490885892921074e-01
-8.186773700811715571e-02 1.166414259794481961e-01 -7.382398584030782640e-01 7.631687213459863173e-02 -6.119145833430512660e-01 7.872333057738927220e-01
-1.243010438073828688e-01 6.589467232109676165e-02 -7.335560602673401043e-01 -8.451534111382824621e-02 1.639894106521826156e-01 -9.828349964823003271e-01
5.691739938647553954e-02 -8.312571540857538813e-03 -7.388277182195286397e-01 2.011630618112349167e-01 1.278652179954662682e-01 -9.711765589169153445e-01
-3.033665327769442463e-02 -1.331064709991015838e-01 -7.805132711906835885e-01 -9.374855205987871198e-02 -2.549344383739744480e-01 9.624030554386361347e-01
4.558698616742598575e-02 1.624700928556153112e-01 -7.402936675019659019e-01 -2.953433546809815513e-01 8.535473474079253303e-03 9.553530491595015883e-01
6.337328641255424166e-02 -1.657628573514976500e-01 -7.768108526490261623e-01 -2.018688895685495921e-01 -2.410228214037599126e-01 9.492928689224058303e-01
6.776914895101567027e-02 4.485017043404958964e-02 -7.311782097286849691e-01 2.250950668353179362e-01 8.243023521507297779e-02 -9.708436883498759995e-01
-6.867738521158715109e-03 -3.187751458744907812e-02 -7.593076197365636881e-01 4.553252195603875174e-01 -1.619949001198582039e-01 8.754636467423659862e-01
-1.536522746191164128e-02 -2.568253546801547160e-01 -8.223689626763815985e-01 4.235523437086337606e-01 -3.823499573645380289e-01 8.212258655462936208e-01
-2.270989695505918823e-02 -1.878409692252436813e-01 -7.955678154694896254e-01 -9.886666911804488367e-02 -2.897792039303080935e-01 9.519734212187962452e-01
-1.050971555578930280e-02 -1.390865406178670438e-01 -7.801611936113784784e-01 -1.132752682213116480e-01 -2.536536436055901733e-01 9.606396528849922012e-01
1.315814518198863137e-01 -3.225395283120850026e-02 -7.270656431409233678e-01 -3.726784127811760827e-01 -1.882105811521005978e-01 9.086735265150469587e-01
-2.906277133672081556e-02 -1.112675658881767393e-01 -7.721877649005390865e-01 3.309517341179385452e-01 8.594461440430809507e-01 3.896450630686974503e-01
-2.206760719344308050e-02 -1.222858341595786519e-01 -7.695972676291613634e-01 8.581357334364950185e-02 2.308254894444118632e-01 -9.692036029920347850e-01
-6.719412416780450037e-02 -8.545170904554469371e-02 -7.682783091980963652e-01 -3.029234191682336208e-01 -9.469270012516308732e-01 -1.075483910619799421e-01
8.777676347699662346e-03 2.127613375858562472e-01 -7.475533385830366306e-01 9.665471978626383187e-01 -7.330972201495919438e-02 2.457889317320272327e-01
4.821711641118743563e-02 7.080404125489919709e-02 -7.341703728763152581e-01 2.389649576512368478e-01 4.992238408685036738e-02 -9.697440407560272702e-01
1.098171544746256029e-01 -1.565459176954100279e-02 -7.319823659875985822e-01 -3.184546073688548917e-01 -1.443128411142680367e-01 9.368887164093057107e-01
-1.996014461115333885e-02 -3.559881109129837268e-02 -7.518111745372022536e-01 5.839067299539916350e-02 1.559646223995435621e-01 -9.860352761777401165e-01
-1.328034462504856794e-01 9.917835547821872780e-03 -7.482729822012839094e-01 1.131302740811352264e-01 -2.123085816418245064e-01 9.706320658455314110e-01
5.352218060284195944e-02 8.444235604277718077e-02 -7.322629100736693930e-01 2.394432872833270332e-01 3.229521194530925177e-02 -9.703730887964492346e-01
6.591295065968652556e-02 -9.887281461734301335e-02 -7.539707760545450999e-01 1.955138080538372236e-01 -9.309711379824332500e-01 -3.083295170819374542e-01
-5.457610186536118735e-02 -7.276104639271042951e-02 -7.676286702847221477e-01 -3.174357014976444957e-02 -2.080771838540045049e-01 9.775971723125705948e-01
-7.166533457481025216e-02 1.356776342683257419e-01 -7.369784763649176451e-01 1.824137080494004914e-01 -8.802014681993783340e-02 9.792740642279180729e-01
4.512616977838281723e-02 -1.697379149342626015e-02 -7.421244667630262359e-01 1.464469681136086054e-01 1.201840286339655589e-01 -9.818905666069115412e-01
5.093268442984773270e-02 -1.203683233435889760e-01 -7.598362226397055164e-01 1.497073835538854647e-01 2.438662972113006810e-01 -9.581841829178249226e-01
8.056334074184560989e-02 -7.732271571983928560e-02 -7.518569587548754596e-01 -2.244768104591842450e-01 -2.036598185710234432e-01 9.529600410645188147e-01
-1.224326547020352512e-02 -1.815051001803131558e-01 -7.853896266898601208e-01 1.238513650831781360e-01 3.074006957403556672e-01 -9.434859043066720075e-01
1.626771486922099158e-03 2.317293085341821657e-01 -7.522452465115925246e-01 1.777361399301611855e-01 9.290681679826065520e-02 9.796826975889389999e-01
-1.045525788764401810e-02 -4.506725123784952741e-02 -7.530589126827966773e-01 9.950517256306427027e-01 -3.387874025602798794e-02 -9.340393074247432814e-02
-5.064862807046085179e-03 -1.320747050169784331e-01 -7.667105394355441250e-01 3.436431380264696328e-02 2.637911872826911308e-01 -9.639674804934350583e-01
3.037489630084733508e-02 7.981955262306549004e-02 -7.440741163079629406e-01 -1.203508334169169358e-01 9.728591771977259661e-01 1.976377955706278000e-01
-7.817956479731786451e-03 9.296042586874657399e-02 -7.484314595065697517e-01 -2.918793748920654463e-01 -6.522400702683013307e-01 6.995636649004997043e-01
-3.722461735920998271e-02 -1.014325526452235643e-01 -7.760535901814235027e-01 -4.801003233512524809e-02 -1.972585303633994924e-01 9.791752187397574358e-01
-1.211163520445040220e-01 7.953228703031885172e-02 -7.315544332442631692e-01 -8.451534111382824621e-02 1.639894106521826156e-01 -9.828349964823003271e-01
9.549437731079207792e-02 6.040418220130202437e-02 -7.262619288758382918e-01 -3.831077447146306048e-01 -1.156403554914308129e-01 9.164364484902840502e-01
3.587401891885853844e-02 -8.731016825456203168e-02 -7.549270547355036998e-01 1.371993985480550737e-01 1.916511324876039868e-01 -9.718262028028833432e-01
-1.320168863590973629e-01 2.084662184583770464e-02 -7.460094815382652955e-01 1.363710116657685933e-01 -2.079154370092233250e-01 9.685938871531857286e-01
-1.207074286001566105e-01 -7.012716281407027630e-02 -7.652125978685183627e-01 -9.887326722588668515e-02 -9.200148804568483163e-01 -3.792053490736250199e-01
-3.098435692473055364e-02 1.042654865060864688e-01 -7.447827742320839439e-01 -3.643811355548499664e-01 -9.276021182651247310e-01 8.234499524446800556e-02
1.218549057519825903e-02 2.429670164967318580e-01 -7.521385622755575318e-01 9.711541866325684724e-01 -7.128017413425935533e-02 2.275492969917155550e-01
-3.919108503153800882e-02 -8.531838678162902492e-03 -7.553999201944825437e-01 -1.126414575944957065e-02 -1.365182247926693127e-01 9.905735173725209730e-01
-4.997888181861472739e-02 2.319299392730857917e-02 -7.443967930456597548e-01 -2.413952624387806500e-02 1.247450878452049522e-01 -9.918951286961807945e-01
-7.836070387709222207e-02 -1.155290984633564333e-01 -7.790865013511737436e-01 -4.349021221522462316e-02 -2.525990970541321934e-01 9.665931396450688773e-01
-4.591014903057020341e-02 -3.066971267089965703e-02 -7.522582330509803850e-01 3.193446941318350135e-02 1.636882781445447299e-01 -9.859951000189466352e-01
2.506720304724977325e-02 1.743685099855643850e-01 -7.466216586776990294e-01 -2.391001415477423953e-01 4.747212065458111807e-02 9.698337589877999987e-01
-7.773778064119503395e-02 1.909524811168943070e-02 -7.505379659696668204e-01 5.572748512258883513e-02 -1.750579796843645675e-01 9.829797307934381445e-01
-9.816630824493852332e-04 1.742990953035561119e-01 -7.477510545856552726e-01 7.453570761393996102e-02 4.869716570147256812e-02 9.960286212469662281e-01
-1.176363760792205337e-01 -1.607039214202847293e-03 -7.466101281823603886e-01 -3.317486362692280422e-02 2.074131673213311378e-01 -9.776907519482163078e-01
1.217213120528835291e-01 -5.780048782285327619e-02 -7.308003551142309151e-01 2.635156555733557671e-01 1.933409142286821036e-01 -9.450813669483499879e-01
3.912309056276800506e-02 -5.949606881357990401e-02 -7.565109374406159271e-01 -1.470277850352272597e-01 -1.708898570411005180e-01 9.742584293646665561e-01
8.796041842754261098e-02 1.235065780797433427e-01 -7.228462298031675948e-01 -4.930210207210493079e-01 -1.083837280289837446e-01 8.632399669997409264e-01
9.059643111944296057e-02 -1.325255206989681689e-01 -7.623990797993960289e-01 -2.223942665117054074e-01 -2.357297311667876927e-01 9.460297479819302913e-01
1.270987531407635762e-02 -1.827794955242590747e-03 -7.446890692016220337e-01 1.172055493940012960e-01 9.793705120405582498e-02 -9.882667621612619691e-01
1.684832372205004704e-03 -1.575709362899338217e-01 -7.791467819461211919e-01 -9.370451708326126283e-01 1.182723779574902101e-01 -3.285696158070015027e-01
-1.140241404145045240e-01 -4.786402307373411463e-02 -7.625703332831001990e-01 1.587594845691561035e-02 -2.368573140647957376e-01 9.714147245304673994e-01
2.758441667023071864e-02 2.238471016154660875e-01 -7.493800215622291594e-01 -3.010459562857930593e-01 7.468381205674536061e-02 9.506806300859635961e-01
7.314760535214762105e-02 6.639403951701249029e-02 -7.340681481209118120e-01 -3.347356100028875958e-01 -7.298925166113849616e-02 9.394810485251641197e-01
6.619423253015126185e-02 -4.322497743917304985e-02 -7.487472471295364418e-01 -1.945448193209561305e-01 -1.421387748680179586e-01 9.705405102077890866e-01
-2.184278144845676686e-02 -9.383611261202995379e-02 -7.629197565212868515e-01 7.752087965532877822e-02 2.048622853817374245e-01 -9.757161253385309152e-01
5.909228708019143191e-03 3.988860326293844349e-02 -7.486656678427039413e-01 -8.578163464110576120e-02 -7.399123748535654799e-02 9.935626844511046274e-01
6.466147348559263264e-02 1.599161206474926655e-01 -7.263318633245199329e-01 4.336133985402033653e-01 4.459052204802248232e-02 -8.999950588474913138e-01
-2.548613955194262495e-02 -7.974886557074271909e-02 -7.602541134469131823e-01 7.826216891649864782e-02 2.042613073615030250e-01 -9.757829426831845510e-01
1.167145609834777109e-01 -5.240800299764429571e-02 -7.310932075118720119e-01 2.635156555733557671e-01 1.933409142286821036e-01 -9.450813669483499879e-01
-8.004499858667539621e-04 -1.653386772714728059e-01 -7.886841227806018484e-01 -6.170402098036132932e-01 -2.456125878357472148e-01 7.476201148859895618e-01
1.048618644206957273e-01 1.126560915512654221e-01 -7.147219484340492368e-01 -5.030894905541186679e-01 -1.307689240985242252e-01 8.542835904921221024e-01
7.835430472594856477e-02 1.172324882382769391e-02 -7.380487458136009149e-01 -2.808070372174931162e-01 -1.098680174252645025e-01 9.534549945310346608e-01
-5.378002995519283111e-03 1.971416815031909742e-01 -7.484723226729483869e-01 1.349813661251357266e-01 6.170648510297586237e-02 9.889248406705275496e-01
8.579590966385793049e-02 2.804977933251428038e-02 -7.274170830077775207e-01 2.817969684982998269e-01 8.653684903105698933e-02 -9.555636254614050529e-01
9.033159279457756222e-03 1.508477135545317482e-01 -7.498372116864195913e-01 8.429096124103611920e-02 3.635383288336178909e-02 9.957778028695711825e-01
8.729897305758514345e-03 2.011410740976193878e-01 -7.506182970620857153e-01 9.621114378163094782e-01 -6.772669521564662898e-02 2.641111053670415765e-01
-2.726831373445846168e-02 -6.891443615777127774e-02 -7.652447177303823844e-01 -7.081028583506017438e-02 -2.056346505015635151e-01 9.760636730936443906e-01
-1.423398878525708733e-01 1.216475647748835494e-02 -7.430102441046392281e-01 6.924108252287443366e-02 1.910438973833649690e-01 -9.791363039759249931e-01
1.181515235845497502e-01 -6.284903518263133815e-02 -7.384794271616690331e-01 -3.045281845678338151e-01 -2.127050244568607640e-01 9.284498679921417974e-01
4.428437485262873979e-02 -1.358100535116246177e-01 -7.647764525421127946e-01 1.466571975667411987e-01 2.412482444104851742e-01 -9.593179613510468551e-01
1.285300845516607060e-02 1.564659326982857090e-01 -7.488786595084295783e-01 -7.580062978715418343e-01 7.432029311234600311e-02 6.479991870510135588e-01
-1.222967425337474212e-01 -7.486869028659343117e-02 -7.614780656333137721e-01 2.500278562015665340e-01 2.201354889769160661e-01 -9.428819849886532767e-01
2.951761375731313738e-02 2.426678844066270380e-01 -7.440574997398690105e-01 4.092104257885643692e-01 -9.150305656439981783e-02 -9.078403042745535334e-01
5.199293513640310116e-02 -9.424119370990831357e-02 -7.609019451967833358e-01 -1.698470942441195064e-01 -2.204194634663448060e-01 9.605036307594250200e-01
-1.293835576659902419e-02 -2.394801988429827999e-01 -8.025531663516836112e-01 1.802413118797516478e-01 3.218579324137380016e-01 -9.294732598812188717e-01
-1.373943394374434468e-01 -2.670705370865632255e-02 -7.563569783934592783e-01 9.591645664549885986e-02 -2.311290467501714296e-01 9.681835554753701611e-01
-9.497438986262829452e-02 -4.803569604377838642e-02 -7.566484703751831242e-01 1.918884979950637518e-02 2.254829052517512977e-01 -9.740581335231495164e-01
-2.296699101336861348e-03 -3.551223878408023560e-01 -8.592019697617653273e-01 -9.323356975765880739e-01 1.782304834840885976e-01 -3.146172941549859048e-01
-4.935262245472437498e-02 -4.193422470791646761e-02 -7.612111286833550539e-01 -3.852747627905631078e-02 -1.901444144034030725e-01 9.809998650574595080e-01
-1.395878640949458661e-02 8.493549562724671265e-02 -7.432979180081344950e-01 4.106857811831026717e-01 8.725791665815555431e-01 2.644669869414005836e-01
-1.857596263639524261e-03 1.526568234133990620e-01 -7.466683632286772454e-01 5.984658491726440460e-02 4.739971148016892261e-02 9.970815681905554895e-01
-1.472896455676222724e-02 -9.819083406157236293e-02 -7.704613977554929383e-01 -8.559316299331197475e-02 -2.050490917610703900e-01 9.750018873913836037e-01
-7.419476421031949431e-02 -1.263528372584188098e-01 -7.751580246718517975e-01 7.590875596912202705e-02 2.796964102476817149e-01 -9.570829529679132364e-01
-3.174880810362769312e-02 -1.954540808166549681e-01 -7.925505867242416125e-01 1.408606692411333017e-01 3.661285518505829617e-01 -9.198413751189576937e-01
8.144820279689049536e-02 7.017972925247593918e-02 -7.247497146054685535e-01 2.993903657908463800e-01 7.900137213929687985e-02 -9.508544536740265452e-01
-1.542286936629791438e-02 1.671858946396038159e-01 -7.459170421548872998e-01 1.154865632003188175e-01 3.044379022618016670e-02 9.928423990527616150e-01
3.090378969970981535e-03 1.314030386349218371e-01 -7.393988092792342925e-01 2.498180778554145998e-02 -2.128767502221760519e-02 -9.994612269477565203e-01
4.701152546012812156e-02 9.775386305225686190e-02 -7.403330759789401583e-01 -2.708674177171301878e-01 -2.726472682501649217e-02 9.622304696331387408e-01
-9.645205042617432944e-02 -2.912628649714625595e-02 -7.587685461922000218e-01 1.313874415055014608e-02 -2.072888887361009069e-01 9.781915405526152574e-01
-8.947615249891002764e-02 -2.636394969750507564e-02 -7.582768764450316112e-01 1.313874415055014608e-02 -2.072888887361009069e-01 9.781915405526152574e-01
-9.147231954198518922e-02 -1.292369421278127262e-01 -7.773255337443536472e-01 6.925026585762657227e-02 2.778964821166751142e-01 -9.581116562832456829e-01
5.076272371902242064e-02 1.414272735213848720e-01 -7.320025843924384823e-01 2.780007956501901467e-01 -1.756407073902364890e-03 -9.605792380912946404e-01
4.932550675598266349e-02 -1.510158450335965241e-01 -7.681020792793166185e-01 1.385003601448338562e-01 2.666612367544965445e-01 -9.537868918434103671e-01
2.185113397540276378e-02 2.520052782358547239e-01 -7.478831186085511673e-01 2.349703035494766779e-01 -1.374172783690518207e-01 -9.622398079769456380e-01
1.070686890915509143e-01 -8.415147961661008369e-02 -7.466108111961847760e-01 -2.620703888813502580e-01 -2.095000488532720306e-01 9.420344159329077094e-01
1.196142202087744771e-01 5.635269802197775957e-02 -7.110217790966099072e-01 3.988575392368446382e-01 1.281127178427506619e-01 -9.080197106455744072e-01
5.374387557450209692e-03 -4.474757293919158496e-02 -7.531656795561674222e-01 -9.435408091533100672e-01 9.311257756337289193e-02 -3.179005966679230855e-01
-1.888820814175242585e-02 -3.600168099267652688e-01 -8.665065139404336536e-01 9.938766169807805584e-01 5.396850906187819485e-02 -9.641924210694086117e-02
8.319805336889045735e-03 4.402308517531806215e-02 -7.408603428176112615e-01 -9.572370910525678234e-01 6.043339426577365447e-02 -2.829221736992978964e-01
-4.553244173199481881e-02 1.110266978403654098e-01 -7.366322724763508800e-01 -8.796672681397661731e-02 5.804583976857422695e-02 -9.944307595097789942e-01
1.840260445410037485e-02 -3.287654235281030346e-02 -7.479308953847449981e-01 1.106622234982839459e-01 1.436520624025900139e-01 -9.834215562300320235e-01
7.107258213893832312e-03 1.583298974174224827e-01 -7.401687853018544816e-01 1.746656967194085489e-02 -5.856570679942704749e-02 -9.981307414016357127e-01
-1.358909601591642147e-01 -2.244126467402451572e-02 -7.554875679029746660e-01 9.591645664549885986e-02 -2.311290467501714296e-01 9.681835554753701611e-01
3.795273729197187057e-02 1.704349608108355341e-01 -7.430618593960376383e-01 -3.352163087344705583e-01 2.106054927378414252e-02 9.419057700336709305e-01
-7.034068178455171738e-03 8.862760395754376574e-02 -7.360941978839634636e-01 -4.323120369463233359e-02 -6.212894807213322629e-02 -9.971314140265381543e-01
3.989293487382295639e-02 1.985796622149423041e-01 -7.430625029295606643e-01 -3.340784494327442844e-01 2.368271087300841127e-02 9.422476950517409966e-01
-4.609574559973785707e-02 1.796160167427127141e-01 -7.394635194425202007e-01 2.393023869084669186e-01 -3.160669364713137447e-02 9.704305150481443709e-01
1.024098458888019966e-02 -8.967786247964268376e-02 -7.661139797305931420e-01 -1.250715156079957868e-01 -2.002953862435264687e-01 9.717195450504613197e-01
1.425605633492055616e-02 1.595510323443421197e-01 -7.453832419761985406e-01 -9.959423360329303643e-01 5.358182990998296147e-02 7.230387818621702989e-02
-7.178367594638446203e-02 1.301537609388324912e-01 -7.374529350175509368e-01 1.824137080494004914e-01 -8.802014681993783340e-02 9.792740642279180729e-01
-5.516988721544823469e-03 -2.029563063431263081e-01 -7.983446059676780893e-01 -1.133852753212273162e-01 -2.600671237621980936e-01 9.589102515242953206e-01
1.233528818446540942e-01 -4.015909712397158077e-02 -7.264987135219970193e-01 2.872735348521812115e-01 2.039163678568556293e-01 -9.358910359083476571e-01
-1.030683666785977559e-01 1.102248145653041828e-01 -7.342146475484877532e-01 2.227656441537139986e-01 -1.601357743790994270e-01 9.616298672299997685e-01
-8.722163447720651663e-02 1.174583118340846305e-01 -7.308081282852956218e-01 -1.314271977773923961e-01 1.048407121514006168e-01 -9.857663601279815779e-01
-2.596739696121993027e-02 1.003576708700189557e-01 -7.365003652005531753e-01 -2.890058136490832319e-01 -5.742473720095110368e-01 -7.659736257973909224e-01
2.863763583525685830e-02 -9.332129773968562969e-02 -7.571729253184825703e-01 1.403351875170092966e-01 1.942134757895415675e-01 -9.708692810910801718e-01
-9.861633196065106716e-03 1.244386342942832430e-01 -7.390624722962861881e-01 -2.997651539039808063e-02 -1.412435318569589711e-02 -9.994508047783716709e-01
4.103733823754286691e-02 -6.227652438712283356e-02 -7.495066976499004108e-01 1.413973017889744166e-01 1.702618966611256501e-01 -9.752013584855969697e-01
5.121240003062253569e-03 1.098204733883254985e-01 -7.490880029495118331e-01 7.849078742402278153e-02 -1.701511352924206522e-03 9.969133869843822549e-01
-4.253819657608774729e-02 1.580608384935502098e-01 -7.411688935297607861e-01 1.934218606068644764e-01 -3.252650615060503209e-02 9.805763663463509250e-01
4.617689684210638662e-02 1.059673215840813559e-01 -7.335177107987495004e-01 2.518354039844206693e-01 2.563793158393255431e-02 -9.674304242497757667e-01
-3.903920778377572426e-02 1.210035019836039061e-01 -7.367647915651006629e-01 -1.057304882585396733e-01 5.170754914764394417e-02 -9.930495421748879448e-01
-9.638701090309162445e-02 -4.566156571289665955e-02 -7.622682543840806346e-01 -9.226088514588541610e-04 -2.295400233206993379e-01 9.732987858241888279e-01
1.689725359456561299e-02 1.774821992196319032e-01 -7.478695801880278493e-01 -5.002335386078829438e-02 5.490581119970357887e-02 9.972376928120101347e-01
-1.117215080933519344e-01 1.290471541201700274e-03 -7.461961353696870969e-01 -3.317486362692280422e-02 2.074131673213311378e-01 -9.776907519482163078e-01
-4.439589481448421790e-03 -1.097840715017701640e-01 -7.721486694299393161e-01 -9.586915947318597198e-02 -2.320544262762097298e-01 9.679668628147990450e-01
-4.072380939461654747e-02 -1.345153021513637859e-01 -7.745983896539228031e-01 8.617071105208674864e-02 2.566422198511539854e-01 -9.626574570150328025e-01
-4.180188831759021340e-02 9.643389099030344469e-02 -7.373816403706380251e-01 3.615356750577744527e-01 9.288786624914634471e-01 -8.047599659891978285e-02
1.982021608621039807e-02 -2.590573070454433094e-02 -7.439768648947194807e-01 -2.000966931893561132e-02 7.357613886675044013e-01 -6.769451913410807764e-01
9.657863985596316925e-02 8.945207364351430435e-02 -7.224280190839634797e-01 -4.057375718814071885e-01 -9.825767518608694018e-02 9.086927159556223987e-01
-1.267678202128238729e-01 -7.956824569632178767e-02 -7.701588886096187858e-01 5.187618801430646936e-02 -2.424603113222924822e-01 9.687733783246736952e-01
5.485612420636434491e-03 -1.371169047012481546e-01 -7.777931203121742909e-01 -1.239370115933552952e-01 -2.535722429753854423e-01 9.593439084862843691e-01
1.793108613695698628e-02 5.976387710407207732e-02 -7.464770706688089730e-01 -1.064976908346826623e-01 -4.212706093492422921e-02 9.934201289403519208e-01
3.098080157467907048e-02 -1.729464663025081228e-01 -7.842338510273085816e-01 -1.345711643702618698e-01 -2.782826658451117985e-01 9.510254253226723131e-01
-5.677220870811965775e-02 -1.036840097827229634e-02 -7.557192515102616470e-01 4.698729957439751193e-03 -1.759123427961850616e-01 9.843946208654050789e-01
1.951799371903334065e-02 -1.456822914581876738e-01 -7.782320765635990512e-01 -1.165702854726899801e-01 -2.487220095911936157e-01 9.615345706160199901e-01
9.569105550987608289e-02 7.598037344141897464e-02 -7.187254184686185932e-01 3.830040665513786968e-01 9.385104350492083636e-02 -9.189667385918516285e-01
9.858866686064184093e-02 7.298716811636994650e-02 -7.233806082347299382e-01 -3.831077447146306048e-01 -1.156403554914308129e-01 9.164364484902840502e-01
6.947827933705108538e-02 -4.787064372552978647e-02 -7.419303986798840844e-01 1.799622752735608733e-01 1.740413982366462997e-01 -9.681545182346649181e-01
4.444533010907096571e-02 1.345459675437596092e-01 -7.338183159909799080e-01 2.780007956501901467e-01 -1.756407073902364890e-03 -9.605792380912946404e-01
