2.139873465512269479e-02 -1.156855675100098291e-01 -8.583136636299929512e-01 6.961151208961722237e-01 -4.186318302296570398e-02 -7.167085965487600685e-01
9.117593910774146604e-02 1.224214421115486229e-01 -8.129913872738407932e-01 8.514639579905203259e-01 -1.649636538479587189e-01 -4.977912425427432064e-01
-5.685142464729010109e-02 1.464607749756402857e-02 -9.226609833047041409e-01 5.543440426050664227e-01 2.207546507222220983e-02 -8.319948054345756017e-01
9.745002972354259441e-02 2.439548748660963773e-01 -8.686888371378375107e-01 -7.455808726623394111e-01 3.265091466379941298e-01 5.809483105077365428e-01
6.332261610309615485e-02 1.684207402905294748e-01 -8.613699348895744734e-01 5.997633117167470163e-01 -2.104150315444662522e-01 -7.720165052760863400e-01
2.723189277331463515e-02 -4.428620948302223331e-02 -8.662228180775951580e-01 -7.022668133074523311e-01 3.249601794453031017e-02 7.111718018487126480e-01
1.766424469808164713e-02 -3.377534733824782281e-02 -8.752369711695797694e-01 -6.701361747100444965e-01 4.332197927530333920e-02 7.409728155989656617e-01
7.406646918734099971e-02 9.577037014651897107e-02 -8.389277589100475607e-01 -7.972968288221978783e-01 1.794700197368959971e-01 5.762883642463250133e-01
-1.991985734506599229e-02 1.081890683516020663e-01 -9.067604871647002573e-01 -4.662793137637269991e-01 1.174877918661608976e-03 8.846367736070573917e-01
7.714401708150739334e-02 1.412951403868492883e-01 -8.396662737697807577e-01 7.139701459198749545e-01 -2.059741826891795524e-01 -6.691944910119007606e-01
9.249271956172094855e-02 1.158836551867079012e-01 -8.086367050933096490e-01 8.460598815083864022e-01 -1.640853004494319811e-01 -5.072067537784119562e-01
-4.555960092022986324e-02 1.298672263301829111e-01 -9.125920989401096195e-01 4.380866597516125394e-01 2.166471139456382922e-02 -8.986716412727537850e-01
3.151116041023527964e-02 -2.325775910245456157e-02 -8.571157513393661276e-01 -5.368452220951937422e-03 -9.869528988517701773e-01 -1.609197165323102974e-01
-2.103908740335896574e-02 -2.011254268228714337e-01 -9.232826397543801855e-01 -4.273016791985400631e-01 8.872829823574068797e-01 1.736150459293598070e-01
-4.049834597627681269e-03 3.445504935145758674e-02 -8.954001498357583300e-01 -5.541670668664757660e-01 4.072260065686560127e-02 8.314087633627326168e-01
-9.766654714462782994e-02 -3.096758906838468703e-03 -9.520832859996251063e-01 5.705125090733258464e-01 8.583991071384416971e-02 -8.167906627279093446e-01
4.033062783346376412e-02 1.437695311398076159e-01 -8.789927358877486219e-01 -4.742827491503827098e-01 1.099995754328483288e-01 8.734735069038719324e-01
7.683226098774303958e-02 -4.616331444690942309e-02 -8.101135424323668843e-01 -8.137676586167882364e-01 5.354140234360352246e-02 5.787188574985533407e-01
9.466099392289670234e-02 6.970044887321176497e-02 -7.924822065555314765e-01 8.438445160392458178e-01 -1.164085626282055780e-01 -5.238086285059895264e-01
-1.820223391757790771e-02 -7.200259091554381263e-02 -8.956281322614939588e-01 -5.453278237287001451e-01 3.215821400780665140e-01 -7.740817087686097109e-01
-1.964085417345007994e-02 1.391764151537127625e-01 -9.065785000903154867e-01 -4.066653948136511598e-01 -1.402363098174155874e-03 9.135760997523949545e-01
-5.290118797303210857e-02 1.568049453140671623e-01 -9.153272233826835746e-01 4.360876181640733207e-01 -8.937915487298740691e-03 -8.998598240563511208e-01
-1.125795925795584213e-01 -8.369307846840474963e-02 -9.784230589907048081e-01 6.310841557463199303e-01 1.868825081437961722e-01 7.528663337643931586e-01
6.855787427865019101e-02 1.684770728192395706e-01 -8.662870484291870232e-01 -6.088239674634059462e-01 2.087734599176966910e-01 7.653411128876531633e-01
9.185373426156136223e-02 1.611414927919374573e-01 -8.350479700887438739e-01 -8.629661925071189232e-01 1.970830417517720756e-01 4.652393203971859070e-01
-2.015244603926788156e-02 -1.133843282108630002e-01 -8.965956007632789326e-01 6.585316245096166643e-01 1.010073506493743833e-01 -7.457436655014371141e-01
-5.466250457285521530e-02 1.366671885275764498e-01 -9.140454562529137794e-01 4.721453166827593861e-01 8.899881752847105254e-02 -8.770165394181973495e-01
-2.231970093380518730e-02 1.580695495080908786e-01 -9.073825322441634311e-01 -3.888677003167693158e-01 -2.070540036636926359e-02 9.210609089772594515e-01
6.416421179408794695e-02 -5.325875110003139290e-02 -8.261577355424193359e-01 -7.755338591610644317e-01 3.955275657788593496e-02 6.300657209703102168e-01
6.329507265032550956e-02 -6.545487354450378603e-02 -8.175124055554052749e-01 7.552854215402617921e-01 -3.324670083539202348e-02 -6.545522048639901280e-01
1.005375318616619738e-02 2.416202579433006023e-03 -8.743371715010568312e-01 6.363324203198131856e-01 -5.497394764723019522e-02 -7.694536476812674497e-01
-2.564267942952541332e-02 -1.483738874440628797e-01 -9.104710742532670098e-01 6.724184214824543426e-01 9.452298830349943615e-02 -7.341109392545658308e-01
2.051504000551978429e-02 1.940784474901005863e-01 -8.824766347541623812e-01 3.288137069889813802e-01 -1.189982363144779370e-01 -9.368676351813034486e-01
8.571605159646888961e-02 1.819518841272644780e-02 -8.050969468812078089e-01 -8.487282145256145327e-01 9.199694578166303649e-02 5.207657629251446485e-01
5.335523621953746493e-02 -7.372906639718240784e-02 -8.380708627930386623e-01 -7.390405006485956108e-01 7.133411003745149248e-03 6.736232276640442551e-01
-3.274381713901926977e-02 8.132189905160436272e-02 -9.063122358119153343e-01 5.070738698038217418e-01 9.227430925311877474e-03 -8.618532039046413740e-01
-5.464625960105313346e-02 4.117812345571521260e-03 -9.295334810897795119e-01 -5.600916386521068713e-01 -5.397261849489091989e-02 8.266706192703371370e-01
-5.228010590269029784e-02 3.590460525982117762e-02 -9.187715735241639425e-01 5.500228085394270883e-01 3.907482019680467988e-02 -8.342350199512054143e-01
-3.096131271683812483e-02 -1.043982347220934331e-01 -9.054400074234985052e-01 6.016666846226880194e-01 -7.578389504658869513e-02 -7.951440132873479616e-01
-3.808348389460405881e-02 1.336466396728930861e-01 -9.089581196451513856e-01 4.186295632836909975e-01 2.231847309548411901e-02 -9.078827977793126891e-01
3.006493729197534659e-02 1.437250673056776062e-01 -8.844353451590257764e-01 -4.473927778694601898e-01 9.486107647810999854e-02 8.892924594753189860e-01
-4.424028560963524925e-02 -2.709231845742559111e-02 -9.155328888755690508e-01 5.892853687275950714e-01 2.381111426967187292e-02 -8.075740121133286875e-01
-5.035624049565731730e-02 2.304781267223170518e-02 -9.169022589643786025e-01 -3.287527900592548402e-01 -7.485038197264222148e-01 -5.759024525761384794e-01
-9.063033937607226087e-02 -1.203557338206526217e-01 -9.635417513521900013e-01 6.531036257270964596e-01 1.420955414909232939e-01 -7.438175254392183078e-01
-5.174605111129231341e-03 -1.077864870231910466e-01 -8.894145853687425163e-01 2.199910073131883248e-02 -9.764967699160848058e-01 -2.144063849573199509e-01
6.619396249940376342e-02 1.635205199689816480e-01 -8.641378399180265069e-01 -2.307018204415915152e-01 -9.611593623334728775e-01 1.514904295447334348e-01
-3.827533961546256136e-02 1.477370799421056091e-01 -9.087002001912435345e-01 4.186295632836909975e-01 2.231847309548411901e-02 -9.078827977793126891e-01
5.072732517882895531e-02 1.940461620427004208e-01 -8.741645930240716789e-01 3.733033306652173700e-01 -1.418924118581198213e-01 -9.167939609156143810e-01
-7.184823722799620060e-02 -1.510137697101971710e-01 -9.528739415543339142e-01 6.603969986894374644e-01 1.512080871359055556e-01 -7.355351239109411132e-01
1.427372240826719867e-02 -1.294901341772799752e-01 -8.803912477648284662e-01 -6.968526739820567473e-01 -7.035004535563586792e-02 7.137557158317662243e-01
9.010741863680986341e-02 5.659271066790886456e-02 -7.967390555599432878e-01 8.361069088681563066e-01 -1.181050534455105744e-01 -5.357018137859619333e-01
6.420280790122336045e-02 2.219744235273758415e-01 -8.734444211736844821e-01 3.750186603558529064e-01 -1.767624811608790869e-01 -9.100088074511978320e-01
-9.812670002993309493e-02 5.087791689598867087e-03 -9.514809019999789230e-01 5.630330919210181362e-01 1.004052349805507754e-01 -8.203124564398365237e-01
-2.232796878907706076e-02 -1.966496950292085100e-01 -9.247222082404428223e-01 -7.024285943472977634e-01 -7.540102367846832077e-02 7.077490766306362424e-01
-5.510628527314154895e-02 -3.452227441518799234e-01 -1.014515905873537793e+00 -6.448007617042362805e-01 -3.293417180657077226e-01 6.897579361248149521e-01
1.153826776033845328e-02 8.403496473809531075e-02 -8.851747687362608863e-01 4.526501442887098658e-01 7.469347975233420200e-01 4.870279818698042273e-01
9.458573406026062058e-02 1.678495168346803290e-01 -8.327019201616082666e-01 -8.800932714816812608e-01 1.878386291526668306e-01 4.360647691464173969e-01
3.057619611161149775e-02 1.374000527691096873e-01 -8.755594409010606372e-01 4.821064959304208752e-01 -1.124280895639579447e-01 -8.688689494156698334e-01
7.422995358054515665e-03 1.041365340358920699e-01 -8.934269841537434420e-01 -7.312341153709475128e-01 -4.770539493207823778e-01 4.875614812053062908e-01
-5.369257068719175685e-02 -2.610965038247484160e-01 -9.771877122685945771e-01 -2.019042327216379329e-01 -3.872314620760360926e-01 8.996035102129948946e-01
1.302846993368589855e-02 1.701357214261157991e-01 -8.871544166829629097e-01 3.445368049851130765e-01 -4.056114029608801075e-02 -9.378961477202745201e-01
4.894920935917239369e-02 7.869852215267541737e-03 -8.395867012814596242e-01 7.036313640783008472e-01 -7.443292448819217866e-02 -7.066559581843517845e-01
-1.213877137868806244e-01 8.243209754977288625e-03 -9.672903782215436230e-01 5.676384509188131533e-01 1.161668307708528802e-01 -8.150410152054594626e-01
-1.077946538894709455e-01 7.010428517574476825e-02 -9.505908817521621090e-01 5.419688999705636334e-01 8.989236880523865381e-02 -8.355770900971855042e-01
-4.297497540768379504e-02 2.077420246871893375e-02 -9.229296300687787058e-01 -7.507176652811626827e-01 -5.426386632373189078e-01 3.767841135117241391e-01
3.102741355867622008e-02 1.168263720991939009e-01 -8.722121931515015580e-01 5.169722908157597940e-01 -1.368193984454943724e-01 -8.449971022066991022e-01
1.690124616122194029e-02 1.810135444375751135e-01 -8.924300432431384600e-01 -3.275403919110721485e-01 2.370713764328720788e-02 9.445397097483533289e-01
5.097080457005915416e-02 2.174129464015360225e-01 -8.833223249366410901e-01 -2.643167957936873314e-01 5.798673645982441172e-02 9.626911082253211127e-01
-4.546228132783529385e-02 -1.817849024025099403e-01 -9.308784430791587905e-01 6.320276128084701961e-01 1.882313886932648339e-01 -7.517380135115102613e-01
-4.790248156033168059e-02 -1.780629362673646909e-01 -9.323329931992396791e-01 7.208050561619863128e-01 1.489377419054833951e-01 -6.769472801093238123e-01
-7.114607463910461592e-05 -2.998487731038279244e-02 -8.899733820232141879e-01 -1.623948565704311231e-02 9.824261663231182995e-01 1.859438270802652171e-01
3.454241469317471253e-02 1.216795775096664312e-02 -8.634908296317765908e-01 -6.645689926237928757e-01 9.366640588030299142e-02 7.413330280329233357e-01
4.798025955712054147e-02 5.523531707454536720e-03 -8.403043630628178606e-01 7.036313640783008472e-01 -7.443292448819217866e-02 -7.066559581843517845e-01
-6.907330341971192056e-02 1.066954262907504891e-01 -9.312646650694313966e-01 -4.362540428362827738e-01 -7.340726269526237635e-02 8.968242770423797694e-01
8.234188281770719875e-02 9.770499605967811196e-02 -8.285094957072812738e-01 -7.860848202648517136e-01 1.651920847983615048e-01 5.956359882253141613e-01
-6.198778475159173740e-02 -4.047265025217761103e-02 -9.297978491046104965e-01 6.027125541781527263e-01 7.723251282970673703e-02 -7.942120094773539307e-01
9.131914667674877195e-02 1.841324293954572366e-01 -8.460086053832543973e-01 -8.257500748568805671e-01 2.238574673835399542e-01 5.177109697219900442e-01
2.409496620995246752e-02 1.937425241904298077e-04 -8.717919587900180289e-01 -6.671809993052486565e-01 7.002035628874213324e-02 7.415973731555737247e-01
4.273228547826100204e-02 4.806037859117760769e-02 -8.610618345175700128e-01 -6.584907691769252835e-01 1.190778199400633064e-01 7.431085921365079283e-01
8.361793574591730449e-02 1.579401262470271350e-01 -8.514913222036675222e-01 -7.475114370325244284e-01 2.316316033242370453e-01 6.225539750471548173e-01
7.485544149132165176e-03 1.781641794758441755e-01 -8.896218764462677786e-01 3.822779930853559827e-01 -4.581755131162943556e-02 -9.229107692482727554e-01
2.445117111597046831e-03 -1.118960836554129951e-01 -8.807768360901407911e-01 6.758843314173128558e-01 5.831069046967199410e-02 -7.346973757415512507e-01
8.173793090630120106e-02 1.569392425909284516e-01 -8.534217942643688160e-01 -7.526808279016408143e-01 1.965449708917549054e-01 6.283642619742626501e-01
5.171389854428639493e-02 -9.845066975671358522e-02 -8.398467636086789367e-01 -7.498275182811132700e-01 -9.153377918679310443e-03 6.615700329527212098e-01
4.604769812021754227e-02 -1.492935776158625938e-01 -8.487021964671807028e-01 -7.499425543070988853e-01 -4.098837355711309333e-02 6.602318672046106895e-01
-4.096414674410339685e-02 -1.830745248016177606e-01 -9.457181750749932281e-01 -6.277063787818535356e-01 -1.898757820630189719e-01 7.549383348476411681e-01
6.751503938268307858e-02 2.256101075707140358e-01 -8.728125977467017238e-01 3.502489821440915030e-01 -1.721344346097606337e-01 -9.207037454733232318e-01
3.025843344487707740e-02 -6.083137182997978842e-02 -8.624971073145277778e-01 -7.062440922437145385e-01 -1.443054218679197184e-03 7.079669482153622129e-01
6.678591924826782211e-02 3.065267884804511594e-02 -8.232742045232048778e-01 7.570623088875392259e-01 -1.197691092068922797e-01 -6.422709871554649341e-01
-2.804481057278222431e-02 2.411832857073780562e-02 -9.030597070126425985e-01 5.569375652863622905e-01 -1.280747023505194974e-02 -8.304556081327147954e-01
-5.976046336750399923e-02 -3.226291204834989546e-01 -1.004689749729271719e+00 5.347123288647135375e-01 -3.864711032901225196e-01 7.514804133720252022e-01
-7.613835672485959327e-02 -1.104474014652974123e-01 -9.493135825625782509e-01 6.375788145288069364e-01 1.081209838514695792e-01 -7.627601904367005137e-01
4.268477264763506640e-02 1.486448502594583942e-01 -8.663551267918332410e-01 5.816495768566153357e-01 -1.932625499347652154e-01 -7.901476802061957461e-01
-2.838001373748804627e-03 3.803108054869371729e-02 -8.947675695743961821e-01 -5.541670668664757660e-01 4.072260065686560127e-02 8.314087633627326168e-01
3.656114853436783635e-02 -1.258650615039507738e-02 -8.591958211508878840e-01 -7.043542430429734491e-01 8.177911152806251194e-02 7.051221718433201557e-01
4.531002123459965808e-02 -2.501609555877365790e-02 -8.400465276529043290e-01 7.036209620386145724e-01 -4.802576423147667667e-02 -7.089506807598373594e-01
3.352267839490846724e-02 -8.918919189980660522e-02 -8.497972606625702197e-01 7.229967935314605132e-01 2.163362162060245009e-02 -6.905125798700577633e-01
-4.433052723661561750e-02 -1.027122256135469536e-01 -9.214279948758498096e-01 6.410937864340918724e-01 8.266270649816036264e-02 -7.629977941973343780e-01
6.895190711680276863e-02 1.341008953957910088e-01 -8.461921691162731518e-01 7.139701459198749545e-01 -2.059741826891795524e-01 -6.691944910119007606e-01
-3.778480962743347576e-03 -3.480582303410514194e-02 -8.956606794022542450e-01 -9.250381985679981822e-01 1.669577955537744907e-01 3.412175635776925620e-01
-8.076994825243456744e-02 1.021401572395728430e-01 -9.375143912525557566e-01 -4.569843333687182985e-01 -8.319869531224124981e-02 8.855751216886622590e-01
-6.733836893317989014e-02 1.435491053868749034e-01 -9.239358679748028713e-01 2.430311101155756548e-01 -5.822301183999215590e-01 7.758504809201347552e-01
2.713380221401882897e-02 -9.026516593341320227e-02 -8.657195764044767206e-01 -7.017039502420086006e-01 -1.949975117082190443e-02 7.122017452372865209e-01
-7.387044216092196816e-03 6.259595559610582616e-02 -8.986915004258030359e-01 -5.226752974984641975e-01 1.791838412664049224e-02 8.523435134352710385e-01
4.428435389517196286e-02 -6.963891118324413987e-02 -8.480659548504811962e-01 -7.390405006485956108e-01 7.133411003745149248e-03 6.736232276640442551e-01
-5.793407920816755902e-02 4.293035692458194857e-02 -9.221143538740141921e-01 5.165202765256352579e-01 2.586886914804026674e-02 -8.558841075442881197e-01
-4.366292639981472767e-02 -2.577782757129787883e-01 -9.660302333501467054e-01 -9.653361922581931154e-01 -4.532433351621172751e-02 2.570442388145748325e-01
5.125215089819696451e-02 -9.489165616677305848e-02 -8.403208692656917167e-01 -7.498275182811132700e-01 -9.153377918679310443e-03 6.615700329527212098e-01
-3.697161370704024619e-02 -4.324095313150663061e-02 -9.196555755783294428e-01 -6.011664693560806461e-01 -4.516837792759386544e-02 7.978462845419125316e-01
-4.179790574569493961e-02 1.824986748066274866e-02 -9.236170017051679171e-01 -5.974347883080641797e-01 -1.004613440624046311e-01 7.955998944623319247e-01
3.301600500302948049e-02 -1.070393060307176375e-01 -8.506593141347774667e-01 7.118534308328114957e-01 1.280212598642946863e-02 -7.022113631819006940e-01
-8.657662607840026225e-02 4.640286933955059534e-02 -9.462878077546805766e-01 -5.008981129809164656e-01 -9.310225328989341076e-02 8.604841955808958387e-01
-4.858391342809210978e-02 -1.005214757225798283e-01 -9.260932472307922270e-01 4.576115245577072055e-01 8.044525658288004255e-01 3.787449827039702233e-01
-1.903448805918220646e-02 -9.480614158567708671e-02 -8.989330654048647284e-01 6.460285855432179591e-01 4.839704563067621229e-02 -7.617773904726045098e-01
1.789889569569882641e-02 -7.840832932806117428e-02 -8.745747773125119862e-01 -6.747714848408065125e-01 -7.794744513663271791e-03 7.379855589398072180e-01
1.338355324181467361e-02 -9.494489548433147907e-02 -8.792950779600593458e-01 -6.742015597204980004e-01 -3.070266036334326140e-02 7.379089398544109724e-01
-4.941224241639840392e-02 -1.202721597548673665e-01 -9.279185466985490072e-01 6.534107108704628741e-01 1.051628478140872736e-01 -7.496634033747329173e-01
6.060764886356963255e-03 7.825765793691573380e-02 -8.832142027425292641e-01 5.390364314769173770e-01 -6.502902176079705665e-02 -8.397683918018492566e-01
3.226297927308186680e-02 -5.600484177845438394e-02 -8.512254105828703787e-01 6.950137331792151096e-01 -3.178891156344581387e-02 -7.182933772449124898e-01
-2.318287403104064143e-02 -1.730113881954406865e-02 -8.965964656830726076e-01 7.984606269572933623e-01 5.042709224238153265e-01 -3.288943052057917704e-01
9.130394955260526246e-02 3.245715233137199535e-02 -7.985396401523137122e-01 -8.484525442302045528e-01 9.401489112580800611e-02 5.208545674522735425e-01
4.001378771550324898e-02 -8.620038837707942603e-02 -8.429091108102577667e-01 7.204816486116809582e-01 -9.525098869756561115e-03 -6.934085855434121148e-01
-4.027445866042121680e-02 5.090863350331113237e-03 -9.116846009726765621e-01 5.740181010946326934e-01 1.097669266571312668e-02 -8.187690344864260172e-01
4.544900806460955983e-02 -8.875873754334299981e-02 -8.465564118793929005e-01 -7.355160068618300517e-01 -1.976799421363701834e-02 6.772188937520852159e-01
1.120494656964077587e-02 -3.379874158357211444e-02 -8.715646719303753454e-01 6.681373223596147604e-01 -1.957668271403243537e-02 -7.437803922960313230e-01
-1.352556822249044444e-02 1.249500227637855426e-01 -8.969999363098773992e-01 4.633624941731698255e-01 -3.612365520843281025e-02 -8.854322563177835503e-01
1.389319829042419581e-02 -6.943063236108647229e-02 -8.781425321281807195e-01 -6.747714848408065125e-01 -7.794744513663271791e-03 7.379855589398072180e-01
5.919521060482518804e-03 9.803122911265345352e-02 -8.851303400170388302e-01 4.849208296313792244e-01 -7.287300206340739661e-02 -8.715166748604878943e-01
-2.313203986095761430e-02 -1.273149343643689528e-02 -9.076888619349098297e-01 3.841655403368075539e-01 7.384260802034593452e-01 5.542055229723741316e-01
6.270843955883913245e-02 -2.171599875440529889e-02 -8.210762170686217720e-01 7.450537617010509761e-01 -5.088609178228268443e-02 -6.650605219363411313e-01
9.372768752127958077e-04 -4.163010194998205404e-02 -8.801649431511757715e-01 6.422662975247456218e-01 -9.019720700748858414e-03 -7.664285013635225852e-01
1.992827658995600590e-02 5.274087388798994608e-02 -8.711550174610411812e-01 5.985662518267235166e-01 -9.290393747028884153e-02 -7.956678330664271881e-01
-5.172507215286292065e-02 9.767500913604858226e-02 -9.165852663627137575e-01 4.747398922637973695e-01 1.067810695026357413e-02 -8.800613687268159513e-01
2.384459441253495432e-02 -1.229850355127932449e-01 -8.609055400725516005e-01 7.057826903040734789e-01 4.222234724683835566e-02 -7.071690515429188695e-01
-7.346370015802248035e-03 -1.591655386844378905e-02 -8.874641174718079784e-01 6.116738286707973371e-01 -1.036435226125535444e-02 -7.910421654510032541e-01
-1.720692633927770401e-02 -3.156915213961837552e-02 -9.040688338779158117e-01 -6.122853519702561309e-01 -1.286044836053351799e-02 7.905322616001358993e-01
-3.605682488336576716e-03 -6.639336611294749217e-03 -8.846931800807790180e-01 6.116738286707973371e-01 -1.036435226125535444e-02 -7.910421654510032541e-01
3.268015415236939086e-02 2.013797366116693299e-01 -8.818526618259350247e-01 3.101899402272939033e-01 -5.796870074988307031e-02 -9.489055963135416549e-01
-4.706487498985356677e-02 -2.653388939601049601e-01 -9.624245369769085512e-01 -5.389814413270416216e-01 3.738393329952122146e-01 -7.548133272609325317e-01
-7.834710712568677959e-02 7.415081903367895522e-02 -9.328078226021039310e-01 4.994123200301588961e-01 7.024053453635423216e-02 -8.635123634958223882e-01
-9.148902913416852301e-02 -9.531208011238342936e-02 -9.678797264059210148e-01 -6.114809475517852810e-01 -1.362489777888142850e-01 7.794403548910423529e-01
-2.399566353750840972e-02 4.893216668442700729e-02 -9.006631014920873923e-01 5.336296142919022545e-01 -2.881141458676073769e-02 -8.452273878313372180e-01
2.812834303145586926e-02 8.871730174403623381e-02 -8.818811934297766664e-01 -4.945503095316429731e-01 7.943117342649479162e-02 8.655118023633451285e-01
-4.359609102898943239e-02 1.017445508147316324e-01 -9.121507953554344184e-01 4.747398922637973695e-01 1.067810695026357413e-02 -8.800613687268159513e-01
8.010789622779915242e-02 -2.341930574587756594e-02 -8.075692669729124251e-01 -8.280945007359867827e-01 4.483894074144675890e-02 5.587924187424178069e-01
1.826350953215698930e-02 7.859719908611362271e-02 -8.708844055292316311e-01 5.659902918210865108e-01 -9.792391686451924759e-02 -8.185755286289665422e-01
-1.073234312193022469e-02 -1.606885254016794107e-01 -8.984122361135616908e-01 6.803515545983086499e-01 1.081246512178685448e-01 -7.248660717364822093e-01
1.542818361657406073e-02 -4.212182677056555691e-02 -8.770403484315814069e-01 -6.712994251921660105e-01 2.098213301325145899e-02 7.408892169757106405e-01
-1.861892007440961797e-02 1.173838373011227565e-01 -9.089705977179816099e-01 -4.014728353499699698e-01 5.337551739692622532e-02 9.143142876597007973e-01
-1.024806444432978594e-02 -1.523389047863645158e-02 -8.986529570747429085e-01 -6.015902872759026909e-01 5.086633517525171282e-03 7.987886156016217321e-01
5.378620697456270444e-02 -1.333578385119685815e-02 -8.319609965753649305e-01 7.399667487015162415e-01 -8.651773250861470588e-02 -6.670561391499779669e-01
-6.540559416855966368e-02 -1.835805619004632697e-02 -9.306441868893868818e-01 5.880115423877234626e-01 6.894323832300840171e-02 -8.059089625437525495e-01
3.494165743481214559e-02 1.284282197420638094e-01 -8.799291823367555443e-01 -4.810158812022207742e-01 1.170707611076648169e-01 8.688602643261590375e-01
8.384307501128912543e-02 -3.984701203420144139e-02 -7.929050904624577178e-01 7.967836600609516928e-01 -3.226538330920885461e-02 -6.034026384594146641e-01
-4.972094392479103897e-02 -6.410587020756064111e-03 -9.268004858270024737e-01 -5.629483544504790826e-01 -4.347705071716029962e-02 8.253477426409037143e-01
9.247708833043630228e-02 6.134887846060495947e-02 -7.940891303315934513e-01 8.361069088681563066e-01 -1.181050534455105744e-01 -5.357018137859619333e-01
7.872093885478799458e-02 1.496723020641238244e-01 -8.499750121028537553e-01 2.489966625806484118e-02 9.925930973830688897e-01 1.189073153667282029e-01
-6.635327131823907931e-02 -6.428450086277813502e-03 -9.381954837986075102e-01 -5.624102139286631941e-01 -7.875051721358232448e-02 8.230996946344399934e-01
-6.469659346005271483e-02 2.842353151538079895e-02 -9.234877628384136061e-01 4.980289985408435371e-01 -3.937302297578474525e-02 -8.662660570945585059e-01
5.378339340847720917e-02 2.407698558864828330e-03 -8.340060603491497027e-01 7.399667487015162415e-01 -8.651773250861470588e-02 -6.670561391499779669e-01
-1.795760711148301422e-02 1.419283228334066727e-01 -8.994005598860916884e-01 4.153208403937949100e-01 -2.208482028957492807e-02 -9.094068727733307655e-01
3.824334657304820362e-02 1.999015590029491196e-01 -8.797850375315998672e-01 3.630508619946076765e-01 -1.044964294097409374e-01 -9.258912289494848347e-01
-1.091012033292483169e-01 5.455089760608479443e-02 -9.531115827612947067e-01 5.419688999705636334e-01 8.989236880523865381e-02 -8.355770900971855042e-01
5.725715050035028869e-02 1.706300960689549270e-02 -8.418108044190100170e-01 -7.184528196173084469e-01 9.998355144009919704e-02 6.883522611464016894e-01
1.726952516342147859e-02 2.019239317127205779e-01 -8.870484036334965738e-01 3.114362735289878947e-01 -2.846424916197725155e-02 -9.498406361332526471e-01
-7.614098136698821406e-02 -1.439845512090168478e-01 -9.552831271993184048e-01 6.603969986894374644e-01 1.512080871359055556e-01 -7.355351239109411132e-01
-3.268184404155018152e-02 -4.070282949067558637e-02 -9.162066795877207293e-01 -6.156458350880588126e-01 -3.907837301822574688e-02 7.870534203603812839e-01
7.340974805984752660e-02 1.836033247014959291e-01 -8.669760590617126006e-01 -6.317880598694904926e-01 2.562953241101258994e-01 7.315439523676144917e-01
7.460141041584462951e-02 7.217887376572552915e-02 -8.318020491147103401e-01 -7.759280306010886141e-01 1.412367946523197804e-01 6.148071723425599933e-01
-5.353817735817036072e-02 -1.023669011812566310e-01 -9.381769568422474448e-01 -6.399384375161538685e-01 -1.056958979621563655e-01 7.611223116841057124e-01
-8.114627478818993433e-02 -1.462025656993864477e-02 -9.490870505214769048e-01 -5.624102139286631941e-01 -7.875051721358232448e-02 8.230996946344399934e-01
-6.811784406893638122e-02 4.143755953812613968e-02 -9.331561911611584437e-01 -5.452916418337144799e-01 -8.139557804445781697e-01 -2.003322560826131526e-01
-9.861262796046647849e-02 -7.929825609550650301e-02 -9.630962184191756981e-01 6.261025608563406397e-01 1.225346149814535990e-01 -7.700524991326757052e-01
-2.635936852191339205e-02 -4.831385939879628139e-02 -9.026950881097078883e-01 6.293097405853009807e-01 3.466665151907966091e-02 -7.763810106364756880e-01
-2.220239062745275882e-02 1.292299600748900157e-01 -9.012639852656174622e-01 4.217909654230383998e-01 -5.674539090733077447e-03 -9.066753449243056817e-01
3.964956028230424978e-02 1.340837478486902323e-01 -8.696919338450952441e-01 5.326296252684473709e-01 -1.439863343877974822e-01 -8.340105621609109621e-01
-5.556270045848678979e-02 -2.454802307842664510e-01 -9.692794497800085729e-01 5.170154168472471667e-01 -3.790141177789242977e-01 7.674916007791429129e-01
-6.868372334526733070e-02 6.655799066520512453e-02 -9.341217231380597452e-01 -4.764732922435697127e-01 -6.942924700857272535e-02 8.764432562570130258e-01
-3.715251355908128633e-02 -2.075476831954127521e-01 -9.449719738671351621e-01 -9.556681592505318346e-01 2.644723984514883719e-02 2.932557124750908017e-01
5.383874712663294648e-02 1.509628681510737092e-02 -8.357403539011716287e-01 7.090005276903281750e-01 -9.798812026144153309e-02 -6.983670811417624913e-01
-9.770510272746305014e-02 5.071513629244599197e-02 -9.432466089805646714e-01 5.758133071238179523e-01 1.432654860091140681e-01 -8.049310752217881948e-01
5.167733385853848921e-02 8.736204580173223544e-02 -8.509431730829219998e-01 6.503568018249853422e-01 -1.442879737085884240e-01 -7.457995782802818718e-01
-1.988448405836184055e-02 -1.413521117328950076e-02 -9.057793759058753169e-01 -5.881823390547883390e-01 -1.321127927561382368e-03 8.087272659216067083e-01
3.347992526026367932e-02 9.916728065803644132e-02 -8.763956082714237095e-01 -5.566255486589102297e-01 1.113594278251137798e-01 8.232661030399772706e-01
-8.780283224128673791e-02 -5.610106039957781648e-02 -9.511462517014683815e-01 6.091246824091034462e-01 1.071383540649749333e-01 -7.858043613828170626e-01
-5.173578524395489736e-02 7.128183759974479616e-02 -9.174538448960419812e-01 4.944727248122342544e-01 1.673103371667894815e-02 -8.690321035079979772e-01
7.996177778869303920e-02 -6.395909362705751167e-02 -7.972308289451909280e-01 7.799871296223626072e-01 -1.187259495876659410e-02 -6.256829221837625354e-01
8.109522193954710190e-02 2.435600772397466807e-01 -8.714615948843150717e-01 3.422088694691157729e-01 -1.932672257037966745e-01 -9.195329625007616636e-01
-3.339245943303910391e-02 2.403167679913536733e-02 -9.146798711438663965e-01 -5.613662317599030782e-01 -1.996005757608119296e-02 8.273267491996412204e-01
-9.055971318618284693e-02 4.543872790899710495e-02 -9.487107279739114274e-01 -5.008981129809164656e-01 -9.310225328989341076e-02 8.604841955808958387e-01
6.544241968515818186e-02 7.398020442450806144e-02 -8.450424656845481053e-01 -7.475609852138204170e-01 -4.551399330045905467e-01 4.837356868897714768e-01
3.405149300621649472e-02 -8.864758790882654171e-02 -8.588311828929193759e-01 -7.204265438819733580e-01 -7.624841869601424980e-03 6.934893342054646581e-01
6.108150109165000341e-02 1.335610044174985189e-01 -8.629157661546705826e-01 -6.575619654407240944e-01 2.060231133386461744e-01 7.246838885859014923e-01
-7.378195111455808364e-02 1.215842351164989933e-02 -9.416460102480516126e-01 -5.399346251815835274e-01 -8.049659923902442726e-02 8.378489709016623266e-01
-6.672765989725933100e-02 -9.197247997691786192e-02 -9.476145818220034212e-01 -6.239195178078531523e-01 -1.134461830517854292e-01 7.732104492629394699e-01
4.689737450413868775e-02 7.127303671947760044e-02 -8.648974892195121500e-01 -6.550229695683742470e-01 2.171161906810504805e-01 7.237440632447206257e-01
1.394989589393433836e-02 -3.742432295802577275e-02 -8.690034590139024129e-01 6.681373223596147604e-01 -1.957668271403243537e-02 -7.437803922960313230e-01
3.378441582583918690e-02 -5.476642324013483894e-04 -8.629912907588339621e-01 -6.691183364152496482e-01 6.885019745956325044e-02 7.399596625375387537e-01
6.532020730251955620e-02 -9.129273533569018384e-02 -8.151123529127468625e-01 7.608927684787871737e-01 2.537932521936041297e-02 -6.483811261350045374e-01
5.593088358232685409e-02 3.297235863789321070e-02 -8.455059087538200346e-01 -7.184528196173084469e-01 9.998355144009919704e-02 6.883522611464016894e-01
-1.456141666342257099e-02 -4.747890674984225207e-02 -8.899785450812904841e-01 1.254739510075747189e-01 1.912772262845814364e-01 -9.734830816832029665e-01
2.547135377761268471e-02 9.820012551528081723e-02 -8.730719908192746681e-01 5.469384696691531600e-01 -1.073046129727603937e-01 -8.302674451227933794e-01
-6.563110228994099848e-02 -1.816143334985285129e-01 -9.541766454898076288e-01 7.000330599536472853e-01 2.018814761074285147e-01 -6.849799884497496105e-01
9.457173741072182060e-02 1.442039730896434724e-01 -8.148221108367336152e-01 8.467166878207669223e-01 -1.855294998689495378e-01 -4.986478268720395679e-01
8.592069029078467081e-06 9.208212367149487543e-02 -8.957362974625675545e-01 -5.004154158376791228e-01 3.754390222619952838e-02 8.649710209004878303e-01
3.908218806694809672e-02 1.034623341498760729e-01 -8.644122645252833026e-01 5.942745860000859803e-01 -1.658520462514762317e-01 -7.869757398983938668e-01
-1.376242999449997506e-02 1.132320397367067855e-01 -8.931134192004347438e-01 4.438528790735767893e-01 -1.170513974634477677e-01 -8.884219673612031576e-01
2.860206922604535684e-02 1.453649486525667445e-01 -8.852802703687628894e-01 -4.317789587785959560e-01 7.293640239013560178e-02 8.990257015027188769e-01
4.850227469956724241e-02 -1.133860648246571845e-01 -8.348208947316280160e-01 7.310514102333712794e-01 4.764604708002081329e-02 -6.806568076449742710e-01
7.760200972762863747e-02 2.176203310782892641e-01 -8.660544247040210530e-01 5.100741944649535009e-01 -2.584001853156857043e-01 -8.203984765769303245e-01
-2.431589105823290034e-02 -6.677275548349892453e-02 -9.103362329441361256e-01 5.439159265854286440e-01 -3.316005205171178583e-01 7.708414620396928374e-01
5.732014652732149440e-02 -1.023073433591340509e-01 -8.247011639498391666e-01 7.473451505799985073e-01 2.448946709603405658e-02 -6.639845569784823542e-01
-4.173080280470700676e-02 -6.905293286438592137e-02 -9.251405384347931582e-01 -6.153756565292111125e-01 -6.588940206976527658e-02 7.854752625297189983e-01
2.268209886105438354e-03 -9.803072799556412920e-02 -8.800425250261636467e-01 6.746378315342422827e-01 3.228873256299583105e-02 -7.374423597897333815e-01
1.967482475507526668e-02 9.288619945655712806e-02 -8.745920722654465518e-01 8.021340344251972621e-01 -3.576090248772282876e-01 4.782225173944807950e-01
2.584140312328953460e-03 4.998461904192864902e-02 -8.917364970097264587e-01 -5.526635802247344964e-01 3.807047226407020424e-02 8.325344474763606284e-01
4.047270451338363245e-02 1.698108947291419035e-01 -8.831442768688967382e-01 5.456358060226174089e-01 7.245674071686080131e-01 4.210506378750770717e-01
-6.112527260623776271e-02 -3.151255225969065710e-01 -9.871464220195079742e-01 7.295055740278332257e-01 2.350895075909414100e-01 -6.423040875496356383e-01
-9.860082054925937978e-02 -3.027980720791846950e-02 -9.631770636173191402e-01 -5.689440418845105318e-01 -1.062408657321226579e-01 8.154848592417918152e-01
-1.137470142588630807e-02 -1.151496628258159988e-01 -9.033032069940556408e-01 -6.659081381465173921e-01 -6.619359095013298278e-02 7.430913537832108950e-01
-5.314923144034765928e-03 3.227507291266347444e-02 -8.961366059883899560e-01 -5.541670668664757660e-01 4.072260065686560127e-02 8.314087633627326168e-01
5.761128312220682030e-02 -1.033494489405944045e-01 -8.331251122808615017e-01 -7.616822999644601300e-01 -1.605834145714176223e-02 6.477516527115125822e-01
3.286000777712858728e-02 -7.155781317920797968e-02 -8.504339510221395892e-01 6.989073184601336530e-01 2.268023240077602417e-03 -7.152086522641121213e-01
6.929641787590513913e-02 9.129483216796083211e-02 -8.434603958160147297e-01 -7.205677441437456920e-01 1.741608650914238110e-01 6.711558084157511761e-01
6.480017158827400259e-02 1.623130679780839247e-01 -8.697569862364354920e-01 -4.434897316580926341e-01 -7.362383929304097130e-01 5.111456609314810606e-01
-6.033415535066962571e-02 -3.147511865498142658e-01 -1.000344740628857254e+00 5.357173193337149142e-01 -3.764300463080683112e-01 7.558487772050730413e-01
-1.702848166973386368e-02 7.795077906996922268e-02 -8.972928480148751884e-01 5.064917113807126947e-01 -4.011519126931559903e-02 -8.613111619688107456e-01
6.654322051520411563e-02 2.241281141562471990e-01 -8.794827041902392173e-01 -2.679135681638180055e-01 7.779480332939564535e-02 9.602969793603809423e-01
3.231034538495345526e-02 8.245971501941863624e-02 -8.740901138749481714e-01 -3.570886330430047551e-01 -9.329270741513774334e-01 4.620370620230179054e-02
5.715586723327650137e-02 8.698733241593005483e-02 -8.553000914256041476e-01 -6.531537984458269941e-01 1.449663721628161595e-01 7.432192587102005588e-01
9.291539606108936700e-02 7.978234256562723170e-02 -7.976569260079611201e-01 8.430528301686567305e-01 -1.386526462297189011e-01 -5.196511995926829108e-01
3.206303342853816102e-02 -8.338685609036604329e-02 -8.512089384293130001e-01 7.204816486116809582e-01 -9.525098869756561115e-03 -6.934085855434121148e-01
-5.092947845454857958e-02 4.962974349628923587e-02 -9.249285155773732114e-01 -5.038081285708195800e-01 -3.836059864998214719e-02 8.629634025016260646e-01
-1.020333765271324994e-01 -7.668313498710456477e-02 -9.654613773941010946e-01 6.261025608563406397e-01 1.225346149814535990e-01 -7.700524991326757052e-01
-4.688322094250742256e-02 9.977491634823194844e-02 -9.205906604328206733e-01 -4.636036393142599077e-01 -1.952061707316186945e-02 8.858276418828080478e-01
-1.124105706378238263e-02 9.514656462451730190e-02 -9.021567210028684780e-01 -4.733982525183300649e-01 2.174400839317914419e-02 8.805800886981201003e-01
-4.382143182009128057e-02 1.555147778608298725e-01 -9.161580297511811022e-01 -3.647797714387610024e-01 -7.821763692998190409e-02 9.278026296697885478e-01
-5.006430879801100631e-02 4.270523068288440555e-02 -9.247225367900473447e-01 -5.200469976692605467e-01 -2.956556152376362337e-02 8.536257949400150036e-01
2.557528151205011591e-02 6.092366668670513158e-02 -8.678992123873428000e-01 6.166373765778432325e-01 -1.038777142730079733e-01 -7.803638678748590074e-01
-7.353066329898422238e-02 -2.003180863872767656e-02 -9.444011841706099197e-01 -5.624102139286631941e-01 -7.875051721358232448e-02 8.230996946344399934e-01
5.706159299686942160e-02 1.157724658315763266e-01 -8.526280902396489170e-01 6.466538629243814285e-01 -1.757207279294985269e-01 -7.422674769521443450e-01
6.232760048803052261e-02 1.999346815979079484e-01 -8.776141453759670474e-01 -3.533500571685857516e-01 1.285731785807394667e-01 9.266135520531751935e-01
-1.064052291780169524e-02 1.194369225368000914e-01 -8.998448685917130874e-01 -5.339343182816800315e-01 -8.436794000622217515e-01 -5.584992096437792902e-02
-9.295235633612621007e-02 6.997327895359839456e-02 -9.415978785643595028e-01 5.132360655018085582e-01 7.482383772281168965e-02 -8.549796105034632721e-01
-5.246616735125732983e-02 -3.205064079566928292e-01 -1.000606379840863758e+00 -6.366260750718846229e-01 -2.771069632524484905e-01 7.196658748722031262e-01
1.677122434896356068e-02 -1.294838396735869257e-01 -8.683713550788223490e-01 7.057885903675721329e-01 7.523124471654984990e-02 -7.044165852145688467e-01
-3.047910338109115908e-02 -1.843824646908686846e-02 -9.051153289721718398e-01 6.057173043967634118e-01 1.655815109288285430e-02 -7.955076208225184686e-01
-7.954988611831331768e-02 1.044755107785387688e-01 -9.312633866860681175e-01 4.655328563896279914e-01 6.713626377977850723e-02 -8.824805276647217367e-01
1.477997010992904668e-02 4.598755594149032261e-02 -8.868014888451978273e-01 -5.186776880421831715e-01 3.990076114070650881e-02 8.540382808677886572e-01
1.344855026432764840e-02 -1.062781943208356145e-01 -8.699103063192814567e-01 6.931006353564458378e-01 5.132803083548900802e-02 -7.190110865063501500e-01
-1.105608310676750861e-01 3.951901871703775854e-03 -9.602018352164070070e-01 5.688821295936615785e-01 9.863361701078388055e-02 -8.164830262928619575e-01
-1.250025208071724528e-02 -1.427100620487555330e-02 -9.040859345976730577e-01 -6.414691443515844194e-01 -6.825365120867564472e-02 7.641065213316337035e-01
9.741382553932698141e-02 2.258099494811320052e-01 -8.536088331962446984e-01 -9.449626003629826299e-01 -1.045443514693266546e-01 -3.100260674380265202e-01
5.552961636628524211e-02 1.556584781537435347e-01 -8.724078280551289533e-01 -5.526042303124201194e-01 1.948710943152274777e-01 8.103417928511420509e-01
-7.604306621816728229e-02 1.970466496543607504e-02 -9.423781321258565269e-01 -5.399346251815835274e-01 -8.049659923902442726e-02 8.378489709016623266e-01
1.895912686840627373e-02 -1.038254264997628962e-01 -8.645280960921982727e-01 6.914166588004724279e-01 1.989280303729905330e-02 -7.221823040759931533e-01
-6.385497240465927427e-02 -1.250881356904235686e-01 -9.501797232054699505e-01 -6.468948950158212030e-01 -1.226642713456609218e-01 7.526489695320838225e-01
-8.900217903074961190e-02 -5.404727239828153312e-02 -9.633355773452090265e-01 -5.664926660956232096e-01 -3.897259766392428132e-02 8.231446992426049158e-01
2.422740814204230042e-02 1.589086599566083557e-01 -8.812870164318531430e-01 4.232600644965213710e-01 -1.174673340215532380e-01 -8.983609203656787168e-01
-1.423061674058895970e-02 5.183377237513353553e-02 -8.945969010055936366e-01 5.336296142919022545e-01 -2.881141458676073769e-02 -8.452273878313372180e-01
-4.291575433694745645e-02 -1.655737584065256340e-01 -9.292277998038709352e-01 6.739982075392529914e-01 1.240825554686130899e-01 -7.282375544163128822e-01
4.758970750662371713e-02 1.754941945229839262e-01 -8.749566588104992215e-01 -5.876609753067734143e-01 -7.242799525288640128e-01 -3.606565242253055859e-01
-6.399195139672889110e-02 5.707256407472475340e-02 -9.321855469695307095e-01 -4.982662831929254299e-01 -5.718982101649061622e-02 8.651358479482913477e-01
6.917873122673756647e-02 6.569154387867376377e-02 -8.275732457673543596e-01 7.623308777043850126e-01 -1.418638468384747497e-01 -6.314477665323172673e-01
6.010447117046235216e-02 1.895273640249656999e-01 -8.650947487105585809e-01 9.098658157531119839e-01 -4.143219282956589478e-01 2.194395263598911822e-02
8.470037486505055391e-02 1.241850902714351432e-02 -7.968399569747945943e-01 8.298045406978726835e-01 -9.122257653159490665e-02 -5.505477869977589700e-01
-8.185333607298216074e-02 2.067964026246328982e-02 -9.459939474316300112e-01 -5.288235528859873691e-01 -8.507954317738310179e-02 8.444567018182573825e-01
-8.066862911059347052e-03 -8.879869862081616466e-03 -8.881232837910673084e-01 6.160415794321268956e-01 -1.210989669805869265e-02 -7.876205449407301940e-01
8.700371353391445073e-02 2.294523150345296747e-01 -8.745713082404015237e-01 3.665682621987101930e-01 -1.715398379859880695e-01 9.144406996259291098e-01
-6.745629535416240719e-02 -3.827708386445384525e-02 -9.419176027561065867e-01 -5.928989368619608236e-01 -8.205655274664434840e-02 8.010852469115217200e-01
-5.762482676731672110e-02 -1.199630427365236535e-01 -9.349912235426141027e-01 6.457100578573135019e-01 1.079222209593574677e-01 -7.559175321456068630e-01
7.042180570744319135e-02 1.093821097875524208e-02 -8.158984776327760091e-01 8.002438591358196351e-01 -1.027826025992496783e-01 -5.908007299575170901e-01
-8.471607913133597303e-03 1.199400321569735056e-01 -9.013295348366309190e-01 -4.497863261966469350e-01 3.029415968954973087e-02 8.926222743440964669e-01
2.140101014740942997e-02 3.556715237820429892e-02 -8.771293842271001839e-01 -6.246453317906095482e-01 7.574160758487656631e-02 7.772267483512503849e-01
7.320565714247738442e-02 -2.710091547470626014e-02 -8.165749896096557991e-01 -7.990508641900623266e-01 4.745722977758413258e-02 5.993876273155392953e-01
-9.946381840718283851e-02 7.756738731263569664e-02 -9.497792214137380507e-01 -4.532829717374903811e-01 -1.139385046884970887e-01 8.840546163457202455e-01
1.507285094103025420e-02 -1.469002901089588690e-02 -8.691145864870665205e-01 6.653781756112064905e-01 -3.971845685043982888e-02 -7.454490778086202418e-01
-1.039852560817779714e-01 1.680025324538516468e-02 -9.540684141810876762e-01 5.630330919210181362e-01 1.004052349805507754e-01 -8.203124564398365237e-01
-3.016824400025091765e-02 -1.197118488065851416e-01 -9.242874616201284255e-01 -6.210777601335177867e-01 -1.255090433417455353e-01 7.736342132474316458e-01
-9.300189030439248716e-02 -1.951600096070701951e-02 -9.506283958572765425e-01 5.903463918121946152e-01 9.529435942007416505e-02 -8.015049112370056239e-01
4.746685573274969649e-02 -6.616729044900901413e-02 -8.351938827126605958e-01 7.297180589557158426e-01 -1.168612631723074755e-03 -6.837471672909652964e-01
-5.530849999017395380e-02 -3.397063947552125263e-01 -1.012071025291730653e+00 -6.448007617042362805e-01 -3.293417180657077226e-01 6.897579361248149521e-01
-1.827742012516845455e-02 -1.060814956173044832e-01 -9.122777484385831137e-01 -7.320046524881592687e-01 -1.184039713214101869e-01 6.709319550528263232e-01
3.893960621909368924e-02 2.052477103728374552e-01 -8.861791312717572922e-01 -2.963835311250448967e-01 5.409512926434163760e-02 9.535357987342287789e-01
-3.081872737343710825e-02 1.556554049159054598e-01 -9.109245138288106780e-01 -3.496327113462525116e-01 -6.332617259566311607e-02 9.347442233151549429e-01
-6.073818343287278043e-02 1.067652264358936731e-01 -9.210777444526988544e-01 4.711583321741606434e-01 3.717660933036763538e-02 -8.812648442673520766e-01
-9.563867136061782181e-02 5.472048700725811766e-03 -9.564971906213250996e-01 -5.397066827435939018e-01 -1.118044853322709420e-01 8.343958614839190879e-01
-4.433401715906828966e-02 -1.694782376639412114e-01 -9.268483226799327790e-01 6.320276128084701961e-01 1.882313886932648339e-01 -7.517380135115102613e-01
-2.210171572019923539e-03 1.575009488902529564e-01 -8.992236969160042337e-01 -3.690175321870736158e-01 1.090908201462409931e-02 9.293584092631648197e-01
1.356048755537233577e-03 -1.205262382522248321e-01 -8.835200668650432521e-01 1.786084345749697766e-01 9.835883898306909678e-01 -2.555203492772511326e-02
1.002314018159163002e-03 9.172988066163939970e-04 -8.903787365731108405e-01 -6.026774400138316112e-01 3.844614781313242247e-02 7.970582143210775961e-01
-1.219772418010241360e-01 -2.908426592458751309e-03 -9.693741008940188753e-01 5.945016876862156963e-01 1.233202693267855393e-01 -7.945815593829309575e-01
-1.206834255262058918e-02 -6.815090118603639446e-02 -9.027537458450802799e-01 -9.336226495352750732e-01 1.348928919889955946e-01 3.318925367729411713e-01
-7.287384386327293295e-02 5.005307944369397077e-02 -9.378792523824819316e-01 -5.101708814736048980e-01 -7.165215018318103757e-02 8.570832171210517325e-01
2.437985257296373161e-03 -1.638370233826527966e-01 -8.863270478261392471e-01 6.859899444541311953e-01 1.038185858926387317e-01 -7.201662983860537270e-01
6.555149207896121544e-02 1.200837225629318022e-01 -8.456729431092576688e-01 7.208117839522893977e-01 -1.918397212893276083e-01 -6.660539718755164040e-01
-3.067001775656119644e-02 -1.472842880619556760e-01 -9.245184145777073370e-01 -6.522399231215376680e-01 -1.016631286738945983e-01 7.511642236918939508e-01
1.175070352563893725e-03 9.529034501485741937e-02 -8.936536613978945942e-01 4.316055367099836948e-01 7.729281706192580037e-01 4.650792445857526158e-01
3.143058561846086979e-02 -1.200031194222079683e-01 -8.666692735552091742e-01 -7.088737138578488084e-01 4.252475778919476840e-02 7.040523437759091951e-01
-1.219064728258545741e-02 1.551334042011720815e-01 -9.034293760096850923e-01 -3.603559076419839413e-01 -2.586860131259754308e-02 9.324561304928247196e-01
1.001092826750028808e-02 -3.567061142709080507e-02 -8.819073251818327908e-01 -6.431360463549650186e-01 8.575393810016453816e-03 7.657039169939692247e-01
-4.410663803741987632e-02 -3.541913211549015117e-02 -9.159651445134453507e-01 6.050510909882647059e-01 5.126549433773861658e-02 -7.945344714889454041e-01
6.127781691752180737e-02 1.118190341757813455e-01 -8.571969886166951325e-01 -6.516945311290549547e-01 1.734414371166980995e-01 7.383849307694296815e-01
8.745401718069058250e-02 5.323068275419669954e-02 -8.001391836837501437e-01 8.361069088681563066e-01 -1.181050534455105744e-01 -5.357018137859619333e-01
-1.016696939059434229e-01 -7.673993991035568327e-04 -9.546293542921622244e-01 5.630330919210181362e-01 1.004052349805507754e-01 -8.203124564398365237e-01
-5.469767440839261091e-04 -1.935550853216415068e-01 -9.015150968580942781e-01 -5.075370721633670756e-01 8.579825227950036437e-01 7.919666001895732388e-02
6.109228794280445463e-02 1.519347971286289789e-01 -8.677133925040142470e-01 -6.088239674634059462e-01 2.087734599176966910e-01 7.653411128876531633e-01
-1.581745637021799572e-02 -7.435562141952456461e-02 -9.043091436220784818e-01 -6.346297038651507183e-01 -3.214308650722814964e-02 7.721476289944946281e-01
3.710652240908730859e-02 -1.263723895312810208e-01 -8.504722273559344181e-01 2.106843589043226883e-01 9.758918333742720996e-01 -5.698447566203426740e-02
-8.721652098861698565e-02 1.127931249255597346e-01 -9.348772429095242309e-01 4.918239195070464587e-01 6.519342559215182686e-02 -8.682505683616261738e-01
-6.254268916881289275e-02 -3.010715317360912469e-01 -9.909824722669174912e-01 8.619602781901034572e-01 -2.566651259614414204e-01 4.372041764869552538e-01
-4.523340008662913442e-02 1.358156844638628569e-01 -9.181274360938087575e-01 -4.203554111534283932e-01 -3.733048687561510426e-02 9.065912877717620111e-01
