-6.029083399011611610e-02 -8.739795132201026717e-02 -6.452907091725378352e-01 -3.865400199678211135e-01 1.441475908979871212e-01 -9.109381345632550087e-01
-9.863187706228424001e-02 -7.117166302287797341e-02 -6.317485212548447082e-01 4.318241718504068904e-01 -1.590912272243736603e-01 8.878163470143769498e-01
-5.511165031182112956e-02 2.193723782794673727e-01 -6.578694969475480381e-01 5.816625868085059103e-01 1.821167333581512060e-01 7.927812627315264926e-01
1.766832535595591266e-02 -1.441630266390979687e-01 -6.822612017929837736e-01 -2.671528996960407798e-01 2.192433448277538999e-01 -9.383824827503631782e-01
1.379487261278698196e-01 -2.217352171653259874e-02 -6.938455825704337165e-01 -1.688291817688838403e-01 1.906902951994324247e-01 -9.670232255225323925e-01
5.868387865996630391e-03 -2.704051561758194153e-02 -6.741643554349362466e-01 2.812009311686863300e-01 -4.214463426101325988e-02 9.587230393147276875e-01
8.965648438156152700e-02 3.379305081983600273e-02 -6.786825861182350650e-01 -1.355863686132584289e-01 1.085333176843519126e-01 -9.848029526756594265e-01
6.432448444414482977e-03 -3.457445056721763360e-02 -6.749688154410056207e-01 2.618449648016994979e-01 -1.097811844042940882e-01 9.588458197013672857e-01
1.450211674739702167e-02 -2.046370043798139970e-01 -7.005923993451129705e-01 8.474267456865788306e-01 2.108677953505383451e-01 -4.872398624692539926e-01
5.451678870683113881e-02 1.267786544821973213e-02 -6.744093201484109290e-01 -2.037491573555885727e-01 6.811100782127796349e-02 -9.766509977932021913e-01
-1.413713827487889790e-02 -1.038463655713201123e-01 -6.739883321096721280e-01 3.423160748132580422e-01 -1.738227190300998815e-01 9.233663234455903313e-01
1.011324794627592727e-01 7.270445009799139310e-03 -6.855766554560795978e-01 -3.745714109756053678e-01 9.260441020866104767e-01 -4.624477343816725539e-02
-5.028297989384916677e-02 1.573852898078929308e-01 -6.428489614917572981e-01 -5.254248768278856341e-01 -1.189707511654969907e-01 -8.424812515287912751e-01
1.889031175499016404e-02 -3.024959681864351491e-01 -7.499204429819870121e-01 7.749368905141770236e-01 -2.273573620275951834e-01 5.897299768979625822e-01
-1.525876138387559713e-02 2.274020867289920922e-01 -6.712300627489923288e-01 -6.918842444844724993e-02 2.818178970717324233e-02 9.972054696256144046e-01
-6.334383547307573248e-02 3.726108755808445888e-02 -6.308919290660701673e-01 -4.468028249077215519e-01 3.157836737138326050e-02 -8.940749646246883842e-01
9.160317028461763267e-02 -8.369617862403586073e-02 -7.061442315645184431e-01 2.086504685845240459e-01 -1.055388669332720381e-01 9.722790389213890050e-01
1.805080175330874698e-02 -1.413247755697552843e-01 -6.931022822228646296e-01 3.077564742202367754e-01 -2.073949956143882334e-01 9.285867048206304375e-01
-6.398437260082044664e-02 1.786422943921184003e-01 -6.335810819226390667e-01 -5.317678082035497411e-01 -9.404652749742607731e-02 -8.416520948848571493e-01
-6.955219947386866164e-02 2.029484505076854517e-01 -6.433798562891387407e-01 6.625193755585248034e-01 9.344572363426385808e-02 7.431930931756638437e-01
-8.387582319569751588e-02 2.501175413948296053e-02 -6.210132810643129719e-01 -4.591441310784070140e-01 6.779185648967292477e-02 -8.857713763099019921e-01
1.127396640433173669e-01 5.290958873147170310e-02 -6.829084925068342748e-01 8.212081110406633036e-03 -1.818816218200537127e-01 9.832861421620580078e-01
3.056480969401764031e-02 1.849143603876974296e-01 -6.665905651632064721e-01 -8.273565977588078768e-01 -5.249393967151159135e-01 1.997991239253567586e-01
-3.856227139973561480e-02 9.034807229554551317e-03 -6.509795192513416762e-01 4.048574290071564330e-01 -3.901103881428005793e-02 9.135472626133503971e-01
-6.481648259503205176e-04 1.920875858582102996e-02 -6.657694586143899640e-01 3.170454840583783462e-01 -4.967111731332909952e-02 9.471087272024442116e-01
1.978905915374313401e-02 -1.981831466766188765e-01 -7.078790807845384281e-01 3.056834861340430587e-01 -2.433446661689150914e-01 9.205112599811463570e-01
2.428335736157580943e-02 -2.074155695349381989e-01 -7.115761022379023526e-01 2.727912274483579869e-01 -4.651613610488003481e-02 9.609480710782921653e-01
-2.642690756125115614e-02 -1.087068126797803569e-01 -6.701837739604844524e-01 3.543854839512906030e-01 -1.728038284185713369e-01 9.189938877100840564e-01
-2.002258406455851431e-02 -1.034575389369408877e-01 -6.638415732285293247e-01 -2.424881955545196976e-01 -9.293328249133201435e-01 -2.784600071021711698e-01
1.829825967609707837e-02 -1.250879535071815485e-01 -6.820665898623843315e-01 -3.039719458170712652e-01 1.836137250060395354e-01 -9.348192638930746812e-01
4.130047224547694212e-02 -5.068638312051725048e-02 -6.773231427340575816e-01 -2.777692910868573839e-01 1.253971166086224609e-01 -9.524283616500237581e-01
-2.378660767179531597e-03 -7.451151416013378215e-02 -6.736008004762770174e-01 3.381606502046913265e-01 -1.221478867029746895e-01 9.331276806670871782e-01
3.666002393648457383e-03 2.112231889916158512e-01 -6.648312498192886499e-01 3.704136753781286234e-02 1.172819276061061108e-02 -9.992449082109442493e-01
5.804940708497575291e-02 -1.254980619583939694e-01 -6.951091771976433131e-01 -2.984407167702879948e-01 1.971005092356889754e-01 -9.338546609792492958e-01
7.050678655010197970e-02 1.836348276560739387e-02 -6.838468229815994892e-01 1.303206214366681437e-01 -9.749681775741067535e-02 9.866665628040400815e-01
9.508301512033104363e-02 -2.419555590898693487e-02 -6.868693126867231324e-01 -2.003209636881893019e-01 1.551733066756706414e-01 -9.673638180138707243e-01
1.811424505607922564e-02 -3.372835317386090326e-01 -7.562320889473694852e-01 8.468617716722610655e-01 2.504474302701574229e-01 -4.691494690940123391e-01
3.743486141768139191e-03 3.282260243060700078e-02 -6.669148130369845218e-01 3.208151642293216588e-01 -1.821031754993921239e-02 9.469667442604536856e-01
-1.654652966203034106e-02 1.468631310053343797e-01 -6.626707168862464581e-01 -8.714313156398501015e-01 -1.509097536825371733e-01 4.667265884494646855e-01
9.738499323664565055e-02 -9.710092960660189620e-02 -7.003451208434311459e-01 -2.593032733518126354e-01 2.078280348238692454e-01 -9.431698258374699995e-01
-4.712609686870591896e-02 -9.486846626750156108e-02 -6.592121918308438966e-01 3.786067037082054276e-01 -1.730984634868702188e-01 9.092270815619669655e-01
-8.025704202501392215e-03 -7.559353003647813207e-02 -6.641081750786478333e-01 -3.416226335318666152e-01 1.463473499268428679e-01 -9.283730012382641616e-01
8.910718055790323514e-03 1.720532510070975907e-01 -6.644441799026338247e-01 -7.644842702698942394e-02 -3.138772071672164821e-02 -9.965793741560718955e-01
6.011382257255621329e-03 -1.021564385095020122e-01 -6.810387102418544725e-01 3.301051278793226129e-01 -1.747777575862546617e-01 9.276224124076006827e-01
-8.552062951159788984e-03 1.805409183764474235e-01 -6.612344597705179794e-01 2.190157459122973604e-01 -8.287261613675455107e-01 -5.150194680859095930e-01
-8.106181805068911339e-02 1.494517341431546575e-01 -6.292240840370963983e-01 5.706236919143083952e-01 5.309859121301833268e-02 8.194932225694590011e-01
1.281176713585906873e-02 1.444279487054517808e-01 -6.705846374154502687e-01 9.234711019523161868e-02 2.679001931646832028e-03 9.957232718919648562e-01
-3.979692868693766872e-02 -1.304879391749247212e-02 -6.519287985040457256e-01 3.991997118862035676e-01 -7.143813137803806113e-02 9.140766835529642309e-01
-2.069278373602422352e-02 1.086517561029866075e-01 -6.597289725620694156e-01 3.680328112237575278e-01 4.949281666103208521e-02 9.284946477830097189e-01
-8.655923289664577136e-02 1.523152685045604249e-01 -6.253756354055359790e-01 6.189262690381654997e-01 2.987307151105661474e-02 7.848808018374454631e-01
3.087310367000945487e-03 9.295680841272503658e-02 -6.653611538241482881e-01 3.502037940870192378e-01 -9.325796003727945260e-01 8.747909221965864679e-02
6.632370245607567549e-04 -1.173212654974472267e-02 -6.568584286153679175e-01 -2.625617147197321088e-01 7.596082148941259160e-02 -9.619206305938590162e-01
2.884891318341643862e-02 1.558415685769477073e-03 -6.760412052861363152e-01 2.537595699534012650e-01 -8.228002201452812303e-02 9.637614220513049945e-01
2.586363197682833501e-02 5.876351038031789320e-02 -6.726501158179887252e-01 2.306496799756626859e-01 -8.380662007810051745e-03 9.730007654834784692e-01
6.367476145208977867e-02 1.374847785475509510e-01 -6.669800157924096196e-01 1.876524686265686496e-03 8.637498743491947573e-02 -9.962609297772945238e-01
-5.089539406701786700e-02 2.497542047118303798e-01 -6.612212914334462122e-01 -4.299470717775382700e-01 -2.651330717201661469e-01 -8.630469105153840692e-01
-8.084783709624751569e-02 -6.669970538485493761e-02 -6.329250038281549751e-01 -3.987753266873073632e-01 1.550209919903894618e-01 -9.038510556876873103e-01
-9.533205372859870907e-02 -7.784659378581218481e-02 -6.283622201067347035e-01 -4.112071544056822292e-01 1.642968395151108152e-01 -8.966131968083713710e-01
-8.135284518754951066e-02 6.881932651084080033e-02 -6.203958899603077004e-01 -4.765658068357317978e-01 1.526185318952603780e-02 -8.790063182891402205e-01
1.281030724956477851e-01 -5.908329997943483070e-02 -6.995777897539223744e-01 -1.951563360230532396e-01 2.099574845351488972e-01 -9.580354164631542657e-01
4.123053498993167754e-02 -1.242506197014130870e-01 -6.895029046746943280e-01 -3.090631086737058442e-01 2.017341435674802896e-01 -9.293994459736029112e-01
1.043075205120181509e-02 -1.522891372744571842e-02 -6.692306320696539412e-01 2.122129184038113459e-01 -9.771775341178986496e-01 9.473335093859157688e-03
-5.638712585647392972e-02 -5.054737549722199130e-02 -6.413839776641470092e-01 -3.904991411312794258e-01 1.304694657555332538e-01 -9.113112197713791884e-01
1.879183075521211402e-02 2.656657605209166578e-02 -6.643350708019658546e-01 -2.858249479501390189e-01 2.561885307332241804e-02 -9.579393370649873507e-01
-3.469111245430979429e-02 1.527918768788651127e-01 -6.503649817244361309e-01 -4.113236323486899049e-01 -1.290487380784171856e-01 -9.023077593991131184e-01
9.887164281715897507e-02 -6.522491672061911383e-02 -7.011636039330221282e-01 2.012345019480890063e-01 -1.774774999374762186e-01 9.633308944706630017e-01
-3.518858845790322903e-02 2.117182814051358497e-01 -6.598674627655719549e-01 -3.797096750228742268e-01 -1.700249980793302196e-01 -9.093470529573111083e-01
1.811911817132182481e-02 -8.996635834318485181e-02 -6.726211685700248522e-01 -7.623932285991413815e-01 4.242660029357342433e-02 -6.457217268868272741e-01
2.916854151494582825e-02 -2.066999341150156377e-01 -7.111980117448829519e-01 -8.479951901443939510e-01 -2.122880721749659527e-01 4.856314774643519239e-01
-4.219480158761503008e-02 2.687807660696659579e-02 -6.485012358033626079e-01 4.102693852921313056e-01 -4.392552477282739287e-02 9.109059115877161661e-01
3.748981438351092071e-02 -1.878296876109623592e-01 -7.039706965021687024e-01 -3.218017905241570276e-01 2.709590536600605670e-01 -9.072071421980157924e-01
-3.232260021909472841e-02 5.182220561154700367e-02 -6.526384948728038982e-01 4.208809968340285201e-01 -1.632911012210206542e-02 9.069688785546142773e-01
3.515313548138421923e-02 -1.908881909497600060e-01 -7.110838320444292648e-01 2.953958095386673977e-01 -2.427720368677584450e-01 9.240146393981399919e-01
-4.981469414818013447e-02 1.297422674983651769e-01 -6.477493214342566752e-01 5.164021606092670247e-01 7.876019716106878732e-02 8.527166234225941333e-01
-3.975632465998481246e-02 -3.857768306714094708e-02 -6.470841835725480440e-01 -3.783705676458101741e-01 9.648687525275344290e-02 -9.206117511977276457e-01
-4.050074639055681325e-02 -1.272421327901844057e-04 -6.506115618212011675e-01 3.991997118862035676e-01 -7.143813137803806113e-02 9.140766835529642309e-01
2.871678815699399423e-03 -1.476523404806316837e-02 -6.689616342204240951e-01 3.285082160495036430e-01 -7.556388111383077755e-02 9.414735534570194408e-01
1.107532876946432376e-01 -4.141517466398619840e-02 -6.987911729436957486e-01 1.645356444075515012e-01 -1.916908098738548671e-01 9.675653234429690830e-01
3.291582685486633963e-02 -2.751374107655570889e-01 -7.306956817397863846e-01 -7.648525885972743410e-01 2.315762628607071494e-01 -6.011430380496117776e-01
-1.030355017035678722e-01 -5.089923665421196286e-02 -6.201387983941322180e-01 -4.199366655277498861e-01 1.462420959458947123e-01 -8.956932769194967392e-01
3.958449008315962497e-02 -9.739168751277817171e-02 -6.886979027015963650e-01 3.181392654795557884e-01 -9.428099863840068151e-01 -9.948234684966890395e-02
-3.360484913092492976e-02 1.251254108123041886e-01 -6.480205419403217704e-01 -4.132236707472425885e-01 -8.755570980517619895e-02 -9.064106109345181350e-01
-9.441869888676074352e-02 1.144253257854656591e-01 -6.187368492435296741e-01 5.524038110784430522e-01 2.101675931135012568e-02 8.333116615853041198e-01
6.843704007425631397e-02 2.801812143240127104e-03 -6.880720954259017530e-01 1.894070156717296283e-01 -1.893264154411621603e-01 9.634731396518169122e-01
-3.733051313290812814e-04 5.687430810735690651e-02 -6.625736245141896630e-01 -8.601990495113877033e-01 -1.620300188869606695e-01 4.835326961015108393e-01
-2.840209686007494003e-02 -2.093286298914881147e-02 -6.591206162355817133e-01 4.341993948454932473e-01 5.525435920016580349e-01 7.114537683178807637e-01
-6.120946797949179674e-02 1.588428495388852918e-02 -6.329041885563432279e-01 -4.280066793754716548e-01 5.265256310480562890e-02 -9.022405388855437858e-01
8.906878054795114297e-02 1.122887051007159520e-01 -6.676264870778192417e-01 -2.340444558967512412e-01 6.646907732386161949e-02 -9.699510577465791927e-01
6.389091453806064469e-02 4.621463935497423237e-02 -6.739623452957902439e-01 -1.251545774945518608e-01 7.477970845225939689e-02 -9.893150797071452729e-01
-5.974353591822256088e-02 -1.070435311415162405e-01 -6.575521876962644452e-01 4.001057752119113187e-01 4.950140848595055432e-01 7.712823247247285741e-01
-9.285706545146978075e-02 9.785149471391962894e-02 -6.110878942439635919e-01 -3.503536107127850907e-01 -6.477057700118039607e-01 -6.765571542404458238e-01
5.422525561627087459e-02 7.734959822837349230e-02 -6.706589521050891900e-01 -8.776247381379158330e-02 6.453194933433420433e-02 -9.940489805362683340e-01
-1.175346022696683729e-01 -1.465887844071534461e-02 -6.075712559047966588e-01 -4.663706256449579035e-01 1.147908738266215090e-01 -8.771097393266427122e-01
3.828045550812018798e-03 8.861954398622154394e-02 -6.670907164901964670e-01 2.751967432394341606e-01 3.496893749836443160e-02 9.607517504124800656e-01
-1.174758506467653459e-02 -6.216562072267815126e-02 -6.609456394200969864e-01 -3.475141675307096834e-01 1.227684804948964842e-01 -9.296030354739661661e-01
-9.702456179298890593e-02 3.443650282562020493e-02 -6.195361080331567294e-01 4.972393846619068691e-01 -5.903673419037842873e-02 8.656024828737396426e-01
2.725379747618141002e-02 -1.044527800302427201e-01 -6.811138146681511296e-01 -3.003439039695272594e-01 1.778715098115942472e-01 -9.370993892569172701e-01
-7.064800352094303959e-02 -5.085969673394519913e-03 -6.394753059214569602e-01 2.593136410853802976e-01 -6.850722172176813007e-01 6.807587625168642909e-01
-7.855265710561214199e-02 1.369075775317121213e-01 -6.234734838937492363e-01 -5.499867555638175975e-01 -3.531815962637863821e-02 -8.344262677462825906e-01
-3.692880827880924005e-02 6.350203940125694058e-02 -6.432154780490892954e-01 -4.169921483976262722e-01 -1.843905823382982131e-02 -9.087230322304927776e-01
1.943407663582800635e-02 -3.159656163531843753e-01 -7.558086912938909441e-01 3.696144892475375365e-01 -3.555442404635374420e-01 8.584715617954319367e-01
-1.133384664461263396e-02 7.134890829248081989e-02 -6.616220207396793507e-01 3.411013603044882880e-01 1.370762572298008138e-02 9.399265731936012891e-01
-1.322861514825365500e-02 -1.944137049330993683e-01 -6.881920436080607439e-01 -2.977899395115381487e-01 3.157809388528908245e-01 -9.008904209630053117e-01
4.002068577787311343e-02 9.542302772537616939e-02 -6.764461415178603110e-01 -1.192989980478772472e-01 5.548606515742535716e-01 8.233452534625843589e-01
2.571050790877735595e-02 7.110388831141969089e-03 -6.748476320405070172e-01 2.970063888312278189e-01 -4.527993983661419281e-02 9.538013063745645059e-01
1.197188183158722219e-01 -2.883329671136751482e-02 -6.921630055214478272e-01 -1.632010477380383129e-01 1.758751309270008278e-01 -9.707900681087631156e-01
3.018824698271346460e-02 -2.665141276470905929e-01 -7.364432636819913114e-01 -8.353142044559203061e-01 -2.388144928676120826e-01 4.951947271837190967e-01
-2.868711226887716084e-02 8.151672509747355522e-02 -6.482168907960251802e-01 1.519885341346420005e-01 9.655477778800656274e-01 -2.112273043961651886e-01
1.361536455887163433e-01 -5.528629253004254535e-02 -7.005008203442719683e-01 -2.218739880542137388e-01 2.210059961307694609e-01 -9.496990486986732760e-01
-4.991897599573165423e-02 2.130819576226672951e-01 -6.601730900061375529e-01 4.942175952872262523e-01 1.908930366309672388e-01 8.481207561864758659e-01
-4.649898308402702972e-04 -1.925779910283018648e-01 -6.990713394066403463e-01 3.326782008202724961e-01 -2.357423588948651116e-01 9.130995317716852355e-01
3.373581302901890178e-02 -3.197199775991265147e-01 -7.561183434623673927e-01 -8.353142044559203061e-01 -2.388144928676120826e-01 4.951947271837190967e-01
9.614289547912664713e-02 -1.169792355221607183e-01 -7.044137028755818042e-01 -2.609991948418755592e-01 2.247159832646618005e-01 -9.388195498376078474e-01
-2.606676855476265653e-02 6.826092051630576474e-02 -6.480906724659495355e-01 -3.839057120674601586e-01 -1.550234085378661593e-02 -9.232421576542251263e-01
6.654511653284313211e-02 9.921229569344888755e-02 -6.759202630917461319e-01 -2.660366732661637382e-02 -1.109646881003596708e-01 9.934682092948744492e-01
-8.753294885329029884e-02 4.393398328716616869e-02 -6.245460007430480021e-01 4.892541551104422348e-01 -4.239528181946509294e-02 8.711102179326192241e-01
8.439523318024766407e-02 -1.532106757899565075e-01 -7.164440123130471072e-01 2.283276135762628833e-01 -2.095498936732707873e-01 9.507656614224609948e-01
-2.837259017832747393e-02 3.662575590882800186e-02 -6.471074488205356134e-01 -4.057306854159776210e-01 1.290843797014525930e-02 -9.139015172003228660e-01
6.870079802466003138e-02 -1.276481027974417648e-01 -7.060653794478306544e-01 2.785620405145476930e-01 -2.181211099904482587e-01 9.353215334637099421e-01
-2.098049557672800741e-02 1.638586212771306061e-01 -6.576360270623040627e-01 -3.361324430964323651e-01 -1.228982599828205152e-01 -9.337617460526098645e-01
-7.570800146330344815e-02 1.796955721149528507e-01 -6.320992729709045133e-01 8.869150920151197548e-01 -4.257946839734208511e-01 -1.791103197914242495e-01
1.181491573033845582e-01 7.359230711714838391e-02 -6.790329407371901160e-01 -3.199452478399349847e-02 -1.867974252556776349e-01 9.818773203927747550e-01
3.201342409897764418e-02 -8.573190517646246678e-03 -6.802671127631461090e-01 4.257426659882935782e-01 -6.678323729676740594e-01 6.105269068383025743e-01
-5.113555461267107333e-02 -1.011959560979991263e-01 -6.515781183357706174e-01 -3.660848315442476464e-01 1.755190996443551366e-01 -9.138790629909707697e-01
-1.148829454633727015e-01 8.471279825501500105e-02 -6.003747756347843634e-01 -4.888382667738696008e-01 1.500855748243219191e-02 -8.722453164906163181e-01
-2.500000834690994586e-02 1.645863604245208223e-01 -6.523034723259775181e-01 -2.977138512672310999e-01 -3.092166556833545951e-02 -9.541542398177105255e-01
-3.040133015904925365e-02 -4.471170472570829002e-02 -6.588918696512520157e-01 3.822858300434393009e-01 -9.153041219595921263e-02 9.194997160365174782e-01
1.081436072423627021e-01 -8.676751036387533866e-02 -7.072892010332497703e-01 2.042458333646145485e-01 -1.868194027225329179e-01 9.609277549949268860e-01
-3.568444851621283692e-02 -5.386807525979001726e-02 -6.578893588718254248e-01 3.762998588624352769e-01 -1.240195424183633127e-01 9.181598822201125776e-01
-4.389973115207096432e-02 1.466726231880675912e-01 -6.525590699946699491e-01 4.764512769475618970e-01 8.057328662651956630e-02 8.755010714883438849e-01
-2.069398809018344401e-02 -2.483851605357042733e-02 -6.608578218525353876e-01 3.645232408611723818e-01 -7.039045543929980941e-02 9.285300160227000221e-01
1.623676870849457068e-02 2.702984148012360643e-02 -6.709756968139444222e-01 2.910017556487548562e-01 -2.480209899418572145e-02 9.564009797646721989e-01
2.573412641184327429e-02 -6.450108383861116734e-02 -6.743257826165756086e-01 -2.966007788031762571e-01 1.264438655340612283e-01 -9.465938552949483276e-01
1.279263634261193494e-01 1.730496018570055680e-02 -6.898139375925297356e-01 3.887421590389251308e-02 -1.855611141352236371e-01 9.818634672187126489e-01
-1.142263228647432266e-01 6.107715461557824965e-02 -6.018234751534118354e-01 -5.049393620782639536e-01 4.714430377468723649e-02 -8.618663789971132694e-01
-7.486514306925540208e-02 1.608168717858926289e-01 -6.277811129115007382e-01 -5.658292322763835980e-01 -7.075138320610323273e-02 -8.214812972161579241e-01
-7.404007608708586263e-02 5.593634459413532323e-02 -6.246462532766619002e-01 -4.755282498461051999e-01 4.667245846269224563e-02 -8.784614762295204216e-01
1.448036889918759805e-02 6.356223181049301674e-02 -6.624836872933529408e-01 -2.939260539395464056e-01 -1.060481839841178123e-02 -9.557693302477662245e-01
4.750107563750033401e-02 -9.435666557031613388e-02 -6.921444667779530491e-01 3.181392654795557884e-01 -9.428099863840068151e-01 -9.948234684966890395e-02
9.852272462639284634e-02 1.077657126994150810e-01 -6.738856070213395943e-01 -9.188309209642915587e-02 -1.803821419070391341e-01 9.792955530726297209e-01
2.315584217481816282e-02 1.888171187144653262e-01 -6.699810524937233058e-01 -5.237087634080751508e-01 -4.436371448348589985e-01 7.272655738121794888e-01
5.955266983524852564e-02 6.924850418579224509e-02 -6.778429867706585732e-01 9.149869533921788090e-02 -8.211567944367918759e-02 9.924137261952414857e-01
3.458159576558871018e-02 1.944801116946890396e-01 -6.662173079149532606e-01 -5.644998371198006737e-01 -5.675521775674274849e-01 5.993533679142792892e-01
-1.180318925538939578e-02 -1.139272888399580491e-01 -6.784888828635263769e-01 4.186068614896348850e-01 3.934321324596521396e-01 8.185227258067111489e-01
1.117914995323780053e-01 -2.092396275748345177e-02 -6.952959464136734269e-01 1.322190956796723271e-01 -1.848695465454603948e-01 9.738281991695071360e-01
7.173045894215347718e-02 -3.946312531103822463e-02 -6.840372009946755760e-01 -2.406074891644660041e-01 1.383291777226037245e-01 -9.607148769268433197e-01
1.008071133241981582e-01 -7.405529936643848177e-02 -6.966075800828206432e-01 -2.400302909376818561e-01 1.876230610046778768e-01 -9.524615721443079330e-01
-5.542588998451490612e-02 1.824473166572470606e-01 -6.450862836890340901e-01 -1.462058202291631470e-01 -9.860668387334132756e-01 7.934763815899187334e-02
-1.480269674667862752e-02 -1.344153185797057337e-01 -6.722230152329138342e-01 -3.409363974849140000e-01 2.000297144447790998e-01 -9.185589182023921051e-01
-1.277429583376088126e-02 -1.586751186773029954e-01 -6.859873822587266856e-01 3.461855087362801786e-01 -2.158833138833693710e-01 9.129895882909824234e-01
4.668727673826973679e-02 2.039196218872351904e-02 -6.791904349726358703e-01 1.952518927166569940e-01 -6.884698887603352135e-02 9.783336805575418849e-01
4.438679507482238412e-02 1.780594589644089454e-01 -6.640887441180294282e-01 6.828987003260804378e-02 7.635872130768918409e-02 -9.947390810313948561e-01
-6.002154524059962609e-02 -1.592786987038971036e-01 -6.609011552349126628e-01 -3.200281071506263508e-01 2.575032640558541086e-01 -9.117423318208758287e-01
3.613774012807502434e-02 1.844399392584791242e-01 -6.641699095623259108e-01 7.417460323327712546e-02 7.916434956332947526e-02 -9.940981510864008719e-01
5.961823960703081793e-02 8.034424069782235278e-02 -6.709406801744678406e-01 -8.776247381379158330e-02 6.453194933433420433e-02 -9.940489805362683340e-01
1.773608655251826885e-02 7.649390308568548846e-02 -6.705692295512599710e-01 2.289019307931726144e-01 -1.019594807514952531e-02 9.733960903568528167e-01
-4.821026054233883834e-02 -1.304719413193466959e-01 -6.657921336801821965e-01 3.799720942006817315e-01 -1.870183649523460279e-01 9.058947724759753850e-01
-1.316286884631648335e-02 -1.766079105885229872e-01 -6.902275035410405657e-01 3.410270393758463303e-01 -2.296673317611983844e-01 9.115664951808158945e-01
-6.392861130373431178e-02 2.207942740313894869e-01 -6.507684506349242781e-01 7.057093666398842613e-01 7.054692748371196864e-02 7.049804400544323890e-01
-7.832710108224241741e-02 3.037827155692945924e-02 -6.234787671628397865e-01 -4.591441310784070140e-01 6.779185648967292477e-02 -8.857713763099019921e-01
6.991652460538609615e-02 1.034569270987540646e-01 -6.681299803695919248e-01 -2.479724463273636492e-01 5.882756040210748161e-01 -7.697022018781434216e-01
-7.982621763256399217e-02 1.327762772150427040e-01 -6.224591925429184824e-01 -5.499867555638175975e-01 -3.531815962637863821e-02 -8.344262677462825906e-01
-1.048765953530283734e-01 5.728051236626249820e-02 -6.075103342185170785e-01 -4.901722681337830068e-01 3.681980327692765953e-02 -8.708475467263089298e-01
1.649750996601593786e-02 1.381464808869394545e-01 -6.644354284053316517e-01 -1.112789188593386186e-01 -1.253246414941015102e-02 -9.937101889181978454e-01
-2.678293082993948859e-02 1.751684180383264455e-01 -6.532902919197112190e-01 4.185606924650318028e-01 -5.755699755942036977e-02 -9.063631384578357819e-01
-5.570592154666212381e-02 -1.189848380176049547e-01 -6.602573062203050958e-01 3.858341057568606680e-01 -1.912157453705903010e-01 9.025345320580109298e-01
-4.923223028494177339e-02 3.282593626389140873e-02 -6.377590739275272869e-01 -4.323254445096481602e-01 1.628125982670114436e-02 -9.015706464875563597e-01
3.846830720979318996e-02 -4.410451434358272915e-02 -6.830507440923506701e-01 2.718783185618407483e-01 -1.280407806571425000e-01 9.537755178157464320e-01
9.935039824534265540e-02 -1.002560876707377230e-01 -7.082524983334300694e-01 2.267854235515383288e-01 -2.019664106193259645e-01 9.527738140010434398e-01
-1.146382036301576146e-01 7.277963460243015714e-02 -6.062022076515874991e-01 5.873304887471851865e-01 -6.174299162208510272e-02 8.069886616139955171e-01
-2.866814380055199285e-02 2.018354411753556232e-01 -6.605123496352344192e-01 -3.402646156312084669e-01 -1.644054967979886872e-01 -9.258460044585989923e-01
3.654042517641020726e-02 1.984748954724730244e-02 -6.696527058386658737e-01 -2.538381328639891521e-01 5.691632348144069764e-02 -9.655706781098314373e-01
-8.834561128590970314e-02 1.437208078000951905e-01 -6.236398566126395426e-01 6.189262690381654997e-01 2.987307151105661474e-02 7.848808018374454631e-01
-6.059699100169950448e-02 -4.216456831657285943e-03 -6.395457179045606066e-01 -8.037188301400789714e-02 -9.925345297785943544e-01 9.173640290510272355e-02
3.480656334562664406e-02 -3.292968625530158788e-01 -7.556033115041763670e-01 -9.972136496764253399e-01 -5.444379414288320201e-02 5.099813896948295067e-02
-3.322602349672856142e-02 -2.175920875553117445e-02 -6.504165478144749990e-01 1.545797866411584287e-01 9.834656688376605116e-01 -9.434176052876647178e-02
-3.788507208301410134e-02 -4.859197735183636013e-02 -6.489551428345556872e-01 -3.663882426300779649e-01 1.245699907483212160e-01 -9.220856647120191374e-01
-7.002366941404998546e-02 7.772785737579324117e-02 -6.266454484559270677e-01 -4.927082611734844297e-01 1.294544458313105903e-03 -8.701935954292279174e-01
-1.085551672093980520e-02 9.652887300528757708e-02 -6.513409034788950613e-01 -2.897378226078456409e-01 -4.426853093833096192e-02 -9.560817388272963013e-01
3.738537220361894120e-02 -1.958675045280610927e-01 -7.130055560555786931e-01 2.728583143226454011e-01 -2.054282787587232428e-01 9.398657151908631491e-01
-7.119657470893960005e-02 -1.509729265607672455e-01 -6.544959016825943054e-01 -3.439030995316972317e-01 2.447600201467437508e-01 -9.065446435064612452e-01
1.129269893596791807e-01 -8.931130203383877419e-02 -7.088917415343138906e-01 1.900907725608386445e-01 -2.059585896785200154e-01 9.599200787174203553e-01
-5.198662979668159517e-02 8.834921956453059555e-02 -6.334629078174054406e-01 -2.356621599530387134e-01 6.199371003562106353e-01 -7.484259067991979597e-01
-4.491597091937218900e-02 9.931061099991833618e-02 -6.480986240057702297e-01 4.509245232473255149e-01 4.598135427834521699e-02 8.913769064727341540e-01
7.954065696331977242e-02 1.199512581271556522e-01 -6.731458594430294040e-01 -6.773326795946116308e-02 -1.514627615542893657e-01 9.861395622699052899e-01
-1.161669784127495469e-01 6.908182170645579823e-02 -6.002831861266050284e-01 -4.948215828755925805e-01 4.523620844670141888e-02 -8.678163898923894060e-01
-9.812486486174068490e-03 2.215568837650008782e-02 -6.547477890940568424e-01 -3.596719635789211722e-01 1.540523805087736474e-02 -9.329516371473276504e-01
2.361766738400038548e-02 -7.009844882318967685e-02 -6.818909935899077901e-01 2.958546091321910265e-01 -1.227313581626252315e-01 9.473157150489985856e-01
-7.078014236822360861e-02 -1.075667088442922026e-01 -6.491745564000849233e-01 2.584459300051369923e-01 8.960444983773812044e-01 3.609847063123411415e-01
1.375380368208130311e-01 -4.817116473297970713e-02 -6.992583453909898550e-01 -1.761648435368520227e-01 2.101223606302020097e-01 -9.616727829489756241e-01
-1.218718649004890825e-01 4.549140408433970106e-02 -6.034618316052414722e-01 5.373092562774337555e-01 -8.077734919072740438e-02 8.395080601020519229e-01
-9.560278785670259238e-02 -1.076413678702649868e-01 -6.400524276420551661e-01 4.267177337584083241e-01 -1.716515996941186395e-01 8.879457776342754016e-01
-1.929722367147061052e-02 -1.505459272946141902e-01 -6.816172717569264350e-01 3.439546728373037432e-01 -2.142248356569181056e-01 9.142225674424963033e-01
-7.284738244796053024e-03 7.920030511741250889e-02 -6.632383138213364671e-01 3.358291060063365863e-01 4.496143582852409060e-02 9.408492338558936963e-01
-9.194304540589412489e-02 2.113541959298434816e-02 -6.171178024732879575e-01 -4.616650621911721486e-01 6.768391454888597614e-02 -8.844683476888023366e-01
1.297999818579796683e-01 6.274320837246576653e-03 -6.872444822354073501e-01 -1.115811134905101559e-01 1.815953848964432515e-01 -9.770224006114345272e-01
-8.535790229789899652e-02 9.360234790832221152e-02 -6.180116278224301318e-01 -5.290441595129110608e-01 -4.190676132025684605e-03 -8.485839472431905284e-01
-2.735230468140877752e-02 1.418072280576538891e-01 -6.600832753785428331e-01 3.733274642205648419e-01 8.784743378760552501e-02 9.235309593270683015e-01
-4.894241672890432826e-02 7.171110827240344265e-02 -6.450628102536148933e-01 4.641129928535380755e-01 1.395866235284023982e-02 8.856660124504334153e-01
-5.765324738017434808e-02 -1.699106565805808267e-01 -6.687592711427875480e-01 6.739459613205996957e-01 7.265023396305572145e-01 1.341312481526187594e-01
-7.861490703041133787e-02 1.234691877386094039e-01 -6.227783409222049649e-01 -5.133047784884432474e-01 -4.500655423288362628e-02 -8.570254456298321832e-01
3.197643581575490036e-03 1.585907455160715240e-01 -6.700139262054676248e-01 4.852883740246859839e-02 1.827206034005416854e-02 9.986546368746775926e-01
3.531860460273514562e-03 -5.396744183797807376e-02 -6.654496144392691992e-01 -3.275415176105283543e-01 1.228365756791262309e-01 -9.368178744648386624e-01
9.158409507572783104e-02 -2.564051363979394371e-02 -6.929406299350212572e-01 1.856098724718323045e-01 -1.560672137196752463e-01 9.701505038099847988e-01
5.820165948884948454e-02 2.955393499030516472e-02 -6.807446660517618708e-01 1.867703820962338945e-01 -8.288055864844377785e-02 9.789012398448315722e-01
6.824710234154900135e-02 9.115562879882257996e-03 -6.845405492533020997e-01 2.045343693132228580e-01 -9.952334879170313120e-02 9.737868323277569793e-01
-6.127825273536072204e-02 2.144027485467153160e-01 -6.451095175079566424e-01 -5.811713990438538424e-01 -1.637688512146328046e-01 -7.971320896220708274e-01
9.244880259767221387e-02 2.556344140122453201e-02 -6.858995618377913273e-01 7.209987045739012224e-02 -1.296274355673087686e-01 9.889379842175497481e-01
8.251110244702640484e-02 1.391962283033776893e-01 -6.696858731856578650e-01 -2.139418267218910485e-01 -2.555050127866888010e-01 9.428393729685741187e-01
6.453059565368442219e-02 1.613222473763400444e-01 -6.644287400616025741e-01 4.231355484272132650e-02 9.179408982130483896e-02 -9.948785896532551520e-01
-1.410119718300354569e-02 2.264322033297728465e-01 -6.656376701753412561e-01 2.647859024344283163e-02 -4.989816416891059564e-02 -9.984032539366507475e-01
-2.122200924859947435e-02 1.612915646011859050e-01 -6.531850085649717474e-01 -4.015581900447803276e-01 -1.364911410914957379e-01 -9.056054264476893767e-01
2.602666910123721186e-02 -1.579322262764535079e-01 -6.947064942845641022e-01 -9.934762566874607570e-01 -9.989846477981383088e-02 5.500203753413402535e-02
-7.917623763704857709e-02 1.143608507403849756e-01 -6.287965315700259072e-01 5.286923500337086246e-01 4.429472195527907330e-02 8.476569923163135289e-01
1.135455233726470198e-01 -1.204441292679457598e-01 -7.151808360775226969e-01 -7.376379525822774896e-01 2.933077183984314495e-01 6.081618478975248099e-01
1.281962863832507848e-01 -8.162762143350502098e-02 -7.046785684773627656e-01 -2.542974776444531515e-01 2.308716548300812910e-01 -9.391650929733752484e-01
-7.315405359005115737e-02 3.870131614113501289e-02 -6.326571446032610568e-01 4.757126601148577993e-01 -2.760187278939339739e-02 8.791675617451794045e-01
-8.847312705689587553e-02 -1.024113435914174308e-01 -6.424520242892671762e-01 4.193654778436721742e-01 -1.752144372954531348e-01 8.907482792327954257e-01
-4.266371756592480385e-02 2.311294953197141899e-02 -6.484715986177589375e-01 4.102693852921313056e-01 -4.392552477282739287e-02 9.109059115877161661e-01
-7.349494824915553393e-02 6.270558852352003942e-02 -6.316629849543387021e-01 4.898883536677247630e-01 -1.709790841877496456e-02 8.716174977984489924e-01
-5.759661141539048484e-02 1.342244357136821581e-02 -6.419034827882069694e-01 4.299825020777888196e-01 -4.207202664958151206e-02 9.018564145586154268e-01
-1.171735460594392278e-02 1.668714843942971371e-01 -6.595683780297748600e-01 -4.427620420014658498e-01 8.863552094072877363e-01 -1.354112880053036649e-01
2.146005086836539830e-02 7.871816114917694340e-02 -6.643396394841553088e-01 -2.326167740055447020e-01 8.981439671369413971e-03 -9.725270022948888649e-01
1.350401566302527820e-02 -4.062192635277218217e-02 -6.719710030614807206e-01 -8.400949631818354080e-01 -1.777409965163524175e-01 5.124925277444387639e-01
6.093917097999011594e-03 2.124778101192108803e-01 -6.694380698875703750e-01 -1.412404648169746091e-01 -7.926334826259556765e-02 9.867970676489099535e-01
2.886543243347036367e-02 9.195895109813338741e-02 -6.624524507254387906e-01 -2.437122330253334024e-01 8.566249491922453552e-02 -9.660570813559719028e-01
1.351982253919036814e-01 -5.094238237331828734e-03 -6.945992742879523174e-01 4.774289309033327711e-02 -1.960456098702752226e-01 9.794318429630295419e-01
-1.491026756283636567e-02 2.201434681622442893e-02 -6.603913884713676907e-01 3.748231637117009907e-01 -4.270176594643695228e-02 9.261123879585064778e-01
1.399341399933124175e-01 -1.845898817718733954e-06 -6.934913647131891734e-01 -5.501542794391284935e-02 -2.141685209256392053e-01 9.752461983174669502e-01
-9.166054159473982499e-02 -9.449726127851845736e-02 -6.357705450853352591e-01 -2.112562541499227176e-01 -9.100827607567836264e-01 -3.565391474380537051e-01
1.866331149868558081e-02 2.080591383882977596e-01 -6.639146356834216833e-01 7.136212700192813563e-02 5.012507482555248611e-02 -9.961902045811801276e-01
-1.261429966328400376e-01 -3.514628619641133045e-02 -6.098847675761525089e-01 9.957226907002061367e-01 9.237297673384835262e-02 1.885840414661037233e-03
-5.635828695008581607e-02 9.506004684322340303e-02 -6.343274913151354388e-01 -4.665592957253876794e-01 -3.190250945695746049e-02 -8.839143926097021708e-01
1.549446356685197333e-02 -2.672780756604569152e-01 -7.290929908589414143e-01 9.975561367169605287e-01 5.246356600422816263e-02 -4.614464584816543868e-02
-4.190075331133057135e-02 -1.276410288929508141e-01 -6.605265070512367220e-01 -3.538416392035523828e-01 1.982624244771935551e-01 -9.140503845008590700e-01
1.329405867109723915e-01 -6.946058575706078042e-03 -6.948598897123540175e-01 4.774289309033327711e-02 -1.960456098702752226e-01 9.794318429630295419e-01
3.217539445401658427e-02 -1.890517360692507420e-01 -7.096493827870061777e-01 2.953958095386673977e-01 -2.427720368677584450e-01 9.240146393981399919e-01
-1.049351698059504401e-01 1.265508821031459119e-01 -6.094300121998551534e-01 9.463849961693441282e-01 -2.859507904435844017e-01 1.502916646731935202e-01
5.812932473157745444e-02 4.677753665696894603e-02 -6.728795132058286166e-01 -1.810768436284005967e-01 5.801623085250838530e-02 -9.817562292439216964e-01
1.221619100220439624e-01 -7.468040568032227600e-03 -6.887394675344978845e-01 -1.293231645777961625e-01 1.667978926478804746e-01 -9.774732641416901124e-01
1.258069744420801939e-01 -9.577300876754266112e-02 -7.112778997642302814e-01 -8.274123858146069654e-01 2.220124864558711553e-01 5.158480393083427762e-01
-1.142056329014728977e-01 1.693728750963230736e-02 -6.110415282027733541e-01 5.000290840514781676e-01 -9.469991786156425895e-02 8.608152186501191183e-01
1.027230990924815762e-01 -3.894141610689062089e-02 -6.971027874981213790e-01 1.531181793663972668e-01 -1.588444428016561882e-01 9.753580194669806414e-01
-7.084809079629465767e-02 1.159662042037870183e-01 -6.270361613519863653e-01 -5.133047784884432474e-01 -4.500655423288362628e-02 -8.570254456298321832e-01
3.403672921280943148e-02 1.207709183965929300e-01 -6.729921442767949902e-01 1.227427468642592612e-01 -1.805930970586422293e-03 9.924368779451647749e-01
5.230759529236949376e-04 -5.088791088311383354e-02 -6.650092920645240824e-01 8.681431991335544218e-01 1.651628976903051493e-01 -4.680262845446815922e-01
1.905060834697112904e-02 -3.184363430980223231e-01 -7.562765406521375633e-01 7.749368905141770236e-01 -2.273573620275951834e-01 5.897299768979625822e-01
-1.220261715338794711e-01 3.917107408289204062e-02 -6.039712122073167544e-01 5.373092562774337555e-01 -8.077734919072740438e-02 8.395080601020519229e-01
-2.094682021490639270e-02 -1.021558740112831348e-01 -6.670796260871922900e-01 -1.428627381781941985e-01 -9.897144441841319029e-01 7.453657727828437093e-03
-4.854312983069410808e-02 -1.018108649238302771e-01 -6.631070466804471764e-01 3.761321697077338322e-01 -2.470340776853196529e-01 8.930278581170442154e-01
-1.242226155324090975e-01 1.086521556367854753e-02 -6.056132203557895721e-01 5.324915806797848594e-01 -9.627124310010916342e-02 8.409426640723514090e-01
-8.025876913720220163e-02 2.382420424347710813e-02 -6.296684561681834547e-01 4.733665335362266524e-01 -6.937836615354003866e-02 8.781291290224699786e-01
-3.220179550514615935e-02 2.209202270134628665e-01 -6.687065511206202739e-01 -8.966685297846535008e-01 -1.538723701027025215e-01 4.151010014596503428e-01
6.981672040495508214e-02 -1.748923256364471046e-01 -7.114584831841918033e-01 -3.461223587036661997e-01 3.088458232813475202e-01 -8.858970426901068285e-01
2.837091017168191440e-02 7.614358766693085645e-02 -6.730737634013982396e-01 2.289019307931726144e-01 -1.019594807514952531e-02 9.733960903568528167e-01
1.002971560136029366e-01 9.618292612085252435e-02 -6.758612564422096236e-01 -2.069806002329771175e-02 -1.591714471492829963e-01 9.870339612818166408e-01
-1.744783151711777960e-02 -1.151430976946084817e-01 -6.680425299610768253e-01 1.732809659802753699e-01 9.838249052679135520e-01 4.541214158706568388e-02
6.667220021180547684e-02 6.766384800329373894e-02 -6.786338085529846076e-01 9.237403448462851163e-02 -8.519188430607423090e-02 9.920732738066342371e-01
-2.615104858951357997e-03 7.802021875409582974e-02 -6.548717335994229671e-01 -7.183603494534147593e-01 -2.992734043423470047e-02 -6.950271668270967540e-01
-2.358279851448116457e-03 -1.915670154176261630e-01 -6.911374437743744714e-01 -3.226608870238194537e-01 2.710297541000496468e-01 -9.068808214850883065e-01
-4.745379399054856784e-02 1.616834951101411844e-01 -6.450801160120419597e-01 -4.613381127443380580e-01 -1.232093505511411974e-01 -8.786276809128302778e-01
1.153364578078415470e-02 1.003701474487053852e-01 -6.693737742830465631e-01 2.112635917555212295e-01 1.891969275931259381e-02 9.772459977019345434e-01
-6.843414098447941907e-02 5.043384832868257062e-02 -6.348427146854350722e-01 4.757126601148577993e-01 -2.760187278939339739e-02 8.791675617451794045e-01
-8.868466495120269633e-02 -1.255596050654692736e-02 -6.205863146211278991e-01 -2.933141138156767913e-01 6.792214628388861808e-01 -6.727741337592638704e-01
8.133910574190776621e-02 -5.608685069454295152e-03 -6.883542093437081677e-01 1.630423511116741164e-01 -1.459564912918278057e-01 9.757632368529549627e-01
-5.418522427267451896e-02 -1.435502765840037109e-01 -6.592968658859678088e-01 -3.530850526014822077e-01 2.208132359003510958e-01 -9.091603051610999131e-01
-1.146658110176347611e-01 -7.504685447291796485e-02 -6.240362055574446565e-01 4.876166745291086735e-01 -1.483246122827160118e-01 8.603660779646968848e-01
-2.098875986078785338e-02 -1.355018161865471915e-01 -6.701742987748587899e-01 -3.387101441535770863e-01 1.985813248100880557e-01 -9.196960887620068137e-01
-2.709662567098636982e-02 -1.777901999717346748e-01 -6.782448314612125051e-01 -3.283025982295266765e-01 2.649507319622032009e-01 -9.066523664715350206e-01
5.180973490760117095e-02 -2.368452802252753436e-03 -6.851038037755392551e-01 2.571033596262179977e-01 -1.742118294774075427e-01 9.505514720092994585e-01
-1.079131916502483329e-01 5.316499274880749637e-02 -6.118390500119813558e-01 5.345272908162373993e-01 -6.160537385078179717e-02 8.429029323032153354e-01
-4.054405481838144198e-02 1.482561582005509186e-02 -6.498259187500922129e-01 4.102693852921313056e-01 -4.392552477282739287e-02 9.109059115877161661e-01
-1.636091991303984666e-02 9.969875798028980662e-02 -6.609360622236040150e-01 3.462835589924710411e-01 4.517421347411090110e-02 9.370416144486344301e-01
-5.875790415031637709e-02 1.659233888369363585e-01 -6.462825557334060944e-01 5.118179507557871766e-01 1.047099887842797977e-01 8.526888081433593447e-01
6.743214468556593677e-02 -9.380840175396290559e-02 -7.020448217430995674e-01 2.073086992687969421e-01 -1.000949761885197159e-01 9.731413560985366917e-01
2.522045630162004365e-02 1.855168470450658247e-01 -6.694980067800464507e-01 -8.183172887735805368e-02 -8.311449974609404212e-02 9.931744801800430622e-01
-8.403565803240310716e-02 -4.140061055434670484e-02 -6.276379185914624514e-01 -4.151129144078052891e-01 9.883343467768811175e-02 -9.043855485807307248e-01
-9.096351285365829320e-02 1.068092307865532858e-01 -6.145820675937376798e-01 -5.290441595129110608e-01 -4.190676132025684605e-03 -8.485839472431905284e-01
7.310794007718794153e-03 -6.569545565196772963e-02 -6.682876999685103403e-01 -3.350738082009512842e-01 1.250314235249543049e-01 -9.338590290772132985e-01
-8.559353922615191290e-02 1.002725631345090657e-01 -6.211041580585131561e-01 4.875456813266267064e-02 -9.962693504200547112e-01 -7.120655517436613735e-02
-1.944508755859621421e-02 2.130346438737859560e-01 -6.706478252314499455e-01 7.027394965341159094e-02 7.688384519027847974e-02 9.945604287065048510e-01
1.079652815071352190e-01 -9.672899568200386822e-02 -7.094422568349015856e-01 2.140985104304663489e-01 -2.114031425218387827e-01 9.536616481558574110e-01
-2.415952026856852536e-02 7.908052442000448878e-02 -6.490654250718155271e-01 -3.839057120674601586e-01 -1.550234085378661593e-02 -9.232421576542251263e-01
9.056180968940324982e-02 3.112435342458568996e-02 -6.850330780714488643e-01 7.209987045739012224e-02 -1.296274355673087686e-01 9.889379842175497481e-01
-4.650993962769330720e-02 -4.589522549244083767e-03 -6.482896599340145505e-01 4.179360822396448460e-01 -6.905064941114180677e-02 9.058484635843216948e-01
-1.572696853979277387e-02 3.489618651558788753e-02 -6.522549674751083604e-01 -3.715178760599979202e-01 1.211485054187730684e-02 -9.283467553474918921e-01
-5.634585830777255611e-02 2.278911781039408557e-01 -6.517131310488635254e-01 -5.272245742852068595e-01 -2.140742936675660846e-01 -8.223177275606522452e-01
9.744837779355237928e-02 -7.797115902974885437e-02 -7.062127817391017359e-01 2.630728301700716032e-01 -2.822886649017446459e-01 9.225539527281312324e-01
1.088236427982494786e-01 -6.166260102428491874e-02 -7.023500320846733924e-01 1.779607181017124895e-01 -1.775900878455006493e-01 9.678800253707844359e-01
7.555285944240731910e-02 -8.054587020086668991e-02 -6.913524845683969300e-01 -2.666548660513393121e-01 1.782421314330905615e-01 -9.471667883711564206e-01
-8.321684018938012165e-04 1.427229172275406577e-01 -6.614001819453338982e-01 -1.939984136636616896e-01 -4.832444920928643389e-02 -9.798108812952639468e-01
-2.092475586433358015e-02 1.513178186799905844e-01 -6.662969948247189356e-01 -4.544935484318242680e-01 -3.760392267232135627e-02 8.899559311749672963e-01
-5.002346279123485312e-02 -1.286881087890489050e-01 -6.575752335855841180e-01 -3.608276268010630061e-01 1.956512493640205352e-01 -9.118793847650086271e-01
-2.426109166391888367e-02 -4.024116256928840507e-02 -6.609996849878497782e-01 3.822858300434393009e-01 -9.153041219595921263e-02 9.194997160365174782e-01
4.042553263448297324e-02 -1.836170916886334936e-01 -7.108982354834821882e-01 2.861585410427333609e-01 -2.390387655221807850e-01 9.278867161275271558e-01
-1.313449601260608356e-02 1.343009209791922731e-01 -6.646536941942866594e-01 3.206312100486396477e-01 8.073145534339863649e-02 9.437574154733207044e-01
1.168170584148198188e-01 -1.291011249600318954e-02 -6.888844077435084534e-01 -1.523192859534521215e-01 1.441010563478135054e-01 -9.777697687523759784e-01
1.603997282060132604e-02 -2.845641494508216462e-01 -7.369533387470726948e-01 9.975561367169605287e-01 5.246356600422816263e-02 -4.614464584816543868e-02
2.291307491175686648e-02 5.856284354565170769e-02 -6.719524151110896071e-01 2.306496799756626859e-01 -8.380662007810051745e-03 9.730007654834784692e-01
1.361488178202658328e-01 2.675130082203928516e-03 -6.930305463915702457e-01 2.334536266576481625e-02 -2.069183529966762136e-01 9.780796436053388332e-01
-2.907448956741472482e-03 2.163437231725997556e-01 -6.702558841297533432e-01 -1.051377050976951277e-01 -2.426994842154291121e-02 9.941614720810727501e-01
1.486202535063933100e-02 -2.025096807782609740e-02 -6.659343695013952846e-01 -3.093526476324177654e-01 7.513341816163113251e-02 -9.479746351449296338e-01
1.008242625619178851e-02 8.082504527626943602e-02 -6.686532494669554794e-01 2.830301266434335772e-01 3.826746345457903830e-03 9.591033851596028059e-01
-5.910143194232558156e-02 -1.473578094347633982e-01 -6.650568730626262859e-01 3.869127197255670114e-01 -2.054076647736182981e-01 8.989472946545941090e-01
-6.750259858801202495e-02 2.049988750315865360e-01 -6.454647837685025813e-01 6.625193755585248034e-01 9.344572363426385808e-02 7.431930931756638437e-01
-6.336809057442754911e-02 -1.427798384898285033e-02 -6.315065668511499197e-01 -2.209229234202948755e-01 7.113139823292132791e-01 -6.672521865459759560e-01
-3.041823149371394863e-02 1.839068622038247391e-01 -6.553755760874488967e-01 9.208235064658946145e-01 1.071041076044322304e-01 -3.749837064115084662e-01
-3.284470963249297437e-04 1.843432382662996138e-01 -6.664633752376855069e-01 3.407470961977329127e-01 -9.321762177270285221e-01 -1.222248564611327359e-01
-2.218672354799852350e-02 -1.454465617211554984e-01 -6.793352588085264099e-01 3.439546728373037432e-01 -2.142248356569181056e-01 9.142225674424963033e-01
-5.441303863084002296e-02 -3.558896581666155801e-02 -6.404365329687935482e-01 -3.961569570879659441e-01 9.365295910314969108e-02 -9.133941036606416652e-01
7.037974728624603804e-04 5.419340555034556778e-02 -6.656022853477397971e-01 3.102550639359589746e-01 8.129094109032987403e-03 9.506185949848973138e-01
6.253127364325583581e-02 8.635977897701016537e-02 -6.708073473702262923e-01 -8.776247381379158330e-02 6.453194933433420433e-02 -9.940489805362683340e-01
