2.423638191440819628e-02 -2.986758143870387600e-02 -7.121285103333163669e-01 -8.077755307955977182e-01 -4.927824103984581594e-01 3.235184505554142276e-01
-3.074673845874312944e-02 1.474500123626767412e-01 -8.109468978425216079e-01 -1.007510359019385959e-01 -5.584541704298474629e-01 8.233942969769690867e-01
4.823326188721796526e-02 -1.761291173613576538e-02 -6.447196300836597338e-01 9.188654952037510482e-01 -2.165107696353065492e-01 -3.298625294814386266e-01
-3.403556971591206737e-02 -1.543550363202662312e-01 -7.818378454543367662e-01 -8.649253785188742993e-01 2.849709341154544121e-02 5.010908153828762535e-01
-1.021242507596022836e-02 -9.094969197813944362e-02 -7.495064987509633125e-01 -8.564358120194155433e-01 1.068383382540585569e-01 5.050774884804860587e-01
9.011392180307266353e-02 1.385561852353215384e-01 -6.883758106026256485e-01 -5.505749478144157383e-01 8.033820264111620757e-01 2.268139027455060297e-01
-2.373819918436924359e-02 -4.166347816506002499e-02 -7.617059776826110573e-01 8.012005321738029373e-01 -9.231532777635724496e-02 -5.912322618920237138e-01
1.010510992488417581e-01 2.068046949020228842e-01 -7.116491031967502323e-01 6.796547329709838881e-01 -3.745187428239947214e-01 -6.307179680520250686e-01
-6.532542783950785747e-02 -3.245258110343233748e-01 -8.714888809429444105e-01 -9.967465985186351185e-01 5.769382067677412268e-02 -5.628180342923604085e-02
-3.309751654701624524e-02 7.023482766522125276e-02 -8.001363065680140441e-01 7.377562791284487664e-01 -7.379471946428618756e-02 -6.710216181210062469e-01
-1.035580805614027058e-02 6.763515390234561830e-02 -7.845151128079297376e-01 -7.216959165253640229e-01 1.254830604641920255e-01 6.807415115939049466e-01
6.894333822125453537e-02 1.180671283590296883e-01 -7.107507329401077101e-01 -8.098075290048316610e-01 3.217883896488999973e-01 4.905751708497448904e-01
3.109142625954026615e-02 7.517711535547524915e-02 -7.290183457503213171e-01 7.600312880805022431e-01 -2.500045622375779986e-01 -5.998751203367994611e-01
6.935777556574578007e-02 9.230939256591537412e-02 -6.914286148645544250e-01 -8.483007477834941801e-01 3.129544751283329096e-01 4.271362052169243584e-01
-1.147593799000275541e-02 -3.477956014290298908e-02 -7.514019685433137585e-01 8.231904105297228602e-01 -1.331388200917200393e-01 -5.519344187460055728e-01
-1.666287023440553988e-02 1.052656183777337384e-01 -7.963640883343677812e-01 -6.972473758315056447e-01 9.694630026455235139e-02 7.102446844300169815e-01
-6.846755725634549872e-02 3.518889767391544798e-02 -8.455614415532589634e-01 -7.533721153839999518e-01 2.327001708439191754e-02 6.571825941598951060e-01
-2.692919685476954927e-03 7.610995757503382676e-03 -7.623558148657607614e-01 -7.848332880455102245e-01 1.553677622560413751e-01 5.999146342832649692e-01
2.239576754399589392e-02 -4.016708424727893217e-02 -7.020737119530486847e-01 9.228244925585485370e-02 9.874110627620923397e-01 1.284653365479415388e-01
-7.634253426126538788e-02 -2.877864211462517474e-01 -8.537463473109632162e-01 9.111054095569326439e-01 9.178377359094272436e-02 -4.018241799363257982e-01
1.111856636809491899e-01 2.277830223767574047e-01 -7.077368241330129761e-01 6.043622985238300549e-01 -3.556418407698166417e-01 -7.129271303694715289e-01
-6.652354758280436264e-02 -1.242443338564191702e-01 -8.240359917847380755e-01 8.542827881466718010e-01 -1.219321993062906680e-02 -5.196655109434071829e-01
-1.127937655671835612e-02 -2.132611930297118388e-02 -7.703040213165820438e-01 -4.448170052378501160e-01 4.369872322852917934e-01 7.817800142436941435e-01
1.157315134164236571e-02 6.924427145894745429e-03 -7.298066869083761343e-01 8.122487975150153305e-01 -1.897459665895826486e-01 -5.515871273864144664e-01
-6.401038383617550787e-02 -1.509802910033260226e-01 -8.325788147316135479e-01 -8.526751472560141210e-01 -2.027296676141387716e-03 5.224375401137647534e-01
2.034743509166307696e-02 7.983100768925262269e-02 -7.383389853677652104e-01 7.965565964483232175e-01 -1.765517295151054489e-01 -5.782102346550848093e-01
6.057480047122652117e-02 1.751038733458204488e-02 -6.499838745360185799e-01 -9.384982418767158219e-01 2.416061720770301124e-01 2.466728757050477283e-01
-1.714441669331684404e-02 -1.792221977769725416e-01 -7.359361945338854794e-01 8.623001651266410938e-01 7.819723791068257379e-02 -5.003235125453409093e-01
9.199208076456329153e-02 1.414686331030916844e-01 -6.893865872992082089e-01 -8.665294936785769009e-01 4.340060586935797216e-01 2.465063439394901135e-01
2.568026737524000194e-02 -7.434799315475647263e-02 -6.714873313870554083e-01 9.051232197765348708e-01 -1.443275395981033771e-01 -3.999018858856716596e-01
-7.656597488203027713e-02 -1.216717139208544629e-01 -8.404775476614413376e-01 8.602243378679472752e-01 5.055294066248884957e-03 -5.098907064671364120e-01
8.703202709168567086e-02 1.244020767362676722e-01 -6.542361281052399002e-01 9.158703472793302547e-01 -3.324926353368065635e-01 -2.250114539778469702e-01
1.133068208506526203e-02 -1.010560938618852191e-02 -7.238275673764995588e-01 8.290970756776658845e-01 -2.027505748226899052e-01 -5.210472565054073968e-01
-8.197678317494924358e-03 -1.645394514678071018e-01 -7.195197619049698012e-01 8.822506493107424852e-01 -1.742219692833101366e-02 -4.704574995097472456e-01
-7.391060644264087209e-02 -7.724353429234276369e-02 -8.373976830697958951e-01 8.345594677040356624e-01 -2.083023087827861122e-02 -5.505239289505174938e-01
-3.402795365744793604e-02 -1.706630624282231071e-02 -7.984713797352961384e-01 -7.893483562135822362e-01 9.998723317355305562e-02 6.057488966108096617e-01
-8.377996295518776171e-02 -9.445949454208460438e-02 -8.630880784452681365e-01 -8.182146517802875163e-01 6.177046778878884621e-04 5.749125168693004495e-01
-5.631590068331747412e-02 -1.526169224399672453e-01 -7.991281440284708770e-01 8.822071534743463062e-01 -5.173647730730466382e-02 -4.680105503880464535e-01
6.991792205316454956e-02 1.624714143974902991e-01 -7.316970182448948590e-01 -6.528828969473442490e-01 2.533428636465889783e-01 7.138356367631061294e-01
-6.265814777077871600e-02 -1.665077688880496065e-01 -8.174801633847466054e-01 8.678256675468265513e-01 1.305628594217560397e-02 -4.966972358935583531e-01
3.526181621964619151e-02 5.335570906021699228e-02 -7.265904824547826379e-01 -7.935130901928469926e-01 2.359595164829826341e-01 5.609457034987572754e-01
-2.704872222608538379e-02 3.743175629532575349e-02 -7.880184316208057593e-01 7.499124458640201718e-01 -1.142350493731104782e-01 -6.515993224620219015e-01
-2.739690780353746039e-02 -1.727547102601318940e-01 -7.685308183772324719e-01 -8.796978409827015399e-01 3.206706757897127835e-02 4.744506420559038706e-01
5.494388467541413273e-02 1.915089168779384246e-02 -6.514749366253813623e-01 9.112859798408423639e-01 -2.492824344820416260e-01 -3.277440019347760414e-01
-5.201478215057605409e-02 -5.202747836265728121e-02 -8.188816091850088519e-01 -8.054362948387570054e-01 5.593618153157049050e-02 5.900368789762909794e-01
-7.533545777951949907e-02 -9.265976373140835665e-02 -8.389743621370060467e-01 8.345594677040356624e-01 -2.083023087827861122e-02 -5.505239289505174938e-01
-2.536682952247169484e-02 -1.787759763365991683e-01 -7.643598053114912805e-01 -8.796978409827015399e-01 3.206706757897127835e-02 4.744506420559038706e-01
-5.469895064613221336e-02 -8.142168633131978417e-02 -8.022560443204808101e-01 4.243622837136104553e-01 -5.077454581721069227e-01 -7.497407564398286262e-01
-4.493118318640795805e-02 -1.414114521058919272e-01 -8.012032947163335583e-01 -8.510824159765449926e-01 3.086207126773204273e-02 5.241242732144666405e-01
8.585003515154523979e-02 1.677233773455463484e-01 -7.225028470704988326e-01 -7.630333308473347120e-01 3.917578054408422106e-01 5.141069518030242369e-01
-6.994335254369728194e-02 -3.251442025215969256e-01 -8.641865625810387641e-01 -2.136785277447699749e-01 4.250054661444460091e-01 -8.796089133974085428e-01
2.371742043716428515e-03 5.439106034581511068e-02 -7.678479762992266311e-01 -7.385624992248157605e-01 1.472270104009738290e-01 6.579130961967437630e-01
4.281755261829743586e-02 2.028715410207771186e-01 -7.536860648236471949e-01 5.694771731426048200e-01 -1.850288342728297897e-01 -8.009120299740448701e-01
-1.564685949198335591e-02 -1.438997080406004825e-01 -7.499536582810983898e-01 -8.753823365922267508e-01 7.058736324483852465e-02 4.782501321823912077e-01
8.323609278984872573e-02 1.285051945502919402e-01 -6.735196302601462737e-01 8.785935245195403143e-01 -3.345257658712140203e-01 -3.408312348371400624e-01
5.312152256431752068e-02 -1.107597331606535946e-03 -6.415962276367741524e-01 9.258555861692354672e-01 -2.224076176020613749e-01 -3.054935108832862456e-01
-3.592259183556941599e-02 -6.979834232405308925e-02 -7.749532993635090961e-01 8.666346268484629300e-01 -1.156462534025366751e-01 -4.853559184981489083e-01
-2.550294109819323252e-02 1.079203060003457726e-01 -8.050506490081288380e-01 -6.901729791684788617e-01 6.387553450771082941e-02 7.208197936496062441e-01
-3.383016020042885208e-02 -1.640361439258110343e-01 -7.807607314836921830e-01 -8.726108409269081045e-01 3.654718585738574166e-02 4.870468391261153496e-01
8.097417983931995758e-03 -1.490207590111822800e-01 -7.021603495311203869e-01 -9.058625282740598861e-01 1.039442877189305087e-01 4.106198545120931520e-01
9.912633590666819830e-03 -6.819830641759955236e-02 -7.058669976999734086e-01 8.676049795011816501e-01 -1.380094678030852895e-01 -4.777185220833116142e-01
9.672711606348092898e-04 -6.175167492288625992e-02 -7.377622417079297001e-01 -8.522323424631370603e-01 1.303826128618634228e-01 5.066561049894766633e-01
2.323770032402062979e-02 -1.208521193472681804e-01 -6.635618263102014414e-01 1.227837850671620046e-01 5.684630449451534284e-01 -8.134948731591770121e-01
-3.297714418036394590e-02 -1.941334583588342766e-01 -7.761050700552304393e-01 -8.604299324803421634e-01 3.214383093146365167e-01 3.953956810548414080e-01
-2.092972044414222535e-02 1.091632075736995687e-02 -7.864202004970041182e-01 -7.736675617013868411e-01 1.161178877152727607e-01 6.228604499593582977e-01
-1.348800989487780079e-02 5.923074278143896504e-02 -7.765594157341823012e-01 7.433306995740155410e-01 -1.449859222712351903e-01 -6.530226285619540327e-01
-5.322170386156269140e-02 -5.338152317611874476e-02 -8.087649819785541760e-01 8.210039572666230079e-01 -6.816325367062876783e-02 -5.668388421778969288e-01
4.425325992418034649e-02 -2.208777066023111593e-02 -6.526797795378308509e-01 9.144722523142739812e-01 -2.134409987792768582e-01 -3.437781839898566560e-01
-2.184307831098393493e-02 -6.457764461122106336e-02 -7.603796243963973911e-01 8.314485355701550784e-01 -1.095538643016895075e-01 -5.446937520431195390e-01
-3.269917354052893129e-03 1.170705877300575320e-01 -7.774122327672443600e-01 6.368153651042566255e-01 7.479780287881576673e-01 1.870696640754831996e-01
1.012102651727006947e-01 2.209058213916187952e-01 -7.259798805064466842e-01 -5.017256733680530711e-01 1.817685217776429107e-01 8.457136354429577452e-01
-4.488719285246194068e-02 -1.917294122572434367e-01 -7.867114667001866568e-01 8.708209477559086809e-01 7.332917885590810314e-02 -4.861005127314916852e-01
6.340706142006098667e-02 6.384336551122517245e-02 -6.694498279720513256e-01 -1.831712075700942244e-01 -9.721881624657120469e-01 -1.459400064370814931e-01
-7.781899910589799851e-02 -2.994374979838520523e-01 -8.682927903286659088e-01 6.487230031519390927e-01 -3.521813259454190659e-01 6.746308463425428892e-01
-6.817253328890962583e-02 -1.009123068719153665e-01 -8.275020681883713536e-01 8.396243694739938812e-01 -2.732849801595380740e-02 -5.424795584919218649e-01
3.180670790673065240e-02 1.640895281760486324e-01 -7.625521680434601546e-01 -6.088050089925329811e-01 1.334333454661783547e-01 7.820179047459879795e-01
8.304708655728217093e-02 1.425936493830224083e-01 -6.815048819587743445e-01 8.995819474398600857e-01 -2.860560511811441886e-01 -3.300367485946976154e-01
3.479614607240985157e-03 1.641501351380943163e-01 -7.846220202933121834e-01 -6.104117529437358414e-01 4.012705200746537887e-02 7.910671978822948480e-01
-5.295625375122654799e-02 5.603903302175261558e-02 -8.244975922099011534e-01 -2.466325468237751395e-01 -7.960221256993446071e-01 -5.527396875965351342e-01
-6.677444205425929480e-02 -1.880666698450681740e-01 -8.269733685934084200e-01 9.335014601146972568e-01 1.606382370494209566e-01 -3.205781975764763203e-01
-2.124128567143976354e-02 2.011992159401586322e-02 -7.883911769902902655e-01 -7.727744652894796840e-01 1.071885156476542894e-01 6.255639439016696945e-01
-6.819741945754299872e-02 -1.369269314206175703e-01 -8.393321449762155551e-01 -8.471421726438541633e-01 -1.713680741977361257e-03 5.313635315173266260e-01
7.796461460779177677e-02 7.744579609753826643e-02 -6.475140056198005478e-01 -9.370185194773764659e-01 2.798422668179491035e-01 2.090086119245265217e-01
-6.024019634511474514e-02 -1.388198941340761661e-01 -8.132972148742715346e-01 8.599750388569501469e-01 -1.340012455861875479e-02 -5.101601407448455028e-01
4.454865813201541042e-02 8.725804057062198915e-02 -7.165999666748542607e-01 7.784245498780998362e-01 -2.630412614185920206e-01 -5.699688719030135964e-01
2.045677846449070122e-02 1.041985443131984296e-01 -7.641491082512522626e-01 -7.462652506028568666e-01 9.480965519746933912e-02 6.588621289951276383e-01
-5.801647346987531123e-02 -3.299390985551799160e-02 -8.176671775887379701e-01 8.110417519298476208e-01 -5.463951721233631376e-02 -5.824309399279595789e-01
7.406834026198645671e-02 8.550006278746873079e-02 -6.728635225412511467e-01 -8.897430649584581186e-01 3.091991088221148209e-01 3.357874170691017568e-01
2.225763125917983726e-02 1.738578245213365514e-01 -7.711404287724383799e-01 -6.073029331047747892e-01 1.004647686194253819e-01 7.880926200064194420e-01
9.849087665660970214e-02 2.241897427967370071e-01 -7.276857256775911553e-01 -3.977481699209463595e-01 -1.090998934657743114e-01 9.109849650627033224e-01
2.356501080513000515e-02 6.820050493121408708e-02 -7.358765446557840040e-01 7.748602151529433435e-01 -2.197711908158515026e-01 -5.926991400875465388e-01
3.792717407662001688e-02 6.072456771589059520e-03 -6.840428210447062618e-01 8.794075109734040829e-01 -2.507553876987078656e-01 -4.046778535868166826e-01
-4.666000340782280181e-02 -1.771580778166490511e-01 -8.109186819867385543e-01 -9.007005256249407399e-01 -4.076881285449772407e-03 4.344213877998411855e-01
-3.437435659336211119e-02 7.009187527925773986e-02 -8.102800288488835045e-01 -7.297883429955387413e-01 6.351284424225267511e-02 6.807166025917725793e-01
6.612553550689360959e-02 1.545680794216437726e-01 -7.222552411369648206e-01 7.060944759050779007e-01 -3.005340415049060354e-01 -6.411785094597765022e-01
-2.262755540927230760e-02 8.319814008757413226e-02 -7.908941581102343354e-01 7.211316480024284603e-01 -1.031684393886059953e-01 -6.850732948841468106e-01
-1.583376130869149426e-02 -4.860791460128523200e-02 -7.609758688349970157e-01 -6.515903076379484515e-01 4.053354397162662326e-01 -6.411967344757026899e-01
7.473078278488588799e-02 6.077949834345616753e-02 -6.399963898848172184e-01 -9.525840218315646535e-01 2.550697959358341205e-01 1.659008154062341089e-01
1.051916116486417002e-02 9.513705398605509789e-02 -7.684058790779628723e-01 -6.986626101994930504e-01 1.388249807115393142e-01 7.018533905593619115e-01
7.856221371611729273e-03 -3.882711833788408951e-02 -7.195530582574640732e-01 8.434457359936528009e-01 -1.568073107976004910e-01 -5.138197716267350890e-01
-5.276748324553191816e-02 -1.096078778400322307e-01 -8.157068816795598476e-01 -8.402005842796306245e-01 2.669773073878118491e-02 5.416181397899881844e-01
-6.663117736406484748e-02 6.128708920547713650e-04 -8.418819244959739878e-01 -7.744529365942061094e-01 3.687491888639141124e-02 6.315559273395608963e-01
-9.490058829888846359e-02 -6.524121914363012475e-02 -8.695391492241107967e-01 8.614463558622035277e-01 1.322423173642766486e-02 -5.076763690252984462e-01
-1.551840243442338197e-03 -3.180208559784663408e-02 -7.422542836510171993e-01 3.724739457438585033e-01 9.276831492587673811e-01 -2.582894351956036352e-02
-6.760845285302985452e-02 -8.287311303635602755e-02 -8.394921577699957504e-01 -8.305554948886285649e-01 2.070325311138020152e-02 5.565509367712100364e-01
-6.052541556699139735e-02 -5.283760880711951824e-02 -8.306700265789067616e-01 -8.191239415292117521e-01 3.070660522059192460e-02 5.727940928549067889e-01
9.839692629635174437e-02 1.976015530457153335e-01 -7.084622169192535956e-01 7.520551534043184994e-01 -3.962393585449401900e-01 -5.266948043961525716e-01
-6.895012377732144537e-02 -1.219238489266724623e-01 -8.405957607498463213e-01 -8.418862215736967469e-01 1.063728757736621955e-02 5.395502182719981166e-01
-3.702548399198035689e-02 -5.484322638161721886e-02 -7.972823915236292303e-01 -8.252092618148982872e-01 7.190986132251857288e-02 5.602308863847893505e-01
6.426451447205196177e-02 8.707890483389132963e-02 -6.826950932887249079e-01 8.841139169205737280e-01 -3.238431131626985371e-01 -3.368504415381585182e-01
4.169392117238378270e-02 1.948671227324875188e-01 -7.526736318136200143e-01 1.046083795293097640e-01 -7.718909958732262933e-01 6.270896087658370810e-01
3.205045296834580643e-02 -6.830172949288128292e-02 -6.740738763349717333e-01 -9.089801804031477639e-01 1.854857570875351747e-01 3.732962169000979546e-01
3.312031536228410983e-02 1.125445050701684435e-02 -6.960910148008327969e-01 8.478073440060323041e-01 -2.451739113141432891e-01 -4.702259676584886749e-01
-7.232893277480907657e-02 9.888864964909269487e-03 -8.493679599204293496e-01 -7.684241021894739898e-01 1.373744660139033201e-02 6.397934680310317646e-01
4.722061923247465598e-02 -2.964536150850828611e-02 -6.553381411935216283e-01 -9.211187066023241998e-01 1.949280335587142143e-01 3.369620009440148500e-01
3.207193931905262529e-02 1.067097241554563480e-01 -7.498008840880195924e-01 -6.944394076588916720e-01 1.875711900905056018e-01 6.946732740925040117e-01
-8.906176877279925810e-03 7.886686190250097317e-02 -7.753834719514680618e-01 7.298129748940043182e-01 -1.119794412430861197e-01 -6.744135425799586692e-01
3.813302157122866985e-03 -4.891080227758139859e-02 -7.368188524360886893e-01 -8.453822152114836008e-01 1.584850500938123907e-01 5.101092031133007687e-01
5.202931126795245359e-02 6.165535350719996560e-02 -7.041488380981200113e-01 -8.535443695493193372e-01 3.018181439210016470e-01 4.246973242330783771e-01
-1.047319661159675126e-02 -5.836538385806452206e-02 -7.437996752871700590e-01 8.381493720106620859e-01 -1.198085607224477905e-01 -5.321198539574973907e-01
-2.053244820386970065e-02 -5.606223598092759802e-02 -7.600917092861367852e-01 8.314485355701550784e-01 -1.095538643016895075e-01 -5.446937520431195390e-01
-8.095319285787806740e-02 -5.621464998092200183e-02 -8.590599814265388323e-01 -8.127294300338830935e-01 -1.024698019029742510e-04 5.826412816276747009e-01
-1.512392483692653021e-02 -1.833105342244346903e-01 -7.400694660632317623e-01 -2.313680017674432932e-01 9.313740958596062880e-01 -2.810892052709266786e-01
3.750071947000471750e-02 1.593573438248136170e-03 -6.971858390532176264e-01 -8.652465786176531948e-01 2.136055225785411515e-01 4.535648122533246229e-01
-1.443500724975819646e-02 1.310002803989879505e-01 -7.863032501353307557e-01 8.519579659216982570e-01 3.557357143753537843e-01 -3.842131255181411298e-01
7.802815314907617095e-02 1.484899192062984208e-01 -6.964888150148123014e-01 8.436186769298593680e-01 -3.440557771982232782e-01 -4.122294871932866700e-01
9.291534192081203972e-03 1.909239359365797611e-02 -7.374551421785321415e-01 7.903307964938551811e-01 -1.979037361374481052e-01 -5.798373421367651881e-01
4.579882594150845587e-02 8.338968532509966058e-02 -7.129791699766275803e-01 8.104589407066574713e-01 -2.843735094863595880e-01 -5.121406179273950698e-01
-3.597310436973674003e-02 3.115513291123400003e-02 -7.976712074763142590e-01 7.669823246562842423e-01 -8.706882305803630151e-02 -6.357335398703852780e-01
-5.203171179728818818e-02 -1.825229719126036099e-01 -8.209044953059712046e-01 -8.405595530114070568e-01 -5.530758649056197185e-02 5.388884009865612112e-01
-3.135008244733505228e-02 4.919506300975908658e-02 -7.950297309326632700e-01 7.495086510592805507e-01 -1.057999504386347156e-01 -6.534853881109202733e-01
-2.466435520723542739e-03 1.212136055654009642e-01 -7.725395686213245572e-01 7.226937119627571127e-01 -6.060725105112620831e-02 -6.885060346936091591e-01
-3.786243862609604133e-02 -6.725410498701810125e-02 -7.969221796029406502e-01 -8.252092618148982872e-01 7.190986132251857288e-02 5.602308863847893505e-01
-7.040557640144284868e-02 -2.926569443126419423e-01 -8.492044511329291945e-01 -2.136182571259349350e-01 4.051578296591394346e-01 -8.889400279481026734e-01
3.807067923103698431e-02 1.079202422641011017e-01 -7.280787946922305798e-01 7.639171128408949185e-01 -2.751593496880878065e-01 -5.837105249933911555e-01
-2.485589984709617520e-02 -1.232505821952763619e-01 -7.547506224571994826e-01 8.601798580835958719e-01 -8.037889294437305931e-02 -5.036167643320877962e-01
-2.108307866059451821e-02 1.358478775104487168e-01 -8.032388495716387133e-01 -6.623420057672009253e-01 5.198813956979764228e-02 7.473956788344126023e-01
-2.137826835275375911e-02 -1.476813558092709804e-02 -7.821960191493578796e-01 -8.019475989132778260e-01 1.100549703291191644e-01 5.871694407094814050e-01
4.372888120354880004e-02 -2.514331913499229937e-02 -6.676985803397068597e-01 -9.124088124458856752e-01 2.284512842116869780e-01 3.395882355340357761e-01
-7.246299376378331769e-02 -1.587276914168948283e-01 -8.344469740347559839e-01 8.706041638217333345e-01 2.116221834650432523e-02 -4.915287890357140643e-01
8.480453400767301586e-02 1.694896559047999740e-01 -7.078539703543506034e-01 7.420093370186831017e-01 -3.550630196799247629e-01 -5.686408320133788941e-01
5.063338935935084162e-02 1.019436039703590369e-01 -7.308168660179308329e-01 -8.787690031687894754e-01 4.651692108351423438e-01 -1.066894763354981346e-01
-3.008169129400858552e-02 1.496354904552622822e-01 -8.062943887163381840e-01 6.969674466131092760e-01 -9.935057974401455272e-02 -7.101871870613626347e-01
-6.905558764584203424e-02 -1.021064342888013676e-01 -8.410707671118688999e-01 -8.413587024648264689e-01 7.397548833345910825e-03 5.404265075456254896e-01
6.661311821637957986e-02 4.730451104115861172e-02 -6.571826535221026999e-01 -9.200491756317314973e-01 2.739097725533689576e-01 2.801480874807698584e-01
2.180581968988183281e-02 9.722281463823771730e-02 -7.613262406060747889e-01 -6.457133026084140859e-01 2.213783606904847490e-01 7.307844772930854882e-01
3.777700871777414648e-02 1.383961049785071007e-01 -7.528174165644565541e-01 -6.320582300411576870e-01 1.573036002831242064e-01 7.587871711983578127e-01
9.779954214368309987e-03 -7.190872516273134896e-02 -7.193172359707217245e-01 -8.723169627909493906e-01 1.394650537632438347e-01 4.686284404578844875e-01
6.703413848746751780e-02 6.888312835547634461e-02 -6.763274773343375124e-01 -8.917762314049479944e-01 3.044515020865465327e-01 3.347303929708719261e-01
-1.488819314945772146e-02 1.312995687479163454e-01 -7.969574489515290905e-01 3.740656940352363180e-01 8.654895621709465248e-01 3.331706384408445465e-01
-6.601224777280831346e-02 -9.590842461440046707e-02 -8.244105604039009272e-01 8.396243694739938812e-01 -2.732849801595380740e-02 -5.424795584919218649e-01
-8.627396006998014344e-02 6.170868703068224659e-03 -8.580960488919818774e-01 7.971620461769490795e-01 -9.969691083341345253e-03 -6.036830935140411469e-01
-6.166163465525635601e-02 -2.403157196145771501e-01 -8.428489130757882419e-01 -8.616185405799030583e-01 -1.342119038806667830e-01 4.894901994786869381e-01
-7.947114567634719351e-02 6.148162351361738387e-02 -8.571256393645700911e-01 -2.374247632519933815e-01 -2.392657886755881758e-01 9.414782866132300754e-01
-2.971289462740720963e-02 -8.650015993461770969e-02 -7.819532338669615834e-01 -8.403559513443071838e-01 8.550819222679467702e-02 5.352478155978871444e-01
-3.018516648207440756e-02 -1.119385484596991942e-01 -7.654779884716809146e-01 8.520882936966128751e-01 -7.234217536931074333e-02 -5.183745261951352434e-01
-5.735321395888639401e-02 -1.722595236255332063e-01 -8.082207335698841089e-01 8.736422948673712163e-01 8.388565345512110846e-03 -4.864964260817519204e-01
-3.356401943417208072e-02 -9.189490258543764334e-02 -7.739338564600996007e-01 8.475096498515136689e-01 -8.896131440423087067e-02 -5.232717056635458608e-01
-6.294709789717019277e-02 -2.956083318475570820e-01 -8.580012915932276885e-01 -9.923158244928200755e-01 1.126443139906032898e-01 -5.119143470075066676e-02
9.290557353501556481e-02 1.524485819666280273e-01 -6.716738492517899672e-01 9.041598667974600767e-01 -3.524314335207870408e-01 -2.414270488973474793e-01
-8.126301643390013846e-03 -2.257650133285777141e-02 -7.622690343871244556e-01 -8.087735726425547833e-01 1.444970336365049568e-01 5.700929007321955400e-01
2.852538216457060558e-02 8.834589067077223967e-02 -7.419209181236048334e-01 -4.221614026874163650e-01 -6.951267088243120451e-01 -5.818750800301325521e-01
-3.791436421513572075e-02 -1.514018633955389603e-01 -7.887009220455664105e-01 -8.649253785188742993e-01 2.849709341154544121e-02 5.010908153828762535e-01
-1.743447193942867374e-02 -5.912763233097902832e-02 -7.732397038171243686e-01 -8.658560320604199445e-01 1.476066920667263582e-01 4.780225896353681447e-01
-6.554592112575956253e-02 3.209504421150713004e-03 -8.310595272817127288e-01 7.904868972666463378e-01 -4.405838255279858479e-02 -6.108922361403701373e-01
2.153391643403184189e-02 1.196851800490748331e-02 -7.298417944358471798e-01 -7.997122398263935006e-01 2.088193784704409084e-01 5.628985704787957678e-01
-2.179640858367591638e-02 -1.099734920617290723e-01 -7.516448268027867696e-01 8.600727218258907847e-01 -8.044039979053897726e-02 -5.037898919713876822e-01
-2.620447334902602926e-02 -1.231554088652502266e-01 -7.711514650338540111e-01 -8.550045543930543390e-01 7.149171332876574914e-02 5.136692972063369167e-01
-1.450626724742718962e-02 -6.096914126367108770e-03 -7.675519644936088515e-01 -3.159080633725304676e-01 -7.057038877242547414e-01 -6.341798785416402628e-01
-6.225486358062243958e-02 -2.113023906086234915e-01 -8.340566031075421494e-01 2.128076654753229269e-01 -3.839506194231563363e-01 8.984958649651747509e-01
7.182145846451966353e-02 9.262158124598600384e-02 -6.856231119085216541e-01 -8.925545865533464074e-01 3.238190787967703543e-01 3.138272044131862892e-01
8.232090672504045574e-04 -8.866670342669372151e-02 -7.308635552845291761e-01 -8.720181321209664604e-01 1.212126517671176934e-01 4.742276566205775867e-01
5.684378204617932667e-02 1.281992143588704391e-01 -7.325754592098068230e-01 2.858987454098581571e-01 -3.377025959153868162e-01 8.967825065672712093e-01
-5.436410300148743213e-02 5.972188398943743814e-02 -8.321953107770146962e-01 -5.934563413190231396e-01 -7.707226398796306333e-01 -2.319400425222266082e-01
7.499975734388451831e-02 8.379774958943932150e-02 -6.487227815002603037e-01 9.292365261031665380e-01 -2.913986815057440505e-01 -2.271701718369578959e-01
-6.068147914306140644e-03 -1.553652288259229630e-01 -7.163881151645077328e-01 8.860376796080716710e-01 -5.005849428631038711e-02 -4.609027852644542733e-01
-7.455603734351938516e-02 -5.212796320629794339e-02 -8.340318166784312925e-01 7.950734944721394859e-01 -8.987871212946037247e-02 -5.998166015490153935e-01
-4.695502188054673925e-02 -1.100386561966572863e-01 -7.934563612761112994e-01 6.417657572270656363e-01 -3.910847417126274150e-01 6.596888945937614546e-01
2.138322530757910331e-02 -1.045504993151073585e-02 -7.210295680369455118e-01 -8.341820379103978000e-01 2.063919160731451097e-01 5.114124603559357940e-01
5.563228885731728336e-03 -1.210872999435381875e-01 -7.138099982528721688e-01 -8.885915154624247636e-01 1.009760059905749491e-01 4.474471643248873476e-01
6.800955091636542993e-02 4.824269823801605184e-02 -6.353808759155614716e-01 9.268914630133576749e-01 -2.664422102004380122e-01 -2.643497009955995680e-01
1.995994715404623629e-02 -6.356090253836023385e-02 -6.878066741374788684e-01 8.784029835554174603e-01 -1.811702648186780118e-01 -4.422505326469047815e-01
4.744972618179987139e-02 1.539282971917405561e-02 -6.686298340317311517e-01 8.906619368506769607e-01 -2.387420483713607045e-01 -3.869412727854805167e-01
-7.645239101475219401e-02 -1.378029618964332903e-01 -8.522181404355295697e-01 -8.016010646236965131e-01 3.093745992270872588e-02 5.970582942792833636e-01
-5.237102950708766302e-02 -7.302431252613635071e-02 -8.102942326847405452e-01 -1.699856138485737467e-01 -7.488884463914180500e-01 -6.405239932633056688e-01
2.175274600694415000e-02 7.148185733547890441e-02 -7.392055164021298364e-01 7.563809530858555119e-01 -2.023601920733110460e-01 -6.220435728089999117e-01
-8.821232841859458218e-02 2.857336396811096038e-02 -8.613969752791083012e-01 7.898884419585986416e-01 -1.232836515721391288e-02 -6.131266269481109310e-01
8.837870433499300793e-02 1.371560370701920273e-01 -6.670796021782106067e-01 9.000055996905296229e-01 -3.435179493956311836e-01 -2.683008366902913666e-01
6.435064144177922441e-02 7.452000183074565520e-02 -6.886037258175918829e-01 -8.917762314049479944e-01 3.044515020865465327e-01 3.347303929708719261e-01
4.081947953241647775e-02 -7.886647398736568171e-02 -6.436560515922157277e-01 -9.558427065182865112e-01 2.199127758056291237e-01 1.949438160939196696e-01
-6.384424351471190695e-02 5.757819090618903485e-02 -8.288974113817872968e-01 7.125178066861006521e-01 -1.335786408270087655e-01 -6.888215457359312399e-01
-2.624001017381545967e-02 -1.911671121331794954e-01 -7.619755614040587544e-01 -3.710338653331292647e-01 9.248127610736673887e-01 -8.399540303645652850e-02
-5.008778990678329490e-02 5.757149770634444746e-03 -8.216696974654101870e-01 -7.671109855553333023e-01 6.608437745579182065e-02 6.381015521816301161e-01
-6.511529301186981533e-02 -2.551411627336337695e-02 -8.386834704584956723e-01 -7.939672533059188853e-01 2.441467932278565400e-02 6.074701014135763799e-01
5.943098285587683494e-02 6.378156943646719201e-02 -6.696692537995487804e-01 4.824039867894057143e-01 -8.011328295507079700e-01 -3.542210933100443659e-01
1.033467258855504667e-01 1.748285409654438960e-01 -6.764056542835812369e-01 -8.091548254955706065e-01 -4.139781638274610265e-02 -5.861353846817076718e-01
1.687591343834074151e-02 5.494423131924719428e-02 -7.510535777408643421e-01 -7.529704610395594466e-01 2.029998910603459938e-01 6.259604851996337649e-01
2.725290188291636800e-02 8.833904965969860412e-02 -7.536996496691449332e-01 -6.690094474478138764e-01 2.570149868395225634e-01 6.974020761120881540e-01
7.007752310020428504e-03 -1.102660240667169105e-02 -7.434378624086088738e-01 -8.210341539616905493e-01 1.642839931597283032e-01 5.467299951712047967e-01
2.696161943659259111e-02 -2.871473889752692438e-02 -6.885762689632526357e-01 8.807727378784807604e-01 -2.030910862445644005e-01 -4.277772725356593919e-01
1.974392889200700385e-02 7.662138383875415071e-02 -7.432525469095593307e-01 7.532578023538258893e-01 -1.979912673310626481e-01 -6.272177781709669109e-01
1.151790429448035780e-01 2.103579013375074247e-01 -7.044393091505800619e-01 -8.850774523629708623e-01 4.341303791604042561e-01 1.678353872361741106e-01
2.878021321768160085e-02 1.237635745201072640e-01 -7.572938638474491224e-01 -6.506993579582750487e-01 1.615100201679560421e-01 7.419601464620827480e-01
4.988356575828613998e-02 1.242673226473453574e-02 -6.763045969650209877e-01 -8.903194106998199020e-01 2.394021011969816870e-01 3.873215471331223347e-01
7.139458962564169953e-02 9.486224151577725416e-02 -6.891491678682867272e-01 -8.925545865533464074e-01 3.238190787967703543e-01 3.138272044131862892e-01
1.153700559211075574e-02 -1.067107582619316736e-01 -7.055466592998548281e-01 -8.824784897616688717e-01 1.345676566905564531e-01 4.506919800493201511e-01
-2.099233555608683369e-02 -6.715656123680838196e-02 -7.717165561699704801e-01 -8.243079660661447594e-01 1.011968285971859838e-01 5.570238585211296778e-01
-4.882844391392915373e-02 -1.486135945450404831e-02 -8.073311777077031293e-01 7.992631470147060213e-01 -6.138840763839953363e-02 -5.978376746507119144e-01
-2.999031179422046237e-02 1.392291439097992078e-01 -8.049664911435956416e-01 6.807396304148028987e-01 -8.022289997361109481e-02 -7.281193871217424007e-01
1.261421376491257684e-02 -2.276207268442439688e-02 -7.173028993200843972e-01 8.364034892130063348e-01 -1.776963183410004976e-01 -5.185105801045550855e-01
2.773333955208670890e-02 8.123933158346827166e-02 -7.297415003501209751e-01 7.380525516249044626e-01 -1.999503407677645783e-01 -6.444364144481770085e-01
-7.734408128001871163e-02 -3.037170144157184670e-01 -8.597900864492133977e-01 8.628879364431057963e-01 1.333656562959380509e-01 -4.874812928325685246e-01
6.547280235320306063e-02 9.623816030709816949e-02 -7.021953792576764997e-01 -8.534441469369730138e-01 3.309973101201694190e-01 4.025839896869158885e-01
1.583691933023155529e-02 4.208990745349232981e-02 -7.363829008969197121e-01 7.903307964938551811e-01 -1.979037361374481052e-01 -5.798373421367651881e-01
-6.915812919753429322e-02 -8.252365855719986931e-02 -8.417476890745515528e-01 -8.225414249823391755e-01 1.743724730419838817e-02 5.684378124249610531e-01
7.376852022514567009e-02 1.392736095710303545e-01 -7.167903954008267853e-01 -7.573660374707184006e-01 3.258598078016589628e-01 5.658728399078436500e-01
-4.560722243184516661e-02 3.723812676327851318e-02 -8.217178733013960068e-01 -3.279276033870051621e-01 5.145665649460580138e-01 7.922655723786495852e-01
3.444016288010856575e-02 -5.693023073236361947e-02 -6.586643288101868832e-01 9.093035800945453717e-01 -1.661990930286385559e-01 -3.815034216146701573e-01
3.565887449840400396e-03 -8.242869691667034301e-03 -7.364433834736570095e-01 8.153938790461605635e-01 -1.886852995806445332e-01 -5.472939609900859814e-01
-1.633823147747502647e-02 8.742772023300535156e-02 -7.848474723114511331e-01 7.298129748940043182e-01 -1.119794412430861197e-01 -6.744135425799586692e-01
-5.792032987192276966e-02 -2.043866489660188177e-02 -8.188857787763756946e-01 8.004039498917911999e-01 -7.413116114376017141e-02 -5.948597212327432215e-01
6.921301407951370530e-04 -6.223576329378853467e-02 -7.242971200610486271e-01 8.630868834224260100e-01 -1.423908434501579834e-01 -4.845677242302839915e-01
1.834215532201632567e-02 -5.990083867643120064e-02 -7.073082037478011230e-01 -8.684083505752803189e-01 1.685297084938980616e-01 4.663310776755961173e-01
1.525318763004981926e-02 -1.002654293133405650e-01 -6.997620471298201528e-01 -8.938919505374061103e-01 1.238082616422763599e-01 4.308464867137126730e-01
-7.045993479452847263e-02 -2.194187621472370453e-01 -8.308574019437989788e-01 9.853875915586969292e-01 -1.690155819097777790e-01 -2.109567429237670100e-02
-3.082059447605452543e-02 3.545504115797935840e-02 -7.920438560131547456e-01 7.669823246562842423e-01 -8.706882305803630151e-02 -6.357335398703852780e-01
8.967260846703133115e-02 2.124400942599386499e-01 -7.312599090720939277e-01 -5.189613449193597461e-01 1.693304535186940796e-01 8.378581741504003144e-01
-5.417379025253420133e-02 -1.806776011971642226e-01 -8.028095408989343040e-01 8.741242147223501346e-01 7.971861386161979354e-03 -4.856370112152435525e-01
2.392558973851816734e-02 7.203957345705304383e-02 -7.480556552455152053e-01 -7.498715476224979692e-01 1.982310104778130522e-01 6.311870788848461533e-01
-8.658280822771761975e-02 -2.608647666107532376e-02 -8.694026267635293070e-01 -6.789144847173569364e-01 -9.209800576977882069e-02 7.284182039008880727e-01
-4.803061738265076291e-02 3.591917168306184988e-02 -8.126863594801879698e-01 7.582408970933881553e-01 -7.966879852278281604e-02 -6.470885754801658507e-01
5.745603614986797419e-02 1.883843729728639227e-01 -7.405044505186122450e-01 5.948177320792888967e-01 -2.073749551191897134e-01 -7.766514621072733160e-01
2.626190566754771014e-02 -3.529328145013815865e-02 -6.796224380635182971e-01 8.501159149707011586e-01 -2.762608157294587086e-01 -4.483111562364044400e-01
-9.267696729404166500e-02 -2.454567909882002588e-02 -8.662123809251759399e-01 8.117732434252500351e-01 -3.285152428595155411e-03 -5.839635339919531098e-01
-5.179361853335733012e-02 -1.998525397677902993e-01 -8.062286888209766467e-01 -5.639707553074897739e-02 9.962211333751673781e-01 -6.605167135111388033e-02
-7.639748973169145640e-02 -4.782350034167499181e-02 -8.423557162866087689e-01 8.192512242283069845e-01 -2.553141102766431220e-02 -5.728661088346532759e-01
-6.946814044395032729e-03 7.328876876386994366e-02 -7.819028165817341058e-01 -7.202697455896679424e-01 1.068084396694387733e-01 6.854220968159510097e-01
8.841905586239806603e-02 1.405162450135980234e-01 -6.712464737967724915e-01 9.000055996905296229e-01 -3.435179493956311836e-01 -2.683008366902913666e-01
7.547354480185228254e-02 9.408259506712071674e-02 -6.770430726576953662e-01 -8.897430649584581186e-01 3.091991088221148209e-01 3.357874170691017568e-01
-3.520358525115795112e-02 -1.691812363517258277e-01 -7.689007637029344755e-01 8.770006153405813798e-01 -5.455687052536130691e-03 -4.804582772427035686e-01
6.189736947598224737e-02 1.947524990178646498e-01 -7.387025596560125029e-01 5.586526219534122539e-01 -1.551411027119914132e-01 -8.147628404842018890e-01
-2.999233071576039647e-02 -1.142853356733664234e-02 -7.828101570522830732e-01 7.940334608975936348e-01 -1.062604028571367265e-01 -5.985144858394227940e-01
-2.785348798868250621e-03 -1.091562959231346663e-01 -7.323633901906100307e-01 -8.756380689629601477e-01 9.072270363020952522e-02 4.743704915241288567e-01
-1.644727508122195703e-02 -9.867772677600644693e-02 -7.584439361427633974e-01 -8.564358120194155433e-01 1.068383382540585569e-01 5.050774884804860587e-01
2.862939329809543673e-02 7.206177785365226740e-02 -7.252339935022755757e-01 8.066020589697340260e-01 -1.535285266709366103e-01 -5.708082952831338153e-01
-8.070952039950891888e-02 6.039429239380291609e-02 -8.531435823185138378e-01 7.727005542386633508e-01 -2.145769383452738113e-02 -6.344079293755446880e-01
-1.668167416957920188e-02 9.668759972112853096e-02 -7.952116739680993307e-01 -6.972473758315056447e-01 9.694630026455235139e-02 7.102446844300169815e-01
7.770345309914339360e-02 1.374453802898822630e-01 -6.955732097576446948e-01 8.430358205535963823e-01 -3.617913351736463112e-01 -3.979920037598679294e-01
6.041553866502007847e-02 1.808000324398717773e-01 -7.477639662047147473e-01 -6.328042724565630106e-01 7.885609498526974931e-03 7.742716383308618777e-01
-6.829311776948356061e-02 -9.269949468351598720e-02 -8.401483675038733390e-01 -8.305554948886285649e-01 2.070325311138020152e-02 5.565509367712100364e-01
4.266571589831134881e-02 -7.973254090116984119e-03 -6.654307042225151569e-01 9.033681980204651962e-01 -2.262780321765032188e-01 -3.643132593793245166e-01
-4.613456582466436001e-02 6.889520996452479229e-03 -8.170006989694014177e-01 -7.765915319248645199e-01 7.336078334444402771e-02 6.257186172791103784e-01
8.136378199788066312e-02 1.134534728898079770e-01 -6.614737699544083194e-01 9.041711707067024983e-01 -3.226109783130975406e-01 -2.799940191052973648e-01
7.713552551919793110e-02 7.502371218732982461e-02 -6.479880070379278045e-01 -9.370185194773764659e-01 2.798422668179491035e-01 2.090086119245265217e-01
4.156493954513239275e-02 5.136722174915758082e-02 -7.027073332016864349e-01 8.504405594013055847e-01 -2.716317757347486150e-01 -4.505186270692718709e-01
-7.309860169971608979e-02 -2.342104495175776901e-01 -8.356016910769996642e-01 9.853875915586969292e-01 -1.690155819097777790e-01 -2.109567429237670100e-02
-6.322529271372344384e-02 -1.595758919761211189e-02 -8.365973121463027296e-01 -7.939672533059188853e-01 2.441467932278565400e-02 6.074701014135763799e-01
-3.174972807994329294e-02 1.015086579973652620e-01 -8.105107421447884652e-01 -6.924352238960412853e-01 5.891473649138974367e-02 7.190705907852089629e-01
-1.857404140074394097e-02 -1.078026163696934117e-02 -7.674379490255696101e-01 7.993136965637246405e-01 -1.351408535820548817e-01 -5.855207632345309499e-01
-6.098060585992941263e-02 2.988348504619541338e-02 -8.276170714830461961e-01 7.727103280808573782e-01 -5.257148626423691767e-02 -6.325780487095192806e-01
5.146144298258103350e-02 1.084546047557334164e-01 -7.341219124256668227e-01 -6.917920347842601014e-01 2.168037603852208672e-01 6.887814675874204262e-01
-1.806311731862950132e-02 -1.606735321380586556e-01 -7.384071168700673260e-01 8.774281100405895151e-01 -4.400981877621196886e-02 -4.776850924635228646e-01
-3.018953613003056910e-02 -1.784818342503826372e-01 -7.596427999487452842e-01 8.770006153405813798e-01 -5.455687052536130691e-03 -4.804582772427035686e-01
-4.669352227587869608e-02 1.014353262680564166e-01 -8.251336274278762151e-01 -7.006759958365679219e-01 3.306415645958648425e-02 7.127130631720243192e-01
-2.107162626298219547e-03 1.599042077823101538e-01 -7.888266992570330816e-01 -6.375048318278994097e-01 6.167809267531490502e-02 7.679735687378941300e-01
3.259070364708201162e-02 9.673819031582123196e-02 -7.356078678969562024e-01 5.648628435393345804e-01 -4.410601242876192041e-01 6.974209164859103138e-01
-2.289449975066530293e-02 6.132405103272908081e-02 -7.969208040390902692e-01 -7.428083234336576579e-01 9.327349261734861618e-02 6.629749996890079711e-01
-1.845307982726871257e-02 -1.508567040562064088e-01 -7.541785490884186371e-01 -8.773695924650294353e-01 4.659423172826679393e-02 4.775474591989792850e-01
-7.705137776504596137e-02 2.973364047114357596e-03 -8.458720423469109351e-01 7.884636960741371325e-01 -4.280456702592010804e-02 -6.135900659355839615e-01
-3.229616609321567938e-02 -1.409156346216220990e-01 -7.656465961162257639e-01 8.676259594930276764e-01 -5.236057843473680695e-02 -4.944527927313012161e-01
-8.381500994621159800e-03 -2.959151403971897396e-02 -7.480129814052610682e-01 8.219824499370653736e-01 -1.639198152058606861e-01 -5.454128217949560931e-01
5.248854886466965824e-02 7.648644241106899999e-02 -7.119845385090223244e-01 -8.125992156577525050e-01 2.861079353045287710e-01 5.077644769656348700e-01
-6.461520886423849364e-02 1.004959782894884468e-01 -8.368653897823059573e-01 7.490229878730804147e-01 -4.506829923908584057e-02 -6.610093887694632464e-01
4.511431335832142252e-03 4.064225003455387321e-03 -7.517013734757039822e-01 -8.032110312210656300e-01 1.728279767431500913e-01 5.700723899468045364e-01
-2.076438984503107057e-02 -8.137868952356443197e-03 -7.709593526559817001e-01 7.945111560955567809e-01 -1.311990635911541858e-01 -5.929070994283224261e-01
1.430488552864436769e-02 -2.792995745821869481e-03 -7.353610015234384178e-01 -8.098755953023226706e-01 1.875784762358853330e-01 5.558019749755589434e-01
3.309430359820002970e-02 -4.060820946956440053e-02 -6.914869345496413855e-01 -8.664874970055272962e-01 2.508356085399613966e-01 4.316027282368402607e-01
-1.271753893876154812e-02 -8.430936431529438904e-03 -7.769944581499584890e-01 -7.354940717359940150e-01 1.867409485934528601e-01 6.512881762780788897e-01
4.431928051047741290e-02 7.484312428754742730e-02 -7.220732885245596533e-01 -4.625581873748333961e-01 -8.857669736493656298e-01 3.816794053328419895e-02
1.837000195108009007e-02 -6.270308244580183321e-02 -7.062436305409933723e-01 -8.684083505752803189e-01 1.685297084938980616e-01 4.663310776755961173e-01
-5.978875993201595435e-02 -1.877701803666222413e-01 -8.133064341048543699e-01 8.809096154795876821e-01 3.198039936422738400e-02 -4.722028202077045433e-01
7.433387638567205691e-02 1.681658085048677032e-01 -7.195893943424093164e-01 7.060944759050779007e-01 -3.005340415049060354e-01 -6.411785094597765022e-01
-4.818716181517008340e-02 -1.209204326546590297e-01 -7.943187405698649561e-01 8.516548695184639195e-01 -2.922706650323707647e-02 -5.232874561931555313e-01
3.755650119727537047e-03 1.577299083400520441e-01 -7.769603812867060810e-01 6.537044849156125048e-01 -1.086529898484393103e-01 -7.489091895538528831e-01
7.491681212935402678e-02 1.260876677651633915e-01 -7.063866779863424705e-01 -7.993637045754065085e-01 3.384500470100820779e-01 4.964566783580975917e-01
-8.934838562624849989e-02 -4.491676564625271019e-03 -8.619797307607670600e-01 7.971620461769490795e-01 -9.969691083341345253e-03 -6.036830935140411469e-01
9.753095983034074101e-02 1.764548780731027000e-01 -7.060729852499262327e-01 -8.208583072882347231e-01 4.011204936235158169e-01 4.065636345655138650e-01
7.650823506021273146e-02 8.821475160323714870e-02 -6.482182080834726356e-01 9.292365261031665380e-01 -2.913986815057440505e-01 -2.271701718369578959e-01
1.899058935847702453e-02 -1.911420990167668130e-02 -7.075740918537011259e-01 8.625434545013853649e-01 -1.880267046066901315e-01 -4.697496646636001860e-01
-6.728806768025136220e-02 -1.632444960040344561e-01 -8.378576987372832185e-01 -8.494184011221054265e-01 -5.535951383124276988e-03 5.276909446612191301e-01
2.354428366489567936e-02 -2.935009450989486263e-02 -7.094022417809873193e-01 -8.660232817503055180e-01 1.903492715110026434e-01 4.623535771481191992e-01
6.764759409219456288e-02 1.541088257562289454e-01 -7.331235163776486097e-01 -3.898723764424527616e-02 5.811018256418001293e-01 8.128964654472536910e-01
-5.978719063622767171e-02 -1.321869660565939686e-01 -8.127078086944061752e-01 8.599750388569501469e-01 -1.340012455861875479e-02 -5.101601407448455028e-01
-6.193442067017888158e-02 -1.413471167806438777e-01 -8.160867811650645010e-01 8.599750388569501469e-01 -1.340012455861875479e-02 -5.101601407448455028e-01
-5.451087141019930055e-02 -1.602776148643277332e-01 -8.167148664551804327e-01 -8.612351221414468183e-01 -9.242250241663408934e-04 5.082058738327528413e-01
4.035973886797004917e-02 7.583957058601863144e-02 -7.319889730280316753e-01 -8.974884213302313229e-01 -3.604942392482683999e-01 2.540835237613439102e-01
-8.855328154294239695e-02 -5.889886659600263030e-02 -8.693981555745358136e-01 -8.001745656123855355e-01 -1.447236492032175168e-03 5.997654291917520197e-01
2.270367045069820663e-02 9.943991243665696589e-02 -7.572030514660832434e-01 -6.944394076588916720e-01 1.875711900905056018e-01 6.946732740925040117e-01
-3.851754312854539092e-02 6.190525406839218064e-02 -8.050475105083479965e-01 7.395625576115827382e-01 -9.654946867218301698e-02 -6.661271826596880663e-01
-7.700254504151782080e-03 2.628381861750778755e-03 -7.558375307052320746e-01 7.960635592509157643e-01 -1.671422141364335701e-01 -5.816754162643754666e-01
-6.983840324058557258e-02 -6.502864342737880998e-02 -8.321423951293732690e-01 4.442219476827465319e-01 7.741743642793958990e-01 4.509112051053291159e-01
2.324518285735444750e-02 -9.085761381245973517e-03 -7.043348238397898475e-01 8.539219368943081756e-01 -2.175771596424607712e-01 -4.727340746049437104e-01
-7.092080193203184613e-02 -2.287935571170670312e-01 -8.378885013362851186e-01 6.455821467372440114e-01 -3.733363097197424652e-01 6.662159497182397194e-01
-2.734676492914993665e-02 -1.217667063022230267e-01 -7.592418634851596515e-01 8.601798580835958719e-01 -8.037889294437305931e-02 -5.036167643320877962e-01
-6.575369336607228554e-02 -1.391622294874395732e-02 -8.399839917849571957e-01 -7.939672533059188853e-01 2.441467932278565400e-02 6.074701014135763799e-01
8.339510330008031991e-02 1.359020383570087032e-01 -6.810507710495572464e-01 8.830875940966511628e-01 -3.520366716644010574e-01 -3.102039376862237297e-01
-1.839787500994899058e-02 -1.259312049784617159e-02 -7.608825923536882696e-01 4.825570440126303873e-01 -4.925203630023154422e-01 -7.242667956643185079e-01
9.510974762138248509e-03 -1.264810714333959585e-01 -6.904428753900054838e-01 8.949388172751091552e-01 -9.581703090377989562e-02 -4.357793133261526064e-01
5.006597779555388428e-02 1.173466611330526571e-01 -7.347164136987521799e-01 -7.110790060440964622e-01 2.539967595075418583e-01 6.556312174713827545e-01
-1.235442490692775612e-02 -1.111582343265757854e-02 -7.587678446881273020e-01 8.080418653013765606e-01 -1.444543243120684217e-01 -5.711403436177626691e-01
-4.926474680955097996e-03 -5.096774843180480741e-02 -7.502793812009475038e-01 -8.352061323896212697e-01 1.405790843184904770e-01 5.316655315806597670e-01
5.415134630913719799e-02 9.128376716200051200e-02 -7.176086059287301033e-01 -7.818524941026000485e-01 2.655682983149731946e-01 5.640746017998263806e-01
