6.157209312954232960e-02 -2.243204234149140663e-01 -9.123123336084514312e-01 8.732839592215846380e-01 -3.733471466842747805e-02 4.857790090636902036e-01
6.732151970068502023e-02 1.040510699375465919e-02 -9.149234294388488564e-01 -8.017522111054984357e-01 -3.941906364551846925e-02 -5.963552040594219950e-01
8.159994131757700164e-02 -1.206100207526470680e-01 -9.266864771441227777e-01 -8.804097650826007149e-01 -1.484822453108509965e-02 -4.739811977024764866e-01
4.477000182762064934e-02 -1.061505341634702837e-01 -8.517718115311382343e-01 -8.796711018558144302e-01 -6.502560880729518766e-02 -4.711161457210077397e-01
6.572553335015356157e-02 -1.482411588073232478e-01 -8.954288432521901875e-01 -8.958748677726930953e-01 -1.155079112873281903e-02 -4.441562793854885172e-01
-5.805336521623766233e-03 1.066978897783812247e-01 -8.377587032307757253e-01 -6.862297180681695696e-01 -2.078086268088849553e-01 -6.970683959726520218e-01
6.005665778338886013e-02 -2.383087265397632881e-01 -9.057501204252634830e-01 9.862219614818358293e-01 1.361039836124615654e-01 -9.403163476053637282e-02
-3.257631790758588192e-02 -1.380422633146441251e-02 -7.458559608233490401e-01 9.060122977429481139e-01 2.374454375845790333e-01 3.503732017560864942e-01
-1.087263684201260627e-01 2.035130875901653424e-01 -7.602015491844683615e-01 -8.086820420844920143e-01 -4.852925266840505958e-01 -3.324522798157142911e-01
6.401188622030988540e-02 -1.331872132956151422e-01 -9.076038287220304923e-01 8.784833740941644376e-01 3.405656200533938027e-02 4.765575642296622783e-01
7.616046716718687104e-02 2.217121420753872044e-02 -9.353737653071603209e-01 7.511164283906532901e-01 -1.011601483336273082e-02 6.600922490421772260e-01
-2.676813367876576880e-02 -2.978440950302743695e-02 -7.266814931827881852e-01 -9.260360752549329222e-01 -1.343459556576526992e-01 -3.527156808604803295e-01
-6.599438210736997823e-02 7.122347803588115200e-02 -7.220847782205460641e-01 9.141973118742220406e-01 3.150091906107437278e-01 2.549754591969793371e-01
-2.427675002514404629e-02 1.737306966067980740e-01 -8.354414680565244167e-01 -6.328230474652206672e-01 -3.297571102165316320e-02 -7.735939458653017242e-01
6.727856075218777154e-02 1.719604001577593883e-02 -9.245909642205033530e-01 7.859121623882069363e-01 2.120605382991447990e-02 6.179744139454765861e-01
4.169886283158286133e-03 -1.244898954260974522e-01 -7.720282314846651506e-01 -9.084539391545465303e-01 -1.009451737183467979e-01 -4.056125150159446968e-01
3.580633682808569140e-02 -2.787326985883612981e-02 -8.748094303668842997e-01 8.475109730056362700e-01 1.174837451912146002e-01 5.176125194108862626e-01
-1.864557533246994150e-02 -2.586942850921990916e-02 -7.730454280173325587e-01 8.945909229474837687e-01 2.136303121492506840e-01 3.925164586498031682e-01
4.249238035576572564e-02 -1.357549853629230197e-01 -8.664677449311253277e-01 8.855303511170590225e-01 5.819370459428677839e-02 4.609224338173302238e-01
5.352871161033639219e-02 -2.391280111234765290e-02 -8.903623555313234794e-01 -8.348976381389829893e-01 -1.075477226165521411e-01 -5.397957217225245463e-01
5.517699936911475006e-02 -8.185229325939921696e-02 -8.828061602555713483e-01 -8.673439870603636415e-01 -7.883555858395641103e-02 -4.914258467083177373e-01
-7.299096710067584648e-02 7.141735393138144705e-02 -6.954156979394752192e-01 9.556540608394998859e-01 2.799247581209498015e-01 9.147374372955931199e-02
-2.128990153132198984e-02 7.057514702630181269e-02 -8.210115847988859183e-01 8.125285301988275366e-01 2.447109961450955051e-01 5.290689142055201577e-01
7.024947643998934177e-02 -2.275586427224575992e-01 -8.998930220139960134e-01 -8.729894713457516664e-01 3.829306092779315857e-02 -4.862335081051545327e-01
-4.532247516422510669e-02 7.158271052890947950e-02 -7.522729460787611622e-01 -8.929407533628793692e-01 -2.176526367701196174e-01 -3.940610875115022615e-01
-5.498354032041307543e-03 -2.283942378003223431e-02 -8.099027720878666514e-01 8.931465494371132463e-01 9.979135971693645080e-02 4.385554990584695223e-01
-1.521386145553570157e-02 -6.443364184461011779e-02 -7.464617882555621975e-01 -9.104295704515142917e-01 -1.479499935900366325e-01 -3.863014323610244327e-01
3.135825374789388831e-02 2.373920173682639301e-03 -8.563591608754858031e-01 -8.580924803260465694e-01 -7.602541181270697224e-02 -5.078360286220364728e-01
7.693312620484055175e-02 -8.852383873365425246e-03 -9.361772941980058826e-01 7.956870466936573072e-01 1.979665633049118925e-02 6.053843540446498528e-01
-5.389032897590280424e-02 1.417943896946434468e-01 -7.979010099370090758e-01 -7.690446342907180100e-01 -3.325667648628318762e-01 -5.458660067977540997e-01
7.627216202078077045e-02 -3.370725955763002601e-01 -9.472356036705372739e-01 1.714892045583813474e-01 4.444644398790597029e-01 -8.792285336605765167e-01
-5.036350975593831963e-02 6.992354967404620925e-02 -7.655648364462027677e-01 8.827939677009123409e-01 3.406828205811210930e-01 3.234347327541871597e-01
-1.824455262046814630e-02 -7.101323672936592224e-02 -7.522525070623194976e-01 9.143639935153990983e-01 1.575569764067159262e-01 3.729802763527110265e-01
-4.853162280072147866e-02 1.892525163251350395e-01 -8.222351801995824161e-01 6.028815855533872226e-01 3.414708938710894846e-03 7.978233724098947599e-01
7.488931498360444639e-02 -4.571055997962605172e-02 -9.318368572109160253e-01 8.269193765559211817e-01 4.138229654633101412e-02 5.607957294852717878e-01
1.117326743543898843e-03 -6.787623730004357925e-02 -7.984515635433326874e-01 8.935965541235492138e-01 1.505147412249996375e-01 4.228835668744888587e-01
3.941782789224188011e-02 -1.619907006442414810e-01 -8.416736648088101180e-01 -8.993708237324301580e-01 -4.393816725561040804e-02 -4.349730553460385840e-01
-3.247291994149321959e-02 -3.490675389649752075e-02 -7.175357766614494093e-01 -9.199596338630390280e-01 -1.914857708827793215e-01 -3.420635490841004711e-01
5.860709836676759876e-02 -1.183799150103764936e-01 -8.988323809953107091e-01 8.796448391187740024e-01 4.058270114981584603e-02 4.738966146524901668e-01
-7.640292404490563183e-02 1.129320449941914745e-01 -7.186259876115991263e-01 -8.878303086072558692e-01 -3.687277031851235454e-01 -2.753129565098025866e-01
6.475112841301759042e-04 1.079338176529790472e-01 -8.529642805166173236e-01 -6.048669273944179414e-01 7.666259443154275210e-01 2.154545465914205205e-01
7.422783779387304159e-02 -8.991414931845195802e-02 -9.151215386119201378e-01 -8.616166705053249775e-01 -4.655264746615040555e-02 -5.054201857081002114e-01
7.647062923316529093e-02 -2.645883288646792564e-01 -9.298948856195329293e-01 -6.221730241426933761e-01 -3.746733912654821586e-01 6.874013223050697841e-01
8.245851014867264239e-02 -3.385980911571154217e-01 -9.570231863277899320e-01 -9.373337188785909602e-01 1.411107989328595491e-01 -3.185800399864386345e-01
6.267131446752857715e-02 -5.651931424093235151e-02 -8.993502624672480295e-01 -8.571944748604457542e-01 -6.802159380594043070e-02 -5.104808468932251486e-01
5.080845043843768005e-02 1.063170595946804492e-01 -9.060266710938224000e-01 6.317479402985792802e-01 -9.394444227882160769e-02 7.694601885045280198e-01
-7.400041991671379993e-02 1.313042431662197751e-01 -7.700438953327822800e-01 8.423240956214154140e-01 4.059081813426141938e-01 3.545823828882309625e-01
2.345591786552148408e-02 -1.743896374349062153e-02 -8.578191152762517646e-01 8.360759142381871678e-01 1.411667008213266516e-01 5.301405740084430551e-01
-4.931433076713451213e-02 1.380686188410179538e-01 -8.131023769302785364e-01 7.446839723798271971e-01 2.517114752779385234e-01 6.181319555677446953e-01
-4.625153313873156535e-02 2.737358550184165046e-02 -7.392300625121667190e-01 9.109711154845225867e-01 2.568409469456032768e-01 3.227450305194031199e-01
-3.328993696307144118e-02 1.757926907546062678e-01 -8.280265486226441318e-01 -6.428687166432500710e-01 -7.466494157077074867e-02 -7.623286428186295538e-01
-9.365245538727297314e-02 1.470343962007215621e-01 -7.439537137096996489e-01 8.719964816121110740e-01 4.437776711518311434e-01 2.065998902302616791e-01
4.142451871425099214e-02 8.108952851686661301e-02 -8.979458361347489870e-01 7.325758842323395470e-01 2.958721171952567383e-02 6.800420360123846653e-01
-4.078254178578143499e-03 1.557753754600285090e-01 -8.571028521754577856e-01 6.428893035701431780e-01 -3.256891854513390208e-03 7.659521760596702533e-01
-5.042786062710388068e-02 8.545317599771411546e-03 -7.116034692500829983e-01 9.185981978358732647e-01 2.431695706369312870e-01 3.115219267546609494e-01
6.319715742015973026e-02 -6.255082958265528736e-02 -8.994295531737986904e-01 -8.571944748604457542e-01 -6.802159380594043070e-02 -5.104808468932251486e-01
1.118276372322135441e-03 1.635938208266020100e-01 -8.562984069180031854e-01 -6.588342498565367134e-01 -2.817470624382789612e-02 -7.517603455517246624e-01
2.427412059009356401e-02 -2.654203236790061288e-02 -8.564350274858928413e-01 8.524624954084273343e-01 1.579958344930267322e-01 4.983422621099770633e-01
-2.268772769383078577e-03 6.690788635856309563e-02 -8.343280609142809112e-01 -7.926424866761397903e-01 -2.265646589647850595e-01 -5.660268046868770497e-01
-2.425638689463106845e-02 1.772507630406665591e-01 -8.356081743143703999e-01 -6.328230474652206672e-01 -3.297571102165316320e-02 -7.735939458653017242e-01
1.686482791553276656e-02 -1.960828255891908321e-03 -8.519356809970676236e-01 8.259229884386828369e-01 1.576982547858954697e-01 5.412785582359587178e-01
4.965498840687716797e-02 -1.822281437549858885e-01 -8.846238568303630423e-01 9.769796849330654176e-01 2.060435333538786495e-01 -5.528795159107615514e-02
-2.436075313218144175e-02 -4.528999901015833690e-02 -7.329460158370254552e-01 -9.112571858558690119e-01 -1.737205869165834027e-01 -3.734052743433064481e-01
1.758001959124744912e-02 9.429297988425174026e-02 -8.744113187614053206e-01 6.858358956708803245e-01 4.070517880298313990e-02 7.266169641757193043e-01
5.093581705216050290e-03 -2.357107648267691043e-03 -8.314061394053146037e-01 -1.876419265860841679e-01 -3.717095443610023975e-01 9.091878364881476049e-01
-1.509065161593863870e-02 4.520388383232726293e-02 -8.185316378094187328e-01 8.369148894433455776e-01 2.324430211689606507e-01 4.955236722275527250e-01
-1.127869096660960233e-02 9.928382775147173711e-02 -8.281507020157971022e-01 -7.359277063957551102e-01 -2.922300705084842631e-01 -6.107470809178621174e-01
1.290549489251469929e-02 1.299863591645109562e-01 -8.737399451408155437e-01 5.493080742986841125e-01 -1.012194726048309124e-01 8.294668515835162959e-01
5.607375604334383784e-02 -1.933029753833720721e-01 -8.833288763016465817e-01 1.822324026372754702e-01 4.034949633878410769e-01 -8.966510837274946910e-01
2.983053424311589083e-02 1.316662359716029851e-01 -8.811114734315322883e-01 -6.894741163540625273e-01 -8.104728347955161491e-03 -7.242649765494604264e-01
-6.799955302532609269e-02 1.357675647467823377e-01 -7.701098420856518079e-01 -8.187470481314013115e-01 -3.952147628189286999e-01 -4.164835680145073105e-01
3.760639511564006082e-02 -1.437937796522894551e-01 -8.556255044097429430e-01 8.966530783666364357e-01 4.740800628476615070e-02 4.401882983403101468e-01
-5.291747985378760649e-02 1.093293362052482481e-01 -7.927854946900654287e-01 8.109890645498029071e-01 3.373620735736371778e-01 4.779995486344429945e-01
1.140545399386580852e-02 -1.105016739259968989e-01 -8.073077260646841502e-01 9.028273666000595776e-01 1.075176975986675554e-01 4.163444377208406211e-01
-1.976083996753609864e-02 -7.411981452172274054e-02 -7.471013215843471666e-01 9.171438853544576775e-01 1.620496711368560605e-01 3.641249753056854943e-01
-7.862107887297407893e-02 1.501606659312879344e-01 -7.860921391611574993e-01 8.059726831873695874e-01 3.688856605117216136e-01 4.629593971662990248e-01
-2.379577879587045641e-02 2.318781223085651655e-02 -7.902206713724370113e-01 8.754858102379130536e-01 2.664673074942816022e-01 4.031374084711227823e-01
-1.052128842597865321e-01 1.782761802208292501e-01 -7.476883450711464540e-01 8.642340900339210430e-01 4.633224432931889458e-01 1.960401774230734750e-01
3.655405027160607556e-02 -1.084375755352019570e-02 -8.796431496599302902e-01 8.169749697868795568e-01 1.197897199443867244e-01 5.640942489844872343e-01
-3.706791446728962929e-03 1.309295531404484902e-01 -8.567845655840986563e-01 6.655030200976183030e-01 4.013324667448185668e-02 7.453154048805874510e-01
-3.726406390294081244e-02 1.010367526067401378e-01 -7.915885357900627195e-01 -8.405507342998644882e-01 -3.468579788449933088e-01 -4.161297941502444808e-01
-6.397195901610283619e-02 1.468354791335372556e-01 -7.878266473769328648e-01 -4.851237553677146264e-01 -3.943174029113687418e-01 7.804926186320785275e-01
1.227839455075018654e-02 -3.762597130263294065e-02 -8.381628658295260381e-01 8.376509325144601004e-01 1.319122129589981041e-01 5.300378131132864601e-01
-5.248282509813663455e-02 1.619953294719776781e-04 -6.978043541786291826e-01 9.406696168179585760e-01 2.443392030846483487e-01 2.354549337591257119e-01
-6.195497683762928726e-02 8.789629349884001130e-02 -7.331952746854391023e-01 -8.947842131920614728e-01 -3.280044051199729194e-01 -3.029427702457280769e-01
6.455718057516245112e-02 -1.086132450314296893e-01 -8.960348843755021608e-01 -8.766217908341313869e-01 -5.901130532465386630e-02 -4.775478004123153708e-01
-7.196895239847335424e-02 6.812674925694005290e-02 -6.921270748846449772e-01 9.073237643085320103e-01 1.653678909658349017e-01 -3.865450133664991017e-01
2.206360506875822136e-02 -9.203462151815336445e-02 -8.183326425480534905e-01 -8.897170198102970495e-01 -1.259868352709889172e-01 -4.387834796323629161e-01
-9.536256437172327752e-03 7.367574807665673575e-02 -8.268599374804933566e-01 -7.926424866761397903e-01 -2.265646589647850595e-01 -5.660268046868770497e-01
-2.587203139026583720e-02 -4.951531068749812775e-02 -7.431391252049285301e-01 9.160927930637091654e-01 1.780282074399115733e-01 3.592769848632999530e-01
-1.344214841663382912e-03 -8.128233163608454548e-02 -7.721982901923274412e-01 -9.103159894607656399e-01 -1.269547552417953917e-01 -3.939635636116150530e-01
-2.071876008506263675e-02 1.002736622845792208e-01 -8.310989406632857124e-01 6.110228074390027242e-01 -7.541766858492244818e-01 -2.405590474516374477e-01
-3.280348007655709691e-02 1.527989849389481125e-01 -8.250340439907225543e-01 -6.793951534029843975e-01 -1.394764592728957031e-01 -7.203947132240988704e-01
1.345828256340499303e-02 -1.546808956786437650e-01 -7.875038003402393683e-01 -9.092619853045837974e-01 -5.590697606323448421e-02 -4.124524846663330524e-01
-1.074152354016110894e-01 2.098875592714644356e-01 -7.698931388656150565e-01 -7.490817192398527835e-01 -4.308591660965565562e-01 -5.032265462902829611e-01
-1.093349820462338057e-01 2.025918457214958557e-01 -7.741944525741228933e-01 7.456714296406902198e-01 4.158824770959908546e-01 5.205918595811036553e-01
3.442912992244236831e-02 1.316744993482129866e-01 -8.893698252597845855e-01 3.343160924885167362e-01 -3.747022835805677854e-01 8.647721948482832710e-01
-2.214112185729574366e-03 1.667754890284497971e-01 -8.534971828824673423e-01 -6.588342498565367134e-01 -2.817470624382789612e-02 -7.517603455517246624e-01
7.644550303764494070e-02 -2.504841452040828531e-01 -9.212596295951662739e-01 -9.880605439986398508e-01 -1.311501998204639696e-01 8.084544811035572487e-02
3.432870444360684725e-02 -1.141845916862729154e-01 -8.597820284648738376e-01 9.061893196889597712e-01 9.896435938981476554e-02 4.111289000450149556e-01
-7.478785378198475609e-02 1.583081619310165999e-01 -7.955294578047735765e-01 8.716225751800497079e-01 -4.896886522695321209e-01 -2.188858777874250899e-02
-6.424266942818765425e-02 1.407963764452894728e-01 -7.957007087001264356e-01 7.523568153819087945e-01 3.156597463221696986e-01 5.782025137442899920e-01
-3.523049750070524067e-02 2.633386407506901547e-02 -7.667890524349963988e-01 8.881142566719130160e-01 2.723860845442304668e-01 3.702146513075336709e-01
-2.391273846261886271e-02 6.703687523590382696e-03 -7.797435865971840130e-01 8.839288053385724320e-01 2.352325619498527309e-01 4.041478799786442089e-01
4.673640833944834455e-02 1.926441001534483222e-02 -8.883189319290986097e-01 -8.007553846940809184e-01 -7.745753081461827227e-02 -5.939622419005576859e-01
-7.101839237827115014e-02 8.571041382311471446e-02 -7.027963731138545667e-01 -9.045370922067030861e-01 -3.191031259710374601e-01 -2.828176865363172809e-01
6.486479464110435356e-02 -1.928783961504504374e-01 -8.955514303227741779e-01 -9.278253150646629255e-01 1.684687850230624784e-01 -3.328039260555858414e-01
4.354947181609138823e-02 2.586317161148365788e-03 -8.924031474973938005e-01 7.958714803831706819e-01 9.244573955783223773e-02 5.983664194708001594e-01
8.165189062653487040e-02 -4.272092263339501844e-02 -9.375892236776377509e-01 -2.714727110441916835e-01 7.842133754499851506e-01 5.579533573011793424e-01
-1.985832542554536936e-02 9.462936618184528137e-02 -8.370336792181414243e-01 7.278457067531310942e-01 2.825825497671984876e-01 6.248101549495684859e-01
-6.036959098773035659e-02 1.534890304993281329e-01 -8.066095802572474938e-01 7.365464234382953501e-01 2.704657578354598968e-01 6.199577727222601586e-01
1.662077400060962828e-02 2.775906104704886287e-02 -8.478234161789022227e-01 -8.184275665708604652e-01 -1.839490986013041507e-01 -5.443703219322922893e-01
3.586305482574535936e-02 -1.679525733392177589e-01 -8.339222431595929574e-01 -9.006770658177815081e-01 -2.495322361720065871e-02 -4.337720135520289344e-01
-5.081107931766538910e-02 1.357745042902171462e-01 -7.987533047996808744e-01 -7.835217203340600900e-01 -3.028133827745935203e-01 -5.425843427314894774e-01
4.881301911703401358e-02 -8.162903629671304506e-02 -8.859772475647720302e-01 8.670294533520810365e-01 7.718101792252710092e-02 4.922428440235919189e-01
-2.261593880068742471e-02 1.019402293663816857e-02 -7.846114065578232433e-01 8.839288053385724320e-01 2.352325619498527309e-01 4.041478799786442089e-01
-7.158272715166898170e-02 1.589850856099560839e-01 -7.890385214352213517e-01 5.116546917247367654e-01 -7.407656007383456309e-01 -4.352881817817046972e-01
3.901587072986827109e-02 2.586219030126760479e-02 -8.755939668249776986e-01 -3.087906291270294812e-01 -5.909057832901227769e-01 -7.453044362122231981e-01
6.035612694226036301e-02 -1.881049710828178526e-02 -9.014345713959542872e-01 -8.185830363028682166e-01 -8.576719763060988710e-02 -5.679487657243115217e-01
3.694901114127878416e-02 -1.414061743314228292e-01 -8.388054321350399967e-01 -8.964487047264388941e-01 -6.808258293533492322e-02 -4.378863798922538186e-01
7.612521014395816354e-02 -5.818321940014314908e-02 -9.210673503020014863e-01 -8.477138937093384730e-01 -6.259190190027530409e-02 -5.267479551252749470e-01
6.544912727444006373e-02 -2.079255032414032145e-01 -8.904370322096553103e-01 -5.799271035344100156e-01 2.167867834556157780e-01 -7.852948778039734457e-01
-1.142948988500561286e-01 2.291207629861746198e-01 -7.793163643700993237e-01 4.423721647634509813e-01 -9.830799654928089326e-02 8.914271735015510956e-01
-4.267895560162974361e-02 2.930349837946770453e-02 -7.325654192530266506e-01 -9.079531206597885040e-01 -2.494202232455425272e-01 -3.367650262724665167e-01
1.607139241154549938e-02 -1.479769413768194375e-01 -8.093873100873476556e-01 9.122724321991129148e-01 6.359567794779479033e-02 4.046166076619634455e-01
-5.048347913515898594e-02 5.032202827214862784e-02 -7.475227674670427147e-01 9.030151171598524984e-01 2.995269065650901230e-01 3.079729378116290994e-01
-2.964264630536870421e-02 -2.391277454310458683e-02 -7.525580265333053909e-01 8.560473597527057388e-01 -4.468396605190044779e-01 2.598407890375992180e-01
4.550991380616997012e-02 5.953378680254470950e-02 -9.012001032108085674e-01 7.358076786341527509e-01 5.491799981503601991e-02 6.749600531582110596e-01
-3.808896666232151201e-02 9.484909451860296103e-02 -7.889483518484117219e-01 -3.964919041800886168e-01 -1.371498964132297077e-03 -9.180371936420870238e-01
2.434072256188829844e-02 -8.350355017210726871e-02 -8.252287875321088206e-01 -8.845640156469704030e-01 -1.197651354595650336e-01 -4.507802286601068076e-01
5.604894819062251204e-02 -1.560892489691289020e-01 -8.692008742718457803e-01 -5.504044795559660530e-01 2.279891066009519240e-01 -8.031661572526732629e-01
6.772389432244287077e-02 -1.208235656692261267e-01 -9.008398828886338139e-01 -8.826531724793260647e-01 -3.602009926720090016e-02 -4.686426459051312721e-01
-6.326777112407444559e-02 4.564980264914589303e-02 -6.869910611079089735e-01 -8.647209719334334466e-01 -2.839316242597976769e-01 -4.142951525708344351e-01
-2.901148052276388695e-02 5.965850539710192309e-04 -7.473177609705483615e-01 -8.990061919778811195e-01 -2.370684141804497991e-01 -3.682206319360656899e-01
-7.558452169934429254e-02 1.555653036290230717e-01 -7.707419401241619727e-01 2.014807324595713767e-01 -9.663502769038007090e-01 1.599145295947249634e-01
-9.970305504933808793e-02 2.220853267956287569e-01 -7.870591012719024837e-01 1.338891535480604411e-01 -6.209024252305659353e-01 7.723690004816256005e-01
-6.812179533236109585e-02 5.805181634847438737e-02 -7.037985314623502742e-01 9.455405917137397198e-01 3.195294650092973532e-01 6.207987123458846845e-02
-5.832991842934338172e-02 1.576458026439654936e-01 -8.099543634475766529e-01 6.746060465519296834e-01 1.861809353528960376e-01 7.143131955008925615e-01
2.074344601724205719e-02 -5.627535798541338785e-02 -8.414592314903328596e-01 8.721218921375060162e-01 1.353081738531714540e-01 4.702075109385388529e-01
1.273703214002246814e-02 -1.388140465605895435e-01 -7.883221987982639289e-01 -9.082582658530532482e-01 -7.466016809886187600e-02 -4.116950106681575017e-01
-6.755385841626596055e-02 1.250498618691258390e-01 -7.596112217624046981e-01 -8.581028113430844151e-01 -3.665254775824480227e-01 -3.596090091308244974e-01
-9.914806123177410946e-02 1.594812619913788809e-01 -7.312689609701398252e-01 9.101196991665496672e-01 3.954815853226031908e-01 1.235979322630820221e-01
8.393208764905524255e-02 -3.182871631230581311e-02 -9.450086299141938762e-01 8.022838433075503151e-01 7.085537866352232400e-03 5.969006868154956846e-01
2.691109018562850771e-02 -5.703885776643031688e-03 -8.663346272358405376e-01 8.358569202902824680e-01 1.380801429483585197e-01 5.312975465087383942e-01
-5.408765560608193301e-02 1.393440957540263703e-01 -8.079019530243221059e-01 7.365464234382953501e-01 2.704657578354598968e-01 6.199577727222601586e-01
1.101530015649990722e-02 -8.251723172413415880e-03 -8.255082507154756222e-01 -8.619095232076098290e-01 -1.866765851497388662e-01 -4.714486465786733027e-01
-1.213097015534460310e-01 2.207134794249446530e-01 -7.716784786051986700e-01 7.368908849073619871e-01 4.243663041952789317e-01 5.262176960195134034e-01
6.753016721559050584e-02 -3.275957320869326561e-01 -9.502947674164133884e-01 9.896787412632802594e-01 8.773115662853768482e-02 -1.133103404290548843e-01
-8.039890639984181853e-02 1.218853975678315799e-01 -7.177309875352826385e-01 -8.878303086072558692e-01 -3.687277031851235454e-01 -2.753129565098025866e-01
3.641098328106118220e-02 3.153410207205753490e-02 -8.850886632058353465e-01 6.012429356241439926e-01 -7.371227059833506123e-01 -3.084753615539561622e-01
-3.592078726454794174e-02 7.154775688844175474e-02 -7.811909197777284763e-01 -8.417489075402688758e-01 -3.194239675662345901e-01 -4.352322432897279825e-01
4.474507643117386219e-02 9.475170344471916042e-03 -8.950576960992371323e-01 7.958714803831706819e-01 9.244573955783223773e-02 5.983664194708001594e-01
2.340063991322478484e-02 -1.269755734294824396e-03 -8.490229718805474279e-01 -8.295899634393968380e-01 -1.596198080888984738e-01 -5.350719665860693697e-01
-2.017547293745878753e-02 7.809931356874641462e-02 -8.091382697800431067e-01 -9.355908941407469204e-01 3.167466124267721561e-01 -1.560168654892215290e-01
4.357917487092788367e-02 8.592676367741822196e-02 -8.929932602328572999e-01 -7.370020846237477219e-01 -6.117714461956499233e-02 -6.731161001167976776e-01
1.632497193032163632e-02 -7.319639490259276238e-02 -8.121102908370023687e-01 -8.864615083640065007e-01 -1.500724129437969456e-01 -4.377947750513211944e-01
4.565235621452032322e-02 -6.993919503266778082e-02 -8.682042917127544834e-01 -8.672490138855767361e-01 -1.084596437426624121e-01 -4.859173320573256238e-01
5.684486927912630943e-04 -4.742408041541348179e-02 -7.891016260104755098e-01 -8.869876907109709441e-01 -1.771980735793838302e-01 -4.264430551046343720e-01
4.571463529121749109e-02 -6.884519307853421977e-02 -8.826322889643636316e-01 8.570379088973798520e-01 9.902932494456047341e-02 5.056473232538969409e-01
1.806240127106517948e-02 -9.666730522754897470e-02 -8.088892690615058223e-01 -8.897170198102970495e-01 -1.259868352709889172e-01 -4.387834796323629161e-01
4.086092578508574574e-02 -1.741200625618573583e-01 -8.593006392337706467e-01 9.036327980150958838e-01 3.775891803097805588e-02 4.266403994707237413e-01
-9.036122994585724100e-02 1.500325694673120269e-01 -7.500567809622833426e-01 8.544091597308548502e-01 4.342655682902145653e-01 2.853040552911774719e-01
-2.138994881775610826e-02 9.905847025906207304e-02 -8.289940193308011906e-01 6.110228074390027242e-01 -7.541766858492244818e-01 -2.405590474516374477e-01
-1.629840265301729305e-02 2.949707776403997367e-02 -8.147902167656450034e-01 8.632041850706120290e-01 2.774429718339092577e-01 4.217865956340351441e-01
6.707450312280840987e-02 -5.638020117832093225e-02 -9.038305983388501552e-01 -3.946154437590996822e-01 -5.747014125303211429e-01 -7.169357976712159575e-01
-7.290615096055594324e-02 1.736983230254720290e-01 -7.905660734901822639e-01 -6.894899135663157264e-01 -2.783718659856080357e-01 -6.686649110862669110e-01
6.586320825551632285e-02 -3.377453118835162943e-02 -9.194842520322799029e-01 8.231856130171142372e-01 4.944095219886610743e-02 5.656156281144532061e-01
6.177813874637622799e-02 -1.849865162921599249e-01 -9.009114749530845456e-01 8.682705061367472776e-01 3.490965869774788344e-02 4.948612370176545538e-01
-1.021408249082581127e-01 1.911826997811578999e-01 -7.585180377900613280e-01 -8.062705271629233561e-01 -4.721660473335757002e-01 -3.563524389895616484e-01
9.726659332713910588e-03 -1.045254221030316420e-02 -8.404844134763471697e-01 9.263880377794749821e-01 -3.603208664861872745e-01 1.094261240917216854e-01
-6.546726519802223421e-02 6.836473311113377971e-02 -7.099845715153149106e-01 3.341363263740174117e-01 -9.216959578828675115e-01 -1.970519642623724810e-01
4.213447898127818669e-02 -1.692034826788051949e-01 -8.469774554528665123e-01 -8.997573125180562403e-01 -1.381956389671523330e-02 -4.361717531248319180e-01
1.010506113165099591e-02 1.424463690270119931e-01 -8.634134576451835130e-01 -6.650910666947391636e-01 -1.829754330672876683e-02 -7.465380585822751769e-01
-5.114426598631129951e-03 -1.127435791577656859e-01 -7.760163805125659398e-01 9.231090364666043602e-01 4.005953913829955748e-03 3.845174367007789251e-01
1.171674968376019282e-02 4.991779500166098477e-02 -8.481047984937977180e-01 -8.055850502672354807e-01 -2.037813045162881753e-01 -5.563325504728046100e-01
7.521655371115812394e-02 3.432022548377571675e-02 -9.267551193507056473e-01 -7.800185233964531673e-01 -3.761627024652191426e-02 -6.246247828666082746e-01
3.152429104356439804e-02 7.566311681824977597e-02 -8.871298021515866550e-01 7.248206759101356589e-01 4.362381063869608805e-02 6.875550530092359169e-01
-2.882514231538550742e-02 8.782054526164999320e-02 -7.985029422816313227e-01 -8.657045699096735936e-01 -4.802326875355582003e-01 1.411813141314461340e-01
-3.563026445429066935e-02 1.677301610191809511e-01 -8.316596585453134294e-01 6.204825083842864242e-01 3.603660489715038162e-02 7.833918686689507194e-01
2.232748445030588794e-02 -5.896319954813374065e-02 -8.327718285923683128e-01 2.091363171241915897e-01 3.699597352223495395e-01 -9.052026265836498053e-01
3.291026789494481269e-02 8.351238808797303848e-03 -8.739448652493629899e-01 -3.004471058557902086e-01 7.930997975556222102e-01 5.298341700004921551e-01
-8.047913084325704347e-02 1.498156497826210465e-01 -7.465078892049443748e-01 -8.835794017572082826e-01 -3.446953303955621051e-01 -3.169740841044705326e-01
-7.005038910037227062e-02 1.204306707995232151e-01 -7.476063464517875845e-01 -8.717666384459002993e-01 -3.752910325389007262e-01 -3.149278790272792006e-01
8.893687087413481782e-03 1.884086152559396904e-04 -8.250433836949154776e-01 -8.520879487995155488e-01 -2.111971645871345282e-01 -4.788965286792011833e-01
1.281793045780231337e-02 -8.405983262147523338e-02 -8.018165521658690009e-01 -8.908228029038331997e-01 -1.251337257130130942e-01 -4.367794460774668819e-01
8.805301409387457368e-02 -4.273721010211101873e-02 -9.411202324719863954e-01 -8.467053178046257678e-01 -1.865449788576211895e-02 -5.317350040292605495e-01
-5.844405087825999684e-02 1.603393948900083410e-01 -8.060641359651439242e-01 -3.751629375420045820e-01 7.933896457998367291e-01 4.793596147282994102e-01
5.323921155145711070e-02 -1.251910909092256163e-01 -8.669400947996316331e-01 -9.656234187530283730e-01 -2.581217184080674132e-01 3.073420963324046545e-02
2.744782687137519578e-02 -1.408671837152522255e-01 -8.350687640224059294e-01 8.994019056579116711e-01 7.399868626911257352e-02 4.308136563867985824e-01
2.052208172842323944e-02 1.489496886263393660e-01 -8.730509746428110063e-01 -7.119418175457951081e-01 -8.384910931285000091e-02 -6.972145833938294679e-01
4.219127735338583894e-03 2.105382365828860954e-03 -8.175715633995872533e-01 -8.518987328829243921e-01 -2.105604909100277367e-01 -4.795131161711803092e-01
4.714832772090695595e-02 -1.079363130515781505e-01 -8.788973192458297001e-01 8.829639269915027233e-01 6.119917990034096783e-02 4.654345969212753120e-01
-4.537640972401370265e-03 8.216783218917116105e-02 -8.474921186039267029e-01 7.516420664792949902e-01 1.677479059719059473e-01 6.378830958261675343e-01
1.910117097400703540e-02 -1.041034429325959493e-01 -8.086619535578341011e-01 -2.064010084495635292e-02 -9.880847581768201771e-01 -1.525204802502428403e-01
4.008129321206937296e-02 -1.412812811425959159e-01 -8.452115539162780022e-01 -8.928262304061004295e-01 -6.327801655258981361e-02 -4.459340925742312778e-01
-7.417063862346977288e-02 1.226386486961997535e-01 -7.385851722864869018e-01 -8.770484178536739339e-01 -3.825069783061976203e-01 -2.906449454014802813e-01
-3.083298119295387399e-02 6.015758447575129259e-02 -8.024108524149385913e-01 8.752865933872239212e-01 4.616504324819983296e-01 -1.440564390291959318e-01
7.082888809339826786e-02 -8.208095726158050331e-02 -9.100228455879344480e-01 -8.683077609760845306e-01 -4.982254894959941421e-02 -4.935173207141406171e-01
6.488465587099880028e-02 -1.590079354353185204e-01 -8.934635392169893997e-01 -8.948320375382206038e-01 -6.056205788778918318e-03 -4.463619013386340706e-01
-4.655719194615330798e-03 1.529575716206297842e-01 -8.509777675861583957e-01 -6.467256020940393979e-01 -1.904140649199793922e-02 -7.624850296464242838e-01
8.790177789184087584e-03 8.541299523824853746e-02 -8.543908302564882096e-01 -7.686787415450171412e-01 -1.768669756193539111e-01 -6.146959128154598773e-01
-5.989712252979368518e-02 1.212893449041191202e-01 -7.893691154734504556e-01 8.131593276786568403e-01 3.390079988839778125e-01 4.731231176996909538e-01
-5.725069287694348197e-02 9.454289702548360208e-02 -7.527830328692695083e-01 -8.695286662845379544e-01 -3.546531646384906145e-01 -3.437164984712491878e-01
-7.430285900680522193e-02 1.243338369183376868e-01 -7.405087665994065649e-01 -8.788458310852488298e-01 -4.030659678073285068e-01 -2.552799067291034452e-01
1.572085367088819907e-02 -1.678590349787027203e-01 -7.913456350165211095e-01 -8.943468732513103481e-01 2.380125182745289683e-02 -4.467406078666352198e-01
3.438328201892133090e-02 -1.707432522864004570e-02 -8.618688969148241563e-01 -8.380835564512519875e-01 -1.442993403292095744e-01 -5.261118253627985464e-01
-9.563396847957797778e-03 -4.928218532219812154e-02 -7.661804371828274673e-01 -8.978438289697182606e-01 -1.794535628795870252e-01 -4.020856594692446273e-01
8.531119573122397659e-02 -8.149657142579033037e-03 -9.465110958459399537e-01 7.548721915934215598e-01 -1.708732908363146119e-02 6.556492946261228694e-01
5.602101816300996545e-02 -8.589251724267085719e-02 -8.763514570635939638e-01 -8.790526367853829237e-01 -5.675788158512384135e-02 -4.733339250873897508e-01
-1.219187745484981572e-01 2.171814001212891976e-01 -7.673124231678015716e-01 7.759621235890065138e-01 4.692195182839470902e-01 4.215635496774123858e-01
3.475620220291905649e-02 -9.121205166948598286e-02 -8.587737093489652418e-01 8.880928061815328567e-01 8.948512589366108827e-02 4.508698036599987358e-01
3.489524645813674164e-02 2.531006352923514252e-02 -8.892241732026832102e-01 7.304332827209372159e-01 1.872336189234721504e-01 6.568186899276964308e-01
1.545777331718645002e-02 3.488147385123332306e-02 -8.606351384071216915e-01 7.909997544392314284e-01 1.508276100220338201e-01 5.929337404230906605e-01
-7.922766683920275110e-02 1.484545761798278796e-01 -7.584453227171091827e-01 -8.392307196603329134e-01 -4.027953155378984351e-01 -3.653049862226419031e-01
-5.513004549121390541e-02 1.275764338421658539e-01 -7.871898970810401464e-01 -8.079502794968688173e-01 -3.344649882590387535e-01 -4.851283515625660625e-01
1.116299872366101342e-02 1.164568484389228165e-01 -8.623869236778486380e-01 -6.946133962066486367e-01 -6.564643422408052154e-02 -7.163817246998478439e-01
4.702999050627457850e-02 -1.271833905007697663e-01 -8.610353332101131629e-01 -8.929976516533044695e-01 -5.985504376758545714e-02 -4.460634123947668228e-01
5.467105003274180114e-02 -1.880014231713882933e-01 -8.870778983327582967e-01 8.933062425127874517e-01 2.074261410149178669e-02 4.489695992468996089e-01
-3.881851142211939498e-02 -4.955683063901326728e-03 -7.187001563333583753e-01 -9.098047874771538757e-01 -2.261769096249619526e-01 -3.479931813069800373e-01
-2.388429733704939325e-03 1.043047758918389106e-01 -8.418880739721245066e-01 -8.699013016717861424e-01 3.693206009966605863e-01 -3.269159204278639375e-01
5.135692285254639389e-02 -1.282025171914321499e-02 -8.890423101910107651e-01 -8.344588442770625170e-01 -9.856839938166635229e-02 -5.421832788376320655e-01
7.047363932717909396e-02 1.982568825741446925e-02 -9.197839041238854429e-01 -8.017522111054984357e-01 -3.941906364551846925e-02 -5.963552040594219950e-01
-1.068509732659922301e-01 1.919928379553954845e-01 -7.676788130560728840e-01 8.194814657166969996e-01 4.807909163509982431e-01 3.119138055636224149e-01
3.603036061935140089e-02 9.007437643364984980e-02 -8.851049438881524178e-01 -7.370020846237477219e-01 -6.117714461956499233e-02 -6.731161001167976776e-01
-7.028032650670062997e-02 1.439033889530555166e-01 -7.887739228252248491e-01 7.924170089139248585e-01 3.677129282205656713e-01 4.866852025728392594e-01
-4.269233378535949169e-02 7.915695665522749780e-02 -7.794100655934851352e-01 9.627437915080627739e-02 -9.951798417419567278e-01 1.866350742976383148e-02
-3.485209042788781075e-02 -4.322263428036847432e-02 -7.068539983737557320e-01 -9.160127474374722967e-01 -1.870841089598601348e-01 -3.548523393000936887e-01
2.321102026212578783e-03 -1.111606993498659574e-01 -7.712010506625494033e-01 -9.083548562053257447e-01 -1.007399592569635793e-01 -4.058853481182923550e-01
-9.084880225921188046e-02 2.043800482136802765e-01 -7.924026781637170114e-01 5.906166551713631918e-01 1.560084755302352799e-01 7.917280607613469412e-01
3.934574118992149871e-02 -9.343176140292458465e-02 -8.669728406215039263e-01 8.788594989993101514e-01 8.580801540769818214e-02 4.693005066164679939e-01
6.641680191694801505e-02 -9.988311780076616908e-02 -9.003893966786277181e-01 -8.688755583624931944e-01 -5.371285126810046440e-02 -4.921079085819660137e-01
-9.651468744620836371e-02 1.990330292293552295e-01 -7.698797161800531308e-01 -7.067919423530031331e-01 -3.809121684990326440e-01 -5.961133030844334435e-01
-2.696171481164444036e-02 -2.926828765546539771e-02 -7.346892043982757858e-01 -9.094913389774904600e-01 -1.993910967780306021e-01 -3.647858205174450141e-01
3.820368777964232992e-02 8.768241051518438356e-02 -8.872671459251149084e-01 -7.370020846237477219e-01 -6.117714461956499233e-02 -6.731161001167976776e-01
5.183428535946432714e-02 6.019618177604216941e-02 -9.000661604312396591e-01 -7.480752125756354731e-01 -7.259094347241012990e-02 -6.596317391209302050e-01
2.328707759177749484e-02 -1.509585679126664859e-01 -8.092269662973257116e-01 -9.038446114429004030e-01 -5.313646575936836758e-02 -4.245485065010072834e-01
-1.154566886410308968e-02 1.593533507314872921e-01 -8.509276631006542635e-01 6.257614809933490507e-01 -1.671686443032200514e-02 7.798353129659033600e-01
5.429233923170304066e-02 -3.652104981216211521e-02 -9.019781588682340701e-01 8.404998690223441926e-01 8.337916608002007846e-02 5.353577167065241005e-01
-6.138837879894456367e-02 1.271128709080491803e-01 -7.753012023623584437e-01 -8.371627690303508063e-01 -3.578673233286230326e-01 -4.136296375298106343e-01
1.949987714277749695e-02 5.382456406214510686e-02 -8.594676113658982208e-01 -7.804400044165549222e-01 -1.733116633978840637e-01 -6.007299450140189956e-01
4.923414196106353641e-02 -1.670600044316800092e-02 -8.850687731868719377e-01 -8.344588442770625170e-01 -9.856839938166635229e-02 -5.421832788376320655e-01
6.954357808857214440e-02 -6.237257718022747553e-03 -9.163053944991702560e-01 -8.058425460941260887e-01 -6.219914564008014596e-02 -5.888540202683344438e-01
2.818267305915377052e-02 3.624018641754316039e-02 -8.779474274945362477e-01 7.905267653870500233e-01 1.350343585115329759e-01 5.973551332566471306e-01
7.467240029101676613e-02 -3.124869830644825264e-01 -9.547632332551901913e-01 -1.586045945385279876e-01 -4.363336034843035560e-01 8.856960929470510946e-01
9.191901816253354729e-02 -5.892792988247400054e-02 -9.471085838134918333e-01 -8.762351950790057131e-01 -1.988922117669204154e-02 -4.814730540599765907e-01
-6.431360679509875999e-02 1.029863266809178945e-01 -7.436274727328479051e-01 -8.695286662845379544e-01 -3.546531646384906145e-01 -3.437164984712491878e-01
-5.205574834041437615e-02 1.624437700937363116e-02 -7.128130221542410272e-01 9.185981978358732647e-01 2.431695706369312870e-01 3.115219267546609494e-01
4.306016965139699421e-02 -1.011660846218438714e-01 -8.714918815471288660e-01 -2.233080401955573058e-01 7.580832526040770514e-01 6.127342827892382493e-01
1.038701400424446065e-02 5.601405604222203793e-02 -8.593266064252759184e-01 7.746885543370151117e-01 1.639403938393694804e-01 6.107218606264376293e-01
-7.627801996556060615e-02 1.454640719368678892e-01 -7.862678461925027840e-01 7.991053848395177628e-01 3.430177549616703625e-01 4.937300919546444566e-01
1.703340368812781419e-02 -5.728223951701635203e-02 -8.403326481564018513e-01 8.939738284249111322e-01 1.764951464625926225e-01 4.118983580526334731e-01
4.618529631651259459e-02 8.602163572431327510e-02 -8.958553533231541355e-01 -7.370020846237477219e-01 -6.117714461956499233e-02 -6.731161001167976776e-01
6.493524111593423909e-02 -9.935064878855998094e-02 -9.117599433388285934e-01 8.625728502244156548e-01 5.047870700632128838e-02 5.034083612681632403e-01
1.215158599562829803e-02 7.981235407096827494e-02 -8.664007448447661464e-01 7.360566442487367356e-01 1.034911581394777486e-01 6.689620292993005979e-01
6.268766921545122772e-02 -8.129778043428056988e-02 -9.097041007602900686e-01 8.624843717092782747e-01 4.989843542940185228e-02 5.036177664647555341e-01
7.395957974225174369e-02 -2.755648537267926801e-01 -9.372886662969365235e-01 -1.762255204489110161e-01 -4.251756581632952781e-01 8.877895165228744112e-01
-2.219862236252624632e-03 1.693339779923432875e-01 -8.538604343130590246e-01 -6.846684844328013719e-01 -1.594844733843738815e-01 -7.111917949286251650e-01
2.620766194673558591e-02 1.490450948994945235e-02 -8.756578087587416626e-01 8.521483198432525663e-01 6.799854651835815500e-02 5.188636031364238788e-01
8.177595594459539929e-02 -5.520017802632670723e-02 -9.415451880367439186e-01 8.233681491129174468e-01 1.870907915561576332e-02 5.671991373261400238e-01
-9.949551903131104158e-02 1.918440255580807219e-01 -7.802606057383947302e-01 -2.832041791205501258e-01 -3.779385195331062541e-01 8.814521361831163526e-01
1.675341458410916154e-02 9.899490949128288142e-02 -8.738945093300571898e-01 6.858358956708803245e-01 4.070517880298313990e-02 7.266169641757193043e-01
4.547124320923282698e-02 8.923346433109508036e-02 -9.019745635521135840e-01 6.989449428560149391e-01 -1.389498654668351076e-03 7.151741299498259874e-01
-6.247965985791809063e-02 1.698395020370770114e-01 -8.092179429261184831e-01 6.739636297575932744e-01 1.889841192300238948e-01 7.141834697350685213e-01
2.898941297209580228e-02 1.141764765267369586e-01 -8.862049321248898215e-01 6.821290863391115122e-01 -3.742974036709932010e-03 7.312221958580914505e-01
-4.869740644185724734e-03 3.763603401131395548e-02 -8.111437216112101778e-01 -8.681414800916429364e-01 -2.831221395633363169e-01 -4.076422753265053212e-01
-6.259876084478267766e-02 1.803112465995914682e-01 -8.109213936192143368e-01 6.432024980107681200e-01 1.133963625581686507e-01 7.572528055486384968e-01
1.665088932050683840e-02 -1.795264362577511652e-02 -8.461179592780277980e-01 8.524624954084273343e-01 1.579958344930267322e-01 4.983422621099770633e-01
-8.183940691805149936e-02 1.410247178207851559e-01 -7.625495933710689789e-01 8.423240956214154140e-01 4.059081813426141938e-01 3.545823828882309625e-01
-4.222200220016836952e-03 -1.117607960088702751e-01 -7.715275108929025016e-01 9.134014121024967015e-01 1.088444302484602444e-01 3.922381296776909498e-01
-3.100252520212313720e-02 1.742317974105385067e-02 -7.533930603833934869e-01 -8.831436365345457506e-01 -2.668637645993258700e-01 -3.857992332708991556e-01
3.560021762724029787e-02 8.382210199133983963e-02 -8.919443139074771931e-01 7.248206759101356589e-01 4.362381063869608805e-02 6.875550530092359169e-01
5.006635810732398134e-02 -1.315891521690967444e-02 -8.869944700454289732e-01 -8.344588442770625170e-01 -9.856839938166635229e-02 -5.421832788376320655e-01
-8.863875216094289911e-02 1.891931720371812786e-01 -7.736645391641069347e-01 -8.040381770567407438e-01 -4.364764250260784184e-01 -4.037461333953891729e-01
-6.447554895897196492e-02 8.311253965519345421e-02 -7.404224931062222126e-01 8.984329481640124238e-01 3.331823536785339379e-01 2.860205531960128278e-01
5.883667384683068102e-02 -1.211128509378424645e-01 -8.990244797810058586e-01 8.796448391187740024e-01 4.058270114981584603e-02 4.738966146524901668e-01
6.817964842243486034e-02 -2.984466222152421314e-02 -9.231125803121098539e-01 8.104410799102490515e-01 4.228878269509532550e-02 5.842918062510173982e-01
-2.668981763194296086e-02 1.807435669666737910e-01 -8.381649529038365243e-01 5.300266008695092568e-01 -1.667458839856297281e-01 8.314250492645531843e-01
4.538497201527003783e-02 -1.874350739630793738e-01 -8.677129629650576215e-01 9.064272288364092489e-01 3.991595469855589717e-02 4.204716344587949850e-01
-5.725092922123294764e-02 1.464643562650699837e-01 -7.960115793817463814e-01 -7.690446342907180100e-01 -3.325667648628318762e-01 -5.458660067977540997e-01
5.803273127161498457e-02 -8.534459505051873729e-02 -8.817310806835226833e-01 -9.275827387565602766e-01 3.444170804560345300e-01 -1.448003365017516419e-01
-3.042819193492916994e-03 -2.127184889444191582e-02 -7.929779640948764197e-01 -8.813842218866171363e-01 -2.027521730396725508e-01 -4.266771727395467506e-01
9.614039618251416647e-03 -6.304442336550407366e-02 -8.177490934723186111e-01 8.817025755532201803e-01 1.473863122982694840e-01 4.481939794440961133e-01
-9.541594711168728538e-03 -1.568640343449912225e-02 -7.821655603150686753e-01 -8.824833695195410943e-01 -2.017597050317516127e-01 -4.248718912177384954e-01
-2.580153728662417170e-02 6.532329420988579327e-02 -8.112047595535256672e-01 8.282367274343075403e-01 2.664402243438183659e-01 4.929843102782522357e-01
1.440361970063370372e-03 -1.381431516811238054e-02 -8.268972758574493209e-01 8.854397391058776989e-01 2.242921296508569584e-01 4.070497623003832555e-01
6.316819624374145695e-03 1.595771369066898981e-01 -8.639966084581672812e-01 2.392834714709365929e-01 -5.503945811551053113e-01 7.998807569356283231e-01
7.265402843247063813e-02 -7.442193583260045542e-02 -9.138512902174871222e-01 -8.599458322393451759e-01 -3.743375361947755969e-02 -5.090106872199602339e-01
-5.959458206475500702e-02 6.768721839768389315e-02 -7.193238169168184593e-01 -9.070103805439808653e-01 -3.099767363117086338e-01 -2.850378791161000125e-01
-6.887186438608930428e-02 1.890653016324330415e-01 -8.001629995719793387e-01 -6.853484703100705122e-01 -2.162285391349825781e-01 -6.953723413446911694e-01
7.301146674445957441e-02 -1.257452401747312098e-01 -9.242612470692641580e-01 8.664190388035634127e-01 2.484016377990367480e-02 4.986993237032678605e-01
5.031966560126706865e-03 -1.067233877970275163e-01 -7.783691870893197917e-01 -9.083548562053257447e-01 -1.007399592569635793e-01 -4.058853481182923550e-01
6.852222841031417599e-02 -1.982979390838602862e-01 -8.976743153330782876e-01 -9.798370232956618020e-01 -1.970682579203670015e-01 3.291670547500847449e-02
-1.310789223289886979e-02 -1.181615483457687243e-01 -7.549424614710207315e-01 9.364490912523022459e-01 3.143704393843167744e-02 3.493920602434327227e-01
-5.666805933480039553e-02 1.017624855097068459e-01 -7.617961626532880892e-01 -8.498187043207202640e-01 -3.690288297223677794e-01 -3.763321573030824485e-01
-4.290170015732190645e-02 -2.545711775662715896e-03 -7.253954260571365831e-01 9.214812598866259918e-01 2.342775008922224345e-01 3.098166235911994359e-01
4.321122367872901049e-02 8.819523406265983301e-02 -8.927965597604660131e-01 -7.370020846237477219e-01 -6.117714461956499233e-02 -6.731161001167976776e-01
7.128413641045665272e-02 -8.559120852168013160e-03 -9.286284516631754249e-01 8.060763410164124565e-01 2.465284930018889209e-02 5.912978686541787710e-01
-1.767306273688899060e-02 -3.148950975761478921e-02 -7.722031225199346149e-01 8.945909229474837687e-01 2.136303121492506840e-01 3.925164586498031682e-01
-3.856235672124309205e-02 6.246428881025997693e-02 -7.687871884543775458e-01 -8.710550566463864941e-01 -2.915666217377189673e-01 -3.952872289604283940e-01
-2.156656455163794353e-02 1.387621186579273136e-01 -8.412567233633909680e-01 6.914968086019268600e-01 1.151419070569367070e-01 7.131440982947567786e-01
7.052964319687481110e-02 -1.240945098189190909e-01 -9.058146280014207630e-01 -8.787197198812292109e-01 -3.347900778305842873e-02 -4.761625877047838129e-01
-8.202196738798839259e-02 1.655523797481667225e-01 -7.859228611224546857e-01 7.590176025581292230e-01 3.753084025478289343e-01 5.320111671609029091e-01
6.124216503910035608e-02 -3.417952290921798253e-02 -9.126371599404017321e-01 8.261721974912467070e-01 7.355877332828793247e-02 5.585952084997881650e-01
5.128406367132854610e-02 -8.075993973417971983e-02 -8.904659794850313670e-01 8.670294533520810365e-01 7.718101792252710092e-02 4.922428440235919189e-01
4.375453534952262330e-02 -2.944900093057674709e-02 -8.869139965915466828e-01 8.312348938338297577e-01 1.028847469922327812e-01 5.463179295148624659e-01
6.927568163632222276e-02 5.618333061235539216e-02 -9.203357522259502099e-01 -7.518129246827341960e-01 -1.230595006398184192e-02 -6.592616247537969043e-01
-2.008507099127158912e-02 -1.752569817489582973e-02 -7.743057929139443019e-01 8.945909229474837687e-01 2.136303121492506840e-01 3.925164586498031682e-01
1.325416055508711014e-04 1.004162776294947323e-01 -8.567822773595533681e-01 7.177156820564872808e-01 1.067705874848715736e-01 6.881019120583277138e-01
5.512515375891863245e-02 2.046434501067394968e-02 -8.997847736727646595e-01 -8.007553846940809184e-01 -7.745753081461827227e-02 -5.939622419005576859e-01
-1.607844365281855745e-02 6.213671494076794706e-03 -7.799847646178942329e-01 -8.813590830978416113e-01 -2.278886893484202980e-01 -4.138513161849203814e-01
5.034710188176214768e-02 -1.088719291540993089e-01 -8.848426083901170802e-01 8.829639269915027233e-01 6.119917990034096783e-02 4.654345969212753120e-01
-1.233093557240611329e-02 -2.355750606948398690e-02 -7.958243828125464159e-01 8.931465494371132463e-01 9.979135971693645080e-02 4.385554990584695223e-01
