-8.274240014848981833e-03 -1.349380114074308530e-02 -1.028581658575123514e+00 -9.540139891268593075e-01 2.996052717949045374e-01 9.694826607937459192e-03
-2.920198142750265319e-02 -7.849725386383323011e-02 -1.038177960921470522e+00 -9.494817367760617355e-01 3.091529044989946851e-01 -5.393434127296517500e-02
-3.942054733975700748e-02 -6.927721696379701699e-02 -9.323991323609475135e-01 9.151800597754951028e-01 -3.975020305035921742e-01 6.661526803100131788e-02
-2.091912453317781168e-02 -3.698769248106849317e-02 -8.466604027579629488e-01 -9.352387875986790666e-01 -1.294049140389267050e-01 -3.295190106709032229e-01
1.180363439710542355e-02 5.125363871444046926e-02 -1.030428896607469502e+00 -9.581842755941243350e-01 2.674804421281282707e-01 1.016715647715931842e-01
-4.157248098730102065e-02 -1.123142968406697639e-01 -1.020276857051153563e+00 -9.454329846206308563e-01 3.171371628680332289e-01 -7.470268749744261860e-02
-6.640690333362010700e-02 -1.331520497977622119e-01 -9.290471266205302392e-01 9.303073829763255365e-01 -3.463751232611476660e-01 1.206335242192856927e-01
-5.390761835745040698e-02 -1.103483217333975086e-01 -8.960571305232819528e-01 -8.995063109058935025e-01 4.123914016840897756e-01 -1.442973612284763063e-01
-2.229845080916333794e-02 -9.126416690108043669e-03 -7.828389608997253779e-01 -7.735483945925369920e-01 5.469690493881920190e-01 -3.200745854245321542e-01
-6.800899688153845546e-02 -1.748953138352804804e-01 -1.028818433357522100e+00 6.672864268925835507e-01 -4.901578633625843784e-01 5.607798975255399165e-01
3.389730049149478845e-03 1.490025339993026124e-02 -9.734063228452751737e-01 -9.319031224798931534e-01 3.590805928056913787e-01 5.116344576490591128e-02
3.594418373239397640e-02 7.519918977127915127e-02 -8.513924409428348383e-01 8.629907740367156466e-01 -4.946423910836050264e-01 -1.028388490338368044e-01
-2.805118101875883618e-02 -6.241919395096884315e-02 -9.433977691024620915e-01 -9.240193773224552043e-01 3.796020338817359119e-01 -4.572183510612210650e-02
1.656973214496770819e-02 4.410321814944801605e-02 -8.236187972310295979e-01 8.226314087149454446e-01 -5.593881276028515037e-01 1.017963068713209213e-01
-8.249873292658544549e-03 7.315112606735234453e-03 -9.017982797512670290e-01 8.708636618121360362e-01 -4.902457420199462512e-01 3.543437549145716375e-02
-4.826610662660615891e-02 -1.176739588545263476e-01 -1.038494437246625823e+00 9.500988193964740036e-01 -2.885238207751615880e-01 1.186011729567991724e-01
-3.974134945608444325e-02 -8.100570301008037932e-02 -9.002695561609945774e-01 -8.969823587405362231e-01 4.271839118132009228e-01 -1.137389713169386640e-01
-1.562730650766198937e-02 -1.960903161708634282e-02 -1.056388298521482527e+00 9.499766557293446434e-01 -3.037873848738835703e-01 7.250916053008032991e-02
6.011837278930903111e-02 9.788822656394709221e-02 -8.343590705747023772e-01 -8.443456529437847191e-01 5.215649129450150578e-01 1.226803160233650436e-01
-4.472621194437286993e-03 -5.938100994640292847e-03 -8.538668223464647156e-01 -8.666471755802278576e-01 4.957286416317247535e-01 -5.635412074355222734e-02
9.741474487696809292e-02 1.495250179191623396e-01 -7.576277889236666674e-01 -6.353711178206641330e-01 6.477812788390672205e-01 -4.203367191014157345e-01
-8.905566646332819039e-03 3.198465677956031233e-02 -7.513474752097194509e-01 -2.492523526007041357e-01 3.039366852958041987e-01 -9.195084317473187774e-01
-3.139992348151993823e-02 -7.583202341146760839e-02 -9.630264233318427403e-01 -9.160022446976989752e-01 6.315372537119517959e-02 3.961710422033855594e-01
7.269480756188330395e-02 1.265431869998656644e-01 -8.472347614011008776e-01 -8.805686731697986991e-01 3.997755436544410679e-01 2.545158669469865798e-01
-1.864045556439663728e-02 -4.503880557744952690e-02 -1.031611038410839232e+00 -9.502140800581615476e-01 3.103754895400451241e-01 -2.757276830495486095e-02
6.276647880002171609e-02 1.364056134076996052e-01 -8.729447744070828463e-01 8.922406103459732396e-01 -3.720785103407259209e-01 -2.558598745252393947e-01
-1.385353957621839917e-02 -3.623651933449027057e-02 -9.317468197625974335e-01 -9.270632807533253361e-01 3.733713144769764680e-01 3.387528604478053790e-02
-2.608107080737131697e-02 -5.294968451595452597e-02 -9.037547049530846310e-01 -8.993022631718906590e-01 4.300583815143950162e-01 -7.940546544875987101e-02
-1.760411215749476885e-02 -4.120639003586853977e-02 -1.022916578969234935e+00 -9.459393982649592081e-01 3.241888566054569321e-01 -1.001199595351448361e-02
-3.327130790254353987e-02 -2.330144409163023220e-02 -7.972351468896151649e-01 8.226664973318941199e-01 -5.185847030928365520e-01 2.330015877323307893e-01
-2.283981058092265232e-02 -3.088922243662883468e-02 -8.863106373206299793e-01 5.786111596496916754e-01 7.444109410240956626e-01 3.332588735689709369e-01
-6.225129817543189475e-02 -1.370489280092208051e-01 -1.000903832277198369e+00 9.320622508606857259e-01 -3.123709128788093037e-01 1.835330305633601777e-01
7.434044691533259197e-02 1.294567871018574012e-01 -8.464019365612969192e-01 -8.677981541930435139e-01 4.183217378369062378e-01 2.682038165877912439e-01
4.897885682807623202e-03 4.267473369075291262e-02 -1.011555918223364214e+00 9.474530861933856407e-01 -3.180305057088969600e-01 -3.448545927158544466e-02
-7.554529161563997008e-02 -1.993935266118326000e-01 -1.039530586254542976e+00 9.308555307839465609e-01 -3.141833822212272698e-01 1.865389587860061538e-01
-5.280506079244527695e-02 -9.964106964714876391e-02 -9.284471480438070135e-01 9.180296102109185563e-01 -3.852628007433911983e-01 9.377744472604837567e-02
-2.140496814106896892e-02 -3.467126543672149896e-02 -8.532376949881637085e-01 -8.651691774926496548e-01 4.884116324093716877e-01 -1.137381714461102450e-01
-1.213579213119862082e-02 -9.676874124093343913e-04 -9.031851285621573799e-01 9.103476402379498955e-01 -4.088233344671995395e-01 -6.427017277335089762e-02
4.039451072101322288e-02 1.293887883242766934e-01 -9.619377316735664429e-01 9.264067950918583039e-01 -3.496547552126543779e-01 -1.396853684707533017e-01
-6.258238092781728823e-02 -1.620360165330792801e-01 -9.820265036789672664e-01 -9.299354028622653923e-01 3.451793339324387144e-01 -1.267729226978457913e-01
-6.407007193447325499e-02 -1.448427231007138327e-01 -9.808201561456714179e-01 9.444588758727011646e-01 -3.062377770817933387e-01 1.192302632441769594e-01
-2.723812551043187577e-02 -4.032613689024981685e-02 -9.159345201300529427e-01 8.988397017333249472e-01 -4.360349674705771839e-01 4.427976660823804145e-02
-8.176429549076932868e-02 -2.442802260451588103e-01 -1.056221068918586470e+00 9.581904329853733193e-01 6.172199513973988111e-02 -2.793948629650743753e-01
-2.008595260401752416e-02 -3.635663090916885221e-02 -8.754805564696738207e-01 2.615015559305801651e-01 9.113832113732718287e-01 3.178011615347365315e-01
-3.759079833753675715e-02 -2.838331848017715958e-02 -7.769866859502230216e-01 -7.786407462220225062e-01 5.219832880264930752e-01 -3.482126295008026728e-01
1.180779478231053399e-02 6.527910058378856573e-02 -1.029392264737697626e+00 9.268107716037314869e-01 -3.710564824322608035e-01 5.778304668580037246e-02
-3.807095557668843666e-02 -7.495405548397436613e-02 -8.902681477055683912e-01 -8.880493002914437994e-01 4.465234145718613989e-01 -1.094773058261971077e-01
5.218022613354939693e-02 1.372651745667893552e-01 -9.163395341351053824e-01 9.158295763007572310e-01 -3.508534553979802406e-01 -1.953408303659859291e-01
2.279951894457653890e-03 3.201422435923542004e-02 -9.895013615150439756e-01 9.316101155433417214e-01 -3.594364448119195532e-01 -5.392619732828730916e-02
-1.847480915773445573e-02 -3.324233486212634786e-02 -8.708567155378380553e-01 -8.785222774674656954e-01 4.733134629571754126e-01 -6.459855862837649010e-02
6.633137031551712692e-02 1.333455397172712276e-01 -8.793547262464003200e-01 -8.972626706147166509e-01 3.693430983179047389e-01 2.418788449746624991e-01
-4.412078253643293008e-02 -1.179422525830865487e-01 -9.774876687248458262e-01 -9.227846301978424037e-01 3.615999473080976356e-01 -1.330939682232540333e-01
2.354662090141278891e-02 4.432228438279538218e-02 -8.841567501254973260e-01 -8.765203512873577241e-01 4.738589567515723577e-01 8.467445237731553720e-02
-4.556525440052254094e-05 3.894415124032769154e-02 -7.667580431744057679e-01 7.563690679226118263e-01 -5.749458465104492211e-01 3.119985683785464481e-01
1.197305290684436661e-02 3.387124532175512376e-02 -9.564384537569819988e-01 -9.270122177209235703e-01 3.673004267149019286e-01 7.575450304230058052e-02
6.594386581132860581e-02 1.583843861780787621e-01 -8.933855665802727941e-01 9.118378579453233490e-01 -3.298170405697400942e-01 -2.444840292687903149e-01
-6.016517507909328877e-02 -1.352559993854954845e-01 -9.266758555111079820e-01 -9.168357814990401033e-01 3.793392981673828768e-01 -1.245545929659825080e-01
1.864747666922724270e-02 6.319195030161849080e-02 -9.975655193306719459e-01 -9.387507565487472894e-01 3.286361983029348344e-01 1.036593760551778182e-01
-5.134646489827761340e-02 -5.548275797007956589e-02 -7.864792004353549082e-01 -7.674796784531232596e-01 5.173031550315878579e-01 -3.786454660442342690e-01
4.038018369606218710e-02 1.249653614064318990e-01 -9.528442984602402133e-01 9.303209560892542473e-01 -3.291431028187252750e-01 -1.617644476639958084e-01
4.891092284769906623e-02 1.285574266293695034e-01 -9.423219531877649047e-01 -9.336710971051019881e-01 2.954019512797669833e-01 2.024746147314801237e-01
8.562543541131995700e-03 3.501194585290472866e-02 -8.085515951522721512e-01 8.303488008503639994e-01 -5.490973517566452022e-01 9.493664845675471586e-02
-3.981837897259293130e-02 -5.167648403805801677e-02 -8.066565936512234414e-01 -4.511837585456547894e-01 8.903510412681998609e-01 -6.089531457549292315e-02
-7.246496954599297713e-02 -1.622369836382609454e-01 -9.183739479852470744e-01 -9.048273852993146127e-01 3.929602156073394581e-01 -1.639197113291713248e-01
-1.272892815003108698e-02 -3.352145041585194440e-02 -9.304420839827873824e-01 -9.010292177694632088e-01 9.391356433783683288e-02 4.234697051255403855e-01
4.989367405325891014e-02 9.901045774723206405e-02 -8.491366086515574896e-01 8.544135453674208680e-01 -4.923070373730851768e-01 -1.661664058876217154e-01
-3.816782822460626501e-02 -6.799569385508755226e-02 -9.429953693222217215e-01 9.179898284552964194e-01 -3.904438939866832214e-01 6.962930777432051188e-02
-1.236114629197678817e-02 -2.194897418892554491e-02 -8.712543927675177047e-01 -8.785222774674656954e-01 4.733134629571754126e-01 -6.459855862837649010e-02
-4.598288555141481770e-02 -1.025441376511461444e-01 -9.317747784227236041e-01 -9.178654016439233843e-01 3.846954431553532006e-01 -9.763462746661974445e-02
-1.321327814533278765e-02 4.092353374574793888e-03 -8.060477499595111173e-01 8.236761219004171686e-01 -5.374297519590062189e-01 1.809057984708337119e-01
-1.342738885048618512e-02 -2.859767801145045307e-02 -9.900307162039261311e-01 -9.368329014164105129e-01 3.497623293253770416e-01 3.229211760853319211e-03
-3.515831287961702911e-02 -9.760091845221519069e-02 -1.041444110620974195e+00 -9.507221604753679500e-01 3.041998765412135541e-01 -5.991501225368398714e-02
2.433756438453496540e-02 7.491452210951678181e-02 -9.334306387881773359e-01 9.153290782561597227e-01 -3.834097882915658562e-01 -1.231649817965546623e-01
-3.000426958997161678e-02 -1.999421121400455856e-04 -7.613762973663048550e-01 8.020066559338272505e-01 -5.264514212024162809e-01 2.821953666377172154e-01
-3.665640791928785613e-02 -4.127430937541660266e-02 -8.298221586715489595e-01 8.524538978828793967e-01 -4.965531824509729075e-01 1.635765538886797266e-01
-2.934905264402442454e-02 -2.940279648692140091e-02 -8.318661311992427976e-01 8.524538978828793967e-01 -4.965531824509729075e-01 1.635765538886797266e-01
-5.465833316730266817e-02 -1.375726706354019335e-01 -9.760416525575962288e-01 -9.342116550219375926e-01 3.369855788059045176e-01 -1.170012961382120992e-01
-2.918917637914112892e-02 -6.392833391011880362e-02 -9.351144353419519328e-01 -9.102432285637995779e-01 4.106900068879146826e-01 -5.282975578360118996e-02
-4.088249756083556924e-02 -8.558309762136546983e-02 -9.093517847435226287e-01 -9.083747598813549651e-01 4.095814114895963143e-01 -8.425178320178436375e-02
-2.114045878764040862e-02 -2.470774092676578104e-02 -9.030923872980211042e-01 5.517051956279079850e-01 7.693030673241915141e-01 3.221710224752715179e-01
-2.879416279857235916e-02 -5.559004246352920731e-02 -8.867265158489864296e-01 -8.880693124166502139e-01 4.545892821981206700e-01 -6.842134794357231098e-02
2.431926394516893339e-02 4.198477927310388658e-02 -8.484345995702400334e-01 -8.576196341928299383e-01 5.140912564898176829e-01 1.409762560422566161e-02
-4.685934350146692129e-02 -8.835127450330210186e-02 -8.740876667452917026e-01 -8.863044990237352039e-01 4.326588006762095984e-01 -1.651384183275043660e-01
8.593928807532842662e-02 1.290145981564430333e-01 -7.983378980935549318e-01 -8.115548584616347760e-01 5.775528000359477776e-01 8.838254849206486630e-02
2.276301503790272365e-02 9.008175143395849571e-02 -9.913608412945089654e-01 9.398951711951942789e-01 -3.266991456014703976e-01 -9.932137447309968836e-02
4.891672992961183797e-02 9.405908199875007147e-02 -8.904944710952600317e-01 -4.606983285995789879e-01 6.476659627824365995e-01 6.068655952339475634e-01
-2.451115243982339084e-02 -1.951707289178078453e-02 -8.250866367232903009e-01 8.369269275182767975e-01 -5.262654429311987014e-01 1.503263169616220751e-01
-6.920746034662644819e-02 -1.005855828620776798e-01 -8.172904279224079138e-01 1.362076791518204155e-01 6.721469468985519224e-01 -7.277815262254393458e-01
-2.011894062610267500e-02 -2.808263775496782494e-02 -1.007983803298097669e+00 9.413273580688271691e-01 -3.357838466868001137e-01 3.394132076654519242e-02
-7.449480053688382897e-02 -1.315016311895356171e-01 -8.710829377531164042e-01 9.071047599457202626e-01 -3.857026091952584501e-01 1.685065332376966818e-01
1.696103975696179600e-02 4.474121613151537530e-02 -7.834738539413196312e-01 -7.551308123955997598e-01 5.862865113927772098e-01 -2.933352735857865934e-01
3.076740207613526401e-02 7.381217412175471171e-02 -7.608242410761658636e-01 -7.192623123321838507e-01 5.964606182407352630e-01 -3.562252895941551700e-01
5.014406055586559385e-02 9.300652947071022525e-02 -8.297048079711843993e-01 3.658159925798686318e-01 3.682049793876734367e-01 -8.547536210668713608e-01
-1.412660837457033886e-02 8.953039633576497999e-03 -7.899120052194646968e-01 7.991028015505591275e-01 -5.522320362339274702e-01 2.376436212293061012e-01
-5.616026060287267196e-02 -1.133047985516553169e-01 -9.768093184769995885e-01 9.330288966876351120e-01 -5.115153846682508193e-02 -3.561468770863098765e-01
-6.197391808958929021e-02 -1.108779094830793926e-01 -9.022618566345445013e-01 5.460617753489408477e-01 7.606511998376551675e-01 3.510360233484571268e-01
6.488810463745904589e-02 1.596472978137585541e-01 -8.990268871589174315e-01 9.118378579453233490e-01 -3.298170405697400942e-01 -2.444840292687903149e-01
3.089652821142554583e-03 2.077433603836559978e-02 -8.868593972945777448e-01 8.804790976229053268e-01 -4.726110715135398710e-01 -3.735416619305109015e-02
-7.224479651748556830e-02 -1.519065296924931308e-01 -9.375022156474754897e-01 9.329433992482089044e-01 -3.337045891196828151e-01 1.351216525937297130e-01
-3.565825322478872322e-02 -6.277050739919969036e-02 -9.473852253060129902e-01 9.225950690601650850e-01 -3.824314092512804408e-01 5.064144314638616834e-02
-2.410675141136805338e-02 -5.465791493052777478e-02 -1.061226099636355613e+00 -1.592121486516992757e-01 1.540318601434471080e-01 9.751541815438515837e-01
8.005002772783466336e-03 3.433251504871668441e-02 -1.011253182777158255e+00 -9.518424782698263753e-01 3.010085835484533900e-01 5.822138087772030929e-02
7.593174343672617899e-02 1.159488297799657064e-01 -8.036036020013593850e-01 -7.999027576680822760e-01 5.989787695997134120e-01 3.714851065400193858e-02
-1.206611922793145338e-02 -8.490465500201667404e-03 -9.053606938066068865e-01 8.951807891739954615e-01 -4.454057340383819619e-01 1.628148579070069421e-02
-6.772156065373295675e-02 -1.631270015247699434e-01 -9.489286224910160605e-01 -9.196506447309993337e-01 3.639081742785289508e-01 -1.476940497756246140e-01
-6.940287863998600981e-02 -9.474596255822514967e-02 -8.131525949656326357e-01 9.179476066497134212e-01 -3.775967312025688694e-01 1.216260664134043573e-01
4.040041647541538217e-02 7.424546753325689252e-02 -7.852315901582530566e-01 -7.559567356313777742e-01 6.138676008622435676e-01 -2.273675052974461486e-01
3.623216720473391994e-02 8.480933741989406249e-02 -8.837162825515558762e-01 8.943699472478706669e-01 -4.266060770425789128e-01 -1.345721088865815818e-01
-5.456167953004808363e-02 -9.589019056658718010e-02 -9.205069060066198849e-01 6.331659164981441323e-01 -7.669068787048162195e-01 -1.046649969201815106e-01
-3.722969514200062668e-02 -6.955404512973822895e-02 -9.697296647239492806e-01 9.326340771671853824e-01 -3.563839696504133014e-01 5.642822239558620279e-02
-3.557097687337494596e-02 -4.830066102213153439e-02 -8.617098469943098582e-01 8.781351116660685019e-01 -4.666699418369660290e-01 1.053465283960696580e-01
1.544364742613435829e-02 3.524143862814011624e-02 -9.239727782979667570e-01 -9.121077901403803478e-01 4.010228759439246615e-01 8.508837837739791077e-02
-6.967897286750571184e-02 -1.127671383385888682e-01 -8.719128891908471957e-01 8.602848752932390486e-01 -4.955639449887964121e-01 1.196925635486069811e-01
-2.492408074003422611e-02 -6.275933418976528677e-02 -1.019248381567644746e+00 -9.455521513907848563e-01 3.225592556176235526e-01 -4.343564913366389224e-02
-5.227690985065338442e-02 -1.251138195053541624e-01 -9.566078386454885951e-01 -9.248653702655139641e-01 3.640168069724577515e-01 -1.100718452884758142e-01
-2.576190383305793780e-02 -3.098259911787478241e-02 -8.646492741325478848e-01 8.667389001262865156e-01 -4.896278059396176330e-01 9.501731767752211177e-02
-7.590534653519992458e-02 -1.386536562317961241e-01 -8.803225375557190979e-01 9.121848423967995334e-01 -3.796749459750832223e-01 1.541614371376424930e-01
1.000273279606004630e-02 3.485880999974724781e-02 -9.860008952509650149e-01 -9.417736096421087666e-01 3.294500758556508924e-01 6.726898022401264776e-02
-5.419991038690209761e-02 -1.300269826470709100e-01 -1.021232807372352003e+00 9.475451461818705789e-01 -2.992429594619713251e-01 1.123024806476615456e-01
6.590121007495244876e-02 1.036221382778651917e-01 -8.177278074740317315e-01 -8.210532476659413437e-01 5.589386771630008299e-01 1.160134460676228024e-01
-5.198427852876036370e-02 -1.019221493302847059e-01 -8.841580737195788853e-01 -8.866796474702173247e-01 4.403478352270546736e-01 -1.410424998819065634e-01
-5.268358630598831728e-03 -6.359272518489176955e-03 -8.489528788870724929e-01 -8.512662652413814923e-01 5.148642341652454046e-01 -1.012944521650883389e-01
4.728488682084078937e-02 9.359936024027143420e-02 -8.462023082886003245e-01 8.470557519712575978e-01 -5.130379876409342232e-01 -1.388833189758514053e-01
-1.933947142087066862e-02 -4.663931323664035483e-02 -1.025537786754729064e+00 -9.502140800581615476e-01 3.103754895400451241e-01 -2.757276830495486095e-02
-6.314632595974008222e-02 -1.095234421014661258e-01 -8.815462929534093606e-01 9.039818256208066449e-01 -4.035225254398223105e-01 1.413733723511657325e-01
9.224367290205441605e-02 1.389209975743606329e-01 -7.703081486754227436e-01 -7.179311061261438587e-01 6.674894798030415188e-01 -1.975670043523364561e-01
2.539140129578007499e-02 7.288361777364134320e-02 -7.645621996432729883e-01 7.511019756746751819e-01 -6.014405968992515561e-01 2.722407584089341914e-01
-5.733039609525288766e-02 -1.277869126571055114e-01 -9.874980000351767373e-01 9.418100169647045661e-01 -3.205583786708839367e-01 1.011741953703447633e-01
8.315469541046383029e-02 1.252961728411619846e-01 -7.871222576986245389e-01 -7.704594055603642966e-01 6.358316738393483547e-01 -4.593894781362112961e-02
-4.995429479749773777e-02 -8.974154924423767554e-02 -9.582094445810459549e-01 9.318908535882672872e-01 -3.534709024767134777e-01 8.147243767574556539e-02
-3.178129449383872845e-02 -5.041582478726164968e-02 -9.193242685488807187e-01 9.072136018215117836e-01 -4.165231973099532969e-01 5.892288836040934091e-02
4.134824026825486415e-02 8.313278701233073331e-02 -7.671397380637781094e-01 -7.339311956538387971e-01 6.089281928353091899e-01 -3.009176897698949138e-01
2.084434006545870383e-02 5.888410701514405071e-02 -7.848362493383250760e-01 7.794753326809229499e-01 -5.980449768770744745e-01 1.864414422119287096e-01
4.074197978682248672e-02 8.885191707335630962e-02 -8.861677716219507062e-01 4.792573361792167863e-01 4.597121318299154935e-01 7.476477523318020291e-01
-6.790755777771124990e-02 -1.593766332203892522e-01 -1.008056840400936682e+00 9.635115436252706944e-01 -2.555571440097355040e-01 7.959931812795495443e-02
7.483476843369313292e-02 1.153276067112913028e-01 -7.867937832023458311e-01 -7.500649215204547859e-01 6.429456703541878149e-01 -1.549950917846047160e-01
-3.889721289710669494e-02 -8.222944755468125644e-02 -9.144530388110694297e-01 -9.083747598813549651e-01 4.095814114895963143e-01 -8.425178320178436375e-02
-1.156821492689323085e-02 -1.858248441690592279e-02 -8.965268366102785436e-01 -5.723738732995742318e-01 -7.480841643655667950e-01 -3.357949257947691613e-01
-3.304804876591134477e-02 -3.809662429771763087e-02 -8.396975733472611392e-01 8.514738935871469794e-01 -5.030843127921253988e-01 1.479810216278375223e-01
5.267964981369335081e-02 1.388654218869653234e-01 -9.399912202758522461e-01 -9.348728525205762807e-01 2.673179596985712503e-01 2.335676733681993356e-01
-7.430824042703032539e-02 -2.178481891394239423e-01 -1.055489319636129242e+00 -3.014396011065169356e-02 -5.008566543245555058e-01 8.650051754109103763e-01
-1.124645552951713569e-02 -2.336209393482984592e-02 -9.383849869222513629e-01 -9.148750107985570423e-01 4.036200817537403673e-01 9.723385287236126565e-03
-1.206219450865941151e-02 -2.478171671264834536e-02 -1.001354159512063635e+00 -9.393653286510238454e-01 3.428918310444127870e-01 4.239284298530840954e-03
8.693685472222199839e-02 1.630188662067395822e-01 -8.509398642380717748e-01 -4.842058526610147351e-01 8.865381174181774515e-02 8.704511438974998905e-01
-5.886431443327180130e-02 -1.215916670837786234e-01 -9.880332856636410144e-01 9.480744110650185519e-01 -3.139905521678734157e-01 5.064429121857868393e-02
1.108619533226254256e-01 1.683023675897323268e-01 -7.610877703698415431e-01 6.761638123518335375e-01 -7.121967521151563174e-01 1.886220696060166291e-01
-5.409316788450762442e-02 -1.579374884625945052e-01 -1.014887398704788168e+00 -9.444987196640091121e-01 6.651142412852199554e-04 3.285144230868614623e-01
1.183755447202032296e-01 1.672793516001393199e-01 -7.774642525810568916e-01 -7.852228528338226488e-01 5.941433341096152843e-01 1.744097758745849491e-01
-1.539502857247414258e-02 -7.797343472793942000e-03 -1.037663487712046306e+00 9.264399880473302984e-01 -3.751315849437662497e-01 -3.138857315075654214e-02
-6.805959647546555753e-03 8.557919607332384673e-03 -1.002686578776614157e+00 9.374918613563081315e-01 -3.470906794133237216e-01 -2.524024871275858117e-02
9.538221159488251971e-03 3.691674724455611123e-02 -1.001484399489615651e+00 -9.434387181429354508e-01 3.220688331381841851e-01 7.870865155637836452e-02
5.408703037592640928e-02 1.004385558910607240e-01 -8.707474297734626445e-01 -8.851894395060120324e-01 4.300105300684921583e-01 1.775685789131812298e-01
-5.947342444843742998e-02 -1.248329834583977865e-01 -9.019357129936935724e-01 -9.080098396419210571e-01 3.907484926899352229e-01 -1.511083934597833578e-01
8.683156749839544830e-02 1.406911232120665600e-01 -7.745387517028573532e-01 7.287269411794100593e-01 -6.674459496002882464e-01 1.532088429610700131e-01
-3.164097251441127731e-03 4.000311126153793459e-03 -1.046492778309568772e+00 -9.569199786906449345e-01 2.891682236789387961e-01 2.618955511388108837e-02
-6.018929667682595963e-02 -1.195842753455393925e-01 -8.834737400810332986e-01 -8.991023552384049822e-01 4.104083388119209586e-01 -1.522496313243231203e-01
8.865841007797560513e-03 1.992996528193632932e-02 -8.287000863374303083e-01 -8.273312775015182474e-01 5.511232808113558646e-01 -1.085637444796045958e-01
-2.610769884341032285e-02 -2.614167833673628968e-02 -8.655445504162116999e-01 3.760663910503713736e-01 -9.121521514034880429e-01 -1.629494467997268381e-01
-4.798783942758614272e-03 1.191901306737024394e-02 -9.742265449148181933e-01 9.255887306317613916e-01 -3.762254958184236830e-01 -4.171184512420599011e-02
-5.884979328757833708e-03 5.745895724626089163e-03 -9.358920423816561307e-01 9.097223254823713079e-01 -4.145090170874438651e-01 -2.423974571128192576e-02
-5.050503920059237067e-02 -9.864959182320563735e-02 -9.126972317983541583e-01 -5.290091953474713726e-01 -7.681486393060886764e-01 -3.606895329366038294e-01
-1.268084659546932051e-02 -8.636900118849518207e-03 -1.042822838517724504e+00 9.485745192727602637e-01 -3.153224695192320404e-01 2.789483111159586637e-02
4.395086259491561703e-02 7.295526725004743140e-02 -8.396968508390365571e-01 -8.547295469508057186e-01 5.134629669579000577e-01 7.611296296991955368e-02
1.600378372626670015e-02 6.607720614956169580e-02 -9.744651005071942595e-01 9.345359460493550818e-01 -3.465553326842324977e-01 -8.088242658178496081e-02
-4.052605271040005813e-02 -3.390028400946085152e-02 -7.787461278744985949e-01 -7.851594995216781836e-01 5.237786556044081721e-01 -3.304246967829528869e-01
-3.577073157881068693e-02 -3.304956119143809962e-02 -7.894536369429308031e-01 -8.004876494455459568e-01 5.282239452287642578e-01 -2.831942562484345838e-01
1.905375598323258077e-02 3.916392392211439505e-02 -9.054773965945409619e-01 -8.950877083864653416e-01 4.383925976878057518e-01 8.142434886447418030e-02
-5.230534710826656442e-02 -1.017438070941605044e-01 -9.795388340866101329e-01 9.145466583273924588e-01 -3.736724872851718837e-01 1.548330778235471328e-01
3.201179905636866024e-02 7.562543534449701899e-02 -7.778243506640308835e-01 7.794753326809229499e-01 -5.980449768770744745e-01 1.864414422119287096e-01
-8.500315181013580468e-03 -1.508382426837924506e-02 -9.965000741776030013e-01 -9.393653286510238454e-01 3.428918310444127870e-01 4.239284298530840954e-03
1.089329089532952918e-02 2.046960856096321363e-02 -8.891253136353274300e-01 -8.883955244710785015e-01 4.549181492558282969e-01 6.166741098351079947e-02
-2.839668427393092845e-02 -4.481112429679842690e-02 -8.279704429655706521e-01 -8.035816766327301686e-01 5.632712381592328565e-01 -1.923070493837777117e-01
-1.903496850687142264e-02 -4.361851964205651355e-02 -9.899194080086134440e-01 -9.368329014164105129e-01 3.497623293253770416e-01 3.229211760853319211e-03
-5.626411594570801880e-03 -5.019408527279224132e-03 -1.029913023128869343e+00 -9.540139891268593075e-01 2.996052717949045374e-01 9.694826607937459192e-03
5.430048461619187833e-02 1.075016372811985199e-01 -7.517636604971260628e-01 -6.204460051403384302e-01 5.271686987762310705e-01 -5.806375097562768151e-01
-5.110411983429912625e-02 -6.320724925706892872e-02 -8.207242149639036866e-01 8.554828237700432547e-01 -4.746306734236469538e-01 2.070624593687817316e-01
-6.976235004851098591e-03 4.125816499919172063e-03 -8.483458614574052037e-01 8.571867302526221533e-01 -5.137761892756131932e-01 3.556595018058426177e-02
-3.991204685849238099e-02 -9.918244602638418006e-02 -1.053848368568691685e+00 1.755581653278369680e-01 1.729694700414430575e-01 9.691547312066870479e-01
7.973784519827910311e-02 1.685244590542138154e-01 -8.757243800412222168e-01 -9.209306602940248165e-01 1.004822390975789181e-01 3.765501806616859959e-01
-3.092938633454808683e-02 -3.247884464043106212e-02 -8.595743701041396179e-01 9.113311713747256348e-01 -3.976153580412308264e-01 1.066654730009406055e-01
-7.805818580036838483e-02 -2.411347751377239668e-01 -1.050123821846291383e+00 4.795610588573875899e-01 4.024721827487689474e-01 -7.797674864605621536e-01
-1.391372730236917730e-02 -7.065651138379185764e-03 -8.465453349706606456e-01 8.544864140326610125e-01 -5.108445885522262531e-01 9.429090401788764453e-02
-2.956972625958359871e-02 -8.081374798553778160e-02 -1.044906935719986052e+00 -9.533331689852255764e-01 3.003112643250075986e-01 -3.112898058245076177e-02
-1.895386573447246578e-02 -2.312171206109407684e-02 -9.223998720885817626e-01 9.063469043365389721e-01 -4.219843901135301723e-01 2.155141526871613006e-02
5.702479301324663713e-02 1.311134541759195193e-01 -8.858680841109759507e-01 8.952500898576286614e-01 -3.820584773437653570e-01 -2.292566171338817904e-01
-9.152155402868360559e-03 -2.558642060951153013e-02 -9.239591509937653546e-01 -9.231297528154664978e-01 3.820954878936162480e-01 4.283103545555333458e-02
1.842849720961765511e-02 5.752708874646850212e-02 -9.201685352385829963e-01 9.027420352621695621e-01 -4.176303254765549866e-01 -1.031587563567062660e-01
1.000691540315464950e-01 1.517525910072740625e-01 -7.582072166940836411e-01 -6.353711178206641330e-01 6.477812788390672205e-01 -4.203367191014157345e-01
1.389002545862568980e-02 4.401072215334448506e-02 -9.032017604916512399e-01 8.939791006190273004e-01 -4.413870928614758715e-01 -7.732271278020363958e-02
2.439809646998317692e-04 1.514074043108671989e-02 -8.640824616010532866e-01 8.699127471157618308e-01 -4.931702773848550270e-01 -5.906768122577337778e-03
8.099263751615801143e-02 1.182564727974929758e-01 -8.076080735911259634e-01 -8.200875120938923013e-01 5.554552557279082148e-01 1.375715500817441816e-01
-2.989831380119188295e-02 -5.125119244269582541e-02 -9.702432715806377228e-01 9.268215046770985621e-01 -3.738166102716238282e-01 3.553927901789245142e-02
-6.478079842775874564e-02 -1.555125032249077000e-01 -1.001602579823682948e+00 9.434090556062642019e-01 -3.052113330794088419e-01 1.297127440153305056e-01
4.271504881884097271e-02 9.868122211582602832e-02 -8.853521978895252387e-01 8.921735526567264873e-01 -4.052569482310980908e-01 -1.994822243967922792e-01
-4.427621174569258689e-02 -1.050562929662646194e-01 -9.288634338109057476e-01 -9.003896104060419292e-01 4.260437554308133534e-01 -8.823416532877088880e-02
2.003269967476852681e-02 5.558841064106489344e-02 -8.288651736953365212e-01 7.896123146076734489e-01 -6.136016452669368348e-01 2.326702735793390996e-03
6.030180688578844900e-02 1.430030830934765906e-01 -8.922736323517883594e-01 9.029924336474810520e-01 -3.464208719467042341e-01 -2.541598793182835436e-01
2.766354154243615832e-02 8.491108555730271512e-02 -9.386998056430759796e-01 9.179202133977475420e-01 -3.729383697152773292e-01 -1.354232410996890346e-01
4.985522485726761460e-02 8.931846504055505898e-02 -7.755023757164802856e-01 -7.524492929306793032e-01 6.203453704586557871e-01 -2.213406490426773343e-01
5.848070837331900695e-02 1.061131842481963933e-01 -8.634234069226968122e-01 -8.651873376769896318e-01 4.557117032964065340e-01 2.092312457595435216e-01
-2.816439081328938818e-02 -5.286860596487399228e-02 -1.024858347933513159e+00 9.448409708000861107e-01 -3.236032756590299653e-01 5.056144658033959877e-02
-1.604459668344988127e-02 -1.678209676155772989e-02 -9.472420159636032455e-01 9.145378619642300366e-01 -4.044526175675257074e-01 -6.211213784093157740e-03
-5.609206374143131668e-02 -9.693185544958168864e-02 -9.232214204914329647e-01 8.791128098903934207e-01 -4.734423159831996908e-01 5.489117345330818409e-02
-5.197010059712938758e-03 3.191200306283884652e-02 -7.547530453303327169e-01 -7.356247775020581248e-01 5.584016085737162349e-01 -3.834629451033484404e-01
-3.760975158655042311e-02 -9.509445103728787763e-02 -1.054803920731057332e+00 -1.048370180769718635e-01 2.635682695978527335e-01 9.589269872633277014e-01
-2.765425014105348661e-02 -5.717430926049799078e-02 -1.055442662162552558e+00 9.485610624362090793e-01 -3.059643641052282592e-01 8.134936218295475696e-02
3.392246800110486349e-02 1.124001044875482525e-01 -9.653286086417041112e-01 9.351361338525845390e-01 -3.189839415834211378e-01 -1.541741099379054236e-01
-3.450694603170602337e-02 -9.046976860960330435e-02 -9.697609305295789017e-01 -9.206317699143964361e-01 3.904166144007028549e-01 -3.465750161029362234e-03
3.071695179359499456e-02 5.994361120315850472e-02 -7.910800772135920811e-01 -7.714275546622353374e-01 6.005067038746012553e-01 -2.104548087108148724e-01
-5.798712395059965607e-02 -9.966205342139897172e-02 -9.095944496629860820e-01 4.580345554651286677e-01 -8.748277831621560363e-01 -1.577361588458701391e-01
-2.722667092524507382e-03 1.025053920395485943e-02 -8.619007125266833214e-01 8.572642669006301785e-01 -5.135394162732107581e-01 3.708429086681880316e-02
-4.677761762683831093e-02 -1.075797965213671215e-01 -9.148065838463600441e-01 -8.863207824648906552e-01 4.574715949650713931e-01 -7.179979366918455563e-02
7.375265543449112393e-02 1.312242552008519025e-01 -8.054987644796545165e-01 8.328532550187992545e-01 -5.013382288294311318e-01 -2.345536951718304175e-01
1.699536201474420929e-02 4.753624955288850845e-02 -9.602627400500115540e-01 -9.304445477364319261e-01 3.540810210297498650e-01 9.433755420868387975e-02
-6.230167709529546571e-02 -1.319950574355830686e-01 -9.580625568278507975e-01 9.330091442440522354e-01 -3.411583843324130227e-01 1.144766070281563464e-01
3.505253443406503716e-02 7.855906594756763284e-02 -7.615068817774931498e-01 -7.084862340864959140e-01 5.981957815069087747e-01 -3.744450067730549780e-01
-4.921580105267808064e-02 -8.162749963111463891e-02 -8.882646516996919317e-01 9.001815384767475337e-01 -4.212136641439940266e-01 1.106898682085509789e-01
2.270962266074474153e-03 2.032375119202657274e-02 -9.016658120435617763e-01 8.981819389575995682e-01 -4.378272242221971089e-01 -3.970549408145655074e-02
6.627566689465885785e-02 1.159449851115768038e-01 -7.671484462427726747e-01 -4.307771486094929547e-01 -8.292735728007901708e-01 -3.560005473171176105e-01
-2.110541079599139933e-02 -2.573706507386132672e-02 -8.908530860640490046e-01 8.904723876495493906e-01 -4.542503402733103490e-01 2.674986346305830917e-02
-2.592861331522963025e-02 -6.589601752690822656e-02 -9.505051749461238542e-01 -9.381873732206941208e-01 3.450690381889647829e-01 2.705201679351881827e-02
-1.327331219452117586e-02 -1.072415358963617511e-02 -9.337654205754787329e-01 9.143077129832916095e-01 -4.049753180148366605e-01 -6.033057106023806578e-03
4.062706024442221120e-02 7.181619448246369386e-02 -8.637501854537831258e-01 -8.715999366892303035e-01 4.688585489825756736e-01 1.431265573165349803e-01
2.519626398458294295e-02 8.858990683058549920e-02 -9.671159785736608283e-01 9.379855219288006918e-01 -3.266584631253292015e-01 -1.160922440154954632e-01
2.514854542230936241e-02 3.905573449400832203e-02 -8.727952875481632677e-01 -8.597194521865544337e-01 5.105181242940002306e-01 -1.592822335938440248e-02
-4.111431125658296382e-02 -1.125718946652352753e-01 -1.026489185399682702e+00 -9.492027331074954777e-01 3.052077514030504535e-01 -7.656631076886412368e-02
8.279971649261172462e-02 1.416638907002931713e-01 -8.135934409225239472e-01 8.389342530013276233e-01 -5.014252648613267693e-01 -2.115703733981972035e-01
-4.232394314771963095e-02 -6.022494667734588913e-02 -8.590167690484082907e-01 8.648908467315027382e-01 -4.825115618933767392e-01 1.383705744704342433e-01
-4.687101318501172426e-02 -9.597565044031881876e-02 -9.002672536457724251e-01 -8.969823587405362231e-01 4.271839118132009228e-01 -1.137389713169386640e-01
-2.199026867373304189e-02 -5.704500457445717959e-02 -9.901726988423128484e-01 -8.400501308941050738e-01 -1.434520426174039909e-01 -5.231990912202462152e-01
-5.010276632347455267e-02 -9.125670205932133461e-02 -9.625123167099010058e-01 9.606113381020024988e-01 -2.674736590746892850e-01 7.539030979560196188e-02
-4.054799811178295271e-02 -9.012162535870724134e-02 -1.028158086198755150e+00 9.448184333974819493e-01 -3.173133360622262256e-01 8.142711261851681703e-02
-2.256098964304397575e-02 -2.603667844162435921e-02 -8.698257337345700613e-01 8.808562575208510603e-01 -4.703412717720521496e-01 5.358490136417647098e-02
-1.569552318986497733e-02 -3.807163256594253004e-02 -9.230294504042806381e-01 -6.190399304299368799e-01 6.021472708333469592e-01 -5.041906670707527738e-01
8.136454234584929168e-03 3.716273551202713132e-02 -7.995254238787908863e-01 7.973491931387207687e-01 -5.772441320341128446e-01 1.761348240218688355e-01
7.695138485573075476e-03 2.833972085731127979e-02 -8.717925105279434872e-01 8.778363253558794099e-01 -4.782931255448726326e-01 -2.527987227427061501e-02
2.269533884781951491e-02 6.004439434031953737e-02 -7.672984696559994600e-01 -7.517929284769669929e-01 5.925370049103233505e-01 -2.893221223894384964e-01
8.854535040908689814e-03 5.593885626533528360e-02 -9.774450304097320741e-01 9.482471019150220393e-01 -3.174176173170399906e-01 -8.572626583179554852e-03
-5.772965488030336323e-02 -7.973360286204914105e-02 -8.083823990253125036e-01 -8.231420486074606524e-01 4.853000553243914106e-01 -2.948237170182468891e-01
-2.302964649147852191e-02 -5.405552362063584942e-02 -9.874237023237750766e-01 -9.374749363205955310e-01 3.455450350170509166e-01 -4.170578551904281783e-02
-5.452916195620770984e-02 -1.523883246994011675e-01 -1.031914503087014268e+00 -3.620388490961086725e-01 5.175924067962647257e-01 7.752586485631842717e-01
1.036408391495319790e-02 2.476341860428746960e-02 -9.281611196425918475e-01 -9.090899476756609809e-01 4.080763907039344773e-01 8.383988540732664752e-02
-6.547960178285353039e-02 -1.216511250330752636e-01 -9.015970890362811074e-01 9.158746914372396519e-01 -3.767351711502399669e-01 1.387233232125741900e-01
-2.766790044147597258e-02 -5.231811200476881030e-02 -1.030612985426215600e+00 9.448409708000861107e-01 -3.236032756590299653e-01 5.056144658033959877e-02
2.076299906373622883e-02 5.990623598185509241e-02 -9.672062674440889962e-01 -9.374725582142388047e-01 3.346580290002409974e-01 9.565148310885959737e-02
8.074069112900340850e-02 1.291212030717413251e-01 -8.013840739637051458e-01 3.117296592513130737e-01 3.946644036600627237e-01 -8.643290045039025982e-01
1.097673346209579182e-01 1.703013666618269362e-01 -8.037101375109783064e-01 -8.492642728054429213e-01 3.608996450315309912e-01 3.853591067463658648e-01
-4.899813988441006386e-03 3.364822039601495646e-02 -7.645906758930933744e-01 7.683412426369157222e-01 -5.677531608896116966e-01 2.954794124182167359e-01
1.436280899469535854e-02 3.183184787185163594e-02 -8.896456638581451415e-01 -4.620908665304273577e-01 -3.449931160161012200e-01 8.169772218187355550e-01
-3.149676917150454752e-02 -4.875634041454353362e-02 -9.996028514807745458e-01 9.145894050583790458e-01 -4.042236193138245004e-01 -1.137918027771100786e-02
-2.935989116780029010e-02 -5.108961039910256408e-02 -9.854077499823257202e-01 9.361707704052335544e-01 -3.483932486592192790e-01 4.697268277995901575e-02
-1.464225296021756662e-02 -1.579899152060347187e-02 -1.053617582230482741e+00 9.463350699529559096e-01 -3.098154688323342953e-01 9.200168829611107824e-02
-5.198001997040388455e-02 -1.059559246211182609e-01 -9.626658884483305645e-01 9.337096931641283293e-01 -3.464042090809871244e-01 9.050045758074783120e-02
2.387160538846205132e-02 7.595247037832147941e-02 -9.881082071001822120e-01 -9.457391119286899794e-01 3.064838181713763210e-01 1.079129341989524121e-01
-9.149045892396068247e-03 2.284420282021868212e-03 -1.009674258792492507e+00 9.441774339076676181e-01 -3.293946046356000523e-01 -5.307328564237124950e-03
4.931507225858636212e-02 1.131976277815526510e-01 -9.154562976069466895e-01 -9.137231977116978543e-01 3.571405424074861057e-01 1.938054460854906624e-01
8.404935874614416144e-03 5.187468531449975634e-02 -1.007039790361857534e+00 9.457514332644607613e-01 -3.193258695636165823e-01 -5.987666912628190202e-02
1.918989249249274109e-02 4.688397719884711962e-02 -8.426662370638368094e-01 8.585969125200971774e-01 -5.119322594948474414e-01 -2.714228250270771248e-02
-4.895845405758989660e-02 -8.412328737362063935e-02 -9.001498819619461189e-01 9.000180235337534862e-01 -4.231626414645461298e-01 1.044075484969543832e-01
3.488549164509072847e-02 7.107855790161131393e-02 -8.249999550528391845e-01 8.264930325147985535e-01 -5.622797630661248158e-01 2.739954836844157166e-02
4.740763346050974603e-02 1.265821980316478301e-01 -9.463722953528830306e-01 -9.336710971051019881e-01 2.954019512797669833e-01 2.024746147314801237e-01
-4.210703025003816741e-02 -7.105172292781893051e-02 -9.089921096115166632e-01 9.088703674455946846e-01 -4.091074377911834703e-01 8.115269264320558451e-02
6.233780577429702541e-02 1.029103320007683092e-01 -8.388063858467654788e-01 -8.563853808340429197e-01 4.853208893281146796e-01 1.762603582076783248e-01
2.759970883096675431e-02 4.760255095186956970e-02 -8.339529181342958397e-01 -8.302519691417667991e-01 5.568393442517062253e-01 -2.473079920965786868e-02
1.756587755679520427e-02 4.438052459553273876e-02 -8.468212325735983148e-01 8.585969125200971774e-01 -5.119322594948474414e-01 -2.714228250270771248e-02
-7.255840346908516703e-02 -1.274172088389501356e-01 -8.724431366173290847e-01 9.112883524827150028e-01 -3.812693170116357999e-01 1.555224952693977925e-01
-4.857264281653449201e-02 -1.348537289611346779e-01 -9.915129999646296044e-01 -9.310207256518949759e-01 3.143321170653116114e-01 -1.854608545970227729e-01
-2.033236143337677996e-03 2.163955357281471814e-02 -1.001479170961070642e+00 9.418380515448510071e-01 -3.349953972403938995e-01 -2.681731697894405853e-02
-4.529885126592936295e-02 -1.219399953081793248e-01 -1.013980340988968054e+00 -9.454329846206308563e-01 3.171371628680332289e-01 -7.470268749744261860e-02
-4.286804431849217112e-02 -9.331541256960858288e-02 -9.245734928829375532e-01 -9.179332714655487058e-01 3.849844350837847706e-01 -9.584098225589332554e-02
5.102631531642178031e-02 8.300119297400555818e-02 -8.032999009906331978e-01 -7.784873672137344602e-01 6.134598323230020522e-01 -1.327571211455800260e-01
-4.935072240790294024e-02 -1.032642980555959766e-01 -9.375751172077607665e-01 2.382625721689207166e-01 9.159637880370121721e-01 3.228641908114571746e-01
-2.975400410467516493e-02 -4.372685831078347574e-02 -8.210048685006851032e-01 -8.617347312823527838e-01 4.478188488076063623e-01 -2.384775284054274636e-01
-5.405157430430792415e-02 -8.277797412093897134e-02 -8.589641140394007612e-01 8.796020165065053797e-01 -4.554924347161061204e-01 1.372112767744802231e-01
6.396753435872799820e-02 1.229361659929932571e-01 -7.506213526946799997e-01 -2.523698829970774105e-01 1.611679310634068218e-01 -9.541144271798757126e-01
1.124454844568965016e-02 2.218890559470459295e-02 -8.351809722434615502e-01 -8.172323563950466552e-01 5.641937607798293008e-01 -1.175443574065211105e-01
4.338397536663042564e-02 9.907569245741895680e-02 -8.831618436906620850e-01 8.921735526567264873e-01 -4.052569482310980908e-01 -1.994822243967922792e-01
1.233536763786900747e-01 1.768869224061012380e-01 -7.643376365819923857e-01 2.741301665964502310e-01 4.177179560186631280e-01 -8.662357421518651623e-01
-2.429529195518173937e-02 -3.581032867727670238e-02 -9.426467250252875685e-01 9.182530341568300170e-01 -3.950263470214289141e-01 2.766858183356757719e-02
-1.393715186794784212e-02 -3.099337294529720330e-02 -1.054370744142657967e+00 -9.567521581602843606e-01 2.907093645425088413e-01 1.064768627115539497e-02
9.820676777415014713e-02 1.535005680322428789e-01 -7.756714041553128824e-01 7.591961071460261445e-01 -6.499045958033076165e-01 -3.528862774405992081e-02
1.569190188170972375e-02 4.810861580446634811e-02 -8.197062006577303661e-01 9.577224836366033944e-01 5.639284885683952531e-02 2.821125501191777962e-01
1.005403922536606508e-02 4.134956001856580216e-02 -9.566024786413083181e-01 -3.958222289671529948e-02 -6.688354113769562348e-01 -7.423560063195907555e-01
-6.476341359058225555e-02 -1.230290167380254929e-01 -8.549474853551290998e-01 -7.285726486492888343e-01 6.016744136357163875e-01 -3.273679819656722390e-01
-3.744630492691281010e-02 -9.946744244665416124e-02 -1.017617342138195324e+00 -9.444387249134341689e-01 3.199017815313975888e-01 -7.548738342878530405e-02
-1.611211166966009661e-02 -3.672747752356651796e-02 -1.018854303803072625e+00 -9.459393982649592081e-01 3.241888566054569321e-01 -1.001199595351448361e-02
7.112756527366788373e-02 1.252001841160295670e-01 -7.677786717835367591e-01 7.147326699361802316e-01 -6.574495151255683734e-01 2.385735643089023916e-01
-7.117708984615596368e-02 -1.170701891475125489e-01 -8.546478029839483792e-01 8.999574467786362053e-01 -4.042626087340060459e-01 1.632431841372065096e-01
1.959788880452695975e-02 4.769595733018376638e-02 -9.359643787106274315e-01 -9.157585782126065332e-01 3.884395248327537908e-01 1.024742015227723818e-01
-6.569515085899003959e-02 -1.560158522039788720e-01 -9.440984639276146506e-01 -9.284830869140785481e-01 3.482822868901800373e-01 -1.289131721471849790e-01
-3.971677339940350021e-02 -5.297477585687514201e-02 -8.500309424003379410e-01 8.648908467315027382e-01 -4.825115618933767392e-01 1.383705744704342433e-01
7.671961029431056955e-02 1.187436819403999838e-01 -7.816579130511841500e-01 -7.492221996620970215e-01 6.444742233889050320e-01 -1.527058313253173705e-01
5.000794570464449362e-02 9.534574488556590843e-02 -7.860358913133090875e-01 7.770485319821307524e-01 -6.211619216476870209e-01 1.017518846968850504e-01
2.949818525046408318e-02 5.091330885677444046e-02 -8.231426538634132317e-01 -8.302519691417667991e-01 5.568393442517062253e-01 -2.473079920965786868e-02
2.333275647743501130e-02 6.420025045209482029e-02 -9.042671580241052887e-01 9.027420352621695621e-01 -4.176303254765549866e-01 -1.031587563567062660e-01
-7.059219691329754465e-02 -2.708505449779372021e-01 -1.075484911037360103e+00 -9.773553454979726496e-01 1.724543339854784918e-01 -1.226214961422490424e-01
-5.839935817460612660e-02 -8.516867833088084816e-02 -8.417404277276517854e-01 8.714075402844332352e-01 -4.602169446057053914e-01 1.698507068964466016e-01
1.233760653704128879e-01 1.819679630588812436e-01 -7.848422402048707003e-01 -8.649611647838081341e-01 4.610101093104557179e-02 4.997168000047358949e-01
-2.359723938289010059e-02 1.840076895613694866e-04 -7.784021356748657139e-01 7.878570180209079066e-01 -5.444151422739812451e-01 2.879122644452705715e-01
5.683553989231776571e-02 1.121433648468959654e-01 -8.509696243702408180e-01 8.655776938794421671e-01 -4.564826449336147340e-01 -2.059098121332693376e-01
-1.141795211521090016e-02 -2.290618135754706602e-02 -1.048808270629513872e+00 -9.567521581602843606e-01 2.907093645425088413e-01 1.064768627115539497e-02
-4.630086142138646610e-02 -3.908704981658919081e-02 -7.752272603583558741e-01 -4.419542947677999045e-01 5.342061510684124048e-01 -7.206248604488809661e-01
-2.457726039461363698e-02 -3.868214507967198540e-02 -9.825387026305095750e-01 9.307682571549286132e-01 -3.649147463997086671e-01 2.253174056332418393e-02
-3.177600900734683237e-02 -3.563049067406273696e-02 -8.386328118558608047e-01 8.514738935871469794e-01 -5.030843127921253988e-01 1.479810216278375223e-01
-6.592211105500886403e-02 -1.269245855112313970e-01 -8.713979705721320856e-01 -8.997361521120991190e-01 3.993420242878793491e-01 -1.760704524335988674e-01
-3.585628051200409616e-02 -9.882571204430351530e-02 -1.036587377308943791e+00 -9.507221604753679500e-01 3.041998765412135541e-01 -5.991501225368398714e-02
1.872796693636968532e-02 6.515182813587039323e-02 -9.463564319477199005e-01 9.220736587354788627e-01 -3.714846099450050954e-01 -1.085327252038517098e-01
-4.162232751319613205e-02 -9.028560399039389783e-02 -9.239464695883066181e-01 -9.083694182967391173e-01 4.090905015490882146e-01 -8.666003372696648444e-02
-1.877321472513035147e-02 -3.222813080254433721e-02 -8.632688134315923412e-01 -8.644620500507688154e-01 4.916425790034142929e-01 -1.048472151890242621e-01
-2.883072368134042066e-02 -6.074397181602125828e-02 -9.169459802457129438e-01 -9.059180439597852574e-01 4.198735330179955705e-01 -5.494282390870049854e-02
-6.960734153541542346e-02 -1.565977550145837838e-01 -9.681583470147193671e-01 9.417278066095436939e-01 -3.122219435047302039e-01 1.251646765365809211e-01
2.100811443844691206e-02 6.085880052890285663e-02 -7.791867679761913523e-01 7.794753326809229499e-01 -5.980449768770744745e-01 1.864414422119287096e-01
