-7.799885673281128917e-02 8.062397570063958852e-02 -7.102588354655808844e-01 1.317348749355506388e-01 -4.115797443119889043e-01 -9.018026595646039256e-01
4.893947431804872295e-02 -4.825156787163020766e-02 -7.923944177371418096e-01 2.604765447973602099e-01 6.947089103125410059e-01 -6.704711026903327209e-01
-9.014570500132533526e-02 1.065624678888023730e-01 -6.834734824779458151e-01 6.040817681307830700e-01 6.469141985361570590e-01 -4.653893393109775900e-01
6.926402160702603561e-02 -8.105540561011181575e-03 -7.401970184969823841e-01 1.572114428326499280e-01 7.521008240079579688e-01 -6.400225877022054366e-01
-2.452583671787221531e-02 -7.151282937705553955e-02 -8.529049366182901437e-01 1.364526273510776877e-01 7.531936258768523462e-01 6.434905146367488893e-01
-5.684909295129566761e-03 1.086757837317910563e-01 -6.092041170362201274e-01 4.738806257537530285e-03 8.259494230376476231e-01 -5.637243069968070897e-01
-1.052754945618075422e-01 1.043771711520815049e-01 -7.080597537685646703e-01 6.742699938688095918e-01 5.732392693704517761e-01 -4.655713859547062627e-01
5.520135137840953554e-02 -8.516780441040851246e-02 -8.350121111368149496e-01 -3.062986271790300585e-01 -6.329392480573868829e-01 7.110337961424838538e-01
4.174810208597742184e-02 -2.351094227900230038e-02 -7.796510020293636600e-01 -2.501484877605550938e-01 -7.131711660380127826e-01 6.548378593232744294e-01
8.706623969265528395e-02 -3.382386448656659467e-02 -7.651508000812529131e-01 2.051381584908012201e-01 6.824506700755234023e-01 -7.015550005840398562e-01
-5.063322749772995734e-02 1.160706806819564313e-01 -6.154480577653922424e-01 4.141094961264856211e-01 8.022225108272864613e-01 -4.300608891073824935e-01
1.776260667670307228e-02 3.764098731515160001e-02 -7.168640439865670011e-01 -2.242676993001573027e-01 -7.636923725431701282e-01 6.053742306788405525e-01
-7.782305093895039959e-03 -1.383281869780819962e-01 -8.999464658774614101e-01 3.637221114758681928e-01 5.988508689464102641e-01 -7.135011299119754513e-01
1.009989657416368071e-02 -1.105044553376415828e-01 -8.676904416423778521e-01 3.284134677615667686e-01 6.124951607135216136e-01 -7.190231375243356648e-01
-4.843346679427255885e-02 -6.793175334810287735e-02 -8.689699870780001056e-01 -3.763489710991424486e-01 -6.287069607234118118e-01 6.805064360390334910e-01
8.724735677826409019e-02 2.930703898578791711e-02 -7.000535141563799524e-01 1.115550589053697639e-01 7.255763341682849310e-01 -6.790393597778650037e-01
-6.003569384910872192e-02 9.380861603175601193e-02 -6.781724935193090831e-01 -4.374787069809218387e-01 -7.602346209748178651e-01 4.802662823992285279e-01
5.505228526133146283e-02 6.715564318604179406e-02 -6.613494875461763955e-01 8.011543672498180890e-02 7.707260526249876120e-01 -6.321098548539411111e-01
-5.252912814803727126e-02 4.961015790698313638e-02 -7.249106800694991026e-01 4.464101400985646673e-01 7.338263958857678126e-01 -5.120710961560748231e-01
-4.436475979105816703e-02 -8.394957622089284366e-02 -8.715730685031426450e-01 3.936727233336480003e-01 6.300103807855407245e-01 -6.694092223786040075e-01
-3.714939446775879228e-02 6.618220103626461237e-02 -6.889750111312643588e-01 3.723999484117700431e-01 7.773567375476907459e-01 -5.069859771355824662e-01
-9.681318131529044468e-02 7.093294407269609692e-02 -7.397077222019988740e-01 5.680886769720723262e-01 6.445689097385881583e-01 -5.116699870957140961e-01
-3.966161968212300604e-02 1.117577977359100749e-01 -6.140031463732189554e-01 3.134276340836425478e-01 8.405409343362180152e-01 -4.418756113409384456e-01
6.240509206252305152e-02 2.147614427728880560e-02 -7.229824483186214623e-01 -1.837571791289137335e-01 -7.371630166050443522e-01 6.502491722934642393e-01
-6.035202357198094815e-03 2.641783764341678470e-02 -7.451270207286173619e-01 2.857033302661560747e-01 -6.966178233988074009e-01 6.581012195687951927e-01
2.357397734166148673e-02 -7.938928727220561157e-03 -7.606406785771101520e-01 5.070134690466623351e-01 -5.672663271551379172e-01 -6.489578231912990214e-01
8.263847459596915593e-03 -9.319238883096249426e-02 -8.548266583930506091e-01 9.926457031183636426e-01 1.249343486391412891e-02 1.204093940103948823e-01
7.969774156944228749e-02 -1.100900879514896298e-02 -7.532403514160820324e-01 -2.087267939447285947e-01 -7.059460067244395232e-01 6.768111709179839286e-01
3.024592316022756480e-02 -7.541803361987728382e-02 -8.265815629000776710e-01 2.981545797950567733e-01 6.522584764797184631e-01 -6.968950612592900162e-01
5.224344187172132864e-02 -1.077994900121005163e-03 -7.565917786363638431e-01 -1.825754061318818899e-01 -7.840314692582813771e-01 5.932629065502736943e-01
9.517814136557935234e-02 -1.012939864035284077e-01 -8.327757686452702535e-01 -2.894303983499608157e-01 -6.177056762655436239e-01 7.312111473578000176e-01
6.428826206958594691e-02 -9.105652429438058915e-02 -8.270431876528725468e-01 2.772516746259813814e-01 6.380365952055270240e-01 -7.183598068486484189e-01
-5.738934451413472276e-02 5.831373540641476838e-02 -7.166749778975177732e-01 4.464101400985646673e-01 7.338263958857678126e-01 -5.120710961560748231e-01
-3.626854427331288599e-02 -4.793920934579766480e-02 -8.427835690467764262e-01 -3.746709434075632394e-01 -6.672484916923780984e-01 6.437399587568981563e-01
-6.051867424358004302e-03 1.127091415430180321e-01 -6.030910395694303316e-01 5.992721575243907528e-03 8.375998009346938833e-01 -5.462514629383453668e-01
5.761764617394285470e-02 -7.431030056022114609e-04 -7.492085334468017166e-01 -2.098172387459129873e-01 -7.270448758277310297e-01 6.537449616308180778e-01
3.695536382893499505e-02 -9.063995540562724829e-03 -7.515315478332352805e-01 4.519713147682989929e-01 9.625502412927879059e-02 -8.868240529871116440e-01
6.630594967764369407e-02 -6.756451639769790740e-02 -8.114475216847243377e-01 2.938190800247252876e-01 -8.879173940188422876e-01 -3.539393304115998617e-01
-3.188083370037664288e-02 1.314819043501646578e-01 -5.892412129169597446e-01 -9.511916340807249348e-01 6.895461373845948594e-02 -3.007984981661646073e-01
-1.836178497278657951e-02 7.851734542885871471e-02 -6.594652567121422893e-01 2.187175998710091385e-01 8.251447677874446107e-01 -5.208634405481624707e-01
1.001877572044986564e-01 -8.440371314164242522e-02 -8.163494342149154592e-01 -2.786667234338192078e-01 -6.304396167036571130e-01 7.244934416136599165e-01
-1.220957020856301561e-01 2.247034609887190934e-02 -8.293634346484450859e-01 -4.172907153778691036e-01 -6.424149409241335373e-01 6.427841803722833536e-01
-6.224376516110136787e-02 -1.302329710394452321e-03 -7.974759565812303830e-01 4.038752936694648965e-01 6.868177700986056733e-01 -6.042897465952756786e-01
4.429257645158013457e-02 5.074790936221289933e-02 -6.826686443949541161e-01 1.148515614793357287e-01 7.666088549231642180e-01 -6.317594339455117058e-01
-4.689345203107687238e-02 -7.714322780242212872e-03 -7.945043002668481513e-01 4.038752936694648965e-01 6.868177700986056733e-01 -6.042897465952756786e-01
1.673464090486772443e-02 -1.562769842184937863e-01 -9.103315152673042698e-01 8.311355381832169487e-01 -2.816427629648038389e-01 4.794695727973209975e-01
-8.873118721212286397e-02 8.428675878630785545e-02 -7.231902402143348674e-01 -5.658336338530105536e-01 -6.620509000418829393e-01 4.914477638105902990e-01
-1.018810755070804520e-02 3.240968721033818389e-02 -7.229180207596844765e-01 2.656255571484607558e-01 7.808618787938427230e-01 -5.654182431051547608e-01
-2.876029316495858773e-02 1.769667035692869261e-02 -7.641562944023561066e-01 -3.517420490816727807e-01 -7.354145546991179838e-01 5.791743810326249742e-01
6.323849011858651307e-04 -5.176195791899366322e-02 -8.272777263377733004e-01 -3.137381142974131065e-01 -6.726382811016891061e-01 6.701687387767860660e-01
-2.337171410822518752e-02 -5.675665067184377383e-02 -8.339609571829205148e-01 3.531754511614318415e-01 6.683350511719727827e-01 -6.546719484382047538e-01
2.442345988726506503e-02 -9.407902780792466724e-02 -8.507693716635817971e-01 -8.192937594891501751e-01 3.047374130501776524e-01 -4.856880117417142206e-01
1.206302890568873715e-01 -3.865247537036590325e-02 -7.679857508594508664e-01 -2.269598041895813378e-01 -6.578062674217897143e-01 7.181783635162227730e-01
6.937924217423938056e-02 -1.020528051180882301e-01 -8.440015171690062878e-01 -3.068172035673040754e-01 -6.149827189307068842e-01 7.264017201326925521e-01
2.820238403911353234e-03 5.701494918380963818e-03 -7.481556812591204642e-01 -3.017329421372851317e-01 6.850558241250107594e-01 -6.630654186892722679e-01
-5.679985115457573952e-02 1.164071806747087913e-02 -7.951449772132865856e-01 -4.198424474130521000e-01 -6.386061884388932741e-01 6.449143008476142525e-01
-1.099986289771802128e-01 -1.709303805172602414e-02 -8.516487101308591878e-01 5.310636010107622207e-01 6.027291217142454194e-01 -5.955577700937635388e-01
-2.104044103884860836e-02 7.236601062852753008e-02 -6.704374787198646990e-01 2.305502911897603646e-01 8.244002710724617211e-01 -5.169243235600042841e-01
-8.515726850494426126e-02 1.132156524813889009e-01 -6.777210425501022373e-01 -5.894332006265965429e-01 -6.737092402389426304e-01 4.457402400678596721e-01
4.704966176968618241e-02 -1.050167836365891311e-01 -8.464685480736715562e-01 2.952239102006961602e-01 6.347292740994586735e-01 -7.141159509820417250e-01
3.976706451638770123e-02 -1.262119318062653872e-01 -8.770540790082761440e-01 -3.333668155319503001e-01 -5.872208699330361270e-01 7.375894631956011471e-01
7.731406295471342401e-03 1.170124738474730280e-01 -6.076663758246518832e-01 4.028686862553130382e-02 -8.237474319721507232e-01 5.655237718572367900e-01
5.007410664853150298e-03 -4.519256788701169619e-02 -8.076264276780388274e-01 2.962074245420889262e-01 6.904535550597907800e-01 -6.599507935834604266e-01
-1.214537944393704605e-01 1.732444469745593463e-02 -8.340896583742970494e-01 -4.172907153778691036e-01 -6.424149409241335373e-01 6.427841803722833536e-01
7.364347521359468351e-02 -2.621853634592102855e-02 -7.710064638245029967e-01 -2.411175571946340412e-01 -6.841849021094978944e-01 6.882974236025509729e-01
1.001495554833828489e-01 4.181566595041413814e-02 -6.922266641084323657e-01 -1.334228924785119119e-01 -7.283443057879048776e-01 6.720959038626870274e-01
1.177215874771532222e-01 -9.767669528467295970e-02 -8.143712201509646365e-01 -4.618787592560804484e-02 7.444044050782842037e-01 -6.661296884372639449e-01
4.993587549647576784e-02 -1.209998133630789674e-01 -8.683602635822486038e-01 -3.271020255965553791e-01 -5.895758739544427751e-01 7.385151005236693100e-01
-1.314873430113344937e-03 9.429865688125264184e-03 -7.600454124049869087e-01 -2.790917282224200657e-01 -7.434187099340686666e-01 6.078128239497648799e-01
3.632767074071481528e-02 -7.958999459858751013e-02 -8.236774738500494131e-01 3.002008450090238312e-01 6.158862998621563722e-01 -7.283979120631592918e-01
1.101909255466006349e-01 -1.514626234658254106e-02 -7.407118357865755121e-01 1.599026622230431405e-01 6.855181657389339822e-01 -7.102788065653591332e-01
-8.915057879212023861e-02 -1.501116736043284390e-02 -8.424757376149022425e-01 -4.435679300840330019e-01 -6.293935362820600732e-01 6.380527156021901236e-01
7.932962608684165917e-02 -1.550936323492795033e-02 -7.488858570428453820e-01 1.943176467785997785e-01 7.052665470427432748e-01 -6.817915735566354440e-01
1.110523198327241640e-01 5.115152058975021288e-02 -6.743134304780581401e-01 4.087835958639084860e-02 7.100562309141039696e-01 -7.029574017375321837e-01
-1.273053410011112420e-02 1.296798489887240058e-01 -5.765559786084089033e-01 -8.719928529720048782e-02 8.264403165976597077e-01 -5.562307864058023688e-01
-1.127890447596733257e-02 1.065283549871107703e-02 -7.633519981483348760e-01 -3.214967330043555505e-01 -7.398218397026967708e-01 5.910190319832715478e-01
1.144443723885743974e-01 -9.795943293959649689e-02 -8.223356325131120359e-01 -3.197193659204595750e-01 -5.911301260980792449e-01 7.405030054460873812e-01
3.470697780730781085e-02 -9.614180825942210407e-02 -8.438210905096105163e-01 3.115002992552349248e-01 6.318161981996157639e-01 -7.097716923465482441e-01
-4.113228709995905841e-02 -6.019789047707177487e-02 -8.575952277775046317e-01 -3.684371946269803799e-01 -6.486618714405730790e-01 6.659518076817677601e-01
-4.926736439266653916e-02 -4.172137667307388581e-02 -8.333261893484790184e-01 3.877009084078334999e-01 6.615542617185762309e-01 -6.418987181960487121e-01
1.314495297486709402e-01 -7.288211759292757830e-02 -7.890173519547649672e-01 5.741782616908239732e-03 6.917566094695960510e-01 -7.221079041164893964e-01
-6.041420872149481230e-02 -6.361529409856192530e-02 -8.717358107400056122e-01 -3.837594453814692219e-01 -6.223114425157315610e-01 6.822442059808909720e-01
-6.945699253506978921e-02 1.424127291321442002e-01 -5.985973172559078126e-01 9.484803467821979472e-01 -1.053473209733989946e-01 -2.988092597823051033e-01
2.005114010825193374e-02 8.707595635052710337e-02 -6.499618755066236542e-01 -5.789607101000673883e-02 -8.112300458779623247e-01 5.818538112158785358e-01
-3.327580257466625918e-02 -8.728513056385826807e-03 -7.987197023527697892e-01 -3.530922577494370884e-01 -7.039399314410778041e-01 6.162746388097889438e-01
1.747906157583079684e-02 1.074619301593987969e-01 -6.112590704095663963e-01 -2.925816361131188328e-02 8.025316384879294107e-01 -5.958917091955326928e-01
-2.354126181945701002e-02 5.834103831335724077e-02 -7.061675268419380647e-01 -2.967268881911273026e-01 -7.964877431817609654e-01 5.268400409855300559e-01
1.096540007720736148e-01 -4.134629431566114177e-02 -7.660192154794772668e-01 1.950567986079124738e-01 6.834018795256402434e-01 -7.035017529314725460e-01
-5.705381900856718036e-03 -1.267874502226589903e-04 -7.589889487299049664e-01 7.832456135338533576e-01 5.338586987606477319e-01 -3.186239141018221699e-01
-4.887956867818096102e-02 -4.259818060030648446e-02 -8.445873890843509368e-01 -3.746709434075632394e-01 -6.672484916923780984e-01 6.437399587568981563e-01
-6.637958963735481055e-02 -4.020724265207918646e-02 -8.529085935853797373e-01 -3.978633089831273284e-01 -6.365458299124032715e-01 6.606922080561616895e-01
9.558527121813126248e-03 1.163789527160832421e-01 -5.983396890284851111e-01 -2.651274120378851670e-02 8.169545021427945253e-01 -5.760923675787411602e-01
-9.476677698398921351e-03 -3.393777028604699070e-02 -8.027385706949964339e-01 3.304488991751912685e-01 6.904164320260085530e-01 -6.435283019591135911e-01
-7.044420317497826489e-02 6.092905679689065296e-02 -7.367545542195437225e-01 -5.025282400279447170e-01 -7.028359833436059745e-01 5.034748737443039968e-01
-6.199057389303860161e-02 -8.636022781370349122e-02 -8.928912386378697885e-01 -3.747868787550301950e-01 -6.008218463963580502e-01 7.060792479643723807e-01
-4.955012675122458937e-02 -3.627038554062358283e-02 -8.278790695897536578e-01 3.877009084078334999e-01 6.615542617185762309e-01 -6.418987181960487121e-01
2.165371844559044190e-02 7.652795531811858176e-02 -6.531586259893211732e-01 7.366245191035802886e-02 8.055938995785753010e-01 -5.878709995741742134e-01
3.528354493974034112e-02 -2.470825249679034497e-01 -9.569499738545260703e-01 -8.161267600702500902e-01 2.732644650443707413e-01 -5.091793825767597648e-01
-7.403944434750388270e-02 9.235860018069326494e-02 -6.829993318641124356e-01 5.408290330718883432e-01 6.984643381260569051e-01 -4.686699535415678741e-01
1.309597625016894473e-01 -7.260168673186841344e-03 -7.290035700635483229e-01 1.098652365517663876e-01 6.720181072636286501e-01 -7.323396024435894214e-01
2.458270957158190800e-02 1.969304339122715866e-02 -7.258171759534263190e-01 1.852782442425600917e-01 7.647085548551880718e-01 -6.171651305296533829e-01
9.320668696359211969e-02 -7.523640598056345608e-02 -8.109677675868676161e-01 -2.657409960758869705e-01 -6.528382990495344984e-01 7.093545504884747332e-01
8.669474546370613266e-02 -6.363495213488801205e-02 -8.027468837559791348e-01 -2.604216433323806590e-01 -6.490480201960218132e-01 7.147847474335801143e-01
6.358673424832572696e-02 -3.112368236555077081e-03 -7.499276893801340993e-01 -2.098172387459129873e-01 -7.270448758277310297e-01 6.537449616308180778e-01
-5.389117986941509980e-02 1.144287628254158917e-01 -6.369209723396409562e-01 -4.841324502442876376e-01 -7.622893831024957212e-01 4.295703283860266564e-01
4.729279077230535977e-02 7.983050760680887592e-02 -6.560106503022005153e-01 -6.713019838584564913e-02 -7.786590020957693259e-01 6.238458903606703965e-01
-8.900196373106693259e-02 1.144623885176437872e-01 -6.809207837818705977e-01 -5.894332006265965429e-01 -6.737092402389426304e-01 4.457402400678596721e-01
-8.835889918165244772e-02 2.371148433398799493e-02 -8.042801440144731195e-01 -3.166458107778861164e-01 -1.507560264989664389e-01 9.364870799915279154e-01
-5.146785449453496891e-02 1.255283839553705538e-01 -6.134843704026300415e-01 -3.872828362535023494e-01 -8.153530459122496632e-01 4.303619584315739321e-01
-2.381092011055788160e-02 -1.306545588234772903e-01 -9.054981654895746246e-01 4.205945431367681953e-01 5.237044166971452919e-01 7.408332566883562009e-01
1.202800487364794751e-03 3.169260204351912261e-03 -7.548875615950935147e-01 2.783582896451222144e-01 7.451945348907690336e-01 -6.059717549150065441e-01
-3.838771189266792366e-02 -4.025666835942131455e-02 -8.252454204710152341e-01 3.877009084078334999e-01 6.615542617185762309e-01 -6.418987181960487121e-01
2.394765398544281346e-02 1.177934445153153986e-01 -5.983162930385568234e-01 -1.045052340647829731e-01 7.570005306981102411e-01 -6.450029864859885276e-01
-7.789586601826049318e-04 1.710881382492179456e-03 -7.526158266681464148e-01 1.954408113113514922e-01 7.543753990492162442e-01 -6.266742747099934840e-01
-4.876419657384351708e-03 -1.448735259222565797e-01 -9.054650992612004456e-01 5.266834902384327499e-01 7.903242322990398083e-01 3.130369130808634548e-01
-9.830596136679214947e-02 1.400930386999753134e-02 -8.091436604808853739e-01 5.101703331517163376e-01 6.306092952232946747e-01 -5.848573740236556739e-01
8.122777175579881659e-02 2.848497430303768493e-02 -7.018792795186168387e-01 1.158535492107405085e-01 7.379096862937603030e-01 -6.648813804048950837e-01
2.431040507903417525e-02 3.928307628113458100e-02 -7.126934678196109596e-01 -1.911022096290949657e-01 -7.612831016792382943e-01 6.196192254703817293e-01
-4.519868494913063806e-02 3.883485705112610376e-02 -7.344052627949810841e-01 3.639042375555593956e-01 7.469958023525204993e-01 -5.563910290046213403e-01
8.061210865181486773e-02 -3.185174205333423519e-02 -7.651309071369291059e-01 2.097405031630205363e-01 6.870618509584403011e-01 -6.956686957816090588e-01
7.644272025889917166e-02 3.339142061458513777e-02 -6.972677064623343801e-01 1.158535492107405085e-01 7.379096862937603030e-01 -6.648813804048950837e-01
4.810224076428978174e-02 1.057124615573227892e-02 -7.395994912300097868e-01 -1.877021550628553415e-01 -7.416499428171082764e-01 6.439901111850552251e-01
3.519735773186834921e-02 -8.175142837763692272e-02 -8.357234646758792129e-01 -3.511395643573169689e-01 8.448744517664643627e-01 4.035940622646349563e-01
-2.888782931567512174e-02 1.301134890414541168e-01 -5.890294664385693491e-01 -1.014641787433074871e-01 -8.697072048562367597e-01 4.830262914719009038e-01
-8.876471655872783528e-02 1.183048673531956509e-02 -8.132985489862977202e-01 -4.670650348146561659e-01 -6.583755055523432542e-01 5.902473608092462243e-01
2.653359880808904558e-02 -7.510237047734001636e-02 -8.432989980029478305e-01 -3.206703032535211939e-01 -6.392295279836119892e-01 6.989679299976095939e-01
1.258415575308298451e-01 3.825511151410765365e-02 -6.906959753139865210e-01 -9.308421004693255840e-01 -2.838260245705784834e-01 -2.301646622970505152e-01
-7.337018682331244990e-02 8.154813675416550112e-02 -7.105411640837632214e-01 -5.204151009587387744e-01 -7.068099471707498527e-01 4.791532336054797336e-01
-1.461726478289056969e-02 -1.198523222012597284e-01 -8.876798010314200793e-01 3.516503355033546718e-01 6.051825593323539865e-01 -7.142101311381126028e-01
9.115672608112482256e-02 -1.153326040236907629e-01 -8.460899353704591785e-01 -2.974081337256711532e-01 -6.077128750448537176e-01 7.363650341362844021e-01
1.007506934067551041e-01 -5.247045874045962871e-02 -7.873014042249745215e-01 -2.378674512334854052e-01 -6.655103074800290397e-01 7.074709225696295123e-01
3.704075952021831236e-02 -2.611395366906351101e-01 -9.713239018230828137e-01 -9.926013920173772931e-01 3.204384523956878977e-02 -1.171139126979680589e-01
-1.072668200435470953e-01 5.618376089185533884e-02 -7.694736127053869446e-01 6.110002731801218445e-01 6.068636708492745058e-01 -5.083258317036031260e-01
1.200993312384308898e-01 4.087186115787536100e-02 -6.896488180630729881e-01 -1.351296677873899399e-01 -7.178493705761055388e-01 6.829584570434420465e-01
3.893734640271256930e-02 -4.990860313192940767e-02 -7.979971601446320673e-01 2.604765447973602099e-01 6.947089103125410059e-01 -6.704711026903327209e-01
9.710529615401629691e-03 -1.014903598718598088e-01 -8.572653638512885976e-01 7.912364148019375154e-01 4.389000247057529003e-01 -4.258071208947378783e-01
4.253585857267253023e-02 -7.860337420529270314e-02 -8.243660308290103877e-01 2.875323829813715149e-01 6.539772725846135781e-01 -6.997419922227363642e-01
5.492616283945723349e-02 -1.226160017811982472e-01 -8.583405323319359681e-01 3.019280246112787114e-01 6.191801348472721900e-01 -7.248830447491823037e-01
-4.408727554237679841e-02 5.117661939068452251e-03 -7.889223737418051829e-01 -3.953942255266557626e-01 -7.084022658090929347e-01 5.846619845831600992e-01
4.598688707692179939e-02 -7.665907273477671514e-03 -7.467723296365156305e-01 4.532197452942964278e-01 9.200058124795316983e-02 -8.866384581809046983e-01
6.489545825691171894e-03 -1.066212588124917787e-01 -8.759080271497585723e-01 -3.421632283105732752e-01 -6.061303949571184013e-01 7.180043659346466711e-01
-1.137734144730598480e-02 -5.623852997756165900e-02 -8.271472714721600505e-01 3.307067227995673098e-01 6.717392976682583505e-01 -6.628720687005336121e-01
4.779618878643111801e-02 -1.288017228442636941e-01 -8.665014219231609305e-01 3.092538113171983127e-01 6.080096936922138040e-01 -7.312224644812870267e-01
-3.886167140270520293e-02 8.380385640005041936e-02 -6.763388452716052601e-01 -3.784703821756537634e-01 -7.930957106413125679e-01 4.772414101669781306e-01
5.449537491719719240e-02 -1.730056765760234344e-02 -7.681916941615836159e-01 -2.269052392017583963e-01 -7.105508561462906547e-01 6.660566742046551969e-01
-1.217116574961238235e-01 1.938836297701541922e-02 -8.321943284682192798e-01 -4.172907153778691036e-01 -6.424149409241335373e-01 6.427841803722833536e-01
-6.228860002974989651e-02 7.277838231582196837e-02 -6.996385128891956517e-01 4.450988496395309468e-01 7.435385363046521645e-01 -4.990365308066148642e-01
-4.169742900379687367e-02 -3.360346936839540138e-02 -8.201177681967862787e-01 3.892355515811862787e-01 6.776788877976130943e-01 -6.238966344024304833e-01
-4.073955101761899539e-02 1.156805147344606710e-01 -6.227656709353222020e-01 -3.161852193121544863e-01 -8.300677070370495736e-01 4.593631557088351802e-01
-4.647462644381195745e-02 -1.112664461223429185e-01 -9.031742744258103306e-01 5.548808999114068774e-01 4.043736169899224131e-01 7.270413776367853353e-01
-5.586075596531912130e-02 1.838559927159213667e-02 -7.809976046401105876e-01 -4.032528214020880686e-01 -7.004802425962832757e-01 5.888247547135798676e-01
3.185509881369024549e-02 7.984802894948335450e-02 -6.580187524898386542e-01 -1.001513194819738939e-01 -7.922388076623719799e-01 6.019363627824145802e-01
-8.151456880699872731e-02 -9.895065920093064002e-03 -8.315292428477644160e-01 -4.273049619594520565e-01 -6.569914065523578817e-01 6.211060788634946705e-01
1.064807355271247813e-01 -1.187317483645076478e-02 -7.383881121029672867e-01 1.599026622230431405e-01 6.855181657389339822e-01 -7.102788065653591332e-01
1.034567203219779324e-02 1.169110846890642069e-01 -6.079347159933116140e-01 5.980239828294707169e-03 -8.233638042535390555e-01 5.674824072839047551e-01
8.027967726148192359e-03 -8.664593683983054517e-02 -8.528829813345212285e-01 8.333392637298707717e-01 -2.946194974851641946e-01 4.677018529231483090e-01
-1.874010595720869768e-02 4.975891487256557666e-02 -6.976245159680247721e-01 3.184758051091532982e-01 8.252326164113448215e-01 -4.664378740743108098e-01
-7.681066989391884675e-03 5.637458973470301643e-02 -7.077017408230528162e-01 -3.432837118011547450e-01 -7.456826221042147651e-01 5.710636744740507087e-01
8.579529660534050695e-02 2.049402782187682154e-02 -7.095770770277840533e-01 1.138684042604622415e-01 7.190595755796878041e-01 -6.855562072349247194e-01
-9.471438579601673680e-02 -5.241323807419309005e-02 -8.740710528744919383e-01 5.004743094331817188e-01 6.104297255533459587e-01 -6.139226463963081137e-01
2.700514502051001159e-02 -2.063937110851581935e-01 -9.453380457911846335e-01 -2.777962043964922190e-01 -5.006411183972189205e-01 8.198705625846582912e-01
-8.985395156203362932e-03 -1.234344384109154480e-01 -8.879421683707785506e-01 3.516503355033546718e-01 6.051825593323539865e-01 -7.142101311381126028e-01
3.117266296313446483e-02 -1.287495653498416971e-02 -7.615021243779250826e-01 2.232489088253377663e-01 7.303482494120763224e-01 -6.455628236577845014e-01
-9.177537665984329684e-03 6.303621798250751140e-02 -6.921702005480557807e-01 -2.278701133449223815e-01 -8.031829107317524086e-01 5.504293082246275448e-01
-9.225261340386357867e-02 1.090824849578647671e-01 -6.928626077197526101e-01 -6.308311415945317968e-01 -6.242132543504178566e-01 4.608794678522794008e-01
1.235040363295727833e-01 -6.036226076159133952e-02 -7.795024274429965816e-01 2.014780742617406917e-01 6.498245054455018543e-01 -7.328947384954334066e-01
3.186832813546874171e-02 4.669634711632322278e-03 -7.521085909737620367e-01 -2.333746782737665670e-01 -7.259062211191412706e-01 6.469902763420362080e-01
1.201575408169458375e-01 -6.431286713915893016e-02 -7.913745781805006096e-01 -2.604856681688263453e-01 -6.410446007954901937e-01 7.219480843312701124e-01
6.712674414780951671e-02 -4.154271329745896218e-02 -7.790965719445365201e-01 2.353227914848236013e-01 6.912988309862241332e-01 -6.831757534374812701e-01
-9.016529256219108987e-03 1.442180080690975107e-02 -7.428263969434302227e-01 7.959556064133943565e-01 5.210072244289754018e-01 -3.082306680262379417e-01
6.216649612456845442e-02 -6.015720380357424124e-02 -8.088338357598940931e-01 -2.614200820233250622e-01 -6.765704327382336958e-01 6.884126598627579030e-01
3.629976117072164499e-02 -2.726549515484692678e-03 -7.563638348200624195e-01 4.001249558851449062e-01 -8.190463530284626259e-01 -4.111728240882242535e-01
2.289719313097657652e-02 7.558000424709314380e-02 -6.651265484957772367e-01 -1.001513194819738939e-01 -7.922388076623719799e-01 6.019363627824145802e-01
2.124957628689833414e-02 -1.666830018758533594e-01 -9.196403548357867663e-01 1.781438405610072384e-01 -5.674655036095127558e-01 8.038953130124447677e-01
6.234340505782026698e-02 -1.311087374434985742e-01 -8.623881395393131477e-01 2.981670583568470922e-01 6.107550824227175879e-01 -7.335357077918183144e-01
2.675025193527799314e-02 3.119180620251389702e-02 -7.109682515898883004e-01 1.810895121964683219e-01 7.616276750988543176e-01 -6.221976157909633320e-01
-1.125651519867911510e-01 8.645387019449560229e-02 -7.480509246232880383e-01 -5.831760382634941786e-01 -6.290354044241872611e-01 5.140235095559293477e-01
-3.029134176862610661e-02 1.137546426082602785e-01 -6.197450239165399610e-01 -2.153818364895243032e-01 -8.461773825841818475e-01 4.874366643097161056e-01
1.446796195384275965e-02 -1.593516574656804741e-01 -9.065601644624546873e-01 9.913978571034612886e-01 -1.528286936784520496e-02 1.299873949063912459e-01
-6.637509620446715997e-02 3.517072859281243158e-04 -7.984745801301496027e-01 4.424571523538588513e-01 6.764561063260472462e-01 -5.887603965494939695e-01
-7.180314293112302626e-02 -5.577497061889125606e-03 -8.202756431406846849e-01 -4.296514777753530634e-01 -6.818367035215001648e-01 5.920289835610998974e-01
-4.608448344658143403e-02 4.839409157093071956e-02 -7.343403519752040864e-01 -3.615108176459538303e-01 -7.621308407519126193e-01 5.370907840391012655e-01
1.793767342977807544e-02 5.475552621189706815e-02 -6.800368382438675141e-01 -1.909467426851362559e-01 9.809629053707000779e-01 -3.537117109470995502e-02
-8.644170793946948095e-02 -6.951274678351757053e-02 -8.857719608952280277e-01 8.228783922457882927e-01 4.235095308298394423e-01 3.788282313546283975e-01
4.367541378670020819e-02 6.858137658247320627e-03 -7.349750624418323053e-01 1.788558246026940857e-01 7.441246911774093142e-01 -6.436528862561058384e-01
-7.156833683507220212e-02 -2.425687360567258324e-02 -8.399391049030568990e-01 -4.144831429370281484e-01 -6.471757480290996067e-01 6.398181580605681873e-01
-4.338902031662770359e-02 -6.263504241335379752e-02 -8.508624158678269600e-01 3.812457634608849011e-01 6.422885747275246526e-01 -6.649188331049226131e-01
-7.743916895472552353e-02 3.256480086810762536e-02 -7.687323426660424008e-01 4.887214786549213819e-01 6.728419193789206831e-01 -5.553693076033613396e-01
-2.693071660625705188e-02 -6.399788974702762256e-02 -8.430564874695650746e-01 3.504757244233969726e-01 6.496205478571471792e-01 -6.746554012172993886e-01
8.718389290191945473e-02 6.358258040408877598e-02 -6.704167600643080593e-01 -1.133329138105640121e-01 -7.415008289565742094e-01 6.613109490277023772e-01
-4.915657495591194137e-02 1.392675904421607214e-01 -5.838066552978642409e-01 -4.767164096831499331e-01 -8.009790113417989410e-01 3.621796351656472179e-01
2.061961344976168467e-02 -2.549916152270828920e-02 -7.796211294542941816e-01 2.670116082211088648e-01 7.120375107945200455e-01 -6.493900093909058535e-01
-1.040664582501018287e-01 1.072031836793422011e-01 -7.111672297031218504e-01 -6.149301565436722239e-01 -6.334159979745619395e-01 4.697287260569279477e-01
-1.097956076543308707e-01 -5.718235827813854255e-03 -8.399469802646265526e-01 5.219165393099824968e-01 6.092827408752106155e-01 -5.969737579377190073e-01
6.947389725279544404e-02 -2.452118465485236820e-03 -7.378429944851281341e-01 1.707828509310629905e-01 7.202235085151510452e-01 -6.723922334545398005e-01
-1.214715284751042429e-01 7.932771624909308594e-02 -7.600551922183784725e-01 7.226691889131550139e-01 5.069569634483465093e-01 -4.698338861840796188e-01
-9.959269103123792599e-02 7.894758259624166941e-02 -7.326773002244236777e-01 5.867291636011875422e-01 6.429088549479088366e-01 -4.923587033956235981e-01
3.939132214956340278e-02 9.339218387515682562e-02 -6.393916694654320221e-01 -6.330796777504006656e-02 -7.896368452004780547e-01 6.102997246583277136e-01
1.300498884029604452e-01 -1.450027661590521690e-02 -7.424934516061753031e-01 -1.818708037760495833e-01 -6.788193821266143013e-01 7.114262134495011880e-01
9.381050985183521720e-03 1.105496737020595643e-01 -6.135782663183160235e-01 -4.493360242422424489e-01 3.763861335652636808e-01 8.102040581100333760e-01
9.069670284947897732e-02 1.778328896368465862e-04 -7.385096379174356240e-01 -1.863391664690668970e-01 -7.178727559612135822e-01 6.707730028021888780e-01
-4.197550449035045150e-02 1.518368987147264704e-01 -5.488705599110005329e-01 -1.365922692142193806e-01 -9.019896600962999944e-01 4.095817440637112283e-01
1.112599899705834922e-01 3.875917100406930937e-02 -6.935655640115326870e-01 -1.300667144428524213e-01 -7.177073674386622582e-01 6.840897488767877510e-01
1.662009092426728132e-02 1.413642104462811688e-02 -7.353491896540695905e-01 2.353471556893531880e-01 7.461651671815008324e-01 -6.227754487726169241e-01
9.388121907702949576e-02 6.004427818778649596e-03 -7.265763263609794631e-01 3.528558616755723132e-01 -5.375917016404236914e-01 -7.658249821000510105e-01
7.088891356942612909e-02 4.186377927297376539e-02 -6.977067427543515166e-01 -1.318687183752971226e-01 -7.367611814220922373e-01 6.631693619759430058e-01
7.233188905398884976e-04 -3.624129856580310394e-02 -7.973952530711825304e-01 7.843528182602678145e-01 4.962303663942912446e-01 -3.722177856515761496e-01
-8.215755281878936445e-02 1.069234583718304959e-01 -6.719100251453939965e-01 6.204704191452986572e-01 6.463688261809655833e-01 -4.440988623123208745e-01
-3.244154367753987467e-02 1.070714316897388163e-01 -6.180272452102993919e-01 2.191250081041001829e-01 8.446811708884532921e-01 -4.883625194155355453e-01
-5.289533030225257448e-02 -3.876689434912594222e-03 -8.053127920039006016e-01 -3.944115140367077110e-01 -6.908292236134329078e-01 6.059657922663072016e-01
-1.061978914080417315e-02 -2.794055418191213752e-02 -7.967036091909183160e-01 3.313461424634453478e-01 7.027883952361254627e-01 -6.295222040532214569e-01
4.028262795612156354e-03 6.388972497711514764e-02 -6.738881043999788156e-01 1.726540006992892951e-01 8.044659263334390520e-01 -5.683530323760151992e-01
3.256684003960137741e-02 7.002858781960195900e-02 -6.602771550628315778e-01 1.023661991621802880e-01 7.876449650438615002e-01 -6.075661036546911031e-01
1.016897952661614465e-02 1.160894918195000760e-04 -7.548060599686260419e-01 2.570738039346344150e-01 7.443164723738663335e-01 -6.163651906812231962e-01
-1.191171196037510566e-01 1.163422938998157768e-02 -8.308120403290631950e-01 5.638037601998973081e-01 5.926843396962792054e-01 -5.751961347777314604e-01
-6.902433892930305570e-02 -8.568555277766800064e-04 -8.128222514479104266e-01 -4.296514777753530634e-01 -6.818367035215001648e-01 5.920289835610998974e-01
-1.119183842951411434e-01 1.064464301487543924e-01 -7.165546273710716729e-01 9.276625814165012640e-01 1.070426995020817423e-01 -3.577485087641597006e-01
6.511093969824904848e-02 -7.411516277119629958e-02 -8.074464412806389157e-01 4.629144732190756950e-01 8.929205720051911280e-03 -8.863579749567974675e-01
-4.825061029159043863e-02 1.307424470669798500e-01 -5.837957922470087269e-01 5.238969335393449667e-01 7.740087078900981243e-01 -3.555875744994076437e-01
3.586204701741675660e-02 -7.084784582978459477e-02 -8.349292275256016138e-01 -3.187897132070163786e-01 -6.534964318088719581e-01 6.865242401885461865e-01
1.490696833669104791e-02 6.749726134515576792e-02 -6.663308580217062183e-01 1.305308728684592967e-01 7.980221546287027401e-01 -5.883216228815333348e-01
1.043064085518703860e-01 -1.699791729649485425e-02 -7.521133451610152454e-01 -1.984204050045378642e-01 -6.940724517573406693e-01 6.920207905759691025e-01
-3.805824819442180963e-03 2.055729039108456294e-02 -7.354210173783505278e-01 2.439250315491444665e-01 7.643679555235127765e-01 -5.968602914858335273e-01
-4.858898923594966168e-02 -7.229403723950944549e-02 -8.630877557042208048e-01 3.936727233336480003e-01 6.300103807855407245e-01 -6.694092223786040075e-01
2.767818891037245044e-02 -7.473507716084799857e-02 -8.278533658287614561e-01 3.803840658496134841e-01 -6.355859135511200408e-01 -6.718173181327681265e-01
-1.133192286831144757e-01 2.044062007064351844e-02 -8.241736626893080286e-01 -5.094703141953442760e-01 -6.229307851349178415e-01 5.936305550465642566e-01
7.921354306006180013e-02 -5.155412678514995767e-02 -7.848007183080772942e-01 2.327946766095124465e-01 6.751532803811680639e-01 -6.999819187184912472e-01
3.325485684041223217e-02 -3.993728800571489518e-02 -7.899043952872721874e-01 2.787025764196435218e-01 6.925841492420170553e-01 -6.653210278623125085e-01
-1.985982006629546243e-02 -5.833137722207457770e-02 -8.336739893151089431e-01 3.531754511614318415e-01 6.683350511719727827e-01 -6.546719484382047538e-01
-1.305463706014182209e-03 -5.954614981958952780e-02 -8.360936052607625957e-01 -3.341171296594803164e-01 -6.695691162197274782e-01 6.633573262374081736e-01
1.718448523570654390e-02 -1.391901503066987900e-01 -8.885276107419658453e-01 3.457353056434099292e-01 5.957045539488031727e-01 -7.249849535240823206e-01
-1.273464819649874208e-03 1.040265268985976210e-01 -6.116067260171281772e-01 -2.770419034395153468e-01 9.597508240780773248e-01 4.611007937600721668e-02
6.736339501095181537e-02 -7.839166864351454489e-02 -8.238318995063121930e-01 -2.796160140494102220e-01 -6.545237542992047297e-01 7.024340109541923338e-01
2.202910456057627711e-02 -1.106434524772481470e-01 -8.622919060584817164e-01 3.300106679006782895e-01 6.291559603606390327e-01 -7.037440846035086794e-01
-1.043931476500187111e-01 -3.980063850782571133e-02 -8.700772774511872365e-01 6.487123395001450632e-01 5.898428911722488621e-01 -4.808925704497949982e-01
-8.847055460848687880e-02 5.653779136752507678e-02 -7.485891839605658404e-01 5.681291071038240270e-01 6.459989707427727934e-01 -5.098182494386501729e-01
-1.005708070437813934e-01 5.322588450897024898e-02 -7.756714995521651890e-01 -5.257771298418829620e-01 -6.470372453048092165e-01 5.521786059995404949e-01
1.967398716351946575e-02 5.372007167829591368e-02 -6.840781756535563307e-01 1.598999459189374139e-01 7.794728032101991833e-01 -6.056848655454047936e-01
6.589657260565313750e-03 -8.831877746544912824e-03 -7.780148571178449046e-01 -2.891238052306819295e-01 -7.242691388874110681e-01 6.259725550726794596e-01
-2.990130243216653633e-02 6.882008283788723646e-02 -6.939229324917782771e-01 -3.025111555903539085e-01 -7.941812642353694995e-01 5.270323711888095231e-01
9.162131479648315258e-02 4.166416235068241825e-02 -6.861181717681010817e-01 8.792024624164729296e-02 7.335718227702781036e-01 -6.739008911837851556e-01
8.784727725764052142e-02 6.372739006324015625e-03 -7.241181262982948619e-01 1.609440249311406834e-01 7.089265415568164475e-01 -6.866732698418190894e-01
1.344299918351503885e-02 -9.115687808840747253e-02 -8.622521692047365738e-01 2.205644232977703456e-01 -6.082268390869693953e-01 7.625034081167085809e-01
-3.305350376389720735e-02 7.186794853496354663e-02 -6.778201445960320148e-01 3.093740764793527775e-01 7.928717226853007061e-01 -5.250162970504731463e-01
4.894412675756877606e-02 -8.691609229127577468e-03 -7.464963239526244410e-01 2.427460312771835549e-01 6.651349128873232930e-01 -7.061656405954269689e-01
4.926184090041914321e-02 8.654403849646180591e-02 -6.472282540747114066e-01 -6.330796777504006656e-02 -7.896368452004780547e-01 6.102997246583277136e-01
-1.309397095585206755e-02 6.969077324377591365e-02 -6.696219820121656063e-01 -4.004661500158522291e-01 6.940074995242857536e-01 -5.983146774862951878e-01
2.975752598895531689e-02 -2.030201975466161268e-01 -9.420899717273166774e-01 -4.127530198428632779e-01 -4.787047464894581550e-01 7.749043233193763092e-01
-1.769954354227699575e-02 -5.340643966748363086e-02 -8.274808645932656415e-01 3.531754511614318415e-01 6.683350511719727827e-01 -6.546719484382047538e-01
3.136773472854784139e-02 -6.528161645142770142e-03 -7.649050546971948306e-01 -2.591066891780209325e-01 -7.249815279769612486e-01 6.381735717776121364e-01
-1.199533205747677772e-01 6.742879954075936544e-02 -7.788535840056034498e-01 -5.706394798886295083e-01 -6.211224920187276011e-01 5.371940374770366455e-01
6.576828273652379243e-03 -5.776303602909748161e-03 -7.803042091724164964e-01 -3.313026199883016276e-01 -7.119854245361416645e-01 6.191246475767032686e-01
-4.392678730987882585e-02 6.685108250126726992e-02 -6.995261720322117904e-01 8.834203635975734770e-02 -4.347677599209464061e-01 -8.961990178220089476e-01
-4.650488788413607855e-02 8.686132839715603182e-02 -6.631331795203044832e-01 3.687445089809374688e-01 7.905711142015215964e-01 -4.889016265943199047e-01
1.062085120247001496e-01 -5.231950007342430625e-02 -7.853122350493456638e-01 -2.398793796665939226e-01 -6.651406374176367375e-01 7.071391770128634402e-01
-2.432538586202987949e-02 7.912726519518192836e-02 -6.749848622310682389e-01 -2.521925938674728362e-01 -8.210529263504240394e-01 5.121239964401209654e-01
-4.117242578400863440e-02 -6.080545300031799105e-02 -8.460910594931232431e-01 2.268205538582886704e-01 7.832978419095408540e-02 -9.707815826724452979e-01
-7.385279227306332239e-02 2.806775909505341334e-03 -8.121070056080005317e-01 -4.296514777753530634e-01 -6.818367035215001648e-01 5.920289835610998974e-01
4.914813655338859215e-03 -7.595166911349097993e-02 -8.488836293392538757e-01 -3.285938875972887474e-01 -6.497620400462029711e-01 6.854453649625891209e-01
-9.997477288108022608e-02 8.147807150564051470e-02 -7.298122393805613894e-01 5.865891715924825833e-01 6.458653343191923524e-01 -4.886421120771344273e-01
-3.025347077682720778e-02 1.032528709431803776e-01 -6.175784168795752649e-01 1.037068619991517449e-01 8.572200840662539401e-01 -5.043992607525642491e-01
-2.661952630551971122e-02 1.089935413457669977e-01 -6.341396022741755401e-01 -2.210538763175328436e-01 -8.380768945004165582e-01 4.987607669710301672e-01
1.901322272891995671e-03 -3.991439312285554458e-02 -7.999023639679332387e-01 7.633832756173138945e-01 5.159941270662232737e-01 -3.885820831445347956e-01
-8.707821376052540807e-02 1.649865332863095779e-02 -7.962052975250152320e-01 4.740414825893678463e-01 6.663854020788934074e-01 -5.755129613489391449e-01
1.347533001030447319e-01 8.375048559155249400e-03 -7.192389863095450808e-01 -1.845088019040481142e-01 -6.863767775314777442e-01 7.034510795253903215e-01
-1.055653979780821761e-01 8.330720354556127305e-02 -7.437892664646211793e-01 -5.989805150870689543e-01 -6.242157793459971460e-01 5.015745242349323174e-01
7.734390492442658194e-02 -8.043085605820771145e-02 -8.125134112347853765e-01 2.488971606482942300e-01 6.550975005498929082e-01 -7.133704985451109204e-01
6.736328980431989695e-03 -3.906572292857368213e-03 -7.780074333129742836e-01 -3.566521140484253949e-01 -7.107708340680036763e-01 6.063036293665603482e-01
-5.439075704930611960e-02 1.164818070223940794e-01 -6.338407962129954942e-01 -4.841324502442876376e-01 -7.622893831024957212e-01 4.295703283860266564e-01
5.622661159031511202e-02 1.226841908091735878e-02 -7.252444693544651821e-01 1.693349117700077566e-01 7.332550079078037353e-01 -6.585307745534527690e-01
-8.730368390605568185e-02 1.331325565994560256e-01 -6.508490319460081830e-01 -4.390941441327788630e-01 -8.044494098927417181e-01 4.000718429376427521e-01
2.819978128158899880e-02 -2.125781037581917221e-01 -9.486925501093951274e-01 -2.975175992855236262e-01 -4.972944455647109741e-01 8.149733201313190678e-01
-1.343042438353465526e-02 3.256814750884344523e-02 -7.242903364111493714e-01 2.839484517058449287e-01 7.783853156952572627e-01 -5.599013994301569319e-01
-4.942972436825928545e-02 -1.378735708787095018e-02 -8.144856883801162573e-01 -3.890209878557986944e-01 -6.963278706754185698e-01 6.031502031238454853e-01
-4.512529361051443449e-02 2.215181474072333567e-02 -7.565719500147303211e-01 3.645695851809594989e-01 7.311504829968343833e-01 -5.766350568379269292e-01
4.597091887568309498e-02 -3.000095288830169696e-02 -7.849368880588110109e-01 -2.640656731239674482e-01 -6.891102065703200719e-01 6.748306776356546299e-01
1.050416893574648500e-02 -8.037458239255745873e-02 -8.400488081660650863e-01 3.067956791067006361e-01 6.507006031006632440e-01 -6.945971036549831723e-01
-5.758858720455628695e-03 -5.077753552762483830e-02 -8.188101656458317557e-01 3.307067227995673098e-01 6.717392976682583505e-01 -6.628720687005336121e-01
-3.808232394988613628e-02 4.903060049664886844e-02 -7.151962836994787409e-01 3.631226064155138600e-01 7.623149106043147771e-01 -5.357405620077121400e-01
-5.984122810747980609e-02 4.369291535363311468e-02 -7.391842273243339756e-01 4.338579323298565882e-01 7.187510377719339427e-01 -5.432901989326047731e-01
8.237639128902524144e-02 3.555131092076307953e-02 -7.024354634348007886e-01 -1.318687183752971226e-01 -7.367611814220922373e-01 6.631693619759430058e-01
-3.332465876938223853e-02 6.579805428821873525e-02 -7.073375501928176323e-01 -3.721569374278917985e-01 -7.119447684972132206e-01 5.955114277104524012e-01
-2.849061917147266074e-02 1.284243999732234409e-01 -5.919872978370642747e-01 -1.014641787433074871e-01 -8.697072048562367597e-01 4.830262914719009038e-01
9.981393213063566305e-02 -1.160037363526358195e-01 -8.356084821716659450e-01 1.635611784676920533e-01 6.803365384561049778e-01 -7.144158000351229498e-01
-1.376072691979891675e-02 -1.273445890626107718e-02 -7.763383486499454422e-01 3.025322022379844378e-01 6.625411428026424243e-01 -6.852105520953424289e-01
-6.188098592346604615e-02 -2.592120063178147277e-02 -8.353469695791775340e-01 -4.144831429370281484e-01 -6.471757480290996067e-01 6.398181580605681873e-01
-2.802207363207307247e-02 -4.471081379828927005e-02 -8.348923082048328448e-01 -3.484217364814967133e-01 -6.711420063693915861e-01 6.543475382651684491e-01
5.974621078898297716e-02 -1.452067958569654982e-01 -8.821590247702801868e-01 -6.639187827183080648e-01 5.978962779330611044e-01 4.491457344644743110e-01
-1.281045163864093575e-02 -4.352870041663581269e-02 -8.256539285430092301e-01 -3.307290501436883079e-01 -6.717412483413527369e-01 6.628589523178023413e-01
-1.410838078428150975e-02 -8.323379635585870240e-02 -8.548588548127669107e-01 3.485798938482395082e-01 6.335522243687017330e-01 -6.907268900239954545e-01
-1.079544473631921693e-02 1.122336356268518326e-01 -6.164793193196106413e-01 -6.807528403435578190e-02 -8.423750307904872558e-01 5.345746563431225118e-01
-8.977706958568879014e-02 -6.025386014656168576e-02 -8.779228785600959872e-01 4.781291247452504889e-01 6.130269274895756570e-01 -6.289598764969281941e-01
-7.237194761246960872e-02 -1.712144309717030096e-03 -8.162367334369743377e-01 -4.296514777753530634e-01 -6.818367035215001648e-01 5.920289835610998974e-01
-4.579129671005708474e-02 -1.160636742920923350e-02 -8.096210483756525189e-01 -3.890209878557986944e-01 -6.963278706754185698e-01 6.031502031238454853e-01
-1.060444778678918953e-01 7.379352484112600141e-02 -7.469030523737746341e-01 6.277506997052882953e-01 6.025069443862905993e-01 -4.928635115179619830e-01
1.781363377749630925e-02 -2.204264176724635149e-01 -9.444315356456790544e-01 9.947588217756380136e-01 -2.167630757282005757e-02 9.992509289238959980e-02
-3.099861894433950799e-02 4.975409749737871173e-02 -7.224310774130436874e-01 -2.987522455712762759e-01 -7.792051851118225736e-01 5.509867287521271750e-01
5.301618659929268479e-02 8.642802902168691959e-03 -7.303162390894616385e-01 1.788558246026940857e-01 7.441246911774093142e-01 -6.436528862561058384e-01
-1.176864714487912966e-01 -4.642621101703259083e-03 -8.463662919732363177e-01 6.302211617326207715e-01 5.770960588373400535e-01 -5.194048769301220503e-01
2.771591450892316871e-02 -2.474564810320671326e-01 -9.533077985483715544e-01 2.771755378759214739e-01 4.991721641173764712e-01 -8.209755610087117184e-01
1.793561955833759824e-02 1.121480623922172931e-01 -6.105184572156980849e-01 -3.348750991538544941e-01 3.375661366918268902e-01 8.797202801604899758e-01
-1.791368269299899521e-02 -2.162360219580782353e-02 -8.047667276806653724e-01 -3.193984851937624048e-01 -7.105374769287314818e-01 6.269937013524795599e-01
8.449585442758281162e-02 9.578088908623523870e-03 -7.303268638683070302e-01 -1.792805805884187531e-01 -7.099061109370715661e-01 6.810960189856359870e-01
-1.191738733227385438e-01 9.281826826172984157e-02 -7.425993467080357346e-01 9.205944960544127920e-01 2.164249554626148375e-01 -3.250630900107345234e-01
2.244238111659434959e-02 -1.544871665695651819e-01 -8.925028968960443398e-01 2.728681573808223182e-01 5.780244496503978979e-01 -7.690453200520431798e-01
1.000735905664499326e-01 1.343771245817464675e-02 -7.223781753234368441e-01 -1.619685237378685472e-01 -6.984202067661525737e-01 6.971193671810446135e-01
1.021553913979685035e-01 2.518449675383943251e-02 -7.018984701006618643e-01 1.320051908678151475e-01 7.115619868015357063e-01 -6.901117072786138174e-01
7.832570548856079840e-02 2.659521916649174034e-02 -7.132978586677721777e-01 -1.549455235639685402e-01 -7.241918853512384624e-01 6.719657713893665285e-01
1.625852223165302540e-03 1.034806020354241546e-01 -6.283782244017513952e-01 -9.235155431631217327e-02 -8.405372142640186173e-01 5.338242986719924366e-01
-9.998394192357258625e-02 2.041571541063544673e-02 -8.034164676454716991e-01 5.124985360999145811e-01 6.514282042040089316e-01 -5.594520044320017149e-01
-1.106685419543071286e-01 1.433339723931423282e-02 -8.198026810769203365e-01 5.486863833686698166e-01 6.042090569116032039e-01 -5.778188887980387767e-01
-4.412981315539755978e-02 -1.038548403435859552e-01 -8.892739603621100386e-01 3.798495457830545763e-01 6.107354201979261488e-01 -6.947780718215490481e-01
