9.218260528520558217e-02 -1.307425153108469629e-01 -1.086555101006414947e+00 -4.051388339904502534e-01 2.552801162791282219e-02 9.138987065398351817e-01
2.706302111166175237e-02 -1.016705567198121496e-01 -1.063289559135002005e+00 2.774380636570336622e-01 -4.332419426598154710e-01 8.575135800409139364e-01
-7.279223842209553430e-02 -6.970303920155944410e-02 -8.929867165044119703e-01 -4.430205384335389462e-01 3.053381478089682299e-01 -8.429124616581759044e-01
-1.369927673407913583e-02 4.028526032136416080e-02 -9.709403517021393260e-01 1.425911690354861594e-01 -6.262729109606014477e-01 7.664528684205100806e-01
-9.421917358349982119e-02 8.939492083712989937e-03 -8.996509192636238383e-01 7.583619742525009588e-01 -4.914866445334516998e-01 4.281681845409552323e-01
-4.249525135977609558e-02 1.715517661947044692e-01 -8.816113651287875719e-01 7.525648197323563382e-01 2.326761714632895883e-01 -6.160421993129950868e-01
1.955471661740391075e-03 2.179776220555116120e-02 -9.882426116822854434e-01 4.868377828097502080e-01 -3.614227629032514266e-01 7.952122733486114425e-01
-3.020844122506541329e-02 -5.497846915055119854e-02 -9.284403403410831368e-01 -7.212297756765920775e-01 4.412057047742890536e-01 -5.340085549428167377e-01
2.373643422754685359e-02 -6.642342018150108884e-02 -9.866855480073295492e-01 -4.308346368623703904e-01 2.247645586687062325e-01 -8.739922247057643201e-01
7.639180136510850816e-02 -1.306716027569734540e-01 -1.042917586996312762e+00 -3.652123764114972859e-01 3.341007582471974824e-01 -8.689054053546417800e-01
-3.152401131628974201e-02 -1.140552117225323014e-01 -9.617260677151656667e-01 -5.906840981212808650e-01 3.342391254208623708e-01 -7.344225645121110757e-01
-1.108021388859569828e-01 -1.628570849671343856e-01 -9.600102665510321653e-01 9.350265668499521121e-01 3.080715091116480453e-01 1.755484678328576020e-01
-9.819333491531360286e-03 -1.167848622429543126e-01 -1.053013802899408269e+00 3.889707061847987313e-01 -1.850733301674418463e-01 9.024686433283053422e-01
-4.486504412973862932e-02 -1.593798121633015763e-01 -1.032476705989819887e+00 6.817034523065773621e-01 1.297764754330781728e-02 7.315134884453845521e-01
-5.997739874721242509e-02 4.458140801978789647e-02 -9.064162554679675576e-01 6.513863657467028334e-01 -6.412072842383426119e-01 4.056464238212779683e-01
-8.435471203838650067e-02 -2.065115823655000182e-01 -9.889572990072882375e-01 8.611331077885321372e-01 4.872922763653102507e-01 1.448999933235960991e-01
5.771028003957080071e-02 6.761860490772388099e-02 -9.478719693890855780e-01 -6.190462607539035655e-01 -4.828858435290119822e-01 -6.193569158133980235e-01
-1.159420636248681691e-01 -1.374497020698475236e-01 -9.460029426546939790e-01 9.159355683772675283e-01 -2.196718029817286769e-02 4.007236923007666540e-01
-4.993357960665762568e-02 2.005528609259313311e-01 -8.800727807818112813e-01 7.242102846642963776e-01 2.143579411038573912e-01 -6.554160027586862780e-01
-8.514471963236185104e-02 -2.024086360607882107e-01 -9.729698551104499771e-01 5.171821995319256793e-01 7.881062209734528423e-01 -3.337830986587884130e-01
-5.889326315149912526e-03 -1.243122505115715620e-01 -1.056353024778025507e+00 4.042267501233800520e-01 -1.944123621898363741e-01 8.937586743145256030e-01
2.366510967519465380e-02 -1.022560777400480930e-01 -1.002093573601208210e+00 -3.261488287092249583e-01 4.597635054398864218e-01 -8.259809081311917378e-01
-7.478014607376237688e-03 3.935272769879727406e-02 -9.736302554228332129e-01 3.991432736896928235e-01 -5.793402801849225625e-01 7.106683381321629023e-01
8.310715643153919474e-02 3.466420417299820311e-02 -1.023779275983241588e+00 3.304070230407605835e-01 -5.397528053709366169e-01 7.742726317128520996e-01
-1.343179135881736666e-02 -9.883917790328407282e-02 -9.710541409342707819e-01 -6.741640634406639299e-01 3.366543644866760721e-01 -6.573938351074221087e-01
2.131223379329469717e-02 3.608383115849242428e-02 -9.047513054893959739e-01 -7.782934677694377523e-01 1.757064641575038499e-01 -6.028154912414668276e-01
-1.289976656535329891e-02 -1.722312170625576733e-01 -9.939687855881645939e-01 -4.933490236691879249e-01 4.568325011429961308e-02 -8.686309812018297993e-01
-9.103460795017870311e-02 1.672564808870600789e-03 -9.099833844143678796e-01 6.870288250934545315e-01 -4.322816972872495223e-01 5.840581543657806796e-01
-2.810185868294893044e-02 4.054041374398724418e-02 -9.642458040316511658e-01 7.675506105409183322e-01 -4.160352007221156945e-01 4.876276981656931242e-01
4.348483548973459956e-02 -2.120613092100386288e-01 -1.053156041729263359e+00 -4.194142379399256604e-01 -2.909363012973322990e-02 -9.073286382007048623e-01
3.434634134875798328e-02 -2.291252208425404169e-01 -1.032723496452981449e+00 -2.975134316222677877e-01 6.995510340693718299e-02 -9.521512702883228041e-01
-3.604643585061783478e-02 -2.638213801896690525e-01 -1.034574748324854854e+00 7.587722178179725496e-01 6.509567499408034363e-01 2.280419202913445964e-02
-1.173341061400772628e-01 -9.505443086365457372e-02 -9.042112803143442790e-01 2.653708661520016165e-01 1.006676718563819795e-01 -9.588765943752888266e-01
-5.972385579702624292e-02 1.984565939533555756e-02 -9.317833772485829558e-01 6.745878126283937348e-01 -4.921832227336637722e-01 5.501699358495915071e-01
-9.423758752957923923e-02 -9.450277264180807768e-02 -8.967989574361926453e-01 -1.453922897671350023e-01 3.667129954467486241e-01 -9.189029660670066102e-01
-9.425942325322894666e-02 -1.129189007035386744e-01 -9.727887563365713586e-01 4.765645099586640621e-01 -1.053863621049172250e-01 8.728000816510901316e-01
-5.638912083868578839e-02 -9.027318377285471762e-02 -9.172149717334679986e-01 -6.993205830175326376e-01 4.108650610001411407e-01 -5.849278791589337390e-01
5.926602290603991824e-02 -5.100016277847504303e-02 -1.004916034779282263e+00 2.616055356554610190e-01 9.561900930114651809e-01 -1.313889254889652469e-01
-7.456162895057785733e-02 -2.144619823690790961e-01 -9.843780737909154643e-01 1.853831049041519963e-01 9.500408970489907512e-01 -2.511083398663713773e-01
5.399075569461168032e-03 -1.200886289761166764e-01 -1.061682052629620898e+00 5.010646061838267551e-01 -5.293075556280825433e-02 8.637896708952919056e-01
6.477996589903962932e-02 6.033689816658050278e-03 -9.742912203778207880e-01 -5.399062410902939479e-01 -5.145890080837439706e-01 -6.661076516533481762e-01
-1.526002618604556556e-02 -1.664703348094872803e-01 -1.066745996084801362e+00 2.343894826407202092e-01 -7.045291604615835923e-02 9.695864876575005509e-01
-7.869493140530842146e-02 -6.023880229460867874e-02 -9.626309917994122500e-01 7.345928215637289593e-01 -3.798359085635360510e-01 5.622259946611795067e-01
-6.427084133952498668e-02 1.962144644177741051e-02 -8.772709301846958185e-01 1.569183484271233220e-02 -1.576671083886604929e-01 -9.873676363197385619e-01
-1.939701520173604116e-02 1.547551294954126466e-01 -8.734651322682061014e-01 -1.865830039267610263e-02 8.969491308984026134e-02 -9.957945020897950306e-01
-5.864249382380500725e-02 -8.729199947312542285e-02 -9.126747066070735048e-01 -6.796726649684475818e-01 3.810070369803368329e-01 -6.268003719416196384e-01
4.571489572170130133e-02 -4.282195583214237766e-02 -9.851165535333727963e-01 -2.154240215691106963e-01 7.143629745054371760e-01 -6.657912823000428082e-01
-5.668104461250778742e-02 -7.680055247850631206e-02 -9.086788246950617820e-01 -6.745331914754602032e-01 3.507947976536819334e-01 -6.495752331616733155e-01
7.135536696302859083e-02 2.808193311631834027e-02 -9.571351544498217789e-01 -5.303257268994188145e-01 2.712987654680957816e-01 -8.032132987221327625e-01
8.170111448814978972e-02 -6.017962772187066683e-02 -1.018002315147320092e+00 3.332552267160882042e-01 9.084540798195516187e-01 -2.522937548288112231e-01
1.675123055398108560e-03 1.093943576319061084e-01 -8.833540127036916267e-01 -5.055710334570767683e-01 4.111399613216695781e-02 -8.618048325759073425e-01
-3.718678463872919678e-03 -3.548862294572641130e-02 -9.471130114106498521e-01 4.430336506647473693e-01 5.160472845282433330e-01 -7.330868874217386644e-01
-6.098750500020013593e-02 -1.153870381518853488e-01 -1.005565674387846720e+00 7.308359307733346411e-01 -2.564454684004008334e-01 6.325460963657686397e-01
-3.123909475750787784e-02 2.062349051492564089e-01 -9.197772035709829153e-01 -1.362337483095238944e-01 -5.309182306081356578e-02 9.892530637534647786e-01
-2.763474118836002288e-02 -1.163429061449641477e-01 -9.660481277057059168e-01 -6.120202305885524829e-01 3.288883690079215105e-01 -7.192104546526310038e-01
-5.348383054756572497e-02 2.474846216714591540e-01 -9.204686501872764159e-01 2.435143080703635471e-02 -1.117543049547622819e-01 9.934374580927215481e-01
5.212991589411770238e-02 -1.034552641040930032e-01 -1.018899681408219182e+00 -5.260130078153191224e-01 3.297837033254184536e-01 -7.839343241815944774e-01
9.018955547334893408e-02 -6.536927524987540261e-02 -1.073883589463473287e+00 1.427185210547920191e-01 -4.021827130885768375e-01 9.043674524443283680e-01
-1.154758936127474600e-01 -1.465589680069485923e-01 -9.451827868297915103e-01 9.781005082309880416e-01 2.034592947509325511e-01 4.386013198493733667e-02
-7.048690530527326747e-02 -1.563847041147293226e-01 -1.015703380928379751e+00 6.336324310885275146e-01 -5.506595260427594833e-03 7.736146454672896411e-01
7.308155872034811928e-02 -2.008211542950343043e-01 -1.072134054610371034e+00 -9.523264157416552189e-01 2.986788121159406062e-01 6.217206023337720072e-02
3.581784472179398021e-02 2.107528544228652947e-02 -9.416407976888734321e-01 -8.833645445806226348e-02 9.845480163609834356e-01 -1.512014361487054592e-01
-4.825511436018019296e-02 2.040377803628443121e-02 -9.503002815902699130e-01 6.653663753793754854e-01 -6.403604994674629847e-01 3.837004264218289440e-01
4.717986110355588958e-02 -1.643283840859783573e-01 -1.083192884857127281e+00 4.499654251816369022e-01 1.567489413905929357e-02 8.929084017046978738e-01
-5.666024722245752154e-02 2.062822817351870341e-01 -8.880660140530148849e-01 9.118757213053554356e-01 2.634870453322882833e-01 -3.147336109091281586e-01
-5.355401101805760955e-02 -1.737330671599767451e-01 -1.024621041110815645e+00 5.144649144666069152e-01 1.120613800872973798e-01 8.501576905938080797e-01
-4.908686005354252063e-02 -1.602834379648145346e-01 -1.028792227135060022e+00 6.485530830061339014e-01 2.425040038576714227e-02 7.607830285990671015e-01
-5.698401380098512548e-02 -1.165664821385010985e-01 -1.011402745722849161e+00 7.677035991081061495e-01 -3.544725612228981637e-01 5.338355432682793111e-01
-2.887936608181098166e-02 4.702244211401990226e-02 -9.560671777528841897e-01 8.503413374945703040e-01 -3.956442712987896515e-01 3.469657336631317146e-01
-8.451828852176275497e-02 -1.340583759225298655e-01 -9.295469933453600619e-01 -7.701629163341880968e-01 5.456253069675988110e-01 3.303666246764824233e-01
-1.423616986544989959e-03 1.797188328656164347e-01 -8.879127969535401954e-01 -9.110439696944170329e-01 -2.326245107355504882e-01 -3.404184517450303815e-01
-1.230813212103213788e-01 -7.019266764909123935e-02 -9.011530557593174784e-01 9.400251117636417852e-01 -1.404368169092034824e-01 -3.108541293117459414e-01
1.043466088268434899e-01 -1.198816942017160853e-01 -1.066734873050252830e+00 -9.411641017479250859e-01 2.339435838540892265e-01 -2.438863119458039574e-01
8.444165449634296813e-03 7.082394994659996224e-02 -8.877794662549707283e-01 -3.833400895443297984e-01 7.628015993568995623e-02 -9.204519069176458901e-01
-5.131578589399153623e-02 -1.308916065598948186e-01 -1.026500734256899694e+00 5.969976600807441747e-01 -8.706337672793910964e-02 7.975047098863085049e-01
-6.398603443524421286e-02 3.608795882968465069e-02 -9.113212091367969281e-01 6.551197524879278644e-01 -5.436099567271561739e-01 5.246964120777422025e-01
-2.155593429682263820e-02 1.141170166426383331e-01 -9.281767838176273600e-01 3.806976808579823901e-01 -2.333715295063276129e-01 8.947664527714653815e-01
-4.134294256714413085e-02 -7.528554532453962667e-02 -9.285326067569824593e-01 -8.040725741332829246e-01 4.171881886385799265e-01 -4.235815279106691644e-01
7.547994352095273307e-02 -5.915331691130724066e-03 -9.779625995893680424e-01 -5.118719616063220901e-01 -9.056705186519120598e-02 -8.542743728087268673e-01
5.869628467068531419e-02 1.702034228437436514e-02 -9.679860812717294705e-01 -8.251896869823240055e-02 8.915571900033391062e-01 -4.453272917286001942e-01
9.935292643898302814e-03 -1.535812504615399199e-01 -1.015186723545687508e+00 2.644747849653292238e-01 2.639792274449203613e-01 -9.275602705997739728e-01
-3.631132268077626873e-02 2.247761340269094632e-01 -8.723568644926743554e-01 -2.489657000579118679e-02 -8.935208260584189682e-03 -9.996501002127129443e-01
-9.568150905948602514e-02 9.324321811892835946e-03 -8.930992057284868890e-01 8.635599370685566045e-01 -5.031069419093079365e-01 3.387683711350477495e-02
-4.973295286855600877e-02 -1.966001858547572478e-02 -8.946031371471880878e-01 -5.438055672077197755e-01 8.118607446096967051e-01 2.125032621765585994e-01
-1.065121108954453777e-01 -8.949652422244491756e-02 -9.002241089808290520e-01 4.363802845603886871e-01 -1.530364219299645556e-01 -8.866521870552557250e-01
2.660260201839678013e-03 -1.844369606678840368e-01 -1.073133273167680590e+00 4.234326864793896972e-01 8.106933908646361472e-03 9.058912946062833704e-01
1.047572620685770783e-01 2.890138671642311294e-02 -9.964303380938502874e-01 -8.918211438843997030e-01 -3.916947741811405148e-01 -2.263410064480278483e-01
-1.199037731550076959e-02 -2.042705927978517577e-01 -9.975570571685308252e-01 -4.906236256612565017e-01 1.214084676956504322e-01 -8.628722048570098835e-01
7.477649945925907149e-02 5.314920468471555706e-03 -1.042076563547349011e+00 4.901249464668359090e-01 -1.356324041994484420e-01 8.610350676842138951e-01
7.077253278146067306e-02 -1.114040098846154764e-01 -1.080902927496416144e+00 2.482224387215370698e-01 -2.678152048456369227e-01 9.309460977782881841e-01
-3.521066800893868365e-02 -2.297721824391664447e-01 -1.047177314333350040e+00 5.590585312333764545e-01 1.214032576054458190e-01 8.201919334509244486e-01
-8.359671069220728223e-02 -1.340583810433916556e-01 -9.273985685049085381e-01 -7.701629163341880968e-01 5.456253069675988110e-01 3.303666246764824233e-01
5.105959796989015947e-02 -1.210912771003371247e-01 -1.079016831990312175e+00 1.670914622495401347e-01 -3.925140255054568317e-01 9.044408123392110310e-01
-8.353292849684555710e-02 -1.378522085240719564e-01 -9.402339615838373188e-01 1.559333531854744381e-01 -2.748477944611333809e-02 -9.873851205396669828e-01
-1.070327524592852228e-02 -1.922304486388382860e-01 -1.069609607135160623e+00 1.541950807043722393e-01 -1.997102303542677704e-01 9.676464752059077412e-01
-4.189756450152175987e-02 -2.092632358514487367e-02 -9.085758193910327130e-01 -7.556893013907770018e-02 -3.907378794973496161e-01 -9.173948148553869864e-01
-3.154222164172841569e-02 -5.720992811757900920e-02 -9.283870571282932804e-01 -7.419518591940085228e-01 4.298699524839387220e-01 -5.145087585163254928e-01
-3.962690422954892600e-02 -1.125250095103748869e-02 -9.765321292123079200e-01 7.089245279346447770e-01 -3.962749326902978431e-01 5.834313939221482670e-01
-4.134042743525918884e-02 -1.782558720416107523e-01 -1.035157176459582162e+00 7.125651775388625042e-01 -2.666018062376595242e-03 7.016008552636607831e-01
-7.736491204168360891e-03 -2.107475960702304141e-01 -1.003865087824931557e+00 -9.322577632660530300e-01 3.115037416743666188e-01 1.840132651551115162e-01
-9.505288706615435193e-03 -1.600529267236770470e-01 -1.065958442076196055e+00 -2.063298343546530328e-02 -4.410351178387141857e-01 8.972526426974418712e-01
1.450303350822248344e-02 -3.063058823912948037e-02 -9.582555992491794683e-01 -9.902970513726562229e-01 7.240587168551215758e-02 1.186134047571503897e-01
1.397857757160025916e-02 9.831748991682769112e-02 -8.931684848543236521e-01 -7.677253156889594088e-01 -7.748354518329071683e-02 -6.360771493113996922e-01
-9.444372557643844479e-02 -1.479071430582920843e-01 -9.269495420370643668e-01 -5.915559058773461887e-01 7.164847310955227977e-01 -3.697448313751102722e-01
-8.547311151452614830e-02 -1.059110330061994454e-01 -9.044000904942854913e-01 -3.024954595762311960e-01 4.707676343435522326e-01 -8.287788193422538363e-01
-3.239875919273977386e-03 1.890968583102230552e-02 -9.053161057609730999e-01 7.233826251490005355e-02 3.732378437043392116e-01 -9.249111783318768598e-01
-1.539997822357253238e-03 9.749430956749476074e-02 -9.355694134735380585e-01 -1.457056016097482976e-01 -3.898530496203073681e-01 9.092768980686176672e-01
8.372071389600579949e-02 -1.323145940072505966e-01 -1.047138013404376622e+00 -4.562714015583050897e-01 3.162338405952886400e-01 -8.317527073489894285e-01
-2.024376563440008145e-02 -1.175491427426298280e-01 -1.050534578243645711e+00 1.353297369590897303e-01 -2.869491239466532284e-01 9.483385801288650718e-01
-5.085031094903381434e-03 9.608291952075870279e-02 -9.365189479661083505e-01 -8.133984380003271564e-02 -3.744118090184368475e-01 9.236880572347613283e-01
7.495457084419673843e-02 -4.980399689529224627e-02 -1.062872609848203753e+00 1.549822823971355734e-01 -4.935646723058058627e-01 8.557887627181353096e-01
7.652420619505218014e-02 2.266729459406580799e-03 -1.043551565197113229e+00 4.901249464668359090e-01 -1.356324041994484420e-01 8.610350676842138951e-01
-2.408355429442357587e-02 3.414244315739153185e-02 -9.721584842649928504e-01 4.397287740611947049e-01 -4.451400835439884296e-01 7.800569923313872556e-01
-5.220648902305043831e-02 4.622321000452692813e-02 -8.876583644996657307e-01 2.359318832218195716e-01 -5.669534318225092351e-01 -7.892401108814002253e-01
-3.356011236546730531e-02 -6.816739326767472240e-02 -9.435855268855768418e-01 -5.776641564727760247e-01 7.716790362277844428e-01 2.661119827688223638e-01
1.635774597902011490e-02 -2.695198715195218364e-01 -1.053108232924977461e+00 -5.436022067931380874e-01 6.241301384760749027e-01 -5.612113781949417124e-01
-7.198955278704907701e-02 3.275133159668120603e-02 -8.859613006235089738e-01 5.399961963227247752e-01 -6.710407726429528097e-01 -5.080436884833213762e-01
-3.764936450361470316e-02 -2.406834198094246480e-01 -9.986566422949010313e-01 6.334269307059012775e-03 5.971800632565428257e-01 -8.020821959632670195e-01
7.120694015490813822e-02 -1.010093053015813508e-01 -1.029453373881205946e+00 -4.614712239826440077e-01 3.114152878191124296e-01 -8.307014072147100858e-01
2.398742975189176868e-02 -1.982460943157332844e-01 -1.033630477927618418e+00 -6.216201469855201500e-01 -6.523496668082818806e-01 -4.336223069409875230e-01
8.918604786090413364e-03 -1.619535765082586454e-01 -1.018537923987714366e+00 -5.782560922391974390e-02 4.758766821115204548e-01 -8.776090145049865177e-01
-8.636765002529557533e-03 -1.122177701838314445e-01 -9.942832049569734210e-01 -8.977313161150763943e-01 3.447288668991825289e-01 2.743000043614626793e-01
-1.056084570585077292e-01 -1.460201661631064518e-01 -9.265884367690454537e-01 3.133076121358343014e-01 5.910855288741718727e-01 -7.432739990967545118e-01
-3.726398940754328815e-02 -2.208435959416513161e-01 -1.046740900511609951e+00 5.520205594877023447e-01 4.299671739083595068e-02 8.327211923546179451e-01
-7.783577806283431544e-02 -1.196957947980624437e-01 -9.338842640052407162e-01 -8.290953096745306006e-01 5.115051251905710084e-01 2.257509122450506722e-01
-5.616435248536385400e-02 4.630744825690189664e-02 -9.098226896776473449e-01 6.708723507651109808e-01 -5.849476859999603873e-01 4.558140998501315488e-01
-4.576245033123235023e-02 1.817417654659641835e-01 -9.120139246140737121e-01 7.987805057165930922e-01 1.939749916334873037e-01 5.694939914590254615e-01
-2.129955477659703500e-02 1.278970067090222096e-01 -9.251687591424998525e-01 2.822546705087357055e-01 -1.820477130917112218e-01 9.419081330650472816e-01
1.873251933791464721e-02 -4.762101190785236748e-02 -9.909570159469766049e-01 -6.455464234118041267e-01 2.809374088155210392e-01 -7.101718014313498362e-01
5.393971987305076071e-02 -6.890738254414906228e-02 -1.063304605821616011e+00 4.843145530370229768e-01 -2.550360999081326407e-01 8.368966492107599020e-01
1.900789715453564746e-02 -2.912771741119607460e-01 -1.061449665053677327e+00 -6.179793281646318581e-01 1.397360160152726904e-01 -7.736765446808953062e-01
8.105336291724064834e-02 1.288218862073459495e-02 -9.754684815315045610e-01 9.028770987850973095e-02 9.406803326708608193e-01 -3.270606077948434165e-01
2.090311844529912227e-02 7.534678065750130549e-02 -9.099098048834881602e-01 -9.363640641089657768e-01 -2.489471407298754491e-01 2.474826470033000825e-01
-6.141955367547708572e-02 -1.769450047785372793e-01 -1.019290426380987213e+00 5.137684731865701515e-01 9.265524243309483654e-02 8.529108757714402023e-01
-2.550290056825404647e-02 1.707024567054724329e-01 -9.216901468158713584e-01 8.946034982594526508e-02 -6.538408336137148391e-02 9.938419227684112123e-01
-7.319039507099242559e-02 -2.151759790967084363e-01 -9.900119276351215802e-01 7.277152643737158644e-02 9.297978687981475199e-01 -3.608049724136264680e-01
-5.989379778462348286e-02 -9.309297785167508499e-02 -9.404120052112792116e-01 -7.236103511458837900e-01 6.653687166396217156e-01 1.835007646629128741e-01
-1.746057540023408230e-03 -1.894258027246075171e-01 -1.025339926822957048e+00 -6.381351515450334189e-01 -9.762359336001180665e-02 -7.637101298150211770e-01
1.678970061791669986e-03 -1.598352386204505149e-01 -1.003298252905586052e+00 -6.380017333541170288e-01 -1.753225490489491306e-02 -7.698353124370770351e-01
-2.224707273280350506e-02 1.846006974348678442e-01 -9.202171511445507157e-01 -1.102394590604864749e-01 -1.098811318555166366e-01 9.878124308431240896e-01
-1.778414884136837043e-02 -1.702898110158003117e-02 -9.183554628650587581e-01 -5.811993306857340391e-01 3.591313174934620545e-01 -7.302273856860375112e-01
2.439206042844272587e-02 2.308731022633793428e-02 -1.003133755003324801e+00 6.092690444795797466e-01 8.459599748980602130e-02 7.884381704659183532e-01
-4.501125111963783648e-02 -8.490907263921815273e-02 -9.510606597018049779e-01 -7.136484383190960790e-02 -3.504487125578393814e-01 -9.338590680243996633e-01
-1.191645107783130680e-01 -9.971587741822465767e-02 -9.051775011262618298e-01 3.228175968383236727e-01 4.809167948796654740e-02 -9.452385886830668715e-01
6.896556226123252975e-02 -1.834509220415660447e-01 -1.052476141267851384e+00 -7.051119055938759317e-01 1.874613457751639622e-01 -6.838680021977467938e-01
5.735528306140677546e-02 6.600196629155054284e-02 -9.462927147593858113e-01 -6.091838572928655049e-01 -4.814765600711407023e-01 -6.301391513910613584e-01
-7.536386742214278012e-02 -1.514285540547925801e-01 -1.002459299350553890e+00 8.619338008367837256e-01 -2.431484328613756907e-01 4.449145564848521750e-01
-6.462683793639679986e-02 2.312164705963437317e-01 -8.982785402574052780e-01 9.637722457055780678e-01 2.488318671289353190e-01 9.605082148922367002e-02
-2.539925484428728897e-02 9.003658075280639161e-02 -8.956064854380422213e-01 7.404327203669489599e-01 3.717846586369091266e-01 -5.599424561615562457e-01
1.203996010944285641e-02 -2.010694721766628501e-01 -1.034379293181995951e+00 3.395423408614996474e-01 5.168646082169982975e-02 -9.391695845426532019e-01
9.519999439045886969e-02 -7.567577854670333448e-02 -1.042507555056876090e+00 3.460085581181062131e-01 8.144171136237100539e-01 -4.658356391967600763e-01
-7.623733600489461526e-02 -1.594538349190859072e-01 -1.006000775145285298e+00 9.391578717532947929e-01 -2.491653809677076004e-01 2.364299153048088076e-01
-7.666946239026502241e-02 -5.011556362265716380e-02 -8.957027660194525343e-01 -5.911850780600793609e-01 3.821098306750032592e-01 -7.102762003478776398e-01
7.195462413519117251e-02 -1.850778783578484882e-02 -1.046352504835822872e+00 3.219336752346469432e-01 -3.128875674494772663e-01 8.935659342686814721e-01
1.652514361488031935e-02 -3.817821345370238373e-02 -1.036242411470319480e+00 4.974380491864857645e-01 -1.503882354744729699e-01 8.543645392058463184e-01
-7.033639227413310269e-02 -1.138395953393254827e-02 -9.464312025494879821e-01 4.907461346781081812e-01 -1.164394658616533657e-01 8.634871638237299196e-01
-1.140296545702755154e-01 -7.567451222468794814e-02 -9.282301269334928273e-01 7.054618987885583614e-01 -1.934159941127505319e-02 7.084838825900385828e-01
-8.473926216868829867e-03 1.277264714324529982e-01 -9.261063848395775233e-01 -1.952775023276480670e-01 -2.498328400001184058e-01 9.483935096478415261e-01
-3.210977973042498934e-02 1.730782494817994675e-03 -8.937185434799442829e-01 -6.084702297026205464e-01 3.321879713721631044e-01 -7.207046074788804324e-01
-3.711190934105586259e-02 1.443123056570522070e-03 -9.716622141677401236e-01 7.516711704625632651e-01 -3.448603200688146186e-01 5.621937487534657274e-01
2.375339437971845519e-02 2.758219087420307400e-02 -1.002181746702942133e+00 5.276933764701374763e-01 -3.078757515213705331e-01 7.916768419340666219e-01
-1.078520875268233932e-02 -1.422873127063436771e-01 -9.944323875741915009e-01 -4.904851913215235171e-01 -2.074560976527502123e-03 -8.714470570786518877e-01
-2.527724826796699450e-02 -1.278278766945696865e-01 -9.732551782961726961e-01 -6.372588021459019147e-01 3.009669926420416863e-01 -7.094505538989842597e-01
-4.355898943798407197e-02 -1.047973957744012946e-01 -1.027746736864981747e+00 7.421944294488100891e-01 -4.610998710565780145e-01 4.863479595996701432e-01
1.789443530118830020e-02 -1.906781712754066771e-01 -1.035251537534050525e+00 -5.897793945909751701e-01 -4.460912145880699398e-01 -6.731737472475016748e-01
-1.261534726741425638e-02 3.313822664480172396e-03 -9.915657925895425828e-01 2.148080634778296027e-01 -4.932031473030834001e-01 8.429757715113985750e-01
-9.357647278087477538e-02 -1.062765345953716467e-01 -9.025696626750893126e-01 -1.410863933866766118e-01 4.634475871860476159e-01 -8.748205321850710536e-01
2.117723359455482915e-02 8.708309632810669332e-02 -9.332014009712815694e-01 -4.488067838994592718e-01 -8.749321173733984880e-01 -1.818413064029332227e-01
1.708327007740767511e-02 -1.796388205860601495e-01 -1.031906266210284695e+00 3.335997273638705574e-01 7.052067149618762576e-01 -6.256154658218019415e-01
7.781574953869303292e-03 1.405357010685637786e-01 -8.899706023964576440e-01 -8.952033934331863341e-01 -1.155561206371850114e-01 -4.304156913600991619e-01
-5.269573105686303077e-02 -2.463765426291079919e-01 -1.028786683409493419e+00 8.962030236830091923e-01 4.295962672908523738e-01 1.107573359701212595e-01
-1.086060763743003504e-01 -3.339527877016909563e-02 -9.159076707001294615e-01 8.141277636494780312e-01 -4.277694689364999747e-01 3.926948763364303541e-01
-1.051244483302352616e-02 1.551281266131290804e-01 -9.222608968286715170e-01 -3.015092484230122438e-01 -1.380601348417817009e-01 9.434148463337108659e-01
4.088218907918697576e-02 1.725362710013617767e-02 -9.577437092963947407e-01 -7.559105550001394835e-01 1.551967054383968092e-01 -6.360135340230181900e-01
-5.943946358372993038e-02 -2.939023089624517165e-02 -8.855829612340507806e-01 -6.546257483351229922e-01 7.319497966059220762e-01 -1.889831338115378900e-01
-1.124383639616915315e-01 -5.480754673240213759e-02 -8.877150474121454637e-01 6.220363467713423411e-01 8.299417295183805776e-02 -7.785773889289377969e-01
-5.520558486446591751e-02 2.629965226801646017e-01 -9.120043936076684954e-01 3.178350510320313016e-01 -7.332103359087205341e-01 6.011517975121482005e-01
-7.368085390480050290e-02 -2.078476154155677047e-01 -1.007028599673691405e+00 6.769833130086191364e-01 1.902294205422172535e-01 7.109897055992064896e-01
1.066208077370617117e-02 2.374703490228904229e-02 -9.023269200547655577e-01 -1.957494948344524754e-01 4.163737490150502540e-01 -8.878710696960502302e-01
-2.956636489009311849e-02 7.849049371015592858e-02 -9.272115843159064452e-01 9.427409791376094583e-01 -8.310739716806408994e-02 3.230055832189452358e-01
-8.117682920854410455e-02 -1.283609925467932011e-01 -9.301334406184778025e-01 -7.733678657000987444e-01 4.882063206957751866e-01 4.044214790724745545e-01
-1.085254629613255500e-01 -1.635614979964815918e-01 -9.508430115626773649e-01 5.816362410605327993e-01 5.572095490659295658e-01 -5.926354710230541389e-01
-9.146129519683546261e-02 -4.932001609404359360e-02 -9.433810691600413856e-01 6.502200623890161957e-01 -2.701460255520352072e-01 7.100950607807823278e-01
-3.148504721887382396e-02 -2.099443899588263607e-01 -9.888265467583823298e-01 -4.171377236085832552e-01 1.813323965780242464e-01 -8.905698633425225275e-01
8.756419160837136673e-03 -3.065869467905419365e-01 -1.063341787505503122e+00 1.775422784877895566e-01 8.921987263884191277e-01 -4.152832430766341676e-01
-4.324076828903204023e-02 2.194073562544054390e-01 -8.729202355618794762e-01 1.911129074235748682e-01 6.152107095044635765e-02 -9.796382058929807846e-01
-2.833366533037211948e-02 -1.742302409318908785e-01 -1.056726308500634426e+00 7.913656744192452130e-01 2.481779254748670005e-02 6.108391330981038925e-01
-4.648924782425347541e-02 2.287621133795148254e-01 -8.729716866320875734e-01 1.773048785733143673e-01 5.592572777226757080e-02 -9.825656685470159912e-01
-1.040249132791498804e-01 -7.991875145047196149e-02 -9.001832730444595532e-01 1.508262007913937497e-01 3.931253518893915860e-02 -9.877783059633636897e-01
5.917384549128831828e-02 -1.099093150226887194e-01 -1.026164191324113961e+00 -4.672945753025398719e-01 3.753047172402997900e-01 -8.004886939301500970e-01
-9.345273040967071176e-02 -1.013318890828659447e-01 -9.714169613444380014e-01 6.119194375911284345e-01 -2.088057002697680242e-01 7.628596079443509259e-01
1.185853270656018815e-03 -5.443557602695382053e-02 -9.594127311196504193e-01 4.623319702287230770e-01 5.914622246556356933e-01 -6.606221205120469397e-01
7.884976488001134431e-02 2.911581590446220627e-02 -1.025714566840462139e+00 3.264229167021132638e-01 -5.290371787787094826e-01 7.833056510210740786e-01
-1.115917531293148524e-01 -1.584814067319050557e-01 -9.609065442023045911e-01 9.100907176100028195e-01 1.382212340507321113e-01 3.906786098285939257e-01
1.045395248215739148e-01 -1.091838349715437001e-02 -1.019032083764512153e+00 -9.414213711991261668e-01 -1.091275920452012688e-01 -3.190877160029407245e-01
6.482226559987970538e-02 -5.410090082819767054e-02 -1.014630997253162192e+00 1.983041058389236055e-01 9.581806075282146562e-01 -2.063138506360800151e-01
3.423300266746755888e-02 -1.412365697608585213e-01 -1.078045501646210713e+00 5.121101293826622047e-01 8.260929969187097432e-02 8.549379620698168702e-01
1.566849931642581503e-02 6.498212190101479435e-02 -8.926412941873780316e-01 -6.534435417685097169e-01 4.019919440234091812e-02 -7.559071123427989480e-01
2.181854359898845967e-03 -2.856250828424700683e-01 -1.032590118070021434e+00 -4.277115760412256856e-02 7.332013932036594017e-01 -6.786651199829089043e-01
8.113811837505847946e-03 -3.149968948460704077e-01 -1.083996837700163196e+00 3.260137401634254362e-01 9.444948258393539575e-01 -4.055323892543011982e-02
-1.904701689149032248e-02 2.470845173672979803e-03 -9.910573040693173574e-01 2.127887818809208742e-01 -5.126237651760044978e-01 8.318279928461234096e-01
1.833965097058540619e-02 -2.603272565251353865e-01 -1.035556845156287320e+00 -9.349223500272584308e-01 -1.805526795602414303e-01 3.054847448288130485e-01
6.295386361705493372e-02 1.374064505095251403e-02 -9.737258026506806496e-01 -2.771265176857870549e-01 6.354178907217522543e-01 -7.207253272544739131e-01
-3.001439610890890494e-02 -1.636520742309875154e-01 -1.051622660045443691e+00 9.366013069487207909e-01 -9.895508942689232312e-02 3.361337265114347495e-01
-8.331628213863821741e-02 -1.918764571643654521e-02 -8.746111780833970561e-01 7.998898957197861370e-02 -5.384483837871896494e-02 -9.953403914878684589e-01
1.485952942337904689e-02 -2.798905176542633155e-01 -1.056804577831352843e+00 -9.557582204936040382e-01 -6.676502398812506067e-02 -2.864762739403811653e-01
-2.851052722794747071e-02 -2.501034831875951769e-01 -1.050422009240628007e+00 7.356689345375699851e-01 4.871273793163310301e-02 6.755873651272353841e-01
6.396404234079131057e-02 -1.073494592228995889e-02 -1.040002135231758773e+00 4.030627055192785302e-01 -3.331096901455690706e-01 8.523956767549928371e-01
2.139453505747858017e-02 -1.857808826244210509e-01 -1.080734803345555495e+00 5.979225874819114189e-02 -4.991092567801473923e-01 8.644737333141812030e-01
-6.729458452407825406e-03 -2.663509947404791856e-01 -1.076675321743342684e+00 8.272234394359069265e-01 7.146330178557661061e-02 5.573099476464884461e-01
-5.135625177020047144e-02 -8.848248151412509144e-02 -9.230026762377809835e-01 -7.675131171161062582e-01 4.252462692150533186e-01 -4.796761674019218158e-01
2.087231208973756857e-02 -2.734831525332114266e-01 -1.056236533996496529e+00 6.398610121172391141e-01 3.698682724664448251e-01 -6.736284927131497291e-01
-1.163131142145214791e-01 -1.151715636250135733e-01 -9.370597361615782273e-01 8.787231427080086643e-01 -2.491831680178430708e-01 4.071282196629854577e-01
-1.513020926294039205e-02 1.443246943364066004e-01 -9.240050204757740415e-01 -6.060429212120031078e-02 -9.877691666727173025e-02 9.932624227817112850e-01
-1.262989511835349576e-01 -7.846330609787094401e-02 -9.093845822795801892e-01 9.782527473589314182e-01 -2.072779126581370535e-01 -7.578206172206604536e-03
-2.335101084854953810e-02 -5.527618576074937867e-02 -1.024119967159761613e+00 1.473126618870621851e-01 -4.642327054150768295e-01 8.733767657035230725e-01
-7.204874991661334993e-02 -1.144480582585497008e-01 -9.931800700022394013e-01 7.001903671403697516e-01 -2.558425188802787020e-01 6.665418631240114244e-01
1.156968862656442831e-01 -6.321411676674119906e-02 -1.065003670273316549e+00 -9.518380603378275850e-01 1.591175188851703670e-01 2.620799917508953025e-01
4.649502150685282803e-02 -2.292731970711421874e-01 -1.090851543213743335e+00 -2.116726043144957770e-01 3.247150669692193126e-01 9.218214761361844811e-01
-5.313012987347328492e-02 1.941549045833212694e-01 -8.880063221372215265e-01 9.119761953451399616e-01 2.665033373421534790e-01 -3.118900291918567658e-01
9.256393008599062000e-02 -1.263010462882611373e-01 -1.051402832224624495e+00 -6.659587587545715559e-01 2.852630625250158203e-01 -6.892923304352944758e-01
-3.796247883886685187e-02 6.811259846541768692e-02 -9.148582077815445857e-01 8.375125496139279591e-01 -3.733237188291203545e-01 3.990014162866766800e-01
4.097314751090511131e-02 4.840977780172853184e-02 -9.310198533595837045e-01 -5.491259631368670124e-01 1.522783813107653206e-01 -8.217493359865776226e-01
-2.165768250380446444e-02 -2.657448289955000043e-02 -9.200988526966985548e-01 -5.982744064988094745e-01 3.575011433746117517e-01 -7.171197020123923904e-01
2.970460209540915636e-02 2.815354745594292676e-02 -9.289294075432751319e-01 -6.955304875441151724e-01 2.872144742491501979e-01 -6.585933393820724291e-01
-3.672040051151409523e-02 -1.675203612413370680e-01 -9.849330792015051905e-01 6.354011626377704947e-02 -4.328224359893876882e-01 -8.992371169660414720e-01
8.399249872806149875e-02 -4.625186006817946088e-02 -1.062645602897617003e+00 1.741148181216396196e-01 -4.675223033903261882e-01 8.666642521432808000e-01
-2.857158370699351344e-02 -2.366715646343629520e-01 -1.051649706158508613e+00 7.093468490485129729e-01 5.477205887103418075e-02 7.027283040492777744e-01
-6.649583681787397949e-02 -1.054312369998621074e-01 -9.309002928821011880e-01 -6.721534222499180311e-01 6.522758751475786765e-01 3.503511947434800877e-01
-5.926544137244092042e-02 -1.098873370450280246e-01 -1.005242777374661500e+00 7.256260521912579753e-01 -2.579679487675380356e-01 6.379023199440481129e-01
8.624416833866423160e-02 3.576707810627959006e-02 -9.694280810361796119e-01 -7.572490318216099636e-01 -9.684672652249017022e-02 -6.459060422128845014e-01
-1.921254741765456020e-02 -4.384138227940283239e-02 -1.018469785990372856e+00 5.398409599547181192e-02 -4.335223460002095575e-01 8.995243703747144437e-01
-8.430790020621900527e-03 4.825995009318541362e-02 -9.646838763403937644e-01 1.400947238047269283e-01 -6.743164754934124483e-01 7.250315574098959992e-01
-5.913868445159994186e-02 2.402381943288303401e-01 -9.175312016793412129e-01 5.725660502340736979e-01 1.678943960342830777e-01 8.024833891736548042e-01
1.521300185053918799e-02 -2.110923581791043779e-01 -1.035019423988946086e+00 5.411206538475048511e-01 2.367007137607172185e-01 -8.069456054064708672e-01
-1.722510554911515362e-02 1.575873385503195612e-01 -9.228944309383164679e-01 -3.958940412473032494e-02 -1.026984174324579308e-01 9.939244006150151911e-01
4.150492586363241365e-02 -2.776711094847603145e-01 -1.055524655923998800e+00 -7.578690853174978592e-01 5.027901033375654638e-01 -4.157361681473231707e-01
1.073502248247003021e-01 2.705327731262323256e-03 -1.001283667047329073e+00 -5.914196585480979707e-01 5.571217723157257939e-01 -5.829563605405087001e-01
3.947895568029614888e-02 -4.438937509161887396e-02 -9.879255618499440672e-01 1.511150306432813006e-01 9.775002953677242035e-01 -1.471646019588016552e-01
1.022606939168888285e-01 -7.624610705491896567e-02 -1.078076397029258171e+00 -1.638184892398536763e-01 -2.589399718586097854e-01 9.518999913630812326e-01
5.642539488882820226e-02 -1.264350444198164281e-01 -1.082228719530628158e+00 1.349880459089666529e-01 -3.888680650812913475e-01 9.113505666984638154e-01
6.478661961016266013e-02 6.662341724627146577e-02 -9.547722705169644497e-01 -7.038950234873839751e-01 -4.622464306463365813e-01 -5.393144103993671168e-01
-4.578203294050731120e-02 -1.061139415379276224e-01 -1.025058750669013863e+00 7.741706932675409547e-01 -5.535274331499488998e-01 3.070295074354963960e-01
4.750138440716374089e-02 -1.894961113797887509e-01 -1.086530920340957662e+00 3.167662131637546397e-01 -1.768009250043879321e-01 9.318801420330232732e-01
-5.657386267245517047e-02 -1.246827390830323040e-01 -9.464372229459424579e-01 -5.914844062482889075e-01 2.414777362040290143e-01 -7.693079357987192557e-01
1.144721787976780564e-01 6.769739653440085339e-03 -1.026239119234896524e+00 -9.656612087207930850e-01 -2.494459171806286402e-01 7.263032681884276642e-02
9.606734537046332512e-02 -1.142470361173096860e-01 -1.050546116059348556e+00 -6.579495466459431841e-01 2.417862696425678859e-01 -7.131912744003036098e-01
-3.777305359640994314e-02 -9.898302044662658783e-02 -1.031159770007869181e+00 7.603803587435481459e-01 -3.096568719319891527e-01 5.709065875450455296e-01
-7.739385234561062255e-02 -1.978184975939388801e-01 -1.006654132211250330e+00 4.794774932369364473e-01 1.828625894024038245e-01 8.582905142644136065e-01
-5.650793177272941253e-02 -7.252404082839623845e-02 -9.065616792070487762e-01 -6.645761559486488279e-01 3.420880803962773054e-01 -6.643148938532894565e-01
-5.314299735093273164e-02 2.695180128019039056e-01 -8.902403120601040110e-01 3.045295620925262403e-01 -9.295903970143511996e-01 -2.076618395142328377e-01
1.136607356000421537e-01 1.003291043052370948e-02 -1.023261930333690062e+00 -9.291110396151162076e-01 -3.518363005594717374e-01 1.138590957014103261e-01
2.550704690034959546e-02 3.188764442869247012e-02 -9.997132565738340304e-01 2.914685925716268278e-01 -7.753544427416674267e-01 5.602424008097506292e-01
-3.216137370847337029e-02 -2.378638532029568320e-01 -1.048161944994708383e+00 5.888665603786167324e-01 1.046254753173718882e-01 8.014297748290056811e-01
6.543573510558424455e-02 -6.460890563509300022e-02 -1.022548730652799387e+00 -6.132809882152419068e-01 -4.464057625622283587e-01 -6.516197699924181075e-01
6.957021054500329982e-02 -1.477979647086584969e-01 -1.056096321633700041e+00 1.492618364695664501e-01 5.492534981502749103e-01 -8.222174280221857812e-01
5.642563636530616156e-02 2.894545111279387892e-02 -1.017454330526755601e+00 2.086038263233402912e-01 -7.592526265607080216e-01 6.164575351992446217e-01
2.758602142707587690e-02 -2.185448788407150511e-01 -1.030762711846594737e+00 1.147098101354810662e-01 1.326173927053371782e-01 -9.845071287759781242e-01
-5.932984723683697170e-02 -1.674299622146067090e-01 -1.021356753174388787e+00 5.149717901894188543e-01 7.087264383885387431e-02 8.542722772420957567e-01
2.843704717794044365e-02 -9.295728782858003747e-02 -1.059612226240842503e+00 3.600292200125821962e-01 -3.530439738922067638e-01 8.635617599428141444e-01
-2.899064923914640348e-03 -2.864964616140260323e-01 -1.033560475911784682e+00 6.487168461331234426e-02 7.662706512724607455e-01 -6.392346623376347070e-01
3.467788866293909644e-02 -1.484743512999331383e-01 -1.022586043013175461e+00 -5.788870392626239703e-01 6.461321714695396302e-04 -8.154074921700009693e-01
-1.729047571751767681e-02 7.629191924411621306e-02 -8.946896022692266692e-01 6.577871757295417066e-01 2.415906535573568437e-01 -7.134073083165618501e-01
-6.121833469443910096e-03 -2.508630321244409989e-01 -1.010349368546811011e+00 -2.035967754063140733e-01 1.067045776533135926e-01 -9.732227320361865885e-01
7.941076891790772863e-02 -9.874177628315372601e-02 -1.033608815622117039e+00 -5.205552604408671957e-01 2.378535231125614990e-01 -8.200292204368592186e-01
-2.239060150055201953e-02 7.937431072847694891e-02 -8.981505097970027274e-01 6.347422074054792640e-01 1.524065962525401607e-01 -7.575450874744912300e-01
1.050330918454356471e-01 -1.652040657054946668e-02 -1.005747751944191970e+00 -8.532492080734922490e-01 -3.085296746706582827e-01 -4.204464636188250948e-01
1.997010155009744381e-02 8.784020400635399184e-02 -9.034752796228275873e-01 -9.935623383063989511e-01 -9.165253324751568287e-02 6.658598237192218938e-02
-6.073938565135112572e-02 -5.065470091083879023e-02 -9.821094807796248993e-01 7.713406983245415516e-01 -5.830262950444445869e-01 2.551741883399593624e-01
-1.116423488632508655e-02 -2.014510463709424659e-01 -1.071159465730888050e+00 3.208329441018923367e-01 -1.389266112991680846e-01 9.368914657802374091e-01
-9.596660777556448307e-02 -6.698961944697685855e-02 -8.906456325192522172e-01 -6.287001093957151898e-01 7.691569374816281668e-01 1.146026961711569120e-01
1.072063676928281806e-01 -6.748137037872037336e-02 -1.032775026037771271e+00 -7.228583705308525564e-01 3.622944993898563615e-01 -5.884033241453806573e-01
3.308162397682579831e-02 7.898004797063526428e-02 -9.560502558712143939e-01 1.471020722720128848e-01 -8.693585855989479638e-01 4.717802772251889487e-01
-5.972245425488623832e-02 -1.024574308071212470e-01 -1.001702594200759577e+00 7.281771042460026822e-01 -2.591883288966711496e-01 6.344915405390819663e-01
-8.456468152773194413e-02 -2.256431961667736477e-02 -8.745288361475116456e-01 7.998898957197861370e-02 -5.384483837871896494e-02 -9.953403914878684589e-01
5.072362595576268562e-02 -1.823367511616783010e-01 -1.086208131946968969e+00 3.189977307793483985e-01 -1.905753535979227142e-01 9.283972653765484306e-01
-1.132405933872808468e-01 -2.535356201552808886e-02 -9.000831431630629265e-01 8.869688817180657603e-01 -3.621811063557636157e-01 2.865502557366140790e-01
8.405852506147698522e-02 -1.459145332088114533e-01 -1.052572636122567129e+00 -5.073119308825956297e-01 3.175905645891878293e-01 -8.011060092572600544e-01
-4.439024144661583154e-02 3.781655685608095556e-03 -9.619738071507586419e-01 6.521360544558073569e-01 -3.271564267363396006e-01 6.838766255136391470e-01
6.183136390392342252e-02 -1.379230614295322843e-01 -1.087863783458331124e+00 9.858787654230781461e-02 -3.523066782122759033e-01 9.306774065625051939e-01
9.370375807395561751e-02 -6.342531707844258071e-02 -1.073582434367895022e+00 1.484705916286943872e-01 -3.676728225740538147e-01 9.180267855361594620e-01
-9.267113612902451447e-03 -1.255641757717217144e-01 -1.055133546341685546e+00 3.448194209221579487e-01 -2.400392769087845157e-01 9.074583805861377028e-01
4.669229134741405100e-03 -2.475060607470215002e-01 -1.014435303968090896e+00 -4.859210341100927977e-01 7.744954598232629828e-02 -8.705643666246106749e-01
8.192631232213698489e-02 -9.971005979964414623e-02 -1.082101582876321633e+00 2.899871438413737512e-01 -1.262311152280328752e-01 9.486691530533757355e-01
-6.087218955472543935e-02 -1.615111129121235001e-01 -9.540157999076794848e-01 -6.446483836596308414e-01 2.245031544921747557e-01 -7.307713699017552855e-01
9.076990581377385181e-02 -1.089422530726741195e-01 -1.085357878037346513e+00 1.238473609667326419e-01 9.741741362631587894e-03 9.922534603904384909e-01
4.145439373679728895e-02 3.184342949154734398e-02 -1.007531292752408270e+00 2.968112008379324984e-01 -7.178370144355687987e-01 6.297722856424958771e-01
1.028924401389168380e-01 1.821136361414953456e-02 -1.035966680755321168e+00 -4.293739811455443700e-01 -5.473077319183710099e-01 7.183955949876044134e-01
-2.857694527207093119e-02 -5.503482206730187648e-02 -1.022026230000039781e+00 4.591596368062526023e-01 -4.059827546208674143e-01 7.901584846588707300e-01
-1.166034473600014304e-01 -3.725959024630513816e-02 -9.038824871371460290e-01 8.967593143172251091e-01 -2.997228765470290601e-01 3.255594100309106564e-01
5.814535732826281444e-03 4.304700700421856818e-02 -8.939217531554488616e-01 -9.024042538185945983e-02 3.135105756452090109e-01 -9.452871439861596503e-01
-3.032980598140821646e-02 9.655421729155296007e-02 -8.990480559320362941e-01 8.607530888922771961e-01 2.716842819431135592e-01 -4.304553065156224156e-01
2.403833964744674090e-02 2.563838090843954115e-02 -9.157704891625173538e-01 -9.561871236774592830e-01 1.510775065383256621e-01 -2.507623806147748491e-01
7.616240962244108514e-02 -1.286446441062777390e-01 -1.086872408952027191e+00 1.247886241626209869e-01 -2.528378931213069447e-01 9.594273287131123151e-01
-1.905206928110159473e-02 -2.302783627900560626e-02 -9.205045610903896947e-01 -5.982744064988094745e-01 3.575011433746117517e-01 -7.171197020123923904e-01
-4.999429731509924535e-02 -2.172462406867021467e-01 -9.827588735954612131e-01 -3.223985108862745252e-01 4.180776467091545934e-01 -8.492763281173260070e-01
-1.355725924311507527e-02 -2.140450126636074535e-01 -9.983812687061833779e-01 -5.188166526141758661e-01 2.175241888843353344e-01 -8.267481528376303679e-01
1.106777347472011862e-02 -2.209241356336284212e-01 -1.024239388503878301e+00 -9.636484651677692526e-01 -2.439367790004361158e-01 -1.089792798227948167e-01
6.749897362228007847e-02 -2.078728324117686543e-01 -1.058311807851466835e+00 -8.354876244853950418e-01 2.393896221897006127e-01 -4.946241382298522393e-01
-7.464045496032354829e-03 -1.091746591783345072e-01 -9.868680396723488180e-01 -9.176666292951844994e-01 2.346958382065839899e-01 -3.206334683193932111e-01
-1.596631154104117753e-02 2.178171025505589997e-01 -8.829593746358802564e-01 -8.218576490015515601e-01 -2.704189872093181735e-01 -5.014215553148160254e-01
6.818345377898381819e-03 -6.018713297177802346e-02 -1.036605564049477124e+00 3.957706909221934133e-01 -3.317428708306017771e-01 8.563365155475038959e-01
-3.682985658198168442e-03 -2.959479267367336464e-01 -1.049193199875692262e+00 3.393477713877293134e-01 8.500705157012881097e-01 -4.027694233547619018e-01
-5.122544001161689897e-02 -1.280040578837939313e-01 -1.026336598021105662e+00 5.437445204084979666e-01 -2.867085404019426367e-02 8.387609186498488079e-01
-1.948671193462178999e-02 -2.598001025233128702e-01 -1.060090083903300506e+00 7.453245427605307283e-01 7.520917695326068651e-03 6.666594046106496529e-01
-5.578128353671114870e-02 -7.130950317641827907e-02 -9.952621529912125675e-01 6.635315398673882203e-01 -1.885680777768666549e-01 7.239944582969887188e-01
-4.151399057514280205e-02 -2.016790251163027292e-01 -1.041645141393019891e+00 9.235271052829117089e-01 -3.115495289239739729e-01 2.236841005414013928e-01
-7.790660230637141970e-02 -4.634630821788113947e-02 -9.555380999496307926e-01 6.905371240703362945e-01 -3.383445088644330689e-01 6.392819984967154090e-01
-4.565022283425802796e-02 -1.013645446669609734e-01 -9.478311146247236918e-01 -5.379217449606557011e-01 2.100488431267066858e-01 -8.164065652599905576e-01
3.486191905350445597e-02 -2.831731758427576406e-01 -1.053679376440145088e+00 -3.313080908396726643e-01 6.371962847244139194e-01 -6.958561946821877342e-01
5.357141777416575545e-02 -1.201470166200005879e-01 -1.079077260583479525e+00 1.811763748141415054e-01 -3.875924762171229498e-01 9.038513116597688413e-01
-1.231718586792508729e-01 -9.992048354426522061e-02 -9.173996440167386801e-01 8.175628978441712436e-01 1.422648610739179476e-01 5.579889043451132791e-01
