-1.484973201764495064e-02 -1.404743988368195307e-01 -7.747732434506172661e-01 -9.813729148568249572e-02 -3.069735715375946361e-01 -9.466447582896699853e-01
5.390631912541578308e-02 -2.510684299196218050e-01 -8.399987811018484463e-01 -8.459337754441816903e-01 2.357605517512258997e-01 -4.783440287081155429e-01
6.883211058300660497e-03 -2.768474735002339204e-01 -8.048788375563742381e-01 -3.530335974372389996e-01 5.984361849413434298e-01 -7.191949746997484683e-01
-9.679409625662124816e-02 -3.627964511256663582e-02 -6.825603344457206179e-01 8.792566814035417400e-01 -3.275165739679751775e-01 3.458909972570991531e-01
8.729196382149746747e-02 2.546204310050887570e-02 -7.873038588872264265e-01 -8.395133165136001718e-01 9.127453212264308169e-02 -5.356177285920703524e-01
2.385691592027404731e-02 3.555886913664808163e-03 -7.274969836222481279e-01 -9.824545483380776600e-01 4.573110238736056293e-02 1.808085360934613139e-01
6.400130834214164122e-02 -1.064938926861110080e-01 -8.824061807569406612e-01 4.450800303290313731e-01 -1.119330294664711012e-01 8.884676491109659846e-01
9.025962254927778761e-02 -8.636850762998919684e-02 -8.830854348186542024e-01 -6.698265428351772854e-01 3.556743335147115048e-01 6.517884403641570623e-01
-5.889183699366092040e-02 -1.931699709937078138e-02 -6.520847994620784238e-01 -2.545414677420501093e-01 -5.281217300111396007e-02 -9.656187216404947815e-01
3.789506873173515041e-03 1.459282600743490865e-01 -6.806297461848984653e-01 -9.193301274732216255e-01 -2.435052243555577700e-01 -3.090911231847648932e-01
-7.303561705370507917e-02 -1.818088081040899473e-01 -7.745746669702102682e-01 9.867811636166916589e-01 -9.787765659963267029e-02 1.291622989492383355e-01
7.509172337101442662e-02 -5.424580023974275023e-02 -8.162998998697571507e-01 5.371098203893725359e-02 9.241518927548224571e-01 -3.782306300738905169e-01
-6.398208846576539099e-02 -2.099122915350496998e-01 -7.812754725272142986e-01 7.000839539912824261e-01 2.660212947767585656e-01 6.626576250894792297e-01
-3.319316479993773134e-02 -1.146914621823159758e-01 -8.278555628465386063e-01 6.431834703623774407e-01 -1.913671870590350210e-01 7.414132607188255175e-01
5.485099455814615443e-02 2.595301284396900332e-02 -7.546248823073793410e-01 -3.121518175771559322e-01 8.004347205299768842e-01 -5.117279560014049711e-01
-1.523723760310622018e-02 -1.124351111049004953e-01 -8.383540543232517184e-01 6.606077875368654428e-01 -5.182371747619267388e-02 7.489403536681645823e-01
-4.256251092503438721e-02 -2.541983159666761846e-02 -6.821189383820821517e-01 -8.443114187839335649e-01 5.187288515941789191e-01 -1.343823151863573762e-01
2.127763328394847997e-02 -2.958719945817780972e-01 -8.753174931461884523e-01 -3.625549367881190088e-01 1.954358804524013171e-01 9.112402177485132704e-01
2.750744470737381819e-02 -1.273063924434570116e-01 -8.110989835609392351e-01 -7.454243753656130123e-01 -4.368493420521171178e-01 -5.034929522440386718e-01
4.334223450759675661e-02 -2.346713497433329521e-01 -8.803358360004278627e-01 -1.968066277071630898e-01 2.778171213222424552e-01 9.402578361230267134e-01
6.781420239864348332e-02 -2.463096238558073678e-02 -8.566152611536120842e-01 4.108876942692823997e-01 -3.258018525677410238e-01 8.514836789754108848e-01
-2.839678645029133225e-02 -1.634889626923366757e-01 -7.670822232020759746e-01 8.290722546569281870e-02 -2.921081069969239108e-01 -9.527849945251314345e-01
-2.155477654542093183e-02 -2.542844219777812831e-01 -7.853826801229104593e-01 -1.647139493529171106e-01 7.911379884353020309e-01 -5.890415928804250134e-01
-6.534614260693759336e-02 -7.082522733564854123e-02 -7.623547582309093684e-01 7.586293941432343813e-01 -7.426065546668499107e-02 6.472764458803731413e-01
8.819677882678952918e-02 -8.145475466749031723e-02 -8.838780281819339502e-01 -3.225295173372914048e-01 -1.985483343781100918e-01 9.255016312043172766e-01
-2.787185519391370547e-02 -1.904248274791544571e-01 -7.603579630083445728e-01 -5.100431020667751669e-01 -8.853870079820211347e-02 -8.555798808381761544e-01
2.205104405592522160e-02 -2.677761223874400853e-01 -8.341466481537158639e-01 -9.375420831050759185e-01 -4.889202680897630771e-02 3.444189485517676341e-01
7.214849377203971792e-02 -1.593991067285527030e-01 -8.851564831694153090e-01 -6.720953911533440461e-01 2.306467243950620916e-01 7.036262315436099257e-01
-1.040633683510270163e-01 -1.222986750955406821e-01 -6.838856869557163876e-01 8.524388988913389475e-01 3.279704280182444420e-01 -4.071649813066579027e-01
-5.407184951545064566e-02 -1.068115181066414815e-01 -7.857259518840448154e-01 8.660559603763835490e-01 -1.657563302796438154e-01 4.716692829396096354e-01
-9.235104735545869581e-02 -6.538689543879377952e-02 -6.563427334597354834e-01 4.402976957071200736e-01 1.207748170647486158e-01 -8.896917346575590191e-01
-4.256392312883737483e-02 5.743776085058246300e-02 -6.834890883147496377e-01 7.126256627900356966e-01 -6.308996262558171919e-01 -3.068066595159442134e-01
-6.322659369907876470e-02 2.184267508869414953e-01 -6.639118604810446689e-01 6.106069285434025939e-01 2.539809370620176865e-01 -7.501019013600027652e-01
8.405144212506222845e-02 2.308051198983981402e-03 -8.577125593110241919e-01 8.232014218441602305e-02 -4.981379300381668651e-01 8.631813232734059094e-01
-1.907078228638090997e-02 9.454538807607493212e-02 -6.756858548393177566e-01 5.595586131311121036e-01 2.944278815729211018e-01 -7.747298761654080046e-01
-3.201198182637179229e-02 1.500616717061092342e-01 -6.644976879365459554e-01 4.067693679069221413e-01 2.329273790715874759e-01 -8.833365821766040460e-01
-7.831720687729781458e-03 1.369642327619611522e-01 -7.125214184028485498e-01 -3.420263583293177145e-01 -2.330563136671851832e-01 9.103311072724298292e-01
-5.034545953654648992e-02 1.606149709400280234e-01 -6.776458428500898856e-01 8.466615435925722855e-01 3.180705529815679444e-01 -4.266091348382526349e-01
-9.725161062455087158e-02 -1.406245723993269636e-01 -6.900615217369392429e-01 3.277149895942589319e-01 6.239606241025550393e-01 -7.094194987204571756e-01
5.514577904586189655e-02 -7.806912365737433968e-02 -8.740825575966497674e-01 6.502557535208799422e-01 9.533050169005442180e-04 7.597147795209314713e-01
7.650422604810039329e-03 -1.772319675705271991e-01 -8.159769352461823111e-01 -4.932921727126475808e-01 5.487285595279121075e-01 -6.749517021971705999e-01
1.297405358917245490e-02 6.348001924744779700e-02 -6.814656748781307005e-01 -5.338420158400726256e-01 1.044523051705443378e-01 -8.391081086894387475e-01
3.912767800858105161e-02 -2.012707998715130009e-01 -8.835212592805323784e-01 2.523565446287368008e-01 -3.662743549530927401e-01 8.956334469450881741e-01
-4.696157676783706963e-02 5.048631551417519236e-02 -6.911304623518941259e-01 8.058952271172147297e-01 -5.202420975855596152e-01 2.826323456532707779e-01
3.749008535232300717e-04 -1.689248611372427267e-01 -8.546911535419908779e-01 3.489406239939761845e-01 -2.419472555083998777e-01 9.053739373754070563e-01
-9.798035774952834620e-02 -7.595954831438685162e-02 -7.018261666566719681e-01 8.065531456839606372e-01 -5.105394639841842608e-02 5.889528994278363516e-01
3.268903440514702580e-02 -4.892899923989219718e-02 -7.966542435466779093e-01 -5.883789419596513470e-01 1.102219250734002703e-01 -8.010376694585310542e-01
-2.730712978455376860e-02 -1.955818158798405537e-01 -8.373948029852908981e-01 8.195256250238442952e-01 1.222858430649099715e-01 5.598427658862635825e-01
3.519386156572214264e-02 -1.066178998174976411e-01 -8.047211574610833029e-01 -6.401580810885542094e-01 2.765837304720532019e-01 -7.167280315818423952e-01
1.176358587837001736e-02 -3.590689192176751282e-02 -7.336674092908432865e-01 -1.861687265860152984e-01 5.950445771501143843e-01 -7.818332024451142281e-01
2.383440628636003880e-02 -2.530259791184639659e-02 -8.289975422355476686e-01 5.303796467636987533e-01 -4.736618288038833557e-01 7.030945187049707501e-01
-6.379237090888151274e-02 -1.349917410661477524e-01 -7.006869854030776112e-01 -7.549482704549662637e-01 4.607521025671372783e-01 4.666482710961409319e-01
7.334731407733788289e-03 -1.174072724602884810e-01 -7.966808056760598111e-01 -1.796878477180356981e-01 -6.463815552022961208e-01 -7.415545579906585028e-01
-8.436051386960485539e-04 1.444253345189163706e-01 -7.051618841808233729e-01 -7.270353908943743004e-01 -3.406159613141972464e-01 5.961546001542465945e-01
-2.088044285179978254e-02 -5.930570250093573914e-02 -7.151300776984788055e-01 -8.459821604265517214e-01 3.970844348263660728e-01 -3.558625238187488882e-01
4.743872389624335939e-02 -2.676958650950668206e-01 -8.667070768859160834e-01 -7.856812340107214299e-01 3.933798109848568592e-01 4.774487646155430864e-01
-6.467249489392885853e-02 -1.437361970754583718e-01 -7.852697729390255565e-01 9.389789862852108149e-01 -3.432656320241238568e-01 -2.207190942978060760e-02
-2.340857168960410253e-02 -6.880243163945422291e-02 -7.240387783564035118e-01 -7.537259846262894802e-01 6.386881436152533897e-01 1.548373188363582065e-01
-6.467175137952853314e-02 -1.306567557959326109e-01 -7.055636792728258166e-01 -7.475503665023159883e-01 4.034747364589822416e-01 5.276140507810683777e-01
3.701753647262681288e-03 -5.176851880799903174e-03 -8.002347165735290702e-01 5.744056367115654149e-01 -4.168688146357606428e-01 7.044704081067970636e-01
6.704750194140286952e-03 -6.664486784632546457e-02 -7.570354135282100216e-01 -3.621081914343974306e-01 6.195005373578230667e-01 -6.964888670391496950e-01
-3.499291466533680645e-02 -7.463410437559808708e-02 -6.959137895382667693e-01 -8.412636656121001977e-01 2.773608496230086096e-01 -4.640543114952122572e-01
-6.056016122057816115e-02 1.895994617717594033e-01 -6.903277898149760006e-01 9.201599924958312471e-01 3.318260540528451541e-01 2.078390195843649868e-01
-3.719219011521433804e-02 2.477684881576533715e-01 -6.713832674072398587e-01 -7.289029186969642193e-01 -4.120270471016500569e-01 -5.467487975036997572e-01
-4.952915361716155734e-03 -2.573722932906227223e-01 -7.946295394462277173e-01 2.731118323083400745e-01 -4.501249689133927229e-02 -9.609286145061913809e-01
8.722873584700222005e-02 -7.820801245626582063e-03 -7.988572039536384617e-01 -7.840066757848240808e-01 5.781333152158816407e-02 -6.180543269189247013e-01
-8.139558255536154252e-02 -7.048713189034699900e-02 -7.261325288582820559e-01 8.420926874744584234e-01 -2.208182265796687638e-01 4.920561111420670986e-01
4.832618236498828490e-02 -1.979071085164043897e-01 -8.312509034904920213e-01 -3.554247637254194792e-01 6.446401279043310062e-01 -6.768399684018503448e-01
1.116406935294410492e-02 7.641135134630915211e-03 -7.029514445818749735e-01 -6.076414963038508088e-02 5.395555156909765948e-01 -8.397544662620975986e-01
-7.145507107293275206e-02 -1.239856311389520849e-01 -7.632637067896539396e-01 8.281754768105658027e-01 -1.344086359034153688e-01 5.441136813242019032e-01
-8.940546923405948143e-02 -5.266296502599607937e-02 -6.536517718891844408e-01 3.550200521016236288e-01 6.903854215138974237e-02 -9.323059810509485290e-01
1.723004974188419025e-02 -1.293251321040638224e-01 -8.004983943032294436e-01 -7.049127761145637105e-01 -7.668631843086004540e-02 -7.051362894050907659e-01
-3.021202081253826152e-02 -1.362867549546822009e-02 -6.736967998967217097e-01 -8.381094055319369129e-01 5.368018780246500699e-01 -9.703797250619060344e-02
-6.263280068411300472e-02 -2.227062070838538299e-01 -7.774008838313528624e-01 8.381773070208253795e-01 3.446284712779774662e-01 4.227174219025298108e-01
-4.925775126698279244e-02 -1.365554094981221989e-01 -7.200027329866490744e-01 -7.293320441402801890e-01 1.635531299065331179e-01 -6.643230713199244075e-01
7.170607787435666347e-02 -1.738277386054923324e-01 -8.743913711201234396e-01 -8.676990891276498141e-01 -9.513575736650820014e-02 4.879010948925486257e-01
-1.004561707098119115e-02 1.284201256087901498e-02 -7.783534692336201433e-01 6.102812770238393858e-01 -3.534779770632758278e-01 7.089499859971831741e-01
2.680453572385934832e-02 -1.094929608664963194e-01 -8.636436627411675504e-01 4.465033797766171375e-01 -3.479836065939018730e-01 8.243434608159142529e-01
-3.527683816367360031e-02 6.359351533598271711e-02 -7.066352105970501452e-01 9.068411368274809092e-01 -2.393838082406546663e-01 3.468926994181969481e-01
4.315842294801416901e-02 5.978452601339229178e-02 -7.331242645910746036e-01 -7.024881919109471351e-01 -1.022191433149117895e-01 -7.043163969166512661e-01
-2.046253595625703321e-03 -2.876646019134767585e-01 -8.171092950768458207e-01 1.731515685787008707e-01 8.225513156229387057e-01 -5.416898258835106672e-01
-3.680390221071716539e-02 1.670584460656932557e-01 -6.623194119709322480e-01 3.988583508312784631e-01 2.110204910734434502e-01 -8.924025819770332602e-01
-5.653677162517225380e-02 2.530778092536169477e-01 -7.019869626644295035e-01 -1.625989929820501056e-01 -2.905792041075855869e-01 9.429344057894087916e-01
-6.699205104196614968e-02 -1.851101866863495427e-01 -7.207032175709866539e-01 -2.735647093757970216e-01 4.167068282270975921e-01 -8.669012452944383496e-01
9.856331652602158544e-02 -5.422680875396105465e-02 -8.724713026363922763e-01 -8.563851293001180087e-01 5.839885319835744215e-02 5.130244480127011952e-01
6.191614461495203309e-02 -6.201190728760087867e-02 -8.270579577522241266e-01 -7.558854877978179454e-01 -3.139671711243866709e-02 -6.539505910167954239e-01
1.373485103176781685e-02 -1.237785593684634228e-01 -7.975088845805688997e-01 -7.136203538875678376e-01 -6.983631215384990265e-02 -6.970429542159740643e-01
9.686424830507427142e-02 3.354557848118589446e-03 -8.219117359435311743e-01 -5.430970427852674920e-01 7.765559301763690359e-01 -3.193845478820339090e-01
-3.228706909853555629e-02 -1.758899402598005923e-01 -8.355753160531342871e-01 9.315144386574403246e-01 6.606793857880775833e-02 3.576532930991420667e-01
4.949436445900526338e-02 -1.057341309872227852e-01 -8.749422847546122206e-01 4.526436406079605290e-01 -1.658929670532238998e-01 8.761239969886963630e-01
2.875016507210280403e-02 -1.205319432588495138e-01 -8.708843271081783133e-01 1.766312099592662055e-01 -5.274370383419643149e-01 8.310304364181753112e-01
-3.226195539900553189e-02 1.058739727234026540e-01 -6.839137350450832376e-01 8.109157383599187030e-01 2.827692858431151146e-01 -5.123057644258579568e-01
4.651438347484714020e-02 7.977151183672583079e-02 -7.627357828013872076e-01 -2.527477404210838330e-01 -9.673827193124731050e-01 1.700747152404846405e-02
8.958121702715300672e-02 -9.135110199968758671e-02 -8.653575104572833743e-01 -9.155017315869813377e-01 -3.943435101205174376e-01 -7.968547852067085768e-02
-3.553906389649055808e-02 -8.179365008913950380e-03 -6.650852306270110814e-01 -7.032393095046731712e-01 1.709140480008578822e-01 -6.901035152521332039e-01
-2.861075215637557539e-02 1.792974614675352241e-01 -7.091395457693412396e-01 -6.180123075695331814e-02 -1.308567962987739752e-01 9.894731460425528757e-01
3.062379130904198735e-02 -6.245940565589981619e-02 -8.510887786978457159e-01 6.095530220625675621e-01 -1.983970210705974513e-01 7.675179055401274431e-01
-7.170390358665407193e-02 -5.460496854412320161e-02 -7.339767175098290686e-01 8.227377584911668151e-01 -2.801981833721852166e-01 4.945619868002975594e-01
-2.752279879405224693e-03 -4.060523255699096529e-02 -7.390330038328453144e-01 4.706788992760004703e-02 6.719489981168111914e-01 -7.391002351965375583e-01
4.911421154464816474e-02 -8.019715747784846027e-02 -8.700358974645610033e-01 5.986272535000972672e-01 -1.360384126037268715e-01 7.893915135490047197e-01
-5.865712635205233560e-02 -1.370915348674708600e-01 -7.141494969802283377e-01 4.165331359820090285e-02 -1.810823034949443633e-01 -9.825854674415120948e-01
-5.447807424250544067e-02 -2.596688719003763940e-02 -7.447487289902756658e-01 8.252641540384727525e-01 -3.074310555942111889e-01 4.737353925087220974e-01
5.175457979815847875e-02 1.469618607247780324e-02 -7.706660859815056552e-01 -6.784760648937493421e-01 -4.009500566394993415e-01 -6.155560749818614896e-01
6.719448043920718538e-02 5.020285032873209735e-02 -8.193868148002815266e-01 2.639811172329091793e-01 -6.704656359135620081e-01 6.933900783855273531e-01
-6.467409331670075090e-02 2.446208226092612681e-01 -7.044936211779444513e-01 -3.274249044615053922e-02 -1.045419289551674374e-01 9.939813451014644086e-01
4.373997188313746669e-03 -1.447721393421670666e-01 -8.546121596074033322e-01 5.288117925664488350e-01 -1.369479329157185718e-02 8.486286235329093541e-01
6.556927467425967271e-02 1.192480020321202983e-02 -7.837728480054407809e-01 -7.407145442072190500e-01 -3.503082131357822537e-01 -5.732592082204236439e-01
1.481046463606359997e-02 -9.901322531165809848e-04 -8.075142633257832436e-01 6.329071980259662888e-01 -3.555277387912409992e-01 6.877706780874766057e-01
5.045925060891846142e-02 7.753569888471886773e-02 -7.584354449144257160e-01 -5.142905810750137974e-01 -8.375842094048309150e-01 -1.842766680109257371e-01
4.521299018621722371e-02 -5.971245894850577690e-02 -8.648208205462502018e-01 6.453533573746196295e-01 -2.006896345823341588e-01 7.370500082738724590e-01
-6.986900217206996888e-02 -3.079254492301197743e-02 -6.494086425093525961e-01 -1.056537542139286343e-02 -3.499022580839113161e-02 -9.993318052279147601e-01
-7.770956303793494571e-03 -6.366709873342139836e-02 -8.222389446292918125e-01 5.437030792158024095e-01 -3.042233565147472452e-01 7.821988947845402995e-01
-7.161368330507589253e-02 -1.343452207500437368e-01 -6.874780662477784077e-01 -4.000953871009387819e-01 4.676949191897983860e-01 -7.881529951631204289e-01
-3.606699206129980462e-02 7.444597080671779867e-03 -7.607209215011030423e-01 9.108628542732084554e-01 -2.405332696438350348e-01 3.353693589159719712e-01
-2.080482630796766721e-02 3.355539046754566629e-02 -6.740274290769556753e-01 -5.838586826427853982e-01 -8.749130469488303197e-03 -8.118081617098089620e-01
-1.116781081926227631e-02 7.002169975903727028e-02 -7.376295191869121082e-01 2.415974950760228501e-01 -4.867147129262974770e-01 8.394876047888158999e-01
6.795407936273423211e-02 -6.085048963862473015e-02 -8.316788022210912512e-01 -2.812442435057520562e-01 6.311182902780384518e-01 -7.229048202712462512e-01
-5.310399066487290869e-03 -2.375558743234356118e-01 -7.982269620516956321e-01 -2.212283624673001912e-03 -2.869647020935648940e-01 -9.579386021836240328e-01
3.978592200561844455e-02 -1.439934997182238940e-01 -8.211292628986871511e-01 -7.346674630920505544e-01 -1.045555728071232010e-01 -6.703221992958796616e-01
-2.622878967073537237e-02 9.192898332792494298e-02 -7.222703593656814025e-01 6.118353516259450453e-01 -2.153080461574085613e-01 7.611175650059820441e-01
8.071152202136355758e-02 -8.136503710570862358e-02 -8.448337335310796004e-01 -8.525506407365036621e-01 -4.629428726398434057e-01 -2.425722606807029780e-01
5.850394079929350372e-02 3.691205875352166627e-02 -8.237201891445523616e-01 5.474641317189261613e-01 -4.779323981518662223e-01 6.869233197949013991e-01
2.761076613190198079e-02 1.715463431086193622e-03 -8.179286026014729316e-01 6.387247592228572080e-01 -3.113599159824352314e-01 7.036232547856232644e-01
-9.145262013087485445e-03 -1.194678270016990285e-01 -7.859749498301344950e-01 -7.508045048067348848e-01 -5.834691196070206365e-01 -3.096068184438481863e-01
2.803999364970399550e-03 -3.036791789411137366e-01 -8.479145035672179809e-01 4.970701471009464356e-01 8.380816680235922966e-01 -2.248118915534420836e-01
2.390365657377447467e-02 -2.232637276327252007e-01 -8.231939373269540061e-01 4.880066289705746740e-01 2.741992284974184013e-01 -8.286521062377121272e-01
-4.639668563744391017e-02 -5.622090907840642665e-02 -6.743608940262183493e-01 -4.753719444019607887e-01 -1.154552614193023186e-01 -8.721763566424509673e-01
2.006218646774238223e-02 -1.903883946909440406e-02 -7.296166678378867010e-01 -9.392779787006163561e-01 2.896135339644829165e-01 -1.840675953900842432e-01
-6.347587435758240970e-02 7.322084027011842820e-03 -7.073003737672549640e-01 7.985546122908399047e-01 -4.224067190100766478e-01 4.288159219573924874e-01
7.746563118614928356e-02 3.074395661038917607e-02 -8.378789550944615305e-01 1.435916007985607867e-01 -5.543733832798847239e-01 8.197875359450892407e-01
-4.977187857433375273e-02 -5.137825226757013891e-02 -6.750710365807620628e-01 -2.211311880455821277e-02 -2.361334655789527059e-01 -9.714689889082456231e-01
-4.766477410907141860e-02 -1.332812720115450766e-01 -8.084129247481698366e-01 7.164561809464929931e-01 7.489449224636359446e-04 6.976316935640677341e-01
6.263982506795488792e-02 -2.035152977528628393e-01 -8.488421994740685816e-01 -8.714123878126710521e-01 1.119369779358669187e-01 -4.776092161351204735e-01
-2.414926966739614281e-02 -5.511624890309155950e-03 -6.792565315246628099e-01 -8.276365475304490182e-01 5.282636365166920589e-01 -1.896187636444214841e-01
2.642560375354444449e-02 -2.420539454505018506e-01 -8.749463047452343822e-01 4.657268968496726669e-01 -3.723222321115760014e-02 8.841449084316037599e-01
4.290968970847018268e-03 -2.891213399232950843e-01 -8.690201441014381301e-01 6.812482584553944953e-01 -1.525612911178125981e-03 7.320508745003567741e-01
5.425431698916752948e-02 -1.892598059208616124e-01 -8.348972783732642178e-01 -7.723350372792978646e-01 1.583603068301298739e-02 -6.350179606302427393e-01
2.671648361619118062e-02 -5.569310244385961700e-02 -7.831254676498652367e-01 -7.039907534224902896e-01 -4.032968154803132088e-01 -5.845927622876225804e-01
4.786726884840360532e-03 -1.583545553734208855e-01 -7.884354621190486911e-01 -7.357709094068901612e-01 -8.879295512717232108e-02 -6.713843757419006852e-01
-6.734748425060031740e-02 -6.301144627692388533e-02 -7.487103464496783767e-01 8.567720100328355404e-01 -4.311974724084030042e-01 2.828612073312625763e-01
-2.307470093966133753e-03 -1.239719954643417853e-02 -7.995423039366714724e-01 5.759387858408070437e-01 -4.054882501586781207e-01 7.098406820882207091e-01
7.099173359826566054e-02 -3.064163905585419803e-02 -8.605689168366857933e-01 3.773450192462196595e-01 -3.755381088756800101e-01 8.465115859999484682e-01
-2.367093820264211043e-02 -2.267807295591389438e-01 -7.694387993856413033e-01 -5.139892465568285385e-01 2.525463888735202111e-01 -8.197776380768680982e-01
-7.106182954178638829e-03 -1.266771381685181386e-01 -8.458693055494964641e-01 6.150836741813772157e-01 -5.209876744826050926e-02 7.867387064241273542e-01
4.329119141627379291e-02 -3.265770152259601933e-02 -8.470267837806085831e-01 4.816281947699773691e-01 -4.339234293726049185e-01 7.614097053782087343e-01
2.543448939514308602e-02 -2.685649550575067157e-01 -8.766086792210785461e-01 1.648455386445575599e-01 -9.925008430217993616e-02 9.813130841658007641e-01
9.407198244390591046e-02 -8.948225483822484436e-03 -8.346022595325084392e-01 -8.647935373048403207e-01 -4.867389526603003169e-01 -1.233585416537320706e-01
1.578700167175462604e-02 1.813999492525561474e-02 -8.000369261802279253e-01 6.920858241299719937e-01 -1.762728909820216183e-01 6.999607702887197247e-01
-2.422506616201482860e-02 -1.242463651258249868e-01 -8.346095129666227797e-01 3.240323628593879679e-01 -2.463709521566824490e-01 9.134026394494224599e-01
2.070510449062576419e-02 -3.615991170323541032e-02 -7.618456187852759021e-01 -2.487929942543817552e-01 6.689983232501092170e-01 -7.003879564202125652e-01
-7.012463628488925516e-02 -1.926364481334479350e-01 -7.245001085515971884e-01 -6.492016031077325888e-02 5.610511534631940078e-01 -8.252314681244548034e-01
-5.628866088251417189e-03 1.278827139294242132e-01 -6.689806270029154955e-01 -4.885250696404161430e-01 6.737196548476841185e-02 -8.699449836624990606e-01
1.881700866453302895e-02 -6.322550015504262155e-02 -8.419514019752007972e-01 6.013881693979984400e-01 -2.262469266699863868e-01 7.662536119852945138e-01
-2.440164011623695371e-03 -1.419548079759416770e-01 -7.820116990873657858e-01 -6.304306380931991027e-01 -4.688927384661533554e-02 -7.748281141979418418e-01
-4.174400738583827764e-02 1.422174562344660498e-01 -6.753627951849968669e-01 7.409111776319428078e-01 3.089098906437962588e-01 -5.963432789279053958e-01
-5.155845916159731979e-02 1.740803439368479866e-01 -6.711448208762287315e-01 7.197353724354202953e-01 3.017007359075352668e-01 -6.252660710594316607e-01
2.055716952780848109e-02 -1.280367602271278160e-01 -8.038870196773552079e-01 -6.976830926737732641e-01 -6.788281375913417237e-02 -7.131831642665873439e-01
-3.922188243234840666e-02 3.869803183115275852e-02 -7.220095807287892908e-01 8.442254497736825236e-01 -4.131086863203771720e-01 3.415034454307537271e-01
-4.963608701196047662e-02 2.217432943328308259e-01 -6.585522996045040101e-01 1.774640983547389611e-02 5.503010198053803065e-02 -9.983269769038415342e-01
4.105419531044581655e-02 -2.251179417614325440e-01 -8.246591827367888428e-01 -6.089643182316943903e-01 -2.955517089091642610e-02 -7.926468009108574853e-01
-6.415603682282171316e-02 -1.314862466782283357e-01 -7.146911547497816208e-01 -3.829093837024306612e-01 -1.414999837623833259e-02 -9.236775310781232262e-01
-7.303382375027249462e-02 -1.307856912197045141e-01 -6.846905684355465427e-01 -3.766342378101835697e-01 4.303109167809764934e-01 -8.203530738701828584e-01
-4.272726734945635207e-02 -7.995464375853676697e-02 -7.974942633855595098e-01 9.285090735575107779e-01 -1.369625700190861273e-01 3.451262880963139601e-01
-2.569401397535222772e-02 1.509033941306800186e-01 -6.627189622660947244e-01 9.700137776929236566e-02 1.513327636644164753e-01 -9.837119127836915222e-01
7.518093121746270702e-02 3.411755057328641483e-02 -7.696666388442849893e-01 -7.976367126845769207e-01 6.151582237016917781e-02 -5.999928984378596342e-01
9.239982888333976574e-02 -1.013008136803659059e-01 -8.734231479958088906e-01 -9.887322292452869199e-01 -8.413105812340190837e-02 1.238165736510340592e-01
-4.533958961239874935e-02 -1.130077573107487326e-01 -8.105929915890927040e-01 7.112616399891900087e-01 -8.346075996217691695e-02 6.979549992846414419e-01
-7.277312057065725426e-02 -1.079944434453072449e-01 -7.573109157978291650e-01 7.994840202042434729e-01 -1.384619349314349102e-01 5.845114147842657149e-01
2.920734336204598020e-02 1.488269923317382323e-02 -7.409233419446664692e-01 -7.599139691111498340e-01 -1.646232938351694375e-01 -6.288321959605739364e-01
-5.527891621529788801e-02 -7.358653034440310048e-02 -7.739174069138017309e-01 7.941509750085558039e-01 -1.103931013009109979e-01 5.976098995817648030e-01
3.368490491532418613e-02 -2.523740816670260248e-02 -8.362321443395835940e-01 5.194797979797748377e-01 -4.212419561351901653e-01 7.434352385260540874e-01
9.072235752344635917e-02 -1.041231916826549780e-01 -8.605212457678572679e-01 -9.407309291831976727e-01 2.899679605100424773e-02 -3.379119777351697329e-01
1.024356689737567633e-01 -5.416415532756001239e-02 -8.524558463326225022e-01 -9.736497112026009093e-01 1.833698540803320454e-01 -1.355792627566972941e-01
-4.917371192255882983e-02 -3.181858789641318214e-02 -7.578309762030933650e-01 8.383136081901568781e-01 -3.339391357713699660e-01 4.309465720057077953e-01
-3.471503280288008864e-02 -1.169849499379002344e-01 -8.267946848993867892e-01 7.461643359905308914e-01 -1.421845783580418243e-01 6.504016677199992991e-01
-4.176900346021391458e-02 1.339995686922629547e-01 -6.956605500427567312e-01 9.169030218090384876e-01 2.850574132273088201e-01 2.793405086298966777e-01
-1.029465613165097410e-01 -1.165362425628381216e-01 -6.965666988797843961e-01 9.458313319542246411e-01 -1.366681693501667072e-01 2.944909217279396696e-01
-5.668834096849401788e-02 1.767993697622216309e-01 -6.872056921726341638e-01 9.392761220522550802e-01 3.152299913801031028e-01 1.356112793132538685e-01
-7.166982129193440187e-02 -1.542199713571238140e-01 -7.121642887806406419e-01 4.108444672507936130e-02 4.638801477656653155e-02 -9.980782636258457297e-01
-1.481929989430760125e-02 -6.727450278087362956e-02 -8.188932228577587846e-01 5.308805314452572643e-01 -3.218437893078820444e-01 7.839530831729313309e-01
-5.503998865445010324e-03 -3.569989897555450598e-02 -7.273191633652542620e-01 -9.922191508705241469e-01 1.192156910477470549e-01 3.589952163725931150e-02
-1.626376505977094461e-02 -1.146584756926330578e-01 -7.514570323492215653e-01 -7.789146587827766588e-01 2.491678833098258938e-01 -5.755061426780880840e-01
-5.121303212018137214e-03 -1.961363720311291026e-01 -7.781568565516311375e-01 -6.210988792436562544e-01 4.177458153854065465e-02 -7.826180847255921336e-01
-1.715011779365582800e-02 -5.597221694893043248e-02 -7.199742500103351039e-01 -8.317634348338434069e-01 3.942805404687535487e-01 -3.907843956468509128e-01
-5.053957233052627090e-02 2.210735988702768884e-01 -7.058421901107679863e-01 -2.468478310278871338e-02 -5.318625087536380663e-02 9.982794619749477683e-01
9.029583179677785551e-03 -2.233008926515637205e-01 -7.977523069509407927e-01 3.222319961026975932e-01 -2.208824529484973709e-01 -9.205310872899002961e-01
-2.118945111869918740e-02 -5.924762844818808050e-02 -7.423431504734112618e-01 -5.903223201858868174e-01 8.057509767908686005e-01 -4.780085449981563706e-02
-3.604473597381266381e-02 -1.336063455697808766e-01 -8.247825073845772570e-01 9.409038716767377242e-01 3.312033206488390613e-02 3.370503639927374673e-01
-4.105268643776197046e-02 -2.658629281245245349e-02 -6.737618922556939394e-01 -6.541203827906848511e-01 6.715951587757965635e-01 3.479748087529908607e-01
-2.675779165770452231e-02 -1.980290759090503061e-01 -8.377587037117866231e-01 8.140655864478152370e-01 9.310843472215497851e-02 5.732608833201207066e-01
-9.466511686758033450e-02 -5.552224277649989853e-02 -7.040537915597725460e-01 6.813472132429205796e-01 -3.511281620494360878e-02 7.311176821444437257e-01
-9.510055802778438760e-02 -4.067703917273586545e-02 -6.566164824348971196e-01 5.950067989652462197e-01 -1.264651980757925676e-01 -7.937086763169353132e-01
-4.066791223533666039e-02 -2.582925097598006217e-02 -7.711517656934151477e-01 8.901028527666097201e-01 -3.278749773489076369e-01 3.165673873367194080e-01
-2.437487442525381257e-02 5.536810851229256002e-03 -7.737827088340095694e-01 2.867066848735255191e-01 -4.650940197035758339e-01 8.375481058929107325e-01
8.909712700962744980e-02 -9.258206103415628219e-02 -8.800290956134567688e-01 -9.343980844101138494e-01 4.492987191653245033e-02 3.533858039880405921e-01
2.285405078971472839e-02 6.903870057212398159e-02 -7.054356088077521347e-01 -9.519884402390667022e-01 -1.539262981831756028e-01 2.646218138756005200e-01
1.002156410620957082e-02 -2.187335492817203131e-01 -8.658678391200820279e-01 4.633956939293327193e-01 -1.622860379055867178e-02 8.860028573694112008e-01
-2.763818145010079469e-02 -9.006500312111452577e-02 -8.218232918862182768e-01 2.816674287520733455e-01 -3.919706740957094593e-01 8.757981789368775027e-01
2.137382670050363975e-02 8.134601433818633431e-02 -6.926719690659928208e-01 -9.493911375652492879e-01 -1.220378685853728551e-01 -2.894187736545458800e-01
-8.846027774869189009e-02 -1.451807662688495704e-01 -6.903023709917059936e-01 2.462341435972901782e-01 5.299792583047749917e-01 -8.114744187549167709e-01
-4.030198440583988156e-02 2.431238614851168392e-02 -7.412431250723811038e-01 8.242282034752854702e-01 -3.814850730225721187e-01 4.184698407972389789e-01
1.663864717608301222e-02 -1.458689918711629507e-01 -8.631132735119615429e-01 5.975865915519119609e-01 8.535043005392337068e-02 7.972487501946796673e-01
9.162400191057469556e-02 -4.892840574898316836e-02 -8.757197519061158397e-01 -1.045074303457955295e-01 -3.948571195926915411e-01 9.127793008769873317e-01
7.059713948402651651e-02 -1.637447055472197321e-01 -8.762200901840366818e-01 -8.648659982594754103e-01 5.018658389967287636e-01 -1.172538710451809761e-02
-8.295019686613076815e-02 -1.332301206350206546e-01 -6.825263552707770964e-01 -2.341986039952923537e-01 5.104220776846793983e-01 -8.274178608772665422e-01
-5.470646368977081370e-02 1.689100826383580223e-01 -6.820151508992848832e-01 9.497896040643895033e-01 3.107217758625042681e-01 3.676528275509303306e-02
3.708978157735638020e-02 6.802558409813815911e-03 -8.248165355357368611e-01 6.925291160303757021e-01 -1.782472743771456036e-01 6.990216968215687832e-01
-4.304356944949117719e-02 2.207295288790330975e-02 -6.596943960225826187e-01 -2.975091732303138947e-01 -2.030738416984403383e-01 -9.328715381346200930e-01
9.600088562802548686e-02 2.730460425499301944e-02 -8.151658486328178244e-01 -9.372339906532295428e-01 -3.481954635391971697e-01 1.877141270511163695e-02
5.414329744236891923e-02 7.625945525122529737e-04 -7.668298530191985929e-01 -6.338207830051978409e-01 1.821032680302534235e-01 -7.517377300650672778e-01
1.288609247068910578e-02 -3.171165503993887413e-01 -8.703539456522332296e-01 -1.546880390010323993e-02 9.977960797038655238e-01 -6.452673425408478325e-02
-1.657305900171850838e-02 -2.207982110301815182e-01 -8.512146057353756623e-01 8.930444760632756385e-01 1.245195933516412834e-01 4.323961547521104620e-01
-3.554872357235411284e-02 1.052162523073543327e-01 -6.944375783983267603e-01 9.881920406092085107e-01 1.444470658288827536e-01 -5.110319021386953986e-02
-3.325673830000201725e-02 -1.538266471531915813e-01 -7.678416602143599556e-01 -6.524887344195682282e-01 5.367908178513749323e-02 -7.558948390049072819e-01
-2.819863738026537683e-02 2.830603264437233854e-02 -7.603153435700931162e-01 4.929345924350735375e-01 -3.577446807390081140e-01 7.931167826895439976e-01
7.855851370760798258e-02 -1.382251281517593404e-02 -7.913623786610509692e-01 -6.286136338047564331e-01 2.807062332041460051e-01 -7.252922928276015480e-01
-8.515066256905659547e-02 -1.842816062946555922e-01 -7.438212072434918776e-01 9.260851587291326625e-01 1.319700113486241000e-01 3.534829485085261291e-01
3.777252551544073300e-02 -1.108639473515118656e-01 -8.700646218442001922e-01 4.566164802551809787e-01 -2.640535237069842056e-01 8.495746739264861125e-01
-5.082985149621033205e-02 -9.780612241269369400e-02 -7.884952076756807093e-01 8.553774261749641505e-01 -1.874070482913233193e-01 4.829162008475461620e-01
-1.715408583470670600e-02 -2.507034355060624442e-01 -8.408055696885836650e-01 8.476479487346414432e-01 1.258077194532459531e-01 5.154273690171372602e-01
6.844612835556507235e-02 6.294222166463683821e-02 -8.003202803359588113e-01 -4.022256075659075281e-01 -8.359212100746061802e-01 3.734304368495452442e-01
6.380240281512744582e-02 6.287765555609249601e-02 -7.596207742013505460e-01 -8.231560220061862054e-01 -3.244100157429004039e-01 -4.660174944362522886e-01
-2.795063487873654384e-02 1.998443567159145784e-02 -6.678301698238012785e-01 -6.351642301200625118e-01 -6.337845198817587331e-03 -7.723511070065376405e-01
-3.427093224366077606e-02 -2.551110049811814440e-01 -8.185778055688879284e-01 5.876394905037763960e-01 3.409522344460947929e-01 7.337788515804182232e-01
-4.006548522467587997e-02 -3.540028474493347316e-02 -7.846698897979000886e-01 9.180580439413208449e-01 -2.442785959661490092e-01 3.122457293662201372e-01
-7.905996789190697371e-02 -1.348231288877400902e-01 -7.547173640630501223e-01 8.099443028051775961e-01 -9.484098022762969815e-02 5.787878841362328330e-01
4.313946058941239836e-03 6.948430898457078064e-02 -7.475075616934485634e-01 5.462911618436572248e-01 -5.366217137418334282e-01 6.431198199653660463e-01
1.433631108897268948e-02 -3.102751890662230339e-01 -8.524034341405521964e-01 1.024897191237642419e-01 8.871997137421716584e-01 -4.498583392688643712e-01
4.688716473500884052e-02 -2.766262806809679509e-01 -8.491367772960916049e-01 -8.855953238960125873e-01 4.345500395609029343e-01 -1.639731240512730115e-01
-3.381220765130346639e-02 -1.664697589225355434e-01 -7.488428973073955053e-01 -9.298117894877017120e-01 2.751358958369749530e-01 -2.444386936466135807e-01
6.464873075978451455e-02 -9.424706113139785790e-02 -8.278188479487577078e-01 -6.421068372982561279e-01 2.027794655485736786e-01 -7.393100147074065376e-01
-2.577130602716287341e-02 -6.713256570016752633e-02 -7.113079009769618377e-01 -8.711216330793433160e-01 3.436344513968743186e-01 -3.508026000393200672e-01
-1.528626669869858311e-03 1.235560605102526896e-02 -7.861651052794160766e-01 6.371803116144086898e-01 -3.411375059999421366e-01 6.911052398087462745e-01
-5.744684951672723167e-02 1.970966648772087271e-01 -6.668485442941817221e-01 7.090660687073117030e-01 2.974230114973303585e-01 -6.393472158692932172e-01
2.423445075739061316e-02 -2.416044984885170333e-01 -8.737731794066835311e-01 4.657268968496726669e-01 -3.723222321115760014e-02 8.841449084316037599e-01
9.356341392856354355e-02 -6.986904862201694100e-02 -8.434813865737120775e-01 -2.322914677582124665e-01 9.129879336327076933e-01 -3.354008155145330461e-01
1.283816998852018929e-02 9.715445142746384488e-02 -6.833821298236915087e-01 -7.930074998878795522e-01 -1.222345206050580863e-01 -5.968231120642248921e-01
1.050967064723816458e-02 2.507409622662178095e-02 -7.945366861050991991e-01 7.281073640858223284e-01 1.589977685437612420e-01 6.667678576252009659e-01
3.708147405881851572e-02 -1.167317450584814814e-01 -8.213340532090598334e-01 1.848492840652403435e-01 9.550695205395880460e-01 -2.316742392171586007e-01
5.134121214489477392e-02 -5.298961896677952671e-02 -8.153261948016528038e-01 -5.376032442231176711e-01 6.923637948055275659e-01 -4.812640932411933470e-01
7.516099197946345123e-02 -5.746192855223303253e-02 -8.247350841497846918e-01 2.219446089458267657e-01 9.099961684386088656e-01 -3.502107422494852851e-01
-1.272684171220724719e-02 -2.991262361884912402e-02 -7.085950073400439919e-01 -7.712855892454077988e-01 3.162338583583433338e-01 -5.523718735147178371e-01
-7.995885588717892289e-02 -8.877715219403430752e-03 -6.915467894669637960e-01 8.032472137167199211e-01 -3.647169829314473866e-01 4.709303940262385968e-01
5.462796134967588119e-02 -1.328927240128378318e-01 -8.847858073596869266e-01 3.139170749194113430e-01 -2.371299724234324502e-01 9.193614339597365737e-01
1.885515971607259339e-02 9.398926185880358830e-02 -6.984567670194613553e-01 -9.461050453155920303e-01 -2.356997219683867606e-01 2.221055701516880532e-01
-7.103277165942490506e-03 -4.183651122179091186e-02 -7.273747441074616127e-01 -8.959734858187708983e-01 3.381095229281858572e-01 -2.879469798678837567e-01
6.356201753186808967e-02 -8.886864211611021636e-02 -8.252075466537930337e-01 -6.557719288120000822e-01 2.207745200012785902e-01 -7.219569160970716881e-01
7.229940251058505907e-02 -1.078682958935974073e-01 -8.861813841351422472e-01 3.397623957804393746e-01 -1.026485773163012677e-01 9.348929264832820385e-01
-9.427835348868172927e-02 -3.469002045497055625e-02 -6.874497793759144493e-01 8.784393324123138669e-01 -4.241056119877788522e-01 2.201789480206491623e-01
4.737617441558438641e-02 -2.372510601786653461e-01 -8.295979247028574255e-01 -6.754658248479323834e-01 -3.314495473818506767e-03 -7.373838441288610435e-01
2.864394917332161242e-02 -9.918670424861808499e-02 -7.962927501170976585e-01 -5.794734370113180377e-01 3.640764517536047018e-01 -7.291494175248275367e-01
-7.032818290989098498e-02 -1.743867162498218826e-01 -7.838646043571345645e-01 9.408136910289911503e-01 8.587825137135744746e-02 3.278635763756077015e-01
6.985479284216977724e-02 -9.623931356862676367e-02 -8.329635349096778940e-01 -6.568081335200323112e-01 1.844554478592775881e-01 -7.311492757959654476e-01
2.294283985881829038e-02 -2.742400346794727217e-01 -8.766851859392238433e-01 2.648621112401926547e-01 -8.466608783131977789e-02 9.605621872636498360e-01
-3.707180317270400427e-02 2.424253596949849376e-01 -6.954984639746426556e-01 -6.852448847868050086e-01 -3.590223690442970739e-01 6.336737223519205431e-01
-6.439203026659900964e-02 1.986480629918483398e-01 -6.775713949827361082e-01 9.016701070509496319e-01 3.433177220170985922e-01 -2.629143582988943129e-01
3.711653782126308337e-02 -1.770747161525058622e-01 -8.164473055630747655e-01 -6.816369702585437507e-01 3.109659209498358973e-02 -7.310294404036209448e-01
-9.279539005453080192e-02 -9.744476306970631385e-02 -7.160188285998158042e-01 9.035083061073264643e-01 -1.906625982194063429e-01 3.838235459625879975e-01
-9.920414589483771486e-03 1.854428134622783941e-01 -6.925358889773000071e-01 -8.658094167945687980e-01 -3.691205391707989003e-01 3.378225589745412760e-01
-6.635204285248110304e-03 -2.940315900817744854e-01 -8.490814824977840347e-01 8.798920608219170658e-01 3.631054059884058494e-01 3.065035488286470544e-01
-9.346976138181573718e-03 1.825333593421829548e-01 -6.736633401896287010e-01 -8.711522172388656005e-01 -3.030410567260685140e-01 -3.863417299983993303e-01
-2.618401705410206698e-02 -2.300787914471685847e-02 -6.931533597971673011e-01 -4.525248451390548321e-01 -1.524545439750910891e-01 -8.786232847775099497e-01
-9.620887676578537828e-02 -1.641876925263146547e-01 -7.105114776333195659e-01 8.516189130149309783e-01 4.124732362431470234e-01 -3.234363250755432073e-01
-1.828103991385345711e-02 -4.379681075878422321e-04 -6.885520010043792993e-01 -6.102723184490693731e-01 7.919867716503793398e-01 1.801807052954173399e-02
-7.231470245001972441e-02 -4.390600354138482486e-02 -6.502658510141446913e-01 -1.601434520781093995e-01 1.686722983933671427e-01 -9.725758224998218848e-01
-6.049548051824036460e-02 -1.926356599156769586e-02 -7.319923570798902990e-01 7.774162353555050808e-01 -2.490754390506758065e-01 5.775685436962328945e-01
-1.063833921460725050e-02 2.230205773272546377e-02 -7.734049230728582414e-01 6.577799072466251618e-01 -2.100464824899604122e-01 7.233298478676349896e-01
-9.539990992687179261e-02 -1.341507862083516633e-01 -7.347276099381179204e-01 8.996850757720706859e-01 -6.633243329409083122e-02 4.314704772360312135e-01
3.311799510704802052e-02 2.359116437299192681e-02 -7.425994390351959851e-01 -3.591664145652384565e-01 9.225243675400418564e-01 -1.412383727716977067e-01
1.711909954696755635e-03 -1.552906497619673809e-01 -7.852323490914502324e-01 -7.571219708549719041e-01 -7.767592956262540926e-02 -6.486391687334840395e-01
1.981298689840234242e-03 -2.845844046387479565e-01 -8.117629052245272092e-01 -8.221014320345682025e-02 7.865463008705282366e-01 -6.120346468471827839e-01
-2.485993158598065467e-02 2.227337794590200926e-01 -6.750180119002363588e-01 -8.868293414247966355e-01 -3.469236047249172339e-01 -3.052502771050847885e-01
2.054839537873737881e-02 2.621487223142176040e-02 -8.046022573190863003e-01 6.653547519705147462e-01 -2.786280641343116260e-01 6.925817322937568576e-01
2.570698834793814710e-02 -4.044167910904298419e-02 -7.712840420111300999e-01 -1.920443249675768960e-01 9.515951405129484675e-01 -2.399701352249684894e-01
-4.929309620642018802e-02 2.158508534343556995e-01 -7.061268496763697389e-01 -9.454577793265873595e-03 -6.081796489774012049e-02 9.981040958259055351e-01
-5.355449572537002850e-02 -1.256745101400348064e-01 -7.168304195849172222e-01 -6.344533961320003579e-02 -2.253938068325464783e-01 -9.721997329370639651e-01
3.878776873112112222e-02 -2.542968756882876824e-01 -8.765788703612981125e-01 -1.980394332828679660e-01 2.095747086402051096e-01 9.575274535820754718e-01
-4.734574195031007043e-03 -1.107696268751562213e-01 -7.759645563300017201e-01 -9.450087070288315516e-01 6.838458105869947568e-02 3.198157168012886742e-01
-4.306477432883780432e-02 3.132097710886982966e-02 -7.221879459326535633e-01 8.074045763509661855e-01 -4.497613053563156438e-01 3.818541845936743728e-01
2.700547315903262940e-02 -2.840339749678494341e-01 -8.469113742267134759e-01 8.953067629246384829e-02 2.110029165737497825e-01 -9.733766111839677881e-01
-5.212175210413428489e-02 -7.760352195385392116e-02 -6.733378724128070703e-01 -6.581361526822766539e-01 3.171836825103643842e-01 -6.828259778902201482e-01
-1.177500907217303959e-02 1.798132080672264557e-02 -6.839207304749432836e-01 -7.285565925573472823e-01 1.848143137549757287e-01 -6.595824140109445288e-01
-3.554160986464850736e-02 -2.540005282857583646e-01 -7.883182260239529615e-01 3.608210219022117693e-01 8.320355645446793069e-01 -4.213371684129712524e-01
-4.904402544606148440e-02 -2.360100598776047540e-02 -7.526401725042015656e-01 8.170237701822026244e-01 -3.191939080276223195e-01 4.801951770221281612e-01
-2.137823639473820751e-03 1.682476143641400967e-01 -6.838469060639332797e-01 -9.458917196592706578e-01 -3.105810132907818044e-01 -9.395897436274523729e-02
-9.068261458293688793e-02 -3.204145433540648430e-02 -6.984383602569989025e-01 8.510543752132230244e-01 -4.558840638450417648e-01 2.605305562934235875e-01
1.594878500374893524e-02 1.032697954430962933e-01 -7.007938407146645510e-01 -9.092223091572988469e-01 -2.330054394804141060e-01 3.449974749229456905e-01
-7.184749786706185262e-03 1.822549104241682344e-02 -6.890466050626430361e-01 -7.465673011874423004e-01 1.849033291880903818e-01 -6.390993848008770239e-01
-1.683824467349939388e-02 -1.453201661243596898e-01 -8.429891465174776943e-01 3.527345529620595221e-01 -2.582665431288923563e-01 8.993757434170148723e-01
-4.510439189883193312e-02 -6.302951303906226266e-02 -7.854893148321853147e-01 8.389193460932051760e-01 -2.040266589530936869e-01 5.045665993572969743e-01
-3.135221664863883928e-02 -1.423128670753593394e-01 -7.437181623101184469e-01 -7.684379470320492622e-01 2.294782437935911634e-01 -5.973632539641007266e-01
4.257168277416469720e-02 -1.198463759210783713e-01 -8.277794014701439496e-01 3.448923024597252973e-01 9.054530838983092522e-01 -2.473944473165692604e-01
-4.241695837982983885e-02 -1.992597136222839238e-01 -7.450674073657443941e-01 -8.759434366724132559e-01 2.373395455648616148e-01 -4.199917092772033067e-01
-9.759525426475591792e-02 -1.415883510675377543e-01 -7.265794241403402687e-01 9.941821861146694639e-01 -7.614116781456670147e-02 7.618597886810181408e-02
3.441069158369119280e-02 -2.693003211860618973e-01 -8.346973732097117127e-01 5.430342565987721359e-01 3.277694358939640673e-01 -7.730983074965119828e-01
-3.565073500905371895e-02 -1.074984965047285773e-01 -7.280542696495058141e-01 -6.412539541223674089e-01 1.279701347647173582e-01 -7.565824548129098659e-01
-3.504995039170887700e-02 1.586929301234770162e-01 -7.092954357862797377e-01 3.648272368942824806e-01 2.540939557835440732e-02 9.307284511802709215e-01
-7.365667301834903646e-02 2.267018624262511772e-01 -6.950184244096572206e-01 8.734647785384563878e-01 3.578938062315402679e-01 3.301080188572612095e-01
-2.258940018826843810e-02 -3.774625522132179362e-02 -6.987233880738111802e-01 -7.984081058446036439e-01 2.293461105547403567e-01 -5.567269151882680012e-01
8.585089844416500526e-02 3.832382605913411955e-02 -7.868012512840940609e-01 -8.665332774143792438e-01 -2.109941931562225870e-01 -4.523290059103542426e-01
1.018039623080619488e-01 -4.600453989429649504e-02 -8.647103739975801062e-01 -9.485081332097056173e-01 -5.681231614009468744e-02 3.116162415052162182e-01
2.242624731631321852e-02 8.663584749255054396e-02 -7.349054372033612115e-01 -2.786086141432426722e-01 -9.603918677118564728e-01 4.969965604872931923e-03
6.331182593894570760e-04 -3.902276985747558935e-02 -7.370773420431210310e-01 2.357846341048560057e-01 5.208659147592986649e-01 -8.204293419679712374e-01
4.214933557835113392e-02 -1.535223351924771829e-01 -8.817366109896901394e-01 5.827817346199237747e-01 1.565204468131992654e-01 7.974125654407443475e-01
-7.536968202613246459e-02 1.513759274183015986e-02 -6.633134416109739417e-01 6.202179755602702516e-01 -5.168712747370659555e-01 -5.900624951169161081e-01
-4.973575021776449612e-02 1.581373379723063910e-01 -6.782830646837220145e-01 8.466615435925722855e-01 3.180705529815679444e-01 -4.266091348382526349e-01
-2.445355976800887843e-02 6.826144999781237621e-02 -7.341734141019881088e-01 5.151739554786741726e-01 -4.925044033545150080e-01 7.014522138199225099e-01
4.896220838442984051e-03 -1.803681202969117103e-01 -8.142773070605255903e-01 -7.154056906337891153e-01 1.495773228490673012e-01 -6.825110418873071572e-01
-5.914682481980937379e-02 2.093886317905361005e-01 -6.637619663961721317e-01 5.902854843591700540e-01 2.578507816959199062e-01 -7.649026221249755064e-01
-7.770423625041267268e-02 -1.222313892539166752e-01 -7.538915576768366877e-01 7.859972734045458376e-01 -1.356241738152200726e-01 6.031702659096840335e-01
-4.239196340687834824e-02 -3.837744033214143813e-03 -7.512609831860472820e-01 8.566189977106903886e-01 -2.673010335798070569e-01 4.413094721488530769e-01
-4.320725069178422972e-02 -2.987339070497447777e-02 -7.685705822574887547e-01 8.665372507428352744e-01 -3.402677708817780644e-01 3.651452275111843893e-01
