4.052929318236325046e-02 -4.074495835682406114e-03 -7.423212117506995389e-01 6.916920112957597455e-02 1.646913457292844829e-01 -9.839168573903861459e-01
-7.564420119002614185e-02 -1.667362630180730942e-01 -9.304168548049887022e-01 8.402608590737284944e-01 -2.853793230632269418e-01 4.609992740521988153e-01
-8.320623217185420251e-02 5.342787359709010031e-02 -8.010766967323476040e-01 3.506559622035055335e-01 -8.456817529619764517e-01 4.023217231001731120e-01
-9.356906322600461179e-02 4.905731427814649659e-02 -7.937615270744931006e-01 6.035306556204227402e-01 -7.968359191958156451e-01 2.834194075469137139e-02
1.236802415945381511e-01 -3.173198011450772266e-02 -7.500723096859192029e-01 -7.853645083693390205e-01 -2.664540050309985308e-02 -6.184598706673017920e-01
-1.288671695121343906e-02 1.950908983088383841e-01 -6.174352089122111531e-01 -3.940498615630846357e-01 -8.822452540718209724e-01 2.576199104686238694e-01
-7.842787137965338828e-02 -9.651862969466963593e-02 -8.336692255378524985e-01 4.123491417682145777e-01 5.645109839956282682e-01 -7.150493229360507241e-01
4.907966880099809415e-02 -1.230709053454809437e-01 -8.020014794057381824e-01 1.417017805358115612e-01 5.529486294805654456e-01 -8.210775959363069143e-01
1.349160425472858624e-02 8.523193439038624641e-02 -7.687060221366353030e-01 -4.685517154965029296e-01 -6.388557186102810093e-01 6.101824814792909946e-01
-8.103465527134592894e-02 -4.604274545895143539e-02 -8.739091239109436637e-01 -5.118550284342355816e-01 -1.791469907717007926e-01 8.401849710415154604e-01
-5.570039757820569731e-02 1.269339867895409590e-02 -7.679944825689001275e-01 4.364847318986357916e-01 2.117058098522691112e-01 -8.744493861248751054e-01
2.796982985514442997e-03 -2.878429877099487888e-02 -7.580204224421982495e-01 -1.680754302086010787e-01 4.244344485883054241e-01 -8.897224559444000258e-01
-1.011678748610169570e-01 7.537902997213069903e-03 -7.932321835185263126e-01 4.523137180536687119e-01 2.790878401365900485e-01 -8.470668674599186598e-01
-3.404765226514720744e-02 1.429810978056599013e-01 -6.358888853381866602e-01 8.222321557130394254e-01 5.358893400763099502e-01 -1.917208838495822465e-01
9.963953165081328167e-02 -1.897535051621586089e-01 -8.670404402579262593e-01 -8.409713552302185979e-01 5.340988411645771761e-01 8.663490952788838184e-02
-1.341068697272304044e-01 -1.301133934158277793e-02 -8.372731616013437961e-01 9.509444712825804169e-01 -3.042483139505344214e-01 -5.601406961961223618e-02
7.884501623803520653e-02 -1.262991400477399828e-01 -8.551853025135464081e-01 -1.332294715791428330e-01 -5.536567677583349445e-01 8.220183035785370018e-01
1.370075501987648159e-01 -8.182691296742129750e-02 -8.022426257494417179e-01 -8.709437159347354074e-01 -1.921794203818006364e-01 4.522434234519173701e-01
-1.272078212761064767e-02 -2.619760465057920373e-01 -9.702135227306990517e-01 6.592145875407623423e-01 3.990488371009633939e-01 6.373351968798142142e-01
-9.710244770412854859e-03 -1.121519075922959852e-01 -8.591909252865009838e-01 9.832337679291590360e-02 -9.917718742583998548e-01 8.198208954411309590e-02
1.340961656873180252e-01 -1.057643717369458752e-01 -7.937131999511416458e-01 -5.201401060734918147e-01 4.817762857433939283e-01 -7.052275381386891029e-01
-2.487014166007527755e-02 -4.312796444417440166e-03 -8.229944141555038950e-01 -4.062285900382762716e-01 -4.039723745929663101e-01 8.196247026543515002e-01
-6.734343453544754110e-02 -2.000078572533650449e-03 -8.452798827689234074e-01 -4.458722815853690680e-01 -4.923839714209300999e-01 7.474997880946924189e-01
-8.465326328541035450e-02 3.741875855263656746e-04 -8.457779302814564248e-01 3.095946273623625400e-01 -9.389389872965542283e-01 1.501490753980216364e-01
5.701310879544326665e-02 -1.977625419227485859e-01 -9.219893072354788943e-01 5.364610327282316460e-01 3.575364469534513413e-03 8.439175179678812810e-01
6.776414315659863574e-02 -1.611394353107859778e-01 -8.264898395861617342e-01 -8.284293467000487798e-02 5.418916999896956632e-01 -8.363554469587312079e-01
-5.087605868738591386e-02 -1.789760558614648667e-01 -8.883802384718610945e-01 4.280922219082267111e-01 7.077267589180789020e-01 -5.620141317200031406e-01
5.803703825951912754e-02 1.102104194292555586e-02 -7.348837111639148212e-01 1.852987478806935318e-01 2.911614152990830151e-01 -9.385570863164809374e-01
-1.690241037830031087e-02 -1.873055988157451834e-01 -9.377796731205992886e-01 6.364942196826347542e-01 -7.667577851693454516e-01 8.341227243514022505e-02
1.352342978623676320e-02 -1.955373271476898156e-01 -8.621396392336078129e-01 -3.533356914696360596e-01 4.736833456354625493e-01 -8.067081115256430346e-01
-5.454077487978931799e-02 -2.206267930952040546e-01 -9.354012973787679819e-01 6.693840092515969120e-01 7.263935147923873403e-01 1.558124187150044804e-01
1.154240927746828516e-01 -6.102099510441996548e-03 -7.762587284623061468e-01 -7.117274746537544106e-01 -5.451609686498187779e-01 4.429938149498033328e-01
-4.025946565303249389e-03 1.333303367259667249e-01 -7.174906064360344615e-01 -9.182448436213390408e-02 -7.260533842549692363e-01 6.814798216260952168e-01
-8.655167056994519936e-02 -1.655545050024636866e-01 -9.235792076216248203e-01 -8.206257630581159646e-02 4.170685770787694868e-01 9.051627122145184945e-01
-1.188115744061107003e-02 -1.999964797224542401e-01 -9.614654748790495420e-01 -1.468825425085218128e-01 -6.835328946963779018e-01 7.149883219845080129e-01
-3.810874278306514845e-02 -1.262934079896697037e-01 -8.858563868627580273e-01 3.725427409245494759e-01 -9.009742303501516725e-01 2.223900681896020526e-01
7.372838165273019710e-03 -1.322197097824387435e-01 -8.701635130263154494e-01 4.459198656584669185e-01 -6.375854264792586434e-01 6.282040252596258201e-01
7.915430824157104750e-02 -1.577372346721490071e-01 -8.241449402696792159e-01 -2.778512025542787672e-02 6.279916653618075051e-01 -7.777238940192690020e-01
9.122027701021715937e-03 1.402912205736669693e-01 -6.494556231302273108e-01 -8.803014558650515964e-01 3.087903950158230049e-01 -3.601636277413956533e-01
-2.371990458590365197e-02 1.989377536915013234e-01 -5.981213022468848672e-01 2.168209695147746072e-02 -9.647488757565310102e-01 -2.622775121856552039e-01
1.111962363169804735e-01 -1.545847311837165727e-01 -8.191826462902859207e-01 2.217053708317143768e-01 7.939530624729399522e-01 -5.661141785313384966e-01
-9.375797428806201261e-02 -1.608459822153368232e-02 -7.927614036098113992e-01 4.608207995436836013e-01 2.936136833526983292e-01 -8.375172808103613642e-01
-7.259041833192959869e-02 -7.096144080304085666e-02 -8.117135666094817958e-01 5.977374438074392060e-01 1.067884275005112904e-01 -7.945477833475570462e-01
4.913118353437199992e-02 -1.424480733479974726e-01 -8.716512421053032034e-01 -4.691434439828978120e-01 -7.721310167432557936e-01 4.286235200626440367e-01
-8.640313164530964707e-02 3.567791175694402100e-02 -8.263251583271802314e-01 5.956847598992003924e-03 -7.211430311010370575e-01 6.927605969316464884e-01
-5.931081757659841663e-02 -1.129070532325424925e-01 -8.337527433161384671e-01 4.697249336947701415e-01 4.876681045032387196e-01 -7.358928634765132815e-01
1.893271164690447581e-02 -1.789909121432728678e-01 -9.140500069180929055e-01 2.145656692404752652e-01 -8.905078083500278519e-01 4.011949860741247376e-01
-3.814012388083102851e-03 1.354873644853481496e-01 -6.353132394808409522e-01 -4.506317840926868379e-01 7.118539987988111717e-01 -5.386973914542230180e-01
6.299748457720234784e-02 -1.736535055763606950e-01 -9.004303886093595333e-01 -4.251835558622023004e-01 -6.292571988827180274e-01 6.505799885322703924e-01
-2.906718180102679100e-02 1.475788040871784113e-01 -6.830169845655384986e-01 8.422729026298421129e-01 -3.649266146989076920e-01 3.967428932947579812e-01
-6.247379554931328273e-03 -2.053877606750739993e-01 -9.646054888945213568e-01 -2.278527167564168843e-01 -5.972225651534515123e-01 7.690307842591552756e-01
1.569442694538372360e-02 1.231068152320739240e-01 -6.818709350969711647e-01 -9.673923980842383807e-01 1.009461962641912403e-01 -2.322968221664219179e-01
1.274562467437319151e-02 -7.802323057852171562e-02 -7.751982695076244934e-01 2.167098761139546748e-01 4.583560235005003647e-01 -8.619434931104725806e-01
-2.378689953615502686e-02 9.993063187157584515e-02 -7.326906996515095694e-01 9.204564969860004053e-01 -2.226750393951353879e-01 3.212096885005744085e-01
-1.190666512577571307e-01 -7.604607355532490287e-02 -8.524966150807327114e-01 6.590321984822206103e-01 3.225037774254065348e-01 -6.794614594736295698e-01
-7.370766813980951515e-02 -5.621600617080762391e-02 -8.082387289262580321e-01 4.729304819914473268e-01 3.646635586084997493e-01 -8.020955355980500245e-01
8.230858507109599723e-03 -2.106056665428063801e-01 -9.495768958503831847e-01 -9.934164687429649643e-01 1.864044067248716088e-02 -1.130320910263674650e-01
-7.156392387069930583e-02 -1.576997092977165116e-01 -8.686025783052720994e-01 3.819332486078311772e-01 7.228813578197893497e-01 -5.758207499947238794e-01
-2.858052435566733190e-02 1.283153384610449255e-01 -7.008584168541286408e-01 9.050062491171068091e-01 -2.712004104031229268e-01 3.277407915657785664e-01
1.367467355981143856e-02 -2.691875091636802275e-01 -9.409998236258166893e-01 -1.885433636921137607e-02 7.029086062335508922e-01 -7.110302421717963339e-01
-1.060691379397320500e-01 -9.529777179395915176e-02 -8.466223384369123695e-01 6.701211134609583731e-01 3.423018976210898678e-01 -6.586099788029681212e-01
-8.804765171675428548e-02 -1.328172066146734720e-01 -8.689701764455320943e-01 5.579658958752253817e-01 5.504940078094786582e-01 -6.209914704776670069e-01
-1.274046981674954032e-03 -1.764703426415849263e-01 -9.246648836983947239e-01 -6.678050062494950145e-01 -7.294485911839883041e-01 1.481257116364566861e-01
7.351876859177840229e-02 -1.459444417309707087e-01 -8.659141336866273964e-01 5.224994785790414431e-01 1.931601102408159187e-02 8.524207802504272236e-01
3.450097882097308971e-02 -8.462756556005174291e-03 -7.431037237950846031e-01 -1.921944627891426782e-02 3.458024273548913896e-02 -9.992171033849884809e-01
1.063317134767688132e-01 -4.613116185704941447e-02 -7.494367013120972754e-01 -1.083824555968521536e-01 2.413169639838590730e-01 -9.643751169604125595e-01
-1.311885486538906694e-02 6.939438622329803519e-02 -7.124797297823235454e-01 5.658200355737983411e-01 4.993005554523037848e-01 -6.561605311722783496e-01
9.868887587584618259e-02 -9.568540244423296218e-03 -7.867461222089862094e-01 2.105689625981289614e-01 1.477760681972003221e-01 9.663451483080588433e-01
-1.318938264776915725e-01 -5.752313442870684440e-02 -8.754357666817126349e-01 7.527353968514579607e-01 -2.506246180027392190e-01 6.087501319735867389e-01
7.624718206898425422e-03 3.286013436011490235e-02 -7.342713189398168971e-01 -2.638232518846200803e-01 3.563376569431852547e-01 -8.963374174992724264e-01
5.016521206357493767e-02 -5.563492965401345414e-02 -7.640914422751761137e-01 1.764528158080196085e-01 4.366304852713804308e-01 -8.821667773868498985e-01
1.104798795903134817e-01 -1.732710981254778904e-01 -8.447548942342566480e-01 -5.887312025201200116e-01 6.904630917894115649e-01 -4.203049964678270967e-01
7.154276818154121920e-02 -8.373139964822196024e-02 -8.161391271160401972e-01 -5.015250189888403876e-01 -7.680985690197706939e-01 3.981171229651194188e-01
-2.734364119587301759e-02 -1.038669344379788834e-01 -8.055094797116474359e-01 5.573412770583240361e-01 4.217399839617352875e-01 -7.151965371944637440e-01
-4.424647374876606448e-02 -1.431884380633375309e-01 -8.378166837467847516e-01 2.135867227767961618e-01 8.012986189892276068e-01 -5.588391853292183908e-01
-1.367398349459444384e-01 -4.578457243493247453e-02 -8.487675159504350919e-01 5.539250324663083092e-01 6.707088184865415137e-01 -4.932714660423680453e-01
4.083529808880435874e-02 -1.538772653683785352e-01 -8.179677111825518487e-01 -2.557149385821282928e-01 2.319095531598607263e-01 -9.385242827647730657e-01
-3.683248847700145573e-02 1.769177695642688286e-01 -6.356399031794718324e-01 8.278204897861007883e-01 -4.057388100074504900e-01 3.874135448639324242e-01
-2.844015379778193006e-02 1.534330353969643179e-01 -5.982186913340198364e-01 2.724700722401331432e-01 8.439884151270239387e-01 -4.619995831868587421e-01
-2.436962475446714446e-02 5.687539474402695389e-02 -7.895266618657745816e-01 -2.947973465647940050e-01 -6.006903339669129593e-01 7.431457778505340395e-01
-5.461034252635078856e-02 -2.069071734144025954e-01 -9.157172776517684687e-01 7.339225837338493319e-01 3.185108768968844539e-01 -5.999237138035207195e-01
-3.878637206208336574e-02 -2.032115375113051625e-01 -9.514076437453248269e-01 2.386081163432443308e-01 -3.401905052264423968e-01 9.095804455730711613e-01
-2.072511804388412968e-02 1.856103230538562465e-01 -6.392122735539704781e-01 1.715519998103511579e-01 -8.376753093358136892e-01 5.185267471309633613e-01
8.771862763496988957e-02 -7.537743113998224276e-02 -8.224821188948528983e-01 4.644475425322859286e-01 4.455553289335790201e-01 7.653554266447781806e-01
-4.610931723816410858e-03 -1.464510791532164791e-01 -8.196374152872107910e-01 -1.556236182854021100e-01 6.127391884140825917e-01 -7.748109294617693266e-01
-9.362203701147056578e-02 -6.248076863521657975e-02 -8.850379921849258480e-01 -6.981139804768436985e-01 6.586399374158194431e-02 7.129507729087511958e-01
-2.621356281018312820e-02 1.485792543284799039e-01 -6.064500658165419278e-01 2.742902771566483877e-01 8.605337034425578624e-01 -4.292395474519618559e-01
4.610806113086405450e-02 -1.326365537750369972e-01 -8.505830104837227568e-01 1.810591121211681254e-01 9.953902394706577728e-02 9.784219849479873776e-01
3.510570298866828864e-02 -9.350289572307191044e-02 -8.457355793973733160e-01 -1.567613299108157887e-01 -4.707270061872818601e-01 8.682407333744202038e-01
-2.063951422240630287e-02 -1.963199959637901837e-01 -9.585773273075253176e-01 9.033525783019248634e-02 -7.231630749945504588e-01 6.847442647858972276e-01
-2.107947016217146669e-02 1.954603432235977045e-01 -6.206830298537322488e-01 -3.104977510624870943e-02 -9.179288166661470072e-01 3.955282530992422774e-01
4.590005482153634853e-02 -1.496099316933862484e-03 -7.976412802912518085e-01 -2.736129040595293160e-01 -4.750472303006261776e-01 8.363409040073399581e-01
-9.226355204768191265e-02 4.899724987506576951e-02 -7.847117149062424746e-01 6.801828978333783748e-01 -6.650192655309062895e-01 -3.083838549076813318e-01
-4.450829242773558098e-02 -1.857791027992495084e-02 -8.401303989739088429e-01 -4.982106889068649291e-01 -3.449171901691670539e-01 7.954987375129854987e-01
-1.245148532606822900e-01 -3.092709434407594701e-02 -8.661448823876612968e-01 7.103511914842222108e-01 -6.812657270631533590e-01 1.768564216704024417e-01
-8.408160775054612096e-03 7.348334285874159877e-02 -7.069706265122396305e-01 8.993420139128627255e-02 5.908822315659385538e-01 -8.017293981386537371e-01
-5.537878896231780701e-02 -4.512574915316535512e-02 -8.505696156207003256e-01 -5.912969764074671453e-01 6.308598870209666254e-01 5.023780335954991516e-01
-2.372677622301979511e-02 -2.469601044947708213e-01 -9.668314813299584420e-01 7.429149667267186397e-01 3.055655687408789234e-01 5.955728632279191359e-01
-2.856634999312168341e-02 -1.956000429707553112e-01 -9.460681401538202362e-01 6.284798236576098762e-02 -8.240717667351472597e-01 5.629883252631140422e-01
5.859282732551374107e-02 -7.082122312471242354e-02 -7.702517054505828575e-01 1.207188552358145206e-01 4.343942350369619509e-01 -8.925965530726673869e-01
6.717991154284527755e-02 -1.564834816279407070e-01 -8.788241013838534732e-01 -4.894093207298067516e-01 -8.071046879918171157e-01 3.302431519417485251e-01
-2.948851584027678205e-02 -1.677346034131937391e-01 -8.557432977050627443e-01 4.876903467486725652e-01 6.255887086577793799e-01 -6.089309429549887298e-01
1.377927688293170416e-01 -7.643574824275428670e-02 -7.943243500515709821e-01 -8.898602929520709193e-01 -4.315795103141870648e-01 -1.479452104808443302e-01
2.038668087354204850e-02 -1.579471305477738452e-01 -8.259901619446680110e-01 2.375106703578991896e-01 7.207253395853276956e-01 -6.512631314190565623e-01
-8.198321743904123104e-02 -1.768759832704636659e-01 -9.082902434286629356e-01 4.448861233284561734e-01 8.156387717437590945e-01 -3.698779951526043885e-01
1.030503142918412496e-01 -1.280001553572508166e-01 -8.494468688427359027e-01 -3.894116795004249898e-01 -5.500837441926821336e-01 7.387600545803881813e-01
9.085214151857413239e-03 -1.099507821993023077e-01 -7.975094573020840016e-01 3.556219716546176607e-02 5.105240190936205513e-01 -8.591277879694388941e-01
6.462799219901489700e-02 -1.919779543937340793e-01 -8.539094399053270834e-01 2.553608121344806414e-01 8.283610091850138746e-01 -4.986069535094790894e-01
1.125325841577738267e-01 -3.806075955697822699e-02 -7.892534628128171637e-01 -6.662248019489492856e-01 -5.617503282034244094e-01 4.904906543772556970e-01
1.216791365588826002e-01 -3.510428386448735671e-02 -7.486920238411012285e-01 -4.237016216701679494e-01 2.232928744789871578e-01 -8.778480665815590056e-01
-3.105477050904279987e-02 -3.753111200168449124e-02 -7.759990738188925485e-01 4.608859221018347663e-01 3.455475375132731619e-01 -8.174234313541878238e-01
1.910171524927442924e-02 -2.273599436665218743e-01 -9.595102524070845407e-01 8.648906843320646187e-01 -2.413451876149379505e-01 4.401324852481618977e-01
-5.222098088427237772e-02 -1.649351097055428705e-01 -9.358603440019340747e-01 -4.507261719553504881e-02 -5.461964173284913349e-01 8.364436220551060286e-01
-8.536170978969064016e-02 3.032728519603261619e-02 -7.765357505493939438e-01 4.209339478916580002e-01 2.984907279264760183e-01 -8.565733458696140890e-01
3.699270491157991394e-04 -1.671419367565959990e-01 -8.937128044752342682e-01 -4.841335538373305325e-01 -4.848378391447925040e-01 7.283865538175759990e-01
-1.032425068933419399e-01 -9.959593544628754513e-02 -8.475345095842757859e-01 2.756207637881198380e-01 7.000325253544968929e-01 -6.587773964053861286e-01
2.256120362590447945e-02 -5.757598622692818718e-02 -7.691721591177825834e-01 8.932010273388099608e-02 3.739112756635039614e-01 -9.231534418390586749e-01
8.036199407566341213e-02 -1.313561617820121208e-01 -8.020577038852496621e-01 1.739046377472822091e-01 6.265696476525501879e-01 -7.597155083388422714e-01
7.755998066838576399e-02 -1.532912691481292389e-01 -8.204193522742594391e-01 2.275146838491425016e-02 6.449848255424042165e-01 -7.638566262764006076e-01
-4.201860524254959206e-02 -2.273429889746668986e-01 -9.515044124569626005e-01 8.660086504063528867e-01 3.523315232870874447e-01 3.548119433158470892e-01
1.529074091525105955e-02 1.110524158574178466e-01 -7.317715116739967884e-01 -6.277365595328906478e-01 -6.234762412441666735e-01 4.660731578087884963e-01
-3.182460738441316578e-02 -1.123575051314903983e-01 -8.708730470524220779e-01 -6.170163703785532805e-01 4.508615865291327740e-01 6.449919600098200645e-01
-6.509080054319904898e-03 -9.255032452222462791e-02 -7.859648635253104754e-01 -1.532004451881384399e-01 4.562048547715011337e-01 -8.765881325212370179e-01
-3.497842131071393634e-02 -7.339649436028963803e-02 -8.600931195697002485e-01 -3.345103326414362588e-01 -5.247972415054131812e-01 7.827456117184080631e-01
-1.031197239461264098e-01 -2.447822673817656378e-02 -8.689883423631341586e-01 3.310935854522940175e-02 -5.560311204928407580e-01 8.305017540139211230e-01
8.889607304099717000e-02 -1.241815853494539629e-01 -8.517831823385135781e-01 -1.869283062586006294e-01 -5.809183511096063235e-01 7.922068402023468847e-01
-3.712401358252963302e-02 -1.497653092161346788e-01 -9.195286248249464611e-01 -1.941050284726681396e-01 -7.085968511209469467e-01 6.783905516021748738e-01
1.652327147539867135e-03 -2.732469865696023903e-01 -9.774385981471369611e-01 4.824311298710489693e-01 2.021674975588810819e-01 8.522842881703984741e-01
8.050949344118434048e-02 -1.996782387976174800e-01 -8.616288960086363469e-01 1.171636014089407346e-01 8.843055385026742377e-01 -4.519694736134091673e-01
5.496019341007247344e-02 -1.667711759750110101e-01 -8.983466746321401297e-01 -3.789210229652151818e-01 -6.742213727904565745e-01 6.339119803470724124e-01
-7.497838094579288570e-02 3.637833532455279906e-02 -8.247291528364244506e-01 -1.393974805388204508e-01 -6.437251406303192702e-01 7.524535106834872034e-01
4.691879460694760307e-02 -1.749527001251472147e-01 -8.363544788846317690e-01 2.776373900015318141e-01 7.878094907612543940e-01 -5.497942214498351410e-01
7.247171552989019327e-02 -2.236135576267232195e-01 -9.054889980416970241e-01 -8.176585194237814269e-01 5.751267052630338883e-01 2.576467556552775040e-02
-8.871687397965459521e-02 -4.654451750076183530e-02 -8.120410519355168999e-01 4.393161279568140176e-01 4.555322362547133963e-01 -7.742685073343820168e-01
-6.072395402114125901e-02 -1.589287971248360409e-01 -8.654953315315850881e-01 2.603840435886221605e-01 7.869124639192794923e-01 -5.594362555045274688e-01
-4.078965075630070630e-02 -2.297618368930372246e-01 -9.382689538466687518e-01 5.185072798273093753e-01 7.928554900473667733e-01 -3.202036424961995364e-01
1.313901313876413290e-01 -4.610176742025684504e-02 -7.615753904692061926e-01 -8.917798967629494422e-01 5.063324645204726575e-03 -4.524411326051163695e-01
-2.754872560802886991e-02 -1.439807616986183703e-01 -9.102395268083391944e-01 -2.062223527188536965e-01 -7.314297603927014668e-01 6.499868051360551124e-01
-6.122679953273071213e-02 -1.078361685858574004e-01 -8.316153068976521734e-01 4.697249336947701415e-01 4.876681045032387196e-01 -7.358928634765132815e-01
7.890753587308665593e-03 -2.044339084668877482e-01 -9.466934179972752439e-01 -9.938716729269057026e-01 -3.424327405457795390e-03 -1.104869754101990148e-01
1.152656243549371184e-01 -4.416065901652559827e-02 -7.500067324763084464e-01 -1.732117855043971977e-01 3.782287461980047838e-01 -9.093627949899115714e-01
2.654872326212187605e-02 6.600154853861657511e-02 -7.523716445098900252e-01 -3.530073461330621720e-01 -8.445925976795989332e-01 4.025532977394666867e-01
-3.900080623085075415e-02 2.387964041396149414e-02 -8.044908564520726335e-01 -3.903038446180253085e-01 3.364437472115461847e-01 8.570113848944140855e-01
-1.229295821956368218e-01 -6.118702256669678041e-02 -8.484223713391838562e-01 6.498881327139011121e-01 3.873805691921170524e-01 -6.538973234155576186e-01
-6.632194421412078433e-02 -1.559080102249155164e-01 -8.632183459484416010e-01 1.546037710310823599e-01 8.387216662286750557e-01 -5.221528900442512500e-01
-1.311583778174694737e-01 -5.301249321670332970e-02 -8.745111654698424219e-01 6.986629503273276143e-01 -2.495271137337508882e-01 6.705268833921707028e-01
-7.340441991348549411e-02 6.217215106479832831e-02 -7.843772548313759918e-01 3.759966581540374331e-01 -9.266153004268433691e-01 3.255467995048729347e-03
-5.606833367389181880e-03 -8.663304790716683246e-02 -8.490141319235676720e-01 -9.643393184870793222e-01 -3.436266025755200376e-02 2.624288215876822150e-01
-3.516812754214941605e-02 1.360266538339055253e-01 -6.656999671023128284e-01 9.810903168934078655e-01 1.935457551965987510e-01 -1.353049655754645295e-03
5.914956802817377540e-02 -1.947797005877415777e-01 -9.211557566635826255e-01 -2.306979503529071052e-01 -4.666901108497577000e-01 8.538025510257091222e-01
-6.620726471698333560e-02 5.729308582972909847e-02 -8.011820424604940705e-01 2.942850707781426677e-03 -7.797833008165137025e-01 6.260426050976196644e-01
-9.626645381938251506e-03 -2.058532768097456334e-01 -8.756699915301369153e-01 4.974458512326033754e-01 7.026733239285337662e-01 -5.087217559046365301e-01
1.180931491920671206e-01 -1.625383734250329948e-01 -8.395268749948833209e-01 -7.611765680039762616e-01 6.093008666211067181e-01 -2.221771506173765287e-01
1.077949861135469797e-02 1.081881652181000339e-02 -7.409827157262204311e-01 -2.637295925221774459e-02 1.833229663005302157e-01 -9.826989147480806874e-01
-3.261004941977395377e-02 1.232050006364765332e-01 -6.811979086469035494e-01 9.752137329267537291e-01 2.211104047920141868e-01 -8.268252764530087048e-03
-8.137636905285483557e-02 -1.052394338551185665e-01 -9.030949967069250572e-01 -3.071070852529635409e-01 -5.691846719493656170e-01 7.627018076583549355e-01
1.198922668494353805e-01 -4.923185305643979631e-02 -8.030682565743381129e-01 -5.955775346707289364e-01 -4.332946103175867592e-01 6.764193823843808184e-01
6.316136119383795357e-03 -1.976151908061421214e-01 -9.350577882954832498e-01 -9.921011268197150734e-01 -7.327122605925388832e-02 -1.018169023042126281e-01
7.043783218147058045e-02 -1.860359071148451338e-01 -8.422008017510401734e-01 -1.254835790928275976e-02 7.199325711309044751e-01 -6.939305669435709145e-01
1.148975867372718368e-01 -1.139207368617075819e-03 -7.565704160565372982e-01 -8.533002569217214006e-01 -5.065619783814842014e-01 -1.235865429387887904e-01
1.513741160050306213e-02 -2.066917722427854820e-01 -9.376662284904005995e-01 8.538721128441327801e-01 -3.046182889875503341e-01 4.220309383462231834e-01
-2.366056090635425269e-02 -2.288418159364595250e-01 -9.713693615831203720e-01 5.147661425635479127e-01 1.001953776733601614e-01 8.514556387523297687e-01
-8.802388426171818547e-02 -5.128838042878593878e-02 -8.791147332137150272e-01 -4.057774104464710319e-01 -2.632676735437128324e-01 8.752341545199417983e-01
7.966942201087717779e-02 -7.262805592481414406e-04 -7.353424198587787952e-01 1.436094915236481029e-01 3.596579475340217491e-01 -9.219666342769319289e-01
1.386568665160011187e-03 -2.893241631463059349e-01 -9.687384967420904491e-01 8.229334308569447032e-01 5.587026296523748270e-01 1.031112990779359667e-01
2.200033097893638184e-02 -2.622091611689087998e-01 -9.346580043189562925e-01 -8.006012238326337682e-02 6.943246766719708418e-01 -7.151948127386971166e-01
7.438654486017240441e-02 -1.098911067332805289e-02 -7.401847201167300883e-01 1.492408488113972920e-01 3.605215339411070308e-01 -9.207341595763701703e-01
1.223757603349000245e-01 -7.189284161224852865e-02 -7.624170295855159374e-01 -2.440272236972399200e-01 5.099415153726575278e-01 -8.248699079212763463e-01
2.796351052522232788e-02 -8.430483117355933032e-02 -7.756449515219769886e-01 9.332328939015548108e-02 4.176966845048046273e-01 -9.037810815740142667e-01
-8.011598906449617086e-02 5.754113475026553792e-02 -7.793047811775913880e-01 5.428637240971758704e-01 -7.957841743021337733e-01 -2.683775791485131790e-01
-1.049868094807632768e-01 -1.388639376478401077e-01 -9.153171320064511507e-01 6.381812171585937721e-01 1.597273603921752216e-01 7.531347186314836240e-01
-1.906484258228137788e-02 1.066588381895441084e-01 -6.764020913188155681e-01 4.973300891918512323e-01 7.362042134326038934e-01 -4.589838107259411881e-01
-8.892742259880211456e-03 -7.240879734928763745e-02 -8.452111197413761934e-01 -7.088827894717514289e-01 -4.775416125909056064e-01 5.190753307900753954e-01
-1.711588493777633710e-02 6.802398640829093734e-02 -7.178449155054895670e-01 7.312258343461920385e-01 4.186752815212468892e-01 -5.385348529369476944e-01
-7.410266924715047665e-02 -1.852849128293118305e-02 -8.583424218712731868e-01 -3.958305752301630176e-01 -4.378255802050884382e-01 8.072341153785782542e-01
-2.168853093504963941e-02 1.081034763045361641e-01 -6.773696167924776468e-01 5.791040662123675409e-01 6.963137613230711009e-01 -4.240113516032548713e-01
6.085903960588824602e-02 -1.722228651722825243e-01 -8.303057989815180173e-01 -3.371865912766729423e-01 3.980496356940387281e-01 -8.531481056575469513e-01
2.837825133086975884e-02 6.701833702618209543e-02 -7.470020186680302876e-01 -2.872700936870364319e-01 -9.217292235475857964e-01 2.605592672145933264e-01
5.268653089425760945e-03 1.335998533573245356e-02 -8.146562391592579999e-01 5.257618409633217464e-03 -3.456680697264185587e-01 9.383421247179892788e-01
-6.375482224382732210e-02 -1.163810723129572317e-01 -9.013546752729347800e-01 -4.799489021898693530e-01 -5.126667250224221650e-01 7.119142366475919026e-01
-7.404459315159815647e-02 -1.445802166334918537e-01 -9.217591942863807564e-01 -8.737013146913575889e-01 3.758284095226824273e-01 3.088673166624209543e-01
-2.455301146394967687e-02 -2.067058476520469423e-01 -8.910098107953812185e-01 4.462135876536371670e-01 6.986357215775331753e-01 -5.592866552396090762e-01
-1.265597294556159227e-02 -9.379723454607739874e-02 -7.868790354784008789e-01 3.503745768668214966e-01 4.464060307525320459e-01 -8.233828463073330495e-01
2.781897764441225093e-02 2.880492069771620200e-02 -7.879855732932981027e-01 -4.046697818910208744e-01 4.350186312526919258e-02 9.134275863629824910e-01
8.650239364477825543e-02 -5.686762217846653977e-02 -7.551489610312807077e-01 2.867938902475962171e-01 6.275792172357276266e-01 -7.238049396145630476e-01
4.209572323337074790e-02 5.050319536269339687e-02 -7.681445180475044987e-01 -3.370202688316309980e-01 -6.984818048139492808e-01 6.313006468716021446e-01
-3.683996086794416591e-02 -1.293056413326294785e-01 -8.245617282279071869e-01 6.215711067053818484e-01 -9.802941471645663929e-02 -7.771998411987716127e-01
5.229176635519086451e-03 1.687235818097058693e-01 -6.251658647902980093e-01 -9.863251836677909834e-01 -1.024113279831014856e-01 -1.291299808852922060e-01
1.207013649783835081e-03 1.814209056057281555e-01 -6.225221718977511642e-01 -8.873563742017235301e-01 -4.471161489725434257e-01 1.126313210946825877e-01
9.370521080570166916e-02 -1.599751064342372353e-01 -8.750963540049858658e-01 -3.431893247370479405e-01 -4.859169820620258817e-01 8.038070501869597484e-01
7.957841077348383474e-02 9.583968491049863966e-03 -7.316472975926467948e-01 4.151994880462755999e-02 2.706613562774592419e-01 -9.617788332404220153e-01
-2.058811422811562819e-02 9.867601246757119748e-02 -6.909889593297000587e-01 6.776401492541349603e-01 6.241165088273860073e-01 -3.889503972590194758e-01
8.826735614309777489e-02 -6.622592664257170858e-02 -8.238226368652912246e-01 9.135030704752042027e-03 -2.373024446202018911e-01 9.713928664506956689e-01
1.883785849954390176e-02 -2.405898894403033783e-01 -9.122738332315984966e-01 -3.255988249491773012e-02 7.467061507421143274e-01 -6.643566651248500321e-01
-7.358604095210390106e-02 1.084143385876798135e-02 -8.269449161850050967e-01 -4.746697152541581310e-01 -2.867305040734624000e-01 8.321503947330161077e-01
8.169855745620803467e-02 -1.231886384254217703e-01 -7.938956655196610646e-01 3.489931293310861715e-01 6.890292442806701390e-01 -6.351712337674813025e-01
1.365462497547362541e-01 -9.713304628337345037e-02 -7.898092341442225495e-01 -6.716528109095040167e-01 3.644054984125434382e-01 -6.450512648806046023e-01
5.770610109383574743e-02 1.859238284073509370e-02 -7.329129250609913715e-01 1.831729850563230400e-01 2.334935541679027948e-01 -9.549494320159558347e-01
-4.748931421858521712e-02 -3.801156233077118696e-02 -7.854334712469190904e-01 4.614291797560691744e-01 3.609567374624788605e-01 -8.104278781915664753e-01
-1.256395963187350306e-01 -3.471907441795298033e-02 -8.254004035452271459e-01 5.885253583780389874e-01 5.417966023369898965e-01 -6.000786150514735295e-01
-5.451149895683085611e-02 6.792534471494850179e-02 -7.673415268629706354e-01 4.282670737748254242e-01 -8.784263644003732496e-01 -2.120246114173794660e-01
-1.002400513619679662e-01 -3.637357419375492756e-02 -8.755978268236835893e-01 -4.166272161091614384e-02 -4.362988831622625074e-01 8.988367494597302443e-01
-1.095163877531620672e-01 -8.634062613916904105e-02 -8.900869068153756114e-01 -8.587930261969771717e-01 2.175251164683864591e-01 4.638505813954023616e-01
-2.212493721124290241e-02 -2.238494672250472828e-01 -9.119907319089345377e-01 5.211455531253446072e-01 6.952915185375972973e-01 -4.949515296545314302e-01
5.095904397299989147e-02 -1.350614658738266971e-01 -8.095220491031930310e-01 9.029285928958330487e-02 5.632865388435585041e-01 -8.213132622324782472e-01
2.122017279962451486e-02 1.037099631535868816e-01 -7.239700718946010527e-01 -9.876942284016856366e-01 -1.534734563071167013e-01 3.009998988615599988e-02
1.583981998764806554e-02 1.301096760837753274e-01 -6.816495707690266581e-01 -9.889260994129543958e-01 -4.490246674508972108e-02 -1.414529546530778059e-01
1.679925989619584711e-02 -1.740177668977054004e-01 -8.962825441160474638e-01 2.982409798326063899e-01 -4.657624201130458608e-01 8.331372551740353627e-01
1.386882091823505858e-01 -9.095976935424693322e-02 -8.005457983072146178e-01 -9.732855162065947585e-01 -7.133672476102025616e-03 2.294872864876530139e-01
1.145120620262216060e-01 -8.867587099127516304e-02 -7.783127368922523326e-01 -9.425736550758000154e-02 5.633459973057093340e-01 -8.208269222967812251e-01
-5.211319875631649501e-02 2.099847504621300820e-02 -8.113471273901288194e-01 -5.226203383720845475e-01 3.471197649349652692e-01 7.787013873824435439e-01
-5.242943116746302118e-02 -6.389512488951960834e-02 -8.587175671182334380e-01 -2.232248108856624835e-01 -6.248335755414294868e-01 7.481668842452016133e-01
1.112128003142869026e-01 -1.288178619730359076e-01 -8.444158253401874425e-01 -5.919966911632894568e-01 -5.489270047272414299e-01 5.901008906389617614e-01
-7.077473682746587835e-02 -1.672134994985843837e-01 -8.828547816594279896e-01 2.828576996378735497e-01 8.208182428885550941e-01 -4.962347568408682630e-01
4.482729696054749829e-02 -1.606735763561198960e-01 -8.976522765370391621e-01 -3.402199411755896241e-01 -7.066685162586633373e-01 6.203789162723518658e-01
-6.869963761377201328e-02 -9.947310918929305745e-02 -8.302066451994184471e-01 4.254958945636267420e-01 5.420635840766505620e-01 -7.246518574650002709e-01
-5.202889042506270156e-02 -1.855703056244645544e-01 -8.968072213888629296e-01 4.876142926159408031e-01 6.266524980932758337e-01 -6.078971527076867387e-01
-3.887306383315865949e-02 -1.814495244613029135e-02 -7.713676560367485058e-01 3.853126300599692966e-01 4.666282089098546804e-01 -7.961107283323409778e-01
1.309238551188433852e-01 -3.851447420687451051e-02 -7.806886203192768825e-01 -8.583396461155952117e-01 -3.064760898631138653e-01 4.114917474851368939e-01
2.090354256538776503e-02 -1.557424865844823647e-01 -8.995161960779156640e-01 5.789326958349870766e-01 -3.935497317186653632e-01 7.141117156001579591e-01
-1.282024528605867353e-01 -7.265256007975076646e-02 -8.598251214390822961e-01 7.050702642468013037e-01 3.206368138473338347e-01 -6.325092537511021185e-01
-9.237145051263478956e-02 -1.264411950491786674e-01 -8.669428173765324486e-01 5.417009324167050277e-01 5.864060648889456440e-01 -6.022358565216240356e-01
2.908213233159918985e-04 1.346666428688647887e-01 -7.150356141635678675e-01 -2.983039314095245476e-01 -6.867006347236241925e-01 6.629155321575995741e-01
4.522948343737383248e-02 -4.498175391932501821e-02 -8.159104586082197574e-01 -1.506776515803156212e-02 -1.871965198272623199e-01 9.822069157859273369e-01
-1.511146470429217473e-02 -2.544657888055458783e-01 -9.423406076213675098e-01 5.589033398724936319e-01 5.978810244395958984e-01 -5.746001542763727876e-01
5.285982509258907447e-03 -1.305360463922378422e-01 -8.675781391613381910e-01 -1.838677865159377145e-02 -7.620197711544635100e-01 6.472926654462543006e-01
6.956735178428039186e-03 1.048978263159936336e-01 -6.804872178365561908e-01 -5.352865299437959967e-01 6.517673457566983686e-01 -5.372780079865526748e-01
-7.197400851229261709e-02 -1.716369996761030192e-01 -9.347622956640738723e-01 5.032303424997218722e-01 -8.987457451755585802e-02 8.594659872519103683e-01
-2.267322492507590700e-02 -1.401186925022343543e-02 -8.259988476822761605e-01 -4.540724786704916638e-01 -3.041784713990331457e-01 8.374327684365971969e-01
-6.466623652469705164e-02 -1.459375221657205624e-01 -9.131693608387603245e-01 2.666838936094347856e-01 -7.875628688148147427e-01 5.555397632514622597e-01
7.741897197308850176e-02 -2.123447598313353557e-01 -8.810909910673193624e-01 -2.389114647093615873e-01 8.355819852680996807e-01 -4.946959247111790692e-01
-1.354542984197088518e-01 -1.778043297659301705e-02 -8.370732664326694383e-01 9.590172245218971936e-01 -2.365334244497122040e-01 -1.560060966385916348e-01
2.895448228564575371e-03 1.671896096822614863e-01 -6.133948920270174687e-01 -9.421757303798610206e-01 1.576213850494190272e-01 -2.957370319359381439e-01
7.191278693624503920e-03 -2.566867721664953250e-01 -9.271079745285764062e-01 -1.929720012451423550e-01 7.031494586418681747e-01 -6.843556425916954566e-01
-8.878104339303131975e-02 2.408559981228746219e-02 -8.371123233454430546e-01 -9.937981464122683239e-02 -5.814108905594869148e-01 8.075178194818363187e-01
-1.212891071590467967e-01 3.279906559845518869e-03 -8.444612907783846101e-01 5.545394973918411630e-01 -5.271385964730024298e-01 6.439028233676860058e-01
1.642933692504966112e-02 -2.298793259529096911e-01 -8.999547646241479182e-01 -2.150924336638435769e-02 7.613796066724934919e-01 -6.479494170018558208e-01
7.090023513048412940e-02 -1.646800439857078469e-01 -8.874101573816760569e-01 -3.461822428403800722e-01 -6.527041793930224989e-01 6.738954733079051129e-01
1.863513841552368391e-02 -2.450704739616257899e-01 -9.664644437519150921e-01 8.716094920052986916e-01 -6.103878784334582086e-02 4.863858137578438989e-01
-1.282504973028137096e-01 -3.939415628068011072e-02 -8.328131478687291755e-01 5.237621238156672243e-01 6.403552591786555448e-01 -5.617992343340622030e-01
-6.691073466270205244e-03 1.898808633782610444e-01 -6.228432920420129415e-01 -5.085894717243129026e-01 -8.101199971344585915e-01 2.916201973355914689e-01
-6.557637772651415779e-03 1.095239473146862458e-01 -6.678128172288175790e-01 -8.848825732923071286e-02 7.966946633877948214e-01 -5.978690840344934587e-01
-3.745280427291676484e-02 1.483695947533330561e-01 -6.382442051182746212e-01 9.140066040982982587e-01 3.989514814102527174e-01 -7.368611229574897892e-02
1.136766426984418300e-02 -4.471315049286928717e-02 -8.201593184924015345e-01 -9.791549786442487191e-01 1.279726678210938717e-01 1.577292746668573775e-01
1.498111280017294308e-02 -1.553456315390206177e-01 -8.940678431314692531e-01 6.307998850078136988e-01 -2.640841502335409263e-01 7.296239213934516687e-01
-2.956862496762353854e-02 2.221221862467286090e-02 -8.016861170138309678e-01 1.248854524168170749e-01 -7.341822485674283083e-01 6.673680016775765944e-01
5.356749990611076734e-02 5.408259955766505506e-02 -7.405754836999781654e-01 -5.271351422784751328e-01 -8.285513912081245991e-01 -1.887621092860882477e-01
-8.734766886964384636e-02 -1.319011604285893861e-02 -8.604798433541429592e-01 -2.299283051108267084e-01 -4.702069561407161702e-01 8.520788654260502692e-01
6.328556831310806763e-02 -1.117692801968712089e-02 -7.417322479221649667e-01 1.089218583773745863e-01 2.887000178338537948e-01 -9.512036209300045453e-01
-2.801125347956182066e-02 -6.538911791328646389e-03 -8.256286691163433611e-01 -4.166494004995136557e-01 -3.773678945926773887e-01 8.270409598043411137e-01
1.739121617191599981e-02 -2.419906592190982642e-01 -9.137773342241150010e-01 -3.255988249491773012e-02 7.467061507421143274e-01 -6.643566651248500321e-01
-7.849909877078506404e-02 -1.301417387957536920e-01 -8.588748349011213756e-01 5.083153362453757262e-01 5.292874075827391778e-01 -6.793160966090044939e-01
-2.716191691844160178e-02 -1.077346224171335798e-01 -8.697796617692595822e-01 -6.418729236409866923e-01 5.271879997268915652e-01 5.568410570715229824e-01
-1.408277648792640639e-04 -3.720679145948112970e-02 -7.613768463051658886e-01 -1.904169743283851135e-01 4.090255923787307069e-01 -8.924345581984436393e-01
9.854747700405709632e-03 8.070019508806533515e-02 -7.754813330870284904e-01 -3.421328176348424899e-01 -6.530176352673279228e-01 6.756575339083482623e-01
-3.625507201091179854e-02 3.374867285761688762e-02 -8.079276609092200800e-01 -4.440996012127299553e-01 7.397339328732426000e-02 8.929185188404666906e-01
6.234302236866388902e-02 4.417555606846469696e-02 -7.640692043415311385e-01 -3.821913618965561699e-01 -7.534905211904261435e-01 5.349596221845489552e-01
-1.897852597865976390e-02 -1.981504354765332709e-01 -8.748684712020906584e-01 4.612443629302250270e-01 7.600856592754230423e-01 -4.577372917175704936e-01
-4.105017848489269511e-02 -1.977460784577477204e-01 -9.519766506713164267e-01 -4.413632752884000254e-01 2.103751150401091397e-01 8.723191905481370023e-01
1.860698118086222611e-02 6.323612882180087991e-02 -7.232681243687951733e-01 -4.994365793654881869e-01 1.493665654823875255e-01 -8.533772508730801398e-01
-2.153368123089531919e-02 -1.739188690403206949e-01 -8.539355749982886490e-01 6.617232610809528071e-01 5.242739423905157237e-01 -5.359656323633965602e-01
-5.815559955735386671e-02 -4.581806719326725341e-02 -7.949718276172849096e-01 4.216960578784071378e-01 3.871635213770484030e-01 -8.199249005151232339e-01
3.054475350315632651e-02 -2.506344596297914173e-01 -9.237857621481107007e-01 -4.636007937675800522e-02 7.265163812274219035e-01 -6.855834674555620900e-01
2.200213683992540553e-02 3.198204131549582663e-02 -7.348956323751987263e-01 7.254651222873438610e-02 2.964232771683147361e-01 -9.522973507871596022e-01
6.728630506026081481e-02 -1.664933614591876387e-01 -8.297341810901746051e-01 -1.671174959384275904e-01 4.990451851541803374e-01 -8.503091471492585374e-01
1.046341947901021641e-01 -1.026162366192178849e-01 -8.232769920001178354e-01 5.346138957162223093e-01 1.754260047639241982e-01 8.266883931444131139e-01
1.132474125825151390e-01 -1.140035532224796533e-01 -7.922906232251237801e-01 -1.195045382191370215e-01 4.308689913395744586e-01 -8.944666442338967682e-01
-1.059399613674169051e-02 -2.452556132171149483e-01 -9.766585627600059549e-01 4.008148026779800865e-01 7.541147727380240195e-02 9.130501645854922632e-01
8.583049024992520093e-02 2.983766258685022210e-02 -7.623267588060477218e-01 -5.680575093541586629e-01 -6.964554361746198019e-01 4.384751891375042177e-01
-2.865246405019897247e-02 -1.187024505467748235e-03 -8.233257323618808909e-01 -3.861075604271170247e-01 -4.380288377028252467e-01 8.118199856629130240e-01
-1.283423687281179219e-02 -7.908529363654163286e-03 -8.159477984514745819e-01 -8.804168251374088205e-01 -1.416909741665398348e-01 4.525371607445098365e-01
9.089069317185090313e-02 -1.468523577553059942e-02 -7.841947534352374793e-01 -8.351197952121793000e-02 -2.269075808935276384e-01 9.703291704413998797e-01
-1.569974720001748869e-02 1.865427907948971897e-01 -5.847242490495114797e-01 -1.923876060983488179e-01 -4.060565987513370390e-01 -8.933672523829394585e-01
-6.134667720509934252e-02 -1.393756101179152995e-01 -9.039311718998970235e-01 -2.687859706754422429e-01 -6.681214207137524674e-01 6.938067952618345302e-01
-1.454658620168948306e-02 7.585843814881787495e-02 -7.086495199789639710e-01 6.117528351069809744e-01 4.897925946832425437e-01 -6.211776581075884041e-01
5.868381139489520226e-02 -2.289531576590228823e-01 -9.402679713686403762e-01 -9.193640263992013395e-01 9.139995175226084401e-02 3.826432225751990601e-01
2.448582138405301645e-02 -2.735151077240511874e-01 -9.657838595292685957e-01 -8.145206734149547101e-01 4.830870922665574385e-01 3.212210047071822339e-01
-1.327752190676173283e-01 -3.516124477382037705e-02 -8.335256129904939915e-01 7.024787254968163364e-01 4.270987310035815332e-01 -5.693068717304394788e-01
-1.006886220917205393e-01 -6.774612774013898109e-02 -8.316495960017739053e-01 6.153498460962527616e-01 3.213985511816953577e-01 -7.197551932481108805e-01
2.484490834154139821e-02 -2.291406143808337736e-01 -8.989873085262961583e-01 3.398232299287312630e-02 7.758935942864596536e-01 -6.299478804387287356e-01
-6.642772742045300986e-03 -9.836075949990975842e-02 -8.513012002966363623e-01 -9.585078177764561058e-01 1.003881115555868980e-01 2.668051542225506334e-01
5.517495407103532173e-02 -3.496793312718016189e-02 -7.501230794756962306e-01 3.839994077561639241e-01 7.374716259097945370e-01 -5.555898269594929939e-01
-9.372203375244310408e-02 -7.781119743194381266e-02 -8.300220293338940181e-01 5.944936304108935365e-01 2.666915053971570249e-01 -7.585861614542374065e-01
1.201085753040513487e-01 -1.426498404855545410e-01 -8.126616680047130670e-01 -4.178693746408073673e-01 5.143389257434860529e-01 -7.488929530996649708e-01
6.504632703774479441e-03 -1.957037200468452476e-01 -9.382700592690055297e-01 -9.921011268197150734e-01 -7.327122605925388832e-02 -1.018169023042126281e-01
-1.422965777882539626e-02 -8.663198214629215868e-03 -7.484332918491435338e-01 4.491713568983825566e-01 4.493614008611857558e-01 -7.722172126792684610e-01
-1.355074223633435590e-02 -1.883350873001922721e-01 -8.548036080089563837e-01 5.775020956211844858e-01 6.047933151439874866e-01 -5.483761259485004924e-01
-1.172427369471359671e-01 -9.438588175432924277e-02 -8.945809797795486462e-01 -6.987444769692048308e-01 3.716476968473039211e-01 6.112562026950132399e-01
-1.921429630767275409e-02 -1.489735877653284024e-01 -8.285651311788949647e-01 6.785849555656495724e-01 4.931286414256465522e-01 -5.443772598902910653e-01
-1.632963595612738072e-02 1.266764341952692635e-02 -8.108666319748859541e-01 -5.171501403815904618e-01 -3.526683770756940395e-01 7.798594412547029675e-01
-7.431129917449261213e-02 -1.391676107429851983e-01 -9.232129774620154716e-01 -2.354883563639409982e-01 -5.010974887679757739e-01 8.327343758771088567e-01
-6.994099608492553022e-02 -9.712672259451698986e-02 -8.291853396366056783e-01 4.257279940350203740e-01 5.408905886297105114e-01 -7.253916502322886872e-01
-7.346764994811098848e-02 -1.843421666395005836e-03 -8.479790907758172347e-01 -3.187797295516531793e-01 -5.931090780197917356e-01 7.393247632789582413e-01
-6.889631508113541747e-02 -1.364824018666497552e-01 -9.168741572647209903e-01 -9.377877025511198728e-01 1.099590514316749340e-01 3.293375653522364055e-01
-1.253351044209294052e-01 -4.117877273561969254e-02 -8.322941759660985594e-01 4.841033331870093215e-01 6.691746465097936358e-01 -5.637812122319439956e-01
2.598649632312724153e-02 -1.963663506443369400e-01 -9.395111634632566933e-01 1.096224692407692936e-01 -7.596827310450318116e-01 6.409875680459945491e-01
8.327978150053221007e-02 -4.268015497037314782e-02 -8.144257195333550747e-01 -1.131272132617291426e-01 -4.493989413786566023e-01 8.861392808737111881e-01
-1.018227044223904004e-01 -1.517539898357560257e-01 -9.057431973231948596e-01 8.340037537759231734e-01 5.395602618123396255e-01 -1.153796453481674006e-01
4.116463400410574902e-02 -9.987337171631868737e-02 -7.862070651217942796e-01 1.769820560048167568e-01 6.231210194778015188e-01 -7.618382682284037255e-01
1.092817104607451961e-01 -1.222793944502017505e-01 -8.398395087214373111e-01 -7.411187506093965816e-01 -5.870244602792246136e-01 3.257994483252729667e-01
-3.185490314217426927e-02 -5.381261192588020215e-02 -7.825187048691663039e-01 5.026574680959747798e-01 2.307042677125980545e-01 -8.331332490223506415e-01
9.512655847932530162e-02 -6.356490680829704476e-03 -7.359153403167320029e-01 1.237821615258481202e-02 3.089822731346017481e-01 -9.509872421086700278e-01
1.511643265918418896e-02 1.321145614818204084e-01 -6.989569077678732256e-01 -8.720665079202785108e-01 -4.497021009857093410e-01 1.930492842068310122e-01
-1.154286386526752611e-01 -6.297553819433529543e-02 -8.874674158496884679e-01 1.475819544552289253e-01 -3.972829584225679445e-01 9.057515209295464720e-01
-1.278028878860461015e-01 1.272171939897420419e-03 -8.364632579916245758e-01 8.379311875632637907e-01 -4.660434869525576507e-01 2.840330846537417742e-01
6.033122910332408551e-02 -2.538659662888354679e-02 -7.436760748638421292e-01 3.151853007501591308e-02 1.396714684076102164e-01 -9.896961468929604822e-01
1.088085124937069118e-02 6.365971177452002527e-02 -7.891067797503659165e-01 -2.343116592936085874e-01 -5.761568234427344448e-01 7.830334355054411333e-01
4.753995043341919385e-02 -1.528382211935578605e-01 -8.198614364463294724e-01 -2.022352751129493642e-01 2.960582400682300608e-01 -9.335150839636667808e-01
-3.820870528812397166e-02 -1.160085648619924859e-01 -8.209831419690789556e-01 5.230715151906237814e-01 4.571439105019520222e-01 -7.193160884389897536e-01
-4.402030245861228430e-02 -4.961018461503665516e-02 -7.885700301804442480e-01 4.785935698242105296e-01 3.405579155171823413e-01 -8.093012424934923343e-01
-4.047417783165049160e-02 -6.425267208028544175e-02 -8.554295918432184287e-01 -2.630205800821676654e-01 -6.459833783891024694e-01 7.166070396655630503e-01
-9.604334836228545225e-02 -3.341065708276722002e-02 -8.736364102352360828e-01 -1.416379472740289802e-01 -4.492785019251666623e-01 8.820926933150945448e-01
