-2.724128267991261440e-02 -1.586661217973664995e-01 -1.022500571745116549e+00 9.436057330697539269e-01 -3.301076359489841794e-01 2.524221079986939745e-02
-1.316301603716692192e-02 -4.153470511398609476e-03 -8.472798022039892407e-01 8.307973035555151764e-01 1.165562653084601386e-01 5.442338444292390554e-01
6.617865454649912889e-03 8.573384823036532543e-02 -9.454510980876557058e-01 1.938533319827817625e-01 -9.548024458183285157e-01 2.253290374951961439e-01
-3.217280939385169097e-02 -1.816642702618810334e-01 -1.040452575484426490e+00 9.443892840264656030e-01 -2.503742930074107087e-01 2.131703394401263107e-01
-3.527869902669136803e-02 -2.155198343226130964e-01 -9.909694855600057473e-01 5.621358294242274622e-01 -5.984675250157881488e-01 5.708239052273590408e-01
-9.879258776510370030e-03 1.762739894095562143e-02 -1.007474142412325691e+00 4.019910748011985557e-01 -8.381009590777246387e-01 3.687681631773212509e-01
1.005465584891687865e-02 -2.088434894489861124e-02 -1.060494659800134354e+00 -3.609922327721052510e-02 -3.380501451616392261e-01 9.404355083869265775e-01
-4.573727827796371034e-03 7.254407422526684690e-02 -9.662786085151485738e-01 6.370786875959190132e-01 -7.226403700446371037e-01 2.681821049078623176e-01
2.782998437361695887e-02 -1.375602437751287932e-01 -8.897806676732483711e-01 -9.664022638900187090e-01 1.888663619017015571e-01 -1.743449502860991429e-01
-1.615301355952371981e-02 -1.108192017241394212e-01 -8.696908980352543450e-01 8.177666979707567396e-01 -4.463359947764914959e-01 -3.633755735556329913e-01
3.438118039999475684e-02 1.266954402221922293e-01 -8.020342815312928586e-01 -1.664887900579334334e-01 5.032179887721845990e-01 -8.479700104137662953e-01
-3.709292455999891810e-03 -1.160188051132673009e-01 -7.844527227100545064e-01 1.515802379454220250e-01 2.135239140384782852e-01 -9.651067140985487569e-01
-1.896724531917827472e-02 -1.254504367846684676e-01 -1.051848878758272487e+00 9.922386177911856064e-01 -8.685631346289661436e-02 8.898598864693331445e-02
-3.749218977314035250e-02 -2.247407339660108250e-01 -9.388927090073500015e-01 9.705306629343324332e-01 -3.901979725049840864e-02 -2.377975772096409257e-01
2.264619291995469824e-02 -5.896354310725286652e-02 -8.038795311820553513e-01 -8.661737698079814418e-01 -1.031166259489031123e-01 -4.889887135195903900e-01
2.829681468071441539e-02 -1.187256756943910474e-01 -8.656903238690251134e-01 -9.524564375959148066e-01 3.024028636882796217e-01 3.713815444023578494e-02
-1.072511336586510523e-02 -2.711898137950847776e-01 -9.857392710432563154e-01 -7.538699643835292674e-01 6.181968331734916111e-01 -2.225146113284314775e-01
3.448846152097644752e-02 -2.316657103617236757e-02 -8.684572434260320328e-01 -9.765634145219624918e-01 3.313809358839098912e-02 -2.126634998548945776e-01
-3.933698052656293270e-02 -2.684494975893749191e-01 -1.018455296391486353e+00 1.346649186610259230e-01 -4.155399067454615403e-01 8.995509688639061752e-01
-1.863498421458682427e-02 -2.904862968956615013e-02 -1.018870937330221382e+00 9.868390548935460638e-01 1.582543849606629360e-01 3.322994699867875407e-02
-2.485954302151532555e-02 6.423863824519238618e-03 -8.312980984233391268e-01 9.936875075258252421e-01 -8.265021983773436498e-02 7.585564282166039340e-02
1.623621313210746320e-02 -1.162403931832780152e-01 -1.063049246863717823e+00 -8.785830476652292109e-01 5.521492437227563249e-02 4.743871209063769134e-01
9.636218814080606959e-03 -1.094467573696618484e-01 -7.950650848968273676e-01 -8.954108029435319249e-01 4.001917584873002642e-01 -1.951564767330615513e-01
-1.369735988236799864e-03 -1.211875484378518580e-01 -9.552064334230988552e-01 5.592669931076353906e-01 1.193295206620262061e-01 -8.203541283609872004e-01
-1.451877094602787438e-02 -3.726860046884848676e-03 -9.103959092447706514e-01 5.443792465524873725e-01 -1.708227602607232387e-01 8.212617247259570430e-01
3.770930704659346266e-02 -3.226362881585860543e-02 -9.902107528602298592e-01 -9.497415667787868498e-01 -2.709991422282833629e-01 1.566857403981282981e-01
3.133769218966000331e-02 4.960607431909876824e-02 -9.418258120544268364e-01 -9.844580259299759994e-01 -1.755828528642564557e-01 3.613441863846309377e-03
-2.991038295801071514e-02 -1.114428648409392375e-01 -8.105138267468857682e-01 9.351037894762092018e-01 1.260580402783636755e-01 -3.311952194528354765e-01
1.812954248001160187e-02 -1.612316134837557813e-01 -8.662110565242481242e-01 -9.472254486503324244e-01 2.905505104236566494e-01 -1.354413168930702904e-01
4.244475589316161132e-03 -4.213121976827538528e-02 -9.386044861127708083e-01 9.354576789071327170e-01 1.032225412753256799e-01 3.380296406328052727e-01
-2.265392433880583298e-02 2.582609766804187801e-02 -8.583902987476595969e-01 9.579562454154686435e-01 5.595332273504851489e-02 -2.814055037564224815e-01
3.439687152945623133e-02 -1.284669230311981380e-01 -1.018075674950152720e+00 -8.553135894663901340e-01 5.136642494449126239e-01 6.773258090693135003e-02
2.689384652103575177e-02 -1.303122140799725381e-01 -8.768960856393757108e-01 -9.699208797334604171e-01 2.045100281030373390e-01 -1.320194510758360973e-01
-3.511586311972138968e-02 -2.344754737356281593e-01 -9.563367375999174413e-01 4.551854139193016735e-01 -7.427559657900625889e-02 8.872932856209083674e-01
-1.839932237926265174e-02 1.741735951894779130e-02 -9.867165059803161276e-01 9.027805293554885813e-01 -4.300922023217928492e-01 2.830780566222755937e-03
3.484205134037073048e-02 6.495368650028524038e-02 -8.640969392268171845e-01 -9.497590688608673615e-01 -2.048764195734224525e-01 2.366080383658022701e-01
-1.554788916261921373e-02 -1.312397388958672639e-01 -9.817103010443787303e-01 9.211540752562815682e-01 -3.756054480510353510e-01 -1.019593891366845778e-01
-8.934316990998971558e-03 -5.946091785089605009e-02 -1.025449260544834207e+00 7.033287669382295437e-01 -6.694046028853898322e-01 2.392198219901585654e-01
3.881179586693717792e-02 -1.514464133071845124e-02 -9.416538587278243666e-01 -9.900661668234680413e-01 -1.172421917451521717e-01 7.760962431475579293e-02
-2.660413469536613423e-02 -3.975150525529280894e-03 -8.255892631729219167e-01 9.886122418358772590e-01 -1.237414467463742035e-01 8.563813198193331866e-02
-1.749613452997746815e-02 -1.216147336362173176e-01 -8.633018650163911678e-01 6.457041953911706322e-01 -2.197578401450285823e-01 -7.312814668436722343e-01
2.773044419813022049e-02 -1.813412535947850346e-01 -9.570267730306071252e-01 -8.496834467419107639e-01 4.234867576495142116e-01 -3.141607970901015290e-01
3.479313016948717974e-02 3.554017905735361305e-02 -8.602143177935113183e-01 -7.006986183260153211e-01 1.766555308463360618e-01 -6.912411082230370818e-01
-1.084836888037819976e-02 -8.953547055202746088e-03 -7.855371428560848912e-01 5.637424455192554529e-01 -2.524943848557139603e-01 -7.864102242063641945e-01
-2.261627300211910274e-02 -1.523602664962227515e-01 -8.891938245629625870e-01 9.736689438346398662e-01 -1.664611409454520852e-01 1.557545388329840963e-01
-2.314476942781632657e-02 1.026771992747724932e-02 -8.134528237190505884e-01 9.396786164634111094e-01 -2.542949205237581278e-01 -2.287754164179906791e-01
-2.540955272356443945e-02 -2.137558177544448823e-01 -8.978955992797394980e-01 3.894296807707199881e-01 -1.197233038752735929e-01 9.132419472648003467e-01
3.380000040072778794e-02 6.655449410716997305e-02 -8.502053645382774416e-01 -8.705524847916482623e-01 2.546614519453532788e-01 -4.210533411768295764e-01
4.495464267713049009e-03 1.869468049143981070e-02 -7.947776518533304912e-01 -1.890167842202348236e-01 -5.249748451210275446e-01 -8.298638847866525170e-01
4.298193562407899571e-02 1.869898298935838976e-01 -8.236845497828976237e-01 2.120135286023599464e-01 -5.782214096522018121e-01 7.878516771000725338e-01
-2.892442703187112982e-03 -2.263064101088438917e-01 -8.932028163608585203e-01 -3.917140365483702813e-01 7.479325681344285437e-01 -5.358703080921917161e-01
2.744094236497626044e-02 -6.381836403137737534e-02 -8.436569520829624302e-01 -9.804874857200660543e-01 8.730606940482148193e-02 -1.761304646886044101e-01
3.350181107642181272e-02 -1.243924473392207658e-01 -9.041647000110262233e-01 -9.518765361818286586e-01 1.779693409930220849e-01 -2.495154775419623494e-01
-2.591321941873287425e-03 7.921854641939071739e-02 -9.531053970673366571e-01 5.993303862597703091e-01 -7.454038610578033186e-01 2.918495708851286952e-01
-2.282401500313563716e-02 8.137535206884732863e-02 -8.485842389175265454e-01 9.283954623766372816e-01 -2.389922647613957618e-01 -2.845427258298628415e-01
-5.558795466893306191e-03 -4.762219456226610137e-02 -9.655236054132925183e-01 8.314076802804700739e-01 -5.523594689284250236e-01 -6.050029963360444019e-02
-2.175018841976461559e-02 2.436597712001529678e-02 -8.472563461870830093e-01 9.824840936873019404e-01 -1.830060551758415921e-01 -3.512533872317728095e-02
4.350847657485822778e-02 -1.083566292124717861e-02 -9.025747439067491884e-01 -9.442436511906746599e-01 -2.098769260993506303e-01 2.536840615355868689e-01
6.292655098497320840e-03 5.903396621809352957e-02 -1.001665499335077092e+00 2.116729465438221547e-01 -8.055949473430842334e-01 5.533636638926971996e-01
3.265363488236686790e-02 4.288031222897369099e-02 -9.149113650046584167e-01 -9.764775901461362206e-01 -2.154739223710112339e-01 7.905992691988541696e-03
-1.529980812925107146e-02 -1.814836880984385115e-01 -9.096496099308906125e-01 7.598617132434662969e-01 -4.288306883045747142e-01 -4.885840946192671064e-01
4.147039841223617435e-02 -9.989221185405688930e-02 -9.163140896216304121e-01 -9.405309195751351270e-01 1.892650524139529722e-01 -2.820998568909500737e-01
2.236587768854316621e-02 1.701870083935765054e-01 -7.957462295659247786e-01 7.640502223263553327e-01 -1.733909007868688623e-01 -6.214200296798979561e-01
4.233829853326682990e-02 2.032825965673602797e-01 -8.058589585690462131e-01 6.424687882270443406e-01 -6.532404947267710371e-01 4.006378816377662022e-01
2.781156453561793584e-02 -6.478332323243585211e-02 -8.459769821996614425e-01 -9.789648157476416035e-01 7.106636634199872682e-02 -1.912523492748027798e-01
-7.645332670225503044e-03 -2.746824894406998605e-02 -9.247250025530083795e-01 7.854592429839922785e-01 4.082152688290888731e-01 -4.652032587007622899e-01
1.734076844937996673e-02 -1.582935911340413448e-01 -1.034776296259986683e+00 -9.197278270618575169e-01 3.314720116688705254e-01 2.103022339592856005e-01
-1.800245534316462226e-02 -1.615478424335507757e-01 -8.466355347652355645e-01 6.591503015582157454e-01 -1.450623099758490131e-01 -7.378873939702345064e-01
3.303538086177674332e-02 8.534987434941566919e-02 -8.350492384514629496e-01 -7.733127515736203383e-01 3.801363424325164830e-01 -5.074285658254416020e-01
2.356787766824526911e-02 1.541759425909229042e-01 -8.411725955985002168e-01 1.877135086055722324e-01 -5.361513088929064086e-01 8.229856697776752883e-01
-2.190409656778306499e-02 -2.545870663566365266e-01 -1.055247657374478232e+00 -1.904856458052463508e-01 9.675159574144351349e-02 9.769106138555578855e-01
-5.032545884686275006e-03 -6.935687511929726490e-02 -8.972139204089593090e-01 2.639232495791640210e-01 -7.688318032063339302e-01 -5.824449988711996040e-01
8.416254861686241207e-02 1.880461259218816350e-01 -7.797169473796763395e-01 -5.824224844663605793e-01 6.554241353925186475e-01 -4.808359931754292438e-01
-1.553411100661382729e-02 -1.937258866348568198e-01 -9.831741182973103843e-01 5.021707478172159345e-01 -5.724317612908411679e-01 6.481870244784013746e-01
4.514782377635488675e-02 1.367507365699208721e-01 -7.985324385919492229e-01 -4.103086031796711053e-01 5.651551716847913465e-01 -7.157139666617392537e-01
1.592444422107067853e-02 -4.093447449112691539e-02 -1.064861209287779609e+00 -5.974917758967837056e-01 -1.241545918670555193e-01 7.922052859291159876e-01
-1.466734089407691066e-02 -2.820353835364520015e-02 -1.038706681661603293e+00 9.358168640375050806e-01 -1.090740687006220150e-01 3.351859849696908200e-01
9.529562085762053811e-03 -2.347372101940788380e-01 -9.587424434567966003e-01 -8.718887592307064116e-01 3.545278442949938436e-01 3.378165169832342829e-01
-6.899476112441644410e-03 1.118092383856072042e-01 -8.272001720969304195e-01 9.134947122869834235e-01 -1.993918864732221186e-01 -3.546410667595772948e-01
9.349481220389285752e-02 2.181168737981090122e-01 -7.977059509913008162e-01 -6.170415396290189758e-01 -7.506077823063905807e-02 7.833425929589560299e-01
-1.917772566275689761e-02 -2.110467555033215259e-01 -1.056866216351759924e+00 3.276368169890253035e-01 -7.468570201867395786e-02 9.418472073894351704e-01
2.181486462903664200e-02 -1.702523995602633622e-01 -1.008137017629395338e+00 -9.327703942694017814e-01 9.500064463384960689e-02 3.477272912695490437e-01
-2.311993637611147595e-02 -1.390667542127364299e-02 -9.057467399986482981e-01 7.816277557403182863e-01 -9.968588245657779290e-02 6.157278427155998823e-01
-3.010526943266162922e-02 -2.018653263817762333e-01 -8.838960272907013804e-01 9.788432867356710032e-01 1.460869386093574251e-01 -1.432634858582419457e-01
3.292406861314671473e-02 -7.266836228394586705e-02 -8.672136092749888059e-01 -9.235357605909901846e-01 -7.547923762201551312e-02 -3.760114141852887171e-01
2.729457890944909579e-02 5.878409741317466852e-02 -9.899197852400205555e-01 -8.589806360216580838e-01 -4.511654128015872289e-01 2.420785765643068133e-01
6.267351732844983481e-02 1.887114875731382702e-01 -8.212807175731320353e-01 -2.849651462336338370e-01 -3.154478671651538835e-01 9.051450207193315611e-01
2.337696559919652875e-02 -2.010508845137810169e-02 -1.041913771876261441e+00 -9.414791063364166268e-01 -1.326636024282543402e-01 3.098668438583584983e-01
3.692597990253955464e-02 1.304958654284804447e-02 -9.651645434491178399e-01 -9.877444273072722991e-01 1.555559136285201705e-01 -1.277904764155361750e-02
2.766318280576798849e-02 6.327466568892388399e-02 -9.145412228006309929e-01 -9.705539316258309235e-01 -2.382185961601873125e-01 -3.573466453055564040e-02
3.392752893129032110e-02 4.605342182085777128e-03 -1.008159674555652474e+00 -9.687248160124494190e-01 2.103040400479277150e-01 1.316982975636587505e-01
-1.648546010198548642e-02 -2.366642421789336703e-01 -1.057089913831152472e+00 -3.556839745312118661e-01 2.333785388408634587e-01 9.049990982703706166e-01
-1.675786007917579035e-02 -2.880650739930953885e-01 -1.001492516310439784e+00 -5.218940981134709833e-01 6.858168705276174171e-01 -5.072295047155992442e-01
3.250561189691581615e-02 1.522418708886117689e-01 -8.428627019639077789e-01 -2.268373579674660620e-02 -4.549506496487496499e-01 8.902276981281161961e-01
2.947969423507012382e-02 5.562562559168784254e-02 -9.767085141186226949e-01 -9.804915342517772636e-01 -1.917416892380219007e-01 4.326055788759016613e-02
1.752681118338795044e-02 -1.899276546156094259e-01 -1.029130685869566353e+00 -9.325901782906091952e-01 -1.509203089722805091e-01 3.278698212638685439e-01
-1.398270013785265185e-02 -1.501155289360426096e-02 -7.857932893663499563e-01 6.181142431874333543e-01 -2.619049156658314614e-01 -7.411751463175896282e-01
-2.639565333880992265e-02 -1.000400928457970545e-01 -8.537906094803825452e-01 7.132597446163606580e-01 2.576434750999317957e-01 6.518284869873630649e-01
-9.443184681297487476e-03 3.468995955090638239e-02 -9.243682403242777790e-01 5.805002686615253760e-01 8.094836975099655163e-01 8.806577967344381142e-02
-2.757053755153610064e-02 -1.070681415019600902e-01 -8.032447868045767825e-01 9.181765699661444957e-01 1.054412993935690962e-01 -3.818820743991543920e-01
3.281617083781647980e-03 -3.708815384931785780e-02 -9.457399947739584256e-01 6.752225833505617336e-01 7.329938973356863174e-01 8.242820756291549533e-02
2.002451909688532372e-02 7.411392597170682328e-02 -9.743822419323737716e-01 -3.916351838993554768e-01 -8.151409950627687140e-01 4.268103102084077616e-01
-5.605328188828246141e-03 -5.124786825141790930e-02 -1.003627940334186786e+00 5.846919088230971839e-01 -7.993424595906982733e-01 1.385171615804189904e-01
-1.965667730192753940e-02 -1.563240536020877591e-01 -9.061869395320086840e-01 6.649761672863171436e-01 2.102126588735952484e-01 7.166710088949415081e-01
1.843163629959150215e-02 -1.569470922930659429e-01 -8.486084940524183384e-01 -9.366911072845999220e-01 3.501005947768932591e-01 -6.272405504731423317e-03
-9.798395353510730779e-03 -9.201066237626101540e-02 -9.587494620573765447e-01 9.802330345296176306e-01 1.378387806742004396e-01 -1.419283923642733758e-01
-1.464039642407372402e-02 -5.232266962384626852e-02 -9.143467425564657525e-01 5.865036126165001917e-01 5.032956134300959894e-01 -6.345920247606470221e-01
-1.907770639989183128e-02 2.592245024088060939e-03 -9.736365740912243938e-01 9.921861797194333477e-01 3.685380715889488568e-02 -1.191989164030079207e-01
-2.013829975430663638e-02 1.940525705410523979e-02 -8.133214898988465613e-01 8.910979473226905423e-01 -3.497483219115894992e-01 -2.891721971374750511e-01
3.757787304532485273e-02 3.204621883766994167e-02 -9.582866999692277732e-01 -9.170808012759479322e-01 -3.984952125691700875e-01 1.282066653951079681e-02
1.116132782576847136e-02 8.390394491290073531e-02 -8.242346436435971091e-01 1.392304135103598905e-01 4.818688164335756530e-01 -8.651111695629870590e-01
-1.481554601076410724e-02 8.875558693114852377e-03 -7.962882567972011660e-01 6.719407523856234521e-01 -3.290987066457820021e-01 -6.634679092220784336e-01
-1.094424699915790174e-02 1.046420227666442493e-01 -8.337067201443639775e-01 9.179034948078002021e-01 -2.100174474441074690e-01 -3.366687481615842081e-01
1.751642519349573546e-02 1.706675063020253735e-01 -8.162793671621876301e-01 8.504099307637894567e-01 -5.082841158253362801e-01 1.358315399970969617e-01
3.576517407063196929e-02 -6.698433284555399547e-02 -1.004108890500903684e+00 -9.892400921026304195e-01 8.127371495571328319e-02 1.216495928233079366e-01
-4.668820293873852945e-02 -2.654316958905555968e-01 -9.803314542348220417e-01 8.705032879143487223e-01 4.154673390019568147e-01 -2.638388067607597698e-01
-2.721299240691752927e-02 1.567695760192384588e-02 -8.951624302831389102e-01 7.655760620077897149e-01 -1.616297322593205077e-01 6.227111071198468961e-01
3.238065067726578899e-02 4.423856452842567927e-02 -9.116094404008370233e-01 -9.764775901461362206e-01 -2.154739223710112339e-01 7.905992691988541696e-03
-2.533804660557970739e-02 -1.577864371075086147e-01 -8.770474306471840453e-01 9.764513971659228853e-01 -1.877614190151991325e-01 1.062464987757980595e-01
1.610627612852630688e-02 -2.037362811842706178e-01 -9.524283410152227791e-01 -8.789441954303722770e-01 2.921590338313689861e-01 -3.769618021364721794e-01
2.997408169529178212e-02 -4.838813047815069407e-02 -8.529329918704187108e-01 -9.775277241216917545e-01 5.854827995620949521e-02 -2.025133266914430907e-01
3.915514031346228191e-02 1.963524720808262902e-02 -9.296076161896017487e-01 -9.225873001039565091e-01 3.845143157645579679e-01 3.132753834896474104e-02
3.116191676670285182e-02 -1.638670854277775868e-01 -9.293938954842220213e-01 -9.334581463286730774e-01 3.579206434193712982e-01 2.342439042751678566e-02
-2.580838529494129327e-02 -7.388317664263695239e-02 -7.979048535182333701e-01 7.069581020845172592e-01 3.824616606124878193e-01 5.949229530440015568e-01
3.981958584658153860e-02 -8.827294438293954715e-02 -9.720704107723757703e-01 -9.811088954149292940e-01 -3.271735561283679872e-02 1.906696357037490075e-01
-1.358407433119682671e-02 -1.815726644507784440e-02 -9.459472562117380301e-01 9.715413557284212631e-01 2.318421542202303010e-01 -4.854492389430837412e-02
-1.776668850205236766e-02 -1.508628210957914210e-02 -9.759175594137021736e-01 9.759300881329214805e-01 1.630199820712053271e-01 -1.448618256214242450e-01
1.089707140565816801e-02 -1.928527563444262238e-01 -1.045781239301730281e+00 -8.974273215601532572e-01 -2.388844014054901654e-01 3.708887235849991915e-01
-1.598554525614634056e-02 -1.463349077866868408e-01 -9.552300831077472631e-01 3.957176888994251573e-01 -5.720739602337646668e-01 7.184280720535318743e-01
7.769901723582867126e-02 2.415039776343490818e-01 -7.792930585110924291e-01 2.189862935107824982e-01 -9.753261601057355845e-01 -2.799794042087597190e-02
-2.293196573468918309e-02 -2.763039475139200240e-03 -8.387746959286986881e-01 7.823262949437912450e-01 3.689337411163969849e-01 5.018500402564294305e-01
-1.702301659982167342e-02 -1.325920293802031469e-01 -1.017026603365043025e+00 8.280117740802341864e-01 -5.605276352746231261e-01 1.432731928667617914e-02
6.225761422389367028e-02 2.323786627648532499e-01 -7.859876746829635996e-01 6.682074956266489396e-01 -7.406782833391175602e-01 6.996015564719652857e-02
2.226452619321942286e-02 1.857941412261268849e-03 -1.047049149778573884e+00 -8.922613397584364670e-01 6.819174255125441675e-02 4.463402153294091512e-01
-1.559157983859492565e-02 -2.785289913158827679e-01 -1.048698512736901289e+00 -3.718129253994883476e-01 2.219582712376392541e-01 9.013820911994385732e-01
2.864289679578700329e-02 -7.287073164205820630e-02 -1.046280035718653911e+00 -9.046327585978750641e-01 4.103949638012799328e-01 1.149588872516812549e-01
4.133362329345573877e-02 -1.296236941733631409e-01 -9.225954310101617262e-01 -8.819221923379920725e-01 -1.089707032761917660e-01 -4.586268990031457937e-01
4.497669087456476061e-02 -6.219107323466357279e-02 -9.048633191226220784e-01 -9.492296362312804270e-01 2.441074755051373946e-01 -1.984304364323674352e-01
-1.363355812961567761e-03 -2.620552173556932596e-01 -1.028682720802427619e+00 -8.712955336899621539e-01 1.113468208785800828e-01 4.779602268517300634e-01
-2.085034306873682561e-02 -1.663196719524245026e-01 -9.855867660458008661e-01 3.295560377173538114e-01 7.617298477161166259e-01 -5.578175840742383151e-01
3.376098450626978387e-02 3.919629453807345343e-02 -9.071644075156705123e-01 -9.421226855040807369e-01 -3.351071099872754422e-01 1.039568634362195154e-02
4.437339217178193351e-02 -3.772613651025569920e-02 -9.558142465006557176e-01 -8.621411581138678226e-01 -4.970766331216762146e-01 9.811954081882545697e-02
-1.503166110701589786e-02 5.984542588269242680e-02 -8.904434619384736793e-01 9.503767879564632981e-01 -3.100109994146203474e-01 -2.602193604449553818e-02
-1.214280793965002471e-02 -8.971317977206541561e-02 -9.873246525934783469e-01 9.988225973802206115e-01 -4.755513199359134163e-02 -9.587929062194048765e-03
-1.414968035925512346e-02 -8.990933688767550891e-02 -9.016076788050532143e-01 9.796136618448557654e-01 -1.966242421033555787e-01 4.118228920535600690e-02
-3.045479399808375537e-02 -1.717964365360561130e-01 -1.005061945072910579e+00 9.444876467726242009e-01 8.927592827049109225e-02 -3.161849043287055516e-01
4.062289408601985063e-02 -1.369235853467793418e-01 -9.663926121083108445e-01 -9.032119973893220077e-01 -1.264120148782554159e-02 4.290084938517363944e-01
-2.251050822341623195e-02 -1.585826371281129910e-01 -9.813131168002361404e-01 6.562052119133764405e-01 1.966878605217083353e-01 -7.284974985414252036e-01
-9.269969453047382027e-03 2.816453688529446664e-02 -8.045197744226462166e-01 5.139296985083635638e-01 -5.760707644651852366e-01 -6.356246843221241560e-01
-1.054518313349599515e-02 7.433319219518855214e-02 -8.955403531552016405e-01 8.817803146334812769e-01 -4.659812098806444536e-01 -7.297252060227550630e-02
-1.388529354755939707e-02 -1.363260150127330872e-01 -1.065118878194631913e+00 7.102858313850020089e-01 7.416185520103756035e-02 6.999957549634545639e-01
2.936419941776179099e-02 5.916397906240494081e-02 -9.662718238347909328e-01 -9.849437076243239275e-01 -1.665192242123920419e-01 4.644610617644390205e-02
-1.291507465950398606e-03 1.153838882363881629e-01 -8.582245289683025913e-01 5.354871148336080022e-01 -5.421539881151165030e-01 6.475512358246664490e-01
9.641714411229491966e-02 2.267901760947104162e-01 -7.933631835212895389e-01 -6.171676208774450334e-01 -3.661022227932901885e-01 6.964720311730300262e-01
-1.651327557692576845e-02 -9.811124580055663458e-02 -1.046758034732136577e+00 9.872363806568982270e-01 -1.549032385892507024e-01 3.700426167388735921e-02
3.966905670626354879e-02 1.374367365628854920e-01 -8.455989551149363237e-01 -5.636359360401090868e-01 -9.294026595284012038e-02 8.207780690106220023e-01
1.214389561381548806e-02 -2.341105334803104121e-01 -1.009473962616146858e+00 -8.499994370411210198e-01 6.538042308790976975e-02 5.227105865645189642e-01
3.788774331911293203e-02 1.703268304937028202e-02 -9.451045091261046638e-01 -9.723114540997620514e-01 2.319525686316862290e-01 2.843311681066610849e-02
-1.145105656463754618e-02 -1.096938480104551611e-01 -7.917746292446607992e-01 9.329511817821555253e-01 2.906478546779881489e-01 -2.124286162040383286e-01
-3.101210641973894955e-02 -2.300931901539086111e-01 -9.651183312354459920e-01 5.675018049694979805e-01 -3.731701116927329531e-01 -7.339521572252479809e-01
-6.068978086437356451e-03 -2.273766018680295486e-01 -8.926489652961850929e-01 -2.884678277871746688e-01 7.975446563882383488e-01 -5.298196234553000927e-01
-4.615162953048663336e-02 -2.635836840863373665e-01 -1.034484708917909002e+00 9.150167810308487137e-01 3.638933943579830688e-01 -1.741432972427279235e-01
2.043429890323242640e-02 -1.673068482358962827e-01 -8.865935142236119892e-01 -9.412671288628631228e-01 2.369085396980803171e-01 -2.406045218618829695e-01
3.170190446587817235e-02 -1.653370566198788250e-01 -9.460789371861142438e-01 -9.256072024577419732e-01 3.496393700773622881e-01 -1.449262490036157813e-01
-2.931526904568654193e-03 8.443426400692391476e-02 -9.249857313738591991e-01 5.757296681368950786e-01 -8.166550588261644039e-01 4.012311205047076890e-02
2.764922256117094065e-02 -1.438284581230659109e-01 -1.015388893830447614e+00 -9.071220912087916144e-01 3.784445518325625923e-01 1.841445976107895788e-01
2.613642391566416232e-03 -3.890413997960721210e-02 -1.063435168288938470e+00 3.734806624569125266e-01 -2.341801519535083864e-01 8.975922521957158118e-01
1.795074686625507121e-02 -1.197758753494198719e-01 -8.328779142952856818e-01 -8.879221577574385460e-01 1.275057560833393888e-01 -4.419689173788022285e-01
-2.058109754720739704e-02 6.468252867754757662e-03 -8.029897248346231642e-01 8.983514020225639163e-01 -2.511172229567781855e-01 -3.604232218081534489e-01
4.665078421037245626e-02 2.142580512930326586e-01 -7.857870702432437904e-01 8.140342868958485578e-01 -5.507543714136301505e-01 -1.844391556225098427e-01
-1.870903827908159539e-02 7.698920815165921638e-02 -8.731671280283779257e-01 5.783457613971850764e-01 -4.263297359125324815e-01 6.955279552618000016e-01
1.710979382561437709e-02 -3.716355023424482845e-02 -1.062935729712061406e+00 -6.577274309462699531e-01 -2.444544288325635750e-01 7.124862516603142071e-01
-6.358340978102631526e-03 -1.559072505260129249e-01 -9.141597183750175271e-01 9.583185299966880955e-01 -2.393044995795791108e-01 -1.560735453110298765e-01
-3.722877087620101583e-02 -2.244144854483693663e-01 -9.967192341218219509e-01 1.828748742430353902e-01 -5.155489725236683807e-01 8.371176962054880377e-01
2.532672843911291591e-02 -6.339398088977619972e-02 -8.253719129481016381e-01 -9.863481865292638151e-01 1.637409751673906122e-01 -1.749708494763237837e-02
5.793037091609391960e-03 -1.974922057457521862e-01 -8.723823786478289710e-01 -8.712051579291827386e-01 3.841763158420104518e-01 -3.056307104066081637e-01
2.566317164838039649e-02 -1.311537580962803540e-01 -8.535036610372793708e-01 -9.792215169256501817e-01 1.884604932127603438e-01 -7.488566810699853749e-02
1.436388975705176971e-02 -1.668825287304516458e-01 -8.497774708918016673e-01 -9.065252414156445004e-01 4.001892782203712584e-01 1.343894648912839496e-01
-2.427856452305716950e-02 -1.660328342191936535e-01 -9.620578831125800034e-01 5.739130033733192970e-01 -3.886997279963738117e-01 7.207887249496632842e-01
-1.118543434791429737e-02 -7.429005087225191983e-02 -9.627964736926761802e-01 9.978471821639677275e-01 -4.739731626424763949e-02 -4.532654253719645837e-02
-1.658575875571160693e-02 -4.545875272927617575e-03 -9.556446195015594336e-01 9.899691690695749946e-01 1.017285243441380660e-01 -9.804260107963003179e-02
-2.941855213286732190e-02 -1.647370172394479748e-01 -1.006158070879136668e+00 9.587546825979753606e-01 -2.755331538583759565e-01 -6.979211790246908631e-02
2.183533479288409657e-02 -6.957761448355689882e-02 -1.063861954822738154e+00 -7.591222320005190927e-01 -2.903223581895661987e-01 5.826202581594628338e-01
-8.245795973229146786e-03 -2.492762396458990115e-01 -9.336631862696994633e-01 -6.260296407651886330e-01 6.564855549728374484e-01 -4.208486723222664150e-01
-3.005806578288017228e-02 -1.958739009758902472e-01 -9.614319085002475118e-01 1.634832535760397942e-01 2.039972491155174483e-01 9.652245066063614987e-01
-1.349811710970782314e-02 -1.079088682987462966e-01 -1.013466538749311585e+00 9.755229031530392447e-01 1.370005023660327281e-01 -1.720056039067346387e-01
-1.917239695020994325e-02 -1.844747956641782927e-01 -9.999792721804240392e-01 6.097520445561598335e-01 -7.919992521299817900e-01 -3.065336498873524884e-02
3.808929024154783516e-02 -5.728440760604005394e-02 -8.825223427427257850e-01 -8.952662231563910389e-01 -1.223402645139194944e-01 -4.284054730672277600e-01
4.610778451228861839e-03 -1.720893544085058402e-01 -8.329036060432076782e-01 -7.255407273827214620e-01 4.173549385097974351e-01 -5.471795941100459082e-01
1.523219867957865785e-02 7.856001168120498035e-02 -9.681236442591062419e-01 -1.758936640373250371e-01 -8.959325068822159288e-01 4.078803281150891191e-01
3.935736443828660031e-02 1.073846188837126597e-01 -8.460847882042042967e-01 -9.073750633912087693e-01 2.461220875516094073e-02 4.196006834074416658e-01
5.666860631368219985e-03 -1.197102912826639443e-01 -7.999621918550998689e-01 -8.805902621204173553e-01 4.383712933906888098e-01 -1.799761078300940176e-01
1.855226272413302430e-02 6.607034760376481741e-03 -8.090839561822222858e-01 -9.573933819641909926e-01 -1.496329560590079211e-01 -2.469977543060097591e-01
2.445853110036491293e-02 -1.556816584422628658e-01 -1.009902950557565626e+00 -9.191296509744488752e-01 3.009045820075451072e-01 2.542776380778548062e-01
-2.573653512387380862e-04 8.475750102063468738e-02 -8.765704328051087124e-01 5.779165685579531475e-01 -7.770845449907843872e-01 2.493031281846792846e-01
-2.453351960358714570e-02 -1.578962765362287579e-01 -8.552385210106883129e-01 9.126123918777382382e-01 -1.536354591635470668e-01 -3.788598261610745532e-01
1.110328693766758808e-02 -2.279070713164922934e-01 -1.013319671442813208e+00 -8.856983705667990092e-01 1.618017100386013596e-01 4.351535395741389922e-01
8.898524097929232102e-02 2.360427210315605151e-01 -7.671042127331756388e-01 -3.847424240307688592e-01 -7.781340799489163684e-01 -4.964681467858554909e-01
2.066772804483321679e-02 -3.371226270117939211e-02 -8.085861766415441965e-01 -9.345269083874090388e-01 -9.186365904072373023e-02 -3.438321184059468516e-01
2.894924643447403453e-02 6.138696547216397625e-02 -9.669310750249727748e-01 -9.841638214491317260e-01 -1.705230230551799397e-01 4.840941188203151668e-02
2.959067101243981202e-02 -1.916272859387149197e-01 -9.709576770539648516e-01 -8.645574736641296054e-01 4.901155329741023747e-01 -1.110276500202058703e-01
-2.100095862871009800e-02 -2.216151831540907058e-01 -8.877441859229442400e-01 5.186091103241421418e-01 6.264271856230776425e-01 -5.819223073582519001e-01
4.546649594499193453e-02 -8.858845685951056981e-02 -9.454010451518278790e-01 -9.505036239585592517e-01 -9.474661774801136638e-02 2.959154258685373073e-01
4.888117320389227111e-02 -9.058141864696579726e-02 -9.273050115355979672e-01 -9.565677014744909945e-01 1.590845997773860654e-01 -2.442750961712595037e-01
4.090564495830426722e-02 -7.918976558875306937e-02 -9.651412809780034463e-01 -9.882244213424307144e-01 -1.393562311015851367e-02 1.523754949818026116e-01
2.923585911133379928e-03 -1.922665372751319601e-01 -8.550400989319246747e-01 -8.219335527589695101e-01 5.391594746586336750e-01 -1.836635394814236655e-01
3.160523657702065531e-02 -5.869111946215142123e-02 -8.628551585652695088e-01 -9.694276095006353344e-01 4.195269028989166704e-02 -2.417645170725517823e-01
-1.552847168175733664e-02 -1.270613966374585513e-01 -7.954760170418992971e-01 4.868143001710640849e-01 3.437524553808977701e-01 -8.030230921764087704e-01
2.743926584686265380e-02 -7.681055544016918146e-02 -1.046495705995946324e+00 -9.492528759400935545e-01 1.916289020706832269e-01 2.493939482237807481e-01
-1.677258694447405357e-02 1.547027575122393583e-02 -9.035897463055260204e-01 7.086210567932130777e-01 -2.010837421908514833e-01 6.763294511521682484e-01
-1.303229942606216017e-02 -1.370955644900778148e-01 -9.406514190629199357e-01 9.296725503991802864e-01 -3.371886098337331106e-01 -1.483670800166878578e-01
-1.086059892502845223e-02 -6.502092808336336349e-02 -9.735975516908943472e-01 9.951271691088399152e-01 -9.776595140788235661e-02 -1.279593868139938979e-02
3.715008484009238443e-02 -1.467009487599113260e-01 -9.384005444577206978e-01 -9.492312028256115752e-01 3.088114196122313526e-01 -5.996357810639072611e-02
-1.469208330616553031e-02 -1.188016395204776199e-01 -9.198142506595043955e-01 9.515674357234659153e-01 -2.097929565305551580e-01 2.247361356365200069e-01
3.738287519423088429e-02 1.510202873433804001e-02 -9.512486335020083894e-01 -9.875632998034208354e-01 1.552546542696740806e-01 2.479357192868479956e-02
-2.091988782667615621e-02 2.547865519954770758e-02 -8.275980931099925497e-01 9.523589761866684267e-01 -2.872592557588849460e-01 -1.024426691253792765e-01
7.084092205398592745e-02 2.352544124667723668e-01 -7.934014972630603069e-01 3.693260018740572304e-01 -7.999110664102774271e-01 4.730122516109878106e-01
-2.399354456156507429e-02 5.926322278105514846e-02 -8.806818776279905503e-01 6.361165193314172184e-01 -4.101156745271131165e-01 6.535754794519555988e-01
-1.260261881772314387e-02 -7.329702882480824966e-02 -1.038817078484279843e+00 9.696245344332896643e-01 -2.273754829839099156e-01 9.015903705597053119e-02
-2.498027976916208578e-02 -1.698999457227958615e-02 -8.989380714192460875e-01 9.266435145451747957e-01 3.035603866795709704e-01 -2.217721546775331121e-01
-1.025653879111728534e-02 -1.454824121943299187e-01 -9.594317362637870827e-01 7.881993223967026507e-01 -4.704249021161291400e-01 3.967899187761820268e-01
-2.341957178592859665e-02 -1.053355837779690884e-01 -7.999940190674409424e-01 2.845480325998965832e-01 -2.365961468232817000e-01 -9.290073629696938839e-01
2.473467694135444289e-02 7.674727304289218066e-02 -9.298442411980220035e-01 -9.418940508863732353e-01 -3.275087793656340507e-01 -7.465652244305776009e-02
1.735720153766751733e-02 -1.062432250523668263e-02 -7.991361252470896570e-01 -9.662490798653280422e-01 -2.403762055480078777e-02 -2.564856886016653181e-01
-2.694915936206082260e-02 -9.416226868429340355e-03 -8.285451244758235134e-01 9.791723355146947361e-01 -1.084106608128276306e-01 1.716643992935761309e-01
-2.086013143121089042e-02 -2.321259569465261921e-02 -8.495607100242795751e-01 9.296890225415957998e-01 -2.765542420960379610e-01 -2.433024302063962196e-01
2.709196790862360496e-02 -2.996153459169926744e-02 -1.035481105687659387e+00 -9.346797457600674042e-01 -1.865703042751617746e-01 3.025975783587322443e-01
4.918905155816601094e-02 1.294245836182386644e-01 -8.118167061800360962e-01 -7.543413731469468253e-01 5.748315327768818150e-01 -3.170769649220188668e-01
-2.098840515640746154e-02 -8.926548272239633042e-02 -8.033697317198961185e-01 4.355125143854990388e-01 -1.623919122648243007e-01 -8.854138674340911175e-01
3.976620277469942316e-02 4.047147459320765694e-02 -8.690859624694647900e-01 -9.778728417634587888e-01 -1.494591565211826623e-01 -1.463785020876836318e-01
-1.207625174607203367e-02 -3.045273314410368651e-02 -8.940534138379615525e-01 6.358281417729495510e-01 5.631038691465176660e-01 -5.278604045406127820e-01
2.862769031103604427e-04 3.775490556906596629e-02 -1.021942393250425019e+00 4.727437360287550794e-01 -5.665214558072377837e-01 6.749568876273674967e-01
-8.055400449684944550e-03 -8.881310906579167885e-02 -8.691629823359476870e-01 6.277446798946654249e-01 3.331193276238357814e-01 7.035397148899183994e-01
1.941682929560436047e-02 -1.542312869063426350e-01 -8.608007677578537464e-01 -9.501351786774776542e-01 2.785782146264367820e-01 -1.401332243797467625e-01
-2.854527446851412575e-02 3.398149609411438288e-02 -8.642683163251189127e-01 8.231662619395804237e-01 2.299258662951636778e-01 -5.191641370634498820e-01
3.097178161105200098e-02 4.627359669476532184e-02 -9.809879538733263793e-01 -9.855960505609924205e-01 -1.664782676286795382e-01 2.975586540376981906e-02
3.224382409481207218e-02 -7.050909748947059054e-03 -1.010041087287169237e+00 -9.784607223985545277e-01 6.562266548751535811e-02 1.957250124475990172e-01
1.507232270500385302e-02 1.077695953343018598e-01 -8.118747895926485825e-01 9.596892823251657045e-02 4.651366652398479240e-01 -8.800215039778607196e-01
3.170806488899212405e-02 -1.818462492289410759e-01 -9.876490774272443929e-01 -8.990133524631124251e-01 2.552296856697778837e-01 3.558550261636639900e-01
2.018265195711532040e-02 -1.653868515000023742e-01 -8.832851960527177138e-01 -9.443302406308113905e-01 2.536455785360835491e-01 -2.095335703872995559e-01
-4.168208831008149082e-03 -9.724410081602324896e-02 -9.301548380318366283e-01 3.533717963625774283e-01 -4.186641112019265365e-01 8.365696238371232996e-01
3.109341210357699156e-02 -9.413456646249306059e-02 -1.022277145192766801e+00 -9.717176310172834786e-01 8.372474862786435934e-02 2.208053713960768383e-01
2.593350984289946939e-02 -3.916110838156414142e-02 -8.162610025632389688e-01 -8.912840477074009948e-01 -1.535653379605052271e-01 -4.266502470166719241e-01
-6.162855896244340964e-03 -3.324230353112195280e-02 -9.397747479863719500e-01 5.420646321132908119e-01 8.400125616299460862e-01 -2.334161339279687553e-02
4.352592162662131947e-02 -3.866212382216686200e-02 -8.963831571312024238e-01 -8.387630272236049622e-01 1.250931152481077335e-01 -5.299323510413549432e-01
-2.177802482236058587e-02 -7.262962275410636548e-02 -8.032932416672843301e-01 9.243556271513476696e-01 1.768789465760085278e-01 3.380540087202044131e-01
-1.227537688257924510e-02 -6.688419647234125631e-02 -8.800759479851968381e-01 4.676487402695715945e-01 4.262776424456359847e-01 7.743332791991273112e-01
3.934625257230679046e-02 2.093205326101311645e-02 -9.686536378306698225e-01 -9.760531996026192703e-01 2.172126168397316148e-01 -1.178264109295001916e-02
1.751649362221281009e-02 -1.057783320131087806e-01 -1.061910700307118205e+00 -8.940435904134982348e-01 5.821144740335177509e-02 4.441818161876370241e-01
-1.057397709210872606e-03 -2.708525074588087889e-01 -1.017944847522663343e+00 -8.493346263408766417e-01 4.883897900856840613e-01 -2.002650879171536114e-01
7.615122711582573978e-02 1.900283195559503979e-01 -7.712057549637639786e-01 -3.568743860908468180e-01 5.930981082377788649e-01 -7.217169158035919851e-01
-2.578727095643475187e-02 -1.541551129386955488e-01 -1.017794561406882625e+00 9.422666168628619499e-01 -3.347878807983368787e-01 7.120225865476139532e-03
2.741606325081579962e-02 -5.508491040148035672e-02 -8.395732769756822922e-01 -9.873738318483041843e-01 7.307821153333843300e-02 -1.405435561677775835e-01
-3.659739402437835881e-02 -1.950618898329992690e-01 -1.010817796332321716e+00 8.809116340188273275e-01 -4.679825625037337677e-01 -7.061879525111268430e-02
-1.430722935768085659e-02 -8.669614551484190745e-02 -1.048473926873451090e+00 9.652131381242019526e-01 -1.857484870597527205e-01 1.840138515097255734e-01
-2.633842508439443106e-02 3.189861122769498125e-02 -8.620717285916753569e-01 7.659026189044779720e-01 2.523355982853451307e-01 -5.913712236770054531e-01
-2.298464887942708139e-03 -1.123544904707536179e-01 -9.590434687643940581e-01 4.268891566962919604e-01 -8.736461337726066922e-01 -2.334696572133206915e-01
-1.857155452297799825e-02 -1.187896095003800195e-01 -8.744855939866859051e-01 9.841105501021180091e-01 -1.773543733445280823e-01 -8.476522475430238804e-03
-2.997074609532207959e-02 -1.793875636638130322e-01 -9.616690747962840513e-01 9.065619409740782730e-01 -2.811696150722618470e-01 3.147842034432923874e-01
-1.389133326621955385e-02 -1.214881291083084319e-01 -8.599437712463964267e-01 7.042105999263705840e-01 -3.510902358178965010e-01 -6.171086429994924183e-01
-1.530495592787423434e-02 1.808860247767209509e-02 -9.041394848808061990e-01 8.280501776215872800e-01 -2.245458730574155792e-01 5.137237139102504013e-01
2.832962109134711665e-02 -1.730411659576851502e-01 -9.442608287493875485e-01 -9.055760132583894340e-01 3.858460896560140241e-01 -1.762239464664340227e-01
-7.128893219702223723e-04 -3.513237203867105446e-02 -9.633917790101661494e-01 6.944716737871352574e-01 7.156034296013562557e-01 -7.497216716936951075e-02
1.008902060563891291e-02 -1.380472244244462972e-02 -7.837061634168951407e-01 -6.890045777521964787e-01 -1.357792808180094402e-01 -7.119246299553497748e-01
4.134749074687497222e-02 -5.056354713611654200e-02 -8.919967221613431807e-01 -9.115324921259441160e-01 -1.116146545029582937e-01 -3.957912135190106984e-01
-5.076150908574247715e-03 -8.217242784548012269e-02 -9.264276528525050569e-01 8.767499803492495580e-01 3.723638474296209200e-01 -3.043922421563999836e-01
3.146196323922497567e-02 4.720073701835666297e-02 -8.532654014689036170e-01 -7.117003918483535418e-01 2.121098292832774845e-01 -6.696954326888597819e-01
7.420472460499375617e-03 -2.186694100386419592e-01 -8.970828604318228372e-01 -7.943936619855135328e-01 5.145258202878663090e-01 -3.228031754093259598e-01
6.710364952183139886e-02 1.977713985040011613e-01 -7.656558360833282117e-01 1.421516365004958926e-01 3.628354070889424077e-01 -9.209470015168258472e-01
6.477488633912560460e-03 -7.702125967756524860e-02 -7.798554011081607618e-01 -6.320552615952337305e-01 1.822638005718919540e-01 -7.531839438615709481e-01
-3.962220712882964790e-02 -2.363108898940760871e-01 -1.014258407961734720e+00 2.481791241764039480e-01 4.027840577833842195e-01 -8.810063138925761095e-01
1.036379643146047649e-02 9.001135557861336678e-02 -8.972718084065589572e-01 -1.937427179838140112e-01 -9.776512793868683548e-01 8.161945320488228628e-02
2.363720092343699411e-02 3.704324329517676151e-02 -1.021938779565720212e+00 -7.266647438310288587e-01 -3.963489202920920662e-01 5.611291147822201619e-01
2.934409273910727669e-03 -1.241993638955367907e-01 -1.072600273997517117e+00 -9.916085337294111568e-02 1.509957619520282401e-01 9.835483745250542809e-01
-2.866911565403525847e-02 -1.836266534712423515e-01 -1.022904361319722399e+00 2.922899511826466679e-01 8.477459886766790520e-01 -4.425983767709119610e-01
-1.595043362294957731e-02 2.049153020524153296e-02 -9.657761009098482230e-01 8.976107248629505708e-01 -4.319252783102359161e-01 -8.795192190983605607e-02
-3.159289164618773321e-02 -2.069347799071683258e-01 -9.593267230677527957e-01 1.726629104243889712e-01 1.527749899873243611e-01 9.730608006687724298e-01
2.835279921292494995e-02 -1.386895597545482473e-01 -1.026051128491117126e+00 -8.843677072025030172e-01 4.430757971093991499e-01 1.468931464475404236e-01
-1.282401918968099387e-02 -1.356720465411427601e-01 -7.986074629648364231e-01 3.688559877380265806e-01 4.959652401079979178e-01 -7.861066981742497184e-01
-1.899142783101904347e-02 -1.631140154895985642e-02 -9.863855987304490647e-01 9.900731210295672380e-01 1.027188675273444929e-01 -9.593773641623813686e-02
3.750336033382408590e-02 1.474432146727611831e-02 -9.910394152767315612e-01 -9.350812152370420183e-01 3.543472969661660144e-01 7.817547159337650056e-03
-2.452796953920246062e-02 -9.957017028894558919e-03 -8.018944077414625893e-01 8.858333936142607223e-01 -2.379178175646166071e-01 -3.983645451632615297e-01
-4.180036905941689890e-02 -2.771852837748585152e-01 -1.038345496732778317e+00 8.965514186985193978e-01 4.060084094797415943e-01 -1.770670072639244086e-01
-1.753568448850073569e-02 -3.258162058873809164e-02 -1.012876352912479794e+00 9.269198498029056488e-01 3.680229575759165206e-01 -7.333958507132319615e-02
-1.570274185561683702e-02 9.651572314000314567e-02 -8.411893082409236388e-01 9.151503229297561770e-01 -3.137558670545014805e-01 -2.530951250625766424e-01
-3.314574346549383627e-02 -2.374369969509787515e-01 -9.303651159365757817e-01 8.259301520830195642e-01 3.730558909561856318e-01 -4.226921883628873000e-01
3.775882190081852885e-02 1.541168108690759223e-02 -9.811716372592673707e-01 -9.417392077010491303e-01 3.329972668466365526e-01 -4.732953571788144076e-02
-2.534625380262707506e-02 -1.416733201280105658e-01 -8.411207466167033298e-01 4.063415454201880217e-01 2.369794666580423703e-01 8.824552571365888998e-01
-3.333811618921827397e-02 -1.001873007887807143e-01 -8.309177209992839597e-01 9.985262277835579292e-01 -1.570961195566381030e-02 5.194786348389082015e-02
-6.276701210871338601e-03 4.251062498411593837e-02 -1.011899736198793587e+00 6.422858393322313786e-01 -4.977474430200645172e-01 5.828519396555857934e-01
-2.362961197105221609e-02 -1.823793638042148502e-01 -1.016652653383012028e+00 4.959865796283029482e-01 7.662611196912632039e-01 -4.084620046933480353e-01
-3.261639906605606765e-02 -1.882715224557534317e-01 -9.597869061490131859e-01 9.252935460843025872e-01 -2.400474718548880892e-01 2.936138021803701981e-01
6.605255164982910820e-02 1.545815799708341320e-01 -8.106359110700032122e-01 -8.693150675968077667e-01 4.879663336574312504e-01 7.861406023150176170e-02
-1.462847974654305633e-02 -1.481997631703558804e-01 -1.057380402906356709e+00 1.778627246106267712e-01 -7.405109379148598903e-01 6.480805521094882282e-01
-1.782232398328366732e-02 -1.491066841318251790e-01 -9.092726265447766965e-01 3.848276775517911474e-01 2.003544799146712296e-01 9.009804331772229835e-01
1.506905703155961111e-02 -1.937289167610420915e-01 -8.928466958319590807e-01 -8.620621202889011681e-01 2.766683488260580082e-01 -4.246216262990701873e-01
9.922336939754651530e-02 2.041474835278383193e-01 -7.770368343965885494e-01 -6.816995171806704557e-01 6.207917022988338474e-01 -3.871736440314048067e-01
-1.832776482505606586e-03 -9.331604090026825171e-02 -9.297154475657212203e-01 8.531669160773597271e-01 -8.372930562182134828e-02 5.148743698137777658e-01
4.605268340575520425e-02 -3.989537654040888753e-02 -9.318091103273559161e-01 -9.737094788655166200e-01 -2.274838275319564784e-01 -1.187261465958706561e-02
8.639544382576379300e-03 -2.466741027769835115e-01 -1.007472512455017677e+00 -9.270062907009547493e-01 3.716068895230367763e-01 -5.067205008553030826e-02
2.286144629675309140e-02 1.058300789386951574e-01 -8.648042008070857545e-01 -2.724433799197877870e-01 -3.942473009731236044e-01 8.776922412857993683e-01
-1.878878614886241374e-02 -3.087196937170814427e-04 -1.012467553150057542e+00 9.743259932849346328e-01 -1.216472392587892998e-01 1.894486948755274569e-01
-1.997353932802907808e-02 -1.912741373276785617e-01 -9.018416423085662270e-01 5.060099120494542246e-01 3.219640392683715407e-02 8.619265400728089999e-01
9.261140793465650126e-03 6.882055785198773479e-02 -8.284957648134891883e-01 2.471473604923638545e-01 -3.193797339004679214e-01 -9.148304584868848233e-01
3.828949205162109071e-02 -1.458980418187646455e-01 -9.169456241479585490e-01 -9.511566359770968759e-01 2.725656582180330245e-01 -1.449448715784829866e-01
-3.600756308362430130e-02 -2.824144055176611712e-01 -9.930568596728689412e-01 4.263898225374710971e-01 8.132395709332830291e-01 -3.960216149463481883e-01
-3.340919601501370073e-02 -1.818624800362355631e-01 -1.030436091488447170e+00 9.929914742850415310e-01 -1.181377603636390300e-01 -3.376621607939240405e-03
3.176305136250013456e-02 7.670159434659938602e-02 -8.392750081660518280e-01 -8.179243318743474322e-01 3.441868569200936534e-01 -4.610153954602486115e-01
3.051946183916117925e-02 2.546304981372018474e-03 -1.023019339224083168e+00 -9.447119773380839858e-01 2.153495803089392480e-01 2.472728010411401889e-01
-3.215242252156044062e-02 -1.942771436493267168e-01 -9.372917335967031471e-01 9.530023004953005472e-01 -2.664592878434332568e-01 -1.441737256667631473e-01
4.255921357605953886e-02 -2.536826675583612328e-02 -8.907205866695696583e-01 -8.367418853609323026e-01 1.718139276569265739e-01 -5.199451812890787394e-01
4.191507747378910714e-02 -7.460001933175343380e-02 -8.997799659033633990e-01 -9.801334797218446138e-01 1.806406951188644083e-01 -8.189811472385535862e-02
