1.084220239636577710e-01 -1.358443332839095741e-01 -9.546557861133090350e-01 -5.188278635365755065e-01 -4.882345115650306711e-01 7.017440485924543170e-01
1.478571731285520385e-02 -2.853558426891241728e-01 -1.076007875267312786e+00 -7.929606636733538272e-01 6.072985036064695308e-01 -4.900931935925414984e-02
-1.519143577214293085e-02 6.041543830599088727e-02 -8.218063008597658037e-01 7.016764339478163137e-01 4.470615649510317202e-01 -5.547847683433732024e-01
-1.217317110902344512e-01 -5.354577571047470369e-02 -9.883520534745177111e-01 3.600085219804984860e-01 -4.086295194821232268e-01 8.386988612781266506e-01
-1.322927332543684213e-02 -1.094370784206006586e-01 -9.007808128910442802e-01 2.159680680321598156e-01 5.201372521605804877e-01 -8.263262264416502134e-01
-3.078717463501556145e-02 1.919764701878436119e-01 -7.198285071236883992e-01 2.242946902680424404e-01 -8.997809321113691139e-01 3.742808652955142423e-01
-5.414259840076111885e-02 -1.842178798246747184e-01 -1.006867184581442753e+00 5.075401902095270090e-01 6.226612266626380121e-01 -5.955635584327304555e-01
-9.226837605752357882e-03 -1.699407717529517470e-01 -1.014687699421773504e+00 -8.089913539121817987e-01 -2.385292159754926478e-01 5.372492926207087516e-01
7.394771048621373577e-02 -2.033338513041380857e-01 -9.740268656663534363e-01 1.131812549279857111e-01 7.715847257616985644e-01 -6.259768482173848625e-01
3.077894402045094902e-02 -1.990055327798286033e-01 -1.050862891711922265e+00 -1.149177375975167503e-01 -7.436044168771357432e-01 6.586701638804380865e-01
1.269387605037825828e-01 -8.958916867484308100e-02 -8.803055258087782997e-01 -2.111495287990955080e-02 7.569376824926064007e-01 -6.531458516959299798e-01
1.128221898956828645e-01 -1.701834020438556805e-01 -9.474466426272784014e-01 -6.774596039631451960e-01 6.730175666704534265e-01 -2.968094337299279073e-01
-2.561775686645281075e-02 6.620112395745747502e-02 -8.335117692459790284e-01 8.194297935491767770e-01 3.380477200808943983e-01 -4.628807107582506020e-01
1.166339413260408242e-01 -1.597379851750324320e-01 -9.571163800454259851e-01 -9.075129982990277622e-01 4.369627937978687315e-02 4.177448899587795084e-01
8.305561494671961920e-02 -1.691527630843771002e-01 -9.373980281018764460e-01 -4.733184258957195967e-02 6.271019709807056364e-01 -7.774977907809064170e-01
4.290759598474050418e-02 5.955914349853490275e-02 -8.482891544546145024e-01 -5.121239010322266028e-01 -8.531241974588127386e-01 9.954001055751686422e-02
-9.615022628510587477e-02 -9.738625189551815275e-02 -1.009069939377868375e+00 3.013540268609783690e-02 -5.956668433827811970e-01 8.026661006915265517e-01
-9.606016071846783244e-02 1.755565652168068411e-02 -8.915533318698107834e-01 4.671397297558463890e-01 3.315485174971442572e-01 -8.196682581563596859e-01
1.051003650444381488e-01 -3.184628337440773005e-02 -8.999030302128142589e-01 -7.438550982171184822e-01 -6.681812717584041383e-01 1.460756405848657145e-02
9.484654643922956971e-03 4.745973232522166657e-02 -8.294338082201772044e-01 -1.740006261123840936e-01 4.949791875007453767e-01 -8.513045201651406879e-01
2.976792478503631489e-02 4.826763263880845534e-02 -8.756802792636181332e-01 -2.678311591761546873e-01 -6.698034535195156458e-01 6.925531054205789072e-01
-1.274844359540491245e-01 -2.034772830189161136e-02 -9.275446930187400962e-01 8.088054504641848386e-01 1.238734550057728340e-01 -5.748818230248370353e-01
8.118500057715657969e-02 6.930397253003957661e-03 -8.877063813807650750e-01 3.911425533895359491e-02 -7.948755098674277486e-02 9.960681724999596032e-01
-6.308892037031130218e-02 -6.167472580769203100e-02 -9.601534051757399935e-01 3.212042428438889319e-01 -9.127826514313731598e-01 2.523007444004012334e-01
9.335486364939469747e-03 1.421675869117091651e-01 -7.912564803298423044e-01 -7.277510969955311992e-01 -6.067296459058342251e-01 3.197772312107008963e-01
8.680883301130616625e-02 -9.793111905005263962e-02 -9.343184637541361859e-01 -5.286789550848628449e-01 -7.353951710030834921e-01 4.239015273807384965e-01
-6.383807062771844343e-02 5.250291412166138011e-02 -9.113030044386258854e-01 -7.157313453597503872e-02 -7.565206836163900217e-01 6.500413384341685585e-01
9.235165108278983737e-02 -4.781370460797380872e-02 -9.171458594109179741e-01 -1.843657207762864070e-01 -4.561421447143222396e-01 8.705995777727316698e-01
4.405123420723084521e-02 5.688460771282886214e-02 -8.561710656258257890e-01 -4.570506235027921860e-01 -8.207432448040322681e-01 3.427612196037607695e-01
-4.920943216049767505e-02 -1.238084680758222422e-02 -8.765171710736329169e-01 3.686432008049990161e-01 5.294133088367358742e-01 -7.640835942007812021e-01
9.547146523955728215e-02 -1.688105230652273692e-01 -9.378238389204686110e-01 -4.451649562979374808e-02 6.434718711940091707e-01 -7.641742161306694925e-01
-3.182237244449604568e-02 -1.394561793641851608e-02 -8.685722338074354232e-01 4.401879289792394179e-01 4.454775923450598474e-01 -7.796052218266736888e-01
2.853586311526526767e-02 -5.978143885687336317e-02 -8.723149844476592030e-01 1.370813087673176112e-01 4.307800442899589188e-01 -8.919850156971138588e-01
1.136446539044175391e-01 -7.518493868389571066e-02 -8.651758140495346971e-01 1.125047134619424904e-01 7.314234167849683610e-01 -6.725789729299070929e-01
1.364594487700447334e-01 -1.110664349737196382e-01 -9.072316952086278974e-01 -9.880092464274367048e-01 1.296061598145891447e-01 8.390454285677140245e-02
9.527577233825311465e-02 -4.888905616827433909e-02 -9.170004768529681494e-01 -2.468315368691409717e-01 -4.570038002173155145e-01 8.545301159080059827e-01
-3.304720786178525199e-04 3.700554093022725977e-02 -9.058133611273386787e-01 3.470738521072707083e-01 -4.022876002922827765e-01 8.471743786461539694e-01
-1.891581986522399353e-02 7.230381333580775984e-03 -9.183092631932230354e-01 -4.217464416920440606e-01 -3.808692783226229062e-01 8.228417416187051581e-01
-4.041113848021910676e-02 -2.196984930053720864e-01 -1.063775369757543610e+00 8.563596235936199452e-01 1.741186420888044539e-01 4.861387595694716679e-01
9.259171427567662593e-02 1.072105457061800320e-02 -8.794708271016814516e-01 -4.640047370046289643e-01 -6.179485421663264422e-01 6.346961503521012515e-01
7.896551014874546304e-02 -1.679733179441970092e-01 -9.362528095099234005e-01 -2.222352390568759287e-02 6.200733936542939251e-01 -7.842289853526588361e-01
5.783801045175393681e-03 -2.014726452848460414e-01 -1.063496837742549550e+00 -6.357467975149427852e-01 -5.941105858325147482e-01 4.928068802799334680e-01
-7.308468960826301373e-04 -1.010274408615417646e-01 -9.449705460584801875e-01 -4.844674585523505161e-01 -2.696985127578793162e-01 8.321982899646060972e-01
9.515437623344602525e-02 1.973494788498907342e-03 -8.855545738904798680e-01 -4.117218321077869558e-01 -5.250494720508843693e-01 7.448544722728694945e-01
1.002628709130320289e-01 -1.461429177690928283e-01 -9.146833546337563847e-01 1.896794400200931263e-01 7.588876291921536898e-01 -6.229857753534797649e-01
5.367712073282961127e-02 -3.977335246606167329e-02 -8.558872232737717578e-01 2.750236190660514390e-01 5.457726710745310905e-01 -7.915138662487116727e-01
4.774382987709292064e-02 -9.939269679904814969e-02 -9.499646401031969223e-01 -2.649216467449463375e-01 -5.030869525878300941e-01 8.226299527866927086e-01
1.817249522111423835e-02 1.833620043315653536e-02 -8.407537476439630453e-01 9.594630850125338006e-02 2.648384441334654116e-01 -9.595076364437897798e-01
-3.295774419685697232e-02 -2.018317140164116452e-01 -9.993923542797742421e-01 2.823349218687324913e-01 8.156108498379573968e-01 -5.050405266114609271e-01
1.391927033246120049e-01 -8.244053869351883335e-02 -8.792812063649871890e-01 -8.703825795147137612e-01 3.293712388470366736e-01 -3.659900986333941009e-01
5.402041757188270898e-02 -3.337062275073838374e-02 -8.487986875871079695e-01 3.036901185168932593e-01 6.179294676622225646e-01 -7.252140959122882480e-01
1.283090305077940309e-03 -2.919313200284767013e-02 -9.301979685187728997e-01 5.841651547298629676e-01 -1.961370578876616977e-01 7.875794096614051609e-01
6.660894036225460668e-02 -7.057037797969957851e-03 -8.926218517985469170e-01 -3.945439869658520782e-01 -8.643427002909219725e-01 3.118440937437924054e-01
-4.498751957362771142e-02 7.099845341173219304e-02 -8.628403014857692899e-01 4.511671838440289295e-01 -8.431013666803566231e-01 -2.926230642378747082e-01
-1.103866305359686578e-01 -5.677964502311033668e-02 -9.411372069649824867e-01 6.308840420535672955e-01 4.039180665842534435e-01 -6.624466174485241776e-01
8.543500828276488768e-02 -9.530923428341170345e-02 -9.266356161870207275e-01 8.564809590616989654e-01 -4.902832154269313736e-01 -1.614395720862194239e-01
-6.490820683812585645e-02 -1.563125091649146814e-01 -9.733445317760002213e-01 2.845653729769896390e-01 7.913930322028737141e-01 -5.410356892878770418e-01
4.962386660733656557e-02 -1.172481991864098155e-01 -9.603361099544669433e-01 -8.327821943811848648e-02 -4.015458737385699250e-01 9.120447628547323493e-01
-4.882471596438212741e-02 2.968153905457479938e-02 -8.628911673729611209e-01 4.479764710185358823e-01 2.252493622093353076e-01 -8.652050660034688034e-01
6.238797449102065351e-03 -7.529615067742614909e-02 -8.788464447196284723e-01 2.205027540864283320e-01 4.591199728908794686e-01 -8.605738701198047957e-01
-2.099066383837351266e-02 -8.390511127139774206e-02 -9.652643253688745206e-01 -4.783771958767596977e-01 -4.341922851896709568e-01 7.633035555706915165e-01
8.763447547150185479e-02 -2.002189943936355521e-01 -9.922564863006091418e-01 -9.506420549984119228e-01 2.401657819452379383e-01 1.964690317862564928e-01
-3.256616070258962214e-02 3.488156407867253755e-02 -9.092205445796475161e-01 -4.710272820137179628e-01 2.217840695285583363e-02 8.818397914949194227e-01
-1.578027616501510855e-02 1.891911575759380459e-01 -7.273554714620362738e-01 -1.725051848941279165e-01 -9.142913842279211112e-01 3.664876886216433260e-01
9.572470979153803461e-02 -1.515093665274237257e-02 -8.392341114163323068e-01 8.387730329403698948e-02 3.400615911984882778e-01 -9.366550657438801331e-01
-5.713515492517944744e-02 1.870861442813825590e-02 -8.704569054281271479e-01 4.455238622445117924e-01 2.673564816383683929e-01 -8.544173452690940751e-01
7.726185203585694827e-02 -2.104091519271097110e-01 -1.011455833435320972e+00 -9.048675878910876769e-01 1.159267699126155515e-01 4.096042387497870751e-01
2.313713774881180976e-02 -2.003226666904494024e-01 -9.742314594527725635e-01 -2.401280397521175503e-01 3.360441932724881342e-01 -9.107210465848739611e-01
7.908781337545298107e-02 -1.623737178880697851e-01 -9.318394645984995339e-01 -6.859189087250206970e-03 6.273081006748408850e-01 -7.787409699975911259e-01
-8.476674305335581486e-03 2.583471278318220585e-02 -8.352205899193402283e-01 1.250695362176527659e-01 3.142582189745347088e-01 -9.410629006167732236e-01
-3.073112737706705858e-02 7.528750385134759526e-02 -8.612288895882633799e-01 3.282832963372630392e-02 -9.750825612768128092e-01 2.193998620494319041e-01
-1.119077341052069768e-01 2.509420321958966138e-02 -9.011620216721476506e-01 7.982855147332704737e-01 -1.548483634483679705e-01 -5.820328352459160914e-01
2.835560464478445800e-02 1.555344771861579337e-02 -8.920250450976443535e-01 -5.712140988195449909e-01 -4.507243129579173169e-01 6.859752524824702657e-01
-2.219940048279143985e-02 -1.729081844275685564e-01 -1.038134837980691394e+00 -8.266794421541624471e-01 5.029686506674717617e-01 2.522372620479090832e-01
-1.094694650466334768e-01 -3.734726629599153386e-02 -9.242984765452059159e-01 4.146865340571943004e-01 6.428974911936037318e-01 -6.439859426172297452e-01
-1.821179367052594769e-02 2.355343135594870074e-02 -8.420672284196017987e-01 7.870409399488630386e-01 1.722657957396148409e-01 -5.923605780794394260e-01
-7.108830642155086754e-02 -1.607103106006295967e-01 -9.833263787728064864e-01 2.001114896117838771e-01 8.546434064400804109e-01 -4.791033704263082393e-01
1.074783085145709777e-01 -1.783276033692244023e-01 -9.545661983129415384e-01 -6.550384119234647917e-01 7.083340796231936132e-01 -2.630351888039861308e-01
-1.329759013261635758e-01 -6.546005454249202715e-02 -9.715750358088671712e-01 8.501152452473013099e-01 3.171465431976037697e-01 -4.203833249974733288e-01
-1.550869812625704953e-02 1.831870501329657952e-01 -6.853492939448724286e-01 -3.839432324764265880e-01 -3.339726567912032484e-01 -8.608425284286191914e-01
3.808070086290522155e-02 3.494654855402763716e-02 -8.835735177072416846e-01 -2.218403534346970740e-01 -5.144725836391484952e-01 8.283144440800416231e-01
1.705064967486346131e-02 1.186727530859209290e-01 -7.923440110190383967e-01 -9.808548863967083697e-01 4.356231174371396481e-02 -1.898052075872634081e-01
-4.463879753991970706e-02 -1.724985574423088808e-01 -9.842432519439344718e-01 4.636053352626967605e-01 7.124346332491127143e-01 -5.267893188582744024e-01
-1.754829419107102606e-02 -1.554571920838817845e-01 -1.028289840017374779e+00 -2.512320580175957940e-01 -7.098429301630596600e-01 6.580315095204523068e-01
3.212280791539579017e-02 -3.846421679241156938e-02 -8.610318781292285450e-01 1.984406656721750262e-01 4.689692773661038872e-01 -8.606329758348203463e-01
1.125438883847719451e-01 -2.147330388360266240e-02 -8.434553120132232129e-01 -5.234679563757560494e-01 2.150851908706740562e-02 -8.517738445470552922e-01
7.139463641682827766e-02 3.380251166444918354e-02 -8.339727069322202535e-01 -3.435043344049960035e-01 -5.063306967795494495e-01 -7.909702887869536347e-01
9.224152622535955470e-02 1.761546651784052370e-02 -8.714593079600611025e-01 -5.540451359701394907e-01 -6.792483305595906629e-01 4.813062359245294797e-01
4.903109805624212419e-02 -2.441746741105726426e-01 -1.028295534117100951e+00 -4.015203334035333249e-01 8.648798462057457614e-01 -3.012710963412205123e-01
4.192256117404254828e-02 5.541783616918535132e-02 -8.613238790615970197e-01 -4.083124081490117074e-01 -7.814591749618171601e-01 4.718077311994272605e-01
-1.096029809318632003e-02 -1.682168826992306021e-01 -9.433582579043996441e-01 3.279889533362875254e-01 5.637916089730208302e-01 -7.579988576119222055e-01
-1.261178114391325600e-01 -5.781324065785482108e-02 -9.578005201691052184e-01 6.663226153013847020e-01 3.916726758654306417e-01 -6.345129528373208982e-01
1.065732953778147918e-01 -6.888265454608488714e-02 -9.237268756722051277e-01 -3.071860263060114393e-01 -4.143725878664553663e-01 8.566983737974407376e-01
1.718498578913803254e-02 -2.465135861052842881e-01 -1.072317090564557596e+00 7.286811724673406543e-01 -4.653049268028393581e-01 5.025087800075002109e-01
7.971437985961792039e-02 -1.282424527898699540e-01 -9.600348968323538790e-01 -8.707443537969231095e-02 -5.711668049993581242e-01 8.162025015706171338e-01
2.447691016360407576e-02 4.605964153105046588e-02 -8.852076785908055134e-01 -9.157902138199572883e-01 -2.793109261974565105e-01 2.886411106864649190e-01
5.889553492075593616e-02 -2.154912818439571887e-01 -1.031110709542337744e+00 -8.315310695568581822e-01 -2.958431064338699068e-01 4.701414007904274883e-01
-6.581348868964000121e-02 1.226282153768344652e-02 -9.276576408660524020e-01 1.946543549749876409e-02 -9.367791504039323369e-01 3.493793356645170101e-01
5.888709351775645029e-02 -1.681860523378660432e-01 -9.329252149983662257e-01 -3.083643167396118989e-01 3.646169616024729221e-01 -8.786159112339664290e-01
1.287766389183952753e-01 -3.889474864541991178e-02 -8.840446067068520319e-01 -8.513698770030821983e-01 -3.124887351765055499e-01 4.213313694938283227e-01
8.986962345355697934e-02 -1.837631746521689313e-01 -9.816106112028609720e-01 -5.473163109753215183e-01 -1.752551752736405954e-02 8.367423211334319433e-01
2.079775300882373210e-02 8.612569265528705054e-02 -8.239429552016513947e-01 -9.787614081057898208e-01 1.586862653885327268e-01 -1.297874230417250807e-01
6.567094681386860533e-02 -1.539035986071534690e-01 -9.687051866896898566e-01 -3.265891070812907970e-01 -8.041002601696650709e-01 4.967517757702759607e-01
-9.236860274923028302e-02 -3.278142748130488671e-02 -9.112275304960059108e-01 3.704900859594748019e-01 5.460045561822234328e-01 -7.514094229073748910e-01
-3.145610125972901887e-03 6.187132270960728209e-02 -8.162367457708338270e-01 -1.509044913412475875e-01 5.911810708717094576e-01 -7.922958891323481634e-01
9.608000803638834519e-03 1.424748989505345287e-01 -7.528320657622935563e-01 -9.645281514552032087e-01 9.467201918686579676e-02 -2.464196701432135039e-01
-9.101639053246216027e-02 5.156053767379829150e-02 -8.979751565700488936e-01 6.028886830301373179e-01 -7.975887085269720567e-01 1.942904795566754647e-02
-9.848902516810243563e-03 1.830065287223451576e-01 -6.887131757253032172e-01 -6.249232076295786475e-01 -3.789858369340209365e-01 -6.825252522576570335e-01
-1.375029489539579541e-02 1.933434726050144992e-01 -6.981464724658962284e-01 -3.952141248886533731e-01 -8.828443675525994294e-01 -2.537550357513059240e-01
9.526136294104587190e-03 -1.876910802644386478e-01 -9.626633074538004653e-01 -2.856973717850317951e-01 5.289559143359451321e-01 -7.991136667859896070e-01
-1.033368690484267813e-02 -5.804876628085505613e-02 -9.323786059578528240e-01 -5.546513351736626074e-01 -6.607148439079745250e-01 5.057843329223773443e-01
3.816834138654196656e-02 -2.603931163350450828e-01 -1.051952370550504501e+00 -6.978340976605669210e-01 6.866694634244515649e-01 -2.037464604419874370e-01
-5.634306272538640303e-02 -1.059860838103515307e-01 -9.335527928734888015e-01 5.033667525953735566e-01 4.839634021878159165e-01 -7.158221411247228660e-01
-7.893403499576887028e-02 -9.761954370662155600e-02 -1.004858014850523951e+00 -3.233645748144222121e-01 -6.010408136607013896e-01 7.308798068555253380e-01
1.385356895929980015e-01 -8.310782630336996379e-02 -8.979225033945634760e-01 -9.700299188643938253e-01 -9.377070221754434109e-02 2.241629137782747139e-01
7.527761009078519361e-02 2.367224997746964626e-02 -8.778986643520855226e-01 -3.183341131432114168e-01 -6.409857842887022317e-01 6.984272451366160261e-01
1.064891225121487733e-01 -1.686177326516872521e-01 -9.397350439536962252e-01 -2.452529026641150078e-01 7.165134522435842035e-01 -6.530386561979368842e-01
5.815551393517657403e-02 -1.484045585593017635e-01 -9.667322897191130693e-01 -5.368340333518438756e-01 -8.419409545635319070e-01 -5.426462626647417242e-02
-3.434077375928800899e-03 -2.001000105888712244e-01 -9.735141113159865300e-01 -7.257222989463762985e-02 8.003277681698345303e-01 -5.951543790853021099e-01
-2.192191012899034203e-02 1.933285264287522009e-01 -6.920973114796522552e-01 -7.870369617889425018e-02 -8.349062069161017341e-01 -5.447360405377524861e-01
-9.491597788494747501e-02 -1.596931433020387300e-02 -9.697288465132032353e-01 -8.748365872091647122e-02 -5.365454577197402708e-01 8.393244791242043812e-01
2.918066037919014519e-02 -1.689123443435101846e-01 -9.409885391738564975e-01 2.024911894713828375e-01 7.862197219379671864e-01 -5.838286281283663337e-01
-3.027977543418532234e-03 5.176177880147996013e-02 -8.970720501177101847e-01 4.448787100755421942e-01 -4.614837373730731329e-01 7.675387244052919167e-01
-2.889430224544925138e-02 1.203209814364347013e-01 -8.074864121278036988e-01 9.291549812196340241e-01 -2.258093792928818899e-01 2.927134180356359971e-01
-2.714805061788897952e-02 1.949501401814848212e-01 -6.955473402653085113e-01 5.084749982516123534e-02 -9.409700385580350712e-01 -3.346489478507591597e-01
8.393836622522854451e-02 -2.071658542849028339e-01 -9.840784271495113256e-01 -5.841902160892541440e-01 7.668341687946680363e-01 -2.658705493178610269e-01
-5.395665091035664607e-02 -1.551438952914237224e-01 -9.657106108323472160e-01 2.958231366690156072e-01 7.913181612362899520e-01 -5.350740504910720396e-01
1.432049667971813404e-04 1.065937543406181298e-01 -8.473750779523957499e-01 -1.537866666323561282e-01 -7.861165813147090731e-01 5.986404444641063582e-01
-1.143258173772065123e-01 -1.736180018289057436e-02 -9.126952474446256014e-01 6.649740819306562134e-01 7.637914280850130466e-02 -7.429506692266449885e-01
-1.115260796523771941e-01 9.134652642962554775e-03 -9.517721183055728451e-01 2.917125826059618898e-01 -5.827125443580964959e-01 7.585182000433962068e-01
-8.109490031420106548e-02 -1.201038354062548136e-01 -9.609161709296569764e-01 4.940616309504650694e-01 5.368685143885916222e-01 -6.838678988523683167e-01
3.246645523045859488e-02 -2.440939861270126632e-01 -1.076110281812329372e+00 -6.245796233282361332e-01 -1.687367303372725238e-02 7.807788248162916833e-01
1.200750599157369286e-01 -1.977736340447478966e-02 -8.517326199102754902e-01 -8.217959950007140968e-01 -2.989980610847650655e-01 -4.850273209504156191e-01
9.863668986173106112e-02 8.864623856890515435e-03 -8.393700327388905480e-01 -6.804412271626870679e-01 -3.463047198812707061e-01 -6.458117197491008987e-01
4.266951848089629157e-02 -1.674854459646260563e-01 -1.013090223381946098e+00 -3.584664491016221755e-01 -6.849369215825891200e-01 6.343210687983180662e-01
-9.137395430822292663e-02 -1.275067824223145019e-01 -9.762114928779430656e-01 5.634475745307374606e-01 5.717539492444074778e-01 -5.963423951714755811e-01
-8.916191711179112522e-02 -6.638856469794661430e-02 -9.286852663903831795e-01 5.724128753681467785e-01 2.772443769984430095e-01 -7.716728941303535594e-01
4.511458575255744563e-02 -2.367935706590676148e-01 -1.012655076310174485e+00 2.283479627313053095e-01 8.721500498351678621e-01 -4.326794407976610746e-01
7.756738115298124348e-02 -1.421007266250665924e-01 -9.702067865567902682e-01 -1.154067226635054205e-01 -5.485561255091463417e-01 8.281107809529245634e-01
-9.244236794342397534e-02 5.040709279603192844e-02 -9.010771596752324974e-01 6.028886830301373179e-01 -7.975887085269720567e-01 1.942904795566754647e-02
-3.565281258483358334e-02 -4.467802214362208424e-02 -8.855620838770390524e-01 4.804227226891958913e-01 3.566356516820428646e-01 -8.012521572346776866e-01
6.276813665017423605e-02 2.090867692537598521e-02 -8.843024132785225477e-01 -2.423281502112971941e-01 -5.236688351062871449e-01 8.167300770472428750e-01
-1.226450308377156490e-01 -2.483904367382735318e-02 -9.226615994616986782e-01 7.466093537179419037e-01 2.413676061603099721e-01 -6.199323766648411338e-01
7.425656898751499535e-02 -1.619486695275062782e-01 -9.868216574281146736e-01 -5.749889426289334082e-01 -7.674053536098655037e-01 2.836842242800585168e-01
7.555074411163621717e-02 -2.661060002454755311e-02 -9.081130153024524754e-01 -1.319695607121375569e-01 -5.160777557230581403e-01 8.463142354310821958e-01
-1.524603268227974102e-02 -2.027387648157467914e-01 -9.864245943438021413e-01 5.507275287782358308e-01 6.606784153559762673e-01 -5.101011865586413396e-01
4.231510652417351526e-02 -7.013734946373603729e-02 -9.304253354952150001e-01 -3.248935307640809511e-01 -7.012548015605784002e-01 6.345753674354867035e-01
8.818971492361510345e-02 -1.487329987734616055e-01 -9.732482417586666434e-01 -1.782083281416352305e-01 -5.659701731242472444e-01 8.049345034937148702e-01
-1.100691256736510554e-01 -4.300044794821119426e-02 -9.300186208615373040e-01 4.673250503373723164e-01 6.186483306480926592e-01 -6.315706930451260304e-01
-3.533788367424640919e-02 -1.375289661276391517e-01 -1.014252550151401699e+00 -2.168163886199685475e-01 -7.546747371471944632e-01 6.192388026743862461e-01
-1.123020191315925592e-01 -1.298434620245429716e-02 -9.546156484920579333e-01 3.413713889589665151e-01 -6.083188915692772092e-01 7.165289254176357980e-01
2.370501356413122224e-03 -1.102141417371348409e-01 -9.023393914841238983e-01 7.806149086016493481e-03 5.421528701297825270e-01 -8.402436131542365683e-01
4.086983895256999372e-02 -2.563304728439610436e-01 -1.059035804021300375e+00 -8.022105867937961987e-01 4.937577118415603650e-01 3.356508549563667065e-01
-1.800466834968901877e-03 1.821352068189236173e-01 -7.064674374178236960e-01 -9.337669756709725544e-01 -3.432425773137455782e-01 -1.013102574535410250e-01
-3.723258282861253640e-03 1.812670876127377706e-01 -6.971928410099059725e-01 -9.044105342192924057e-01 -3.035059494055952212e-01 -2.998761815626290184e-01
-2.660217814073919870e-02 -3.078149135207789225e-02 -9.367452267101890051e-01 -4.972212351548065401e-01 -9.826116688996047732e-02 8.620416384331744952e-01
-7.375298678899717963e-02 -3.280877371624307793e-04 -8.828057071724881855e-01 5.069239341018800804e-01 1.247801315328350528e-02 -8.619004723414527280e-01
5.157460090449577511e-02 -2.354515017241318453e-01 -1.003413546868115125e+00 7.430389691822597564e-02 9.116916817841994591e-01 -4.041004927839904060e-01
6.833039210386181173e-02 -1.118647770666374337e-02 -8.420078985996348742e-01 1.440171391097969933e-01 3.414492620119975452e-01 -9.288010901770582528e-01
1.089095877399817447e-01 -1.269532208868454082e-01 -9.010197279963644279e-01 -1.590327702580597580e-01 5.167365290304783976e-01 -8.412442793562289189e-01
1.919464067359975129e-02 -2.035730001956806423e-01 -9.754796672892473985e-01 -4.772261730125606539e-03 5.748500585763653969e-01 -8.182448506851288661e-01
7.899294280580534955e-02 -1.539635025154731107e-01 -9.245698574560189398e-01 5.080756378999782413e-02 6.581325786976729431e-01 -7.511857961373314962e-01
-8.961211235363886196e-02 -8.961495784449967361e-02 -1.002251965229731256e+00 -5.366929939233273938e-02 -6.845537434892352557e-01 7.269840291076622441e-01
-1.400582940155427059e-01 -3.871880448219286452e-02 -9.615321125946504344e-01 9.698326165443290625e-01 1.734045145297645821e-02 2.431542815378491540e-01
2.092048670102620439e-02 -2.185205992262915509e-01 -1.063962810477298015e+00 8.249983030776253390e-01 -3.058228528263057799e-01 4.752369752115447876e-01
-3.176660573043867553e-03 9.442836683975153189e-02 -8.629010161791822453e-01 1.343532401270447763e-01 -7.570594705341752162e-01 6.393826436038739791e-01
6.314661517231583143e-02 -2.312115021188102526e-01 -1.018032840029137853e+00 -7.118910972670120518e-01 6.098778121631763804e-01 3.482242379028593349e-01
2.773997869291819698e-02 5.418927426750351495e-02 -8.707834928622323334e-01 -6.883009905847704557e-01 -6.351595866554409220e-01 3.504483497460266217e-01
-1.299642781187408391e-01 -2.707038125367436376e-02 -9.327992033695571283e-01 7.772010607241128799e-01 2.614919293224550190e-01 -5.723464703381460073e-01
9.530980682272083282e-02 -7.219895436612649986e-02 -9.274007669446455715e-01 -1.445109000428868723e-02 -2.131055043965232043e-01 9.769223152296150348e-01
4.085578412435585116e-03 1.608883101457643516e-01 -7.249146215674066029e-01 -9.791468115706817299e-01 5.037515615778085862e-03 -2.030914691152460039e-01
2.499417409461785269e-02 -4.581313254284160447e-02 -9.161481672437017387e-01 1.705438025098102439e-01 4.324544428435828647e-01 8.853801253079612854e-01
-5.513498662978710135e-02 -2.003363521696640004e-01 -1.021986109546801691e+00 7.101586939155458689e-01 3.647042366793979973e-01 -6.022171113512666540e-01
6.092488858001682273e-02 9.211282087755649425e-03 -8.838251084915296207e-01 1.754623298229323336e-01 4.269305862763396187e-01 8.870982162730627341e-01
1.200404573965343016e-02 7.629202839013350668e-02 -8.124010806858670275e-01 -5.907151185854923048e-01 4.215320052975246590e-01 -6.880162913655283319e-01
-3.319075478266202833e-02 -6.926219452403541144e-02 -8.906382142386395362e-01 4.288117883450010548e-01 3.323693230290925560e-01 -8.400304061672676514e-01
-2.172599396002920097e-02 -1.829329594756313182e-01 -1.034915819968488249e+00 -4.099936464113231316e-01 -6.385088537609897585e-01 6.513153257610129199e-01
-1.182654173291823874e-01 2.308743811018422812e-02 -9.232457435281812286e-01 7.410345529593652669e-01 -6.546111604131418238e-01 1.495059195579684364e-01
-6.954197211396617728e-02 -1.176049746818179503e-01 -9.507229155218065442e-01 4.862011512035822047e-01 5.394688246954113531e-01 -6.874458725965724160e-01
1.159617872388347543e-01 -6.896723595070820834e-02 -8.602428119389056160e-01 -1.729765285161985466e-01 5.019435271211373228e-01 -8.474265845273424302e-01
-2.410440484952061386e-03 5.685261392416536379e-03 -9.167570782167295818e-01 5.348951610240643140e-01 -2.721694516907972594e-01 7.998818389483356439e-01
-4.721141104269636901e-02 -9.188376384238965133e-02 -9.170692881070251490e-01 4.743689461020749731e-01 5.248555229602034355e-01 -7.067536932992838361e-01
-5.067352396857260910e-02 -1.350818319171967208e-01 -1.014841624500944173e+00 1.438778150911032040e-02 -8.966395645911290346e-01 4.425273810207419056e-01
-1.651169101749837623e-02 -2.169437444199605880e-01 -1.079425048650908936e+00 9.333124162783336397e-02 -2.925140405923228881e-01 9.516957577884647135e-01
1.221544302480670058e-01 -1.490560178497173371e-01 -9.230652229411947518e-01 -8.080966919310031971e-01 4.974056155022422154e-01 -3.155430084109063227e-01
2.895952674614269556e-02 1.325405964825938964e-04 -9.032045525372539574e-01 -9.646850805739783097e-02 -4.569034076739780237e-01 8.842698134670698984e-01
-1.103061838764929081e-01 2.951505956124922739e-02 -9.276976569323147626e-01 6.313656105386650230e-01 -7.240389903463498866e-01 2.777498988071412378e-01
-5.424976899161890534e-03 3.631045978041101685e-02 -8.313167446284082107e-01 1.250695362176527659e-01 3.142582189745347088e-01 -9.410629006167732236e-01
-3.346197675583365005e-02 1.803287745271504594e-01 -6.853108983479312410e-01 3.778922972003194158e-01 -2.750134502050858853e-01 -8.840616573084483232e-01
-9.713096748285468540e-02 -1.298165892808663402e-01 -1.025843656539392690e+00 3.327562408243440184e-01 -1.859028920267279117e-01 9.245071113455807232e-01
-4.472573199800066596e-02 -5.736415268883651372e-03 -8.683435433468986719e-01 2.696132563703617091e-01 6.234536184676300330e-01 -7.339034525119694230e-01
4.574281561260912926e-02 -1.382277398265400192e-01 -9.736492048463603055e-01 -5.527524566758220681e-01 -7.764367826539163575e-01 3.026725031793910392e-01
9.900175262009604238e-02 -1.380127670994878430e-01 -9.619338681606537378e-01 -3.456288726992575722e-01 -5.687013448868899479e-01 7.464043560165515290e-01
8.896229191311057216e-02 -1.902710835035387460e-01 -9.856836353907041381e-01 -9.956217321126731301e-01 -2.265129814812254574e-02 9.068784503540572306e-02
3.828281792050300392e-02 -2.237303730333868867e-01 -1.067344753662910817e+00 -5.230626781282795568e-01 -3.016079658189244617e-01 7.971436945142589270e-01
-7.115994686985088746e-02 6.033997806396839553e-02 -8.990863799072447149e-01 1.829942951815809737e-01 -9.122246337362568402e-01 3.665505497687169267e-01
1.186440167783106049e-02 1.185832960936069463e-01 -7.742487278540612916e-01 -9.092588470255924538e-01 2.487964861101672753e-01 -3.336894628317228495e-01
-1.566025649693248561e-02 -2.378818693670696482e-01 -1.034289593714200040e+00 5.720726229370918237e-01 6.603871753898772345e-01 -4.864377582655932675e-01
4.282692874342635542e-02 -1.837618312879477078e-01 -1.016904664116058399e+00 6.669507686374790412e-01 2.448395502801958556e-01 7.037259884589083248e-01
-4.963451431024346744e-02 -2.135410090862963073e-01 -1.051859568472910844e+00 4.856684440482839649e-01 3.509598520234549768e-01 8.005956187260790946e-01
1.169075464416958476e-01 -6.109598048896272560e-02 -9.141305997058900568e-01 -5.249923270336966930e-01 -4.604382755426952301e-01 7.158069928206995947e-01
2.717957019363802934e-02 -1.576014929777445617e-01 -9.282773905000936132e-01 2.352472184147441081e-01 7.057599976634683081e-01 -6.682526258281272780e-01
-1.390031379176559327e-02 -2.425266279313293138e-01 -1.038294654429634756e+00 5.914525552941154452e-01 6.418625606092157598e-01 -4.880536119364776715e-01
-3.976836109587046988e-03 -2.449136519203386209e-01 -1.085635941607251631e+00 2.275471137365270291e-01 -2.983597615315284127e-02 9.733098815676148874e-01
-8.016085968255299773e-03 1.056986469878181123e-01 -7.711498657082391794e-01 -6.865255477953956242e-02 8.079227022498028932e-01 -5.852757759480727850e-01
-2.911379780004024614e-02 1.363498473025667457e-01 -7.935418362978436946e-01 8.673589874693501400e-01 -3.298858072564371802e-01 3.726442553252533596e-01
-1.568503132588243421e-02 -2.354156878206807857e-01 -1.081438777345426594e+00 3.856994074375172943e-01 -1.031979688920541850e-02 9.225667828913599600e-01
1.542380767481164178e-02 8.364064347625906060e-02 -8.114873994736973017e-01 -8.049804301490687264e-01 2.756390066909847891e-01 -5.253852349157023260e-01
1.341837739503634087e-02 8.362902976679381650e-02 -8.089453818168597099e-01 -6.943886530683489600e-01 3.865538590204291580e-01 -6.069600584604709637e-01
3.347302194980180529e-02 4.263174304080631638e-02 -8.317632335217599593e-01 6.335335738769014291e-02 2.170542596349960829e-01 -9.741015349962299785e-01
-2.167951785845296381e-02 -1.408057804721754014e-01 -9.292042240188488345e-01 5.819260133792570899e-01 5.690071309356378171e-01 -5.810275379850069477e-01
-9.193061507894882689e-02 4.756613412664230378e-02 -8.851226893191539435e-01 6.949264529290138936e-01 -5.165691723813649050e-01 -5.002334606608506151e-01
-7.631123892398206402e-04 1.589834579976580620e-01 -7.114887086335405231e-01 -8.478537636298942859e-01 3.405220104816515381e-01 -4.064341962435709665e-01
6.660439504832728341e-02 -1.000691441162838702e-01 -9.439621185073365783e-01 -2.769614947830444374e-01 -5.672868108750989125e-01 7.755501303040968075e-01
-1.083828005944437595e-01 -3.887603835582976314e-02 -9.835008600779170385e-01 8.740643246606130679e-02 -4.583857005638435900e-01 8.844448343916934130e-01
-1.927953932188760863e-02 -1.351925480180349026e-01 -9.212979529394924594e-01 5.798817616097151628e-01 4.622037343744449522e-01 -6.708985396337742158e-01
2.092010845235987501e-02 -1.190335986430131748e-01 -9.639613794568391292e-01 -4.847597371362017959e-01 -8.157226317458058373e-01 3.156019412318896156e-01
-9.718599725222965002e-02 -9.786594116119722020e-02 -9.520627252620664782e-01 2.223297767204246433e-01 7.453579202799137660e-01 -6.284990382327149128e-01
-4.750416211614491568e-02 -1.875379128697032827e-01 -1.004261092603780048e+00 5.494150083581581523e-01 5.710860437497976561e-01 -6.099212073907654963e-01
-1.255100831867800582e-01 -1.617633452116414364e-02 -9.585128018460112864e-01 -4.072505863569768070e-01 2.559983685923747365e-01 8.767050787978482029e-01
-2.156841284616287796e-02 1.717204018696959766e-01 -7.578171230074564058e-01 2.757580925510964009e-01 -8.139038495487247449e-01 5.113883046006703070e-01
8.155408643447555062e-02 -1.270981872255875222e-01 -9.588835231247025970e-01 -1.355555713390579897e-01 -5.877312551170777999e-01 7.976193696478577344e-01
-8.757593266759660516e-03 -2.009444361741782870e-01 -1.071085541632013527e+00 -1.470347805913450878e-01 -5.773832626407415791e-01 8.031247358404467462e-01
1.297353333555073367e-02 1.308192421984265275e-01 -7.705373656703933261e-01 -9.709988738419246257e-01 7.976851295716953782e-02 -2.253844966680638440e-01
-8.366835095629700236e-02 -1.257003428087955510e-01 -1.026089771113742222e+00 -6.589332760988796112e-02 -4.931254029385506166e-01 8.674591669659087456e-01
4.467932737114938685e-02 -6.461889239807393215e-02 -8.718272516076284173e-01 1.750224791844119110e-01 4.336109114889733496e-01 -8.839393130853746561e-01
1.211374702781201212e-01 -1.542388778976045149e-01 -9.299304729927337920e-01 -9.115617352941769447e-01 4.000181777083853252e-01 -9.508238664616854019e-02
1.153325368743841478e-01 -8.219413555928838100e-02 -8.728856592046557727e-01 3.762703715919953756e-02 7.197730915012353625e-01 -6.931889373218349526e-01
4.072375708889267726e-02 5.953487328001090539e-02 -8.538579622596725871e-01 -4.285718239116353967e-01 -8.479262291293563347e-01 3.120052911466800749e-01
-1.036958164965874792e-02 -1.513876926505871301e-01 -9.292831028095598356e-01 6.124281995893263164e-02 6.173172333446004245e-01 -7.843269410260278462e-01
2.683365485861701275e-02 1.037062119686571471e-02 -8.417006818504951804e-01 1.545605957944779507e-01 2.844599040745738883e-01 -9.461467038475273039e-01
-2.683306422678217312e-02 1.201578339401929152e-01 -8.132945184450051102e-01 8.959393571515325005e-01 -2.868648818219405872e-01 3.391182800796541108e-01
-9.545185501028850827e-02 -4.885556732547695347e-02 -9.878170064602257439e-01 -2.052903882702036553e-01 -4.230772873346763108e-01 8.825312829726779107e-01
-8.493017614585846031e-02 -1.483277148015866853e-01 -9.874180222296665699e-01 7.043082027512241883e-01 4.054928715636277325e-01 -5.826881555758823827e-01
1.149374604062011404e-02 -8.939647403095689338e-02 -8.881666549641766828e-01 2.105231676852572231e-01 6.024615080042303727e-01 -7.698831906471486075e-01
-3.338271269006932301e-02 1.432802710884485409e-01 -7.210249373348841528e-01 6.924211507207354011e-01 6.799697074761461568e-01 -2.412346304935859553e-01
-1.351187483292577429e-01 -6.029785558651987176e-02 -9.749490413998423977e-01 9.630529277548364187e-01 2.579291937871377449e-01 -7.746992535916959188e-02
-5.662888994273971785e-03 2.398626541379805105e-02 -8.356931108494715099e-01 -7.602963523434669302e-02 3.418825302295983026e-01 -9.366620682455014668e-01
-8.583034425504418308e-02 2.105841207945275892e-02 -8.844981315310318504e-01 4.461310059077409629e-01 3.313926753126628100e-01 -8.313519232652700763e-01
1.921244290960606727e-02 1.010781832189409507e-01 -8.085882455040028782e-01 -9.627344344542172472e-01 1.678253861135269864e-01 -2.120779302331201877e-01
2.787934229290028876e-02 -1.533409317765981883e-01 -9.223122818352982311e-01 2.009693818545205402e-01 7.419358973670275859e-01 -6.396424249181688060e-01
1.225528984626325125e-02 8.601232553943810588e-02 -8.056727597705536370e-01 -6.274427864580872649e-01 4.737517816826978256e-01 -6.179601921436206347e-01
-9.176827546210958655e-03 7.233648523681751596e-02 -8.771610325235736916e-01 6.455558148546679531e-01 -4.155037441016077859e-01 6.407919541823782206e-01
3.366530091823725229e-02 -1.504801914187424150e-01 -9.984957505684283197e-01 -3.395189993901294168e-01 -7.199549263746286565e-01 6.053030257994985730e-01
1.628566378878450877e-02 8.702536077838658735e-02 -8.108798005755227800e-01 -8.806816814600959553e-01 2.646024313382671078e-01 -3.929189856325294716e-01
-1.252409116282910892e-02 -1.744012813173613508e-01 -1.023163015903277406e+00 -4.254379816902842948e-01 -5.704314401863915807e-01 7.025741923684475365e-01
-6.338503113685269030e-02 4.733280404207917957e-02 -9.167180182320466830e-01 -1.625831103444390080e-01 -6.991497731701487028e-01 6.962444447942528480e-01
-3.124479000474832818e-02 1.320768772650296186e-01 -7.447226059701074208e-01 7.470645384613209261e-01 6.223409277441378507e-01 -2.336372081414675450e-01
1.127211415686291953e-04 -1.153161314178909741e-01 -9.054477255610375863e-01 -7.670758221736949378e-02 5.391509642756043830e-01 -8.387086410375483858e-01
5.420711752759419660e-02 -1.679316363016233882e-01 -9.312040160425250068e-01 -2.086177929034304379e-01 4.566677778407478017e-01 -8.648312882673100388e-01
-9.369228487368347347e-02 1.784975416960681363e-02 -8.900848883752382479e-01 4.671397297558463890e-01 3.315485174971442572e-01 -8.196682581563596859e-01
-7.214619443564222745e-02 -1.697907669723732194e-01 -9.994441621632189632e-01 3.272491992277820061e-01 8.237805920531988679e-01 -4.629184569243881553e-01
-7.730954458446779622e-03 3.524317453413994272e-02 -8.319796234902675502e-01 1.250695362176527659e-01 3.142582189745347088e-01 -9.410629006167732236e-01
2.063337393642636700e-02 -8.281217099922835723e-02 -9.466897791561778019e-01 -1.244335439569488472e-01 -4.316956189874715522e-01 8.933953132210499248e-01
3.362114519421407349e-02 6.274632451882053430e-02 -8.362646964664156579e-01 -5.022556792929147029e-01 -7.471471437316966613e-01 -4.353278973734400203e-01
-4.004394320655806777e-02 4.743812085836619091e-02 -8.539247337326895115e-01 4.936571201868058534e-01 2.399667390877510686e-01 -8.358938998583854696e-01
1.322623921394471824e-01 -6.756087341246745648e-02 -8.965755224498276332e-01 -8.314539987388266384e-01 -4.573160905654773956e-01 -3.155094947717474452e-01
-6.982088628553298482e-02 -7.837168836979085951e-02 -9.182001043437005849e-01 3.292838203344353176e-01 6.951315240468212142e-01 -6.390339035937787626e-01
4.362476279113120664e-02 -2.011178237738457386e-01 -1.046786065964444790e+00 -4.585966823748712784e-01 -6.935822860976094129e-01 5.555472035087347660e-01
-9.485530642777631081e-04 -1.911512076762293955e-01 -1.057267022275961255e+00 -4.160020975181722425e-01 -7.235874799692297854e-01 5.507843622437557096e-01
1.158738706023118015e-01 -7.705376929518170659e-02 -9.231742791540262782e-01 -4.695060289474216608e-01 -3.873866761023479488e-01 7.934076203064837074e-01
-1.212170293491983825e-01 -2.855513392767122099e-02 -9.751260016188771917e-01 3.212348909564409771e-01 -6.475066253402497196e-01 6.910450889577937073e-01
5.432779070148919219e-03 5.191132672746359006e-02 -8.997643604734457679e-01 -2.434081686056459738e-03 -5.199138094693577239e-01 8.542152573967559670e-01
9.310025914436188821e-02 -1.816551818218573866e-01 -9.489997091191292311e-01 -1.746720532499463074e-01 6.668983307827432983e-01 -7.243868374098461071e-01
4.892173617667351648e-02 8.616581657542537673e-03 -8.384439358828250644e-01 2.106752125304634793e-01 3.054746599169625987e-01 -9.286017375462206624e-01
1.152436119516828533e-01 -6.447877514663560850e-02 -8.578887617966811652e-01 -2.658263378344367656e-01 3.410916707421600136e-01 -9.016611504683197387e-01
8.459258127014165907e-02 -1.558940604382542394e-01 -9.261642536531069503e-01 2.621448656689014806e-02 6.835134806590720258e-01 -7.294670125861447696e-01
1.674194773678409215e-02 1.160209051441391387e-01 -8.197278894830485330e-01 -8.094647872034536062e-01 -5.088205389436599724e-01 2.930331336670842224e-01
-1.230448844132636319e-02 2.479854351148357353e-02 -8.367910143183546756e-01 4.441048271792424895e-01 2.652056848358537167e-01 -8.558252433802365777e-01
4.626977348760114711e-02 -1.988123508813448015e-01 -1.036231522891826851e+00 -7.709912379774301883e-01 -5.956063520558513291e-01 -2.254453023523686206e-01
-4.011429553369848244e-02 -8.113672515292047471e-03 -8.688225885837146389e-01 2.799085702075614912e-01 6.453743231518751511e-01 -7.107342508565474004e-01
4.361927598130006800e-02 -2.070551511676016476e-01 -9.815821397731511189e-01 -3.143430085835891008e-02 5.759412293736676514e-01 -8.168865190692614631e-01
-1.663455063657453756e-02 -1.548596432425547731e-01 -9.361001647384808999e-01 7.023437320715784082e-01 4.810537770696585169e-01 -5.246909048066131787e-01
8.171988873745985107e-03 1.530576668252674744e-01 -7.459105939309589317e-01 -9.842944998511155008e-01 -1.243833691952533627e-01 -1.252721638293202988e-01
-3.338656240003589487e-02 -1.810839658337936586e-01 -1.054921813360768512e+00 -7.203810600006568254e-01 -1.622892252105111177e-01 6.743243550198242398e-01
3.037210356042052001e-02 -2.245972930809566059e-01 -1.071424319457628282e+00 -2.243164164657653614e-01 -4.347528708764790140e-01 8.721651716094934725e-01
-1.251962486505590333e-01 -1.000499003357460254e-01 -9.869754323464643431e-01 9.001977991564280579e-01 3.261955087435673417e-01 -2.885141460473791830e-01
1.075716620463442602e-01 -9.838583290331148756e-02 -8.853008702868132573e-01 -9.227519289024656290e-02 5.008318703554619500e-01 -8.606118326012707209e-01
-1.824567091723649365e-02 1.387024555612651755e-01 -7.190949276604284846e-01 -2.049271809201571592e-01 8.335663231840985121e-01 -5.130029584451343272e-01
5.945529277704216659e-02 -1.974772904874771418e-01 -9.700534180253215233e-01 1.872654967244227198e-01 7.858570258493597915e-01 -5.893728604709873586e-01
3.621677050633207925e-03 -2.874033211476254013e-01 -1.072200570898244276e+00 5.435903934753181233e-01 6.954972147620382961e-01 -4.698862717505121189e-01
-1.937021503940996453e-02 1.295256168622418991e-01 -7.346842354955502863e-01 1.218957954643104108e-01 8.730176298302779747e-01 -4.722093106384571137e-01
1.127377643157007198e-01 -6.757696526860218489e-02 -9.203108814336572463e-01 -4.373366941649586281e-01 -4.073315425380353849e-01 8.017590850064939545e-01
6.822408882880111325e-02 -1.127895591657411961e-01 -9.520636084139251221e-01 -2.316902634300274932e-01 -5.455841427446783687e-01 8.053928016919935651e-01
-5.928295339006269329e-03 -1.547937589955211690e-01 -9.324179404437108465e-01 -1.522074126885297751e-01 6.344920661310775589e-01 -7.577946433826118211e-01
6.727262378125205278e-02 -2.208066214294897300e-01 -1.023846185637907302e+00 -6.388943003273546140e-01 4.835257211333237604e-01 5.983451763085578801e-01
8.261510421050510811e-02 -1.782907527672280279e-01 -9.969277724871009605e-01 -4.837036567106119400e-01 -5.085592221477801544e-01 7.123189524736985856e-01
1.407696823485051797e-02 -1.146773735689547019e-01 -9.622221517572048244e-01 -2.648128047425072906e-01 -9.500075773097174103e-01 1.654079245336449455e-01
3.371194695237376970e-02 6.399016100906924909e-02 -8.481967936685730347e-01 -3.746326674799534406e-01 -9.141372816089305964e-01 1.549302902259250825e-01
-2.129472871767663228e-02 -6.031283218836189751e-03 -8.552787416277847221e-01 6.755783754390320972e-01 3.859959816895180973e-01 -6.281727157069968426e-01
1.269830350822499093e-02 4.896336263285754054e-02 -8.290600505404012166e-01 -8.848792562708351905e-02 4.733331445986768693e-01 -8.764277615654036957e-01
-8.451365693704984694e-02 -1.728514344235739519e-01 -1.016167199931534926e+00 3.624272553520915818e-01 8.728287590229126813e-01 -3.268278476514391295e-01
3.020628399784137941e-02 -2.556334648107904672e-01 -1.038168480442863695e+00 -2.011134463703435626e-01 7.299269218073212162e-01 -6.532687582533944770e-01
9.473226717986096834e-02 -3.543462941595865341e-03 -8.876899923269672144e-01 -6.717830825725415456e-02 -5.964529361294377413e-02 9.959565823114575611e-01
2.068967284558164560e-02 9.865468834411658672e-02 -8.185214989172712174e-01 -9.921935246724613577e-01 3.069226375490933037e-02 -1.208718103762712187e-01
3.576719673862821525e-02 -1.888839362727018079e-01 -9.651626384161239303e-01 8.880866575484960834e-02 7.577126877091578949e-01 -6.465172107310118710e-01
-4.245263861989023724e-02 -1.888026135235094383e-01 -1.059389863848501978e+00 2.549858801286106758e-01 -2.491383435868927132e-01 9.342977505537608529e-01
4.369786534454282549e-03 -7.809651763591486662e-02 -8.814182868865290121e-01 2.691931136982309569e-01 6.454309911272700928e-01 -7.148103966996571801e-01
8.996922179919476792e-02 -9.115200599542643001e-02 -9.208889305566735350e-01 2.837197736051073060e-01 -3.751686531784401146e-02 9.581730401562076338e-01
-5.843578729696760621e-02 -1.731085406641313107e-01 -9.961434320819125832e-01 3.553926795899186586e-01 7.764235391995418789e-01 -5.204445513892475006e-01
-1.328722293658678721e-01 -2.905854814289446364e-02 -9.614250134121121727e-01 -1.361541977262129520e-02 -3.133247544342497304e-01 9.495484287824041969e-01
2.234024454086104561e-02 7.556719304094028367e-02 -8.499224941473286776e-01 -9.908064723742335822e-01 -4.358775782787248365e-02 -1.280727983174646811e-01
-2.586450366245461596e-02 1.821426406098555772e-01 -7.391454102532690751e-01 2.756204448132428264e-01 -8.088068247382294018e-01 5.194852169771663197e-01
1.433971611716071404e-02 1.090861021153984034e-01 -8.347107049930103662e-01 -5.804353526086011295e-01 -6.598115311165868579e-01 4.772248367883991649e-01
-4.178679941398188297e-02 1.634850375050230231e-01 -6.980440016764326572e-01 8.898120346025437666e-01 3.773886893449985291e-01 -2.565391202739760734e-01
1.342341714062511016e-01 -6.998571230206854232e-02 -8.990405331947382006e-01 -9.267771984555973619e-01 -3.582529366420602601e-01 1.128665486764539733e-01
9.569545754275608773e-02 -1.536084565319290052e-01 -9.234268633008879679e-01 5.327358742185769880e-02 7.096701265452950436e-01 -7.025170719437292544e-01
6.953851294162546881e-02 -1.567303840832814932e-01 -9.813463094557918209e-01 -6.773473693331221179e-01 -7.336717297067233412e-01 -5.409560320990972754e-02
5.807645423303866086e-03 -2.564548245145040761e-01 -1.036396616700163475e+00 -8.493643006616934110e-02 7.461163402744593887e-01 -6.603758093866414214e-01
1.054758774447790426e-01 -7.701955798291645894e-02 -8.686583479455467494e-01 1.107433475895608643e-01 6.996732263640793592e-01 -7.058280862036713232e-01
-1.141849949501624467e-01 -2.024253316047391199e-02 -9.706926438466301210e-01 3.587636865897201321e-01 -7.704465480469929739e-01 5.269731812787304959e-01
1.583051588539907684e-02 -2.786342639286373268e-01 -1.061356272989988803e+00 -3.371981688384483866e-01 7.635832706693561622e-01 -5.506704855772517337e-01
