-5.590983665528393570e-02 3.807631712147391267e-02 -7.853671326421114429e-01 1.292144887093353012e-01 -6.358969710054127589e-01 7.608801864772968271e-01
-3.632523281990886199e-02 -2.258998543255488767e-01 -9.046300936539248827e-01 -1.303667942515937261e-01 8.512132981378160990e-01 -5.083703571510674868e-01
2.916955697984233500e-02 1.313408733358031877e-01 -6.605570214385647621e-01 -9.596695706734478248e-01 2.412674065451793082e-01 -1.443064574521985555e-01
-7.481260436435068634e-03 1.159010036301579699e-01 -6.605730674500643884e-01 5.124243407842802300e-01 6.773515926308990576e-01 -5.278409939860490008e-01
-1.174856044522357423e-01 6.710617717255012646e-03 -7.718541420196849412e-01 8.273676403549273806e-01 -5.470502588410662836e-01 -1.272745143201953200e-01
3.099737989204267435e-02 -6.728162892604426515e-02 -8.439727703353662180e-01 1.476474470027684671e-01 -6.170989032914129258e-01 7.729095515971450281e-01
2.465691577757668160e-02 1.151366475982825988e-01 -7.184221094136465924e-01 -9.012966153142573100e-01 -2.975563388999222791e-01 3.148406523998102391e-01
1.078218255310479413e-02 -7.205033070065589192e-03 -8.141007011451075748e-01 -7.339595921135946277e-01 -1.309890134838899711e-01 6.664421921599523735e-01
1.042209327466949859e-01 3.201606286483246050e-02 -7.985496254062661725e-01 -4.085384421310374048e-01 -8.054758756589875945e-01 4.293075296713672606e-01
2.131426474565464857e-02 -7.478095569438558687e-02 -7.806337760371119261e-01 -1.659377694952900717e-01 6.460639784401501773e-01 -7.450275111813072781e-01
-4.963240531811556611e-02 -1.588139123579918877e-01 -8.307804903856035317e-01 7.826692980251849507e-02 6.423651482420955627e-01 -7.623918310312602920e-01
-8.520249553786753138e-02 -1.518914481210455469e-01 -8.403734036242801464e-01 2.211267065218868733e-01 6.344425624394244290e-01 -7.406656564389091368e-01
-6.914350617722328507e-02 -5.687413544258362874e-02 -7.762600052947762341e-01 7.688989536996632124e-02 4.676830918931585424e-01 -8.805455522272830349e-01
3.779098083475438546e-02 -1.278192740003258332e-01 -8.206289655281756579e-01 -4.292323027637511834e-01 2.744787098747914489e-01 -8.604772327549389255e-01
-7.350280814286987152e-02 2.446948409910525146e-02 -7.417308916231755145e-01 2.137088547998477334e-02 2.597395432162306617e-01 -9.654422069412673668e-01
3.822008691167754976e-03 7.839999190868109785e-03 -8.154465381066235974e-01 -2.913120273657762160e-01 -2.906787250963162039e-01 9.113962812566340776e-01
-4.414865728770595715e-02 4.916701305966728400e-03 -7.472521044653481770e-01 6.232799179350313051e-02 3.080684381401145866e-01 -9.493203141516034504e-01
4.863059449622163244e-02 -1.393120291027531432e-01 -8.964931044195751930e-01 4.502757868842533211e-05 -8.027444601750481912e-01 5.963231754936137996e-01
2.594360795541386655e-02 1.732959688129932785e-01 -6.367561185010867097e-01 -7.941428793186322554e-01 -5.033749756792332830e-01 3.405153756990180192e-01
5.185417217559829678e-02 6.656912622820991554e-02 -7.579440184007971704e-01 -3.937057010076640551e-01 -9.187568679953784789e-01 -2.969239810770694585e-02
-4.253425313589323693e-03 8.743934608929035401e-02 -7.680630803516933502e-01 2.086737177449501657e-01 -7.308547292285086927e-01 6.498512478150857419e-01
2.733738022650751207e-02 1.578948824147329566e-01 -6.038424390806824693e-01 -8.332125357461845905e-01 4.830344740869181863e-01 -2.691367071192397042e-01
2.127513069255392714e-02 9.702406216975752173e-02 -7.430202907241117982e-01 -8.592413783362778945e-01 -3.027388356661628310e-01 4.123753764887873596e-01
-2.393208735558116987e-02 -2.068987327211823102e-01 -9.582385703543758737e-01 9.467379439018033804e-02 -6.379233439585897392e-01 7.642582547074361354e-01
-3.721352605154346765e-02 -2.504474623359945196e-01 -9.449151314486896602e-01 7.169003232399050463e-01 6.847002912858677348e-01 -1.312990390352017089e-01
-5.148599746374071286e-03 -2.246423214476737928e-02 -7.539780945285384783e-01 3.755672820765629250e-01 4.181729966698123913e-01 -8.270916282310033507e-01
-1.822662236660588936e-02 -1.347427675550474102e-01 -8.841568105539096001e-01 4.559469068027789673e-02 -7.573968139272787559e-01 6.513610292568755566e-01
-1.768357663520749024e-02 1.039284381929196505e-01 -7.330468291785838808e-01 8.338718428955306239e-01 -4.357161074210322838e-01 3.388350975915495611e-01
-2.271559077094930518e-02 -1.093825910435503555e-02 -8.107200492039906559e-01 -1.084376337042994853e-01 -3.716002119711895868e-01 9.220382649649518925e-01
-8.499213513677061904e-02 -1.279343754618526563e-01 -8.199245885469141903e-01 5.603819611898674946e-02 6.028517575059741951e-01 -7.958828299741663725e-01
2.979210161616453745e-02 -6.144905507615012336e-02 -8.386964941021965991e-01 1.292793271747607609e-01 -6.764549787427426297e-01 7.250486309892575365e-01
9.865974270056204753e-02 -1.463558086634019761e-01 -9.071381725271669971e-01 -4.001481336330023897e-01 -2.751488674526832434e-01 8.741707910297221717e-01
6.470615707963553453e-02 -1.935676967991905861e-01 -8.958201968242031077e-01 -3.272363750938989124e-01 6.662657461895213906e-01 -6.700793313257207284e-01
-1.723842782275828919e-03 -1.971253202975081498e-01 -9.258497895397188593e-01 9.273092973865450228e-02 -7.649644549542232719e-01 6.373620300319063903e-01
-8.555564810955634814e-02 -1.050325511533353878e-01 -8.006508538176019263e-01 1.900763976637911690e-01 4.209524709930164144e-01 -8.869441810035340046e-01
2.560541466813972405e-03 1.142028756792228261e-01 -6.561353404559011615e-01 2.108564429198026557e-01 8.067865634740133407e-01 -5.519374977993429798e-01
3.434930311484099552e-02 6.264814270140435515e-02 -7.748288977715598325e-01 9.505676071458506876e-03 -8.083940238719726779e-01 5.885649873127899445e-01
6.716522081174390590e-02 -1.766479128022155343e-01 -8.749174550023006702e-01 -1.197561861787045379e-01 8.320747135721467957e-01 -5.415811360320453849e-01
1.249013995324892330e-02 1.420563007469257955e-01 -6.088741370843692158e-01 -1.419586398072150424e-01 8.731369567129811937e-01 -4.663470804090860677e-01
6.487581447522183797e-02 5.776419334215686374e-02 -7.797581820814974973e-01 -1.341137902087700395e-01 -8.743539751114420833e-01 4.663889122638502638e-01
1.592793787284259646e-02 -1.212030491702028034e-01 -8.059180935874784568e-01 -5.604474988155104809e-01 4.671138891755591271e-01 -6.838883063854226396e-01
3.246696571996024461e-02 -2.516837960049093659e-01 -9.607016445172157360e-01 -8.322667524068121381e-01 4.290313943709922473e-01 3.510898965824851836e-01
-8.528289327391658584e-03 1.627238948294234266e-01 -5.970134498273773627e-01 7.812191364045887321e-01 5.070210668044085045e-01 -3.641789377926568094e-01
-4.725314991580141510e-02 -1.547425793945902683e-01 -9.008402822096128748e-01 1.712416681091677717e-01 -7.276014859489094988e-01 6.642833497447667712e-01
-2.629082313508535745e-02 -7.930780764401013094e-02 -8.447011304754156180e-01 -4.925136297392824006e-03 -5.188909785247161066e-01 8.548262369851048481e-01
2.857136802941929316e-02 -8.606395639908354100e-02 -8.553432512434792079e-01 2.708153092451124899e-01 -4.368723923796159481e-01 8.577887741483825046e-01
2.678920398977950937e-02 1.388037951067702669e-01 -6.838894624091996777e-01 -9.225658913983215692e-01 -2.931882598331344569e-01 2.508242817680106929e-01
6.676034585275507360e-02 2.114715148153502311e-02 -7.558887325970876647e-01 -2.069126956885993796e-01 2.948738341894887593e-01 -9.328647052350446112e-01
-2.383814471088024217e-02 -1.602790038952467966e-01 -8.353910500348808998e-01 -6.086455361133486994e-03 7.198683681681488089e-01 -6.940839196898765939e-01
3.351590784550369934e-02 -1.653726414156357974e-02 -7.602722128362185972e-01 -2.142561735596275330e-01 4.886330643928173401e-01 -8.457730312995745958e-01
7.807900408125746650e-02 -1.502916577532995290e-01 -8.531546302647772251e-01 -5.181440627226294726e-01 4.010988158942656590e-01 -7.554114575206717364e-01
2.300519823805321010e-02 7.017718080751129961e-02 -7.622752185139974879e-01 -5.874920936710771313e-01 -6.940310490516304887e-01 4.161417340597640124e-01
-1.243709656374781952e-01 -7.568088703640336694e-03 -7.695234569607412034e-01 8.501556847546959395e-01 -2.997987617520717074e-01 -4.328464094008386831e-01
6.965540567856425003e-02 -1.123438053790512814e-01 -8.809657925916977161e-01 2.820522281826353672e-01 -5.154098495251544509e-01 8.091966556960478174e-01
8.430480700091707441e-03 -1.701469478618303777e-01 -8.375295060341871878e-01 -3.118288081607034079e-01 5.641707724835860471e-01 -7.645090803099389154e-01
1.379485317704885194e-01 -6.849187250549089445e-02 -8.560034392972564188e-01 -7.561265888269976809e-01 -2.472249323237528384e-01 6.059310311465851973e-01
-5.290970118235702180e-02 -2.321120810605447893e-01 -9.369378722082323252e-01 9.117262330469735332e-01 4.065336732371853112e-01 5.903938091017937873e-02
-5.055970291516346561e-03 -1.319978329546983298e-01 -8.088781911105905609e-01 1.231586327151144439e-01 4.509186670943030051e-01 -8.840273224587802403e-01
5.026403842004896483e-02 -2.162438691414195757e-01 -9.509155615149810226e-01 -8.986902189287309106e-01 -3.012509831999974352e-01 3.187534086450910520e-01
-1.436195685590260437e-02 8.654656260784121535e-02 -7.047292800037949778e-01 7.103256035044065442e-01 4.264789736629588934e-01 -5.599582323972832620e-01
-8.393458423330618645e-02 -1.811613454334140283e-01 -9.057522507833518643e-01 7.400528800637916627e-01 -4.899824281144370824e-02 6.707614381512086998e-01
4.300566932804771036e-02 -1.308323511819394804e-02 -7.594742279633301951e-01 -2.230348977250437570e-02 7.166687817461609988e-01 -6.970569643970577767e-01
2.045645244952766506e-02 1.681617289108495727e-01 -6.540865810712885864e-01 -5.757900128108200954e-01 -7.066779947538966988e-01 4.111837458824546543e-01
-4.835820887221960185e-02 6.169894673374951011e-02 -7.495962555206071576e-01 4.774821284126758436e-01 -8.775030555397682619e-01 4.471246543046893118e-02
3.366632429413902311e-02 -8.712236921146408741e-02 -7.930428966861149398e-01 -2.104072612541174614e-01 5.788359516524886894e-01 -7.878310259732725918e-01
-1.228199853725242818e-01 -7.737541288822229711e-03 -7.665084841549412165e-01 8.174390325591465167e-01 -2.345186962506323747e-01 -5.261125441934170199e-01
-1.386630683859239356e-02 1.587679015654757664e-01 -6.169659778166385333e-01 9.606237849239853688e-01 1.926202382761946219e-01 -2.002483149610468915e-01
1.348760597983723608e-01 -2.945969667591493563e-02 -8.290934702794888755e-01 4.592897790362912569e-01 1.274034437350176907e-01 8.791025317886719259e-01
-3.751464267388544827e-02 6.514140617792464616e-02 -7.400443547951588430e-01 4.917830670785460767e-01 -7.216850521390532069e-01 -4.871551092351084078e-01
-1.018223551355722650e-01 -1.078177395866417379e-02 -8.023592010050014656e-01 -4.221151005025028380e-01 1.607750464154231729e-01 8.921716350444461874e-01
6.213295685826520504e-02 -1.037815789304814829e-01 -8.733958785200791608e-01 2.138134377833255939e-01 -5.167634736695432274e-01 8.289989904120891318e-01
3.990235994616997232e-03 -9.799380733615978278e-02 -7.867106242419092954e-01 4.390322545523150932e-02 4.888518513339472071e-01 -8.712613696486256609e-01
-8.645882815682207068e-02 -5.976313035684286540e-02 -7.786773315473738410e-01 3.359687212114960408e-02 5.431067928657224986e-01 -8.389912167161132084e-01
-1.221232046805391797e-01 -2.662481562604838981e-02 -8.067741775770910229e-01 -3.265460382460376176e-01 3.228318920527508684e-01 8.883396053196425113e-01
3.423927977795904187e-02 -1.948078105548055050e-01 -9.440056474615029503e-01 -6.552615307270557299e-01 -7.532526326212378720e-01 5.694556873374818223e-02
-3.922493223632526199e-02 5.945799275804736911e-02 -7.360131911322397302e-01 4.813192111216513802e-01 -4.688128203847914954e-01 -7.406391540069215962e-01
3.810073806942713970e-02 -2.076650420436261801e-01 -9.608405750053023997e-01 -2.884019290708492722e-01 -5.217814717420524717e-01 8.028501871799683665e-01
8.296436224638395474e-02 5.335723493958351160e-02 -7.713579225949123153e-01 -5.057337905351865226e-01 -8.574879414566112246e-01 -9.459261793298151533e-02
-7.561710789415750783e-03 -2.344148713523992733e-01 -9.650252329847700539e-01 -9.710864037082214129e-01 -9.332094426336885740e-02 2.197325599332659030e-01
-4.263629990744202680e-02 -1.746051978424096041e-01 -8.526123061202468545e-01 -8.671552305153928941e-03 8.087492351939857826e-01 -5.880896859780503361e-01
-5.385793064909937672e-02 4.246311723558889029e-02 -7.820316524598610597e-01 1.254372179776755414e-01 -6.492118832743331014e-01 7.501929318258169221e-01
1.465417299253553643e-02 1.436995214477516658e-01 -6.972366339833642179e-01 -4.248632202973226524e-01 -7.318173502891137661e-01 5.328551490362168908e-01
1.890123068619786045e-02 -5.578761169416512206e-02 -8.243562532618972094e-01 6.300384876977359605e-01 -7.320045058305656438e-01 2.592699509455329010e-01
-2.120576252417133781e-02 -1.620691710663520191e-01 -8.371515843568119175e-01 1.968758583267472134e-02 7.286636608886776223e-01 -6.845886854633158602e-01
-2.262101312579388804e-02 7.254100363483212410e-02 -7.401074110887783108e-01 4.930677782528393172e-01 -8.556020084295381523e-01 1.575733772569123392e-01
7.226707769672784457e-03 -1.176759982468085497e-01 -7.987673254537215328e-01 -1.805931890114431948e-01 5.517110141116761124e-01 -8.142487684918798818e-01
-7.147885533214010101e-02 -2.015177864184816980e-01 -9.211951570872980444e-01 8.042734812506013853e-01 3.539185591067845957e-03 5.942488043928993990e-01
6.327644149999748190e-03 -2.355711520849050611e-01 -9.754766709414599557e-01 4.783975259427065696e-01 -2.285104683093358846e-01 8.478907789597344147e-01
1.242448649084754858e-02 1.387544507446077380e-01 -6.150361724160898769e-01 -1.419586398072150424e-01 8.731369567129811937e-01 -4.663470804090860677e-01
3.008955617411432359e-02 1.433060668632921697e-01 -6.597568913686655545e-01 -9.971602536752057766e-01 -3.371690949720271280e-02 6.733942756184158052e-02
-7.662809752123168894e-02 -2.004733190038573976e-01 -9.137111064281654427e-01 8.514859189017668362e-01 9.347258697099608549e-02 5.159792683790339618e-01
5.251818724482017198e-02 -1.864611138629487797e-01 -9.404569284983393951e-01 -2.240080102737468937e-01 -5.319177129868871701e-01 8.166296332756951548e-01
6.534186884348595903e-02 -1.961038168478530519e-01 -9.377471375517105745e-01 -6.579388462616478916e-01 -1.099708094713320039e-01 7.449985876792731831e-01
-2.577429590977788759e-02 -1.216649801293231137e-01 -8.652192731169451312e-01 3.716646446970571782e-01 -8.877430893901933073e-01 2.716203216295963174e-01
5.619668954227342167e-02 -9.593761290406495335e-02 -8.671896286542793986e-01 1.619713553658472249e-01 -5.293914840316589210e-01 8.327724399112327314e-01
1.305292765280271182e-02 1.041051007058855782e-01 -6.731455749464120286e-01 -3.413393276594951509e-01 7.725033062406103657e-01 -5.354681178560395383e-01
4.776970802603882488e-02 -1.321733217742132871e-01 -8.844146579066168856e-01 -3.006317050853571371e-01 -8.873252890427117956e-01 3.496775790964276598e-01
6.085776262142554398e-03 7.940788269043522196e-02 -7.758944121235844538e-01 -2.957657404201216589e-01 -6.269129729031509557e-01 7.207653926205600525e-01
3.114397634927480729e-02 -1.662320841275390371e-01 -8.489169104257947573e-01 -2.817716524910537368e-01 6.923207746830030151e-01 -6.643016489478156261e-01
3.237100185259809970e-02 -2.021425512287219062e-01 -8.815402778259511241e-01 -3.194580821079932575e-01 6.384962389041747288e-01 -7.001921783918362285e-01
4.696270748629909758e-02 -1.621061327194252277e-01 -8.496290494399748594e-01 -1.448780380921445010e-01 7.941061308270989105e-01 -5.902591016336684593e-01
-4.439509325100404399e-03 -2.000462953970989499e-01 -9.318301832795022888e-01 -8.032482210411368007e-01 -4.145787506576951165e-01 4.276876838270580738e-01
1.166200429555000195e-01 -1.460599390372668560e-01 -8.776737814513246860e-01 -7.849774218089610178e-01 5.437249451002474920e-01 -2.969404508077156390e-01
4.657883424798751199e-02 -3.938917154885040670e-03 -7.551310696823398949e-01 -3.111039067962710347e-01 8.896371105442058003e-02 -9.462028415152442529e-01
-4.901927653227142190e-02 -1.460974476726358551e-01 -8.262629680285390465e-01 4.615756410449285418e-01 9.302090874962538891e-02 -8.822103140007810929e-01
-4.616117666912308674e-03 -2.426799689861510456e-01 -9.606820934554295421e-01 -7.201074041103489032e-01 -2.240938986612606432e-01 6.566789559048248348e-01
2.676477295375821047e-02 5.893999885500597613e-02 -7.309935212445584085e-01 -5.938693646655883729e-01 3.754693883338056648e-01 -7.115770626825514977e-01
-4.762496574016721919e-03 -3.907984781784589606e-02 -8.270217322526441928e-01 8.853545500032962146e-01 1.488779372406665198e-02 4.646780330363061151e-01
-7.911548462044312724e-02 -6.318541494004192155e-03 -8.049726386712743320e-01 3.761166277942995517e-01 -9.111684737963819947e-01 1.682506899130463696e-01
-2.536686427616318545e-02 8.951498467745795662e-03 -7.444793291768240229e-01 1.144488157553797680e-01 2.066115950397528489e-01 -9.717062917195298244e-01
8.132863752785574052e-02 -1.068138669829679227e-01 -8.810448377486047589e-01 2.483655550195629502e-01 -5.732200666344542395e-01 7.808542157710466336e-01
2.992754314089672574e-02 1.592432698585571904e-01 -6.109168807211179386e-01 -9.102151808466995009e-01 3.667160930463007062e-01 -1.924256522843738326e-01
-8.760951602104584401e-03 1.200550354669275566e-01 -6.565474882933582945e-01 5.281940531444149212e-01 6.677368728762265171e-01 -5.245364723490187897e-01
4.876810490600463899e-02 -1.621664129722104677e-02 -7.629815825457535450e-01 -5.812523183723621034e-02 6.869979389958299487e-01 -7.243309252264114040e-01
-5.660396429979314831e-02 -1.842966223740463150e-01 -8.657390971457603612e-01 -7.017087683447593982e-02 8.373445059772804955e-01 -5.421533236584871185e-01
5.773890305780096655e-02 -6.938704541867199427e-02 -7.909004255950818907e-01 -3.816145269615092706e-01 1.807857036642619430e-01 -9.064694601378254779e-01
7.150397759245290252e-02 -1.824544974363169758e-01 -8.848791878599970850e-01 -1.263274453978557033e-01 8.330664917753359822e-01 -5.385551010067451960e-01
1.418156031886245172e-01 -5.317914518628275022e-02 -8.174498343215426122e-01 -5.075651266546852280e-01 5.815248689544827432e-01 -6.357723405366774161e-01
-6.387806505602169893e-02 -1.433931522642516443e-01 -8.290970887783681853e-01 1.581972842329064655e-01 5.390959427081855049e-01 -8.272540019950980206e-01
3.708944651879048093e-02 -1.559582037470800230e-03 -8.154279129349916166e-01 2.195823694330200082e-01 -4.529401841275097484e-01 8.640768326003874789e-01
1.364761760355710229e-01 -8.656664131412900032e-02 -8.397190452416027906e-01 -6.386459129831775217e-01 3.552183370435918475e-01 -6.826062780680155484e-01
-6.326429085384216791e-03 7.963694751770888924e-02 -7.750341442326885710e-01 3.746439500495341024e-01 -6.122477645464610152e-01 6.962719192234761989e-01
8.721117042485178328e-02 -1.234488040809066794e-01 -8.947443517715112371e-01 1.590173002199212482e-01 -5.570134636013900353e-01 8.151377181786833015e-01
7.147645704202573724e-02 -7.006791089641511983e-02 -8.451637915074103891e-01 -4.251293735235999183e-01 -8.943608145561918743e-01 1.392255334118577825e-01
-1.521304525419851783e-02 2.322361000440282142e-03 -7.436289979116000870e-01 1.788645271897214284e-01 1.907781944763602966e-01 -9.652000629017474242e-01
-9.847124044365111045e-03 -1.970257908363111932e-01 -9.437263018992050334e-01 -5.790130816281952031e-01 -6.416159813764382713e-01 5.030633993303138540e-01
3.682498934877337371e-02 -1.963747822367931384e-01 -9.401304320688506078e-01 -4.261803649505456204e-01 -8.499966375934979723e-01 3.096385192613594906e-01
1.244252184065027800e-01 -6.438985294367946532e-02 -8.185040974995356766e-01 -4.749371747216843964e-01 5.119658046623728476e-01 -7.157693028649615430e-01
1.139444170963622299e-02 -2.778122618728149917e-01 -9.688109851186990085e-01 -8.282567125962042587e-01 4.605019674516575567e-01 3.192628321813875125e-01
9.751509461527407829e-02 -1.535717639003189583e-01 -8.685269613460145921e-01 -4.499889467529729070e-01 5.785278276367935568e-01 -6.803054464356449449e-01
3.462361829791081504e-03 -4.424093876226214278e-02 -8.302471948773035848e-01 -4.627786152283913101e-01 -1.303836576154684679e-01 8.768329687654911053e-01
3.616772376992093835e-02 -1.008911867714656768e-01 -8.034265979812683645e-01 -3.185652095916402526e-01 5.111026657058759248e-01 -7.983046237785308419e-01
1.473421761047790657e-01 -5.765972885051918323e-02 -8.319924183323682554e-01 -9.552461846872509765e-01 2.772410023522816069e-01 1.031608125944744048e-01
1.098581204127554306e-01 1.240449534571172940e-03 -8.258038801770132276e-01 1.682735538837902833e-01 -1.773063824579304282e-01 9.696630640603985940e-01
2.153821165739146573e-03 9.399577805379898121e-02 -7.614423795278122409e-01 -4.930518911561145717e-02 -7.934850756635051239e-01 6.065891797794905616e-01
-2.225378796865747424e-02 2.374301312889628285e-02 -7.914685003140686792e-01 5.275280400443015383e-01 -2.396618760194350051e-01 8.150315037775301974e-01
1.005352659613646116e-01 -7.018878274286405317e-02 -8.629208340941332267e-01 7.386318672426923637e-01 2.958006104194512709e-01 6.057433149189956900e-01
-4.808710596329069525e-02 5.080776757213916958e-03 -7.473967016248497242e-01 4.576159607519444256e-02 3.091596693528380069e-01 -9.499085088419276790e-01
2.182143652293624253e-02 -2.596257506869887877e-01 -9.458774952698842942e-01 -4.512778648420628924e-01 6.515740308841518891e-01 -6.097536969801550244e-01
-1.328584142946055702e-01 -2.228067523260407468e-02 -7.871322982836792548e-01 9.397340723556273367e-01 -3.401724268150810304e-01 -3.438885413395545432e-02
-2.646601573744180799e-02 -9.609305975395854293e-02 -8.539986485732680155e-01 -7.382414087720093332e-02 -4.718844672704720633e-01 8.785641955899441413e-01
1.097452368688863200e-01 -6.901220772792245571e-03 -8.248758215913017944e-01 5.338633186041279455e-01 1.737276554582683485e-01 8.275316663294284281e-01
1.185825226063072363e-01 -7.769530267717379701e-02 -8.230628279807046255e-01 -4.942227581621885246e-01 4.295958076610668641e-01 -7.557719942909992827e-01
4.365828891467571360e-02 -8.465456392467388125e-02 -8.580959314241590752e-01 1.636013100250845453e-01 -5.057587335277129448e-01 8.470199022564460778e-01
-5.023718484951497296e-03 -2.620138309207845073e-01 -9.752397442292267682e-01 -6.307887764190899249e-01 -8.699603026945369744e-02 7.710623906410322137e-01
-4.554587989191347802e-02 -1.613307029879584020e-01 -8.345413126720848673e-01 -1.522559103283639415e-01 8.024963657239542192e-01 -5.769035627987804116e-01
-1.129277162419850371e-02 1.004226912234684743e-01 -6.854953337082630993e-01 5.883506351750569241e-01 6.420475722269980423e-01 -4.915469917378445519e-01
-3.516369765929987928e-02 -1.719366342558966976e-01 -9.206717754368065609e-01 -2.311249072283255712e-02 -4.303132165176569157e-01 9.023837035667338080e-01
8.754156708973065068e-03 -3.623373921290023308e-02 -8.218902953173907733e-01 -8.806418623205432006e-01 -2.568485039717752910e-02 4.730858260280896288e-01
-1.813758607748708687e-02 -1.640809467537896749e-01 -9.050280263018478655e-01 -8.047614779859438849e-01 4.570809823622068446e-01 3.787293745046442783e-01
1.431643295950209976e-02 -2.538831941431339834e-01 -9.350373878020843410e-01 -4.507230651539327337e-01 6.420104787310648708e-01 -6.202187224985652447e-01
1.141497032905642965e-02 1.619837002954796212e-01 -6.732896683565352536e-01 -2.818240880559846340e-01 -8.190533588392506781e-01 4.997267040748914479e-01
-1.452365050113858108e-02 -1.598366786996660571e-01 -9.030812044033080799e-01 -7.560542798966924938e-01 4.038344761940377836e-01 5.150724625593767758e-01
1.452005953992480461e-02 1.215719292323548112e-01 -6.474440730554049672e-01 -3.936774581949649132e-01 7.800486435796641915e-01 -4.863560142104519923e-01
-8.697011436109244875e-02 -8.925856947235237537e-02 -8.425736345013791206e-01 5.385799728088633831e-01 -8.153622322255411614e-01 2.124053745774490687e-01
1.820056268172026703e-02 7.924289937263268024e-02 -7.076440345331178605e-01 -6.769069719959006637e-01 4.762116436553344712e-01 -5.612659099842297605e-01
-3.022355374025223820e-02 -1.516283533127459615e-01 -8.255316985368563731e-01 -5.621567020281850735e-02 7.270380786993435596e-01 -6.842919190994546375e-01
1.025250350395450205e-01 3.359635153009254277e-02 -7.971985077363857863e-01 -4.085384421310374048e-01 -8.054758756589875945e-01 4.293075296713672606e-01
-1.418073923993438956e-01 -5.167418595708521412e-02 -7.962112214958980694e-01 9.677642343160252070e-01 -2.211379546548751240e-01 -1.205420747696653860e-01
2.472441481134403027e-02 -2.385569636802055693e-01 -9.249202026304444990e-01 -3.817934030068719786e-01 7.069979813289976045e-01 -5.953046714222510749e-01
-1.253042121181280610e-01 -6.610730639007032783e-02 -7.881236815175767241e-01 1.533976619210425663e-01 7.314827396048625419e-01 -6.643810344804569334e-01
-1.277946329847851926e-02 -1.220827007371307060e-01 -8.696452432635575214e-01 1.576168902057877852e-01 -7.703148523668678083e-01 6.178769652162695580e-01
-1.409592741606656985e-01 -8.456405138608584504e-02 -8.156700441866328033e-01 9.292401047556247962e-01 2.596346780840625423e-01 -2.628738512099298985e-01
-1.025358017126970916e-01 -1.086009728064574603e-01 -8.082972341939319572e-01 3.865043423611819184e-01 3.442950489743885067e-01 -8.556139974238812229e-01
6.150887887630501760e-02 -4.103781744359728118e-02 -7.806466726006067169e-01 -2.230842658017352931e-01 4.375045880310620139e-01 -8.711045550354280520e-01
1.021426433198615313e-01 -1.009615608719436064e-01 -8.792872938861145959e-01 -1.335918139993439446e-01 -6.226321780205208434e-01 7.710268465661795911e-01
-4.975186027598332145e-02 -9.155222156374812070e-02 -7.893974910627857833e-01 -1.176725824107788809e-01 7.995577550312030768e-01 -5.889486902254223999e-01
-1.650003549978469944e-02 -2.479156506745475858e-02 -7.577794762870898593e-01 1.016862612050086212e-01 4.379821680991934918e-01 -8.932141538899147637e-01
-1.568795161045651379e-02 -2.372575831010862724e-01 -9.744553720513042805e-01 -7.047666860976647789e-03 -2.268244221307122999e-01 9.739101662457810837e-01
1.375533592025358354e-01 -6.394663775296807740e-02 -8.543802413553770458e-01 -7.156972597915082224e-01 -3.212288404719210733e-01 6.201527750288562402e-01
-1.266330806371610170e-02 1.777249760720879257e-01 -6.017227937213808220e-01 9.833863021749449373e-01 -1.154993529587041434e-01 -1.400402804938938317e-01
6.295619691105806826e-02 -1.704222758815047423e-01 -8.644571779225846964e-01 -7.803860295038426986e-02 8.323230852885785680e-01 -5.487697678856345851e-01
-1.028189322712585035e-01 -6.210763999933876373e-02 -7.811932399976474484e-01 4.066606934621203734e-02 6.490307490328559581e-01 -7.596745076766620031e-01
-4.502880430104700023e-03 -1.284960309182538729e-01 -8.699155222945204047e-01 -7.656464408026363300e-01 -4.582112922583055359e-01 4.514730770856980047e-01
1.027579294819274194e-02 9.907957544932631533e-02 -7.531005561399177761e-01 -2.201590086570040794e-01 -7.635727572614343650e-01 6.070310167325352335e-01
8.761679161203345112e-02 -7.375734756970712958e-02 -8.480554325194967769e-01 3.765976925359188487e-01 -4.577491536291594110e-01 8.053818289037872891e-01
9.615954300800384769e-02 -9.318631196605517419e-02 -8.728952693104828908e-01 -2.355740587338890288e-02 -6.506294324795933726e-01 7.590299007415969301e-01
3.390790025728684237e-03 1.741952666280686679e-01 -6.539927472624965654e-01 2.673620813386549666e-01 -8.547096925092961817e-01 4.449593902739064077e-01
-5.456648747451441073e-02 -7.311874098108686604e-02 -8.372630922799055853e-01 1.730832306714104318e-01 -6.694063602194997298e-01 7.224522961123651665e-01
-6.759787595135810512e-02 -2.064750590772562733e-01 -9.262438556592229588e-01 7.444611744718586666e-01 -5.224407842681546427e-02 6.656185964749735673e-01
1.592169719672124201e-02 -1.773979021812549794e-01 -9.279906422723948056e-01 -5.222008237999578029e-01 -8.303724189357667429e-01 1.943912176344610443e-01
8.441464919320508520e-02 -1.380076343873558320e-01 -9.040392617587100776e-01 1.318133301911106892e-01 -5.411605692661642930e-01 8.305242225579276827e-01
3.099378698961012535e-02 -5.620105588566257082e-02 -8.335170927105456373e-01 -1.524355234236929313e-01 -8.392332583780053312e-01 5.219683412150400992e-01
7.808166970919558358e-02 -5.649490357323765782e-02 -8.473414027876994270e-01 5.680348146020545164e-01 5.810144589140732174e-01 5.828881950535589329e-01
-7.195997121457331372e-04 -2.043962932891878470e-01 -9.338228495216781555e-01 7.665132670055246900e-02 -6.678500473447191998e-01 7.403383607356174290e-01
1.413690483150674589e-02 1.638619530412334935e-01 -5.797537534891556987e-01 -1.364178602013581543e-01 3.597097539493543383e-01 -9.230379517288426205e-01
-1.193022321962111804e-01 -1.274407903943034770e-01 -8.607525004964058368e-01 7.899935836950195966e-01 -4.381593581757866618e-01 4.288665463331016170e-01
9.922829070719522970e-02 -5.138840716634224953e-02 -7.969567574795699549e-01 -2.112870487464868774e-01 5.693330532208824568e-01 -7.944920751915574009e-01
-3.443946920702543185e-02 -1.660609979958604931e-01 -8.418146129633775621e-01 2.612869910370189952e-02 7.813279427444850267e-01 -6.235735217035905942e-01
-1.256943175992392137e-01 -1.092187575497967078e-01 -8.527664178935989714e-01 -2.528411833826939639e-02 -7.940675665351391854e-02 9.965215905125317519e-01
-1.081747812163759287e-01 -5.060157411709403225e-02 -8.344401455733605477e-01 2.201906887091549803e-01 -4.627149201779982568e-01 8.587263611014025466e-01
-7.747638462886259625e-02 4.587114105891936661e-02 -7.520023940589177780e-01 5.839509962477738014e-01 -7.681234464272242990e-01 -2.626549162494307699e-01
-9.092892942634546796e-03 1.705210511487225133e-01 -5.906936163325051670e-01 8.836481347203101189e-01 2.720909584822516769e-01 -3.809625760065232791e-01
1.202812116068556897e-01 -1.138700627557776429e-01 -8.431233450364563620e-01 -7.159399000481768693e-01 2.573252133177647005e-01 -6.490098567124947815e-01
5.059444417715698583e-03 -4.232855345500166622e-02 -8.281365722768068149e-01 -8.132922495731006451e-01 -5.806667402934589939e-02 5.789507562405415975e-01
1.693468175153900121e-03 1.107485813993576290e-01 -6.615169753639206229e-01 2.035663094715975951e-01 8.087706611594511763e-01 -5.517705821225136198e-01
1.007790458053467279e-02 -8.780090589684864943e-02 -7.820347345456656329e-01 -2.815765005945907729e-01 4.582014114666518867e-01 -8.430694756915779742e-01
1.200350544647302287e-01 -1.324976810752661327e-01 -8.612247275325558560e-01 -1.401753688963418010e-01 8.055667733823684840e-01 -5.756848439702874076e-01
-4.015320133753586679e-02 3.284014899082540739e-02 -7.389092259789462602e-01 3.196735724389586364e-02 2.603452653360460722e-01 -9.649862335225019017e-01
-6.703320561701599234e-02 -7.512015135276048361e-02 -8.291857790529172378e-01 5.059257098039948719e-01 -8.596784195538732520e-01 7.065543937078383463e-02
5.535946155101582888e-02 -1.202623382552124448e-01 -8.781851665396982476e-01 6.363851346055929836e-01 4.789696179886652194e-01 6.046503663248812277e-01
-8.658728231815104870e-02 -1.822059381473169482e-01 -8.981574996601945360e-01 9.744988284228165432e-01 -2.061055890879143482e-01 8.872721988928559955e-02
2.246804887643795087e-02 -5.452191313051630434e-02 -8.238446280043698611e-01 -1.391419310909213225e-01 -9.886690118556499263e-01 5.633034713777070046e-02
-9.617869479882414085e-02 -1.806654779675002931e-01 -8.704667264391328096e-01 6.122744336037295732e-01 6.694171167578678583e-01 -4.207145608923172353e-01
-1.133948542979020535e-01 -1.199047201751755054e-01 -8.608343341281176064e-01 6.200324793053432204e-01 -5.754952716842760552e-01 5.332587710253907654e-01
-8.470039347666874843e-03 -2.248838700781216893e-01 -9.637850197439261635e-01 -9.477801715583574760e-01 -1.405186706049441625e-01 2.862992308970277455e-01
-4.982599218107448130e-02 -2.303747552790353648e-01 -9.057638163012594612e-01 -6.878344498203343982e-02 9.077525011086885476e-01 -4.138287501217425834e-01
-1.173943167676092941e-01 -3.759453261261751222e-02 -8.222673838430214488e-01 4.399714174866035665e-01 -5.106759892650164501e-01 7.386712298330192494e-01
-5.781664543158965969e-02 -1.963929749292276095e-01 -9.326574094840017759e-01 4.879317414219980220e-01 -4.190387206804969122e-01 7.657213372261145734e-01
5.146070018631419135e-02 -9.356929507727627937e-02 -8.036101656300553842e-01 -2.443042235622193692e-01 5.960308676325348776e-01 -7.648938822992823461e-01
-1.449880572793740309e-02 1.462069859893115054e-01 -6.795405400683447450e-01 7.897090788058910293e-01 -5.298548102953947181e-01 3.092142475022489623e-01
-1.677783851229476542e-02 1.501620889767101841e-01 -6.448946613940750305e-01 9.969118022192583473e-01 1.784397982436288291e-02 -7.647516577280363825e-02
2.078821606085721335e-02 1.551458086955618265e-01 -5.923417782814568433e-01 -7.408472132128349763e-01 5.934348467097783075e-01 -3.146116485213444891e-01
1.199111598562214720e-01 1.764326750796010521e-02 -8.025701035987012899e-01 -6.981478420132809504e-01 -6.826505970099903120e-01 2.158187968970783355e-01
-1.130815893809203332e-01 -1.084406039172944869e-01 -8.126984232409205644e-01 3.107141029271899280e-01 4.354583985262038826e-01 -8.448862227514100098e-01
2.481077620793737878e-02 -1.543587358370722695e-01 -8.348228396494282721e-01 -2.384095519096889326e-01 6.617218880947194348e-01 -7.108340371525415646e-01
7.495077923011426134e-03 -2.431034740516476722e-01 -9.165798952908600361e-01 -3.992738770425148798e-01 6.926418206401309119e-01 -6.006893368553857249e-01
-1.618002966441568768e-02 1.561682668455366962e-01 -6.430025847996986288e-01 9.896428924331099886e-01 -1.432541995845676430e-01 9.229288055566711377e-03
7.447854315755063218e-04 -5.262448919963357008e-02 -7.658537582960066592e-01 1.461589311732461594e-01 3.702609442203909085e-01 -9.173572913665202222e-01
-9.213944065151738472e-02 -6.565768046422687521e-02 -8.411934141939109155e-01 -2.626604545067497964e-01 -8.152436941025818784e-02 9.614381222057754028e-01
5.161763727791766898e-02 -1.503574112919046080e-01 -9.096264412461225746e-01 1.607955485910405810e-02 -7.351338911224953865e-01 6.777312225643967736e-01
9.160348070519071240e-02 -6.149223416146832460e-02 -8.006010080707925969e-01 -3.042837902711157949e-01 4.740171072874521108e-01 -8.262682112831640779e-01
1.025898755568598573e-02 -1.792975297683086500e-01 -8.454531497259001327e-01 -5.724705887776277979e-01 4.713282000397999716e-01 -6.709151606811685209e-01
2.308264621840674935e-02 1.936126177994454689e-01 -5.975770649011047375e-01 -5.362403635887340592e-01 -8.331587878917434686e-01 -1.352505327789250977e-01
-4.822737233030221365e-02 -1.374716926747928392e-01 -8.757574500004718931e-01 5.176568889699034726e-01 -8.390703335592695211e-01 1.673090572645040963e-01
-3.109392898471202010e-02 -1.399004311935399536e-01 -8.880446710276438393e-01 1.680115325978807916e-01 -7.522367183927175516e-01 6.371122698676163765e-01
3.692797153583348563e-02 -2.058800561726393530e-01 -9.601017766172151857e-01 -2.884019290708492722e-01 -5.217814717420524717e-01 8.028501871799683665e-01
6.282582556927893136e-02 -1.082720085748919425e-01 -8.183159384943425874e-01 -2.468664161348577968e-01 5.637848697881553406e-01 -7.881646992746399460e-01
-3.025381234918072572e-03 1.669951626303556314e-01 -5.838392014884304926e-01 6.534339056664359990e-01 4.055396857838379221e-01 -6.391883088572981597e-01
6.610850544681885765e-02 4.863083889646947766e-02 -7.920565037626661198e-01 -2.984673492086475921e-03 -7.217050095025657752e-01 6.921943159135639512e-01
2.252276310549822941e-02 1.542472309592764490e-01 -5.981306863654827222e-01 -7.397366244987477746e-01 5.955132721116122019e-01 -3.132948596994838408e-01
-3.719497451721848896e-02 -5.638448709123294184e-02 -8.151390001799015961e-01 -2.803359084950766689e-01 -1.995295384752345524e-01 9.389354299865884101e-01
9.116505175807659844e-02 -6.622150377733808380e-02 -8.529407408053888417e-01 7.082670517680227373e-01 4.429940704511225458e-01 5.496490124843113056e-01
-1.866304229799527550e-02 1.246257519542701697e-01 -7.005406520768264755e-01 9.469381906423240958e-01 -2.782231942957184012e-01 1.609345123301031966e-01
1.273316672428253388e-02 1.268435674416868442e-01 -6.372263873368243514e-01 -2.859276093659097739e-01 8.242263183243285773e-01 -4.887702715835097744e-01
2.739421028553360241e-02 3.300075376627707030e-02 -7.956192544551944357e-01 2.444060530663844377e-01 6.424965606361757176e-02 9.675420729457807623e-01
3.074459037661108132e-02 1.499678407715671624e-01 -6.469350354462563013e-01 -9.969205957213495006e-01 -3.474331565427951629e-02 7.030098039100568519e-02
-6.952279579190569214e-02 4.797161265939913627e-02 -7.461716259542888752e-01 4.427220391507036834e-01 -6.711554451006561672e-01 -5.945986583923502655e-01
-4.123230796018843153e-02 -2.372473973652562684e-01 -9.576960277796647825e-01 7.961619169716839250e-01 2.607806031246803213e-01 5.460033690353029989e-01
-5.267385943914127538e-02 8.567677025213030553e-03 -7.464879291927245530e-01 1.548366832695022809e-02 3.200581670047030203e-01 -9.472713580324966243e-01
-1.174177428934214257e-01 -1.111019758543735497e-01 -8.157729501191945953e-01 3.197075689728440806e-01 4.729053953339037997e-01 -8.210648923231086416e-01
2.572683085790448271e-02 6.487262402832012775e-02 -7.272169095957949914e-01 -6.465783188811035087e-01 3.276213104030145096e-01 -6.889127336046977357e-01
-2.707282869549491097e-03 1.159400055077420971e-01 -7.327465679254894226e-01 2.305166912139648971e-01 -7.400337254362427952e-01 6.318323672373239441e-01
2.803630950491650328e-02 -1.480306697913816305e-01 -8.292422928722354980e-01 -1.371408866930751425e-01 7.188496398363605211e-01 -6.815039049808676586e-01
1.411003850396451709e-01 -5.561275505288731935e-02 -8.192277203066170577e-01 -3.541733377741877464e-01 7.045333418421377836e-01 -6.149748100878931201e-01
-8.629031836645779940e-02 -1.129105329364464422e-01 -8.064372248012882105e-01 -1.580053536025353145e-01 7.076630352030771620e-01 -6.886561818789588285e-01
4.963668105695385677e-03 -1.834605195902727637e-01 -9.241921827912422671e-01 8.701226257487875149e-01 -4.377644261584561214e-01 2.263822505193209267e-01
1.075608992011629558e-02 -1.050446721328083810e-01 -8.487470354776790460e-01 7.780451308137876776e-01 2.208543776133752301e-01 5.881063834936366419e-01
-1.082725976233505846e-02 -2.770024736858825443e-01 -9.548825963048456211e-01 3.840517677020011678e-01 7.404781832468849689e-01 -5.515399349642422511e-01
-9.749595845371902825e-02 -5.302406158089172095e-02 -7.734257622542796140e-01 -2.782970342250702320e-02 6.541453634219058788e-01 -7.558567001231367710e-01
-1.862566309206748925e-03 -1.400844501980297654e-02 -7.482021503083818859e-01 2.763708016345369778e-01 4.754171501452745807e-01 -8.352231518292752011e-01
-9.754508766171926526e-02 4.551543277654368155e-03 -8.024523874008882007e-01 7.428745560516875068e-02 -3.725169555744576866e-01 9.250472916285130687e-01
1.207374735894908803e-03 -1.415263367753309964e-01 -8.809106548318675900e-01 4.204304821135573800e-01 -6.593560646688504390e-01 6.232878866897448855e-01
-5.191816421106696527e-03 1.735205306151506033e-01 -6.453314500704899759e-01 5.686419073907788002e-01 -7.374530931021761049e-01 3.644301258581814085e-01
-5.242697601862768286e-02 -1.569388336886463342e-01 -8.302486112027819276e-01 4.289191656043538359e-01 2.695792368339026135e-01 -8.621805985089872060e-01
4.553479967232128278e-02 -6.666148921759275370e-02 -7.852361540850443244e-01 -4.436151947065667955e-01 -9.898003339058032354e-03 -8.961627020554665535e-01
2.993954331830656328e-03 2.892798907098220393e-02 -7.296445107241165129e-01 4.440455372566284864e-02 3.067021407612966488e-01 -9.507691793810221226e-01
1.157062624960470826e-01 -1.217167518868342985e-01 -8.461975016974015995e-01 -7.976207399516689611e-02 8.063351803115047511e-01 -5.860559602495329923e-01
7.655769758394384387e-03 1.406998370360860451e-01 -6.108921247531803322e-01 1.447103835112771852e-01 8.652520640511053296e-01 -4.799976776603410711e-01
1.298431990761723664e-01 -1.267912773493448664e-01 -8.670788641191012891e-01 -9.511948264965927047e-01 3.084754182104517684e-01 8.445022557923143394e-03
-4.602415684393124096e-03 -1.984978254177147405e-01 -8.655310564821496744e-01 1.327560831392285146e-01 8.180843078435043880e-01 -5.595658027879688579e-01
-1.031720413290221489e-01 -1.197532052340742198e-01 -8.670357427690397190e-01 2.412932178146572348e-01 -5.688693501907957639e-01 7.862348538764669659e-01
6.787592055664860846e-02 -2.178589936116023459e-02 -7.701069607993967781e-01 -4.834989217952203461e-02 7.125285021107624628e-01 -6.999753007114046799e-01
6.834133232286680737e-02 7.197230591494292555e-03 -7.611002929703318820e-01 -2.518361175232434190e-01 2.888258772715002753e-01 -9.236656226845118001e-01
2.089457938100756570e-02 -2.432426828254780349e-01 -9.280083975710660127e-01 -3.750787962875698489e-01 6.934512091547979651e-01 -6.151758424200481912e-01
-2.504395864432089683e-03 -2.796601562901082638e-01 -9.753423207758390445e-01 -2.120794614852077320e-01 -1.995293197740862778e-01 9.566662702147674668e-01
1.597851034517276322e-02 -1.952713221379958342e-01 -9.522079402330794196e-01 1.740329048812955248e-01 -7.407950920050226928e-01 6.487951754443366248e-01
8.130026282681113159e-03 -4.448075850649368251e-02 -7.627100049270151283e-01 -1.227208996899864096e-01 3.998963896484612479e-01 -9.083074690463610601e-01
-1.058968209699926166e-01 1.331412355670408450e-02 -7.543953467467593432e-01 7.304266210927209402e-01 -2.883644516002115132e-01 -6.191307569911058684e-01
-4.306169907290188781e-02 3.138613377102716234e-02 -7.393978577831836763e-01 3.196735724389586364e-02 2.603452653360460722e-01 -9.649862335225019017e-01
2.416288905623046809e-02 1.140255543734191995e-01 -7.207914107289705719e-01 -8.360849663428049361e-01 -3.801063396600267152e-01 3.955769199609691089e-01
9.636075722794044257e-03 7.759584024090650234e-02 -7.754649667666450030e-01 -4.122384795783994305e-01 -5.945505425212052053e-01 6.903398354018330796e-01
5.732763779486804018e-02 -1.197943306500289656e-02 -8.267171813621619902e-01 2.793707621704422106e-01 -4.612384901510672153e-01 8.421466810760876998e-01
3.731419707990174875e-03 -1.267961263274005601e-01 -8.657751461791176606e-01 5.963526229661543221e-01 -6.402721879191529686e-01 4.841643052297518457e-01
-1.444119633682888282e-03 -6.744227013014071626e-02 -8.362362438923607311e-01 6.051875903744586838e-01 -1.743170534946191508e-01 7.767635066850850922e-01
1.377119647752733378e-01 -1.037618132737959803e-01 -8.587111880501462347e-01 -9.537081363684599689e-01 2.844115658431518034e-01 9.772845972000816783e-02
-1.340184348811145898e-01 -6.261677180802563414e-02 -7.881937137976007257e-01 4.587670353032311521e-01 4.694573567008533121e-01 -7.544154011938856152e-01
-9.542219032131848619e-03 -1.742087174033819241e-01 -9.024581074553224003e-01 1.688843901770819000e-01 -9.325531042295394091e-01 3.190968043499721185e-01
-1.904407184426070571e-02 5.478727554875627986e-02 -7.783833328700845433e-01 7.557096639736328170e-01 -3.851955786306894280e-01 5.296482511820719274e-01
4.891273663077366080e-02 -1.251441516163394885e-01 -8.675658770422981503e-01 3.375143548838056007e-01 -3.011332538820394311e-01 8.918535886869455309e-01
9.057349146310506374e-03 1.969784020344556019e-01 -5.994445331351676565e-01 4.354288013031425847e-02 -9.977132943089013217e-01 5.169332596415528863e-02
2.934367208991414330e-02 1.627188682384445029e-01 -6.022038787344329291e-01 -8.805074194737744220e-01 4.143086083016249144e-01 -2.303368432075194316e-01
8.434176315709793204e-02 -4.142884669804029057e-02 -7.865863604764326000e-01 -2.023903243357006998e-01 5.021536448896924965e-01 -8.407614843338664379e-01
2.856389258130882791e-02 -1.440990467139022790e-01 -9.018061841608916440e-01 5.703316193210927754e-02 -7.428233301542747080e-01 6.670537599163497422e-01
-1.268778768633049558e-01 -1.112454110495229020e-01 -8.524621620646462006e-01 -2.478680303215455294e-01 -2.868516800130148023e-02 9.683690415751912139e-01
8.724082576929768906e-02 -9.243635685109787004e-02 -8.712055315377642550e-01 1.339601418391879184e-01 -5.979633719545204285e-01 7.902496353679666630e-01
5.584537781328548917e-02 -1.020089503944301146e-01 -8.709195466565344823e-01 1.774985081297113521e-01 -5.115061952290116398e-01 8.407471033872593313e-01
4.362802240789422775e-02 -3.258587410850073002e-03 -8.178184021020373784e-01 1.815286519977031554e-01 -4.871561996040441045e-01 8.542401217990415185e-01
-4.641876880888536755e-02 -1.782137696420478534e-01 -8.574407907328769340e-01 -2.149192074600068947e-02 8.217555996186903799e-01 -5.694346598495511058e-01
-7.550490232412819525e-02 -1.814538120975434099e-01 -8.587194839689816783e-01 1.062714011298115067e-02 8.225122287144354116e-01 -5.686481315437790229e-01
-5.391701177104923220e-02 -2.064240113138653479e-02 -8.172419625123729103e-01 -1.087259777783581988e-01 -4.441154148088451437e-01 8.893481658413128210e-01
4.254850032717884256e-02 -3.847484421892035517e-02 -8.307226145187339705e-01 3.588010697581716091e-01 -1.531448011452156976e-01 9.207651504170778489e-01
3.934022724295063722e-02 -9.825880712649487370e-02 -8.653848469483517158e-01 1.959177189588461043e-01 -5.204219167219412689e-01 8.311301197727245516e-01
-8.045719047644744881e-02 -1.965396265008494681e-01 -8.844565318483378347e-01 1.569751739598252982e-01 8.355218851923990053e-01 -5.265567150125632923e-01
-3.615609454998050531e-02 -2.139420354118676815e-01 -9.590700066436314009e-01 3.857152803828753918e-01 -4.485942008302854500e-01 8.062176911111522681e-01
-5.700835377772313362e-02 -8.182706897317243433e-02 -8.439140821489478084e-01 1.572733610447451524e-01 -6.041453321929837195e-01 7.812000431996393157e-01
-4.374190993567415170e-02 -1.149855700954851845e-01 -8.075782384390470803e-01 9.812699653911291509e-02 5.587680445354563652e-01 -8.234982483018616906e-01
-1.047792405535806215e-01 1.254762236821652978e-02 -7.929184484191228455e-01 4.196428622899975869e-01 -6.745740906004574766e-01 6.073299469148739638e-01
-3.890635181201024945e-02 -2.471431147843500820e-01 -9.549053824845219474e-01 8.359745981378780000e-01 3.711395531377456036e-01 4.042300129442736867e-01
6.749769845996445028e-02 1.380667065005812717e-02 -8.039922631857109314e-01 4.681711772843328290e-01 2.230382374402151702e-01 8.550261360916190378e-01
1.167605682852233678e-01 -3.418126705308245639e-02 -7.877157939360003303e-01 -4.592569799296754018e-01 2.907903986193097201e-01 -8.393592618519774007e-01
1.118893896051612047e-01 2.899627860252502326e-02 -7.897391255567817181e-01 -7.128671099510631715e-01 -7.009207430556051444e-01 2.303465876450153452e-02
7.921040163520668212e-03 5.380341401183280636e-02 -7.190849213846759458e-01 -3.704452163836913225e-01 5.405729378086854275e-01 -7.553484232904223994e-01
3.202246721034316540e-02 1.714209488348116261e-01 -6.152154556405362573e-01 -9.856026330235725386e-01 -1.381299861708737420e-01 9.750670078222938020e-02
-4.100100138118537019e-02 -1.176749765562588174e-01 -8.090301425540525893e-01 1.081005674204201933e-01 5.507982984432402418e-01 -8.276083021305514764e-01
-1.473238485254387865e-02 1.627143439514402434e-01 -6.402012550319602369e-01 9.261873750525387861e-01 -3.534545733593854044e-01 1.313271139735524839e-01
-1.193812212734399880e-04 1.611796762709503256e-02 -7.346307860892429265e-01 2.611158447967439900e-01 2.998629607757854476e-01 -9.175514810357303652e-01
5.868682104555777990e-02 -1.730288038520827187e-01 -8.675859087768553746e-01 -1.063448819938923873e-01 8.230100749379705150e-01 -5.579831382974766996e-01
-2.327898727815439286e-02 -1.635749612227676009e-01 -8.388139421818294750e-01 1.968758583267472134e-02 7.286636608886776223e-01 -6.845886854633158602e-01
-1.363311413393354377e-01 -8.797387873329080843e-02 -8.340850823482612864e-01 9.240288016148103800e-01 -3.606386273338064996e-02 3.806181440644221814e-01
-1.022269018455184558e-01 -1.405197933840385827e-01 -8.340757138644244728e-01 1.254414779903398613e-01 7.074583670190046636e-01 -6.955336760606216640e-01
8.042157572418349998e-02 5.473174578669851714e-02 -7.741238951631604914e-01 -4.102882808150409288e-01 -8.868218763373058033e-01 2.126275764697940773e-01
