2.906148365101433179e-02 -1.399047746363256683e-01 -1.072068003832234329e+00 -9.623559941603339052e-01 -2.559301608686286866e-01 -9.149149283639979036e-02
1.278865695119416925e-02 -2.763587653320310755e-01 -1.038657843396237679e+00 6.729922988690082430e-01 6.269308804336425345e-01 -3.924780717717938350e-01
-4.009189688181954980e-02 -1.266513743461686048e-01 -9.598786128596268341e-01 8.879947464961178705e-01 -5.694828374105490726e-02 -4.563137332737681739e-01
1.403245917415016017e-02 -2.145044627856733388e-01 -9.198347489528583276e-01 -6.850803039120931803e-01 6.162261337007670647e-01 -3.884975280949913290e-01
3.588031890687847902e-03 -5.323072094488088407e-02 -9.319075023728599083e-01 -6.966491672111335687e-01 5.824908696740784819e-01 4.187891170629554627e-01
-1.777318615512225169e-02 7.892647422249253475e-02 -9.767916228614964558e-01 9.019073434746326390e-01 -4.297894605625975362e-01 4.294372335793299883e-02
1.242482004866565445e-02 -1.074086977077794158e-02 -1.089154318767002527e+00 -5.511938326183193348e-01 -3.358044099818202621e-01 7.638198459848301036e-01
-1.038699662657431404e-02 -8.441663432672573408e-02 -1.094993593364083528e+00 9.024789139817673833e-01 1.088491774524255329e-01 4.167537239020431272e-01
1.299511603120912656e-02 -1.111957096421909430e-01 -1.057064735894420515e+00 -5.763428993996431160e-01 6.399669322483122480e-01 -5.082038842239372523e-01
-5.251762856118763478e-02 1.852379267525170181e-01 -8.495468891437536474e-01 5.106749592301367512e-03 -4.769467866465182948e-01 8.789173361677206087e-01
-1.532632464460416226e-02 -6.148226056310232557e-02 -8.120112681899244178e-01 2.746422776832067036e-01 2.791990634867530172e-02 -9.611410396702774195e-01
-3.742757516033844156e-02 -1.505946581086425318e-01 -9.780075910945881246e-01 9.547825746388816093e-01 2.810267602094790873e-01 9.702677574830816110e-02
4.993848813994158919e-03 -1.572975821109597883e-01 -9.585020163171789065e-01 -4.737278866672229860e-01 -3.357146645527057105e-01 -8.141729259795309481e-01
1.882225290934056230e-02 -1.293941863386767754e-01 -1.080747952889645980e+00 -7.862680996043378556e-01 -5.621516858324212551e-01 2.564526421395376121e-01
-1.451016679599274710e-03 -1.017311566957290331e-01 -9.726051797351756845e-01 -6.497435068456464125e-01 -2.014254395529544717e-01 7.329810144968426089e-01
-1.513556923479182170e-04 -1.965809745140781606e-01 -1.100282769115517034e+00 6.707460996234916317e-01 3.996311041277905013e-02 7.406096270276324445e-01
-3.677350512305679192e-02 -1.673706013777595814e-01 -9.529200233726848879e-01 9.822665521578980430e-01 1.832658480359658226e-01 -3.957334273843163969e-02
1.474406195220234446e-03 -1.578167060389822351e-01 -8.502754704191135549e-01 -4.868468093449919709e-01 5.830784895082565811e-01 -6.503842397409173026e-01
4.960335005694234412e-02 -2.535358247002934551e-01 -1.036320772282940839e+00 -9.827623705302441781e-01 1.174739459100137551e-01 -1.427515152357628492e-01
-1.350993551582931225e-02 4.244654327492258794e-02 -1.050384315430768600e+00 7.814163553744344348e-01 -4.046137305906027937e-01 4.750539007006372438e-01
3.040650118686264239e-02 -1.967314936461006525e-01 -9.858319171211025189e-01 -9.489587016622675897e-01 -1.865037505787490169e-01 -2.543496285814526026e-01
-6.233967992481662806e-02 1.875219891295751007e-01 -8.469930996565959713e-01 2.873759736216242588e-01 -3.040510271439264001e-01 9.082775031221166362e-01
-2.528729629641490034e-02 -1.980935161526142518e-01 -1.029985824083390344e+00 9.134678618448084375e-01 4.068244427533557195e-01 -8.386784550437160687e-03
1.930617488993716449e-02 -1.296493029599825042e-01 -1.092829220000255175e+00 -5.497411109566886500e-01 8.113151973853086618e-01 -1.988777549545037993e-01
2.751805544688012972e-02 -2.965803389180697927e-02 -1.066799938175373885e+00 -9.940931785745361626e-01 2.170999102861057017e-02 1.063363935871111388e-01
7.411964256410121486e-03 -1.868936105607893750e-01 -1.104480162065035520e+00 3.638913152628407977e-01 -2.701016216733860553e-02 9.310497096374465986e-01
-2.280303740020931877e-02 -5.627978166667738785e-02 -8.175026347274624294e-01 7.914424629704925884e-01 -9.584278513031825250e-03 -6.111685278322052106e-01
-1.610070837345175393e-02 -1.930378497958958744e-02 -8.163007534367303641e-01 3.723917290648356970e-01 -1.811079395135948567e-01 -9.102331099060514408e-01
-1.820222243766377729e-02 7.835899265338525099e-02 -9.723364286767883780e-01 9.248309227657631748e-01 -3.790774464002388822e-01 3.143332510093789500e-02
1.142060466994599018e-02 -2.117997240087395039e-01 -1.101224872447317926e+00 1.124396782298480169e-01 1.749566916224957747e-01 9.781346915512603157e-01
-1.878498593871235842e-02 -1.310461959370713414e-01 -8.497367475660735359e-01 9.293937911460596890e-01 2.362231995822609287e-01 -2.835943951460848100e-01
-4.492229388864076717e-02 -5.371705004782269255e-02 -9.681950146389216583e-01 9.508136469291582626e-01 -9.605046127529333344e-02 2.944957006512611830e-01
-2.710508636795622150e-02 1.224628290427269561e-01 -8.816347695620702085e-01 3.730267375804847685e-01 -2.822402052560752939e-01 8.838503943468423163e-01
-3.624156749227772090e-02 -1.213985792245769607e-01 -9.010475841370924055e-01 9.765401690276431790e-01 2.071972178702115863e-01 5.863967242666081464e-02
1.274164650050843041e-02 -1.385656609615381896e-01 -8.985492711700800994e-01 -8.535025241334135426e-01 -2.306960148887953754e-01 -4.672395424322736690e-01
-7.984622477742440994e-02 2.177806775621186353e-01 -8.305042799057854586e-01 2.235985654020859192e-01 -4.151739582098590842e-01 8.818357363899963497e-01
4.655244824118034280e-02 -2.138385543895808816e-01 -1.086382773616751063e+00 -9.292588318526838753e-01 -1.864488808790994712e-01 3.189276379411427054e-01
4.224534835254117882e-02 -2.317529948138248863e-01 -1.043054836175295153e+00 -3.887463018001219850e-01 -5.405798310899454506e-01 7.460896454552192747e-01
1.842010110031267606e-02 4.832936853006760194e-03 -9.490154958036982613e-01 -9.880827706543211519e-01 1.220349537869391682e-01 -9.380782691385772254e-02
-2.631524791772739055e-02 -1.129037977496095274e-01 -8.617033587675380080e-01 9.590664468836320733e-01 2.169788763588120784e-01 -1.819662542233389801e-01
-6.792954178570019541e-02 1.912575765418250140e-01 -7.931078825716217917e-01 -8.307332130635924905e-02 3.997963304469137613e-01 -9.128317026967853742e-01
-4.808709656914555292e-02 -4.295500082682213172e-02 -9.454343108559435382e-01 9.846065627675363308e-01 -1.043423716854897099e-01 -1.402233433710125543e-01
2.290157528477828469e-03 -1.406741890027011707e-02 -1.094398165370332299e+00 2.309373447531146983e-01 -3.361386517548616837e-01 9.130601018524491241e-01
1.267215228342965898e-02 -5.564508989159658303e-02 -1.100987754330396085e+00 -5.776059023277574367e-01 8.150956522715566699e-01 4.461501142152336785e-02
2.957886431555757298e-02 -8.217047992756814148e-03 -1.034754274031570276e+00 -9.954941057844454155e-01 6.772315382364631209e-02 -6.637062441024992043e-02
-3.197875399371474803e-02 -4.263614997880337681e-02 -8.493726962198360209e-01 8.603520387312502127e-01 -2.278058179072617317e-01 -4.559592950895782759e-01
9.830790693660317395e-03 4.720197011517951458e-02 -1.049576909178152606e+00 -3.472255045445891142e-01 -6.900119987040960190e-01 6.350731380228058498e-01
4.397795371196452398e-03 -2.579406657437360306e-01 -1.078639050033938229e+00 8.810614371854198490e-01 3.973614598604757742e-02 4.713298023750860932e-01
1.473288774253857583e-02 -2.910932039682788755e-02 -9.266644398264284321e-01 -5.103143299668611022e-01 5.757665322614812231e-01 -6.388052793755406578e-01
1.462055847436012287e-02 -7.801017645178258408e-02 -1.002620402042644798e+00 -9.896968972020391275e-01 5.868771968608196832e-02 -1.305978683849943478e-01
3.976779234435545707e-02 -2.192883917082636691e-01 -1.096692521350915772e+00 -5.630242493978592222e-01 -1.451363085525438357e-01 8.135964273088457377e-01
2.031538280642680022e-02 6.967024202792629350e-02 -9.582073189955910841e-01 -9.179028542291681747e-01 -3.922150075547685133e-01 -6.018087774999089645e-02
1.859641922816705067e-02 -5.223357844860222060e-02 -8.621708014388240748e-01 -7.654335909362023349e-01 -4.094525900318082834e-01 -4.964473732257573824e-01
1.106746065772571015e-02 7.890203008806888352e-02 -8.591309006590386321e-01 -5.910948773847281013e-01 2.100388774426485416e-01 -7.787750098020385092e-01
-7.517449540954759118e-03 1.011968805734912574e-01 -8.416097586821871257e-01 -2.464713741918866940e-01 4.328974719227878243e-01 -8.670937899136529348e-01
-2.550074567541269627e-02 -1.706246495332457147e-01 -9.173013264638404385e-01 9.521552413965731487e-01 2.851043562554980149e-01 -1.100722595623963157e-01
-6.669028558779273308e-02 2.109040837082168385e-01 -7.879208833838892145e-01 -4.428808199599955087e-01 7.492320530156312830e-02 -8.934445100950041407e-01
-2.776274348913864223e-02 -1.613416313991015705e-01 -9.138288232964582036e-01 9.687388700327019819e-01 2.392699433219881988e-01 -6.553545536925979575e-02
-9.961946527565357021e-03 2.656079622375660007e-04 -8.206906032947688390e-01 6.654781652472556430e-02 -3.499448461905196872e-01 -9.344035491908649904e-01
-3.834080837820506155e-02 -1.065426194552000216e-01 -9.317634625875724774e-01 9.866765455366648396e-01 1.395552523367392661e-01 -8.362850012443666381e-02
-2.727559595677774527e-03 6.915087430117858314e-02 -8.603527098931987860e-01 -2.777628412629932764e-01 3.091065996583452491e-01 -9.095608358219722245e-01
-3.968861625847599356e-02 -1.305153293606921283e-01 -1.009389549587941470e+00 8.878568424836051909e-01 -4.371296440129113225e-02 4.580386490224313545e-01
1.302581599894556998e-02 -1.100199582143406435e-01 -9.353612513729391287e-01 -9.977933441621721355e-01 -6.632377724821007792e-02 -3.098211935793068490e-03
-3.096437070442780229e-02 1.302452235021933080e-01 -8.246156441497148881e-01 -3.741340969697197483e-02 4.392692285066596702e-01 -8.975760589844241633e-01
4.127277099435188758e-03 -8.124807053788522804e-02 -9.612733704306052340e-01 -8.498695221877028416e-01 3.778196924400893941e-01 -3.673881806222427659e-01
1.004770602087843266e-02 -1.921509581436778580e-01 -8.919332128293419037e-01 -6.563244237462103614e-01 3.502764703556057180e-01 -6.682399607247559992e-01
2.673708682100454578e-03 -1.338454924363782217e-01 -9.675676830900413750e-01 -7.004932263551941762e-01 -4.137201093131824270e-01 -5.815022880267791683e-01
3.785614099744064216e-03 -1.897958605491509645e-02 -8.188775075723025987e-01 -5.444132844510874980e-01 -1.856631381452142349e-01 -8.180118427304402529e-01
-3.699419656908770754e-02 -1.133319387829127417e-01 -9.082023006796322573e-01 9.383534939010398368e-01 2.805137281106314107e-01 2.020019030236748225e-01
3.025157689709971620e-02 -2.223877992877008325e-01 -9.755399564950458791e-01 -9.451585977883777412e-01 2.771382626735556434e-03 -3.265999762171507004e-01
-1.805914003468878787e-02 -2.027822887846504607e-01 -9.699092114375720275e-01 9.116437230181443363e-01 3.825755071284749342e-01 1.501389477351134372e-01
1.878985828535778210e-02 7.241536967172018668e-02 -9.778621652233248085e-01 -8.699246610345824360e-01 -4.887020427378042653e-01 6.634302938337964528e-02
1.309273710741292590e-02 9.448969711466870258e-02 -8.632505280492821509e-01 -9.047174144380201177e-01 -2.251190201533259383e-01 -3.616736467836578761e-01
2.831438459453538507e-03 7.599283509150725480e-02 -8.575197499679119151e-01 -1.663164136182037622e-01 5.574639242594143784e-01 -8.133712705219384720e-01
1.556536073499405030e-02 -1.589220971647625213e-01 -1.106918406078851280e+00 -4.023728069314357336e-01 1.531553177791226440e-02 9.153477802062325308e-01
8.106700992395190000e-03 -2.284827810791787150e-01 -9.372604789289324945e-01 -2.957475638508750282e-01 8.734587574614013361e-01 -3.867856996972060535e-01
1.250910680069043657e-03 -1.102129132487597030e-01 -8.251314444411967930e-01 -8.243683479771443112e-01 4.858276506080086432e-01 2.904966794270404939e-01
-1.869332398252339660e-04 -5.781102457619557294e-02 -9.346979326956593725e-01 -8.924641317398781526e-01 4.466831815613793721e-01 -6.310236816466693877e-02
-7.747699081511776747e-03 -2.299895503837311450e-01 -9.459345095626167099e-01 6.080226875718108825e-01 7.739289036301371105e-01 -1.770380284679140825e-01
1.528552055754767158e-02 -7.474616049036163223e-02 -1.006605716803982364e+00 -9.935807698637211249e-01 2.949400705229721434e-02 -1.092124411640646581e-01
-2.089677923651685545e-02 7.223504862430461804e-02 -9.282954868936342807e-01 9.468404875614502281e-01 -3.170074567151360267e-01 5.476644503157457322e-02
1.255829797502536031e-02 -1.067641435249533088e-01 -9.280762965448902113e-01 -9.955962886454088334e-01 -8.422255574028870984e-02 -4.116541193844514002e-02
4.013171676713375713e-02 -2.297686330307705804e-01 -1.042758583496263380e+00 -4.045205022061738598e-01 -5.360292170404752365e-01 7.409695282357028345e-01
1.424885250287022224e-02 -1.378360827278066192e-01 -9.273649047458579764e-01 -9.971091401472372828e-01 -7.598173196448521072e-02 3.728840490142317768e-04
-3.025520957389039520e-02 -1.874055632540891636e-01 -1.015934081757579710e+00 8.860855037812651602e-01 4.632072365064933139e-01 -1.707442639502513432e-02
1.214705713029108104e-02 -2.410463768780533866e-02 -8.635313316542072570e-01 -6.310514015442920677e-01 4.147084334549445694e-01 6.555845054837176056e-01
2.365791766847686814e-02 -7.481680045091808340e-02 -1.075492060767567315e+00 -9.905102693931593372e-01 -1.228578184262449635e-01 -6.160651490090141014e-02
2.613202375476316505e-03 -2.602198626101289158e-01 -1.041222516680101462e+00 9.171380401719222419e-01 3.916556855807287740e-01 -7.391643404477046819e-02
4.446806496673689352e-03 -1.280776317174312784e-01 -9.630446062645475758e-01 -4.815413994791534757e-01 3.880244274506540192e-01 7.858466289863756948e-01
-9.152777513159135458e-02 1.938048373104744593e-01 -8.256416439089627746e-01 7.703044822481722731e-01 2.978447064379022291e-01 5.638435381161114313e-01
-3.632478709864171013e-02 -7.028112669144875868e-02 -1.008601387428272878e+00 9.624568636890799000e-01 -6.286450296054064968e-02 2.640546151940996178e-01
1.250659085829970533e-02 2.811444398279206239e-02 -9.680063973495032226e-01 -8.049618044130371075e-01 -5.866025132972600975e-01 -8.907291860854774090e-02
-1.847112536285159048e-02 -1.929986520648060699e-01 -9.190920315003141550e-01 9.340902984674395171e-01 2.988209771198190867e-01 -1.954004553274286682e-01
-9.538483805962314627e-03 -2.238251704444270962e-01 -9.711622587085564362e-01 9.426421697586552240e-01 3.335823362335217923e-01 1.218871386488442309e-02
1.604516397136854233e-02 -5.004662339612849647e-02 -1.038056113446025108e+00 -9.292581879586476745e-01 -3.319848247742030467e-01 -1.620657157805191761e-01
1.898166373951786640e-02 -1.278438634657864392e-01 -1.026489036984973957e+00 -9.294788199471482049e-01 -3.384506933394023642e-01 -1.466978235957666077e-01
7.741602472052178802e-03 1.136447080208951715e-01 -8.690906006477682189e-01 -9.097027449473323868e-01 -4.120308082803820771e-01 5.168683452392550115e-02
1.671379550173393222e-02 -2.704744791241963653e-01 -1.094730099806425105e+00 3.538669739908638090e-01 1.295191301704106124e-01 9.262844917402262013e-01
-1.084276157392557137e-02 -2.816161927464326531e-02 -8.136160647796513157e-01 1.045036651697430763e-01 -1.578802140745876048e-01 -9.819128382752985162e-01
-2.551596543599134528e-02 -1.854927425328445623e-01 -9.715700601074932496e-01 9.072260649537610133e-01 3.878385806735715757e-01 1.628560788230633827e-01
1.578086998925990955e-02 6.209190311525268624e-02 -1.024006994869020248e+00 -5.492902873728602309e-01 -7.342631453892590754e-01 3.989208110902621174e-01
2.699565026045249935e-02 -1.137074735909327922e-01 -1.081872237246662705e+00 -9.718180020573639055e-01 -1.853491333593385720e-02 -2.350026124639099101e-01
-1.250760968382459704e-02 -1.546498941363841084e-01 -8.502485826907636435e-01 7.106722381136790778e-01 3.489135687392763696e-01 -6.109044864167527678e-01
-2.902571204495416057e-02 -8.064968892759204200e-02 -1.040589789242155838e+00 9.721219363118092094e-01 -1.668959635826224724e-02 2.338811628044822899e-01
-1.278445041047331088e-02 -2.251129653243991446e-01 -1.025648929438534473e+00 8.990481783591085518e-01 4.362782295923049447e-01 -3.706318082643169504e-02
-2.193371257839821578e-02 -4.715688048873845767e-02 -8.166844872050949000e-01 7.667219198980534944e-01 -5.872829670499937760e-02 -6.392874820563689831e-01
-5.693694030487406882e-03 -4.588331353918037592e-02 -8.118200600748431972e-01 -2.228499283200399694e-02 -8.521877202382525940e-02 -9.961130156710276129e-01
-1.564821388958204454e-02 8.669632077534088210e-02 -9.172514818739816445e-01 5.689089328992472661e-01 -7.937657080981123103e-01 2.151246771408204250e-01
-9.881519070357822065e-03 -2.254888430049620252e-01 -9.858510185808417869e-01 9.337498777243068426e-01 2.808153626642167500e-01 -2.219321922155650106e-01
3.097698475561869516e-02 -1.484306041141493504e-01 -1.070291966602092248e+00 -9.742009828947019168e-01 -2.220127991474062923e-01 -4.053099976228576734e-02
-2.471161495419064991e-02 5.354382751064533374e-02 -8.659208092366460496e-01 9.423341393164430535e-01 8.019543810724320820e-02 -3.249231625869812290e-01
7.688412333620168321e-03 8.806615393813826964e-02 -8.960732882309471181e-01 -2.109326137291632486e-01 -4.698551970363937236e-01 8.571718184140653118e-01
-4.615569196538742841e-02 1.925363572358166631e-01 -8.436077284101112239e-01 -3.489564833477791783e-01 -6.256591212834348159e-01 6.976962352516971055e-01
-2.773671464570811457e-02 5.443161977699987469e-02 -9.184859618239543666e-01 9.353327908977108196e-01 -3.074924005998388443e-01 1.749313975387136177e-01
-3.644657236090222130e-02 -4.827320153641748157e-02 -9.001166698093827634e-01 9.863605942893555190e-01 6.882996015542506250e-03 -1.644548643214890360e-01
-2.852603673848736268e-02 -1.414457470467422595e-01 -1.037123600817623670e+00 9.256216305885487383e-01 1.441048780219284509e-01 3.499405394018838544e-01
4.084529337353757367e-02 -1.984727929290692749e-01 -1.070720118107758800e+00 -4.995951384030438147e-01 -8.159529844629656026e-01 2.909044943448334530e-01
-4.307064543652758259e-02 1.088023385569944273e-03 -9.182276845194294879e-01 9.528395110607618124e-01 1.292959105221178628e-01 -2.745531527477784173e-01
-9.425372035370662566e-03 -8.933868225860616685e-02 -1.095977423492139557e+00 9.020135366834873825e-01 3.683336630794126210e-02 4.301335638684477547e-01
-3.298135274880186103e-03 -2.446987076657047844e-01 -1.019974075008971415e+00 8.992917920085904404e-01 4.364611802038728672e-01 2.785517906997906842e-02
-2.155106987323443871e-02 1.558117228641293373e-01 -8.627612154081175655e-01 -3.708726446586389502e-01 -5.813192741740064173e-01 7.242384848361163030e-01
2.363567017138961529e-02 -2.441631949574973592e-01 -9.766017370114147278e-01 -6.092246176926109369e-01 6.050385588556913552e-01 -5.126145798698277245e-01
2.284597198237951418e-02 3.019088878764848369e-02 -9.252983680235807862e-01 -7.260098249086069933e-01 -1.405657510232189711e-01 6.731649157342144418e-01
2.062781063520038871e-02 -1.247221403270293814e-02 -8.589718397608622213e-01 -9.976076267758825500e-01 -6.481338419550684848e-02 2.404679246214180138e-02
-9.827796011164150955e-03 -2.230473909979867053e-01 -9.360720994059583688e-01 6.701542570717397007e-01 5.902918078861124629e-01 -4.499431667123853229e-01
4.719711862036258913e-03 1.125536295130722814e-01 -8.523648357492584759e-01 -9.067875956071569377e-01 -1.674822430882641489e-01 -3.868926914573534437e-01
-2.232412907974241564e-02 6.416651548866339483e-02 -9.698216642571377832e-01 9.741658770937717815e-01 -2.229358838175597990e-01 3.606155310862407121e-02
-1.564429686420731880e-02 8.555637917934451331e-02 -9.218104595779469390e-01 7.698665401981870104e-01 -6.203219077228078193e-01 1.500208021655985990e-01
-1.649020639984619466e-02 -8.433788409198665625e-02 -8.157243171733665754e-01 4.147432527650586898e-01 2.495060432742044754e-01 -8.750627226979271756e-01
1.947218624888923458e-02 -2.538665651151993108e-02 -1.003949146394671255e+00 -8.721470454317945542e-01 4.333426666403361049e-01 -2.270983584564930380e-01
2.663350194884721647e-02 -2.221289182229143067e-01 -1.101797748187134607e+00 -6.622890112927115602e-02 4.221229834852351093e-02 9.969111567854702649e-01
2.828400908981486619e-02 1.809133101555460837e-02 -1.035026412341730984e+00 -7.501783667847544690e-01 -6.241851731054026686e-01 2.182321875515549070e-01
-3.794233951717025221e-03 1.346516174850586334e-01 -8.419945236695210999e-01 -8.877811414871197293e-01 -1.687059485118974078e-01 -4.282323525336774739e-01
-4.987478000864643130e-02 1.266345294450393899e-01 -8.591276938593692680e-01 8.841519440511490524e-01 2.853238339101414334e-01 3.699535776734588777e-01
-4.655814655088389570e-02 1.996908992642143221e-01 -8.043233418300391735e-01 -7.868014685102332484e-01 -2.428100253939423359e-01 -5.674387550373463096e-01
-4.269348622364278235e-03 -2.880322374595304866e-02 -8.138849420399493217e-01 -1.086529759386979516e-01 -1.512481190118385721e-01 -9.825062530666385241e-01
2.408921317414913776e-02 -2.314878230690157763e-03 -9.113154381205889054e-01 -6.591597673716940164e-01 4.613752844301500788e-01 -5.938360447088847360e-01
-2.774128550793666589e-02 -1.605644392429019796e-01 -9.104849921417910164e-01 9.668381341123507555e-01 2.474001296341426237e-01 -6.338137173616051334e-02
2.629287540839600132e-02 -2.116218798881209229e-01 -1.042350121666986817e+00 -7.643012984084195383e-01 1.499975502761683767e-02 -6.446848319918155878e-01
-1.340248205879898333e-02 -2.214486592787661412e-01 -9.940148138315391124e-01 8.645584165114846842e-01 1.783252105281303568e-01 -4.698285471629540799e-01
3.110199812788356014e-02 -1.482949090355874799e-01 -1.073921334763691116e+00 -9.733655105788981965e-01 -2.252840122601079964e-01 -4.250525421013486016e-02
2.879205747802349169e-02 -2.184792397932468488e-01 -9.990253907548557466e-01 -2.861663982757391977e-01 5.654910601121596742e-02 9.565097966603496316e-01
-4.165134178204325452e-03 -1.410994974047872219e-01 -8.362687679403133512e-01 -1.471178908611543712e-01 5.446895196734889977e-01 -8.256328804901299501e-01
-9.045531069853006076e-03 -4.415101134769382901e-02 -8.118447302880105187e-01 2.913419619045446232e-02 -8.810411212176591511e-02 -9.956851229377545742e-01
-9.555491419841089136e-04 -2.507141442086482375e-01 -9.867078425499463679e-01 6.695137103670039114e-01 5.678196569714459851e-01 -4.788864466524787589e-01
1.687901670330052561e-02 -3.141128277173935862e-02 -8.815979869794062784e-01 -9.551202614500706733e-01 -1.942262701189392260e-01 -2.236547387453114710e-01
-6.826817882284859536e-03 8.083041175202970718e-02 -9.990696072094035207e-01 2.172101132006930002e-01 -9.141387414716178883e-01 3.423012241637894415e-01
-2.053205889995345437e-02 7.220794358383007816e-02 -9.384804552174587089e-01 9.502574209542115069e-01 -3.106045315464264767e-01 2.314430608757590130e-02
2.714936416423619631e-02 -2.483756598275620522e-02 -1.037843195319976264e+00 -9.316547346297829879e-01 3.348843963469854135e-01 -1.409677144782593705e-01
-6.826622074393615125e-02 2.332054469290625320e-01 -8.113556971954553054e-01 -5.382701675140691977e-01 -8.315489382021546971e-01 1.370824209709071151e-01
1.846868808486063981e-02 -9.066253681820594934e-02 -1.040529362573064054e+00 -9.938667289694262941e-01 2.206217347790562916e-02 -1.083613655739166376e-01
1.713050925854178036e-02 2.308680364744250188e-02 -9.644677475093244023e-01 -7.887366665457976600e-01 -6.132669911504823324e-01 -4.240363677159577488e-02
3.794270463091933051e-03 -9.932586460596960765e-02 -9.003213669622296411e-01 -6.643404650421949054e-01 3.356167148970287673e-01 6.678421723650331820e-01
1.359681872228628817e-02 -7.266767118493325239e-02 -9.072325036106457796e-01 -8.773123653007939282e-01 1.149137896889080718e-01 4.659590482324169058e-01
-1.476511228736657362e-02 8.415982998060438092e-02 -9.698379482325332201e-01 6.790479153994023465e-01 -7.328205890342814888e-01 4.321935769045213288e-02
8.146333540306039886e-03 -2.527808042955603240e-01 -9.809149201177255195e-01 1.152556285465171360e-01 8.814428289019866636e-01 -4.580116586568622750e-01
2.357421027033713284e-02 -7.573606893022914732e-02 -1.073130304138923963e+00 -9.875611097577808861e-01 -1.288929207545217726e-01 -9.005370327393001639e-02
-5.337879756643847812e-02 1.659096067740794544e-01 -8.574499115440450403e-01 3.600647878050352024e-01 -2.971472424502683563e-01 8.843397904013571287e-01
2.709860561983419222e-02 -1.181371994122253632e-01 -1.094626688942205606e+00 -9.696927594403508266e-01 -7.250003761629694732e-02 2.333231596618589310e-01
2.779332263956812640e-02 -2.885676104937012071e-02 -1.063946221316226515e+00 -9.948292022910009136e-01 6.619945529726146971e-02 7.702266151852080189e-02
1.456691415446970637e-02 -1.442599143189789990e-01 -9.398678092247242377e-01 -9.987598043698765471e-01 -4.968743643872322591e-02 -3.164148415229667798e-03
-1.252444700817466165e-02 1.477290296525498314e-01 -8.315844928056089769e-01 -8.562221941951557724e-01 -2.067372720310086120e-01 -4.734376986688003663e-01
2.078583026012306365e-02 -4.789774557535970978e-02 -1.093508030899149386e+00 -9.335676740141497509e-01 -7.451744406379731678e-02 3.505688927529210241e-01
1.453340703647884764e-02 -1.655671848055360329e-01 -8.939625766469252444e-01 -8.766416852414630201e-01 -6.898579194723955532e-02 -4.761725697753067532e-01
-3.316557882105947846e-02 -9.425631047170578147e-02 -8.847125262985470195e-01 9.809022902304730396e-01 3.886522418242272653e-02 -1.905785700698347518e-01
1.551641763490674980e-02 -7.761140461216577136e-02 -1.009480136813926121e+00 -9.935807698637211249e-01 2.949400705229721434e-02 -1.092124411640646581e-01
-2.494029233959227029e-02 -2.457619341132880053e-02 -1.046128622896830729e+00 9.386667467749112426e-01 -2.219297478225677467e-01 2.639165124246986571e-01
2.673357018479238009e-03 -1.592382626927480171e-01 -1.104290614375810664e+00 7.491722485619927152e-01 1.923107085705993702e-01 6.338434612375848376e-01
1.879131796140632096e-02 3.348931317764789611e-02 -9.350012631114423822e-01 -6.796729046313384481e-01 7.277079412440922157e-01 9.211891749409807650e-02
-4.396918050921062165e-02 1.222751655800844023e-01 -8.338535644299094329e-01 5.286824068598688919e-01 6.218058804852419907e-01 -5.777995843463622494e-01
-1.890384546909504304e-02 -1.994677798339581365e-01 -9.738987994482510846e-01 9.127675508498468426e-01 3.972381973417172252e-01 9.516938944994426941e-02
3.720733339599749390e-02 -2.352471831911323030e-01 -1.056684165356328364e+00 -2.548980651070728021e-01 3.700525949684360660e-01 -8.933577409760307120e-01
-3.079302826052218375e-02 3.420195191326878131e-02 -9.934221842204890018e-01 9.050051470554117961e-01 -4.171145178970886436e-01 8.355335279144596172e-02
-4.257769502629919073e-02 6.210630704351977754e-03 -9.134391767903744519e-01 9.413703737894721923e-01 1.727295984617041036e-01 -2.898039081288035224e-01
-9.023100576482499802e-03 1.060040177436239184e-01 -8.917356184866659374e-01 -1.238125388341438787e-01 -4.312238188250803739e-01 8.937093897377145213e-01
-3.820049256715565833e-02 -2.512441967931254225e-02 -8.741942358689178683e-01 9.844517751718174781e-01 -6.687007510392803389e-02 -1.624287395033658099e-01
2.792884338118024889e-02 -2.315821342293060137e-01 -9.719087933080702291e-01 -8.850552566932230469e-01 2.129935162524046743e-01 -4.138972754611092708e-01
-2.607015355105174112e-02 -1.435408589340204932e-01 -1.042082750841098138e+00 9.060241746317342360e-01 1.766411801280497185e-01 3.846012070519992943e-01
-3.635935860372478678e-02 -9.275415393811331510e-02 -8.966668036074422199e-01 9.351376076946833482e-01 -2.528578621319395661e-02 -3.533812158146570348e-01
-4.973091129702250646e-02 -5.631864433631137562e-02 -9.573001253344242123e-01 9.949055604941338116e-01 -7.106540024134194722e-02 7.150268936474458992e-02
1.872109419593411331e-02 -9.773598406399819361e-02 -1.041422981022412708e+00 -9.910181954640632229e-01 -9.306151484387130413e-02 -9.603379985253032713e-02
1.729894797274952878e-02 -1.089814523409199792e-01 -1.108845814325230217e+00 -5.946953028595611812e-01 8.985600768574131259e-02 7.989138843702461301e-01
-3.426137166108156329e-02 -6.613808721273599367e-02 -1.016361652308085617e+00 9.693035551593541799e-01 -7.307537777889165642e-03 2.457584542738285582e-01
-3.704868757967615112e-02 -1.569103070635748387e-01 -9.995525704296106539e-01 8.819590234802429096e-01 3.413434673401731234e-01 -3.250121816270344910e-01
4.012091244021283830e-03 3.063903211323457804e-02 -8.425887133970317855e-01 -5.846717071834924839e-01 -4.984390346540886751e-01 -6.400918086901602466e-01
-1.318150525922850806e-02 -1.456238958210676060e-01 -8.454034572668196468e-01 8.273131185188392633e-01 3.127320765681642634e-01 -4.666386741494932822e-01
-7.330091745403835568e-02 1.739738139581028797e-01 -8.065900168229271916e-01 4.896230250612054191e-01 6.207879840012484607e-01 -6.122838984079036484e-01
-3.382792258600089697e-02 4.288465124468857081e-02 -8.877890815577245132e-01 7.693637892842937198e-01 2.153965458248825737e-01 -6.014014364672087831e-01
1.695507164095613056e-02 -1.247272350689852677e-01 -1.021493070282943227e+00 -9.187491376349287142e-01 -3.452714916332143558e-01 -1.915401241527473764e-01
2.425710526280681011e-04 8.427811775309058950e-02 -9.871556104166915313e-01 -2.334242557355692416e-01 -9.336335102677352227e-01 2.717380822399443896e-01
6.318190387677776604e-03 -7.636870369151907423e-02 -9.597426887959985553e-01 -7.564261334105930601e-01 4.905860706344531419e-01 -4.326023716913107720e-01
-1.131210727758729870e-02 -2.190843769289096132e-01 -9.812747969668201842e-01 9.511404829895371282e-01 2.954296231306798304e-01 -8.973917425124013081e-02
1.569530966498067920e-02 -1.233829190209138060e-01 -8.446351309520757633e-01 -8.565673687494461674e-01 2.667854526565686113e-01 -4.417214790390888712e-01
-3.634413162343785170e-02 -1.575102275603759150e-01 -9.707217836650990916e-01 9.477089560974808480e-01 2.857669174423881353e-01 1.420739364841363261e-01
-3.170731067570252415e-02 8.932410847114449770e-03 -9.819063318368085325e-01 9.901239261596062047e-01 -6.643763702679900129e-02 1.234530324965004977e-01
-3.525165771823896704e-02 6.332961402542489071e-02 -8.869099960650037584e-01 9.882565176851981770e-01 8.506469153629918345e-02 -1.269372030043195154e-01
-3.883935449816330269e-03 1.289347939900350182e-01 -8.399159500369387521e-01 -8.754786830986022172e-01 -9.985818050690180303e-02 -4.728270500148953892e-01
-2.628360425960456562e-02 1.666732955172042785e-01 -8.178376043479750335e-01 -6.806386940089801385e-01 -9.074320185370525482e-02 -7.269777434936283145e-01
-4.918759851373853687e-02 1.771783640697419948e-01 -8.022671595091847019e-01 -3.062203741728009576e-01 2.587758469532743799e-01 -9.161136083887658765e-01
3.557932260891486127e-03 -1.657441729457046764e-01 -9.533404091886433784e-01 -8.166766532936545753e-01 -2.656271392179566093e-01 -5.123294515016294515e-01
1.061947970405936401e-02 9.554549687691932247e-02 -8.584472444234125810e-01 -8.578916241756484595e-01 -1.283621686429194941e-01 -4.975390585979703184e-01
2.684513040849456286e-02 -2.161349787977742687e-01 -9.633789566832839935e-01 -9.732657777385675946e-01 2.371000052772934477e-02 -2.284547258384390100e-01
3.959973226283854814e-03 -1.126210505463916961e-01 -8.937234507250588766e-01 -6.260111993109978012e-01 2.730542691966180713e-01 7.304459900709340259e-01
-5.481236769934963449e-03 1.016533048351491580e-01 -8.930876023751043169e-01 -2.018198903688268875e-01 -4.065252001866113130e-01 8.910701394754232396e-01
-3.821389185159932561e-02 -6.036887588646518144e-02 -9.994054122014167651e-01 9.732024065487108189e-01 -7.199023538067127886e-03 2.298374424411652184e-01
-3.326501859723305504e-02 -9.191678701506175719e-02 -8.847472342962178216e-01 9.809022902304730396e-01 3.886522418242272653e-02 -1.905785700698347518e-01
1.669354379587086046e-02 -9.360233103617973671e-02 -1.022133456408201635e+00 -9.922893846103179039e-01 1.093613217412190211e-02 -1.234592167590043837e-01
3.182902779646456810e-03 -4.711774520803690969e-02 -9.597450191740550807e-01 -6.315867010178285446e-01 -3.578693275702882759e-01 6.877701530902643468e-01
-3.903346817803871049e-02 1.429119251199892915e-01 -8.707515430649723776e-01 3.155387080315156800e-01 -3.047475639992349716e-01 8.986457844837052455e-01
-6.558038330810677004e-03 1.460151517412633382e-01 -8.445734751146386499e-01 -8.906578834737312045e-01 -4.393407923152836680e-01 -1.170820345478858354e-01
1.181131456585933145e-02 -1.406054908219204203e-01 -9.933980065349987676e-01 -5.606373247247187219e-01 -5.414666819419454713e-01 6.264979030070974009e-01
3.806774690692456276e-02 -2.449802845606329493e-01 -1.052807120415776065e+00 -3.686584163117820334e-01 -4.878500494476508687e-01 7.912605773930694308e-01
2.735750121657612791e-02 4.676423629755388500e-02 -1.002574579738615412e+00 -9.927502562257052299e-01 -1.195434105905053973e-01 1.250206975611929672e-02
1.979753630470615020e-02 6.316525332734491786e-03 -8.724666218099991211e-01 -9.995597932878654834e-01 -1.797867356255983956e-02 -2.360057073992990334e-02
4.957436887828707561e-02 -2.443581772479362646e-01 -1.035143344131241649e+00 -9.945396526530254633e-01 -7.923499185079226070e-02 -6.791682683403434118e-02
2.510919913534348860e-02 -1.173322020938444982e-01 -1.077799189173392014e+00 -6.277008260678732521e-01 5.982223029693644056e-01 -4.981182080427694059e-01
-9.362518389407557817e-02 2.244727647543650895e-01 -8.216113535614371077e-01 5.428867905167191754e-01 -3.885368637593314411e-01 7.445220199446879183e-01
1.609162179450823738e-02 -1.340099338846305055e-01 -1.007746206223555152e+00 -9.415544011777764455e-01 -1.576449252294754300e-01 -2.976968041013404731e-01
2.888272411235974502e-02 -1.377858775463063623e-01 -1.081347545519510511e+00 -9.256366678555646432e-01 -3.651087977042874466e-01 9.946016770635794646e-02
2.091955634123057392e-02 -2.307766476155225510e-01 -9.568579288214851264e-01 -7.345432186887931314e-01 5.302301803493099097e-01 -4.234409235360299117e-01
4.561493091120025906e-02 -2.619446051237315221e-01 -1.083646543016318464e+00 -9.055513138883647395e-01 2.176272227124051994e-01 3.641637129774757398e-01
1.618311659534943728e-02 -7.485858291103139606e-02 -1.015948154207663379e+00 -9.962625676344335490e-01 9.379361812645595903e-03 -8.586573182843709739e-02
-2.228881851799404280e-03 8.620244706366021747e-02 -9.057397638196126310e-01 -6.121756785086612807e-01 -7.836176789930331399e-01 -1.057557176328167425e-01
-4.027763343327284834e-02 -2.961580916689139642e-02 -9.731913735072018623e-01 9.085574457320048092e-01 -4.089252253983279295e-01 8.546068006903358161e-02
1.509375772342687327e-02 -1.524809429988878418e-01 -9.352887818384774121e-01 -9.949515447510676180e-01 -7.615304021288632486e-02 6.536159471584819525e-02
2.186104794625946986e-03 7.823792317390294848e-02 -8.558490674116303598e-01 -1.663164136182037622e-01 5.574639242594143784e-01 -8.133712705219384720e-01
3.846261085565444611e-03 2.739916398067433062e-02 -8.399143580576786672e-01 -5.846717071834924839e-01 -4.984390346540886751e-01 -6.400918086901602466e-01
2.017880008925721641e-02 -1.573543581711032147e-01 -9.865366817407070776e-01 -9.384303283464160428e-01 -2.883240282095272389e-01 -1.903096781476691368e-01
-3.766695257563626442e-02 -1.123602984931930948e-01 -9.348655024225870358e-01 9.805057890217672156e-01 1.693840497602739359e-01 -9.958635138215875260e-02
-2.931342260034081396e-02 -1.540314013932950754e-01 -1.032011539143282031e+00 8.936639847303469164e-01 4.113559343259462486e-02 4.468473400937132967e-01
-4.143097667785199806e-02 -1.146134646343799079e-01 -9.619180235617033059e-01 9.778622076081128212e-01 1.333613844559935757e-01 -1.612459117862176661e-01
-3.791521085895888099e-02 -7.489645493192770981e-03 -8.845752065250562790e-01 9.037410654432092016e-01 -2.737735763241826992e-01 -3.290898289802347554e-01
1.240419437787894201e-02 -1.085246798302617055e-01 -9.248509743612635114e-01 -9.862050243945709171e-01 -8.047033366389221010e-02 -1.446519106646216302e-01
-4.266043786953048478e-03 1.421540894450636638e-01 -8.529045150077424475e-01 -8.768442068945083712e-01 -4.784813077570100881e-01 4.690282467700648134e-02
3.078951111294882595e-02 -2.000500697923988380e-01 -1.039813134827831886e+00 -5.120355400128774326e-01 1.369084019669266905e-01 -8.479833107052185959e-01
-2.508756161763107603e-02 5.683842091720804623e-02 -9.455562616574946233e-01 9.550473542672797134e-01 -2.928067347350965521e-01 4.635479695608524936e-02
-3.440542366228897114e-02 -5.353116906307132938e-02 -8.805178481681180669e-01 9.979412924157768927e-01 3.098854313556135415e-02 -5.615057511606023205e-02
3.469519583599093432e-02 -2.503394173807012013e-01 -1.064072030906905830e+00 -5.137787177633889035e-01 5.829042577956382587e-01 -6.294871368162530123e-01
-9.096983439417792583e-02 2.305400768731759586e-01 -8.191964503653046403e-01 4.490018961063291236e-01 -6.216404073575881872e-01 6.418414922963558977e-01
-2.962456790809736909e-02 1.845209351820384716e-02 -8.764836431739040368e-01 9.585358324217193582e-01 -1.566533372169388316e-01 -2.380520739300498456e-01
-1.917298997534854291e-02 9.988379508023897610e-04 -8.247961732326778428e-01 6.999707063647100380e-01 -3.281402586969091595e-01 -6.343224581028283904e-01
3.020154275232563024e-02 -1.514343381239238728e-01 -1.092269307792192556e+00 -9.438029619800746284e-01 -7.587609162160408038e-02 3.216811894995849075e-01
-4.608432990082738517e-02 -4.057350218429280064e-02 -9.588487424726787056e-01 9.083586059083569308e-01 -2.980599631602507404e-01 2.933341122902964893e-01
1.231351468814348947e-02 -3.413162737733695107e-02 -1.037900938539847662e+00 -3.709464304892035602e-01 9.052760003962659896e-01 -2.070606404265634415e-01
1.208577949914449966e-02 2.529777449069195439e-02 -1.051787100874118197e+00 -8.930034517887641687e-01 4.052775526451129484e-01 1.956909308459136854e-01
1.297377071359295114e-02 -1.509755535148967764e-01 -1.009196646835521793e+00 -8.009159423065318473e-01 2.456416475429731294e-01 -5.460712722269995822e-01
-5.862878492217619281e-02 2.222142452015462843e-01 -8.017335437231301043e-01 -7.305247649705823854e-01 -5.266908849506806156e-01 -4.346611087669845497e-01
1.285841382202916258e-02 -1.249546504827017401e-01 -8.403485219549260421e-01 -8.462439915563848558e-01 2.568723644375120463e-01 -4.667844204158909660e-01
5.853118226390017012e-03 -1.366593600162828437e-01 -8.858168019021454009e-01 -7.616392069686244159e-01 2.277982606513385411e-01 6.066413032859120369e-01
2.710095758130246987e-02 -1.813336517038152684e-01 -1.003831160104676989e+00 -6.040341336891623669e-01 8.447970582896258129e-02 7.924682609678668221e-01
1.067162979443595817e-02 -1.773890493744031682e-01 -9.448305185203004219e-01 -5.936524481637166506e-01 -1.839192062661070687e-03 8.047194468644226495e-01
7.255467437713060061e-03 4.484229347135489097e-02 -8.572615064460836765e-01 -7.934958182257517700e-01 -4.753099046308460474e-01 -3.800590493831987882e-01
-1.778690860128887691e-02 -2.172180153723605456e-01 -9.998949460548355317e-01 9.117463753497994094e-01 1.865883435005784297e-01 -3.659280490837137356e-01
-8.207311504619997644e-02 1.821199962277071926e-01 -8.061905410861440746e-01 6.120004223456478876e-01 6.426967196274386840e-01 -4.608648496347693135e-01
9.643526119981484304e-03 -1.006604369008852751e-01 -1.011459984305262960e+00 -3.214394066747890411e-01 9.429160122863935456e-01 -8.709822966332504690e-02
-1.494541182211864272e-02 -9.273232619838041313e-02 -1.083779610554114647e+00 9.176516197657249574e-01 1.151234707679417999e-03 3.973841710486077372e-01
3.571076612505096060e-02 -1.725512910880631079e-01 -1.085518901448332629e+00 -9.443906125862032708e-01 -2.326295770607980096e-01 2.324001952141391825e-01
-1.042386967477492397e-03 -8.440170275823556667e-02 -1.108091850858214267e+00 4.779481572984085602e-01 1.337664471547497791e-01 8.681429009965186960e-01
1.836001762831686659e-02 4.148214914790554833e-03 -8.518581177171665741e-01 -9.810155712169456033e-01 -1.334923699387621510e-01 -1.406706657339157063e-01
1.212170991448787739e-02 8.082181974813392030e-04 -8.867958743190329507e-01 -8.442831796409500100e-01 4.825452719806399560e-01 2.331007787728249236e-01
2.175874185447583195e-02 -2.129278916423228973e-01 -1.101541201124269787e+00 -2.765317741688413152e-03 -2.163185858136660589e-01 9.763189143150730054e-01
4.783928600318719873e-03 -7.364669537329025795e-02 -9.754967392064811671e-01 -6.594308421360629557e-01 2.829440366635209148e-01 -6.964866377442392453e-01
-4.844346844955001868e-02 1.218882305843922847e-01 -8.429969560431967990e-01 8.024449762759734428e-01 5.552366698189553640e-01 -2.186190763355500832e-01
2.482780461687895610e-02 -8.274929919021101199e-02 -1.078554469917684111e+00 -9.915654847751028678e-01 -1.092404600156803157e-01 -6.974533173107584638e-02
2.379803875986124563e-03 -8.835683085509318802e-02 -9.678583601666260749e-01 -8.500736273163876922e-01 5.212883678309215840e-01 -7.505508447355917212e-02
-1.634196381036233381e-02 -1.966140652122493615e-01 -1.053772195602767692e+00 9.087937982216083288e-01 1.746490006429035347e-01 3.789347686454461184e-01
-2.467720625693584774e-02 1.781580205253430194e-01 -8.369976924310195132e-01 -7.914383980308514754e-01 -6.027791678807733478e-01 1.014028445918655208e-01
2.183984607116561463e-02 -3.686966629387490590e-02 -8.424152308633628961e-01 -9.937860095620889567e-01 1.258005042706639327e-02 -1.105943467357708015e-01
3.822133051116747421e-02 -1.777361714224221234e-01 -1.072683887979134276e+00 -9.902280528250024805e-01 -1.272373921203790725e-01 -5.708808496357993534e-02
-8.100660377308449567e-02 1.808746048506587323e-01 -8.338035609843661433e-01 7.623684809095803150e-01 1.950809359768213014e-01 6.170394863653591022e-01
5.152970192793928164e-03 -1.224819366181588154e-01 -9.770961567953995175e-01 -4.319637181771040502e-01 -6.653384987266562911e-01 -6.088776792515641079e-01
2.356797666472485245e-02 -2.013247116823331517e-01 -9.552750789972703771e-01 -9.234437561826203122e-01 -1.947902416416548155e-01 -3.306181950959734550e-01
1.146135192419958822e-02 -9.535735491651060880e-02 -9.982995641821774679e-01 -9.208239390681323133e-01 2.388580864052072261e-01 -3.082695051377787321e-01
-8.517217613395782622e-03 -2.317423932442824464e-01 -9.874680948193595986e-01 9.158738300438157287e-01 2.241229528381953606e-01 -3.330826165562530417e-01
-3.486864810667955616e-02 -1.244354900251621321e-01 -9.240836785695440980e-01 9.864652512172263910e-01 1.556271677882965498e-01 -5.163809434059291742e-02
-2.943655592931602311e-02 3.495598081924539136e-02 -1.003495942095630422e+00 9.148779442504771930e-01 -3.892039000885186284e-01 1.073250729322236113e-01
-2.806267910352065395e-02 -3.594872310422229239e-02 -8.412275426936177691e-01 9.621807521682590458e-01 -9.481349136303104941e-02 -2.553793296499852206e-01
-4.529491232783357940e-02 -2.383602751576161666e-02 -9.390449007408385729e-01 9.956763314804414344e-01 -8.596144309059555733e-02 -3.520331279059387558e-02
4.184490601622304837e-03 -1.819002345665738651e-01 -8.841548455656407235e-01 -5.939160039998280238e-01 1.653657806876148995e-01 -7.873486767439517031e-01
1.945572116543265503e-03 -9.788135635391197187e-02 -9.033347243458438314e-01 -8.755990355649503343e-01 1.735418959743590950e-01 4.507876875640610681e-01
1.277281663856860879e-02 -1.168110961971008388e-01 -9.232464756437174236e-01 -9.898019896364242953e-01 -6.012541669313244824e-02 -1.291392875125659256e-01
7.309867474327834229e-03 -7.842751301392714147e-02 -9.660755193276084896e-01 -9.620243731316301394e-01 2.175212570990928962e-01 1.649048459285671897e-01
8.875539350647585618e-03 -4.624922282669581552e-02 -9.908605455984124122e-01 -8.524315052295637907e-01 -5.130228347329374161e-01 -1.008369968545357320e-01
-3.119715277219085869e-02 8.985394464732652381e-03 -9.861359918822683035e-01 9.921372314598240205e-01 -6.205212367236857818e-02 1.086887662041684799e-01
-4.981434533599778808e-02 -7.967059454238967220e-02 -9.664961151753791446e-01 9.968971227994348761e-01 4.976103771386360813e-02 -6.099152137672910617e-02
1.703850805108529307e-02 -4.515062543009912277e-02 -8.482572266172164754e-01 -5.417668144302192346e-01 4.164881778269622914e-01 7.300865130328797470e-01
-2.917154066896364070e-02 -1.791782183330555556e-01 -1.003013722598733004e+00 8.643012117028633368e-01 3.782634938064627916e-01 -3.315119073310795472e-01
9.859725115047152100e-03 -1.014104345849531491e-01 -1.019560695388186389e+00 -4.529986015893567863e-01 8.866825758367149479e-01 -9.266216415374523008e-02
4.184752545304791516e-02 -2.447931215749483413e-01 -1.010802130983433189e+00 -5.297310098414088619e-01 -7.095168970429516220e-02 -8.451928270758728434e-01
2.523186014694225529e-02 -2.771279520408467811e-01 -1.094042625075326347e+00 -2.275804271668756540e-01 1.689646310749370883e-01 9.589880617694116482e-01
3.162683033090116919e-02 -2.161147229725214891e-01 -1.036222968893642626e+00 -2.703263554384551237e-01 -5.708848603346440287e-01 7.752510159916309318e-01
-1.023194055835179722e-02 4.396704079396267922e-02 -8.461751860138627679e-01 1.923642748479800491e-01 -4.867264265933996525e-01 -8.521111262140818043e-01
-5.532733268585025496e-03 8.793160717897452461e-02 -9.735899709845834415e-01 1.375120620652623415e-01 -9.797017853265272969e-01 1.458589888027982395e-01
-4.203166323468071619e-02 -2.804784894994929653e-02 -9.262613265894567016e-01 8.921223438898532310e-01 1.534440548735469811e-01 -4.249384020730983536e-01
1.878534688432684924e-02 2.580608474951708378e-02 -9.854997161880200141e-01 -6.339870779424665592e-01 -7.618854416327258683e-01 -1.326309120457190849e-01
-3.176630555572358683e-02 -4.584573692619781787e-02 -1.035237011555851350e+00 9.433878896305374351e-01 2.782554087409209176e-01 1.805359166616546107e-01
-4.974204320374500665e-02 1.222365769973374344e-01 -8.534942947467037966e-01 8.898623676487521506e-01 4.535385975829010485e-01 4.947430792939361971e-02
1.745315903760316905e-03 -2.353099044754363434e-01 -1.076866548799748191e+00 8.949982613558388200e-01 1.213894980916146726e-01 4.292350194509896855e-01
-2.041755841495895146e-02 -5.774437234583840173e-02 -1.081672803893375168e+00 9.426890124581811525e-01 1.219849857717654334e-01 3.105754160214250215e-01
-3.815830056985380480e-03 -2.541318164636364174e-01 -1.059858271515179862e+00 8.957250679394959114e-01 4.131694466175820368e-01 -1.642181812300528010e-01
-2.155237747286997338e-02 -1.337193618500352177e-01 -8.596889206138286221e-01 9.277072633971139570e-01 1.877215034031158858e-01 -3.226761078857741660e-01
-2.239500362628580460e-02 -2.051014886167906726e-01 -1.010549806404252182e+00 9.013710658439527679e-01 4.022867766795200084e-01 1.602983186690947748e-01
1.574885884051093615e-02 -3.658005399160663834e-02 -1.096081584721013691e+00 -6.079671422828204497e-01 -3.111331528383508016e-01 7.304602077521596959e-01
-8.220920322064954183e-03 -2.396315095934579420e-01 -1.046477790481765036e+00 8.548586654018126563e-01 4.780093333564716107e-01 -2.018012373885085808e-01
-8.529221017724748777e-03 -9.947033467087193492e-02 -8.178349552468083816e-01 1.166490667723217994e-01 1.950041380881122610e-01 -9.738410452171643028e-01
2.128328636834449575e-02 -1.909169880267415353e-01 -9.298876379176224116e-01 -9.903778862271458427e-01 -1.303062300681056551e-01 4.660395774704632205e-02
-1.414352907495181402e-02 -2.253850035977620625e-01 -1.038212161802942957e+00 8.778007907228978501e-01 4.454235843503100978e-01 -1.762486944938247146e-01
-1.344463683146230118e-02 8.055612354734151270e-02 -9.926168870969310776e-01 5.121744119474234136e-01 -8.108421359020716590e-01 2.832179415080857132e-01
-3.499196295798211870e-02 -1.253562190095858508e-01 -8.923481947377196466e-01 9.508479378092149492e-01 5.872016285834735783e-02 -3.040397040484227320e-01
2.384190756457513216e-02 -2.324048107185222312e-01 -9.639002415250348399e-01 -8.156856517604632595e-01 4.053896136087241087e-01 -4.126938074290399383e-01
3.107265014300763378e-03 6.705678899891101552e-02 -1.026309224289343458e+00 -2.346714231556993324e-01 -8.405621557362387142e-01 4.882464393092144084e-01
3.059830571977436783e-02 -1.993335897449391159e-01 -1.017824534670987102e+00 -7.031170135890628670e-01 -6.972450048318862281e-01 -1.395559688389592656e-01
