-2.447657433221220660e-02 -2.590028722102321046e-01 -8.382436038179744697e-01 1.794594434216223167e-01 9.474047927175797135e-01 -2.649876731143569475e-01
4.395936637709781797e-02 2.821833456223175537e-02 -8.097892470956167266e-01 -8.578779425947485882e-01 -5.011935970500830395e-01 -1.133596660430876563e-01
1.772866598853893236e-02 -1.877738503074684318e-01 -9.306608139347192221e-01 -9.690657132492953574e-01 -6.414527909477810153e-02 2.383212675664675151e-01
9.125748257752991366e-02 2.334373150673269282e-01 -6.614521567531023161e-01 -5.188956949016625408e-01 -8.265017336116430302e-01 2.182708000385517044e-01
6.870646015019105969e-03 -4.529275689623880191e-02 -8.334365718870273554e-01 5.547347910697471018e-01 -7.935628861057468786e-01 -2.500545088022246287e-01
4.494798589187462556e-02 -6.940252726774334691e-02 -9.225691700729882205e-01 -9.144071190787756986e-01 4.038801299723204785e-01 2.721141656723113575e-02
-2.548232394649468241e-02 -1.627034090879458661e-01 -8.513365277628289762e-01 6.278114139954198425e-01 -5.206978847704076818e-01 5.785555645335153097e-01
-5.219804333916856602e-03 1.203940774265770397e-01 -7.282900558176540473e-01 8.666815060479988730e-01 -4.709421335107255580e-01 1.645499132747822169e-01
-2.691293927810087250e-02 -5.137106298476914329e-02 -6.672727996291796249e-01 4.455674361083057367e-01 -6.598832195204043516e-02 -8.928130830391234340e-01
5.106270789257769810e-03 -9.946741131143201076e-02 -8.295014314862892979e-01 9.160406947911712283e-01 3.687806270566270639e-01 -1.577031851112371263e-01
-2.461075757070787379e-02 3.101523901574996037e-02 -7.291040127457263376e-01 9.556098157798341708e-01 -2.677749849050770625e-01 1.229082480727686083e-01
-2.972056120026869003e-02 1.573178930350327062e-02 -7.206247008850257263e-01 9.687925547363713807e-01 -2.388098090926938644e-01 6.641431297910264930e-02
9.116341244901068896e-02 2.101821123439675532e-01 -6.766052188672684320e-01 -6.691844215717615008e-01 -6.511492938301535749e-02 7.402379724771702696e-01
-5.459612055030221671e-03 -1.081309027935655892e-01 -9.144163867530411549e-01 9.909808506957855645e-01 -1.289816729508784510e-01 -3.634118320927333390e-02
-2.800051491347525182e-03 -2.209815123987263208e-01 -8.182426064653589570e-01 -8.844370830970709196e-01 4.283954270910537709e-01 -1.850632434877833021e-01
-2.567317359466453688e-02 -1.569501774378175007e-01 -7.010590684543420714e-01 3.368109807838234881e-01 6.477998086220050356e-01 -6.833108891073904623e-01
4.779651738724641219e-02 3.016655394876696650e-02 -8.505423912293297306e-01 -9.382569667236891897e-01 -3.360097281605942121e-01 -8.228807310847692513e-02
-2.006483065386819448e-02 -1.933115296427092844e-01 -8.721233290140015804e-01 2.006424104131081243e-01 -5.710791598921187706e-01 7.959969951454148873e-01
9.477092022935484916e-02 2.308328647176141613e-01 -6.558288942478126549e-01 -7.170198858101665129e-01 -6.851489963799471949e-01 -1.282705582443882664e-01
2.608226499378825131e-03 -4.700320102603759015e-02 -9.276914965404773339e-01 6.656760736335728401e-01 6.807110943025823646e-01 -3.057904038474248409e-01
-1.985441068988298349e-02 -1.539730401902232315e-01 -8.144812547124915536e-01 7.656490939712146115e-01 -3.963671210674101220e-01 -5.066306053110009033e-01
2.301870260036020452e-02 -6.773402496658426086e-02 -7.440999532350636159e-01 -9.439189673303551853e-01 9.299583771316569103e-02 -3.168102859473196919e-01
-3.191849711782059583e-03 7.826309587886561003e-02 -7.866058734300976907e-01 7.956712878195550953e-01 -6.010586682391532154e-01 7.507116006927323781e-02
5.170403240759562959e-03 5.358904577444247724e-02 -8.825805006678532072e-01 6.714022251904265826e-01 -5.510414709957124346e-01 4.955525696151975024e-01
1.206139755286653528e-02 1.165738905931086727e-01 -6.928284880933276435e-01 3.219007293552362259e-01 3.401908340074559223e-01 -8.835440661890489045e-01
-3.561685585883560962e-02 -6.798183613691401173e-02 -6.963340564802906751e-01 7.857785850942827777e-01 1.908569622756047801e-01 5.883244301898026274e-01
1.506325164349967168e-02 -1.898617011771679963e-01 -8.257688375205356479e-01 -8.525767806988009401e-01 4.877766464848912742e-01 -1.875813854230268252e-01
1.468546672581441843e-02 -1.942774761632306557e-01 -8.337666403222903089e-01 -8.185620963515352067e-01 4.907319490196517808e-01 -2.985602931200899146e-01
-2.065486954389513657e-02 -7.132542310766261384e-02 -7.648274399103691668e-01 4.272117695418832239e-01 3.689935225931558205e-01 8.254295150097233913e-01
3.362021118994087954e-02 -1.475877305061392419e-01 -8.118584649799666098e-01 -9.248333868086202614e-01 3.624981417390659710e-01 -1.152315229432533672e-01
2.728273041987907058e-02 1.128135404037977213e-01 -6.927755462372831019e-01 -1.973187823593473833e-01 6.192315921073684448e-01 -7.600115350864078412e-01
-3.418952333921761286e-04 -1.020469160159043626e-01 -8.221412092009350303e-01 4.292606618198682722e-01 -3.081283659068146386e-01 8.489948140816673261e-01
5.483514129845310815e-03 -1.085112577607501572e-01 -7.161838616477408381e-01 -8.829808739421012298e-01 2.332436025355887066e-01 -4.073600350165241246e-01
7.732299070072164160e-02 2.211998189755861877e-01 -6.357188901516958035e-01 8.751158576205073092e-02 -3.471770016556283700e-01 -9.337075837106706411e-01
-1.791253200211594121e-02 -2.452420244055235343e-01 -9.472066945299609797e-01 -2.277582769387296036e-01 1.747376091053893243e-01 9.579107136106336240e-01
1.305685596960514186e-02 -1.348406962233014428e-01 -7.455950910751295568e-01 -9.537138853794282500e-01 2.857750506389918344e-01 -9.360793378104545481e-02
8.583319512759129966e-02 2.089252356570196478e-01 -6.813132700963622224e-01 -6.023090807390055756e-01 -1.571121199839658478e-01 7.826490612103729205e-01
-3.412428478257641725e-03 3.431252996619544790e-03 -9.026195576262393550e-01 9.031269184571805164e-01 -2.325499473537226969e-01 3.609463826440401091e-01
2.412244861841524382e-02 1.501229529342051894e-01 -6.760273596481048974e-01 5.099563495918347789e-01 1.996522774509282006e-01 -8.367099196374022663e-01
4.672028264441108192e-02 -6.180004170613068171e-02 -8.163407024720708005e-01 -9.991816662015221562e-01 4.041947250840031286e-02 1.504715552109201241e-03
-2.040013233977308951e-02 7.592871999781000691e-02 -7.606986433316306195e-01 6.370355394617649436e-01 -4.710167089637847249e-01 6.101876607565770438e-01
1.821243436354279266e-02 -4.874671939093860179e-02 -7.080344421793537402e-01 -9.628558012734761418e-01 1.772373039025764985e-01 -2.037047963582553356e-01
-5.595033569591035053e-03 -6.977368567509360797e-02 -7.833891803438992607e-01 2.863386758569486101e-01 -7.822568435653195484e-01 -5.532489434275611462e-01
6.377705210216443044e-02 1.777430709080486393e-01 -6.532070760361833317e-01 -5.153806717305117746e-02 5.494163952281467811e-01 -8.339577041352725928e-01
-3.057156681628450320e-02 -1.555734881329845221e-01 -7.360849268660825118e-01 9.933024459595679589e-01 4.750418523795818526e-02 1.053261754532912736e-01
-8.698511312287392910e-03 5.298264648698182422e-02 -7.095332986772074912e-01 6.137913053578981648e-01 -5.992493304607751092e-01 -5.139654398978205085e-01
-2.599221686907704151e-02 -2.069417725450281853e-01 -9.366395090953048008e-01 3.016464029040117345e-01 -7.621472762606097406e-01 5.728359074845120746e-01
-3.935564361667115429e-03 -2.308458694924686860e-01 -8.285212604752992815e-01 -8.536214334759462119e-01 3.619262101792127817e-01 -3.746196293519374887e-01
4.913366090419431231e-02 -9.017216403849434569e-02 -8.181173051788050987e-01 -9.948523265425124329e-01 -3.779697711820382416e-03 1.012648125370195773e-01
2.041268971062125404e-02 1.057432194527269109e-01 -6.968551308286266011e-01 -1.199899491645453446e-02 5.412022520752098886e-01 -8.408068425445383021e-01
5.205256366874232155e-02 1.958996895871401023e-01 -6.975867375317692520e-01 1.494984824253984546e-01 -6.177177806066412868e-01 7.720589014284519047e-01
-3.857619265100204614e-02 -5.788678990015352910e-02 -6.967902207966329975e-01 -2.277248726431161108e-01 6.817371965616605411e-01 6.952523119011720931e-01
-4.184643150777324350e-02 -2.075141716627508792e-01 -8.345604220124913653e-01 9.714077981237415615e-01 -2.278894356500769103e-01 -6.658299229888839377e-02
-1.821750693899554588e-03 -1.095099742841703916e-01 -8.995463084679925503e-01 3.500929801129730734e-01 8.899384918010566636e-01 -2.923087170894467790e-01
-3.365684852828255275e-02 -1.547981876321755657e-01 -7.747133148783929002e-01 9.359381666935577826e-01 -2.378376321964932594e-01 2.597171708560450654e-01
-3.638518463750833182e-02 -1.220808884220468404e-01 -7.374472786944034075e-01 1.617229167702983750e-01 2.071790546291117086e-01 9.648432709587059231e-01
7.661534913112470757e-02 1.690083251134192888e-01 -6.832623678972296055e-01 -8.557004916173677200e-01 4.553542731517805642e-01 2.458234215208319473e-01
1.224339428588218891e-02 -8.883085733506849990e-02 -9.573837985531675754e-01 4.727211798377516372e-01 -2.196275897022146317e-01 8.534040121621176977e-01
-4.617475876179742700e-02 -2.785474414690308209e-01 -9.030447703315793717e-01 8.713800061165336563e-01 4.880459620068163251e-01 -5.008017481190620013e-02
3.818650968377589050e-02 1.886898659296387670e-01 -6.989299576577294726e-01 4.220625893286343855e-01 -7.001313070980694775e-01 5.759160733217620898e-01
-3.709407993161901312e-02 -1.078904539001222657e-01 -6.896426001454301069e-01 3.612541873691060279e-01 -1.677474678607818737e-01 -9.172547078835751044e-01
4.686098369752368653e-02 -4.827295806394314021e-02 -9.092129266102357832e-01 -9.573375437130464682e-01 -2.267527704023447332e-01 1.791312605670285218e-01
-2.235754367088789787e-02 -1.187119588773437595e-01 -7.455827979736902034e-01 8.793785543961190054e-01 -2.280464730654458982e-01 4.179571320011217783e-01
-3.304968007573893911e-03 -9.205979019289287080e-02 -8.349781919163484778e-01 5.844221063710516306e-01 4.361275076996160016e-01 -6.842832736612408651e-01
-2.343373442323277989e-02 -1.352276569749024937e-01 -8.010565103820751487e-01 9.416156225891547660e-01 -8.844255169879149114e-02 3.248660252243148472e-01
-3.219594039724234941e-02 -2.221702752669280634e-01 -8.516364978308756939e-01 7.998064755999634290e-01 -1.135416933858337113e-01 5.894216533615328490e-01
-2.528766400921550472e-02 -2.412719464810863523e-01 -8.078793805803174966e-01 1.902682875694743370e-01 8.464800533755797440e-01 -4.972620013460264943e-01
-1.081624324182497814e-02 -1.243226344302336833e-01 -8.149183500514585177e-01 2.881971010115284559e-01 4.932583561912264325e-01 8.207549116612586904e-01
-1.159825707781580919e-03 -6.856883902426691435e-02 -8.978857825488724131e-01 9.795262016218098111e-01 -1.845105161909070535e-01 8.052508771379766894e-02
1.371749347133365340e-02 6.596843678599373373e-02 -8.725537937030086733e-01 3.061038203448103734e-01 -8.223958943294022994e-01 4.795471240247975997e-01
3.813216589674563867e-02 5.475829035904411501e-02 -8.176664887736107001e-01 -9.826141880329187783e-01 -1.160937921596176536e-01 -1.448847434977444948e-01
3.440253884259834513e-03 4.693459716168007362e-02 -7.027395738975634742e-01 -4.311742058455111937e-01 -3.488765080529829254e-01 -8.320901311410019430e-01
-1.728860750995461814e-03 -2.263140449199888826e-01 -8.291394084388765684e-01 -8.260391000244253767e-01 3.494219075941493169e-01 -4.422258876683987094e-01
-1.742221991717747553e-02 -2.594925928323398856e-01 -8.375798933422555770e-01 -2.337329952514287656e-01 7.848809678041418492e-01 -5.738734645456515793e-01
6.432483114146250736e-03 -4.424916641333843242e-02 -8.430844237020134191e-01 3.543394850178859801e-01 -9.340689201606821035e-01 -4.425812633987791234e-02
-1.372665369176536559e-02 -1.403881207150256272e-01 -9.134722941067862090e-01 9.181913714606535493e-01 -3.847915157443176359e-01 9.412807650427605644e-02
-3.230764438033068009e-02 -1.803895703833670039e-01 -8.151149311360142979e-01 9.186247408622867372e-01 -3.852409865234146524e-01 -8.785196513546465746e-02
-2.404446241675329068e-02 -6.336490823255426681e-03 -7.765762195537783130e-01 8.100237401205746535e-01 4.012316535421323049e-01 -4.276385163159677760e-01
2.395810427752833975e-03 -2.336261083848719389e-01 -9.305224040187147772e-01 -9.322121080321735809e-01 2.684345042447562335e-01 2.427416374853790526e-01
6.707795102218908588e-03 -1.129719541280027606e-01 -8.925814043189166380e-01 9.722375804391629739e-01 1.916993008959148315e-01 -1.341844447684595876e-01
5.927276208878479169e-02 1.878230568923353327e-01 -6.484196750541528775e-01 2.761263888117722054e-01 3.683823895619970368e-01 -8.877210330178976205e-01
-1.380223465542320012e-02 1.022070759590446715e-01 -7.357560744324407320e-01 8.600359339821128657e-01 -4.980542374012078555e-01 1.108159233423436085e-01
2.790883838717771528e-02 -1.056179879569972835e-01 -7.726404369875614631e-01 -9.350433121031858086e-01 2.613665516337667638e-01 -2.395444221395644502e-01
-3.932624838188957667e-02 -2.360522278748087011e-01 -8.507680669712488486e-01 8.003361730419932263e-01 -1.861595061513616201e-01 5.699181067398876310e-01
-1.918173629087762885e-02 -1.956806747168074456e-01 -9.221387591192148347e-01 8.207575538377092084e-01 -5.712262255728811633e-01 -7.591905959632594229e-03
4.344394026678060489e-03 2.854185651728049361e-02 -8.699658284484842463e-01 9.800738047969044242e-01 -8.297312750864539732e-02 1.804738132315971411e-01
-6.404474616951078177e-03 -9.921985918954807915e-02 -8.522749428840691310e-01 9.939823783281219738e-01 9.374522534268141249e-02 -5.666448886754708175e-02
6.039965287015842954e-02 1.817738573535906677e-01 -6.509775288258822235e-01 1.302622449645906844e-01 4.378065163316529063e-01 -8.895825997591944034e-01
9.751969739473566323e-02 2.183939130282755714e-01 -6.450321385769940408e-01 -8.243797358291677924e-01 -2.149734497075943551e-01 -5.236262666015217837e-01
3.970009707707211621e-02 -8.739267736861461300e-02 -7.937838460502025795e-01 -8.677534177656127667e-01 2.105367588534280410e-01 -4.501980443400344090e-01
1.012166459750211099e-02 -1.462728707355339663e-01 -9.559523667910290179e-01 2.566466286269489250e-01 6.288335497932452389e-01 7.339624477238920752e-01
9.079658341403473720e-02 2.245362362984640314e-01 -6.407926977950237912e-01 -5.731005426569396599e-01 -4.181948395436201893e-01 -7.047473619570400194e-01
2.750501734941617621e-02 -1.857711742134695310e-01 -8.470366760316512256e-01 -6.533174030493776874e-01 3.503896897876786487e-01 -6.711210294449959646e-01
4.605832579215174416e-02 -6.225923278047063719e-02 -9.256307428798528081e-01 -9.374267428428928461e-01 -1.422940635444941704e-01 3.177790132827533198e-01
2.436067567453413778e-03 3.641593201671930284e-03 -6.799641782372409793e-01 -7.426769411896689821e-01 -2.204267470082008351e-01 -6.323314085418654251e-01
-3.431257982133491778e-03 -3.003158428317860909e-02 -8.390069993007501781e-01 6.786850893353800762e-01 7.095120321857896206e-01 1.896819066158351996e-01
5.023092125325432505e-02 -4.670061871250504038e-02 -8.289355338927073547e-01 -9.948818552120924918e-01 4.422440434133860510e-02 -9.085315751474382084e-02
1.069080995187651284e-03 3.471861581570154925e-02 -8.355882710505971867e-01 7.432418718143861680e-01 6.685011451570065377e-01 2.641474788103417154e-02
-8.317471995281971314e-03 -1.727306186062160243e-01 -8.693694251529622274e-01 9.951081882473139517e-01 -9.877756616129161615e-02 1.638934531993738002e-03
-2.921430143554887282e-02 -1.695274033513374801e-01 -8.493966442832359132e-01 9.176138616412522486e-01 -3.959521170290734582e-01 3.473790356402744334e-02
-4.425141335704189244e-02 -9.687371296005303778e-02 -6.977994106805707197e-01 9.012218472305307815e-01 -3.695939353911290720e-02 -4.317790931756781969e-01
-4.609744954333590272e-02 -1.090752097417602290e-01 -7.219115895328795940e-01 9.935812201371386765e-01 -1.471575233323417151e-02 1.121597326319118543e-01
-2.011711817379613007e-02 -1.387366289098560836e-02 -7.978046296320669972e-01 5.159081425805210896e-01 -1.923703400685019826e-01 8.347649014429425751e-01
2.501886945894813037e-03 4.689669619262161471e-02 -8.856497602352260134e-01 7.589533202056871763e-01 -4.650714061668310140e-01 4.557394484952669300e-01
-6.101192810187078090e-03 -1.475403368012292438e-01 -7.138410585005804387e-01 -8.158742007051106304e-01 2.254458078934555298e-01 -5.324692257089269631e-01
1.473078027191294589e-02 1.259408304813610657e-01 -7.412483494527077887e-01 2.723785987276518272e-02 -4.604374194364205253e-01 8.872741863551995012e-01
4.381205344627448622e-02 3.879200693623863216e-02 -8.483461465777690780e-01 -9.377567431069828707e-01 -3.371651633212356947e-01 -8.325829328030194543e-02
2.196487135582501221e-02 5.958912285772555856e-02 -7.229358883615473186e-01 -7.663647284511990732e-01 2.842845790446109633e-01 -5.760793184131400846e-01
6.352458196850804817e-02 2.198489386863057005e-01 -6.422206488325017393e-01 6.294965443588644849e-01 -3.539796950462579805e-01 -6.916881350256101069e-01
6.778143312010477539e-02 1.843223082419615244e-01 -6.989813020971613611e-01 -5.440693922147691319e-01 -1.800560354260059559e-01 8.194927214818449324e-01
2.984771744172906929e-02 1.432678945183903096e-01 -6.759724235368033129e-01 2.770784728042162692e-01 3.762252394265514499e-01 -8.841278692174098230e-01
-1.164828280304633368e-02 -2.965607038758472647e-01 -9.207301700878730566e-01 -8.713717828164502244e-01 4.103759448648819919e-01 -2.688917997774131763e-01
6.417770880762433522e-05 -1.307894015423808898e-01 -9.258318814772081851e-01 7.320904387045589212e-01 -6.315646152025230498e-01 2.552836194930172553e-01
-8.148967625093858635e-03 -2.295369828887184882e-01 -8.127923567139265781e-01 -8.746683034864357609e-01 4.509904516981901867e-01 -1.776597066113275725e-01
2.202292861893587889e-02 -5.001346741282736152e-02 -7.353452226932529756e-01 -9.543305548251871384e-01 1.163929628954255974e-01 -2.751469976493922109e-01
-8.940974844995102505e-03 -1.782331829048913741e-01 -7.274928943434281203e-01 -5.654001338730734183e-01 3.645575911798157320e-01 -7.398786733846847152e-01
1.356453652061421350e-02 1.025188985507415745e-02 -7.067792503862802000e-01 -9.194624859928326455e-01 -7.589130606303774729e-02 -3.857839376074729820e-01
-3.251753787075917917e-02 -1.807201057220720608e-01 -8.533464514121692490e-01 8.957672372720727472e-01 -2.802459575877613296e-01 3.450554446544448206e-01
5.592542354791464609e-02 2.132371067335682713e-01 -6.475594417651011625e-01 7.708961915547838384e-01 -3.291635481048510448e-01 -5.453168074113942110e-01
5.922644575327728513e-03 1.307386269273054513e-01 -7.351452810421524875e-01 5.435653686122037254e-01 -5.981210137306003372e-01 5.888870375372156074e-01
4.201752685589808106e-02 4.484515537503740157e-02 -8.428561432321666214e-01 -9.861691144994035874e-01 -1.383604181422954382e-01 -9.125169751271293428e-02
2.051254630201255948e-03 -6.961279326699859778e-03 -9.206754058306507726e-01 8.452687062605798163e-01 -2.174461950381330888e-01 4.880962676358056584e-01
-2.432076936343883361e-02 -1.243834461568045918e-01 -7.890287147928435330e-01 9.740500680855957993e-01 -1.220882721709125318e-01 1.905804781733104192e-01
-1.133208381502539934e-02 -1.367365262055826036e-01 -7.012857574101013514e-01 -8.213714245650478585e-01 2.448821399091533346e-01 -5.151521333174288175e-01
2.144770645949062651e-02 -3.772585409656895039e-02 -7.206184326705602494e-01 -9.343279636493173612e-01 3.446737007689013588e-01 9.072649194799649319e-02
-3.957764482886895474e-02 -2.061576715749735000e-01 -7.894720502057878120e-01 4.081485442317232537e-01 4.864408933531965545e-02 9.116186255305792629e-01
-3.609127788540545528e-02 -1.556473794997533244e-01 -7.648490435658008568e-01 9.572732042541332032e-01 -2.435756411449830905e-01 1.558811068020602153e-01
1.567667445327000642e-02 1.221838423977291560e-01 -6.893513389937160341e-01 3.219007293552362259e-01 3.401908340074559223e-01 -8.835440661890489045e-01
-5.299346211426400610e-03 -1.143278485523613469e-01 -6.974760570197715559e-01 -8.524057486567553354e-01 3.891402484488435398e-01 -3.492482021343689125e-01
-4.007077314910250168e-03 -3.228951259651868105e-02 -9.123054387873406057e-01 9.835900126987898728e-01 1.022294001934385549e-01 1.486601380844389253e-01
-3.204829191122370718e-02 -1.003279899120282231e-01 -6.885494355705450431e-01 7.510629211911742376e-01 -1.669319526896383687e-01 -6.387786874833912831e-01
-5.338582428195681739e-03 -1.253457751064699088e-01 -8.210247053537683692e-01 9.887264196275997730e-01 -1.485248716260572921e-01 -1.898498456283063268e-02
2.263474072387327326e-04 -1.076955086612404883e-01 -9.516341434533452937e-01 7.911147531423262658e-01 -1.430034058699141408e-01 5.947162964558486697e-01
-1.761854921977449445e-02 -3.030719812105043265e-01 -9.222594273241068175e-01 -1.437939514889622350e-01 8.245589826575480119e-01 -5.471981210073179058e-01
-2.603798036446968237e-02 -1.166736302382131024e-01 -7.721658683416431357e-01 9.766835404174306623e-01 -1.686250366576320381e-01 1.328715879708137204e-01
-3.067393219547108821e-02 1.252180308792870921e-02 -7.182601122944375360e-01 9.687925547363713807e-01 -2.388098090926938644e-01 6.641431297910264930e-02
3.700583640927353202e-02 6.699184825846650482e-02 -8.215927938374318895e-01 -9.606531113764527063e-01 -1.991197400963629072e-01 -1.936412371027866619e-01
-4.773650509994872664e-03 -2.791153703390506502e-01 -9.142067228712343896e-01 -8.563320001446942387e-01 4.852936107223246309e-01 -1.765944985560884972e-01
-4.341935799808115809e-02 -2.452655597030437840e-01 -8.408525860797652074e-01 8.958207996630930259e-01 3.839180993358876082e-01 -2.238570702329868156e-01
-1.796737657473633509e-02 -1.732025136953176392e-01 -8.920557392488881465e-01 4.585480751677175060e-01 8.066483378134308158e-01 -3.728969319568214424e-01
2.267496325683574301e-02 2.878585264368271196e-02 -9.173355126218870614e-01 2.253596675400109384e-01 -5.954602182729519244e-01 7.711291387962095900e-01
-2.540379040380793055e-02 7.818962171543684253e-03 -7.670257108527374079e-01 7.405272744965812892e-01 4.192750034569854289e-01 -5.251931332403441122e-01
-6.035947277216375563e-03 9.549870221401712822e-02 -7.111234709534450804e-01 6.273552162921107733e-01 1.841496887877860922e-01 -7.566467634969704648e-01
-7.807741870048012789e-03 -2.676322670978636964e-01 -9.377123810356480238e-01 -8.024046670653235402e-01 2.467169698163974301e-01 5.433944120769022001e-01
2.103192031028271874e-02 -2.100005245370107354e-01 -8.861567189759208540e-01 -9.379266329564072135e-01 1.781280065771945198e-01 2.975971177009145707e-01
-6.186782157271584690e-03 -4.737258211332482163e-03 -8.980505653646765341e-01 9.613019826500143195e-01 -1.324443516263817400e-01 2.415719186400177021e-01
-1.622871625890968733e-03 -6.109200874256676822e-02 -8.791246355531692203e-01 9.674230992792159922e-01 -2.235243151507985415e-01 1.188672684861682705e-01
-6.954195896718354773e-03 -9.633157010406867560e-02 -8.710318351975647744e-01 9.980497326641853961e-01 -3.327176044186740123e-02 5.281781031098602835e-02
-4.758346958732910872e-03 -1.353687159440424004e-01 -7.109364019950442648e-01 -8.139879035924019179e-01 2.293428017216603276e-01 -5.336905209048647958e-01
-6.662125739868858532e-03 -1.217326856350817166e-01 -8.810066872068320620e-01 7.314503005130992275e-01 -6.569332598721222549e-01 1.828090532579923766e-01
2.617045564702037697e-02 1.189427710503428715e-01 -6.885702153890530530e-01 4.137908080682880380e-02 4.878858947046167960e-01 -8.719261008937957413e-01
-3.955101866778651387e-02 -5.370654327036909065e-02 -7.220056265389480643e-01 9.540501749790790686e-01 -2.888197976412643087e-01 7.982097539398949615e-02
-4.115739792778995432e-02 -3.201980085825700123e-02 -6.925491492833313334e-01 9.631739051738342772e-01 -1.957226277887122445e-01 -1.843601946290656934e-01
-1.508339676539475691e-02 4.573614565726015491e-02 -7.873821687616673337e-01 9.150134613082663293e-01 -2.261718124663923968e-01 3.340608879685448840e-01
-1.387990376188718601e-02 -2.364590097825146897e-01 -8.078904966222133499e-01 -7.136077187819359624e-01 6.319331378063398619e-01 -3.023649004713921951e-01
2.846406775824220775e-02 -9.607766687695219743e-02 -7.558541729786558694e-01 -9.260420628667971332e-01 3.420585128109198680e-01 -1.595057102895963141e-01
-2.794189501066191017e-02 -8.944756801247276401e-02 -7.530550977557580739e-01 2.840949347148228332e-01 4.035066138643083611e-01 8.697542645121899563e-01
3.150191124943300253e-02 -1.261528083661227762e-01 -9.420055075958233548e-01 -9.463054226999408902e-01 2.960739349018290389e-02 3.219152826745006468e-01
3.383522110041508810e-04 -1.587825419922581083e-01 -7.275978957341457942e-01 -6.631435311451954195e-01 2.712354354242754728e-01 -6.976188039828663534e-01
-4.176266623070522960e-02 -1.315372415526449845e-01 -7.026501475683181175e-01 9.341975770554371561e-01 1.727460717535839740e-01 -3.121436876143045547e-01
4.585822806649110517e-02 -1.523516549652105534e-02 -8.782813158190695413e-01 -9.989682699163573432e-01 3.845520806401213354e-02 2.415766282308229318e-02
1.509875417430814673e-02 -2.264147216887804903e-01 -8.787967679106107877e-01 -7.730596561603899630e-01 5.159610408482220301e-01 -3.690026725431661547e-01
1.169035509788890134e-02 4.574274604943909250e-02 -7.096257020936184157e-01 -8.471672673841472712e-01 -3.259976811241168532e-02 -5.303252550952989308e-01
-2.454219630439161137e-02 -2.811380323708509432e-02 -6.696696322788213696e-01 4.475194022524200954e-01 -2.006584531397336002e-01 -8.714714968323437061e-01
3.553087881375673746e-02 1.924659804282373432e-01 -6.900241460195505327e-01 6.137918425688551061e-01 -7.068980633805148628e-01 3.515034878700455945e-01
-4.444237451829504554e-03 -8.646799374457414533e-02 -8.864008979961194301e-01 9.896227403720693205e-01 -1.153978798063708122e-01 8.561635985412105465e-02
-1.508887440369765902e-02 4.872566472645127079e-03 -6.764681420741067708e-01 3.367199893676203204e-01 -3.539809014254237662e-01 -8.725349105831319285e-01
2.112862429762214170e-03 1.275414868974779903e-01 -6.988039921054109982e-01 8.231508379890430938e-01 -3.183567050887418232e-02 -5.669296146799763791e-01
-1.709460617487576148e-02 -1.687588649481640002e-01 -7.996383815490363256e-01 9.511264254220721526e-01 -3.075379696492454573e-01 2.790913986226334007e-02
1.992536820632646866e-02 -5.222473112988378768e-02 -7.288862141164094144e-01 -9.586714760740434604e-01 1.288114980304023161e-01 -2.536860243237268886e-01
-2.192753635248586089e-02 -1.191189785812744178e-01 -7.967547541657319377e-01 9.619519415694612885e-01 -1.433694455729291051e-01 2.325804466993192932e-01
-5.263848869726587415e-02 -2.596195405985806670e-01 -8.958191326909420438e-01 9.922339241445737867e-01 4.981968278994063082e-02 1.139729747938950932e-01
6.216720987012043509e-02 1.630011692734293915e-01 -7.054929494269233103e-01 -8.000115126453983816e-01 7.488600627194075265e-02 5.952929242813663757e-01
-2.749170232274921258e-02 -1.958999571981983878e-01 -8.708430095555107497e-01 4.907122414270371213e-01 -6.624787835777070644e-01 5.659711630666839355e-01
4.689282243842020359e-02 1.496437583260146718e-02 -8.463396381769315857e-01 -9.518190110308096807e-01 2.855700566294008813e-01 -1.117600688842506490e-01
1.663408313788563089e-02 -5.390371366711890072e-02 -7.145343699081064814e-01 -9.727660720043527220e-01 1.791857259951180892e-01 -1.470328016356386436e-01
6.141295523191903170e-04 -2.518640471927358418e-02 -9.253034437204759044e-01 8.854415264019310783e-01 -1.587614796340411638e-01 4.367929668703796064e-01
-2.743238029793700419e-02 -2.660617008399447300e-02 -7.320437078598043268e-01 8.435480954416310073e-01 -4.889065279445404810e-01 -2.222543984041966403e-01
-1.155137644298865479e-02 -1.310829611316193799e-01 -8.867220382824542169e-01 8.849972140421829003e-01 -4.573632128813827635e-01 8.717122598881851814e-02
3.535535436503894034e-03 -3.760203176166015526e-03 -6.799846305247427836e-01 -8.881662409309640793e-01 -5.868354028986091236e-02 -4.557597728733953080e-01
4.668854498365904160e-02 -3.282787039243086069e-02 -8.814846788396631938e-01 -9.896122776173971181e-01 -1.417185312620330984e-01 2.415363090386318801e-02
2.641685578756968952e-02 -6.024570301186769027e-03 -7.300403166280103884e-01 -7.630771493799073379e-01 -2.699351235738327026e-01 -5.872378505813588001e-01
6.575092940361121352e-02 2.183942637704215650e-01 -6.398610271816372874e-01 5.291299834510093669e-01 -1.472987614128807021e-01 -8.356581451163900276e-01
-1.850453788489862805e-02 -2.299609307105096243e-02 -7.834264264915957732e-01 7.096780021796509352e-01 4.787133178813842704e-01 -5.169049163098530242e-01
2.126300813347000579e-02 -5.201560440341396196e-02 -7.335564309337005984e-01 -9.543305548251871384e-01 1.163929628954255974e-01 -2.751469976493922109e-01
1.307510009428101104e-02 -4.250318803268939710e-02 -9.477776719833699293e-01 5.404406415979230438e-01 -2.871286975730907853e-01 7.908735827799572293e-01
5.399464323982172340e-03 -6.724682666310176360e-02 -6.848291667210526512e-01 -7.285003794271756039e-01 -4.408805016492125389e-02 -6.836252196979837326e-01
7.431299851854142324e-02 2.294057544951386696e-01 -6.414885629633042541e-01 3.457682759667727868e-01 -7.474322094688834461e-01 -5.672648337270953522e-01
8.143829254574937518e-03 4.638760821665272732e-02 -8.937888935383064837e-01 6.356757468516128773e-01 -5.236491621390660933e-01 5.671930005348250203e-01
4.715086313224901848e-02 2.061922256307242018e-01 -6.834463142770832444e-01 6.098872131780469497e-01 -6.865620355412376252e-01 3.958158139278774579e-01
-2.080300991694280371e-02 3.537706683854676543e-02 -7.074595019507912141e-01 7.933095237173654057e-01 -5.281513198708588375e-01 -3.028467977344262430e-01
-3.307892427228684845e-02 -1.900031540127218033e-01 -7.389386980790562109e-01 6.722444370280530324e-01 3.845192565111326677e-01 -6.326392006957537451e-01
1.087234983966714474e-02 1.382890561610014002e-01 -7.317718838212983190e-01 4.333917295227073807e-01 -6.078291531419025562e-01 6.653685665645123759e-01
-9.883886491108464373e-03 -1.074524745473872181e-02 -8.232631322352651493e-01 9.878792173685744249e-01 1.353702681193731661e-01 7.595750391200606355e-02
-4.138644158526483090e-03 -6.603931805377304121e-02 -7.940766597308405172e-01 6.346775099050302460e-01 -6.838356090408620469e-01 3.599351583667027010e-01
4.092348612918383921e-02 5.139299185636421463e-02 -8.388537983520333308e-01 -9.908078957138766185e-01 -9.292435352220336509e-02 -9.830960438085606379e-02
-3.656982938341771239e-02 -2.538168215396437999e-01 -9.405316884422489920e-01 6.619815723639898009e-01 4.382906133439760238e-02 7.482375366372937542e-01
4.151567321068096172e-02 1.213128470764639616e-01 -6.930304946955173628e-01 -6.094418977271446325e-01 6.321028623113599254e-01 -4.785671789336609083e-01
4.474448208313406422e-02 -2.596380534786555186e-02 -8.341766716550581551e-01 -9.900760963478228982e-01 -1.254600201488444977e-01 -6.331750772818107997e-02
-1.097630569026723964e-02 8.856028821329729739e-02 -7.581726022265864451e-01 2.845037186119842576e-01 -5.130949387795826766e-01 8.098093713305182240e-01
4.413894588430812560e-02 1.480523422591123288e-02 -8.189672496090126819e-01 -9.544770276286947963e-01 2.865059694537334112e-01 -8.299357322388316305e-02
1.497620936386066109e-02 -1.873132934450099929e-01 -8.035521316138227732e-01 -8.910302593045945629e-01 4.528410172829112623e-01 3.162420069764657754e-02
4.582986291585662564e-02 -1.439469335623537981e-02 -8.691573117103128521e-01 -9.995792637625325883e-01 1.332835151992842020e-02 -2.576141497889496146e-02
-3.965954670191588344e-02 -1.191343524070285209e-01 -7.370884093408066606e-01 4.876877271408683323e-01 2.075458442585881025e-01 8.479890349097467528e-01
-1.668758866312455846e-02 4.856749820061058431e-02 -7.188185464524504686e-01 8.443937624320051460e-01 -5.128492138500352349e-01 -1.548704549593732938e-01
4.839781021021322821e-02 -5.090035909287334709e-02 -8.039113650031094460e-01 -9.687926666150040722e-01 -6.016940835557648554e-02 2.404587519952842700e-01
2.449638760995014389e-02 -1.025044524923307832e-01 -9.580776605245328037e-01 -5.721018725921850345e-01 1.112472362151019009e-02 8.201071197720821715e-01
4.453316081899005158e-02 -5.251108596021317187e-02 -9.230470566580354363e-01 -9.474040714679458075e-01 -1.921284548119479019e-01 2.559534766662355243e-01
-4.313559500190132512e-02 -2.333498465673649602e-01 -8.603703555437799411e-01 4.931860227950347619e-01 -1.912116859747174102e-01 -8.486493021656954516e-01
6.138028349471413847e-02 1.499712370760684643e-01 -6.808955651949500920e-01 -6.498897680265431909e-01 6.409115256533338689e-01 -4.085042297199892869e-01
-3.831964213141595722e-03 -1.724085793026936819e-01 -7.296009242430857578e-01 -7.856105716401046157e-01 3.929635857575147773e-01 -4.779075747421297482e-01
3.591354970565874272e-02 5.343507052114501027e-02 -7.562851531762644353e-01 -9.402183481520233199e-01 -2.699821240498552766e-01 2.076032526041182991e-01
-1.311010267596651735e-02 -1.332216391436783776e-01 -8.818892720895846749e-01 9.017699596215014157e-01 -4.294688768211367691e-01 4.865617911660425482e-02
-9.942658570462937356e-03 -5.383332330269278293e-03 -8.275961856209799183e-01 9.959978559056725800e-01 2.930268484303361065e-02 8.443709902817102264e-02
2.987861787931634164e-02 -1.857288662771274246e-01 -8.497387848308550762e-01 -7.385545709234400125e-01 4.103042818345197795e-01 -5.349649914493024294e-01
-4.440542750500758862e-02 -2.432102477789060413e-01 -8.588079070372586221e-01 5.428225536002728724e-01 -1.197160213630884262e-01 -8.312711648625080718e-01
3.884474979408174267e-02 1.191518545337201009e-02 -9.293227846665251812e-01 -6.644673098153973667e-01 -5.100542203747622239e-01 5.461940007585054380e-01
-6.439013749535243275e-03 -7.650003263137421239e-02 -8.588027516085101620e-01 9.948841368642693528e-01 -6.351428041014021975e-02 7.855883400242234804e-02
-3.388321846942696919e-02 -1.413137796186594575e-01 -7.565481532525998309e-01 9.602811524898487994e-01 -2.260361626218009290e-01 1.636085613896123003e-01
6.743545308023694840e-02 1.655281441092770756e-01 -6.662762931115246978e-01 -5.079674367816378044e-01 6.784283587805222115e-01 -5.307579911521443927e-01
-3.560631280834118673e-02 -4.393304844093383343e-02 -7.264587835908791202e-01 9.324550050211442009e-01 -3.318966043707788360e-01 1.427315929223966218e-01
-2.495253081659239841e-02 -1.884237791442526233e-01 -8.546946749112284136e-01 1.802727495090401255e-01 1.067085768025944487e-01 9.778113393805656361e-01
3.926363829695184160e-02 6.665190170513245194e-02 -8.381576783235223926e-01 -9.887658421072896830e-01 -1.210596611759550550e-01 -8.767364437403872557e-02
-1.842138098347822356e-02 8.494819898924142743e-02 -7.269700618138279502e-01 8.655596575443792462e-01 -4.390529989036062036e-02 -4.988775439656455424e-01
2.230547544330153606e-02 -2.077073043232732785e-01 -8.835155155309631914e-01 -9.379266329564072135e-01 1.781280065771945198e-01 2.975971177009145707e-01
-1.273928478532916631e-02 3.108642889882411164e-02 -6.923888055861924240e-01 3.146536317769191848e-01 -6.025491435733065781e-01 -7.334354924522465957e-01
-1.554924745992456066e-02 -1.861902282318040058e-01 -7.281891096876088598e-01 -3.122201504647927339e-01 6.415211994553898789e-01 -7.006918925555369881e-01
-2.721456966864651411e-02 -5.829473567746897011e-02 -7.575108368025187389e-01 8.817790656177203479e-01 -4.819335317720283701e-02 4.691940751414891420e-01
-1.214488589962163176e-02 -9.757559811801491678e-02 -8.147387000575148086e-01 8.335490973794786873e-01 -8.430518975242613788e-02 5.459748503719414892e-01
4.218302366456477132e-02 2.769586192115272225e-02 -7.616357588174105242e-01 -9.737911591589252236e-01 -2.272689777549284362e-01 8.921328048382814319e-03
-4.521211362370994129e-03 -7.082216800147328462e-02 -7.804778169080435202e-01 4.784449422659494688e-01 -7.961237015825657348e-01 -3.705097691000956983e-01
-1.647323003101608396e-02 7.938490618415737499e-02 -7.250155557283081142e-01 7.036885867312961951e-01 2.076821674078185020e-01 -6.794781013725916807e-01
-4.405790628177337111e-03 -8.815112231132901655e-02 -8.140890079036643412e-01 5.775167482701004662e-01 -3.776169150306773470e-01 7.237954620956416063e-01
2.887556564553866306e-02 7.461840481623498167e-02 -7.646646126205440819e-01 -9.826616344032556016e-01 -1.500697619441727082e-01 1.088814898040153939e-01
-4.581823492261138248e-02 -1.201022592827978158e-01 -7.148505148384800556e-01 9.926828689184759025e-01 9.288570200055551451e-02 -7.715548016601504744e-02
-1.697360140844680551e-02 -2.724076673716156749e-02 -8.031055420239154863e-01 4.628559742152075773e-01 -2.554314264776040289e-01 8.488339846524217691e-01
9.504157188799896780e-03 -4.072749055645225741e-02 -8.681798716101153390e-01 9.909119023695829309e-01 -8.274276338290051380e-02 1.060529907643140007e-01
-4.334986434247743714e-02 -5.710512887701495177e-02 -6.895958537258461973e-01 9.965792416442857959e-01 4.746657756524184230e-02 6.765160114841040073e-02
-2.952914385398210800e-02 -1.990635084893291884e-01 -8.916113580180204945e-01 7.914108369069222659e-01 -7.739836960032336899e-02 -6.063648898225361128e-01
2.487930661498232235e-02 1.070170976690164137e-03 -7.304093571826001385e-01 -8.579301691310247113e-01 -1.287153306276156983e-01 -4.973813311295824380e-01
5.095575564236271698e-02 1.809790986143077970e-02 -8.656055096221628720e-01 -9.909971985924734827e-01 8.600070835594718355e-02 -1.026081407303776200e-01
4.452662823439516859e-02 -8.425120657008268454e-02 -8.517973235631269846e-01 -9.967806577966705772e-01 5.113989893110027635e-02 6.174974477480463242e-02
3.027330849732687637e-02 -3.284612690549840869e-02 -7.539601043006535219e-01 -9.318595508058697963e-01 8.655971360656675162e-02 -3.523424379098148429e-01
3.986514181527583967e-02 4.608861153947087230e-02 -8.231472622733200240e-01 -9.865345218197471011e-01 -1.160730774704554075e-01 -1.152244676465058737e-01
4.601601605180673932e-02 -9.424941735896676109e-03 -8.722971553913344556e-01 -9.977712154661444455e-01 6.143986511509751808e-02 -2.603352764900692187e-02
-2.871663370632124290e-02 -1.558870269530738262e-01 -7.928034815490661025e-01 9.747485041720541643e-01 -1.650051811719732975e-01 1.504614362577583742e-01
4.487421704951585766e-02 -1.241514566115645007e-01 -8.960436976193029146e-01 -9.421472795333812877e-01 3.314513412699033879e-01 4.998511816762127996e-02
2.941003546877928379e-02 6.761427085088060618e-02 -7.271513592768864553e-01 -7.328587214006372363e-01 3.452031588159541475e-01 -5.863044205960843414e-01
1.939877586752062136e-02 -1.526430477972171018e-01 -7.834877985529102862e-01 -8.772338223791986689e-01 2.200509283633735047e-01 -4.266595947595670513e-01
1.715389790560390912e-02 -2.110500147042441155e-01 -8.997802071737569518e-01 -9.228954827535313932e-01 3.129701517646877873e-01 2.243069593604143375e-01
4.321166289024576390e-02 -8.439502432567390355e-02 -8.864056965832857182e-01 -9.935960416937066331e-01 1.042422592607945703e-01 4.359423488035344546e-02
1.062752674902212036e-02 -1.828884833154709455e-01 -7.821946465052369568e-01 -7.360247075109748183e-01 2.324922619806349677e-01 -6.357790324102485791e-01
2.029787258332525421e-02 -1.770258765246451038e-01 -8.035491262815764868e-01 -8.873181404216593515e-01 4.608629427379033472e-01 1.648835011785221294e-02
-3.094065357333297336e-02 -1.735937416316378212e-01 -8.391212817497792908e-01 9.318150492024300791e-01 -3.628740491673880797e-01 -6.567992138916843234e-03
-3.791562899149657911e-02 -2.896961943258551941e-01 -9.202407171125828178e-01 7.274385600132636798e-01 3.298606523797978363e-01 6.016852095717525328e-01
1.816631701777330840e-02 -2.450161154391378854e-02 -9.449492617622551327e-01 3.689041239934940375e-01 -3.409999196194964943e-01 8.646553082703474225e-01
-2.420102034800981211e-02 -5.253456621328816967e-02 -7.632608383534925656e-01 9.045217589841455519e-01 -2.438400938392014730e-02 4.257297354080311069e-01
4.126112730504625375e-02 1.135305866600418330e-02 -7.805791275276027230e-01 -9.864892910557911954e-01 -5.027496729363648692e-02 1.559208334247432215e-01
-8.987858953866645871e-04 -1.703678228064092748e-01 -9.537729072445856326e-01 2.787837230526268306e-01 -4.172161211815281906e-02 9.594472069077999432e-01
-4.346234734770751396e-02 -2.166745583748378168e-01 -8.694286452223033423e-01 9.340364780842147496e-01 -3.208487277355511758e-01 -1.569456960815242552e-01
3.925109350805432162e-02 -7.142316117356978245e-02 -7.764002041019796296e-01 -9.604327474817230259e-01 2.552305080947651073e-01 -1.114734286832388538e-01
9.083502108039366585e-02 2.044536829295487967e-01 -6.771494464626213183e-01 -7.101182483055600292e-01 7.681929571160756379e-03 7.040405253829545851e-01
-7.903433833633864702e-03 8.432993556843645933e-02 -7.614775137668240435e-01 6.755582077435895449e-02 -5.670083704244122114e-01 8.209370980459800293e-01
4.917745046891609795e-02 2.398124302398218360e-02 -8.920192124152774849e-01 -9.111030532815240779e-01 -3.780998518497505345e-01 1.641088916917088081e-01
2.472994436009251507e-02 8.416755932861606782e-02 -7.828900891583209232e-01 -8.051446179756462929e-01 -5.930026071996491455e-01 -9.489573186880434150e-03
-5.831482340594571455e-03 -6.577448389680098928e-02 -8.529981909735058210e-01 9.833495148437657596e-01 -1.593514236683164775e-01 8.735476765129315813e-02
-9.428845114164776525e-03 4.100763516993658625e-02 -8.149113510668750671e-01 7.376605391240208531e-01 6.432078633849723781e-01 2.052816930439672061e-01
-3.745977010829957404e-02 -1.596152837722122908e-01 -7.625251325738668928e-01 9.595193340308101337e-01 -2.433348744384566109e-01 1.418125047486689105e-01
-3.490494330360984030e-03 3.964087968809654194e-02 -8.708296629092778796e-01 9.196510925204073317e-01 3.761616218352424323e-01 1.128906651778675135e-01
-4.977971820949673998e-03 3.928922618285247276e-02 -8.459287006672434606e-01 5.747442058882701321e-01 8.167237966761695667e-01 -5.129656655883185756e-02
-2.723468539862057558e-03 -1.031118331718444969e-01 -8.526635264473759745e-01 4.473851638245353035e-01 8.916224099706354655e-01 6.968495696956361618e-02
7.347712388939371328e-03 -3.975621263226881280e-02 -6.906050184548844229e-01 -9.021233019707095568e-01 -1.229837465553002517e-02 -4.313030234328255608e-01
-2.599824808812798912e-02 -2.068069945007479371e-01 -7.518386809142145744e-01 -1.829169284465965994e-02 7.686642894562789596e-01 -6.393908226488321800e-01
-1.635278720765255198e-02 -1.482449701406930720e-01 -9.185985419396065499e-01 9.300080111266582072e-01 -3.452632011021428693e-01 1.260096075898144707e-01
4.868392789837699269e-02 -4.420714898507627916e-02 -8.869939185365129930e-01 -9.592090388978358195e-01 -2.649526246795946283e-01 9.858055777933286135e-02
-3.435173959588238429e-02 -3.998430253475656476e-02 -6.739125678656956442e-01 6.577956322942456469e-01 -1.390775201451869003e-01 -7.402447902720280526e-01
-1.016825744235065956e-02 -6.977788003398855375e-03 -8.235610123325199927e-01 9.944957177385728153e-01 7.251219428354099827e-02 7.563232827189125818e-02
-1.317962035501025727e-03 3.701675492636585796e-02 -8.398593926975120860e-01 6.217219043700434877e-01 7.830516022899403072e-01 -1.708981502661474292e-02
-2.517125959493816956e-02 -1.168982325706880571e-01 -7.790672482048142111e-01 9.793105696976182051e-01 -1.480243885875552889e-01 1.379840152401971554e-01
-3.204931674822689841e-02 3.541181504226520449e-02 -7.640771762128609756e-01 9.987635455083657687e-01 4.573735664124149031e-02 -1.948010192557960568e-02
-3.529019244196646143e-02 -2.890763863889217467e-01 -9.025344626832679795e-01 4.875289642428455306e-01 8.358080258667829332e-01 -2.524687167174766156e-01
4.369717684180557220e-03 -4.793855722646001016e-02 -9.262903836440540273e-01 4.793487202893663701e-01 8.400662766220606814e-01 -2.539949905791334950e-01
-4.305194248469824958e-02 -2.114577798993927393e-01 -8.388645969979900974e-01 9.786122222079366439e-01 -2.017393332774190806e-01 -4.024127177446591014e-02
-3.093454914704983627e-02 -2.579542262085753393e-02 -6.749924989741087344e-01 6.421811286906288219e-01 -2.636386475380023131e-01 -7.197902899303122437e-01
3.609622934551699053e-02 7.451312980557989185e-02 -8.262812295452164335e-01 -9.347366700510033599e-01 -3.143305495905822089e-01 -1.657216438973628803e-01
2.849784567740571914e-02 4.117320380235132277e-02 -7.376248774435895106e-01 -6.159776799624048227e-01 2.522801489732585667e-01 -7.462748985609550800e-01
-1.920712870107016065e-02 -4.674717800478842174e-03 -7.659165324092962468e-01 9.970245894188530800e-01 7.704678510559867521e-02 -2.400208128309939092e-03
-3.767057608611083797e-02 -2.569060088577146406e-01 -8.530110184699196685e-01 6.244704130081728533e-01 3.627215735996774382e-01 -6.917150882572795645e-01
-3.737003870616311535e-02 -2.857815241381898574e-01 -8.968135314162878347e-01 4.990875459613565712e-01 8.058442210763634428e-01 -3.186325671115555203e-01
3.779320348857732187e-02 1.411313888865231569e-01 -7.291533253080577648e-01 -4.110713078701044854e-01 -3.158779808802740785e-01 8.551265877289531137e-01
-2.178265956338672898e-02 -4.548098348863275492e-02 -7.683512647697310349e-01 9.037910942374750567e-01 1.165332569452664016e-02 4.278152147566577912e-01
-1.980135187328721860e-02 -3.014267198332413189e-01 -9.193584705438586635e-01 4.845854118106282526e-02 8.256261070694028703e-01 -5.621328144771712276e-01
-3.140388398761758543e-02 3.491206515510353325e-02 -7.705696740368218611e-01 9.608860068614177852e-01 -1.096035457603214414e-01 2.543327438114973416e-01
3.978310755776390262e-02 -6.461169288866318305e-02 -9.417715913835549291e-01 -9.246146995255776213e-01 -8.126139082494790444e-02 3.721347118751768268e-01
1.566263526576426590e-02 6.452354707420691893e-02 -8.761195371104730789e-01 2.655306294944065337e-01 -8.144776423733625093e-01 5.158678657119798450e-01
2.678452791348394021e-02 7.950995833138520263e-02 -8.488910775054308022e-01 -1.625422096344093514e-01 -9.212745630028378319e-01 3.533174346831670642e-01
3.526535787795884169e-02 -1.631027439500257747e-01 -8.660758975482070188e-01 -9.425059719918206236e-01 2.141030515915053750e-02 3.335027609971852325e-01
-1.304662244585183886e-02 -1.323915827199339812e-01 -8.757392035702445954e-01 9.017699596215014157e-01 -4.294688768211367691e-01 4.865617911660425482e-02
1.573484694680376411e-02 1.640049090523466591e-01 -7.051003721390345369e-01 7.928630390936698413e-01 -5.660907322027882715e-01 2.256313013596762118e-01
4.070915437438516610e-02 2.041887059649587222e-01 -6.701188051915620836e-01 8.482135569829394317e-01 -4.629301498845779239e-01 -2.573508074170199333e-01
1.011893297632440562e-02 -4.573505603246340312e-02 -9.464645894454891684e-01 7.025614431659522596e-01 -2.459144776359573625e-01 6.677825156932523099e-01
4.480277245850487061e-02 -7.974865558769726748e-02 -8.510686530342431722e-01 -9.967806577966705772e-01 5.113989893110027635e-02 6.174974477480463242e-02
3.724764278488665488e-03 -5.162469238085171412e-04 -9.197961994461441027e-01 8.017571252527635473e-01 -3.304931838436901415e-01 4.979555879185267320e-01
4.321514594597405945e-02 1.274503665615540626e-01 -6.873787849017084506e-01 -5.479014845136174205e-01 6.336797616380608344e-01 -5.461262884700796016e-01
4.759393703726241820e-02 -1.034926665797697432e-01 -8.165315971896898173e-01 -9.337650632661471661e-01 2.255644930720526187e-01 -2.778551170821160210e-01
7.861218086984642084e-02 1.796152837021262605e-01 -6.873095432572607910e-01 -8.045231127839990171e-01 2.131818962079140845e-01 5.543428903896423510e-01
-3.163718986033739466e-02 -2.950579697603872287e-01 -9.244709597924938294e-01 7.360870106610887253e-01 1.939866495461181062e-01 6.484944814984116013e-01
4.854535483959957626e-02 1.581330934619853273e-02 -9.049538802931060832e-01 -9.556337849314533450e-01 -1.149160740548367532e-01 2.712164541863351652e-01
-8.542727321371608104e-03 -7.401593289911845286e-02 -8.002872147431843164e-01 5.571357027825595276e-01 -6.039841874981204395e-01 5.699148269147057411e-01
-1.243264004461481186e-02 -1.391988271074926231e-01 -7.008131961347100480e-01 -8.048625075544609819e-01 2.630662198244008154e-01 -5.319704013574865220e-01
2.847997485949668728e-02 7.364627650151166216e-02 -7.734654022189779710e-01 -9.855178791342811273e-01 -1.679806442746122064e-01 2.317354214950206881e-02
3.577485034625871307e-02 -1.393946528031824172e-01 -9.223390369342686634e-01 -8.583376499691866002e-01 5.087544360942903854e-01 6.652369803126309544e-02
