-4.839750441742948078e-02 -1.425291470599301114e-01 -6.899442941818597630e-01 7.753758805308234026e-01 -3.055259424148022984e-01 5.526718216107976422e-01
-4.073565211607884512e-02 -2.634425342842415807e-01 -7.654079260455937117e-01 1.807962908151300174e-01 8.795693774139634602e-01 -4.400800058433735340e-01
-2.489451455574194505e-02 -2.539696575248943100e-01 -7.559199939561573878e-01 -7.363026638382711431e-01 6.548079841427442149e-01 -1.705429304532496415e-01
-6.198613675015886282e-02 -1.538413468088602465e-01 -6.127209695808217838e-01 -3.249259928322843494e-01 5.525506081831551564e-01 -7.675356177913698064e-01
2.279703816700306973e-02 -3.718425713746695976e-02 -7.305692407506777508e-01 6.959460614748615992e-01 6.762541469062810506e-01 2.415355218382721214e-01
3.806773677505621845e-02 -1.209088111654810088e-01 -6.955642829116953640e-01 -7.139464424577027790e-01 2.946401039255449050e-01 -6.351910629572287137e-01
-3.490873060279055251e-02 -5.187541190093845900e-02 -5.799896901742915833e-01 -6.733842058615774340e-01 1.700865361298836698e-01 -7.194611049414071369e-01
6.250550231598067663e-02 5.473658363313987224e-02 -6.990930772356321876e-01 -8.981986852201243599e-01 6.392592493722054625e-02 -4.349167713364949228e-01
1.801764163369558649e-02 1.620105642806744517e-01 -5.856066448286483261e-01 5.726156813534644119e-01 -6.850184348620250718e-01 4.504009606642611629e-01
2.483540462425101389e-02 1.790879524449446314e-01 -5.467179358531856215e-01 8.897037760315203991e-01 -3.792391546165465033e-01 -2.541748502920406771e-01
3.720239960920422584e-02 3.433726765910076473e-02 -6.461511228362304404e-01 -9.595967798504548840e-01 -1.533756169520167079e-01 -2.359023955478743162e-01
3.203412459471204066e-02 8.516234989082364926e-02 -6.715752551226584766e-01 -2.733100889892904894e-01 -9.619117107781762765e-01 5.239840118596349704e-03
-1.779569274361469597e-02 -3.345872389306715072e-02 -6.949192890414433998e-01 9.841920334589582264e-01 1.628651319685435750e-01 6.957722375023080164e-02
-3.461642095096682109e-02 -1.955757852776187078e-01 -7.748899848608965524e-01 3.202239143075809591e-01 -7.375417888112307807e-01 5.945492027264531743e-01
-4.052802393523954189e-02 -1.631367815623468165e-01 -7.151311768197641250e-01 8.283288643011608166e-01 -5.599260911312891054e-01 -1.881661595463980999e-02
5.374758937566690570e-02 1.787417670531954716e-01 -5.717245580893492996e-01 -4.003685001304124746e-01 -5.009658502264198177e-01 7.672928261167599739e-01
-3.395344677739635386e-02 -1.572452636134147042e-01 -6.366539246194469204e-01 -7.304277537504488826e-01 5.302878698863766616e-01 -4.304301007160664105e-01
-2.212846500689082119e-02 -2.796594497149217443e-02 -5.881056657625572948e-01 -7.135610610967171308e-01 1.370198320222148769e-01 -6.870634451920225594e-01
-3.611863735062587760e-02 -1.646574087210294496e-02 -6.512648522188662081e-01 8.341111510216570046e-01 -2.838119862535248838e-01 4.729792217425154988e-01
4.605171850390616523e-02 -5.724037157285928601e-02 -7.930876024312780714e-01 5.943657341242422065e-01 -5.889222608170585627e-01 5.476312124167825868e-01
2.705207398777000061e-02 -9.588643245407760252e-02 -6.730500863532115075e-01 -6.911414426389241861e-01 3.653152358398831234e-01 -6.235930441644113031e-01
4.890400086885209746e-02 8.096186383103122497e-02 -7.040931444616650436e-01 -2.343922669624677324e-01 -9.608403600583231841e-01 1.478041530918097757e-01
-3.110995173696949959e-02 4.647703179218465319e-02 -6.136782898704119527e-01 8.033262553465764233e-01 -5.948160867670426732e-01 2.933854791888999142e-02
1.200288111352755017e-03 9.481061368933851874e-02 -6.448572833774370849e-01 -2.363730989677039207e-01 -4.491597576488914334e-01 8.616166608145372496e-01
7.910677517287681426e-02 -3.759539219777216501e-02 -7.769611371752055407e-01 -9.850773873363785071e-01 3.528356679797722134e-02 -1.684565548518291989e-01
6.207018414916953136e-02 -1.416148330054893267e-01 -8.147384063206434268e-01 -9.949133924562030273e-01 7.621477717307055533e-02 6.586842378369635320e-02
-4.749443626509931848e-02 1.667376555219108464e-02 -5.822484634659012004e-01 5.725253335953827127e-01 -5.005420150478387953e-01 -6.493630983997664696e-01
2.444202372521523184e-02 -1.610667680392046108e-01 -8.387844255795334769e-01 2.762477494433746017e-01 -1.762843680124526191e-01 9.447809283224979371e-01
-4.053000644759116589e-02 2.693274564728073001e-02 -6.236242421231092958e-01 8.165231807490358484e-01 -4.321622728767933186e-01 3.827867098025233838e-01
6.125128324978684757e-02 5.539118042175310286e-02 -7.581126572814620435e-01 -1.127862951530873847e-01 -8.259625615410863819e-01 5.523269851800904906e-01
1.415653908188886471e-02 1.242814079081901862e-01 -6.236745060726964773e-01 -5.341861793223531135e-02 -5.844697822309067314e-01 8.096551889027614468e-01
-3.595623463658444152e-02 4.042982103807439553e-02 -6.087289841657538281e-01 7.898432049842917246e-01 -6.112258200404167008e-01 5.050453896495229328e-02
6.003080914676607593e-02 -5.405043943996068467e-02 -7.102811145028783413e-01 -9.316160496532439605e-01 9.906634166750671877e-02 -3.496818496535119003e-01
-3.635659325230327504e-02 -5.997319878914916108e-02 -5.799234075365398144e-01 -4.659868443582150799e-01 3.172934006886124481e-02 -8.842225454397030227e-01
8.244620773809209491e-02 -5.796096590913090568e-02 -8.103623128746932913e-01 -9.899515681838947367e-01 1.402948811291218623e-01 1.769855867615245659e-02
5.589101741425377134e-02 5.285358933583508443e-04 -8.014080474801514864e-01 4.588619413646878864e-01 -5.386638127597633829e-01 7.066024452194773486e-01
1.594693182273017318e-02 -1.809489246604571722e-02 -7.442584832333938305e-01 9.570366130077097022e-01 2.834781433421405122e-02 2.885781051729396918e-01
-2.534926247744369310e-02 6.014756750286294473e-02 -6.364566636221757889e-01 9.337312447439800600e-01 3.760609023025971581e-02 -3.559940232173159358e-01
3.542791604474970768e-02 9.830722719084024341e-02 -6.193642637520037075e-01 -9.458275379004995598e-01 -4.037835965880711558e-02 3.221488112974237317e-01
4.964266782292800495e-02 -6.479378358146296521e-03 -8.013688140120253101e-01 5.272867394389770812e-01 -4.025122831591530503e-01 7.482997770398026605e-01
5.210763761760302260e-02 -1.460994887365721639e-01 -7.770305959711587551e-01 -7.648901859388717028e-01 5.964996966216961072e-01 -2.431689029967092353e-01
2.537962657926316062e-02 -1.257162825354122826e-01 -8.235946602690616958e-01 7.759919752101474000e-01 6.012872455824268547e-01 1.904996134099813943e-01
3.456285165712882218e-02 8.229957056198382304e-02 -6.560202536428513254e-01 -6.807493312210670666e-01 -7.180229809010951758e-01 -1.449942996809722162e-01
2.483924106023827419e-02 3.996036220217482476e-02 -7.371279009721474207e-01 7.627090166111449854e-01 5.559873437148986630e-01 3.303831557584488987e-01
9.057514918835881529e-03 1.393299402088261640e-01 -5.635972263696058526e-01 8.216255681024916546e-01 5.802806766840823416e-02 -5.670662829007985239e-01
-1.004999072797308629e-02 -5.695960043020577984e-02 -6.773899253145828636e-01 8.127805538090743243e-01 2.756705163796449587e-01 5.132188010476570472e-01
4.885429524423401393e-02 -9.747405021591298846e-02 -8.361775392818565633e-01 4.033000605158985619e-01 -3.635581293785934975e-01 8.397467164274060591e-01
-3.350287679795717344e-02 -8.867343649313608189e-02 -5.975847046332372070e-01 -7.594942198318940241e-01 4.438597380248139324e-01 -4.755597365236949869e-01
-6.224770739284456872e-02 -1.156842308673604741e-01 -6.449306058689917576e-01 -5.771844787489684853e-02 1.981980832357511380e-01 9.784610879215316359e-01
8.001494290243534036e-02 -5.041538841260274212e-02 -7.852529922116602279e-01 -9.925169382499678949e-01 -5.866056061375190221e-03 -1.219660472147638536e-01
1.447464478217107102e-02 1.662774201029951215e-01 -5.704359796619455913e-01 8.431985694300712098e-01 -5.341761090712980886e-01 6.059750001881192283e-02
-6.555401621396764189e-02 -6.007389989500392519e-02 -6.365051312883314161e-01 7.488980848441609828e-01 -2.961080278840229618e-01 5.928504822797924234e-01
1.851678178924932514e-02 -2.215363137375609137e-01 -7.804863669371550072e-01 -9.308551347827307421e-01 3.646570400765968833e-01 -2.310759985803889638e-02
-1.736729477042110031e-02 -1.318925076994377499e-01 -7.092720836370812743e-01 7.476777281752153836e-01 -1.512368121933665432e-01 6.466107340806653836e-01
4.729332644835463478e-02 1.066752347670855451e-02 -7.866208771338851768e-01 -4.721594904067056425e-02 -9.010019394387868141e-01 4.312379381312986815e-01
4.799033854413330830e-02 4.165406356716212094e-02 -7.702358630472246892e-01 4.719355302073133807e-01 -5.685907380260052379e-01 6.737814393102447008e-01
2.094988967032415661e-02 -7.456250232883826490e-02 -7.733741787445341798e-01 8.703254829192416109e-01 -2.708747169495002716e-01 4.112911882096634275e-01
5.446370564808867415e-02 4.216769923456742397e-02 -6.848802629142017873e-01 -8.950668757928046393e-01 1.844132693756175834e-02 -4.455504520470042196e-01
2.443969559672284561e-02 -1.768720544726712085e-01 -8.410656909422734584e-01 -2.637344295058093382e-02 -1.344450730729175592e-01 9.905700196519934275e-01
6.421904639942434267e-02 -1.054655496345284077e-01 -7.780569999554645122e-01 -9.408539715312924656e-01 2.657760082112457511e-01 -2.101354746659637729e-01
6.452261105303185029e-02 4.087546351209565137e-02 -7.754793621529150194e-01 -8.942156344328280881e-02 -6.998629666695312945e-01 7.086576125858534692e-01
-4.408802900004307745e-02 -1.692234167138849665e-01 -7.108099105292949860e-01 6.483105371494423119e-01 -7.036453113447714847e-01 -2.908207751236510652e-01
5.028293103113738727e-02 -1.061385795829131867e-02 -6.857454167631601427e-01 -9.084157553486673642e-01 1.321555182982842580e-01 -3.966304759062545537e-01
-7.099774884649731610e-02 -1.996356937144595223e-01 -6.882575795993415291e-01 9.799285404822154488e-01 1.572518100883188996e-01 1.225231560658722740e-01
9.338020805553711237e-03 -3.059846357132807795e-02 -7.206486512405803069e-01 8.039126728498785512e-01 4.657528186636549217e-01 3.698631183806043721e-01
7.479363062492942749e-02 -9.044841639048015192e-02 -8.043856861339090392e-01 -8.964507387982195707e-01 4.172560851862346376e-01 -1.492428634246341090e-01
5.069514938605643173e-02 -1.683351606090562405e-02 -6.887194669553947657e-01 -9.215052160148957672e-01 1.051903953344828224e-01 -3.738490572232537335e-01
5.979810567073719219e-02 3.318407789370496352e-02 -7.816913086138885802e-01 1.720567264951795572e-01 -5.755016614229077065e-01 7.994962917782896250e-01
-4.127709033153961760e-02 3.195369534610811857e-02 -6.140033631633192712e-01 8.077190321102805104e-01 -5.495162337343397763e-01 2.135927761635632027e-01
2.536492155974602244e-02 -5.618384567851152783e-02 -7.666698958938924502e-01 8.168874545145303756e-01 -4.066041527200140449e-01 4.091062816037054906e-01
-1.771621085684363037e-02 -7.521408510608658393e-02 -6.111221264649066010e-01 -7.608807106243203888e-01 3.108604311012708177e-01 -5.695843542227624345e-01
-5.642742068320253518e-02 -1.136797591921591133e-01 -6.454112292545849394e-01 2.227205922366928548e-01 8.435794939953562832e-02 9.712256556366507532e-01
3.379612947964340253e-02 3.538479708938236518e-02 -7.503551668079770920e-01 7.326457981836418387e-01 6.412320358183902780e-01 2.281482207777590088e-01
1.126948651040416902e-02 -2.155842469006486253e-02 -6.233839673458653197e-01 -8.199296574175327645e-01 3.986290364785239904e-01 -4.108652433138766935e-01
-2.135251118920369201e-02 -6.781693884544043316e-02 -6.003018005231104404e-01 -8.343142561075848063e-01 3.691144092235494889e-01 -4.094804939911028119e-01
3.073952376325652866e-02 3.793244838493232962e-02 -7.469852442844590046e-01 8.248786412212865127e-01 4.719472185832647715e-01 3.111929467845379604e-01
-1.256765352486901091e-02 -8.306233723858598428e-02 -6.213890014488162583e-01 -7.197640154528137657e-01 2.914871037979422930e-01 -6.300595451056426599e-01
-3.191018543989644629e-02 -1.979015552296887470e-01 -7.570312770138298841e-01 4.337551942090697166e-01 -3.036038761735088687e-01 8.483402135164128666e-01
-2.777788885154831855e-02 7.805367568932498890e-03 -5.752796158165792706e-01 -5.788697287343897990e-01 -9.383814631353623592e-02 -8.100026169410895482e-01
4.017059998924612380e-02 7.826415277892614930e-03 -7.842335515757187236e-01 6.391128796497090869e-01 -4.002885467644220485e-01 6.567372430394696758e-01
-7.163567688401674405e-02 -1.620643886502275699e-01 -6.456155226461500751e-01 8.772198706150954317e-01 -1.954588191199331249e-01 -4.384987441558714782e-01
4.367932360880653203e-02 -3.200957337773926992e-02 -8.077059134580870658e-01 7.004925771718988337e-01 -2.695495586487339224e-01 6.607973855572856214e-01
6.110044811846811891e-02 2.063959137864166127e-01 -5.473472359928995834e-01 -1.228921585502179385e-02 -7.078694095261784947e-01 7.062364152539349904e-01
4.435309500036947739e-02 -3.708941215711950012e-02 -6.767403767197333053e-01 -9.449458184951148310e-01 -3.660599133336516365e-03 -3.272063570937806531e-01
-1.105107150655133125e-02 -6.279440158229344926e-02 -6.735352785008899001e-01 7.809106459889676444e-01 2.091797209777674846e-02 6.242924005819787681e-01
-1.728123716763838025e-02 -5.468563907769054960e-02 -5.945855038472074305e-01 -8.255404482779054032e-01 3.305018907426586217e-01 -4.574401255603214866e-01
4.922358408902380994e-02 1.301895483261666540e-03 -7.962950869072381588e-01 5.292259636949389057e-01 -4.708175929086971800e-01 7.058687367767632059e-01
-5.550243476724334851e-02 -2.419804162866595887e-01 -7.399130536359825872e-01 7.917975396158114521e-01 5.958236064600818116e-01 -1.343535866408081536e-01
-5.076273972486316371e-02 -5.377084168873935699e-02 -6.503971370120242845e-01 6.906332253533196130e-01 -2.795901695078931160e-01 6.669745760916365729e-01
-5.866526888546019780e-02 -6.912788365392860679e-02 -6.485099298057863670e-01 6.881134128816595030e-01 -2.697101176514005161e-01 6.736144174888349934e-01
3.265184771452007972e-02 8.427713443248373293e-02 -6.341902466412681072e-01 -8.899830513028446077e-01 -3.850108730611458419e-01 2.443292778575106017e-01
4.952586684422219387e-02 2.100024515843774697e-01 -5.116292640761047616e-01 7.448865625040662630e-01 -6.106393570655173075e-01 -2.688188695078672641e-01
-1.088752230410469646e-02 -1.885387572800784617e-01 -8.070471378284724828e-01 -1.676793598896356152e-01 -8.791811291375376536e-01 4.460091640711506544e-01
2.999371359452930250e-02 6.080966077918435742e-02 -7.311364720936489592e-01 6.394621627734224933e-01 -6.010430752712095925e-01 4.794114767604797933e-01
3.115142123217516310e-02 1.785547517782480886e-01 -5.731095982795569865e-01 2.674132316311599866e-01 -7.726272103035549677e-01 5.757928077417483470e-01
-5.369967676592210526e-02 -2.017429518477777406e-01 -6.622976803932946188e-01 -3.292849775445174099e-01 6.838792686743369043e-01 -6.510610950141013653e-01
5.874784705613722569e-02 -2.764309272210935600e-04 -7.001784486821495124e-01 -8.717847935968278117e-01 2.879608356580760642e-01 -3.963203638225504255e-01
-5.636077159820573196e-02 -1.733014122187405970e-01 -6.287772631419312752e-01 -1.489836751308480367e-01 4.502634083868212733e-01 -8.803787410043409922e-01
6.318665051177797462e-03 1.094015989711922265e-01 -5.771251708957135795e-01 5.250326088760808307e-01 3.904960210326199888e-01 -7.562100350924126912e-01
-1.041283668807931745e-02 -2.675256328144603457e-01 -8.402754352754737699e-01 -2.252139032234510563e-01 2.721507815048794798e-01 9.355280059523291003e-01
1.221018255810146606e-02 -2.382651944000918898e-01 -8.295052050600046911e-01 -8.749292267735129247e-01 4.444762187159902456e-01 1.921971361218426100e-01
-4.604663267042622549e-02 -2.647453523873079528e-01 -7.725775410834994084e-01 5.731604590435317448e-01 7.593297286702618276e-01 -3.080672837978008505e-01
-1.754552003677106037e-02 -1.303197403048533265e-01 -7.235304666828621389e-01 7.933830976263357426e-01 -5.777637999599867236e-01 1.916565987818751871e-01
5.710716849505119430e-02 1.969985008252358449e-01 -5.005470663168032353e-01 5.325584553722989556e-01 2.265271302655159635e-01 -8.155163706910739663e-01
6.312803945898484703e-02 -1.068127578254198240e-01 -8.364235545669852501e-01 -6.343936838337560502e-01 5.298449459585934107e-02 7.711921273225355034e-01
8.343945954147500774e-03 -1.852530304297179964e-01 -7.199226082945120453e-01 -6.046352766151170677e-01 6.164256717708398448e-01 -5.044160717645997938e-01
-3.257218559234299066e-02 -2.153196608025576553e-01 -8.169431101954449659e-01 9.434633464483872523e-01 -3.214665011492506830e-01 8.084678439659333249e-02
2.224134944415501886e-02 -4.877655044311400567e-02 -6.482445064686559455e-01 -6.977343740816389639e-01 1.986884982913668662e-01 -6.882511343046410213e-01
2.976683253335322271e-02 1.027254193713503239e-01 -6.274899783759307903e-01 -6.942153519453102550e-01 -3.577591200443631658e-01 6.245586098586202173e-01
2.946450366060746756e-02 -3.878969837544883614e-02 -7.477810735002063947e-01 7.950507076388443339e-01 5.345739574243218994e-01 2.865746958938837907e-01
2.667389477133254652e-02 -1.227326853355834163e-01 -8.266481160463903244e-01 8.550222929403374916e-01 -2.933240830698630175e-01 4.276655946721361623e-01
1.651534719162714784e-02 -1.195620035673735232e-01 -6.752134227222374996e-01 -6.785429407116260192e-01 3.776823763837351411e-01 -6.300281741156926740e-01
5.451312272141021348e-02 1.535144935764120033e-01 -5.831320266775742445e-01 -7.897002061551561258e-01 -1.421244886002027974e-01 5.968033295304532304e-01
-4.699684527900032521e-02 1.601388200730193348e-02 -6.209122016162471613e-01 8.412463438859455467e-01 -3.936794450102321097e-01 3.705685948309236921e-01
-1.590289793869933271e-02 -2.418925674958903316e-01 -7.505581017133111654e-01 -7.514456291013206224e-01 6.386870601004869252e-01 -1.655545401513278114e-01
5.590468065228526573e-02 1.550352037066369537e-01 -5.809285474585643705e-01 -7.897002061551561258e-01 -1.421244886002027974e-01 5.968033295304532304e-01
3.885411733745640361e-02 1.280354621116618075e-01 -5.572227571166527005e-01 -2.970706462007029480e-01 7.006045259422870597e-01 -6.487698585747339042e-01
-6.434583237041829884e-02 -3.175536080649542930e-02 -5.721772523256197784e-01 6.378453493776068406e-01 -2.362158490348943707e-01 -7.330452802808860024e-01
7.325330913058492217e-03 -6.131402301627295742e-02 -7.356173807984123236e-01 8.538341322148532697e-01 -3.676995033889773890e-01 3.684621417084909534e-01
1.976040091751050595e-02 1.276127060303675620e-01 -6.205884381844123387e-01 -2.354211249195466149e-01 -5.288161240950713937e-01 8.154326464145774667e-01
-7.735318592966784756e-03 -7.618954797387106695e-03 -6.931885159040007682e-01 4.577067679740026013e-02 -2.507231191986243890e-01 9.669761954902614809e-01
4.636905544951108737e-02 6.402769776809373592e-02 -7.426900739233474047e-01 3.434059241511199789e-01 -8.004452063731226641e-01 4.912838719642688701e-01
4.733286970957314987e-02 -5.956647634239051886e-02 -6.850389887747543316e-01 -8.572380320001246057e-01 3.931534479857182185e-01 -3.325256724367228189e-01
6.940487784464050534e-04 -1.710052338598390953e-01 -6.810534569613285738e-01 -7.150876015299159061e-01 4.719804969681855589e-01 -5.156395374870479387e-01
-3.070466737381550432e-02 -1.789312857396964940e-01 -6.621729342104784033e-01 -6.079912356418051278e-01 5.188613613165702354e-01 -6.009405504003425547e-01
-1.300460477136571903e-02 -7.398734267992708447e-02 -6.166736452905761112e-01 -7.302357551777782785e-01 2.888508914625276258e-01 -6.191291499850762881e-01
5.047923943497283072e-02 -1.100353269013490398e-01 -7.311600907242713498e-01 -9.594466800354202185e-01 -6.179309508083458830e-02 -2.750339643922927180e-01
-2.305462523544712580e-02 5.651197763471466767e-03 -5.794614482386177823e-01 -7.438983721073882949e-01 6.256223852839526423e-02 -6.653579324591342159e-01
-1.871447372541568815e-02 3.488748605512904423e-03 -6.874714038062074151e-01 5.500996029642208907e-01 -1.957224559061572222e-01 8.118393603864431096e-01
-1.055925748643302825e-03 -3.052386490414349136e-03 -6.061965584994106759e-01 -7.256557767775149159e-01 1.242937248117033516e-01 -6.767383272741790412e-01
9.859900131432300374e-03 -1.311751040121143241e-01 -7.936751074175329990e-01 7.116149984850101973e-01 -6.231763988611477290e-01 3.244306857151936230e-01
5.419788704113238931e-02 1.969053356815019251e-01 -5.568225592352220588e-01 -7.281003662758248063e-02 -6.752131759695457758e-01 7.340203441073067658e-01
2.823107146631180508e-02 8.508863417579588806e-02 -6.733181947831462510e-01 8.254434820023423547e-02 -9.862456248041260309e-01 1.431991554965242330e-01
-2.165486599927461675e-02 8.266486484598659090e-02 -6.387994669207222032e-01 8.512020819381579395e-01 -4.740218933720062866e-01 2.252959393956399103e-01
8.337014161628668318e-02 1.895111455923015331e-01 -5.364080577153060858e-01 -8.876321051271193197e-01 1.002389083830379640e-01 4.495124105002838988e-01
7.742500918111884511e-03 1.051474148374913070e-01 -6.377771995206213962e-01 -1.406353404190737455e-01 -5.003380362899325640e-01 8.543322248790253814e-01
-5.194544244074210393e-02 -2.302947432428788799e-01 -7.947726571140074636e-01 8.227373339835843957e-01 -4.069925426840778626e-01 3.968127385419134567e-01
-3.462148341541103347e-02 -2.723635867636438057e-01 -7.813378017859357039e-01 9.843469832485027271e-02 8.541830059145957277e-01 -5.105702719238573994e-01
2.912013083974784519e-02 -1.578730808632758040e-02 -6.414554060119290746e-01 -4.883419976384844596e-01 3.581679589779749318e-01 -7.957624058121910426e-01
-2.523483882695012892e-02 -1.480550429809902591e-01 -7.377610957395593916e-01 7.604082389332350589e-01 -5.551878442100506295e-01 3.369655291032785938e-01
-1.241823061523495038e-02 9.973046465897188184e-02 -6.027183522075212352e-01 9.176288808761802196e-01 -4.338063052076299164e-02 -3.950637390061890741e-01
-2.494287839936423432e-02 -2.213199906665849412e-02 -6.678757121599029345e-01 7.023517848051642476e-01 -2.038920155813079005e-01 6.820044108091909418e-01
-2.571809662120489934e-02 -1.530028410223236712e-01 -6.449976762318671009e-01 -7.368240282991751489e-01 4.215979803059873854e-01 -5.285314506468736795e-01
7.957411608392856231e-03 -5.538498729939278498e-02 -7.303488218125010478e-01 8.322399802337442365e-01 -4.376575747872812339e-01 3.403416849753384543e-01
3.653278939842402595e-02 -1.221368557918615649e-01 -8.369499849196824215e-01 4.508010528704201603e-01 -2.266518398930551792e-01 8.633697667882594962e-01
4.096223826096907772e-02 -1.751851598651419928e-01 -8.109468629994288635e-01 -9.145649531062495230e-01 3.694209644697357686e-01 -1.646180353424672449e-01
-1.968286747021606026e-02 -2.074080529640562054e-01 -7.862237095505176798e-01 7.831842590757723821e-01 -5.482794786545027721e-01 2.932780755908632742e-01
-2.161611433921701436e-02 -1.285362793419541350e-01 -6.282391245389693513e-01 -6.461344525405842143e-01 2.844074685181356421e-01 -7.082532464388604510e-01
4.880097469427033957e-02 1.308361756459234249e-01 -5.613008543811582873e-01 -5.510862281470639834e-01 7.091577457675991569e-01 -4.397718280704888127e-01
7.262545387745371860e-03 7.215872855290174359e-02 -6.734975232317409466e-01 7.143786397644736885e-01 -6.265176309575239966e-01 3.116710078714928778e-01
5.033533268850946124e-02 -1.548382319849112010e-01 -7.958671306641031951e-01 -7.602064545088772496e-01 6.185463820969440141e-01 -1.987121529193010550e-01
7.667325034772641545e-02 1.688291325683773658e-01 -5.315065087361273699e-01 -7.383432646924299458e-01 6.627107759898039907e-01 -1.251545079903881863e-01
2.482854136885465079e-02 7.743323235036174423e-02 -6.988674679669897305e-01 5.663287711415733172e-01 -7.604928302130242734e-01 3.176828263722481505e-01
4.434214808326335938e-02 -1.088312923274256105e-01 -7.047202865968141827e-01 -9.940998639479067256e-01 1.024606867235729885e-01 -3.559871029808795578e-02
-1.381765685905383999e-03 -2.520924251139561867e-01 -8.412570359262120379e-01 -4.434096281290841324e-01 1.687095757177745625e-01 8.802982339773014475e-01
6.378481671689424648e-02 1.826770387612595137e-01 -5.059776331359541190e-01 4.720664578968374048e-02 6.695423907516404594e-01 -7.412722304119216954e-01
-4.716092841838534500e-02 -1.797299264071867131e-01 -7.316932825557838083e-01 8.364232158799593808e-01 -4.814073813610199037e-01 2.619983532546574789e-01
-2.440256821328847664e-02 -9.254433785053517436e-02 -6.976028369828050080e-01 7.770983843524018608e-01 -3.155016783730328345e-01 5.445886447408594400e-01
5.183079834861354686e-03 -8.154928516894791035e-02 -7.442135497633827201e-01 9.202784260805741967e-01 -1.431491726772279871e-01 3.641372445280576797e-01
3.566619485606449536e-02 1.566203295241525573e-01 -5.948445509144365539e-01 -2.940427288658374327e-01 -5.444031347978874891e-01 7.855979254194633832e-01
5.619204628163546045e-02 4.903422787500543584e-02 -6.877347712488131037e-01 -8.776563326027290168e-01 2.103148465770448769e-02 -4.788288196165941812e-01
1.422253313139452621e-02 -1.641913659509838530e-01 -7.024847179834609046e-01 -7.506197916963113226e-01 5.264932415990103420e-01 -3.992177286448490570e-01
4.673566868253856837e-02 1.994478378813823241e-03 -6.721668032273239168e-01 -8.963910062575820570e-01 2.127129041324530012e-01 -3.888912242723628343e-01
6.199556472957936520e-02 -1.227117178805211678e-01 -7.849442433964243238e-01 -9.913977820880391922e-01 4.315078746465248610e-02 -1.235655583570808846e-01
5.880032638641514986e-03 7.747424516851050824e-02 -6.558112592178718669e-01 1.802935394875407604e-01 -7.633834588223530337e-01 6.202740800770862872e-01
-6.163717976664676024e-02 -4.682164416666009105e-02 -5.674452278822497142e-01 3.497482495374375500e-01 -5.941592082017745774e-02 -9.349577050854165350e-01
2.335174456393871584e-02 -9.612967721516298136e-02 -7.941370414967190428e-01 9.239665668187971859e-01 -2.204734961270110316e-01 3.125335516494480159e-01
3.667324039712836770e-02 -1.623489757957814195e-01 -7.276994922217238093e-01 -9.305982603606464121e-01 2.632518295139585351e-01 -2.543331517346730242e-01
6.640618007944119883e-02 -2.725508560266259525e-02 -8.188891804508366956e-01 3.476723500735360434e-02 -3.765856335001895872e-01 9.257291720644890143e-01
-4.594818888984889688e-02 -2.595280220446169461e-01 -7.625456010983697741e-01 4.556316759268752570e-01 7.033654961711127696e-01 -5.455976124288225426e-01
3.330911523239066252e-02 -1.266426567265690195e-01 -6.934667795655335976e-01 -6.973351709016354372e-01 2.890149844674904100e-01 -6.558917579729470759e-01
2.960133049100976098e-03 -2.114957254819888055e-01 -8.425010325802091415e-01 -2.297204719466710288e-01 -5.305500460567642573e-01 8.159320764608806176e-01
1.557510529305049067e-02 9.032242637897641702e-02 -5.871328362222214547e-01 -1.000772864575428384e-01 5.336936211492623316e-01 -8.397354675609949304e-01
-6.340252124962529601e-02 -2.177398760186215754e-01 -7.127443867907711228e-01 9.386324194676618493e-01 3.414661673560786537e-01 -4.868303272633903167e-02
5.189845073161929861e-02 8.637226228204068074e-03 -6.778096971542311167e-01 -7.615666024978952064e-01 5.173154918780150657e-01 -3.903856962323545843e-01
4.089531571054702552e-02 1.869863116078635534e-01 -5.658485652864599924e-01 1.890246774762352200e-01 -7.718269934484708328e-01 6.070854663795695050e-01
-2.684311026545979986e-02 4.711331557312195550e-02 -5.980810045625750693e-01 6.620079855175334815e-01 -6.292199033820139453e-01 -4.072195234746807668e-01
5.127086542474713210e-02 -6.891584330662607616e-02 -7.039056701227199841e-01 -8.887028762734401344e-01 3.077941752424183108e-01 -3.398086864548263697e-01
-5.854684441633468267e-02 -4.586193630428873208e-02 -5.664190197054508324e-01 2.408935401505764018e-01 -2.868842179971268364e-02 -9.701274538782853618e-01
4.833929173780483063e-02 1.733935259716374022e-01 -5.168173672296382248e-01 3.905082011648332019e-01 4.750779443762350174e-01 -7.885456813592077729e-01
6.802604264289664748e-02 1.257756864693849140e-02 -7.930467160316904129e-01 8.383585393934224195e-01 4.444858477159543964e-01 3.155745404913975483e-01
-1.485793639790901344e-02 5.588038842925697330e-02 -5.984888075677934349e-01 2.489380586214026414e-01 -5.821957411728028164e-01 -7.740012673956407907e-01
-6.872858874698507814e-02 -4.810337759336069663e-02 -6.067520055868853568e-01 2.838551038208410038e-01 1.689301931105284815e-01 9.438690957386512981e-01
2.056494799904283119e-02 -8.947376485670574531e-02 -7.825122768692216457e-01 8.953506515082596540e-01 -2.418535788148399313e-01 3.739706636331103784e-01
4.117499850282200363e-02 -8.807827526956674147e-02 -6.800345425764936502e-01 -7.525506011009507334e-01 2.984786852790822786e-01 -5.870077233024011409e-01
-2.437648226157156095e-02 -8.315935386804497453e-02 -6.066454477358764752e-01 -7.575734380782738198e-01 3.507585510657868499e-01 -5.505006128720419945e-01
-7.841076088629034269e-02 -7.058218943424773850e-02 -5.976099576466910035e-01 2.794320449403916995e-01 3.503185942188647983e-01 8.939768536181177394e-01
-1.047723474947035230e-02 -1.961335765278690302e-01 -8.238600579369724786e-01 -8.461844082145507373e-02 -9.095864944351165216e-01 4.068072376619936148e-01
-1.101875997226756110e-02 5.083310212208890649e-02 -5.951328897690170150e-01 -2.653536574995232766e-02 -4.020015179570353703e-01 -9.152544203251662402e-01
-1.466815622659719230e-02 -2.097689854382277230e-01 -8.399890953576838459e-01 5.656051103386365853e-01 -4.272808638649559509e-01 7.053523392841589690e-01
4.353516810517597119e-02 8.131879765811324268e-02 -7.060886659742970917e-01 -5.499391427559180423e-02 -9.815884688921209245e-01 1.829200566659398286e-01
-3.589970266570670365e-02 -2.510895437327308466e-01 -8.142994697419889683e-01 -4.214527125902788884e-01 -3.839609109424509392e-01 8.215543986362310314e-01
-3.833210274294836066e-03 -1.871823344661729949e-01 -7.032512881139655336e-01 -7.136680326942825836e-01 6.272257224921238272e-01 -3.118747058587886256e-01
-4.510464844962254471e-02 2.138911559024351400e-02 -6.194609205844304745e-01 8.366501349466547444e-01 -4.092431718152628184e-01 3.640557347664337695e-01
1.711922009811711262e-02 1.543292969496538325e-01 -5.952119741182300139e-01 3.758824845656842939e-01 -7.189511773121882721e-01 5.846550798874036170e-01
8.785966297412489689e-03 -5.128488233136661856e-02 -7.119420797184509153e-01 8.484691125844204818e-01 -4.016296171283431637e-01 -3.446647873449603106e-01
1.534596685220204759e-02 -1.652456583935755507e-01 -7.057801663135896408e-01 -7.313761281165469530e-01 5.453878245047881768e-01 -4.094399590943498257e-01
-8.403891223071155436e-03 6.787121500117805628e-02 -6.080357232340954932e-01 7.404275377822744364e-01 -5.822601185087332709e-01 -3.357680980794255365e-01
4.244446110550736256e-02 -1.072862888703639273e-01 -6.931748664277860295e-01 -8.777979575564767156e-01 2.883412781078789067e-01 -3.825311138310096837e-01
-5.842650935820833252e-02 -2.349804645959604754e-01 -7.347901264770180241e-01 9.066166947522783515e-01 3.976288744321284652e-01 -1.412000248381455325e-01
-3.391203784407414296e-02 -2.492693958351654415e-01 -8.315105118753348679e-01 9.641290684822343415e-01 1.187867102814021553e-01 2.373707159025758295e-01
7.368194308559737615e-02 1.646083463482483078e-01 -5.362090875809538693e-01 -7.383432646924299458e-01 6.627107759898039907e-01 -1.251545079903881863e-01
5.248277444297719946e-02 1.664844606816401895e-01 -5.795656331503553638e-01 -5.643391411982492389e-01 -3.673317968573215353e-01 7.393163630876797843e-01
-5.693482721489665638e-02 -2.344056048827705685e-01 -7.257867358788003820e-01 8.485772237645906602e-01 4.818045411919983922e-01 -2.185888363909464505e-01
1.965600339402868079e-04 -1.814033091921218865e-01 -8.331049775832699567e-01 6.190907696262905047e-01 -4.114150175974988222e-01 6.689277257363289708e-01
1.371905013397384070e-02 -1.852435941277032483e-01 -8.413004623573094864e-01 1.388854232328634308e-01 -1.899188296575255730e-01 9.719267860054812136e-01
-2.199656438234551606e-02 -1.351092201541949089e-01 -7.175485878792813299e-01 7.545754864714064869e-01 -6.326164669177350985e-01 -1.743910576863466066e-01
1.811165978074959909e-02 -8.317997489059907046e-02 -7.730436869611230222e-01 8.703254829192416109e-01 -2.708747169495002716e-01 4.112911882096634275e-01
4.758618168017850203e-02 1.220206521016995865e-01 -5.818487040809298128e-01 -8.718767310006347859e-01 4.874703805266270007e-01 -4.694245465324790867e-02
1.485185161750008330e-02 -1.226368297472714419e-01 -7.836866425233385280e-01 3.875814947358189322e-01 -8.528448958895491483e-01 3.499088002515688411e-01
-1.748785890768889476e-02 7.743256234584393327e-02 -6.525104958142033951e-01 5.449177720142406312e-01 -5.418670833444305668e-01 6.398786492225193578e-01
4.161089606530822549e-02 -1.529648158956573856e-01 -7.511186963267509897e-01 -8.921063848431873833e-01 4.103372078595801109e-01 -1.891284589056402843e-01
3.375495241701818167e-02 -1.916642514497569061e-01 -7.793319764750341605e-01 -9.197053373603947257e-01 3.409593782040216126e-01 -1.946504427057110242e-01
4.944303283307057567e-02 -1.437760021257064869e-01 -7.621634329435891253e-01 -7.946979554719997285e-01 5.656863675985757123e-01 -2.201229044914519706e-01
-2.435072886151388658e-02 -2.121729805103121369e-01 -7.889029977204704558e-01 -5.274098068456494620e-02 -5.804126201130497265e-01 8.126128102423288979e-01
6.774413708532316114e-02 -1.099859762863812512e-01 -8.286422675217348655e-01 -8.995017442260389018e-01 1.675238956941923207e-01 4.035249143556755014e-01
5.362245702246797724e-02 1.910027074951283627e-02 -6.761359038374978869e-01 -8.736855637929054064e-01 -2.068590565261936576e-01 -4.403213217105957367e-01
-6.687623884369453065e-04 -1.582690223461398760e-01 -6.767611299409062031e-01 -3.487568874448591649e-01 7.957674725439414787e-02 -9.338287716472351008e-01
-2.795829537189097047e-02 -2.568153618350852985e-01 -8.142828576202169044e-01 8.311327877288197941e-02 -3.331269234158185655e-01 9.392117097796067737e-01
3.383636056687024107e-02 7.441828223575010226e-02 -6.376988859979859647e-01 -9.990801952780619111e-01 1.441269997575510275e-03 -4.285657643750304113e-02
-1.416202272217640008e-02 -4.475154898232048400e-02 -6.953008208973808779e-01 8.645766561270818995e-01 4.118478601516289417e-01 -2.879037091956926919e-01
-5.801751565774356661e-02 -3.655386349205096835e-02 -6.239052591080254118e-01 6.957303693057229621e-01 -6.721570317360535674e-01 -2.533064900737849179e-01
1.103976751084008098e-02 7.751592733424426084e-03 -6.168591968769012723e-01 -6.698414402936140322e-01 4.523476020353497246e-02 -7.411249971055526853e-01
2.849242573297908199e-02 -8.698456525559104813e-02 -8.016730306802162254e-01 9.055294933107398414e-01 -2.906745598775007933e-01 3.090706019413947958e-01
7.965039264391694795e-02 1.903127640036908763e-01 -5.430485164833991352e-01 -8.392532350809487340e-01 -1.886632883962090571e-02 5.434133500773393743e-01
3.922371948498915711e-02 1.321614743880989984e-01 -5.529873947384702504e-01 -2.813122044340876649e-01 6.979343728704027194e-01 -6.585977944105430026e-01
5.429596810918938671e-02 7.115468184452348153e-03 -6.846844042112802953e-01 -7.912920757488848267e-01 4.723808480327620352e-01 -3.882179610333217346e-01
-1.783689616576984022e-02 -2.034536230182819871e-01 -7.039397290803366403e-01 -7.316139087869327762e-01 6.406351683611003489e-01 -2.330829670491820493e-01
6.104106526430507634e-02 -4.381169593682125024e-02 -7.170565606124938984e-01 -9.254982454381763812e-01 -1.397861782123708263e-01 -3.520125311287030656e-01
4.845485571571666455e-02 -1.605351283218659497e-01 -8.066275458756100303e-01 -7.626246555106727110e-01 6.177291434887202115e-01 -1.918706337403403295e-01
8.931091537918246781e-02 -4.540335353908103722e-03 -7.925220126485437167e-01 -9.716671490723579607e-01 2.350532750534945758e-01 -2.475700507376133244e-02
-1.291352352102487742e-02 -1.615293488359027252e-01 -6.680683083932168476e-01 -6.701862593693466152e-01 3.929383603343745701e-01 -6.296426150843479341e-01
5.654127120140598969e-03 6.519772171435901133e-03 -7.118036680401967908e-01 8.986553182995473676e-01 -1.746351121348179158e-01 4.023943296091519461e-01
8.345781824418802008e-02 -4.126045752827305069e-02 -8.085384422269448201e-01 -9.996062699378338579e-01 -2.731740900676957531e-02 6.408140613907045528e-03
-2.474375644110797176e-02 7.345944984357985486e-02 -6.432141685201990811e-01 9.415486650285544989e-01 -2.983015688118311748e-01 1.565320587846054934e-01
2.913763461730013021e-02 -1.027825348564109648e-01 -8.174530773210724188e-01 8.669357208383919877e-01 -3.005917224109762032e-01 3.975764987425952079e-01
3.286414967124517972e-02 -4.992100084455410730e-02 -7.650402523067504346e-01 1.688857194282457896e-01 -9.428231151678153621e-01 2.873363660911378292e-01
2.048131523875811738e-02 5.387842980654829368e-03 -6.241419457507531021e-01 -6.191411253485646915e-01 5.450247811892754840e-02 -7.833860777298821132e-01
-3.699217960803155569e-02 -2.135530146929278117e-01 -7.931659323488651214e-01 2.249915168522589881e-01 -6.958441262581341880e-01 6.820408853555434137e-01
-5.622898510634602616e-03 -1.959302191499044388e-01 -8.231166508927793002e-01 2.676445672610837101e-01 -8.701650777985786567e-01 4.137379883397473423e-01
8.198141092830485421e-02 -2.111326006460629776e-02 -7.824804264601683546e-01 -9.794463221894283977e-01 1.674967488950726280e-01 -1.123821207273803524e-01
-1.016157650011067365e-02 -2.849768749146243674e-01 -8.354228877329499259e-01 -4.745648252091488328e-01 1.929422329087158161e-01 8.588140202828600245e-01
6.489833468343775280e-02 -1.218309934734435607e-01 -8.097560858424648345e-01 -9.649338131221887327e-01 2.440167157673076570e-01 -9.673974736172268052e-02
-9.263719434320603907e-03 -4.721747543020854421e-02 -7.039387949825518520e-01 3.585216066250619393e-01 -1.152898877278671214e-01 9.263749237596407005e-01
5.097732748552512294e-02 -8.263969687190413083e-02 -7.146401131786993544e-01 -9.377158976711451599e-01 2.058032525052608808e-01 -2.798819688959156560e-01
8.454409530742972023e-02 -9.474108814635876299e-03 -8.071862785259572570e-01 -6.317674237147542504e-01 -6.062646513099311657e-02 7.727835104727214244e-01
4.298225206001200782e-02 3.260130215364589329e-02 -7.695717012035180327e-01 8.339819960078140859e-01 8.026061491439309692e-02 5.459233133219221212e-01
-1.562369216961914664e-02 9.217866405566273180e-02 -6.378065652207123293e-01 6.842665755117922632e-01 -6.300165180949084398e-01 3.672307729002742271e-01
-2.468747346295697281e-02 1.349430342193649358e-02 -6.504307306604647509e-01 9.766450144223621788e-01 1.195278115282682185e-01 1.785430426401614368e-01
3.895341142626286557e-02 -4.322522493088681861e-02 -7.978705587846592895e-01 7.624837624271556535e-01 6.449057023222719565e-01 -5.210707386858399320e-02
-3.677821326855096329e-03 -4.308465768190213735e-03 -6.035306373664158786e-01 -7.368229289826457862e-01 1.193819414733582468e-01 -6.654621877879213221e-01
5.094807226072766218e-03 -2.602925574918995566e-01 -8.243168715449527006e-01 -9.453398955458364172e-01 3.239540007210727213e-01 -3.723287937023218863e-02
-7.336795428921895346e-02 -6.663002274678514469e-02 -5.757268549532451596e-01 6.928841666541090127e-01 1.051754475796227994e-02 -7.209721997777064351e-01
-2.448237257219612606e-02 -1.097662656703475292e-01 -7.060655822262715819e-01 7.323947597189662817e-01 -2.920070481213785096e-01 6.150851971748599878e-01
4.663587139409008930e-02 2.526975917718495696e-02 -7.698174127676541412e-01 8.321864602633978203e-01 5.033068789243128061e-01 2.326969724378542825e-01
8.027200170911617805e-02 -3.622881060340492343e-02 -7.832235028051585113e-01 -9.875154112592385847e-01 7.759840324854760940e-02 -1.370831876590732357e-01
1.219720280295606002e-02 -7.549569468681555096e-02 -7.565153763913718965e-01 8.720915565707918482e-01 -2.459232306001091772e-01 4.230580121084328016e-01
-3.080428195701059163e-02 -2.774544293405604711e-01 -8.266043349929971251e-01 1.649089612556218776e-01 -1.543924746976489404e-01 9.741498849018707107e-01
1.637345785240497311e-03 -1.725963421206761494e-01 -6.868634719926213217e-01 -7.933820649809475434e-01 5.733328436472445722e-01 -2.045344698624944890e-01
2.534649251435160816e-02 1.077745376188711940e-01 -5.740234755022979307e-01 -2.114640736450117409e-01 7.016947811529553602e-01 -6.803729709947062831e-01
-4.660836650416429194e-02 -1.950306612228825676e-01 -7.562016625815376480e-01 7.645495341774283249e-01 -2.315978767397586235e-01 6.015201021401637149e-01
-3.295866269709978470e-03 -3.643413015752234446e-02 -7.007669971868543124e-01 -2.177745006471598910e-01 -2.421806934749015372e-01 9.454748957935880105e-01
-2.827954028307457651e-02 -1.788947046025489984e-01 -7.560911092983682025e-01 -4.180158586282892719e-01 2.093142246628453551e-01 8.839967744788700399e-01
5.620391349155362364e-03 -2.555964796372680037e-01 -8.107345087839017417e-01 -9.485018016791363360e-01 3.133904222869256517e-01 -4.616032311688014061e-02
2.449055022644613250e-02 1.745099267153281120e-01 -5.738422182196873944e-01 4.757798387906687632e-01 -7.551666629403102071e-01 4.509510574152378326e-01
-2.630455552327019830e-02 -1.733666957284284993e-01 -7.567275134593166586e-01 -2.743501537720591243e-01 2.033971465340309037e-01 9.398731796934423066e-01
5.940557022223898892e-02 1.434324790775609038e-01 -5.626225371658030161e-01 -8.739399583529448012e-01 4.853819470604723851e-01 2.516574381650340045e-02
-5.708903113468138946e-02 -1.225165757275673978e-01 -6.549556755050992551e-01 7.909961505704645734e-01 -5.190090268079697866e-01 -3.239671586357963373e-01
3.670631018216829328e-02 9.447257736724344601e-02 -6.127922476723369760e-01 -9.866690198285874569e-01 9.328955610905996509e-02 1.333465561290171630e-01
1.367454301658389652e-02 -1.566218101443432875e-01 -6.900261647906246187e-01 -7.779849952421660220e-01 5.173736136192922386e-01 -3.564602237397069828e-01
4.563115849380602884e-02 6.513973074076068182e-02 -7.403624590482031920e-01 3.434059241511199789e-01 -8.004452063731226641e-01 4.912838719642688701e-01
-7.399419198126733210e-02 -9.844798870457931173e-02 -5.794301504024831351e-01 6.064318449580041737e-01 1.131737771910360374e-01 -7.870400965498167700e-01
1.320731339359597876e-02 -2.359740844594300224e-01 -8.090090860517392679e-01 -9.131067806223678307e-01 4.018657295015381492e-01 -6.884724129296358741e-02
-5.268505880230708177e-02 -1.043735884791760216e-01 -5.869724536449247854e-01 -6.351110716622457852e-01 5.986295697963250895e-01 -4.881358057113824311e-01
-1.673756770861791962e-02 -1.317816500300249549e-01 -7.297919374166845774e-01 8.124667994523254722e-01 -5.341626621128235941e-01 2.335978385863966833e-01
-7.425260745129666495e-02 -1.320117153325516268e-01 -5.977199784301492347e-01 3.027314743468190184e-01 5.136765030338709126e-01 -8.028014104812564167e-01
-3.608796189617750200e-02 -1.392062408436001153e-01 -6.222188311755411094e-01 -4.729183061918206255e-01 2.888204582115924679e-01 -8.324247825402035783e-01
5.962913526932042685e-02 -1.454227523258498113e-02 -7.090354409740482478e-01 -8.997777378040370255e-01 1.579168974184134711e-01 -4.067705447325211665e-01
4.047532358829267901e-02 -7.399443174164808956e-02 -8.142518968705538818e-01 6.789168541946407620e-01 -4.716151560461367409e-01 5.627175576415145430e-01
3.315412449553350929e-03 -1.014985284532528703e-01 -6.436549502135239242e-01 -7.788742526830814139e-01 5.804622604556312071e-01 -2.375257095434308852e-01
2.031735084586054618e-02 -2.261831597659684501e-02 -6.364985450038537218e-01 -7.121082939448535321e-01 2.678866557017519079e-01 -6.489518606120804334e-01
-4.633157254307365691e-02 -2.583318461933661325e-01 -8.156296835263887601e-01 7.461289243190056819e-01 -2.574800500423717400e-02 6.653034409447056152e-01
6.554101097605422033e-02 -2.291629974695077662e-02 -8.169202945746761868e-01 9.782787464671530153e-02 -4.276114350117656282e-01 8.986535303381861794e-01
5.229301747069585449e-02 1.940955722386670246e-01 -5.046122095309292233e-01 5.627852384934415308e-01 2.118437704310705549e-01 -7.989962404563791809e-01
5.247789418223205993e-02 -1.486169350675840550e-01 -7.847947899557629059e-01 -7.391375390679685298e-01 6.320187699763908373e-01 -2.328690033861891551e-01
-3.542545810783580273e-02 -9.151613663052021730e-02 -5.972878923906713711e-01 -7.392594838936242807e-01 4.654433124341894046e-01 -4.866805301053475086e-01
-9.315450571223951245e-03 -1.348174197229393412e-01 -7.365300349459673601e-01 3.546723201845836809e-03 -6.027553785248980223e-01 7.979181501970213919e-01
-6.787794266544980304e-03 1.012686629712985092e-01 -6.369721390773318559e-01 5.664529076932356411e-01 -6.623238113240877967e-01 4.903654477214036689e-01
4.237749245935258646e-02 -4.820188870443734702e-02 -7.787888847182473651e-01 9.585500634519047436e-01 -1.351995127655859219e-01 2.508044409580845735e-01
3.814559892673802244e-02 -6.774482674233069102e-02 -8.046277198449789392e-01 7.501170927990558068e-01 -4.610410079887776735e-01 4.740944378954309313e-01
2.800511921689924008e-02 1.865625173255672509e-01 -5.531476815025146987e-01 7.951151324966829748e-01 -6.059527468751932933e-01 2.476276699382233201e-02
-3.934609146634256843e-02 -9.535752648749917793e-02 -6.718750458869818809e-01 8.551637431831442537e-01 -4.163456708013976160e-01 3.087899848601438069e-01
-5.756372071399970536e-02 -2.391264729735721739e-01 -7.416597786316648788e-01 9.391107232567844632e-01 3.390567962281795245e-01 -5.578116524062679688e-02
-1.760709335917202273e-02 -1.835398788651408097e-01 -7.976745079563341001e-01 1.215716993759372866e-01 -9.076540914592473586e-01 4.017267381792440917e-01
2.657639076527740229e-02 -1.188796661706017638e-01 -8.238168667538973144e-01 8.544155166023450487e-01 -2.926572590527674045e-01 4.293318689695296286e-01
1.024934065733830446e-02 -4.916768466402148680e-02 -7.268986115014109961e-01 5.794638540566870999e-01 -7.241485232110017600e-01 3.739392439596247453e-01
3.035279603949794444e-02 -3.557109117344251642e-02 -7.695536267016858112e-01 5.320107060593224357e-01 8.424481352381227861e-01 8.512195998724916834e-02
-2.173426306838915564e-02 -2.152385408372153586e-01 -7.934292958301802923e-01 8.065191552863644198e-01 -4.452926559971464582e-01 3.888975477824154203e-01
8.929004998521829217e-02 1.949323864479699797e-01 -5.094694592266804101e-01 -8.515185650070310475e-01 1.070533413480696389e-01 -5.132793737864207451e-01
-7.519779167626379490e-02 -1.723108546480933978e-01 -6.498252188456676848e-01 9.525599142016980547e-01 -4.390526731920263437e-02 -3.011676233556370708e-01
7.600090551936876382e-02 -1.392263590004811855e-02 -7.481185420691902621e-01 -8.901890814104556071e-01 2.975055993670777665e-01 -3.450417622300885889e-01
5.411143447742909791e-03 -1.744260566147076419e-01 -7.003185655397996534e-01 -7.057200067150405376e-01 6.075269258465300082e-01 -3.645137946547260532e-01
-8.066174293384553717e-02 -1.563195272905860689e-01 -6.375328863524201140e-01 6.941919797697417849e-01 1.073775826823578500e-01 7.117355899213273496e-01
-7.946634218636061675e-02 -9.293994028036553501e-02 -6.297637439753029920e-01 8.990962656476791937e-01 -1.844032840077188540e-01 3.970155336325851825e-01
-4.067014898950172680e-02 2.194200632989334182e-02 -5.813658830958887691e-01 4.773179248741477032e-01 -5.499231647622855323e-01 -6.853846448904948874e-01
6.478329645465447095e-02 1.908304640083473835e-01 -5.001828583977721010e-01 1.889519405565343591e-01 4.867322651118466958e-01 -8.528709552206659161e-01
8.138170662461052807e-02 -7.262197591572175370e-02 -8.029270362233084102e-01 -9.878181970031312265e-01 -1.378038510472996414e-01 7.228629403985552260e-02
-7.551917900750043135e-03 -4.450360165910757088e-02 -7.033327893868673852e-01 -9.117407296380998505e-02 -2.282137400985110587e-01 9.693326453026531730e-01
4.589917507998596269e-02 1.263429843372025629e-01 -5.649114983971211812e-01 -5.562808982518059331e-01 7.084565413251179278e-01 -4.343280917622245885e-01
4.429909954152512486e-02 -7.570975374927682577e-02 -6.797542550151993712e-01 -9.250584993262584987e-01 1.617379714879346175e-01 -3.436678649557138865e-01
7.595087725803341405e-02 -9.322904277282226260e-02 -8.177784231552879257e-01 -7.861677474582005054e-01 5.806107595353939832e-01 -2.117343117405208475e-01
-3.468944989001271351e-03 2.554288940682259562e-02 -5.997332965672113048e-01 -7.371960120134319894e-01 6.691497859161671391e-02 -6.723573644361868773e-01
