-5.285683089071722962e-02 2.517983634740276755e-01 -6.983006998649010644e-01 1.964493552561670520e-01 -2.811937755424888663e-01 9.393283299334671543e-01
2.065652178415909937e-03 1.380182865470551135e-01 -6.656367758265343548e-01 -7.077229976251043775e-01 -8.723909007370052662e-03 -7.064361627522812714e-01
2.830330547354449611e-02 6.251273444431634622e-03 -7.330566627437292704e-01 -4.544866076697602342e-01 8.914455713092728217e-02 -8.862816546576851584e-01
-2.287485261239073989e-02 -2.493712013310385722e-01 -8.579421517772733985e-01 7.417934952076514765e-01 1.056753971092165784e-03 6.706275372654039169e-01
8.187263662591642843e-02 4.365907536344085238e-02 -8.046894928716897821e-01 2.783177672497679223e-01 -6.161913840109314311e-01 7.367817849972927435e-01
4.207724493546999983e-02 -2.244347554458893390e-01 -8.362369091267396470e-01 -5.500201635875255901e-01 5.577719622099088642e-02 -8.332866997791795738e-01
1.403035331792494263e-03 -2.998919341191947363e-01 -8.886443896133194853e-01 8.850624272166098816e-01 1.769992181978954637e-01 4.305064188682635740e-01
-2.393857684033848937e-02 9.960909089979419484e-02 -7.158552762091285881e-01 7.049600484782535537e-01 -2.256377463673790995e-01 6.723979011446933329e-01
9.040934262634443830e-02 3.696552607855774913e-02 -8.126311574126381387e-01 8.220187570167848679e-02 -6.266031703769178174e-01 7.749911731785862345e-01
3.242079083381249616e-02 -1.135236704885932979e-01 -8.206812747581493372e-01 -1.658967825128816465e-01 7.331711939911504938e-01 -6.594984896521479678e-01
5.033784311009669582e-02 -2.753964540049255380e-02 -7.656251075430334785e-01 -3.499686133635220853e-01 5.265710008573052381e-01 -7.747547681147560761e-01
-3.094374158612291786e-02 1.360374196897164434e-01 -6.644267733885511618e-01 6.515107027970653553e-01 2.329729951599370519e-01 -7.219815701713460099e-01
-5.344807544475793648e-02 -2.403698949745424474e-01 -8.084013850015190350e-01 5.440148344304510664e-01 7.337181794578089278e-01 -4.070693958684776792e-01
8.390467782129118479e-02 -1.422178988635523222e-01 -8.844690591838817451e-01 -3.443863877666508699e-01 3.731861373245983979e-03 9.388205841009925612e-01
9.729380873233493821e-02 -1.857919658650626984e-02 -7.856125932327497896e-01 -6.308057506350585042e-01 3.139501552937162265e-01 -7.095910124549154041e-01
2.498665415147940591e-02 -2.804524078783624530e-01 -8.599427556745591339e-01 5.507743841579387789e-01 4.621707309882571724e-01 -6.950149589564409425e-01
9.733900919609592139e-02 -9.795400122341421656e-02 -8.403569359794699212e-01 -7.385179483366198783e-01 1.322015726396448820e-01 -6.611459628374618536e-01
-4.892778527884612816e-02 -1.744971525491217368e-01 -8.263112829396337400e-01 6.343969221552934190e-01 3.278748530604549613e-03 7.730005142093786530e-01
9.750664677796234969e-02 -1.499093846839638818e-02 -8.437293502051963490e-01 2.895760871248839186e-01 -1.867292564184261927e-01 9.387640143097003564e-01
2.054122812442431625e-02 -3.701798494317509736e-03 -7.194735987159330826e-01 -9.506679423491202208e-01 2.489213581417724641e-01 -1.851178566496093636e-01
3.872002451772334902e-02 -2.738108042117443075e-01 -8.545259766119589484e-01 -6.424548572759614107e-01 5.759627992919709172e-01 -5.054884867079375566e-01
-8.884009705775081089e-02 -1.439647660142857333e-01 -7.379123077329082792e-01 -1.107285545252201242e-01 2.021255836565534481e-01 -9.730798711535723067e-01
-1.655007132711189960e-02 -2.192459494272995524e-02 -8.003937909824848651e-01 3.151656485218453096e-01 -6.516224496702852642e-01 6.899701421637759458e-01
-9.170072907427244402e-02 -1.936379429641948979e-01 -7.821904142255455827e-01 8.829558740640884862e-01 2.879237083426191557e-01 3.707949064239635106e-01
8.532047311017144919e-02 -4.640450249588222442e-02 -7.937275861549973888e-01 -4.205348249059220334e-01 5.355324164583612490e-01 -7.323629509769139512e-01
7.458849172143082462e-02 5.875804384615392062e-02 -7.473081624726529704e-01 -7.619116659216315091e-01 -3.650917854430764109e-01 -5.349753279680390383e-01
-5.458283767897430944e-03 -2.032789191734945267e-01 -8.726524154842005832e-01 1.377204104418906783e-01 -2.230258618661738468e-01 9.650350011717543364e-01
1.042982596695325899e-02 -1.150042449573698000e-01 -8.033040039997665360e-01 -2.907226517837985247e-01 -5.989215617178355044e-01 -7.461724349299329040e-01
5.651392750146008032e-02 -2.429239129968728539e-01 -8.540652358850187031e-01 -8.667774749894161523e-01 2.976946093324790432e-01 -4.000933996273305926e-01
-3.159082780669864813e-04 8.636527395112855721e-02 -6.696136101228981063e-01 -3.050121807656685502e-01 7.923245209783985610e-02 -9.490467786780242276e-01
-2.402715413948803072e-02 -2.733841478077577714e-01 -8.465151388674668764e-01 8.074098655381592993e-01 5.662144571892471223e-01 1.658025859313956019e-01
4.779007971741543181e-02 -1.315685540413306931e-01 -8.807991750119387175e-01 4.042568624778722364e-01 -6.639573236229994943e-03 9.146213999282913898e-01
-3.810632433857891882e-02 2.251827225582902214e-01 -6.522871013032430776e-01 -3.034433634891278014e-02 3.367015663457308128e-02 -9.989722427594008858e-01
-4.652601719417644166e-02 -1.461012666404451210e-01 -7.609676466924502058e-01 -6.528368547637167785e-01 3.361804876098894446e-01 -6.788127288233440915e-01
-9.150063099498588134e-03 1.152153436465092190e-01 -7.140353876557643531e-01 -4.508352444802220943e-02 -3.414792218252054590e-01 9.388074439867829524e-01
-2.757963205740755069e-02 -7.749881772123749790e-02 -7.493096262669476371e-01 -3.856823959880755215e-01 -4.846646295788532843e-02 -9.213577434380465503e-01
2.975523048734449519e-02 -5.332581081430828873e-02 -7.834693944839893343e-01 -5.228978748796718756e-01 -5.961015726158976902e-01 -6.092952712529259296e-01
-4.571436355990043943e-02 -1.131085579321102624e-01 -8.249211348021298074e-01 4.427938977769870776e-01 -2.650233352665674891e-02 8.962316611284746326e-01
-1.228433209931492458e-02 -2.375474515137843690e-01 -8.139040758331661518e-01 3.866829635843844204e-01 -2.191587291454433206e-01 -8.957933562563141772e-01
-5.424976807026137687e-02 -5.443367063789005672e-02 -7.859544994345641911e-01 5.233727617023065104e-01 -5.610560293851845487e-02 8.502547345513615795e-01
1.095408044766160716e-02 -2.475574299462512395e-01 -8.836634470470212666e-01 1.479249615596727463e-01 -2.228436993656211784e-01 9.635657172194400655e-01
9.674347010409603542e-02 -8.915165751450369880e-02 -8.396737779139741287e-01 -8.624279323808050624e-01 -2.031112610042186406e-01 -4.636419708165406828e-01
-8.496633900831396247e-02 -5.425524792395958196e-02 -7.461099273675940724e-01 6.818066562672641107e-01 -3.576901902470147609e-01 6.381202169424718962e-01
5.542948332055462612e-02 -1.853095300751906871e-01 -8.864088843302038168e-01 1.769251960271044921e-01 -2.291544956653732701e-01 9.571758940378299885e-01
-2.222335522243403666e-02 -2.760118414059495318e-01 -8.434821098243129311e-01 7.237826237804224627e-01 6.898782310687848751e-01 1.437844953157405362e-02
8.043099544615957275e-02 3.510029307641202717e-02 -8.107675111576193583e-01 3.122011087835732113e-01 -5.660722897426255784e-01 7.629499527884174848e-01
-1.106575709891553377e-01 -1.056557928074997599e-01 -7.399691173652841458e-01 8.470820323364383064e-01 -2.924769939214131864e-01 4.437445644956827806e-01
-1.109870082629790949e-01 -1.089261899587351534e-01 -7.414957964200561413e-01 8.470820323364383064e-01 -2.924769939214131864e-01 4.437445644956827806e-01
-5.433973389840662804e-02 -2.325551648902516103e-02 -7.594008808734884486e-01 6.789977847621062601e-01 -3.951572518918990973e-01 6.187186392581000005e-01
-4.625053009204850053e-03 -1.888443014348039906e-01 -8.204949465540080089e-01 -8.940521327799322293e-01 1.150372502053716023e-01 -4.329401978759206404e-01
-2.053845509302171246e-02 2.402693129133569583e-01 -6.666138301923324461e-01 -8.796763019014182117e-01 -2.426276153427280591e-01 -4.090249920801247163e-01
3.177887600887345509e-02 4.354213754782231688e-02 -7.774193252014228728e-01 4.021090767069969707e-01 -6.027202986339065260e-01 6.892289402255981079e-01
-3.981159962246409029e-02 -5.747437417563268022e-03 -6.803743549499684518e-01 -6.175304947849946657e-01 3.453498083722967849e-01 -7.066750298884331150e-01
-8.621316330581602072e-02 -7.871817557320859304e-02 -7.625300452301313481e-01 8.036185113082932041e-01 -4.689291391098984740e-01 3.664733970921926764e-01
-5.825620343466098028e-02 -2.964234503669454027e-02 -6.935287789435754524e-01 -7.006585744795006399e-01 3.397389846019188142e-01 -6.274193050504671687e-01
5.385032101915068065e-02 -1.619222112299914806e-01 -8.823138631154997524e-01 4.060153917749428354e-01 -5.292258895466438878e-02 9.123325606488981165e-01
1.038996532530940820e-01 -1.227860351425325292e-01 -8.678787763160950020e-01 -9.664914709537906212e-01 2.109069236132726510e-01 1.463301272655884722e-01
8.293243063175204099e-02 4.172973014391926500e-02 -7.525746447021746111e-01 -7.464191757783676939e-01 -7.413944710777324587e-02 -6.613333171804485211e-01
-3.499186239652407604e-02 1.322254385149525258e-01 -6.969061800027978038e-01 8.317332260524146204e-01 1.180074604799055960e-01 5.424887832495033368e-01
-5.048087865615302761e-02 -1.974803738231832584e-01 -8.265950806711118704e-01 7.307410277934033305e-01 -1.368512587898151334e-01 6.687968923874298977e-01
-3.586603138636003385e-02 -7.110719537845969218e-02 -7.313893925909039639e-01 -6.963975349221354083e-01 7.123505323149746937e-01 8.710449164621493490e-02
4.275358001911459122e-02 -7.398374036364852024e-02 -8.528422264894367499e-01 3.799201427133849784e-01 -3.569973012035434490e-01 8.533543297447009346e-01
3.777582748134488549e-02 -1.207406831168700706e-01 -8.752054151229750056e-01 3.586323316213129719e-01 -1.721425869043489987e-01 9.174692259088255142e-01
7.126168141066241413e-02 -2.012303972791270323e-01 -8.639215706775288384e-01 -9.313248506707418883e-01 3.077685570861402597e-01 -1.947114218330179003e-01
4.288069287759131015e-02 -2.690151847283251407e-01 -8.553538437130505656e-01 -7.450780406740828976e-01 5.256707119012221652e-01 -4.105228567991458521e-01
1.113947855151072031e-02 1.346575828544018250e-01 -6.855017114992405514e-01 -9.625688887785837089e-01 -2.599729879986512615e-01 7.664972189522760437e-02
7.267073714436726728e-02 -8.354645786651122841e-02 -8.692119017494318589e-01 3.528361260009914013e-01 -1.922119600555497465e-01 9.157298895417886886e-01
2.445997325576797915e-02 3.720115239022082909e-02 -6.995871223089925595e-01 -9.734143739287162145e-01 1.003576645850852156e-01 -2.058951087034194549e-01
-3.475049436035836103e-02 -1.428271510485956686e-01 -7.691963526961073105e-01 -6.214777394090448270e-01 3.177593727905546062e-01 -7.160966418178323911e-01
-5.643602701684780065e-02 -1.858792529353708312e-01 -8.204548968134428577e-01 6.044295226357673245e-01 -3.080049350684819359e-02 7.960629885668804029e-01
5.888669740144890363e-02 -1.155965839955798158e-01 -8.747003797100539879e-01 2.289894046061257959e-01 -3.521324120707431393e-01 9.075057117987591626e-01
-2.770059879680130191e-02 -3.094656508375521337e-02 -7.084204605865817017e-01 -5.926655454655114230e-01 3.700552778051398040e-01 -7.154066274410858517e-01
-2.282355682068983038e-02 1.109759315770724114e-03 -6.957053358085094619e-01 -4.750927399243522475e-01 8.727892396486525151e-01 -1.119188617914724931e-01
1.456290150506581171e-02 9.434853111928469260e-02 -7.024192171536489671e-01 -9.275988278973059664e-01 -6.135382658058355365e-02 3.685052543010261528e-01
1.078898393305062070e-01 -7.931883054369132102e-02 -8.417826268206083373e-01 3.130658960809433733e-01 8.946300334004704258e-01 -3.187896611386721868e-01
2.615484834433337916e-02 -2.602548364609580389e-01 -8.460520917668107321e-01 6.940180435689513594e-01 3.668746034006309387e-01 -6.194691118856169298e-01
3.585889088490883808e-02 -1.118074973327889687e-01 -8.115703780725223027e-01 1.780540888572918479e-01 9.661046655876952549e-01 -1.869184757344415637e-01
-6.917538878815809866e-02 -5.254775100200053534e-02 -6.895854647700833118e-01 1.797622187099437441e-01 -2.456939952661018611e-01 -9.525334668213285561e-01
3.823620210999717495e-02 -5.246061942956877638e-02 -7.915590266663523611e-01 -5.518232665352938993e-01 -6.126016512284396809e-01 -5.658712746044873843e-01
-9.925962584231333430e-02 -1.842450619262949452e-01 -7.642497209208097830e-01 8.856478813037123032e-01 4.643559375524517474e-01 1.180509224398147792e-03
1.142972821104138448e-01 -7.787649063742016486e-02 -8.455087357255458569e-01 -8.604212706764811092e-01 3.514323316328032965e-01 -3.690129445569644284e-01
-1.911031874443320025e-02 6.513621562502740214e-02 -7.380254668799693940e-01 3.163748690857395851e-01 -6.186573209026723363e-01 7.191453688264349831e-01
6.247136920970571689e-02 1.012678303395499538e-02 -8.216266951162917165e-01 5.358662121511933440e-01 -2.398083399871003552e-01 8.095303346678018874e-01
4.750213336669917297e-03 -2.299518419325969620e-01 -8.792196688230624613e-01 1.294484615009396933e-01 -1.752949166656028457e-01 9.759686408928511803e-01
2.036803874110603568e-02 -9.965229577206840411e-03 -7.385541102971748817e-01 -8.637287229356895857e-01 4.336232138292412941e-01 -2.567948628853053972e-01
7.395464140941881981e-02 -1.932246143833197538e-01 -8.718211656012183619e-01 -9.536844853244561548e-01 2.806191149455564693e-01 1.083458110800773061e-01
5.002995424111084805e-02 -1.132713191912992079e-01 -8.170580577044762594e-01 -5.040291039581350496e-01 2.845447720768490840e-01 -8.154685371287440088e-01
-3.684976195445265057e-02 -2.013354537013500589e-01 -8.473651138580841069e-01 4.931347790734836312e-01 3.461373650305874655e-02 8.692640444154143831e-01
-3.790510395377704594e-02 -1.298275954664387943e-01 -8.327835468415654141e-01 6.460898602105852317e-01 -1.528597516204560081e-01 7.477979599247372988e-01
-5.002267994146560731e-02 -6.950741468658298838e-02 -7.944384392697214636e-01 6.829540552871553594e-01 -2.571319183820132692e-01 6.837082235252219808e-01
-4.569029104658377249e-02 5.930056743441104034e-02 -6.947897092949539832e-01 7.852077528506552495e-01 -5.825406461243615164e-01 2.099885246298851538e-01
5.152258580097953886e-03 -8.189903959815110490e-02 -7.828764834028409947e-01 -8.767699966245063870e-01 3.937379005757371542e-01 -2.761246795729676018e-01
-4.593175454801091961e-02 4.550398264544513321e-02 -7.114215973820030570e-01 6.426897570292254835e-01 -5.680443205545997465e-01 5.140773541942673663e-01
4.694947970747820332e-03 2.406285792925555791e-02 -6.892502973396634758e-01 9.886664121580097941e-02 4.720609121735525049e-01 -8.760044991052154950e-01
5.574444269401532780e-03 3.823844865432952239e-02 -6.825219730875943247e-01 -7.532509230783895893e-02 3.562904605449186413e-01 -9.313341173786694460e-01
1.408750188949692977e-02 -3.231675916098684931e-02 -7.527579160069123310e-01 -9.861287225731133477e-01 1.521537542054548775e-01 -6.632780410586044950e-02
2.297329900319769122e-03 1.621121093466859342e-01 -6.893144283182655041e-01 -8.802604260990127827e-01 -2.720072341195731158e-01 3.887848335912863496e-01
3.886079745180213291e-03 -1.649678370119233295e-01 -8.674028362283316973e-01 -2.515215999598318861e-02 -4.763280164723003862e-01 8.789078390656784867e-01
-1.056751784091758128e-01 -1.134688832074776110e-01 -7.557922859858423603e-01 8.894958470442567711e-01 -2.957935691093089292e-01 3.482862365420094641e-01
-7.297243350124413275e-02 -2.115718149504461354e-01 -7.846934425088470944e-01 -4.443983658797289182e-01 8.901174820942668875e-01 1.009998043245092375e-01
-1.175108396755670387e-01 -5.130239192820420374e-02 -6.848824609486092729e-01 8.106134882152834509e-01 4.435324385314395879e-03 -5.855647706454404355e-01
-3.508325973399854109e-02 1.967219329762952273e-02 -6.752624922044433431e-01 -4.903088107360007442e-01 1.275344494037150000e-01 -8.621671730760456231e-01
-8.593673408629538824e-02 -1.319837588711967324e-01 -7.301564695888975720e-01 -8.264661620431411615e-01 5.078382027499720452e-01 2.430103759623414295e-01
8.054465414802022827e-02 1.907274491199911770e-02 -7.540625941353347184e-01 -6.035948864574635087e-01 2.410831703120764058e-01 -7.599684980541497881e-01
-5.101453760898604778e-02 -8.656617383365446117e-02 -7.168435671738287995e-01 -7.747740573114050289e-01 4.685238937269551873e-01 -4.245120977359264081e-01
-1.810132801032087249e-02 -1.524612789092150700e-01 -7.875274788693827910e-01 -4.014961652412850635e-01 6.553055621136086306e-02 -9.135133143524358790e-01
8.061478158754623036e-02 1.454256393963992630e-02 -7.602197916060114968e-01 -3.857727366785097117e-02 9.410877681846024911e-01 -3.359547685770802317e-01
-1.917234502158276371e-02 2.398100474708054486e-01 -6.795259635810140253e-01 -9.144600662593749263e-01 -3.127490589856412040e-01 2.568089042858431870e-01
-1.675145152091386813e-02 2.908383863889725876e-02 -6.846287564684951921e-01 -5.606344469509235706e-01 2.287890845869777479e-01 -7.958294865521663430e-01
-3.141024369897119778e-02 -1.180607174188992754e-02 -7.828392883812153036e-01 7.162915780698203561e-01 -4.126520220725702348e-01 5.627119013008926585e-01
-6.426609801143563783e-02 -1.594132572001619175e-01 -7.494330818782097836e-01 -5.648675374112169800e-01 2.821349403398552003e-01 -7.754511851937642142e-01
-2.953692078459203493e-02 -2.679265332178783487e-01 -8.403734243854524832e-01 7.917594306194484233e-01 5.958743567205984082e-01 1.343530983192426365e-01
-3.593902147209086795e-02 -9.142888118693649757e-02 -8.244450021680379548e-01 7.771130837974863370e-01 -5.448802298573062197e-01 3.149615692452177318e-01
1.598150439537016076e-02 9.680480779598633900e-02 -6.811668334727219998e-01 -8.517164704577642187e-01 -8.518405128950436167e-02 -5.170326211728574206e-01
-4.367553119393262351e-03 -1.232457228083652240e-01 -8.530255082152634616e-01 3.907826230944853041e-01 -2.373290149571080365e-01 8.893615013856189799e-01
-5.364334720563112419e-02 1.955843207209613521e-01 -6.843527315240025555e-01 9.102108764757675941e-01 2.446426472283962927e-01 3.341648328329863693e-01
-9.986394656513020163e-02 -1.190130889760182969e-01 -7.047298447071783656e-01 -8.238001210108757133e-02 5.136919601166514138e-01 -8.540105993005807639e-01
7.059002655271751081e-02 3.902104353032118111e-02 -7.406068254429222231e-01 -5.877462701798851219e-01 1.824398781751226106e-01 -7.882068337315277784e-01
9.201159355531574047e-02 -2.147576439497647996e-02 -8.440632627972723956e-01 2.440199273021589343e-01 -3.274604477745556852e-01 9.128110046568985725e-01
-5.599302785782870467e-02 -5.293381713427369739e-02 -6.919352553789108740e-01 -5.765259546156015213e-01 1.988926715318157512e-01 -7.925020686821623306e-01
-9.430646324344817144e-02 -4.816657223425190905e-03 -7.019386104726837994e-01 6.761163048998248826e-01 -4.631444778901037118e-01 5.730304833501531636e-01
-4.940939768619262429e-02 -1.667739651915795818e-01 -7.746458869193127983e-01 -8.899131824487915843e-01 4.178343480053291481e-01 1.829453069385092445e-01
-1.534855886158639944e-02 -2.516152176069944707e-02 -7.162287312305412046e-01 -6.328286765895240196e-01 4.295380155327015448e-01 -6.442243082173942925e-01
1.056794871593554411e-02 1.370537935379049221e-01 -6.845517639882671146e-01 -9.625688887785837089e-01 -2.599729879986512615e-01 7.664972189522760437e-02
6.826935285723106754e-03 -2.028181390021305264e-01 -8.318923290746874644e-01 -9.328322812702647404e-01 -1.955801941980548908e-01 -3.026091912972321274e-01
-6.340568680934308143e-02 2.457780370187930830e-01 -6.923556551050252805e-01 8.567704721385573929e-01 -5.251548213133117038e-02 5.130170389061045055e-01
2.337195187773600039e-02 -1.092483142531690543e-01 -8.663752367207931959e-01 3.819248422536746235e-01 -2.768000452623418650e-01 8.817681950559744797e-01
-3.031326279394411585e-02 -1.431791674700113870e-01 -8.445171837555071059e-01 8.750079225921522097e-01 -1.037877644761753815e-01 4.728522341556652409e-01
1.205979360312109221e-02 -1.074205264878347332e-02 -8.034562134571375802e-01 3.686550096696781798e-01 -5.384225563617995869e-01 7.577563161374998302e-01
7.830457783117104453e-04 -2.174208607506761259e-01 -8.764427752576201547e-01 1.294484615009396933e-01 -1.752949166656028457e-01 9.759686408928511803e-01
-1.635434949267060289e-02 -2.830485372819760426e-01 -8.613822219458617813e-01 9.013585943678956713e-01 4.063645663619922521e-01 1.497348441898586346e-01
1.559027290554523479e-02 -2.457552519075168473e-01 -8.358878762974916166e-01 -9.206864377700731961e-01 -2.355867925222280557e-01 3.111837825069647123e-01
2.514559514044010374e-02 -2.899834436556361639e-01 -8.649286312388968501e-01 2.607215910406036619e-01 5.571593517800338402e-01 -7.884146806657704731e-01
2.160074485387831165e-03 -1.837760540413927723e-01 -8.710633501175750748e-01 3.544097772158947279e-01 -1.263297292041509479e-01 9.265174090825201159e-01
1.328281874909813601e-02 -6.516726955605275928e-02 -8.353489596238198311e-01 3.612018933894538542e-01 -3.863604961553871453e-01 8.486805990609402883e-01
1.042112177010128815e-01 -6.651286013298755850e-02 -8.680722508567296769e-01 -1.784224684571079078e-01 -3.001906555046754965e-01 9.370437519653741498e-01
1.908741200635799898e-02 3.857931318446933960e-02 -7.766825635579094333e-01 2.794132961849729035e-01 -7.852466994612117279e-01 5.525539167360249415e-01
9.937649446693683220e-02 -4.255481259229804830e-02 -8.563379214689116337e-01 1.471272993134900564e-01 -5.218732068581052319e-01 8.402392003235482631e-01
7.257443400950014389e-02 3.515643785891876122e-02 -8.070829438161244429e-01 3.187421667754734012e-01 -6.199996181558280473e-01 7.169406562651498005e-01
-6.428878191113042428e-02 -1.930050859528914878e-02 -7.463816397929786683e-01 6.447565564365556057e-01 -3.869900658322065201e-01 6.591871296371456523e-01
1.877088598651174139e-02 -2.655252918942128115e-01 -8.390181767376895250e-01 -9.547517703817887114e-01 -1.653773318153262673e-01 2.471829182497929100e-01
7.285576205314366061e-02 -1.178788806027776664e-01 -8.787578957891141185e-01 2.010135049855987233e-01 -3.326572827968090618e-01 9.213754408576605437e-01
4.549188046599014074e-02 3.501286099299363852e-02 -7.245579124489865963e-01 -5.218050135296996572e-01 3.184174897096667123e-01 -7.914100265363490649e-01
-2.022094943507655247e-04 1.788533009687330311e-01 -6.741213345813159563e-01 -9.526231408776064669e-01 -2.580687883283536155e-01 -1.609647537668396355e-01
4.559770399713825723e-02 -1.642202021865457606e-01 -8.276132683062007445e-01 -5.787489635392186749e-01 9.393974276012743985e-02 -8.100771333227726467e-01
-1.260284202057660174e-01 -9.262503630490025175e-02 -7.000183182597223830e-01 6.071247271564941261e-01 3.784097623789175469e-01 -6.987171225978963118e-01
1.930432078196907925e-04 -1.176261259105695622e-01 -8.538124662106634233e-01 4.788459582410291016e-01 -1.505649437166233506e-01 8.648911758133740468e-01
-3.102890847687673603e-04 2.726493901413644741e-02 -6.887523981286403085e-01 4.045909548946073908e-01 4.444821916670328443e-01 -7.992132009097079326e-01
-7.875107580548126179e-03 -1.039711874821570015e-01 -7.971724092738929901e-01 -9.116953519403245831e-01 3.771013262085693984e-01 -1.631139939494645197e-01
6.912214638124603017e-02 -5.196404134300890154e-02 -7.985306858474282565e-01 3.039302048941320278e-01 9.485443647537276091e-01 -8.882577692853832474e-02
-2.328750945420658344e-02 -2.460478204338879538e-01 -8.148072602741431858e-01 -2.361780807073576849e-01 2.718716007466825402e-01 -9.329017884540823369e-01
4.767433926386898356e-03 -2.695924942115582867e-01 -8.872908283636096183e-01 3.328358259379659567e-01 -1.269641958759304412e-01 9.343984192718703952e-01
-9.878750535596178550e-02 -1.012336235030867337e-01 -6.942573333821230319e-01 -5.342263343022757294e-02 4.797205030127021375e-01 -8.757935037590878213e-01
1.898378982246755331e-02 -2.950664435867571544e-01 -8.728294385376270670e-01 2.581082332181358630e-01 7.711565461164632262e-01 -5.819774233823334919e-01
8.982561094073449048e-02 8.305408121310196498e-03 -7.772733524036755659e-01 -6.432016104796567380e-02 9.708386388381688992e-01 -2.309442664835287262e-01
-7.233887156215972059e-02 -1.205742593826026887e-01 -7.375959543606865898e-01 1.017125818884917210e-01 -1.111438739463344177e-01 -9.885856513068446150e-01
-3.721742047600050396e-02 -1.029055032441509188e-03 -7.637252890846235598e-01 7.432327553603712555e-01 -3.886460414397728824e-01 5.445726084119771881e-01
-6.852131973133374077e-02 -1.966314907616836805e-01 -8.120513970992068176e-01 5.526899470108221912e-01 1.000680981353488652e-01 8.273573582248173741e-01
-1.290488704428955150e-02 1.348952624701007796e-01 -7.087470770538814024e-01 -1.056314568901275119e-01 -2.180174821050105405e-01 9.702115093173553362e-01
6.058300899596023165e-02 -1.714662307855351897e-01 -8.399092846032161219e-01 -6.282204595331918329e-01 1.463628770964566228e-01 -7.641445952383311147e-01
-5.343798125964913104e-02 1.831786890491517161e-02 -6.678400759916828244e-01 -1.975608439164079078e-01 -7.338013952217656288e-02 -9.775403153193951145e-01
-5.735492315686150505e-02 -1.899729911885600087e-01 -7.724102377905922578e-01 -8.670304378832315306e-01 3.181875627732802525e-01 3.834252139341016163e-01
-2.626303259195065382e-02 4.521297953767877686e-02 -7.509027608455470792e-01 6.732080555569565083e-01 -5.293015547604467130e-01 5.163630293324606990e-01
3.218961818098305810e-02 -4.471920328890337942e-02 -8.371543868149963208e-01 4.895466320582108066e-01 -1.718344216967266080e-01 8.548783694541663980e-01
1.047038513537019710e-01 -5.023841044449496585e-02 -8.106047623247805145e-01 -6.984275704912523697e-01 3.993217011320453480e-01 -5.939201190250218421e-01
-4.077616325941382097e-02 -7.097252382729168918e-02 -8.058441627539796315e-01 7.711673509602268162e-01 -2.840036918262846544e-01 5.697743587088024420e-01
-8.405042382616077778e-02 -4.587343923249655175e-02 -6.708365611053365152e-01 -1.602469080716202032e-01 3.240157297601991004e-01 -9.323812178081727353e-01
8.083144758857316314e-02 -1.407128194458539816e-01 -8.853111556962913742e-01 -2.518668345337866099e-01 -7.971591947181803917e-02 9.644731566221491637e-01
-2.406168068173109020e-02 -1.140767848535310242e-01 -7.643694696212861572e-01 -6.245092595652930179e-01 3.638469274598860048e-01 -6.910887049396843285e-01
7.076816090012018334e-02 -1.866986190115908495e-01 -8.844931681800651813e-01 -6.474322061812992635e-01 2.439532918117955917e-01 7.220237737176002923e-01
1.017967585089781524e-01 -1.244539364715046281e-01 -8.739771783734964217e-01 -8.462604243439414420e-01 1.887659039995391863e-01 4.982075146728005000e-01
-3.072026091552382612e-02 5.448263426268277337e-02 -6.791066300846986259e-01 -1.473755355333914996e-01 -3.115391762119171792e-01 -9.387352093170076017e-01
-6.933213887590434880e-03 -1.989390242005747711e-01 -8.083308865178892022e-01 -7.724369766658264469e-01 3.803791991621131574e-01 5.085791796015119992e-01
-5.343286069510880254e-02 -4.959346154282912034e-02 -7.859741925312333510e-01 5.513093710235550393e-01 -2.000395083006491492e-01 8.099643032507338747e-01
1.719062530114575174e-02 -1.430453385727668836e-01 -8.083785356625678986e-01 -3.719852260309275960e-01 1.144178915669707558e-01 -9.211598871553671186e-01
8.234251817444944443e-02 -8.486027564589175565e-02 -8.732931705642621445e-01 4.666123914561216002e-01 -6.932579947095486583e-02 8.817407837155499806e-01
-1.005899034073391568e-01 -3.994198356746773634e-03 -6.929855926712112923e-01 7.442492333219685730e-01 -4.702157940898126220e-01 4.743313037194036297e-01
9.286352314185075674e-02 -1.263657496285260778e-02 -7.796672689001097334e-01 -6.360865158144851650e-01 1.479828075715308999e-01 -7.572945484170844344e-01
-2.154359703061476533e-02 6.259302757520257554e-02 -6.842058542715382385e-01 -1.375898843601348898e-01 -2.224751197133215397e-01 -9.651807316924161384e-01
-8.117845292746531105e-02 -6.631784743356294864e-03 -7.249387192572657179e-01 7.018346082029311983e-01 -6.110379412032618252e-01 3.661431648122321358e-01
-1.930525833391045706e-02 4.469710697295972701e-02 -6.821227035817268858e-01 -5.732981783039080570e-01 -5.635091872926932532e-02 -8.174067363998094304e-01
3.303376900941345368e-02 1.263525237794802837e-02 -8.008284443549570364e-01 4.862144712133910085e-01 -4.003429690910501049e-01 7.767374041991573774e-01
-8.753992781687430780e-02 -5.065373934557101943e-02 -7.414934955622688451e-01 6.554977540384525625e-01 -3.505926790734914533e-01 6.688852426467608581e-01
-5.083332594442851321e-02 -6.173492500161877755e-02 -7.005667617448406714e-01 -6.931605199525028294e-01 3.457736731824309073e-01 -6.324310717486177902e-01
5.958180400222444148e-03 1.506719779087680178e-01 -6.733097684204081279e-01 -9.302337318907405450e-01 -1.746417221174896839e-01 -3.227467628783647347e-01
1.011354190969559613e-01 -9.071828311392914068e-02 -8.481345824256336652e-01 -8.695703832194582317e-01 -3.239881733798486430e-01 -3.726647449619477359e-01
1.327181270313515862e-02 6.075152088559194336e-02 -7.501382991434157876e-01 4.068753033465742908e-01 -6.528825759704885989e-01 6.389028326128882718e-01
-5.556476997895592844e-03 1.707664815973179359e-02 -7.760091070936632196e-01 3.730337363150060259e-01 -4.648718284358906994e-01 8.029570441172666495e-01
-9.460137921981548459e-02 -9.403788638777806075e-02 -7.621379355778878928e-01 8.262198369329391001e-01 -4.161801954610030441e-01 3.796772655355449833e-01
-5.505434579376682763e-02 -6.109710331111168485e-02 -7.870104916621977198e-01 6.476408515648519604e-01 -2.287153069247156167e-01 7.268085275797792066e-01
-2.271932332643590569e-02 -6.626056071984709472e-02 -7.543547441584653734e-01 5.735772408027110109e-02 -6.874920848784686900e-01 -7.239231483505609299e-01
8.539192336706653147e-03 1.012764950536180486e-01 -6.731029658885012701e-01 -6.457292081755867663e-01 1.631166686368941410e-02 -7.633922446770451398e-01
-1.200463155222520478e-01 -1.363505684087080172e-01 -7.306561221450483812e-01 9.389259086232529805e-01 3.368329931185798931e-01 -7.043914297304867955e-02
2.572656281336501566e-02 -2.786638573050132517e-01 -8.582590157501306383e-01 5.836411258095798305e-01 4.400615894776565562e-01 -6.824286290375902730e-01
-1.749832972750344981e-02 -9.993645119023972234e-02 -7.629612052749150664e-01 -6.308132561466675003e-01 3.605573984862378012e-01 -6.870756859811555373e-01
-4.284277513108451785e-02 4.982515073632162728e-02 -7.107643599024362491e-01 6.780507574906594614e-01 -5.306216209408894935e-01 5.086136703396850756e-01
7.894363229859904796e-02 -4.288956532603376004e-02 -8.526877143152388205e-01 1.441936717414163682e-01 -5.315063824934695980e-01 8.346910508675854379e-01
-6.937618898360380093e-02 -2.014333174294665463e-01 -7.676205583369130059e-01 -9.740260440120143692e-02 6.311813525865668240e-01 -7.694951804935848960e-01
-3.856369591206105368e-02 6.032872256917679726e-02 -6.822863055366275020e-01 3.026998947038237464e-01 -5.869839654754113178e-01 -7.508812143215829460e-01
8.518483409004602713e-02 4.744805940804723565e-02 -7.569553319449131568e-01 -7.970076426086748489e-01 -2.169114662288804396e-01 -5.636738715266124133e-01
-7.902764362921363417e-02 -2.176508131714632172e-02 -6.664155189564919812e-01 -7.931102788337104914e-02 2.899965274644686342e-02 -9.964280109454313195e-01
2.709562903259024602e-02 -1.258820302388116708e-01 -8.125603797160707575e-01 -5.114988977072221221e-01 5.846176938533158979e-02 -8.572928899533887037e-01
3.763303027969448072e-02 -2.068691549278448560e-01 -8.417837709218138897e-01 -7.890664124909038124e-01 -6.057902594794698503e-01 -1.019429163725039389e-01
6.103292021751884761e-03 -2.945304078765351163e-01 -8.925957464108766892e-01 3.821085762533981689e-01 -2.560030237583203472e-01 8.879501606397726121e-01
5.712396695274146036e-02 -2.437982866319215458e-01 -8.560374373101284906e-01 -8.667774749894161523e-01 2.976946093324790432e-01 -4.000933996273305926e-01
-8.870668836558256998e-02 -1.870575886725242276e-01 -7.546389087093405834e-01 1.962631423840706102e-01 6.797628452710181568e-01 -7.066846914505647836e-01
-1.806985002435961690e-02 -2.170421818391749247e-01 -7.974140007695378340e-01 -4.179473850450244332e-01 2.683437178091496733e-01 -8.679352697329389965e-01
-6.179365133722006936e-02 -1.633785739013438598e-01 -7.528152152702798361e-01 -6.354032536924765218e-01 2.618485562311292369e-01 -7.264282750531448896e-01
-9.695255680866129988e-02 -1.652333857529369315e-02 -6.707968104362985740e-01 4.794199250518126343e-01 -1.258332977884110415e-01 -8.685174244832438717e-01
-1.877872575072763589e-02 1.907179089456623178e-01 -7.002089441822266780e-01 -3.732247863229219975e-01 -2.042707115397714435e-01 9.049733340166686846e-01
-5.090082578930942708e-02 -9.250537649784187910e-02 -7.426460238105476730e-01 8.874248762774485100e-02 -1.983588032653798849e-01 -9.761037629559501383e-01
4.329859882268493471e-02 -1.826469556588894080e-02 -7.555828624302695085e-01 -4.276454045111811042e-01 4.616626484056721158e-01 -7.771660099795467680e-01
1.041402862036108767e-01 -1.115532758967678340e-01 -8.550111013542874838e-01 -8.951781953426088956e-01 2.070353528384996367e-01 -3.947054107282896851e-01
5.535504369078608072e-02 1.173107294776930092e-02 -8.161426370367874661e-01 5.696944290759337060e-01 -2.314666793933572719e-01 7.885882536599557735e-01
-5.912036612637854016e-02 -1.994806385487603861e-01 -8.188570917464067511e-01 6.616131542832153212e-01 -5.517749500685192182e-02 7.478124618674011348e-01
-5.451734993003503477e-02 2.506579085785967109e-01 -6.556133339340928234e-01 3.805148615037821092e-01 -2.136006430794240019e-01 -8.997684176780235132e-01
7.160235198122973099e-02 -1.168769663572844925e-01 -8.308620781778410791e-01 -3.715902473561155661e-01 3.969820373276163328e-01 -8.392412943302038908e-01
5.291251224826554189e-02 -2.372227072535264825e-01 -8.462693112954644548e-01 -7.117489799489049584e-01 1.735996932781546653e-01 -6.806442066420781423e-01
4.276824325031931828e-02 -1.391462969413030659e-01 -8.244049271792057709e-01 -6.320927683029404776e-01 -6.274603738820137833e-02 -7.723481514519237034e-01
1.189188218894448312e-01 -4.478445085043824408e-02 -8.502376203871879756e-01 -9.722493075048826983e-01 -1.871922248063724245e-02 2.331970728075216104e-01
2.289881674941986883e-02 5.940953670444933804e-02 -7.048795458980057216e-01 -9.685261250907956088e-01 -1.430978774861016156e-01 -2.036667436661699082e-01
-5.744027087956467964e-02 2.400609546656697069e-01 -6.566356385699528841e-01 5.992317486589344711e-01 4.149523457762615414e-02 -7.994995040064150071e-01
-3.322652203067646970e-02 -3.234684762357655993e-03 -6.850333554871294028e-01 -6.599986986875849837e-01 5.039785166708449227e-01 -5.571421474497773030e-01
3.664160970729980760e-02 2.244131576888215920e-02 -7.268092313853558029e-01 -4.430717540857209702e-01 7.220394664136714491e-01 -5.313628041860504192e-01
3.530609708731149293e-02 -2.367254112451826209e-01 -8.873950647689551330e-01 1.975110332680582448e-01 -5.792191556174344780e-02 9.785879845139335842e-01
-3.563906964548494566e-02 -3.012536531901956541e-02 -7.917490478347264382e-01 7.784008935218817982e-01 -3.767985612443870980e-01 5.021104392546483774e-01
2.012232415251822160e-03 -1.709938274664709323e-01 -8.013797710834561494e-01 -7.295078006198674192e-01 3.995350785497847612e-02 -6.828045738312286117e-01
-8.180715275240610374e-02 -1.704102896974869774e-02 -7.328593824100924081e-01 3.966701722404443742e-01 -9.663626544339549984e-02 9.128604530024783115e-01
5.759695793613831558e-04 -1.464832286954330653e-01 -8.017053707826761189e-01 -9.785075449071708453e-01 -2.013093375333987189e-01 -4.469379354681254218e-02
-4.774333503794221147e-03 -2.719290452699757443e-01 -8.808142289493985366e-01 7.807257451524473035e-01 -1.990007580197447265e-02 6.245568811879599336e-01
-7.099988106657291465e-02 -6.225700703035623451e-02 -7.735928865150664135e-01 7.559370879201111615e-01 -4.975161978777412619e-01 4.254841383132140775e-01
-1.061340038992714249e-03 8.922549441853309948e-02 -6.690802558696598012e-01 -3.020109370413978644e-01 1.100584348794061001e-01 -9.469300580398070100e-01
2.183119128386794283e-02 -1.213040209164665956e-01 -8.096496558109514963e-01 -5.487398846063064051e-01 -2.234685773901157468e-01 -8.055720538607922254e-01
1.172950165625517710e-01 -5.573595105512578474e-03 -8.190982810740446984e-01 -6.531523252644705346e-01 6.740831226029795342e-01 -3.449695404284731093e-01
1.034179497583414958e-01 -1.103181610923161665e-01 -8.741595297613318216e-01 -7.565595223576063733e-01 9.287036973828349806e-02 6.472965190349049269e-01
2.346084798446610581e-02 1.092546390249334205e-02 -7.156573305416571440e-01 -9.663448011319631936e-01 2.424103548557157151e-01 -8.611007597228495514e-02
-1.092508356367623279e-01 -2.817334491620030953e-02 -7.026898077138411525e-01 7.368534256754903922e-01 -4.215716922043499237e-01 5.285114354507908230e-01
2.469974783503859836e-02 4.014031534852527394e-02 -7.012717180851818499e-01 -9.994353365596744254e-01 2.715933116504460395e-03 -3.349077101467150958e-02
9.294584214596668392e-02 -1.434646718830902834e-01 -8.571034928286509480e-01 -7.761434520339175469e-01 3.784175261852625316e-01 -5.043823130728318782e-01
-1.050723679987863868e-01 -1.631142699632042586e-02 -6.983839083870568842e-01 7.222946298798887943e-01 -4.750482373812540682e-01 5.026128130157828666e-01
-5.017367107254931680e-02 -9.576882602829968338e-02 -7.414867346153007910e-01 6.524442366688856798e-02 -3.292336917840656962e-01 -9.419916885910460946e-01
-1.026349164142470738e-01 -1.132734686436521199e-01 -7.012106405617444249e-01 8.350367542400066734e-03 5.195965415439121049e-01 -8.543709413232126737e-01
4.982698075319352826e-02 4.507611961147185015e-02 -7.864539776430069518e-01 4.214723398306643998e-01 -5.534424997424668424e-01 7.183748786229059435e-01
6.906942007365221570e-02 -1.811445751831546325e-01 -8.863468178468900671e-01 -2.799392956019155498e-01 6.875851509475663925e-02 9.575522217507865808e-01
-4.676807825583417094e-02 -1.590165402187543875e-01 -8.282045979049847961e-01 6.459195583810100061e-01 4.556515968252542945e-03 7.633918798776367920e-01
3.967364585081462752e-02 5.376384158550746167e-02 -7.161755371801769021e-01 -5.953942388577615485e-01 9.897046629994939518e-03 -8.033727334201667958e-01
-1.730156187294481368e-02 -9.034005178558605909e-02 -7.588623720534849459e-01 -6.263586150995854585e-01 2.814101021740628150e-01 -7.269685273001252890e-01
5.563453377657594755e-03 1.559578620419097839e-01 -6.845976003899899576e-01 -9.531810927923412002e-01 -2.552922753871672001e-01 1.620853431709395887e-01
-2.273411951348573712e-02 -2.376972781928035072e-01 -8.108673376229108554e-01 -8.926009420414565687e-01 3.469728786781259289e-01 -2.878773692538518780e-01
1.690715094773239877e-02 5.360969301489342670e-02 -7.595731342075255910e-01 4.005835633953822583e-01 -6.182204383721782159e-01 6.762664403298228599e-01
-9.240645467786084977e-02 -1.433537188029805898e-01 -7.225868555128562853e-01 -5.473209559011836811e-01 5.568990833794061901e-01 -6.247424926820583924e-01
-1.329040032428038115e-02 2.113908215319555001e-02 -6.893725980502209971e-01 -5.522695601118401409e-01 2.907549143808059733e-01 -7.813193410746241963e-01
5.048919561917755705e-02 -1.273131214271840117e-01 -8.801291916604812027e-01 3.929552072802750158e-03 -4.590499369386905060e-01 8.884017751091515258e-01
-4.533124897421507427e-02 -1.403253570096763825e-01 -8.284069420299934317e-01 5.742453953871076155e-01 -9.647311787891643675e-02 8.129791900186776887e-01
3.860266539924035387e-03 1.275662416933850130e-01 -6.679430333912032003e-01 -7.035103604178991610e-01 6.145481028400685830e-02 -7.080229368301810267e-01
-4.147999456744201618e-02 3.453704302423326461e-02 -6.726712775143059986e-01 -3.030126713427455099e-01 -1.862020366784443159e-01 -9.346187043615875600e-01
-3.781603756748303478e-03 -4.543318128178126802e-02 -7.473966210159620482e-01 5.419430523437763769e-01 6.268564780541808767e-01 -5.597755656848724115e-01
1.920620387633961007e-03 1.165988238770140212e-01 -6.672940105528376575e-01 -5.224922514741295876e-01 1.026765614133794552e-01 -8.464392304742376361e-01
7.935417935315944651e-03 9.290623377008992712e-02 -7.203042932022200029e-01 -5.019007050774899614e-01 -6.836070686389669193e-01 5.298840042401329331e-01
4.830866025193408797e-02 -1.692057098510264812e-01 -8.807133702254766883e-01 3.697434386716290655e-01 -1.648126677036325094e-01 9.143995702775079559e-01
5.491363782939199384e-02 -1.073654505539761023e-01 -8.174446185058910075e-01 -4.797034858667600932e-01 3.979042633483543812e-01 -7.820209478373852940e-01
-3.601191705230452622e-02 2.083750444234556617e-02 -7.523152236657670855e-01 6.685456798292879199e-01 -2.809404634631200715e-01 6.885630907699907821e-01
8.778210513366099810e-02 -1.385917787879114849e-01 -8.828635980916259562e-01 -4.292697511744907879e-01 5.989120014818941073e-02 9.011883958814606022e-01
-4.496071820008766540e-02 -9.989587197342941760e-02 -8.153506077299800259e-01 7.834580996849921375e-01 -5.130066933237356075e-01 3.507385616709793319e-01
4.170002221122531133e-02 -1.082135451905340447e-02 -7.501595243559033843e-01 -4.699151975979081741e-01 4.239801534303594410e-01 -7.742225368482165138e-01
1.133838759672865654e-01 -1.748914077581374335e-03 -8.054130479757131145e-01 -5.544444413399092220e-01 7.717955709176075318e-01 -3.113245222902304432e-01
6.325461379978958298e-02 -1.453005354650629133e-01 -8.444094669002267795e-01 -7.512641231982987167e-01 -5.879683978843729397e-01 -2.998255831052029086e-01
-7.014414502900612192e-02 -6.586348389095529610e-02 -6.868597643956292353e-01 -2.058730220422176627e-01 6.383707434822362414e-02 -9.764943045066180050e-01
1.194748507286415296e-01 -2.959240713007099330e-02 -8.448201829525618933e-01 -9.230574106592424055e-01 -1.203354727874551000e-01 3.653551568215157586e-01
1.031463341473665418e-01 -1.194088423670006810e-01 -8.574326446618852904e-01 -8.821913009802589967e-01 2.686990518847289788e-01 -3.867031522899778140e-01
8.969017493596628809e-02 -1.512853631507786178e-01 -8.762467580538034762e-01 -8.429220970507242949e-01 3.414891024213410620e-01 4.157734133287943057e-01
1.180055588882805012e-01 -5.514832694879253207e-04 -8.255289219160042435e-01 -9.103880886223632007e-01 -3.803332779397972097e-01 1.629114047146150157e-01
-1.055145675017949737e-02 -1.769748367589754900e-01 -8.663005308412774497e-01 1.875608936444134733e-01 -1.048392544266503051e-01 9.766420234182907611e-01
1.175980216666310148e-02 -5.626737845135894311e-02 -8.307065740309986790e-01 3.934082592818199386e-01 -3.557614713644446924e-01 8.477403594388165375e-01
7.538136051718692665e-02 -1.703575010475517626e-01 -8.525214743089819525e-01 -6.951521441809511703e-01 2.675014745863095733e-01 -6.672379317265888510e-01
-8.862017696862087290e-02 1.205095631731004265e-02 -6.946927843685969384e-01 6.764489176790315916e-01 -4.818079397049092605e-01 5.570260056839152485e-01
3.164055879001698851e-02 4.791328327128807629e-03 -7.351451775110570130e-01 -5.279126587832631001e-01 6.668310358819713735e-02 -8.466767909847487950e-01
-2.331521438746974803e-02 -2.268428410542793761e-01 -7.980947076142955732e-01 -3.318944104606572076e-01 3.415206622080247389e-01 -8.793234544750667681e-01
3.968941605100255454e-02 -3.060471252379918031e-02 -7.626781648540719161e-01 -3.732991799458891813e-01 5.916852156289751363e-01 -7.145322440994669178e-01
-3.493153771959572190e-02 2.440953793342945100e-01 -6.958158225663928498e-01 -4.092710526601241461e-01 -2.235664818068036630e-01 8.845989111834821061e-01
1.758178913328032472e-02 -2.197575967034561539e-01 -8.804802009733109225e-01 2.643614377859530573e-01 -1.349502064443176275e-01 9.549353234603797924e-01
7.285399474016918120e-02 -1.435886772043064863e-01 -8.509461104436567558e-01 2.925708800054487857e-01 7.753145284172044960e-01 -5.597228440916494074e-01
-6.896002752188525042e-02 -3.281432537480404033e-02 -7.499499618182249305e-01 6.471696456109249374e-01 -4.088602605327840700e-01 6.434319988599368489e-01
-1.502147711451983815e-02 4.495698572790807895e-02 -7.557315545202382134e-01 4.445384126689041343e-02 -6.769621320319437752e-01 7.346741643690646306e-01
5.667000809755741442e-02 -8.624765141959359060e-02 -8.638047593266801050e-01 3.571749028685230476e-01 -2.884559027218591143e-01 8.883801443896517380e-01
-1.582406861408228518e-02 -1.511238057211014840e-01 -8.611888718053719582e-01 -3.702158426892475460e-03 -3.814620565254516205e-01 9.243770840162337521e-01
-8.709889012029509159e-02 -4.513012831273414960e-03 -7.103750548909143481e-01 6.777293551329394150e-01 -5.056615468472096531e-01 5.338439109245110004e-01
3.535908679445403519e-02 -1.932404602377221503e-01 -8.414158919213271526e-01 -2.653026269805807136e-01 6.064944829711759189e-01 -7.495191513515373494e-01
1.337378623760900965e-03 -2.835533484265150006e-02 -7.289115416004758874e-01 3.142062195604432562e-01 6.370789361455724276e-01 -7.038500413505426323e-01
5.475002860781234826e-02 -1.785096709336367327e-01 -8.848866997657633959e-01 2.328201355998072430e-01 -1.889156302717446001e-01 9.539945854659327429e-01
-2.995970737710251103e-02 -2.397947639056718649e-01 -8.506409862115578147e-01 6.709767960004466847e-01 3.737574210859344326e-02 7.405357473686242642e-01
8.111389218270719306e-03 -6.797177945557021650e-02 -7.764487401103595809e-01 -9.479289944480667751e-01 2.610639425560684068e-01 -1.824177605984646788e-01
-7.476209356533978709e-03 2.031206168706079784e-01 -6.748404747125850145e-01 -9.466854340923898103e-01 -3.057485720385595962e-01 -1.015110810388954732e-01
-1.212453265688621801e-01 -1.323372060142049000e-01 -7.278585957048280264e-01 9.509857996843977812e-01 3.063381691536614659e-01 -4.222481401035817900e-02
-2.896637270910043180e-02 9.326956974236171038e-02 -7.098227031563151268e-01 9.065534887819602927e-01 -1.120221775184510465e-01 4.069543017603829416e-01
-9.057668683479962179e-02 -1.734881439119063118e-01 -7.451682841392995860e-01 1.078496984802805175e-01 5.050249225980156798e-01 -8.563400434947445738e-01
4.360462275516637648e-02 -1.164839845923764244e-01 -8.281092026830747521e-01 3.148819673366082816e-01 9.284797881698748645e-01 -1.969127461751821462e-01
3.772772719184874085e-02 -1.124028131998816710e-01 -8.129347307737784245e-01 1.678423645288447674e-01 9.674229751973435487e-01 -1.895302818276967671e-01
2.541623397869303622e-02 -5.939823738912800022e-02 -7.783545378299092654e-01 -5.560236515313562444e-01 1.728390761549646326e-01 -8.129971418717504283e-01
-5.432356043249491478e-02 -5.762392019160281903e-02 -7.865687196172713724e-01 6.476408515648519604e-01 -2.287153069247156167e-01 7.268085275797792066e-01
6.517026266740423568e-02 -1.513751009980240647e-01 -8.409907548282069545e-01 -6.550584848350307077e-01 -2.048132576920787540e-01 -7.272894272015727468e-01
-6.410583252801843775e-03 -5.084833577147020861e-02 -7.552524451400792760e-01 4.132670508800697640e-01 6.301401350800371892e-01 -6.573688118691077831e-01
-3.767042454201958990e-02 -1.427675916932495959e-01 -7.861514181378864707e-01 -4.887223340156274798e-01 2.085202473001513956e-01 -8.471539332967776836e-01
-7.854921132601992706e-02 -5.631093970932614379e-02 -7.546480762484635285e-01 7.068479863100552985e-01 -3.726221707375527159e-01 6.012642032619721633e-01
-1.797969399597677820e-02 -1.679028699222677168e-01 -7.889525889026379746e-01 -4.339488616303151525e-01 8.660263029980110050e-02 -8.967655044184681401e-01
-9.750471312880180930e-02 -1.415879533919267574e-01 -7.196155894643192497e-01 -1.215572673145157018e-01 5.420188649772091916e-01 -8.315283403299283949e-01
-8.133270438742586095e-02 -1.295995090071535849e-01 -7.181388560795131104e-01 -6.481295883993880569e-01 6.840351332467028422e-01 -3.346998254039061371e-01
-5.289700624948530383e-02 -2.048688594159767673e-01 -8.254227243501206512e-01 7.290745715668449645e-01 -1.308723685392152725e-01 6.718055464548928768e-01
1.387612390902028502e-02 -1.910083945503648351e-01 -8.767504529375500510e-01 4.003220780825308411e-01 -4.175320460850474868e-02 9.154228005160262027e-01
4.549009258746672391e-02 -7.514552170562499578e-02 -8.545681127276139044e-01 4.068725412162262356e-01 -3.304115878287002261e-01 8.516354371635597165e-01
9.930746094577067029e-02 -1.302779355057622768e-01 -8.579899901427692210e-01 -8.493783205282299242e-01 3.548209714594175446e-01 -3.907154294742387068e-01
-1.180745316578645371e-01 -1.326663404794746759e-01 -7.403388497761242970e-01 9.102676992518164978e-01 -4.672084022154761318e-02 4.113755933302281065e-01
