-9.978543643166441421e-03 1.328867555728215910e-01 -7.175754172993532576e-01 -5.124544606323032658e-01 5.597606632761016332e-01 -6.511976855201145886e-01
6.019356110948967387e-02 -2.422321148400061186e-01 -9.939194806890576661e-01 -9.344639525540977543e-01 3.374553172080294039e-01 1.135827023142209347e-01
4.702239307902950083e-02 -1.704856913438325960e-01 -8.798418386069917219e-01 5.204750765176768129e-02 4.208980651342839052e-01 -9.056135355180240376e-01
-6.027339399153624350e-02 1.865330805856266483e-01 -6.903466171031166221e-01 9.218578344216222797e-01 -2.114436983352699917e-01 3.247609821850221401e-01
1.520988661333631288e-02 3.551097947359841550e-02 -7.952854147651886585e-01 3.168181970109870127e-01 2.652701616829108433e-01 -9.106360257333496744e-01
7.097390267631470233e-03 1.327078864255404611e-01 -7.463585848946409085e-01 -9.512363120462000721e-01 1.342432483170854368e-02 -3.081708392232414551e-01
5.130897674807384512e-02 -2.165282642670891267e-01 -1.001533709893691615e+00 -6.249349965076445024e-01 -5.301585633404189979e-01 5.730516101162386189e-01
3.766412394712424783e-02 -1.494089456910149549e-01 -9.403658686380017562e-01 -5.270159453020425433e-01 -6.753424681584085931e-01 5.159135044744455056e-01
-1.649396737256038012e-02 -7.628670598611238252e-02 -9.274181222439790151e-01 -6.181704490176257449e-01 -3.829750946451667137e-01 6.864367216596680699e-01
-7.128776182981116927e-02 -4.865401179573266427e-02 -8.883777711667438792e-01 7.018481068804210965e-01 2.222412020771043495e-01 -6.767703325114748925e-01
7.539694833308342725e-02 -7.470847224270596443e-02 -8.065948507176037285e-01 4.761259471727949388e-01 6.155596823275997220e-01 -6.280050636113960749e-01
1.158532411036086868e-01 -1.196743838491325373e-01 -8.668091176866286052e-01 -7.878951979278937534e-01 -2.347975451888876797e-01 5.692901455808252464e-01
-1.533287321170766779e-03 1.483837202046094372e-01 -7.638053115508223190e-01 -6.206176315394267284e-01 -6.750781435740157432e-01 3.988774943401210971e-01
-1.894390792752275246e-02 -2.455613256146406409e-01 -1.013082966717288258e+00 8.012084015821069327e-01 4.819573529338679885e-01 -3.546578734318810433e-01
1.156211008241084665e-01 -4.099880785216796636e-02 -8.222187836220120616e-01 -9.138865835989820052e-01 -3.017961200324347226e-01 2.715334495990304187e-01
-9.341149697271695918e-02 -2.269663943788990598e-02 -8.955337582247028250e-01 5.591256287514975165e-01 4.997196773102945966e-01 -6.615578397858631332e-01
6.162010662200962524e-02 -2.320442652586698074e-01 -9.837776104318147752e-01 -9.484355199818205184e-01 -2.279065583002272966e-01 -2.202922266457873479e-01
3.882676791487467416e-02 -3.292127547434383576e-03 -7.952801997654082022e-01 4.017958867751847962e-01 2.784523469551736796e-01 -8.723670992453227413e-01
4.012419178978286066e-02 -1.408703374080989557e-01 -9.146088514044081741e-01 -6.918956038284499455e-01 -7.050013545285789274e-01 -1.557355563631300788e-01
-5.626792971448056624e-02 1.678378474801844045e-01 -7.060139273109365954e-01 9.718703224611779934e-01 1.532375061110418935e-01 1.788472617628642236e-01
-5.396836891111767703e-02 -1.655016627481734892e-01 -1.015704972661015670e+00 1.533771117784671900e-01 -2.514133925418172155e-01 9.556499189730043309e-01
3.235646134569989535e-02 2.798140984712990664e-02 -8.463528565506678314e-01 -6.427501957707348890e-01 -2.099037367186328273e-01 7.367581741305875287e-01
-5.683276018202106789e-02 -1.161245861422239428e-01 -9.140133335883378063e-01 7.259880112078301861e-01 3.446514572875910010e-01 -5.951107296730913099e-01
-8.410518950284191038e-04 -3.649829186843433354e-02 -8.900441182417692110e-01 5.981884838036202190e-01 -1.901671753159029643e-01 7.784645035434157867e-01
-6.679327851072087985e-02 2.491118519103694556e-02 -9.166666904216276279e-01 -6.961260981450795304e-01 5.088975607325246786e-01 5.063908847538564073e-01
5.670349042660034755e-02 -2.436604567133457133e-01 -9.675425912887611890e-01 -7.986515167524623759e-01 6.013234064287306113e-01 -2.378898211228728382e-02
-4.939805532586869635e-02 -7.574483199902473651e-02 -8.770959747395207229e-01 6.213477034953952538e-01 5.089890141009291158e-01 -5.956989297334372990e-01
6.927694256476375767e-02 -2.278220083890828418e-01 -9.396191729721196095e-01 -3.613166989931452244e-01 8.412453815615519304e-01 -4.021895710110545141e-01
5.220036710611887509e-02 -2.523212454158871298e-01 -1.004677195895588238e+00 -8.603788469821719298e-01 4.410792601455881812e-01 2.553376704190923330e-01
1.622675590732309409e-02 -1.173670039098183016e-01 -8.591476780916309508e-01 3.282360508753523476e-01 5.246052644744086946e-01 -7.855255638052074385e-01
-3.922254470226800571e-02 6.077062084399233177e-02 -8.232588926804198515e-01 7.398375973962313390e-01 1.379676408926967246e-01 -6.584870989969930921e-01
2.147925767290580559e-02 -1.085865743247065585e-01 -9.132273295695702009e-01 -1.099703841544831390e-01 -2.677821746034476091e-01 9.571829613890774358e-01
9.875772595981168606e-03 -1.422868538915604553e-01 -9.420864366685961500e-01 2.160882186306960565e-02 -6.810091179522534954e-01 7.319560369882769368e-01
4.540717468584250932e-02 -2.587892441546261746e-01 -1.015313077836915490e+00 -8.562750044839297914e-01 4.075998765100697363e-01 3.172624424116764486e-01
-2.310546924754137629e-02 1.562172010910616304e-01 -6.847373297757586297e-01 -4.837584128106400816e-01 6.112388425231710665e-01 -6.263903538735766663e-01
-4.397376170177334093e-02 -8.013323285504325710e-02 -9.521366732702533087e-01 -5.776011241202982927e-01 -4.465555777574155560e-01 6.833484158090282756e-01
2.555925485330087094e-02 -1.852802316180724440e-01 -9.785888545205480016e-01 1.565528615882544050e-01 -7.774988804652437357e-01 6.090867691912389414e-01
1.491947779192039861e-03 -1.922453024023068335e-01 -1.018118147938115392e+00 -3.827981940138022177e-01 -7.301367663893354454e-01 5.660086969528792533e-01
3.489996402593652236e-02 2.633683672386502757e-03 -7.953550026939040229e-01 3.910454523943583394e-01 2.659620258522220615e-01 -8.811059272109531548e-01
1.045698102471754112e-02 -2.922205375156065599e-01 -1.023824262194356960e+00 2.868105883394198585e-01 6.968819385368322239e-01 -6.573395242624185952e-01
4.883773319167680066e-02 -1.313438640719272535e-02 -7.940980354075358738e-01 3.793896184231664859e-01 3.006385535040086987e-01 -8.750314151959009967e-01
-4.397709295570414317e-02 1.427320619512447153e-01 -7.040006395143699747e-01 6.670763463545593686e-01 7.026693974768515316e-01 -2.475174054158027215e-01
1.722802904817368960e-02 -2.356657293550115662e-01 -9.633106722619270146e-01 2.504619955215419136e-01 7.410460735706514424e-01 -6.229923800857343208e-01
-1.350347705820410457e-02 -1.138258392306187722e-01 -8.668509919037101774e-01 5.617585260867463681e-02 5.226156684207512448e-01 -8.507156614902653402e-01
8.319018859729073595e-03 9.494832943624528787e-02 -7.679366225782492394e-01 -6.439503560008954519e-01 4.835380333421658849e-01 -5.928903012513447868e-01
2.463608823507757242e-02 1.753328475396792943e-02 -8.622798062002346997e-01 -9.719613311539514466e-01 7.696209965226659400e-02 2.221891220527082988e-01
1.030618487725732668e-01 -1.145784692947182104e-01 -8.270209294732538963e-01 1.403255881952474859e-01 4.761261634490487893e-01 -8.681086370823341003e-01
5.416461192210604569e-02 -1.403370027621310412e-01 -8.568395130550451322e-01 3.785096458012440213e-01 5.510903148994013012e-01 -7.436598098993220107e-01
1.011979695381635957e-01 -3.973817983278481181e-02 -7.870331615015632165e-01 -4.005282522332885287e-01 6.809362459639943521e-02 -9.137507195358436363e-01
1.889487492738375213e-02 9.145271204427639355e-02 -8.194202733178356235e-01 -7.224812185684130750e-01 -6.062746310577616926e-01 3.323431367603008613e-01
-4.229114838266214565e-02 -5.307503277200482927e-02 -9.248562826867672282e-01 8.321696735359607189e-02 -9.805541089965378321e-01 1.777317520154357289e-01
-2.320382180909924368e-03 -2.289703023765801149e-01 -1.040881967391427132e+00 2.572421229292315425e-02 -1.200095601899531933e-01 9.924394038755830483e-01
-1.071907409232134289e-01 2.589166458133112039e-02 -9.248803202405436741e-01 5.616085728709725444e-01 -6.580758274756254300e-01 5.015296762606380465e-01
7.507514489086987430e-02 -1.976657962880074004e-01 -9.509253433235564934e-01 -7.321968346926359672e-01 -3.956751150403023387e-01 5.543726171122888013e-01
-5.333908265041307356e-02 -5.441125804156698997e-02 -9.290258636954176197e-01 -2.612922553657290314e-01 -7.984083807000759148e-01 5.424669712653235054e-01
-5.755175792512055161e-02 7.174905165043030109e-02 -8.675247330639748178e-01 -1.288372791106039052e-03 -9.645454224752287864e-01 2.639137512098104765e-01
4.251251598544061872e-02 -2.546646886472748172e-01 -9.782105801742155826e-01 1.641159478830633150e-02 8.607505546665394913e-01 -5.087623631890911824e-01
-2.511357568739927201e-02 1.841503568435613053e-02 -8.878305712868661548e-01 -2.453302627291053251e-01 -7.908049805982930724e-01 5.607499842623284714e-01
7.818312270876060302e-03 -2.635303759920419320e-01 -1.041811269267427509e+00 2.787029082644411626e-01 1.422372283628452194e-01 9.497859020814103381e-01
2.737621746066726605e-02 4.023878308749884863e-02 -7.899542289199263934e-01 2.707060716714403403e-01 1.695982765066674502e-01 -9.476046893964725770e-01
-8.949642242245448367e-03 1.688671103934352973e-03 -8.097351931341300046e-01 1.171118892944194717e-01 3.727787136237239451e-01 -9.205003183350526363e-01
9.017713791778407539e-02 -9.195509915361438358e-02 -8.694453398057294669e-01 3.100683766875956815e-01 1.958532016106847573e-01 9.303220545580780376e-01
-7.023650222497343498e-02 -1.493241411685550246e-01 -1.009496303362244829e+00 -5.984041403779262192e-01 4.885543199590356434e-01 6.350017017519871132e-01
-1.848378098244199061e-02 2.656288582541496690e-02 -8.035010848499875014e-01 4.050434206674579651e-01 2.503740680303618293e-01 -8.793478568984701704e-01
-1.659299889254790134e-02 -1.253592337019137359e-01 -9.586958967051706360e-01 -3.854461892631845243e-01 -7.349784473985988553e-01 5.578870109995701654e-01
1.706762684759815032e-02 -2.896248951461009857e-02 -8.736433051416445661e-01 -9.820538455675161815e-01 4.443708271910829649e-02 1.832909983754479888e-01
-2.542865941372818989e-02 1.861587216313491666e-01 -6.638583679810594607e-01 -7.351672739057297790e-01 -6.248060901747404944e-02 -6.750001873146577180e-01
-4.702206330048376570e-02 2.802955280006165853e-02 -8.938445776451621194e-01 -6.522822178026527196e-01 5.374782777429040204e-01 5.344576777378863275e-01
-1.201567825956956076e-01 -3.173569354612999077e-02 -9.376145847379058207e-01 6.937558234542942071e-01 5.850296090012351291e-01 -4.200514421057450765e-01
6.588640277093399389e-02 -8.555630171705357057e-02 -8.194996692072071820e-01 3.454045108133996789e-01 4.839747050537859252e-01 -8.040299800242882711e-01
-6.949604679080753286e-03 -1.385304395306591607e-01 -9.677157321586902228e-01 -4.952925694106374843e-01 -6.846006435317856242e-01 5.347964374997965509e-01
-8.423320617864282767e-02 -1.420383684109867428e-01 -9.713759064601775739e-01 8.256841280641306069e-01 3.700466786185950263e-01 -4.258065010146306895e-01
5.265547907979341649e-03 -2.714473312351758927e-01 -1.039099562357489459e+00 5.191902595067233728e-01 1.954342187291897293e-01 8.320137862938644657e-01
9.022005557344728310e-02 -8.064550886568587398e-04 -7.877111595913127706e-01 -7.241225546461137474e-01 -3.930316373777656414e-01 -5.667209700310538167e-01
-9.744895789706572650e-03 -2.277134656698405757e-01 -9.641472989519475068e-01 6.957333720909889552e-01 5.784035834551254363e-01 -4.259159184688588451e-01
1.562341094526049044e-02 -1.590770500661781994e-01 -9.538968277364688886e-01 5.335927632065285975e-01 -1.017445261560897540e-01 8.395991986959576714e-01
5.327837279281923133e-02 -2.536543903155732416e-01 -9.896653365443026651e-01 -7.311829927110169436e-01 6.820676389033891729e-01 -1.245660992874807367e-02
-7.725025771748879333e-02 -2.830999062442866865e-02 -8.844690317904587706e-01 6.153031570553062490e-01 3.810270395995557502e-01 -6.900872553610679638e-01
3.281544359361616287e-02 -1.277117303300874529e-01 -8.586668941931278054e-01 3.720824990723070047e-01 5.024443159287472760e-01 -7.804513586861130392e-01
1.177908046118075480e-01 -1.220126651195560519e-01 -8.647760223075328101e-01 -8.476963252596655396e-01 -1.920162377833525558e-01 4.945105707351324931e-01
5.694952639407328820e-02 -8.299212084664439604e-02 -8.218753021335550857e-01 3.773575723316435204e-01 4.394863005876340489e-01 -8.151398985448844448e-01
-3.132923450507130864e-02 -2.017003702294559719e-01 -1.024455697440260327e+00 -2.438047413279005315e-01 1.985713085250316312e-01 9.492779801178853338e-01
-3.627449207471326875e-02 -3.399058857785536292e-02 -9.206753864519019448e-01 -7.428630905261995876e-01 3.621168494154385908e-01 5.630504560901270494e-01
-5.134366409650962387e-02 -5.527593812428371195e-02 -9.308576436986567559e-01 -6.560182867424455000e-02 -9.773973122772070532e-01 2.009748591935986428e-01
-7.305608799240798090e-02 -1.668172178812486195e-01 -9.841978027148341468e-01 5.597549438698962154e-01 7.665046008858716897e-01 -3.148731484804629943e-01
9.165980799110201582e-02 -1.568249602820302457e-01 -9.086768593751280987e-01 -5.595263333647315651e-01 -4.608196119003226676e-01 6.888944531344808331e-01
-1.263488831774933069e-02 1.401702509247986506e-01 -7.087801843527581358e-01 -5.733323853986536101e-01 5.501860288122393250e-01 -6.071122709622229774e-01
8.476575180653843355e-02 -1.324303033264054852e-01 -8.953718708438398455e-01 -4.788481147380933556e-01 -5.451258125632315599e-01 6.881441211614400810e-01
1.052957634515601197e-02 -1.373916078550818098e-01 -8.731097859589389554e-01 2.015767514344768696e-01 2.991306972532198349e-01 -9.326776716754432428e-01
3.721326144415909587e-02 -1.352761946537987259e-01 -9.072761811512308761e-01 -4.577307461770885322e-01 -2.065696170440201040e-01 8.647609827683327977e-01
-2.124372668469871536e-02 1.378628270744771678e-01 -7.817991139379483201e-01 3.867463431793951023e-01 -6.485008891424348665e-01 6.556476666768799033e-01
8.631179211511118277e-02 1.332676211416263488e-02 -7.981829725051438063e-01 -8.058461145548992954e-01 -5.894939841581861018e-01 -5.575735196438506847e-02
-4.443671838633986640e-03 7.321050076420024255e-02 -7.769425362413756586e-01 -6.127899207882456928e-02 5.547877178558331401e-01 -8.297321695861381574e-01
8.072321528205757268e-03 1.365517271489112283e-01 -7.516596416050821405e-01 -9.709205355497434464e-01 -1.767122372237231731e-01 -1.615119155455288502e-01
5.116996365616224840e-02 -1.178496512595278434e-02 -8.526284393142177231e-01 -5.546489043062301505e-01 -4.939020154871253676e-01 6.696457212957118710e-01
-3.930262610659737699e-02 1.465366497954309621e-01 -6.918832675340609306e-01 9.451682679865053283e-02 8.511644938264892879e-01 -5.163192557914241254e-01
6.232374190050143752e-03 -2.190670650592472513e-01 -9.480111882369205434e-01 2.814064089545892378e-01 7.247180769943494250e-01 -6.289627507864794520e-01
2.327436251300421446e-03 1.254203672249186718e-01 -7.384934338385868990e-01 -8.445606571214604452e-01 2.540371479459797022e-01 -4.713623064119993877e-01
-2.294852425438127785e-02 6.844982552447434476e-02 -8.557663251179514763e-01 -3.893934783496927343e-01 -7.366632602502993787e-01 5.529014017129341152e-01
3.946080715801282557e-02 1.475951216356077237e-03 -7.935614755950862742e-01 4.249572717079889150e-01 2.551675666546415755e-01 -8.685049396232883412e-01
-3.799571662780009546e-02 -2.926949944871879566e-02 -9.234658667613576677e-01 -7.865969933986379781e-01 -1.037845617625071798e-01 6.086821294534509041e-01
-4.370875280405481234e-02 -1.058417787886458128e-01 -8.917314729350899194e-01 7.023433139166791461e-01 3.678946073069840339e-01 -6.093992347476138161e-01
-1.141804030160906563e-01 5.692367921088901592e-03 -9.397432159788741135e-01 5.297601610944605577e-01 -5.735205744562960062e-01 6.248426381037800459e-01
-6.704961530358752309e-02 -6.598737804856262545e-02 -8.863498502380775523e-01 7.073602723874615750e-01 2.747289530274339975e-01 -6.512798533782433452e-01
-1.030350542056222979e-01 1.547292036227957898e-02 -8.894265893231799724e-01 6.856538701013862314e-01 2.192930388940912134e-01 -6.941104620358248267e-01
9.388478560683974350e-02 -1.748011400490227518e-01 -8.720100730013170542e-01 8.887433481720641293e-02 7.401939542116923176e-01 -6.664940080445272974e-01
5.179448211714120925e-02 -1.532233519501232932e-01 -9.280498194795042677e-01 -6.424462034189452053e-01 -7.011951128368393293e-01 3.091735587761597626e-01
7.760585207067474678e-02 -1.091420431363155225e-01 -8.822005558799895786e-01 -4.911798038534842537e-01 -5.576926613725947668e-01 6.691197917694599040e-01
-8.564775942600943992e-02 1.156114946113581850e-02 -9.323128936263697097e-01 -6.308579773697735593e-01 4.096073661370032148e-01 6.589689051808328424e-01
3.120041289504080911e-02 -1.313943882917993911e-01 -9.174096571611730644e-01 -6.833484254229842403e-01 -7.231276313106619336e-01 -1.006049616418577541e-01
-2.089242719392952682e-02 1.680269433311840088e-01 -6.765403694802741841e-01 -7.044049893486274971e-01 4.163407331320216342e-01 -5.748686849323513259e-01
2.802129326672923165e-02 5.674317594698571887e-02 -8.218015617497770320e-01 -5.327237200524286287e-01 -6.988170261747010947e-01 4.773470456825399943e-01
4.055579322896872563e-02 5.493608408085422917e-02 -8.096207977029957759e-01 -6.277671070332729863e-01 -7.641517396241492843e-01 1.482584842646844092e-01
-1.344300280016453263e-03 1.548537493711547690e-02 -8.748619855019046376e-01 4.121077473509382472e-01 -3.315341676605514376e-01 8.486767937483389312e-01
6.944826386120590833e-02 1.460299666503283786e-02 -7.809843155145702598e-01 -2.148284908638245783e-01 -3.473840427454358837e-01 -9.127831321617467797e-01
7.490882807611910776e-02 -1.235011608136050432e-01 -8.947324886306294855e-01 -3.977586151384864821e-01 -5.185487758121042345e-01 7.568984417918175334e-01
8.689518004198149015e-02 -1.698302224360800916e-01 -8.686630662855915341e-01 2.351952595927969125e-01 6.817987073541104115e-01 -6.927003049770811272e-01
-2.959874777713837266e-02 8.742518623506934095e-02 -7.912260278392402313e-01 9.799040197354369486e-01 1.818486173122615956e-01 -8.197068066053368740e-02
2.153306965925176619e-02 -9.663720745199794182e-02 -8.407506493555382265e-01 4.985259493640216699e-01 7.186803306037582439e-01 -4.847375168211904284e-01
-6.952138907892399522e-02 -8.244931629097469739e-02 -9.759704473357990739e-01 -5.252759638121689001e-01 -5.344056572771975766e-01 6.621901202157305377e-01
-2.554057913178159681e-02 1.924114322362935336e-01 -6.659950604474679237e-01 -7.353839071151774265e-01 -4.036786330341791684e-01 -5.442922655960423794e-01
5.853109469936024906e-02 -1.564600688023839170e-01 -8.669698145276863999e-01 3.147574396157625243e-01 5.811901056208292893e-01 -7.504304200490401477e-01
-3.876495974111582310e-02 1.962047752255121347e-01 -7.035204912789686515e-01 1.319474262898971163e-02 -8.488700286819851337e-01 5.284369150356553746e-01
1.238100750495365124e-02 -9.753308993009275618e-02 -9.084773756924007238e-01 3.618998924447916488e-01 -2.497176122981159541e-01 8.981478619673800567e-01
-4.871382155205714742e-02 6.119715999331407780e-02 -8.832693368359282315e-01 -3.597320982648717358e-01 -7.041333079098414105e-01 6.122002141210808324e-01
-9.064360136291102141e-03 -1.956862096217396318e-01 -1.025620449439209381e+00 1.414422714175170848e-01 -8.397242457494437096e-01 5.242683234344615029e-01
1.132923369771315636e-01 -1.071187531588975311e-01 -8.652320341792699709e-01 -7.371136335430857889e-01 -2.338119607621129969e-01 6.340311177296311662e-01
-3.294290916201255120e-03 1.134466770554541093e-01 -8.092786568261350899e-01 -2.220765454969262087e-01 -7.279586587866681002e-01 6.486587693369041396e-01
7.224954789118911980e-02 -1.856158746127184178e-01 -8.856448957714283532e-01 1.233638717182518468e-01 5.823211041780984587e-01 -8.035443278273346479e-01
2.359067372076814953e-02 -1.923472690251657458e-01 -9.172854173174446180e-01 2.988857874147882177e-01 7.191856666313762858e-01 -6.272473698577182288e-01
3.265244715169501877e-02 -2.687552167242696632e-01 -1.030729102810929554e+00 -7.485911350141748466e-01 2.688582390612506146e-01 6.060747147564176096e-01
-8.267759616046516102e-02 -7.198239248210552832e-02 -9.070666816191808035e-01 7.078115813903506082e-01 3.347625420215861181e-01 -6.220424468707397292e-01
-1.474444587324223038e-02 4.772132241601510783e-02 -7.949238639221044567e-01 3.422993067785958798e-01 4.346608462254756833e-01 -8.330072828837968846e-01
-1.226954709516576425e-01 -1.776748308722806563e-02 -9.258565228480747367e-01 8.825802533381758019e-01 2.411951636163771340e-01 -4.035802144129349012e-01
2.574152163773949648e-02 4.385667419427624614e-02 -7.897927486375942996e-01 2.094087202736913123e-01 1.825002391572716764e-01 -9.606464753388072042e-01
-7.311450648016477871e-02 -7.427358983666537684e-02 -8.991939193758256010e-01 4.976594540349111861e-01 6.653029214545151948e-01 -5.565133336351978377e-01
-1.110786575347068317e-02 -1.609994411871932263e-01 -8.990343489920710196e-01 7.671015355606657093e-02 6.192148166748195903e-01 -7.814656506538046887e-01
-9.247637430727342900e-02 -3.427043471863999019e-02 -9.026561748352582848e-01 6.354162841897800229e-01 4.293925982058909296e-01 -6.417695399381675436e-01
5.473301847781750218e-02 -2.153672877972588051e-01 -9.763484297057026806e-01 -4.646288959909138372e-01 -6.568736733821676221e-01 5.938324395211852513e-01
2.613840135654592334e-02 -8.245769403200135794e-02 -8.991612778090679603e-01 -4.156484382784457754e-01 -4.855187199718715707e-01 7.690955391325348112e-01
-5.730340760283544194e-02 -9.013451396452167030e-02 -8.969808697542555054e-01 6.586617437154355104e-01 4.413413217214190443e-01 -6.094116384734812319e-01
-3.836936769690697021e-03 -8.118942404277554314e-02 -9.107369435163940041e-01 -9.928238510145909190e-01 -9.483084412016717923e-02 -7.285541750627506918e-02
-1.219041611222737272e-03 -1.734111848897424979e-01 -9.708245263663793923e-01 -5.901466897954792401e-01 -6.929753324466798592e-01 4.141401612302917923e-01
-2.861119966414684551e-02 -1.006984892661904468e-01 -9.522151062482298034e-01 -6.397323551531185482e-01 -3.078456223384821722e-01 7.042539219466774636e-01
-1.138285187623895994e-01 2.421308716827294191e-02 -9.022631278155593959e-01 9.288137384936333563e-01 -1.934246881144908725e-01 -3.160568449081465614e-01
-5.384254176947947390e-02 5.344240111390367864e-02 -8.943495391990355925e-01 -3.600239233148943563e-01 -6.659671368131554470e-01 6.533533097228781950e-01
3.498576565302347063e-02 -2.220667505339314896e-01 -1.017286564934936077e+00 -8.473226784359193242e-02 -5.658557226351773606e-01 8.201388565036430434e-01
-5.581496339021650016e-02 -6.996916384848715642e-02 -8.773820353903987179e-01 4.562894191341462791e-01 7.268381367547400718e-01 -5.133286363969197241e-01
3.863125472073834082e-02 -1.430474310367073620e-01 -9.304483284757377737e-01 -5.709539593927893675e-01 -6.750956265814123114e-01 4.671803412220460472e-01
7.294386649347042728e-02 2.882460568735212975e-02 -8.091218416625318710e-01 -7.201039477181478965e-01 -6.601011112412507043e-01 2.138149373145033783e-01
-8.457468181209495950e-02 -9.118389999560450043e-02 -9.266940288755199928e-01 6.190972425482860197e-01 4.900829571673895324e-01 -6.136263515879801789e-01
1.239613987754956265e-01 -1.202018842108362878e-01 -8.402593735482248860e-01 -9.640137941487774143e-01 1.911445395493497901e-01 -1.847732926895704619e-01
8.045438521816813959e-02 -1.899491463824934945e-01 -9.260201040506068626e-01 -9.090063766388291056e-01 -4.147410180320548756e-01 -4.119824258001916067e-02
2.072180747637467416e-02 -7.037060437908111178e-03 -8.724737177049242121e-01 -9.685204238850059211e-01 1.003036877820484840e-01 2.278318650560753611e-01
-4.884152385712235700e-02 1.757846428700247376e-01 -7.190419880369373073e-01 7.359267381482169634e-01 -4.218522400162387775e-01 5.295776842653090455e-01
5.994074695311754630e-02 -2.175306070083108112e-01 -9.745775322335546997e-01 -2.386379821605986717e-01 -3.640544012633577520e-01 9.002867911899495867e-01
-4.959885302173905330e-02 1.953351298657883539e-01 -6.995540732045490984e-01 4.981161600878346030e-01 -6.663402585871865957e-01 5.548611996214118935e-01
1.786941688825845545e-02 -9.000590645882275420e-02 -8.365003558028686337e-01 3.876960735170619787e-01 4.751518327226549876e-01 -7.898876441872954013e-01
6.088695784880681500e-02 -2.402507362479008590e-01 -9.791339696644638657e-01 -9.205140013616455175e-01 2.407459368761078189e-01 -3.077261236470148487e-01
5.520133277686550821e-02 -2.267152118721115495e-01 -1.004206837842217315e+00 -7.552006445904984044e-01 -2.454284936653336469e-01 6.078131628282338328e-01
-3.009928882451243584e-02 7.749584197962110232e-02 -8.058758652416164736e-01 9.978743891935351051e-01 -2.749335720603341554e-02 -5.908315073835128384e-02
4.330924044452646310e-02 -5.455527068893979009e-02 -8.133229995634198017e-01 4.431525952778313515e-01 4.247382482648464630e-01 -7.894385332370293940e-01
4.902896935458401356e-02 -2.379883951443668710e-01 -1.015079052920340619e+00 -7.724101307991395604e-01 -1.010763704880867503e-01 6.270296302152004175e-01
-7.280939601872377098e-02 2.528056988448046730e-02 -9.243986267605395213e-01 -7.465898991903817672e-01 3.235407528296557755e-01 5.813130857681729768e-01
-1.024048428361902657e-01 -1.380425816065472197e-02 -9.579343347560436150e-01 4.253614411779627624e-01 -7.503099817779489422e-01 5.060657818934020113e-01
1.098001231515586401e-01 -1.691146622278308365e-01 -8.868985912584244069e-01 -9.764241556593322713e-01 9.543641265216390446e-02 1.936175595989326204e-01
1.546292878758219295e-02 -1.585041452396918349e-01 -8.801827881111274898e-01 5.068396913070685184e-01 7.211991505492335586e-01 -4.722132066797998795e-01
-1.030621894372598935e-01 -5.229244151693537151e-02 -9.779384582984614882e-01 6.878755733737723643e-02 -3.632202700181362265e-01 9.291605390908017625e-01
-3.267850356549582835e-02 6.783823117925400804e-03 -8.249854393441515832e-01 7.007112425759470797e-01 2.745582364883834559e-01 -6.584994527743066595e-01
-5.369148957670918237e-02 -6.601299180178317461e-02 -9.497680917739876882e-01 -5.448326951850034350e-01 -5.255318294966598858e-01 6.534321926897531663e-01
-1.101766660500452279e-02 -1.137096327126238815e-01 -9.357017630311688094e-01 -4.899138680954598368e-02 -9.373935253578771221e-01 3.448089654223170930e-01
8.323663219048686723e-02 -8.259360689066333819e-03 -7.810888628363433783e-01 -2.200422239145894687e-01 -1.495312341367406248e-02 -9.753757346760770774e-01
-2.796932163540868238e-02 -1.780677351074065051e-01 -1.019870748963138674e+00 -2.241183060022694240e-01 -5.197444744565116181e-01 8.244007922040089698e-01
2.168447001406612756e-02 -1.968999194946502718e-01 -9.881301905430929233e-01 7.267484413124642995e-01 -4.428719427426368593e-01 5.250725144027882374e-01
-8.232872425463515567e-03 -1.709184037105541398e-01 -9.881502282547929283e-01 -8.598861274573321722e-01 4.497444826316470690e-01 2.415072424355526326e-01
8.709059391636055081e-02 -1.161666596498162340e-01 -8.805744185006890712e-01 -5.926936639895392656e-01 -5.680621378262790122e-01 5.709812853630956697e-01
9.368569248329523813e-02 -8.145665683676787949e-02 -8.687859842898388862e-01 -3.936068230944502200e-01 -3.364588813019141478e-01 8.554934774775075912e-01
-9.550296964532251076e-02 -4.870148064586079378e-02 -9.762952735524688119e-01 -1.108385471278117568e-01 -3.919938761455744602e-01 9.132664548394209270e-01
1.154247906993630546e-03 -1.288971824997997284e-01 -8.718863388868788311e-01 3.159497521148642019e-01 4.684594799834504442e-01 -8.250584644449090455e-01
-7.574347869355634033e-02 -6.878348226499644835e-02 -8.973127728766837619e-01 7.393505254276795391e-01 2.597461327803534670e-01 -6.212026618225851005e-01
-5.043530088171560566e-02 -1.461169362934545690e-01 -1.005665534755464163e+00 -1.411667720007703797e-01 -7.040764217950553627e-01 6.959513882126783235e-01
-7.978648180095937459e-02 -1.774370319400337889e-02 -9.569803025455670964e-01 -3.636798677195325347e-01 -4.684917051871269056e-01 8.051412770355036441e-01
7.161397482258464835e-04 7.213601494348247101e-02 -7.783897139829788481e-01 -1.512628910277572514e-01 5.347600795431577403e-01 -8.313550355443337647e-01
-3.998864192802613349e-02 -1.561988307442856438e-01 -9.258848345351330389e-01 6.328210616449247983e-01 5.783701339025768551e-01 -5.148062666169728185e-01
3.642261966399680528e-02 -1.220673779301043871e-01 -8.528966050963200374e-01 3.976574257711285032e-01 5.416853018267272502e-01 -7.405711346751012725e-01
-3.434352214956012950e-02 -2.027532911423761963e-01 -1.024537719839570871e+00 -4.864868013651909434e-02 3.123781163053803156e-01 9.487113461820075866e-01
5.754980728724411361e-03 -1.192377130012043651e-01 -9.168381344116695031e-01 5.020865190311643023e-01 -7.862109509014562070e-01 3.602519508480092614e-01
7.865895910148330838e-02 -1.827762719103123712e-01 -9.204589860123740808e-01 -2.321980965239101025e-01 -2.512237034623511223e-01 9.396652035641916978e-01
8.279024320987614372e-03 1.021475031104362302e-01 -7.621975925730861690e-01 -7.613322617020122918e-01 4.007526111053999474e-01 -5.096768897879350169e-01
-4.379266740386603823e-02 -9.330645289736132220e-02 -9.606969717824440647e-01 -6.031593335889273710e-01 -4.189545339759609965e-01 6.787311078516635732e-01
-1.749083492706949433e-02 -1.182980198715997827e-01 -8.699427343724768225e-01 1.410281312154720856e-01 5.331765059470254808e-01 -8.341665779159419536e-01
-1.189576842913933896e-01 6.838048263675193007e-03 -9.132782109793653458e-01 9.244495747613916681e-01 6.068974252701044708e-02 -3.764435400899948658e-01
3.103871889107667065e-02 -2.763411096916932319e-01 -1.022459786342544641e+00 -7.506274788679557775e-01 6.387986392702807992e-01 1.688036920057573165e-01
-8.642091544879476617e-02 -1.050923006828711620e-01 -9.401309188874550360e-01 6.651391981223971905e-01 4.981583161325817133e-01 -5.562626530597262198e-01
-1.162247281441483940e-02 -2.183309718173207514e-01 -9.546419758518643883e-01 6.286054637738469619e-01 6.091824866730656263e-01 -4.834789228544374984e-01
-9.013430267534264240e-02 -4.161334456646355318e-02 -9.046068840705816516e-01 6.869497823688104354e-01 3.703872363012531976e-01 -6.252305908131524648e-01
-1.419319546378258919e-02 1.183193733270649847e-02 -8.068355923171153243e-01 9.438069223261305596e-02 2.909301824375713497e-01 -9.520776826921920621e-01
5.286345092091105508e-02 -5.155011063990837944e-02 -8.046466906306182221e-01 5.637091777707543550e-01 5.534927553522388521e-01 -6.130886825489496594e-01
1.655214273980290529e-02 -2.135132622807693059e-01 -9.984918465898680040e-01 -5.663570198530480937e-01 -5.774285512071571924e-01 5.880612164681306986e-01
-4.047382253099462979e-02 1.250689731038513164e-01 -7.508041624986218077e-01 9.116396268035551476e-01 4.068628416805989967e-01 -5.810179774380992701e-02
-2.718691425432541095e-02 8.462888231111170834e-02 -7.833692499739492998e-01 9.065048549315555260e-01 3.228907073384999493e-01 -2.720120201387485337e-01
-3.879626986971584229e-02 1.644104418427763670e-01 -7.415006614076096181e-01 6.024294570738906174e-01 -5.556967926085383258e-01 5.729570873409635112e-01
2.625689699178077735e-02 2.632707290932394598e-02 -8.573694678167022021e-01 -9.528081901463140158e-01 -2.026743107289113305e-02 3.028956652509423031e-01
-4.512298357958217238e-02 -2.714302761340835896e-02 -8.543498760832501926e-01 6.625955558051718208e-01 2.782128857895301288e-01 -6.953881790826599296e-01
3.322213971524560355e-02 -3.860896042454561861e-02 -8.097278506660564590e-01 4.997758274759421249e-01 5.372490379814014450e-01 -6.794023796387499425e-01
-6.190131432924254190e-02 7.123168966688440962e-02 -8.679876662143379829e-01 9.710236442179533134e-02 -9.700284121508327972e-01 2.227465161205246791e-01
-2.937118494377507008e-02 -1.610794381326033364e-01 -1.007553313456011956e+00 -3.312565036243821925e-01 -6.032796172622326702e-01 7.254811039596302802e-01
1.498373333390854920e-02 -2.245610005399378550e-01 -1.035107294813954137e+00 -5.595380698171502631e-01 -3.509584019657077669e-01 7.508297733274665875e-01
-7.002899690199859695e-02 6.861233577601358324e-02 -8.673477245173299988e-01 3.743461324498756349e-01 -9.244417548625374348e-01 7.261139708401291581e-02
-1.350456711895742234e-02 -1.470738537010591873e-01 -9.832111258540936483e-01 -4.394710732726742619e-01 -6.759483184464272210e-01 5.915733653115321511e-01
1.081847260522278281e-01 -2.345381437319503035e-02 -7.995278292985822377e-01 -8.487635033718099464e-01 -3.365247494489113089e-01 -4.078622418812010153e-01
-8.131230539333660079e-02 -1.386892785959289442e-01 -1.006272012961822337e+00 4.032028156430552124e-01 7.043914497787152895e-02 9.123956468069643888e-01
-7.691063574038729811e-02 6.838629842766789663e-04 -8.642786791229378762e-01 6.928136601562533414e-01 2.607203911658179107e-02 -7.206451838992604664e-01
-4.495125619784750420e-02 -1.669152733947904532e-01 -9.484619496131839744e-01 5.859685522457361850e-01 6.905884691982983048e-01 -4.239438901427721174e-01
4.297191445536947818e-02 -1.225597426842513216e-01 -9.117684955684952630e-01 -5.699462735002828323e-02 2.609684165692604044e-02 9.980333497978736146e-01
-3.586988648920302197e-02 -2.099907714935922154e-01 -9.816666541810501467e-01 4.115368463172748292e-01 7.765439308678214747e-01 -4.770921793066661976e-01
-7.181606938083798242e-02 -3.331616672523341621e-02 -8.820122291731017361e-01 6.379599627166051556e-01 3.480508071594645703e-01 -6.869262854238969984e-01
3.232560173874536591e-02 1.347216517417226464e-02 -8.450725671603993572e-01 -7.702892330420560985e-01 -3.251302181661921420e-01 5.485843952343935070e-01
8.875349578658923988e-03 -2.445451133236349328e-01 -9.757140307538839652e-01 1.271205808596115872e-01 7.362012936990041112e-01 -6.647164907521309063e-01
-8.651132195749986278e-03 1.636209740484559916e-01 -7.482361945448116058e-01 -5.237581901960447484e-01 -7.433522516934253366e-01 4.160586354167863932e-01
1.669182217070435889e-02 5.485414389553264214e-02 -8.586592012330072077e-01 -3.912132445824187954e-01 -4.983168455391531193e-01 7.737134603425254165e-01
-4.960015831809674869e-02 -2.055532052737311932e-01 -1.016531980279161917e+00 7.221800862839284907e-01 3.214996769855816838e-01 6.124490841474943270e-01
-8.918910490463444196e-02 5.569530597690258017e-02 -8.735707966468043706e-01 7.308487839225030758e-01 -6.364921785489472406e-01 -2.464503229557906683e-01
1.955127918889495997e-02 -8.101985274300510520e-02 -9.013318548573892031e-01 -1.464757549444545004e-01 -6.769791282204347116e-01 7.212794972598016718e-01
1.695849224592867882e-02 -2.223969477328041899e-01 -9.466275882800141428e-01 3.801678333575302937e-01 7.464624821473280214e-01 -5.461375112796147402e-01
-6.299026065294015264e-02 -1.078830787413956049e-01 -9.158551068558598018e-01 6.638236913849602239e-01 4.347207808164408882e-01 -6.085687713663834320e-01
-6.215117443868678482e-02 -1.429006920628777821e-01 -9.308596943903872933e-01 3.738954880215338838e-01 7.404154034318283228e-01 -5.585581387805766962e-01
1.492709954732434003e-03 1.335941293566052790e-01 -7.827657791065204540e-01 -5.695491238174158477e-01 -6.308338932888970518e-01 5.269368032665647794e-01
1.306163408222834645e-02 -1.306428216231405315e-01 -9.332490722163779839e-01 4.678528315287055483e-01 -5.213772133707799128e-01 7.136382342674003620e-01
1.090148544486341381e-01 -1.683442118414472943e-01 -8.712649027165522142e-01 -8.069324712731164029e-01 5.361712387194216278e-01 -2.477506600902244227e-01
-3.690943251532431690e-02 7.371657723184013578e-02 -8.221835491890686631e-01 7.364609643301208708e-01 -5.361056309782448182e-01 -4.125724184326509114e-01
-1.985388919897338941e-02 6.186604598794889776e-02 -8.611409132858585114e-01 -5.099388515741619665e-01 -5.982710570567169039e-01 6.180890792947756340e-01
-4.798832530023949827e-02 5.953946676943253080e-03 -9.189272178179839212e-01 -6.418787298906012406e-01 -4.662254500628112974e-01 6.087902149573019006e-01
-1.746258965567784940e-02 -3.097889237344626095e-02 -8.274943351920868162e-01 4.044607515376540396e-01 3.615454389016805603e-01 -8.400573766564919387e-01
-7.765170418023795325e-03 -2.537738986025663279e-01 -1.001728350668160461e+00 7.947967226161751775e-01 4.968054177912906155e-01 -3.485434643940523713e-01
1.056265236407833291e-01 -5.103261297570259314e-02 -7.904559009277288828e-01 -2.678441011690014806e-01 2.865227226843994890e-01 -9.198718752383336916e-01
-5.844430710552403485e-02 1.939916233106040167e-01 -6.698355734618567370e-01 7.336793559946626075e-01 -4.679513262884805180e-01 -4.926826146842501197e-01
-2.950231375051915080e-03 -7.678195891994618605e-02 -8.400427911241676870e-01 4.559733637832346642e-01 4.106929408168404350e-01 -7.895692495806920785e-01
-1.199181354838522451e-01 -3.541427982153808746e-02 -9.423015597662480758e-01 7.420361723740178661e-01 5.201231389800373694e-01 -4.229116210109027385e-01
-2.988598801918629019e-03 -2.489693361569099428e-01 -9.838803014689575521e-01 6.267943125787116543e-01 5.966543245884539104e-01 -5.011312269943636322e-01
-1.081179387735036329e-01 -2.642416199287310127e-02 -9.132069480916896742e-01 6.443144039746824259e-01 5.707220044847438611e-01 -5.090533787606816851e-01
-5.366606024220258592e-02 -1.735264273691286274e-01 -9.704095349354141531e-01 6.038575157683677697e-01 6.492785443042545790e-01 -4.623780623647749111e-01
-2.868956908321241075e-02 1.908001550856300559e-03 -9.021250905691653443e-01 -6.211131634844636595e-01 -3.857223065400591788e-01 6.822292432780484583e-01
-3.554957028798531871e-02 2.013913757821430561e-01 -6.923944313351367841e-01 -1.594309532464994461e-01 -9.352958831656958960e-01 3.159167328272016184e-01
2.015841240603834586e-02 -1.447405706847331164e-01 -8.737191240243538104e-01 1.814100707262941148e-01 3.353706663731344517e-01 -9.244549217649936645e-01
-2.779917280578576844e-02 6.657267519398875344e-02 -8.616770399445846662e-01 -3.898184848790139378e-01 -7.353754398584179119e-01 5.543144516424486357e-01
9.166666195402850548e-02 5.428555582727399159e-03 -8.105599253339749177e-01 -7.724853711759689379e-01 -6.137452568017814913e-01 1.630432797524660749e-01
-2.847385034476464932e-02 -2.714566041501777910e-02 -9.121943753662961063e-01 -6.976335234239343652e-01 2.138571022234803110e-03 7.164515988600275165e-01
-8.540979898376625801e-02 3.618971435018396299e-02 -8.664843167647665600e-01 6.474283672830140057e-01 2.384684190242370161e-01 -7.238572527545276136e-01
1.143010040051538889e-01 -3.419212308857984967e-02 -8.181566479534603253e-01 -9.150273760607933182e-01 -3.554361222633476425e-01 1.907617992410800545e-01
1.544044728797642173e-02 -1.712264863859188357e-01 -9.545246923367984859e-01 1.566845734716801053e-01 -2.801525784287970389e-01 9.470820857959960648e-01
-4.642061959226688461e-02 -3.536004455434856031e-02 -8.589704409123347650e-01 6.691813971899310820e-01 2.976382718989370457e-01 -6.808874479353737019e-01
-8.691115640183577282e-03 -3.678318809565132852e-02 -8.288219001869603364e-01 1.831095237266696651e-01 3.970546556814391059e-01 -8.993433730907712809e-01
-2.762520628907285877e-02 -1.413754673278088680e-01 -8.925888735729645695e-01 8.305731396207794992e-01 3.965788564662539595e-01 -3.909903711658377357e-01
-5.308038252798920331e-02 -9.129125427124727687e-02 -9.682047068652442912e-01 -6.436588808888581426e-01 -4.533526762817724487e-01 6.165830000584326953e-01
-6.313457129661635692e-02 -7.921477721245458181e-02 -8.945006624943585560e-01 6.174273880519369762e-01 5.168075921438652909e-01 -5.930373792484106010e-01
7.002299424537210271e-02 -1.954042565341277682e-01 -8.926871920155942108e-01 3.094661271079201387e-02 5.778634871889501978e-01 -8.155465022520508311e-01
5.483885993780462931e-02 -1.107645885048558904e-01 -8.987244246964728456e-01 -4.852156937615609844e-01 -4.612358207380616859e-01 7.428507576866121287e-01
1.754162985215722975e-02 -9.397169163761460997e-02 -8.409036858544193249e-01 4.985259493640216699e-01 7.186803306037582439e-01 -4.847375168211904284e-01
7.368932767126216976e-02 -1.948021372917046468e-01 -9.507493321054933944e-01 -6.894056897878722001e-01 -4.422153202546467154e-01 5.737293834380354784e-01
6.216122329683286020e-03 1.167056176046228910e-01 -7.499182468682935587e-01 -8.532082970151150247e-01 2.367666540600323888e-01 -4.647334218988172783e-01
8.882324038606061178e-02 -1.616372603911618855e-01 -8.586930397943486337e-01 3.869458557323691705e-01 7.049133011517892955e-01 -5.944494449411417136e-01
-7.537041146776829459e-02 -7.476196151760153286e-02 -9.719108079624472207e-01 -1.203767174190219086e-01 -7.169434686094473541e-01 6.866596745999254958e-01
2.474214707599570184e-02 -1.259485251890219148e-01 -9.204225886993545602e-01 -5.435113696358540025e-01 -7.967753364408869388e-01 2.640917535934617089e-01
3.553134939629581240e-02 -2.418130138877599422e-01 -9.622368889645959156e-01 3.940726834314541294e-01 7.620904176765388449e-01 -5.137362314055059498e-01
-1.528305623556964685e-02 7.573517626035755623e-02 -8.350014841334911786e-01 -6.562879627250864378e-02 -8.782143784969919098e-01 4.737429329298371017e-01
-7.184349056254013544e-02 -6.816159469534843751e-02 -9.606038411281117018e-01 1.728069092807314189e-01 -9.004159971059823020e-01 3.992352743188921083e-01
-1.074789041225997048e-02 -1.410091244819312029e-01 -8.818060030364245350e-01 3.374223746930615775e-01 6.740031829626896842e-01 -6.571650100337497191e-01
4.302435014308561567e-02 4.675659086439663131e-02 -7.914148169730702564e-01 -3.841144504340237020e-01 -5.580220934568843605e-01 -7.355728598730135737e-01
2.607330104754206415e-02 -5.823424306422447967e-03 -8.013102604015283070e-01 3.051143985993722274e-01 1.284482786824875933e-01 -9.436133972506163259e-01
-9.877831909617482142e-03 -1.082224149894330939e-01 -9.228957074143528949e-01 -8.007314077049084711e-01 2.583556627647625725e-01 5.404457088665761688e-01
-1.197735691068964325e-01 1.139763406410891459e-02 -9.208311914031788170e-01 9.089685365337616396e-01 -3.723946410328932699e-01 1.873457523448402995e-01
-8.672931810184541027e-03 -1.975784594673017647e-02 -8.891032179564694049e-01 -9.403074289034194511e-01 -8.003577394273232726e-02 3.307812177836408352e-01
6.760514798048592074e-03 1.264716169739642515e-01 -7.467061727994929177e-01 -9.156462565200738091e-01 1.261631462325926711e-01 -3.816736740377417170e-01
8.938535228881709649e-02 -1.404276818565592388e-01 -8.420043617765180510e-01 2.153956719050567972e-02 5.133988155224621375e-01 -8.578797720341577726e-01
-5.461616130434070182e-02 5.814753837531939223e-02 -8.378504195339238070e-01 6.596861110033834796e-01 -2.888384017337101636e-02 -7.509859910318373855e-01
-3.319527102163774557e-02 1.883480583418556398e-01 -7.154458481597900654e-01 2.462187586074593426e-02 -8.241680400375489546e-01 5.658098664832235114e-01
-7.371254567814826408e-02 1.616223576498574885e-02 -9.200350935513590400e-01 -7.124300878209520738e-01 6.919509163683974784e-02 6.983232842035270727e-01
-2.291453638273977769e-04 -6.255060470126187766e-02 -8.360340531036078993e-01 2.963066501068621350e-01 2.373311362750019915e-01 -9.251358283283953599e-01
-3.535451458609936704e-02 1.936220125693220440e-01 -6.601729847665528395e-01 -1.789744433409365398e-01 -4.632236453641690455e-01 -8.679815683563404383e-01
1.054501663895631575e-01 -1.416164240460539847e-01 -8.723618945635540634e-01 -8.372319619994399442e-01 -5.437895595993077480e-01 -5.775427843336984612e-02
3.043220988632283630e-02 5.598507249313324635e-02 -8.209509596796426001e-01 -3.807598949675272126e-01 -7.787612554539892207e-01 4.985507089434775829e-01
-6.398613154692074645e-02 -7.312675864553255800e-02 -9.642392369851932044e-01 -5.668728947129820783e-01 -5.012954277773694622e-01 6.537262541226477319e-01
-3.475002622096710903e-02 1.364805070791904607e-01 -7.681248282544095307e-01 8.235310860276060518e-01 -2.920965536204349067e-01 4.862881385652504385e-01
-1.154774936661094771e-02 -3.208682585177771024e-02 -8.268889728201016531e-01 6.177758127536121108e-02 4.144975043342448151e-01 -9.079511822518042674e-01
1.077395240709193291e-01 -1.485933207030782355e-01 -8.475799887830702817e-01 -2.262938874150373092e-01 6.075907771725538309e-01 -7.613307586150993567e-01
-6.270533070024707223e-02 -1.617286454315812194e-01 -9.615759290389785940e-01 4.575070562490400894e-01 7.775939656641674969e-01 -4.313176532962814669e-01
-1.942211984466572089e-02 -4.756837571453046559e-02 -8.353742190415553992e-01 3.830022284877395711e-01 3.272564061392611579e-01 -8.638359436919953449e-01
-2.114809745561949898e-03 -1.640655667532621431e-01 -9.752202113802506123e-01 -8.484316541090867192e-01 5.267103305704672334e-01 5.234458879452957847e-02
-9.855837366670686106e-02 -1.234525167930428796e-01 -9.808110336540901697e-01 8.402085067534497131e-01 4.541747767423650606e-01 -2.962683536089558700e-01
-3.893089513424343590e-02 7.636047431522120787e-02 -8.471997985139563259e-01 9.207368360253957371e-03 -9.559963936016978581e-01 2.932338994530237497e-01
-5.149967491239611922e-02 -1.125413912921478937e-01 -9.053783165954323309e-01 7.244132915174402720e-01 3.568528389166464865e-01 -5.898147458566952439e-01
4.534018095326351055e-02 -6.249796933596079435e-02 -8.687578286538467642e-01 2.169426305083758943e-01 4.561929380571528858e-01 8.630318060969067728e-01
-1.630120628597582846e-02 -2.196002324918936988e-01 -9.659875474771792980e-01 7.438176434817139748e-01 5.451330043073534526e-01 -3.867367591271211325e-01
-1.118204231221556254e-03 -1.711889874608208892e-02 -8.847103730802964305e-01 4.069256834283204172e-01 -1.734247963955631577e-01 8.968474386212806904e-01
2.825511673886677705e-02 -3.586654334652392140e-02 -8.110894279046337862e-01 4.736453363795497529e-01 5.079317582457969493e-01 -7.194896971404362018e-01
4.114075791735744003e-02 -3.089112781914683109e-02 -7.989954675308157395e-01 2.663762208422193467e-01 1.137871843301606067e-01 -9.571291373958017434e-01
8.886437285621344787e-03 6.369647525729148219e-02 -8.553171926600282582e-01 -1.074337123874389600e-02 -5.358895228859297255e-01 8.442197576671119919e-01
1.105208838149536466e-02 -1.928263232077364608e-01 -9.874637296969588363e-01 -9.553717899328344476e-01 2.308506406740300568e-02 -2.945026703062905149e-01
-3.144554742825597660e-02 7.776860845302299707e-02 -8.187325972665402407e-01 4.617368849859536661e-01 -8.639748195743229831e-01 -2.008645319238425153e-01
1.400941647459234829e-02 9.275361646726933140e-02 -7.782805665520432514e-01 -8.738441467733779611e-01 2.407598277761827665e-01 -4.224110704977908082e-01
9.812508175855896853e-02 -1.789708994139038445e-01 -8.771187436667449155e-01 -1.076570567031224501e-01 7.816533693416709561e-01 -6.143516650411504632e-01
-8.664831368382430038e-03 -1.908406959611016473e-01 -1.015019832118077003e+00 4.611148396951048611e-01 -8.483263839915904381e-01 2.602219261259717253e-01
1.198534943449922896e-01 -5.604332682043076247e-02 -8.201332194991437508e-01 -9.638873657006917783e-01 -1.540441652080929702e-01 2.172361420388484454e-01
1.504267508175618703e-02 1.023292762867647199e-01 -7.749934043805407624e-01 -9.132070749917138297e-01 2.070214942488999288e-01 -3.509913661388712747e-01
1.104194295776310952e-01 -6.701787896058643279e-02 -8.487473505837986876e-01 -7.170247638023156123e-01 -3.747717199063191895e-01 5.877258255791496522e-01
9.819227319913766128e-02 -6.863985657237945022e-03 -8.195994817199642180e-01 -7.203187960684304114e-01 -5.581068607499738432e-01 4.118950886018626911e-01
6.075516083925709687e-02 -5.296107881275501778e-02 -7.982282560036891850e-01 4.222259674319147060e-01 3.957665392962889661e-01 -8.155330028880637405e-01
2.206357796926198753e-02 -1.501036353897840792e-01 -9.530706641134359947e-01 3.022074889458841174e-01 -5.621120098952214761e-01 7.698705877980908108e-01
-3.190860724023087541e-02 -1.669728061983225681e-02 -8.364951086265584035e-01 7.651547489916254996e-01 2.826551115334136610e-01 -5.784844838192259031e-01
-1.432355361686016987e-02 -1.064431380120943738e-01 -8.625235877302660503e-01 4.737689550488029255e-02 4.926031796515134009e-01 -8.689634843706256495e-01
-1.814005065846185580e-02 1.829107631224023423e-01 -7.200883354743662368e-01 -5.806242799978976743e-01 -7.539820051955022917e-01 3.072239920941928215e-01
