7.689083730944655699e-03 1.273036964034441887e-01 -5.949533635683883492e-01 -9.465815818983314145e-01 -3.100564245577158706e-01 -8.859075799053532652e-02
2.726189795949242323e-02 -2.085451417752418393e-02 -6.935082467065533107e-01 -3.039460512836665296e-01 -3.718920983196185581e-01 8.771049339255240218e-01
-2.252286662219659535e-02 2.241238016058894403e-02 -7.214866232354220088e-01 -3.166369264967775488e-01 -8.606932499742901976e-01 3.986830648865940518e-01
-4.235155577847144609e-02 -6.035907544841325606e-02 -6.941778850189952443e-01 7.558962558667819964e-01 2.011562758742035939e-01 -6.230224739469687467e-01
9.356294402677736710e-02 -1.093282958855025799e-01 -6.863278519190186833e-01 -3.955070478328579497e-01 -2.184063853859304905e-01 8.921170472181267908e-01
-7.536956587742145441e-02 -1.293253159894338089e-01 -8.091229361081405669e-01 9.006830831049382757e-01 3.126838975939308374e-01 -3.016600139130983793e-01
6.255895501267133563e-02 -8.374436578080472759e-02 -6.881230819555935740e-01 2.157191831647741198e-01 4.164291123823048446e-01 8.832055414087981449e-01
2.545302400242806240e-02 2.257792080333153109e-02 -6.937504721102392136e-01 -9.083681788573222393e-01 -8.028667077331029522e-02 4.103916448169599995e-01
-4.602097277938461961e-02 -1.338414883471700928e-02 -6.864414516841582659e-01 7.617035285445467041e-01 2.754311106377705931e-01 -5.864686162921515233e-01
1.025666959027993347e-01 -7.009430864120901050e-02 -6.534460972294475756e-01 -9.248845628027375643e-01 -3.714075624791202679e-01 8.151667327919512318e-02
4.989794314383484697e-02 -1.735966056539429703e-01 -7.781811870445760615e-01 -7.065356360262886604e-01 -5.734726325376774403e-01 4.146523058602638589e-01
6.944632514522065814e-02 -2.266945465161455397e-01 -7.606284533946200410e-01 -8.559319968684347968e-01 5.124509697996636470e-01 -6.909718003071871339e-02
-2.557867676297684995e-02 -1.651804354973737676e-01 -8.549766258937422370e-01 -3.326938972560577468e-01 -4.976853927747831308e-01 8.010143697507463578e-01
5.026629829125781740e-02 -9.482047503042891068e-02 -7.081583636791183300e-01 -7.133594297788753424e-01 -4.651016610783663130e-01 5.242125225590305027e-01
-1.276871083612550473e-02 -1.517003629044246654e-02 -6.491823558625432478e-01 5.134243355907383011e-01 4.041457934353899217e-01 -7.570083416130154452e-01
9.204715333748537953e-02 -9.725241692474405342e-02 -6.186164240210332288e-01 2.229333736852073811e-02 3.595501015650481857e-01 -9.328594382722065204e-01
1.059655626951789692e-01 -1.230117258506307071e-01 -6.411379326097099707e-01 -5.649471688457118335e-01 4.537607378385115631e-01 -6.891559251791021801e-01
-1.075938224671985494e-01 -2.576812368045820756e-02 -8.073551649716633749e-01 9.709298150235335934e-01 4.125164429960742618e-02 2.357829428541111938e-01
-1.133997811356610846e-02 -5.519569378335982546e-02 -7.452432067608585342e-01 -6.662087938578509227e-01 -5.507840272790489600e-01 5.027949863321420354e-01
-8.176519683908664571e-02 -1.284928355151388479e-01 -8.339801492962565233e-01 9.324201265339119304e-01 3.613061530311198477e-01 7.111358262432074251e-03
5.288220557290462115e-02 -2.098896262337190677e-01 -7.295240163898184527e-01 5.039764397368016180e-01 7.878256396144014406e-01 -3.540317920136227814e-01
-2.865455950381474645e-02 -2.640430010458598778e-02 -6.629345100368868593e-01 6.379539611830526979e-01 3.185758065865056943e-01 -7.010878681510679389e-01
4.501436955163273801e-02 -1.528322469621474222e-01 -6.841707653423689806e-01 5.347428974443956262e-01 5.347309689714094816e-01 -6.543033122762486054e-01
-2.838570286728018047e-02 -2.051993546273488400e-01 -8.115324310732535684e-01 6.956620140919330675e-01 6.466457815794024455e-01 -3.128955022289689469e-01
3.201431635821309213e-02 1.726118508898584480e-02 -6.107769144013766027e-01 5.319596291146995171e-01 1.269691784820734526e-01 -8.371963812079806777e-01
-4.081552753814830098e-02 4.312919731508434162e-02 -7.439333568271524477e-01 -6.800584186142155652e-01 -4.735663773222282269e-01 5.596922668233261788e-01
-1.047584289423464550e-02 -2.389801605553720509e-01 -8.283330076905975892e-01 8.721951583675248143e-01 4.521199357709568267e-01 -1.867168160576707370e-01
-1.078363943329236907e-01 -2.970426381088064893e-02 -8.076918287403853647e-01 9.751219018349319700e-01 -9.542943360121795837e-02 2.000762348815460223e-01
8.841871548074056730e-02 -1.953819343837465139e-01 -7.322404026984556946e-01 -9.455530752793057658e-01 1.910335913587109802e-01 2.635062595128255802e-01
-1.163872225890773965e-02 -1.711225006959843919e-01 -7.410406861354281727e-01 3.481174180826532849e-01 5.866165484463402580e-01 -7.312286156301388562e-01
9.161072198145918388e-02 -2.189931630096993501e-02 -6.385779138881942929e-01 -8.231447544223269297e-01 -4.573007465624908674e-01 3.366136367712920241e-01
4.779798701805876987e-02 -2.255998350421790644e-01 -7.571816959309627393e-01 4.115615483289316034e-01 6.675853544943722850e-01 -6.204408806660918207e-01
1.424118615059742632e-02 -1.642654648162971687e-01 -7.064957908451555690e-01 4.383773998119399606e-01 4.605225854687897136e-01 -7.718446758300945287e-01
-8.225166277570425399e-02 4.072974322085533977e-02 -7.139503337794779192e-01 7.727171316812738722e-01 1.926112716745052023e-01 -6.048215707381761064e-01
-5.139370050728756661e-02 -1.703500067245035943e-01 -8.209832149636047127e-01 7.457239204413924627e-01 5.661097539162660564e-01 -3.513055379614508089e-01
-6.889805836169145270e-02 -5.444780616115658251e-02 -8.093061855476757493e-01 -7.627942691186818669e-01 6.401803925174208709e-01 9.118096312244651502e-02
-1.901535111165624870e-03 7.155454121834615988e-02 -6.075357039928545033e-01 -1.354582350426720427e-01 5.276688034595677923e-01 -8.385801693426049308e-01
-4.709093948690441789e-02 -1.508729117407891229e-01 -7.749746613321065736e-01 7.085471194202114242e-01 6.214290033341266506e-01 -3.343455897368384777e-01
4.699954475884551841e-02 -4.976766735287618815e-02 -6.166756425596940927e-01 4.006905117439823472e-01 1.484985095309270253e-01 -9.040991684906244386e-01
-1.841707461267099930e-02 1.630329322636656919e-01 -5.831309799000048422e-01 -2.889533674856043510e-01 -8.100270057938345758e-01 5.102569953497985145e-01
1.046472798361749446e-01 -5.182925830328808520e-02 -6.289739785364693025e-01 -9.799798289440380117e-01 -1.895985527214918420e-01 -6.076120200201385463e-02
4.942195920245104346e-02 -2.566858277270941957e-01 -8.415942137779572896e-01 -8.927073911000162898e-01 3.550490227762247430e-01 2.775134326497550319e-01
-4.623002724436936842e-03 1.774053408391447137e-02 -6.337958020564340433e-01 3.723187461522015074e-01 2.362496949139481772e-01 -8.975326361290261179e-01
2.748931092425482142e-02 -2.360645468622933896e-01 -7.793457867452736609e-01 7.214335938915916735e-01 6.675036553902634617e-01 -1.843161404904586353e-01
1.090617646997684397e-02 -2.483217149598856976e-01 -8.748487998681803157e-01 -3.511265807847958886e-02 3.134866129899867987e-02 9.988915670268841973e-01
4.136486538574413174e-02 -2.681384208178121398e-01 -8.481978488476704658e-01 -7.886438547066787486e-01 5.566338001770342325e-01 2.611506900888149185e-01
-1.010087646674752704e-01 1.762472075016519729e-02 -7.837223891131859244e-01 5.742540354715258699e-01 -6.097830506051741262e-01 5.462572049312620637e-01
-5.102783994242530811e-04 -8.879618279780657208e-02 -7.375507924596185205e-01 -4.437287087348961712e-01 1.216683828496175623e-01 8.878635242306220920e-01
5.367966176239567094e-02 -2.208656623705404498e-01 -7.472722203294697163e-01 4.411138974214183772e-01 7.218787220035651764e-01 -5.332069393961276216e-01
-5.992680493426026656e-02 -4.044817452833170818e-02 -7.170271882760241855e-01 7.949954882324645755e-01 1.583636052397499883e-01 -5.855793218902914932e-01
-3.087077986780189034e-02 8.383900129275367874e-02 -6.177712157459077646e-01 9.635381035724639442e-01 2.419001797863531422e-01 -1.143618204791696930e-01
8.482183417599126196e-02 -4.184668618972154502e-02 -6.450164407094176600e-01 -3.384840017256050548e-01 -9.356086776459464349e-02 9.363092142016740116e-01
-1.638098203876767189e-02 1.721981554850776364e-01 -5.489480887750323168e-01 -8.679251164549166564e-01 -4.929171958392776220e-01 -6.114433966167742707e-02
-3.319676009280519979e-02 -1.100615011448043273e-01 -7.930510380331672327e-01 -8.701917519279597224e-01 4.906058174946266726e-01 4.552193665670598022e-02
1.097804108501125066e-02 6.316825606589313025e-02 -6.175783487945596395e-01 -5.811157458380640239e-01 -3.558388758484232750e-01 -7.319038081428466125e-01
-9.812974030613150211e-02 5.516178942905724907e-03 -7.404953865388964607e-01 8.804592426335714483e-01 -7.494873969690413196e-02 -4.681604516391398851e-01
2.869780029455629503e-02 -2.383386512281764624e-01 -7.828513296979974223e-01 7.214335938915916735e-01 6.675036553902634617e-01 -1.843161404904586353e-01
-9.084696881727762074e-02 -5.218243169959447397e-02 -7.702635999868155947e-01 8.914106683482708737e-01 1.435176345071290382e-01 -4.298717354518283851e-01
-2.314082714468292806e-02 -1.230549708805325909e-01 -7.086810779909379354e-01 2.159342509693308043e-01 4.733865623239287279e-01 -8.539774949431903073e-01
-9.498124656458235837e-02 4.643161735299107529e-02 -7.357472936530513596e-01 8.888249207605068980e-01 -4.278837516931077722e-01 -1.640297389868962119e-01
-1.559389725265755526e-02 -1.000320893369952176e-02 -7.358595317100913302e-01 -7.912713620742628517e-01 -2.173117482109876153e-01 5.715463547697815505e-01
1.385362697041588216e-02 -6.973022950524473962e-02 -6.564406133478424277e-01 5.402890939312721130e-01 3.318960280148970377e-01 -7.732610953402863085e-01
4.760281422369923299e-02 -8.456964982631919037e-02 -6.995296577535631277e-01 -7.159374543872584207e-01 -6.735620282071183018e-01 1.837056220234023485e-01
-7.017884681338816544e-02 1.869883358454146050e-01 -5.290206004993609490e-01 8.834793439619731403e-01 -1.703454306057084200e-01 4.364019741755036375e-01
1.061234707206612227e-01 -1.000377748369145892e-01 -6.352417493063293730e-01 -9.880356177363842640e-01 -6.124813859892603435e-02 -1.415425151763518019e-01
7.474527372618537668e-02 8.667538187195442112e-03 -6.172713991659153354e-01 -8.298363783561110152e-01 -5.288072617537937781e-01 -1.781416994228688933e-01
-2.996902456637262971e-02 9.389759737593196542e-02 -6.335657570888519885e-01 8.744972022343786566e-01 -2.550158617894642821e-01 4.125791481885878742e-01
-7.295151363289133217e-02 -1.000570875930110737e-01 -7.753980351398986892e-01 7.958325236895553711e-01 3.949232084204020721e-01 -4.590057229369246539e-01
-1.380969859148789732e-02 1.392802704210889253e-01 -6.126107533962749097e-01 -1.052016330614967132e-01 -7.573210463506209189e-01 6.445133428840671419e-01
9.431636579234826956e-03 -2.282870008268001738e-01 -7.879715250628565038e-01 4.008301259733816346e-01 7.275533410665628864e-01 -5.567776450388831622e-01
7.239816960216167996e-02 -1.240511410493877302e-02 -6.523279055993782549e-01 -5.550512642810422059e-02 2.265675183003485194e-01 9.724126390537203291e-01
-1.821970007132493047e-02 1.751300385707598439e-01 -5.464835274722893432e-01 -8.679251164549166564e-01 -4.929171958392776220e-01 -6.114433966167742707e-02
4.791881499736835859e-02 -2.619594998744286807e-01 -8.355775687119448847e-01 -8.208192675160590479e-01 5.636773464326911842e-01 9.232323214121215815e-02
-4.761047186163287759e-02 -1.081542852099103003e-01 -7.369638989036416676e-01 8.384523235453607004e-01 2.943191823903023585e-01 -4.586653682353719619e-01
-1.713673314005692561e-02 1.433758301735897911e-01 -5.422863803795271442e-01 -6.882598762452659669e-01 3.729153742191389509e-01 -6.222800546553379775e-01
1.660351052888591611e-02 -1.781105513384567407e-01 -7.910525648747345207e-01 -3.655049762553149173e-01 -9.305162653500245185e-01 2.335791625218863049e-02
-3.347707005976362227e-02 -1.059307151452032886e-01 -8.093167355825942044e-01 -8.749578478924828762e-01 -4.999827095597549759e-02 4.816107736676659701e-01
7.376402407220950322e-03 -2.880249392710266809e-01 -8.631894323873262609e-01 8.714619429095402658e-01 3.999499615245848960e-01 2.838910184151873239e-01
2.717041254014277221e-02 5.161964330135400403e-02 -6.771759199971966181e-01 -9.030720362085095099e-01 -2.394132917714281994e-01 3.565700115564759409e-01
-5.611875093900891426e-02 2.468722503809001392e-02 -7.544323575869094078e-01 -7.826709093449339960e-01 -1.500702048900284802e-01 6.040738210429571486e-01
-9.721175145734487280e-03 4.554897820499984734e-02 -7.036024118186552379e-01 -7.539252451901433671e-01 -2.807714979460588789e-01 5.939394671227935518e-01
5.667284582418156275e-02 -2.123930419396055924e-01 -7.297622556494461898e-01 5.424834319244161707e-01 7.995976414907297602e-01 -2.575952985012918695e-01
-5.572696238649900435e-02 1.482169015384655619e-01 -5.624259561347138003e-01 9.425158937766620060e-01 2.808947000919823633e-01 1.810026448387289377e-01
1.536908215384137806e-02 -2.553747762863390336e-01 -8.170918711617066732e-01 3.713963278003215573e-01 6.948628654870113719e-01 -6.158168281750797668e-01
5.592969742800848326e-02 -1.459124837159934962e-01 -7.349426254703304018e-01 1.061392356123518621e-01 1.167447988884948579e-01 9.874741083168260269e-01
-5.957395892691540358e-03 -4.776984705007353976e-02 -7.220311510846425529e-01 -3.552503998354467063e-01 -3.964798062536769585e-01 8.465228388235026546e-01
8.538773344022478062e-02 -3.089287487975349300e-02 -6.035639133069548024e-01 -5.841664835445902204e-01 -1.720902740410419351e-01 -7.931799651299993315e-01
9.571582461821789845e-02 -3.634349492213278382e-02 -6.427285416539536556e-01 -6.501794257784073716e-01 -1.950078724900299598e-01 7.343287029398840593e-01
-3.955340641384345879e-02 2.947577239222491305e-02 -7.301776979939044177e-01 -7.817061549426376210e-01 3.325926139107592827e-01 5.275581868351635340e-01
-3.093953232933784655e-03 -7.323317159009527788e-02 -6.660437225855195820e-01 3.527439722147800993e-01 3.282530618629577596e-02 -9.351439404390716748e-01
6.394769509175582400e-02 -1.171184718276024189e-01 -7.102662322761567060e-01 -6.300776056158152727e-01 -4.651654487891457301e-01 6.217904117580406176e-01
3.541777815433186372e-02 3.200886571432615818e-02 -6.625070785955400332e-01 -6.337517766219691318e-01 -4.572948595001177230e-01 6.238910939445003745e-01
1.011873771065172241e-02 -2.754646492523316059e-01 -8.412026622335132542e-01 4.723909646050823974e-01 6.680062339065572230e-01 -5.749908242932729729e-01
-1.178551808174518531e-02 -1.050537854756986994e-01 -7.627692437230484401e-01 -7.895147964669939622e-01 2.210976676136277297e-01 5.725226698878349563e-01
8.350996831479143637e-03 -2.358132110890045763e-01 -8.746259129947426825e-01 -1.786101078878097465e-02 -7.066104859272191729e-02 9.973404636859871664e-01
2.388127499501521353e-02 -2.621418315329369642e-01 -8.677548962265135835e-01 -9.705471615559011500e-01 1.956498530187004703e-01 1.405679273858174982e-01
8.454880286402781386e-02 -3.376232779960386399e-02 -6.459791719349734507e-01 -4.084495271592968046e-02 2.306664619506305081e-01 9.721752276049887564e-01
9.702636604695046019e-02 -5.596100689828580055e-02 -6.101502657705029087e-01 -7.882406373195002258e-01 -2.520612266197792481e-02 -6.148506721623527849e-01
-7.270734398738580573e-02 6.881214332073815054e-02 -7.168330229015003052e-01 3.811644691388323958e-01 -9.062183724044018396e-01 1.829806246104460909e-01
-2.812885335186652083e-02 7.574240774952861743e-02 -6.900643869973250855e-01 -3.601224758540593207e-01 -8.708935011389183911e-01 3.344492667935441421e-01
3.878402731124777625e-02 -9.539953722363929411e-03 -6.802303452124790484e-01 -6.324768079350583383e-01 -3.425891168293296873e-01 6.946983406158235841e-01
-5.847080724651769479e-02 1.486566806459532417e-02 -6.878493645893568598e-01 7.551616492659057878e-01 -1.246994136206909243e-01 -6.435689082923855553e-01
-3.635747096924254324e-02 -1.787472704476210927e-01 -7.977140546253651543e-01 8.776270889612183268e-01 3.484775735614432657e-01 -3.291414186124052565e-01
6.413704643540572847e-02 -2.006249029597415579e-01 -7.857448444822714428e-01 -8.187080326847757661e-01 -4.098116708129480035e-01 4.022083436266880585e-01
-2.059892109318726960e-02 1.440993718130209877e-01 -5.383945856200660351e-01 -5.664391131548186520e-01 4.934579793347319554e-01 -6.600348125055720550e-01
9.246785883899380498e-02 -1.701461987192001979e-01 -7.195275272924148702e-01 -8.328108068763764305e-01 -2.867419615245740960e-01 4.735031229579783618e-01
-5.435556050669498873e-02 1.514173043904662730e-01 -5.218937671282281032e-01 2.518471160409279097e-01 8.433629924563854630e-01 -4.746702993624921096e-01
-3.809026928282292085e-02 1.492225120641872682e-01 -5.241096023028458672e-01 -1.433062979665574443e-01 7.493098641329677401e-01 -6.465276734031992767e-01
-5.570461220473385544e-02 -9.906918800283875948e-02 -7.455834355647619205e-01 8.106920150737046971e-01 3.405264710756075730e-01 -4.762564216811461248e-01
-9.459422315225528288e-02 3.307551071540661830e-02 -7.328987713069221588e-01 8.163154038428186432e-01 1.260086578653784317e-01 -5.636940478592101789e-01
-7.157297640283867557e-02 -7.642110040065139276e-02 -8.286653726458279579e-01 -5.533195835464269074e-02 -7.494316160257377124e-01 6.597655851025356899e-01
-3.639860815325528937e-02 -7.788486888327911251e-02 -7.936297514413301890e-01 -7.184523912787216249e-01 -3.983779551668434338e-01 5.701939725242373136e-01
-4.843450688012289340e-02 3.783000701840762148e-02 -6.740722242458870861e-01 7.606538367589555927e-01 9.131204391726302494e-02 -6.427035485039208629e-01
-3.887818933226727669e-02 5.170113968509289920e-02 -7.344432847387516450e-01 -6.156458176630389412e-01 -5.305364126214736631e-01 5.826760181067568434e-01
-8.090600717389748175e-02 -9.159995070864918043e-02 -8.409099919319359406e-01 7.571703863968658188e-02 -4.640574910570203215e-01 8.825630714308749791e-01
-4.696848466273386563e-02 -9.840738842278003162e-02 -7.293847774505826109e-01 8.219054760953536931e-01 3.079383649394559219e-01 -4.792132633419949883e-01
-6.822893301574177449e-02 -1.210719005801671744e-01 -8.499156256939293108e-01 2.709939106295021147e-02 -1.087799077770734424e-01 9.936964097087341852e-01
-7.178422673030170065e-03 1.294801839965956658e-01 -5.620422541894327662e-01 -7.547969648801757803e-01 3.021381247641483081e-01 -5.822319944589773311e-01
-2.072701901598654473e-02 -1.162599517468933807e-01 -7.884819047946679538e-01 3.381895942027417223e-02 -9.360502387663593993e-01 3.502373887653504325e-01
-8.116413175411042952e-04 1.093822431064457590e-01 -6.417049442616847843e-01 -3.947188938396965496e-01 -7.104259570680443447e-01 5.826593810880585922e-01
-1.629247153532070377e-02 1.186215991781158219e-01 -5.620028624313887500e-01 -2.382363856095101040e-01 6.840190262832107626e-01 -6.894645721531202920e-01
-5.571447759075908585e-02 -1.671351841212733169e-01 -8.244803291924241995e-01 7.419245018476505749e-01 5.904399055972527899e-01 -3.176928570749153469e-01
-1.504877143190284450e-03 -2.075382788753369900e-01 -7.700459927777674185e-01 4.785908129566113223e-01 6.948145598596959793e-01 -5.368273103713211425e-01
-8.186786271062616860e-02 -1.164712273541703980e-01 -8.443630022658298317e-01 7.641179894962395469e-01 1.770592246905858258e-01 6.203013211981683872e-01
-5.900911668899819218e-02 1.607344091385186635e-01 -5.574533165692598935e-01 9.121258652277691725e-01 -1.496781631823175009e-02 4.096368763394682699e-01
-2.767249943647024854e-02 9.875139923124788555e-02 -5.890249196454743208e-01 5.190658786371094013e-01 6.934215994563184271e-01 -4.997370298888472173e-01
-4.936085872806140334e-02 1.536567435454342656e-01 -5.173833274458167208e-01 8.590224234698455585e-03 8.018861451729567547e-01 -5.974151138255988647e-01
-2.814689304175992460e-02 -6.098614027406650678e-02 -7.720640376523474346e-01 -6.024097983085517916e-01 -5.380649388873741668e-01 5.895664139365267564e-01
-2.138898076144707741e-02 -5.376503171139022930e-02 -6.705776873595724608e-01 2.441220203536014210e-01 3.756420895434263163e-01 -8.940343727966637566e-01
-5.653420847700293267e-02 -1.454689254276927690e-01 -8.477116871295260481e-01 -4.231936057626200509e-01 1.237786435247983374e-01 8.975444387041751071e-01
-2.539028202807428608e-02 -4.715301941857460294e-02 -7.425236500607168555e-01 -8.081800600463016904e-02 -9.952107032594333935e-01 5.499187233855000467e-02
3.576127323564744914e-02 9.122738202980350221e-04 -6.752654799901516292e-01 -7.015889541303443888e-01 -6.939443885929619249e-01 1.619077669002621789e-01
-1.756211966652163406e-02 1.740248869948523569e-01 -5.567574095168578152e-01 -7.855082245434344967e-01 -6.137335291415543237e-01 7.942282028531784388e-02
4.178925914324373853e-02 -2.622635268844325518e-01 -8.177267651669226645e-01 -2.229983776627693648e-01 8.758605877687125618e-01 -4.279485417117555590e-01
-7.931714484697914569e-02 -1.464750755667388118e-02 -7.303759574358158480e-01 7.501782207586583651e-01 3.400807965137187527e-01 -5.670782035504167151e-01
-7.012214467870636625e-02 -1.200752712984563680e-01 -7.874310839511388105e-01 8.445504877603509097e-01 3.674136442770549182e-01 -3.895403542931168972e-01
-6.585904917998075536e-02 -7.208208949555819367e-02 -7.396961311097924874e-01 7.488647428886564539e-01 4.637743361680402576e-01 -4.734078178169430218e-01
4.238763230206489541e-02 -9.262709491430529130e-02 -6.476475609244828346e-01 5.131637068397608692e-01 3.855448076801583634e-01 -7.668234550751203971e-01
-4.684570880660928610e-03 -2.182729031284587062e-01 -7.849062709016397799e-01 3.507724945588417964e-01 6.902961414060773127e-01 -6.328111046914774995e-01
9.266003448068160786e-03 1.219026672010906920e-01 -5.963980023886256143e-01 -9.625396581563431253e-01 -2.262808791021493349e-01 -1.493799525673663309e-01
-1.108425864143111964e-02 1.645841880424193937e-01 -5.594153236203130986e-01 -8.528864098530256621e-01 -5.187264233286985604e-01 -5.922558255207274053e-02
6.900720342641360194e-02 -2.063547578300098939e-01 -7.179472778255587828e-01 -2.330206274230310366e-03 7.679057820965936587e-01 -6.405585687205646028e-01
-1.278998288299991459e-02 -1.156408938134925457e-01 -7.841024706292437640e-01 -3.401511701661455445e-01 -8.280051605684607408e-01 4.457629813102468308e-01
-9.910771915603765192e-02 3.877846132854738392e-03 -7.420723662594125303e-01 8.804592426335714483e-01 -7.494873969690413196e-02 -4.681604516391398851e-01
-8.976563486986632867e-02 2.093525331527524777e-02 -7.860239379023862272e-01 1.625248189228281070e-01 -5.931485651018000294e-01 7.885178900645043454e-01
-7.350376477001385744e-02 6.879920489508149772e-02 -7.128339163245956955e-01 5.939123665705929866e-01 -8.019796769634262024e-01 -6.400545736228875626e-02
-5.069431221790993841e-02 -1.809238043511188221e-01 -8.353947615787596925e-01 8.166175737836803838e-01 4.985738821834683199e-01 -2.907917161683946650e-01
9.775122836107024565e-03 1.021221467494490137e-01 -5.987287081975065650e-01 -7.939794091190448544e-01 3.143512613945476653e-01 -5.203652393796390774e-01
3.933594844761168635e-02 -1.716447907337203815e-01 -7.027942320170357249e-01 3.303692099888603795e-01 5.013506912550450556e-01 -7.996897332524811608e-01
-1.093153949442948469e-01 8.968655465884500105e-03 -7.781533366678995423e-01 9.341544165088452312e-01 -3.317907268518588970e-01 1.314170449071723201e-01
-2.461576144149948270e-02 -9.445969881958402037e-02 -7.901132187779905669e-01 -7.149298726287149908e-01 -3.773558003787064186e-01 5.886237143911510206e-01
5.227902385710832961e-02 -1.642077753402768625e-01 -7.387938760555582407e-01 -8.230281627807884970e-01 -5.676310581605610306e-01 2.048475240762225383e-02
9.833324646332415597e-03 1.825624202757690148e-02 -6.252878974237529031e-01 5.469931349129890652e-01 1.728268728313118729e-01 -8.191027910985347882e-01
-3.367912482374775529e-02 -6.688362048643019253e-02 -7.824753579738622511e-01 -6.710786239624488836e-01 -4.402355858990728565e-01 5.965283810253845242e-01
-1.936341364022901163e-02 -1.706335717455285395e-01 -8.556143922398596890e-01 -3.755990085873604500e-01 -5.291053379786506694e-01 7.609027047334564475e-01
1.811924617219518724e-02 -2.707115938229729540e-02 -6.977120657662067016e-01 -9.150048851531504823e-01 3.141206473168412644e-02 4.022180283567139414e-01
-4.704683378272996735e-02 -9.051632348407970263e-02 -8.191783384722027828e-01 -7.461000032697771012e-01 -4.325547025105419552e-01 5.061928629058836115e-01
-4.755012836244855434e-02 -1.807347455376971945e-01 -8.565140627984646482e-01 5.960449566393576371e-01 7.500211621894517511e-02 7.994404869829060400e-01
-1.199821545590420979e-02 -7.038422085211162860e-02 -7.592109372410668078e-01 -7.477514329649979086e-01 -3.597380229374659288e-01 5.580827441803188904e-01
-4.509959593144153428e-02 -1.166061254585403911e-01 -7.362533780606758116e-01 8.547197257155634276e-01 -1.217179868596815484e-01 -5.046175999185303906e-01
-2.040449049337035928e-02 6.479092850550009774e-02 -6.154372121827866859e-01 4.005507843943145185e-01 5.519222315721886707e-01 -7.313965541465686782e-01
-6.574435693145082305e-02 -4.807852912434904674e-02 -8.163024281027935203e-01 -8.146068396009404911e-01 1.726317106964896930e-01 5.537273601126921907e-01
1.080366311789995176e-01 -9.602998115229205434e-02 -6.272178318720208479e-01 -9.887893174446474864e-01 1.105570200598369746e-01 -1.003634944730237705e-01
-3.072052198367254683e-02 -1.810489827632048021e-01 -8.619280317293379623e-01 1.105405602946373383e-01 -2.172997098877222089e-01 9.698255619504256853e-01
-4.256457004669762789e-02 2.032696271452830161e-01 -5.181682728562856388e-01 -4.261829258393763920e-01 -9.007585333656652482e-01 8.367901942496790146e-02
-8.319625406666770334e-03 -2.306647199214339750e-01 -8.713971291057236446e-01 3.772030636053886332e-01 1.216752534242299816e-01 9.181029253361837617e-01
9.808993565346070531e-02 -1.510408031782649596e-01 -6.822632727876029035e-01 -2.830747166681406024e-01 3.302379913420894209e-02 9.585291510820082017e-01
-8.725344204186680219e-02 1.239645721071655667e-02 -7.243341034880124152e-01 8.208201297528395779e-01 -1.040260250972442901e-01 -5.616341341968087431e-01
-2.471087455904048824e-02 -1.504932100828218836e-02 -7.502616920528638600e-01 -8.394471152981994866e-01 -1.570403795255403134e-01 5.202565326990192807e-01
-8.702712145432510470e-04 -1.175899100114247142e-01 -7.447393944326000659e-01 -2.378835113084391273e-01 -8.345266711808977389e-01 4.969674739208770897e-01
-2.787774806690540216e-02 6.859389019772889340e-02 -6.234592610588459705e-01 9.184569087729047565e-01 2.875955729010274964e-01 -2.715247560997884890e-01
-3.227215332031165701e-02 5.756887752350645787e-02 -6.490761750448779122e-01 8.862661351529544929e-01 1.771141884191481941e-01 -4.279753520258745003e-01
-5.909630513800404050e-02 -8.382454893514951211e-02 -7.394206631634256954e-01 7.770992824358731177e-01 4.186155879245621048e-01 -4.699762704480132669e-01
5.740842236210347282e-02 -2.346773567311828956e-01 -7.646788798304323675e-01 -1.630499030557789053e-01 8.254364850833386669e-01 -5.404343976901954116e-01
-8.594569160227816251e-02 -1.028663063111778103e-01 -8.053764362621507189e-01 8.040360038981647639e-01 4.935648562465210221e-01 -3.315416069120458720e-01
-9.237385832308427080e-02 1.420688329053569100e-02 -7.326000335313950229e-01 8.404229537247236426e-01 -1.605953398728283688e-01 -5.175890219698846551e-01
1.062653460614463585e-01 -6.248599230062988619e-02 -6.279463977566756006e-01 -9.851146572812503610e-01 -1.319343982303139706e-01 -1.101926793087874279e-01
-8.241959611728860713e-02 -1.220665783251354553e-01 -8.222655984003840457e-01 8.890958625267660898e-01 3.837145281580746636e-01 -2.495429985357471847e-01
-3.723287206331327842e-02 -5.641792237971894608e-02 -7.774404099989412620e-01 -6.326872911721496129e-01 -5.215552086920640651e-01 5.724394779148488377e-01
-8.840048483456426631e-02 -7.008036885975400809e-02 -7.699204930213081610e-01 7.801901192015906483e-01 3.573255408503119845e-01 -5.134411706868077241e-01
8.487017636788782293e-02 -1.810409931786712556e-01 -6.855374606460623577e-01 1.771642395989836416e-01 8.829127162724853539e-01 -4.348309644582081801e-01
3.197600067837395865e-02 -1.900990626438603115e-01 -7.957140807664102589e-01 -6.990892668084039974e-01 -6.303946159951736572e-01 -3.374564048252535198e-01
5.619484812281140551e-02 2.957490324971250029e-02 -6.146656080670435118e-01 -5.533901409450057152e-01 -6.873814215049519616e-01 -4.703893422205675523e-01
3.777063541487038489e-02 -1.625037525993683687e-02 -6.844218288926107174e-01 -6.008176695482663199e-01 -3.444355286853771902e-01 7.213752799603093679e-01
-3.678187253936676671e-02 -1.396954548896114645e-01 -7.405363614723020627e-01 7.758352333105542620e-01 4.947144311463387290e-01 -3.915830976555449428e-01
-6.820192465782595748e-02 -4.000804880184046647e-02 -7.282716581397556954e-01 8.029539666310316903e-01 2.313269820893659456e-01 -5.493202661734937209e-01
-2.284806559327587708e-02 8.218017834314603198e-02 -6.534009142151612215e-01 1.370129589809077619e-01 -8.851200187611090175e-01 4.447358783138933291e-01
3.132379727881189069e-02 -2.429478181911881307e-01 -8.507420030867486327e-01 6.316181606986650543e-01 -3.443200924000430763e-01 6.946237636629348788e-01
1.532167500994712460e-02 9.599800392968391161e-02 -6.125356318532237943e-01 -9.061174880260921549e-01 1.166168755082586383e-01 -4.066344823548241338e-01
8.288445528524530925e-02 -1.283348866474084693e-01 -6.922898560221997233e-01 -8.099987567975717173e-01 -5.052087820809075813e-01 -2.977685350985125878e-01
1.278750211043044871e-02 -2.724296344265291214e-01 -8.359074187222199637e-01 3.847430216069283593e-01 6.787825846963521093e-01 -6.254814226159800539e-01
-7.116614705454769874e-02 -8.141230983041269909e-02 -8.334184954436099080e-01 -2.105548204454966710e-01 -5.964421298975604024e-01 7.745472569639803018e-01
7.316816613168478090e-02 4.768053446188861427e-03 -6.417610738627008704e-01 -7.197919833712135285e-01 -5.118635670189515263e-01 4.689298342323396929e-01
-7.014204359308083558e-02 -2.032873598245540925e-02 -7.215543244453769267e-01 7.506674792149991005e-01 3.015704832085442932e-01 -5.878380553403834696e-01
-4.437749456359408456e-02 1.378767703237752940e-01 -5.397163087059124731e-01 2.796794169253182805e-01 8.261085072304669152e-01 -4.892076839439090108e-01
4.170718137967541900e-02 -1.870731032760473145e-01 -7.912788837779517470e-01 4.134993272793966446e-01 1.567880844710493327e-01 8.969034523890435651e-01
7.055216899406062392e-02 -1.194964522397559958e-01 -6.469558607912285764e-01 3.524337620982858632e-01 4.391169173614817844e-01 -8.264180396265550232e-01
-6.555912185496640121e-02 -9.866681454311330979e-02 -7.616205768064784332e-01 7.897845238003885493e-01 3.779621532570557885e-01 -4.830993859142063696e-01
-5.937760713056095679e-02 -1.607815254845254838e-01 -8.189280256810450576e-01 6.306930225836566706e-01 7.071166905778127898e-01 -3.197065798049406049e-01
-2.575776217178743499e-02 -1.892899390817590413e-02 -7.528280659377585282e-01 -8.496635098799542041e-01 -1.026134537039887357e-01 5.172450087699405064e-01
-8.836066129619069009e-02 -8.574726168659860259e-02 -7.876374996871655654e-01 7.461954166997709637e-01 5.062173232628368602e-01 -4.323614480094905566e-01
4.513521263209283735e-02 -5.702122273052491648e-03 -6.579338277072266372e-01 -6.238532667003429122e-01 -2.541809178161646421e-01 7.390528821711223051e-01
1.969304438894815476e-02 -1.187300875665958239e-01 -6.786717180092428636e-01 5.498275917511011857e-01 5.226525546121334465e-01 -6.515550065087328813e-01
-2.026806284248416218e-02 -2.322518052504057295e-01 -8.500758700081419983e-01 8.333231910821428112e-01 5.375601399951904780e-01 -1.288470220572663083e-01
5.398868042366745251e-02 -2.545681136800571065e-01 -8.220152631833564927e-01 -8.086475455747109686e-01 5.873419340584842274e-01 3.344547103024135548e-02
-1.661654421369839971e-02 -3.920861185783963698e-02 -7.273562871601023661e-01 -3.883362138213215520e-01 5.549873617455031161e-01 7.356521007498629805e-01
8.758597923379876637e-02 -1.362224317991725386e-01 -6.915609307236819658e-01 -8.414240914678962069e-01 -4.970678797487866896e-01 -2.119646697435001170e-01
-6.608165987693734138e-03 -1.731841748956471916e-01 -7.399597761610956503e-01 4.268135131667128990e-01 6.190956738374140400e-01 -6.592046507831134106e-01
4.527648939901274955e-02 -1.208592487330508586e-01 -7.309701037502993604e-01 -6.325725661819744383e-01 -4.180073590866659750e-01 6.520136472983847353e-01
-7.636814807542219308e-02 6.678228060117184783e-02 -7.157027386066242558e-01 5.750033195441819345e-01 -8.180737366905861396e-01 1.124917109270626159e-02
-5.376428054555072722e-02 1.703692180623066210e-01 -4.975092355728837901e-01 -8.349943441748415573e-02 6.359157828825512393e-01 -7.672281026740561671e-01
-2.335748210565783897e-02 6.734432731349609957e-02 -7.000991063429361505e-01 -6.001178092019886501e-01 -6.546292329203471372e-01 4.596946622321421150e-01
-5.547337061134364339e-03 -2.234054188382016692e-01 -8.731224901343750400e-01 2.389213511526258049e-01 8.884512112679740503e-02 9.669659417039300209e-01
9.800807241789886992e-02 -7.131646376557970735e-02 -6.379906346418862118e-01 -7.774038577156913155e-01 2.906995157200565894e-01 5.577965879860558029e-01
2.483254117575138184e-02 -2.055897749714210299e-01 -8.414255301701708545e-01 -9.735678522758377529e-01 -1.992203511498047142e-01 -1.116999941931985652e-01
1.074599825752498572e-01 -1.375812659910088109e-01 -6.594471016459920731e-01 -9.516306586421561242e-01 2.991130017312503830e-01 -7.021753148336185024e-02
9.684855366035036162e-02 -1.826764996334326041e-01 -7.070198819130508738e-01 -9.786779940684321444e-01 2.037714128191014384e-01 2.581850584168119203e-02
2.127213664784488589e-02 -1.959146464964819367e-01 -8.323918686892193275e-01 -9.556742148748088583e-01 -2.329132934099775176e-01 -1.801060597990402357e-01
1.818923492828970409e-02 -2.316445527829043283e-01 -7.854586303871538000e-01 4.765529974832423687e-01 7.391712443975962943e-01 -4.759444421835867245e-01
4.923557883554585679e-02 -1.000342669338843693e-01 -7.138122974654205199e-01 -6.623325279298788448e-01 -4.146326079841962109e-01 6.240155629807960791e-01
1.003487689706357155e-01 -1.604092788179593554e-01 -6.802803024654869857e-01 -5.034880980719649290e-01 4.028514199013635277e-01 7.643366199413257345e-01
5.974497608978093788e-02 -2.407757681914508285e-01 -7.793947574520047050e-01 -6.802656117094443289e-01 7.169730094899020578e-01 -1.522773823933427917e-01
-7.331452563120931243e-02 3.552400978514649865e-02 -7.042700453198684762e-01 7.684466144990873548e-01 1.971633316653653711e-01 -6.087827373632600514e-01
-5.124874282505777201e-02 -5.859076135750238001e-02 -7.959985726044745968e-01 -4.909752861515033762e-01 -7.898470576736328352e-01 3.675389691893286015e-01
9.923477863448661174e-02 -6.720919927802675164e-02 -6.380565101285239349e-01 -2.506939773180627551e-01 2.608470014282249227e-01 9.322614287754020790e-01
-2.037127244180222951e-02 -2.172297869416582039e-01 -8.153258005049648371e-01 7.994089496399808814e-01 5.546622935203874283e-01 -2.308572532588172299e-01
-5.046194437263959442e-02 4.949667319908746671e-02 -7.476938462863598200e-01 -5.406612964885744166e-01 -5.759550355439775338e-01 6.131567169254766858e-01
-8.296931355675639386e-02 -7.117627743461628353e-02 -7.631356385779219931e-01 6.548664282901383027e-01 5.710791009302309540e-01 -4.949935571088130426e-01
2.430644946852516392e-02 -9.737455867798561204e-02 -7.339533641695809019e-01 -4.992398366191985737e-01 -3.760863850278839959e-01 7.805886346399708575e-01
1.151246599969752912e-02 1.140157965414385910e-01 -6.177940102348935536e-01 -8.408385157985741598e-01 -4.967315894391874376e-01 2.150542220066125054e-01
8.909769892417403539e-03 -1.479372168729535253e-01 -7.793032643598025722e-01 -9.028871334802321957e-01 -2.922577924515067371e-01 3.152462639702827141e-01
-3.365273123296100982e-02 2.835378875224246059e-02 -6.560180007941315283e-01 8.684888326276376525e-01 -8.337006437377666307e-03 -4.956386202917871242e-01
-2.297901312393113224e-02 1.257729325724579739e-01 -5.531560454784342218e-01 -3.940290839400193562e-02 7.372955255584847656e-01 -6.744202835039373456e-01
4.336979616821315386e-02 -1.386912336880788965e-01 -7.330090231777017795e-01 3.766883512371244636e-01 3.941019848925849112e-01 8.383254210305097764e-01
-3.378413296764112145e-02 -1.819914571746980292e-01 -7.922747495619618663e-01 9.597505055224867521e-01 5.598874100656567321e-02 -2.752166928618810515e-01
1.036049206090052244e-01 -6.095294455051639831e-02 -6.194991595778167603e-01 -8.733928612602422925e-01 -6.651578923394214915e-02 -4.824526501971283521e-01
5.539914233576694741e-02 -2.126237529593419662e-01 -8.146088233167518844e-01 -8.154724330377836061e-01 -5.787822467602314891e-01 -3.977661450620969749e-03
2.370778542846671902e-02 -2.571040144438664909e-01 -8.136311182837354661e-01 3.528775819978162143e-01 6.995313910962678294e-01 -6.213962061312368057e-01
-4.484289704175353775e-02 -2.031025277276663210e-01 -8.375450905233423615e-01 9.782519311455375455e-01 1.830177340115716200e-01 -9.760977536751057337e-02
-5.653933915297791601e-02 -1.693010608955430318e-01 -8.304212381431615997e-01 7.568704537986291614e-01 5.624998467918237433e-01 -3.327777614652634441e-01
2.081097379797505406e-02 -6.557646238542570727e-02 -7.023330005482643079e-01 -4.852847619550967884e-01 -8.285452378669482254e-01 -2.793053680511476400e-01
-2.109467005547416285e-02 1.699103933469482963e-01 -5.262923175465055170e-01 -9.057288883798164658e-01 -6.240917506186650227e-03 -4.238115521112456041e-01
9.592236387352978677e-02 -1.845224612406781983e-01 -7.126760183581419827e-01 -9.682318247689366553e-01 1.947249414870182160e-01 1.568736136751243682e-01
2.137679208057910452e-02 -9.906077684647306841e-03 -6.248897614337211026e-01 5.012267008623004783e-01 1.809087352218569089e-01 -8.461937271471123845e-01
1.034668048922918610e-01 -1.279376594246388332e-01 -6.430971980193409543e-01 -2.680589066069293813e-01 5.734867939472014786e-01 -7.741171227642866803e-01
-4.424688930498442418e-02 -6.915634562700762045e-02 -7.037123380525870386e-01 7.267388108631595012e-01 4.440308008602107948e-01 -5.241062379638697921e-01
-1.668923306323741307e-02 -2.186440027794909757e-01 -8.038837104683421719e-01 8.465999232575347477e-01 4.942074497782068532e-01 -1.975539585127497055e-01
-5.933278995342063100e-02 6.144319301919146797e-02 -6.838729249831230206e-01 7.431989256884333761e-01 -7.260747408386740431e-02 -6.651191709481231173e-01
-2.008538845493003377e-02 3.587281993276211084e-02 -6.311187697821771803e-01 4.412646718470222829e-01 2.725899873067327839e-01 -8.549737938673059867e-01
1.960970553155249110e-02 -1.671750645608024652e-02 -7.100907298577912030e-01 -9.767133292968540603e-01 1.129087655466227136e-01 1.824354215512782873e-01
-6.564085957636768554e-02 1.983736145086087421e-01 -5.012788454205338029e-01 5.400217260802988584e-01 -5.380654590229091427e-01 -6.471955633096697635e-01
9.926918868452009811e-03 -6.591440744270921082e-02 -7.273077040902435897e-01 -9.876943540550364720e-01 1.203132903348146793e-01 9.992284591931148430e-02
4.102014740089685030e-02 3.224257488173651320e-02 -6.092485166988367284e-01 -7.362647449597253813e-02 -4.587755046870954367e-01 -8.854965717338462161e-01
2.719457453699684370e-03 -2.642245981175411762e-01 -8.693387003701046334e-01 5.133113131200893742e-01 3.016164687590346949e-01 8.034544178708954432e-01
-8.334337703913111128e-02 -1.143855170193063403e-01 -8.147236798834552873e-01 8.685272758398469017e-01 3.947074740553467298e-01 -2.997772190261664971e-01
-1.421758204879743949e-02 1.197737275945393448e-01 -6.324466994481348081e-01 1.466583625161496374e-01 -6.832783600311796990e-01 7.152775736853373978e-01
8.330570562398062484e-02 -4.317961962313664886e-03 -6.309656097447284839e-01 -8.348925441443795226e-01 -5.338213244885986475e-01 1.341239473523019865e-01
5.688883963128722743e-02 -2.414025056113207612e-01 -7.945769371461941510e-01 -8.373063731564983625e-01 5.351538448758359490e-01 1.119303345216131895e-01
-5.156330197874533366e-02 -9.123973618274494601e-02 -8.259104513843574802e-01 -6.871258633226081658e-01 -4.669695085604613771e-01 5.565945795890950842e-01
-1.431823457494609680e-02 -1.790380854312117673e-02 -7.361597657653359272e-01 -7.991829751681944760e-01 -8.202864486371734543e-02 5.954644184358416359e-01
2.716701359672151275e-02 -2.388784173384561338e-01 -8.459443055910274012e-01 2.663477145443772787e-01 -4.934023955527261363e-01 8.280174943923697128e-01
-1.947756278650138520e-02 -1.748890238724659374e-01 -7.462028012531464194e-01 1.776335145202436461e-01 5.838654571861030540e-01 -7.921789333376956233e-01
-6.063216815616229854e-02 -1.552128232309291367e-01 -8.479448605623765012e-01 2.286709565359018315e-01 1.356394473599120964e-01 9.640080569978931591e-01
2.558551184392569735e-04 -1.907341255120124091e-01 -8.547389594170897720e-01 2.912606571906001807e-01 -8.492312501537747638e-01 4.404242424471617179e-01
-1.455766167034422756e-02 -2.328745034335169273e-01 -8.301912871003528371e-01 8.223724359927419014e-01 5.156074333996544246e-01 -2.405255727409964239e-01
-6.885634214848387891e-02 1.033081179555057558e-02 -6.994684779024653576e-01 7.913965189269170919e-01 -9.793668009940630081e-02 -6.034069576342853125e-01
-2.828056546462939802e-02 -1.308741133319831218e-01 -8.257180533328587480e-01 -4.826108250778617381e-01 -7.509870493343419051e-01 4.506719907535460257e-01
-4.290824185402652285e-02 -4.963436595787690774e-03 -7.746747589735495376e-01 -7.669403027263134165e-01 -3.060202272351926212e-01 5.640515868047811798e-01
4.813399071434457804e-02 -3.029310328812521991e-02 -6.832387224478738696e-01 -5.833507904593410176e-01 -3.862031746060266002e-01 7.145270905953733376e-01
-2.799969416639071576e-02 1.409010100789168107e-01 -5.361094563227570831e-01 -2.792583843460547666e-01 6.878501430083787671e-01 -6.699827874921741033e-01
-5.529532213297332077e-02 -1.766044638295943825e-01 -8.446597315590942401e-01 8.673476667716770727e-01 4.976184857596391287e-01 9.157924219574778077e-03
6.584121494003961073e-02 -4.568428048823165027e-02 -6.788205681334735786e-01 -5.133724393212966142e-01 -4.232970662661564853e-01 7.465040738239588913e-01
2.544282069793171730e-02 -2.117456844010676964e-01 -8.440872811060616820e-01 -8.867377748477542898e-01 1.130254021691558391e-01 -4.482425427405946627e-01
1.717840171640118777e-02 9.933751174308948217e-02 -6.299636069456153731e-01 -8.653117051686939343e-01 -4.835112458098234089e-01 1.321080166889193608e-01
-3.128619597667269686e-02 5.291409650501054107e-02 -6.483954932085254086e-01 9.080050317646525260e-01 1.254386693298386868e-01 -3.997399186056247999e-01
5.178133377959764222e-02 -1.984742924847799905e-01 -7.149629577223718391e-01 1.692019394416124367e-01 4.699195592365346674e-01 -8.663407594798584466e-01
-4.232910607062161101e-02 -1.215036270442425154e-01 -8.261561976423190679e-01 -8.758669198350466090e-01 4.824475084413369363e-01 1.007672255318907244e-02
-2.385782834810894204e-02 1.595053186643964060e-01 -5.895269211956752908e-01 1.567882498053746118e-02 -7.698246900790540748e-01 6.380627876564483048e-01
3.812220321422900293e-02 3.759102977182447042e-02 -6.543163390603583540e-01 -6.624293956127171867e-01 -5.047451562525648860e-01 5.535518250965705267e-01
5.913651980435254835e-02 -2.286526300603869688e-01 -8.068239597786688311e-01 -8.792929671516098722e-01 -2.734806103222454654e-01 -3.899387563393639233e-01
1.982669307126074670e-02 -1.024758645161491233e-01 -6.626823961313426103e-01 5.425874096850012984e-01 4.844288553782142848e-01 -6.862416388767689224e-01
-1.925719277653837203e-03 -2.131052009143834247e-01 -7.773110616398120065e-01 4.427765276060694477e-01 7.014802955155292619e-01 -5.584571081153479888e-01
-3.857632523564850924e-02 1.518014757143327786e-01 -5.210245835061784181e-01 -1.504286676909455389e-01 7.461249898561197469e-01 -6.485897898124299843e-01
1.110744859322737414e-02 -2.869715439120811840e-01 -8.691513617801175373e-01 6.028347023457244491e-01 3.071419549335232535e-01 7.363790743681919437e-01
9.599757115253665374e-02 -5.295139029818916876e-02 -6.423533908798643166e-01 -1.814068469732470767e-01 1.524862667121895665e-01 9.715140216874915691e-01
2.177073026988544588e-02 -3.737717846833038537e-02 -6.295676061362098785e-01 7.044679265295334947e-01 6.102760379619429632e-01 -3.623369950483289470e-01
-2.113841131503130591e-02 -1.664541162868982960e-01 -8.535843234590609896e-01 -3.755990085873604500e-01 -5.291053379786506694e-01 7.609027047334564475e-01
1.817120167210334661e-02 6.957068946460522041e-02 -6.743137372449510281e-01 -5.175444705264012901e-01 -5.542047975010188088e-01 6.519238939127798282e-01
3.281943324641161536e-02 -9.483871304136347324e-02 -6.543779495149842917e-01 4.064028152254099413e-01 2.308522862361626071e-01 -8.840497574890218146e-01
-1.384681272697644086e-02 -6.365690677007251885e-02 -6.701087037502455601e-01 4.334316049063469123e-01 1.465328235212934038e-01 -8.891935534512076522e-01
-3.291806766396554451e-02 -7.539630311352318870e-02 -7.875294434821086265e-01 -7.046893863608426622e-01 -3.957818836193253698e-01 5.888714370294398925e-01
6.983592270276420266e-02 -5.597618801428200230e-02 -6.088366998295794419e-01 4.224429735141241316e-01 3.079795483922378452e-01 -8.524614547888120786e-01
-2.458648541846732496e-02 1.846895242937218462e-01 -5.421016107273451956e-01 -7.675710908323633008e-01 -6.348366603748841763e-01 8.841399867939425672e-02
-1.802619758590379498e-02 -1.996703392152619494e-01 -7.719882979635179776e-01 6.273177219696383089e-01 6.909509817414033472e-01 -3.592481266943703400e-01
-4.066878321389999495e-02 -1.221156938410607462e-01 -8.148096215314518664e-01 -9.642144709944423520e-01 6.149713381166229884e-03 2.650521362868765163e-01
-4.885291412890435669e-02 -4.066241548435397396e-02 -7.013089714646746353e-01 8.199039621968771119e-01 1.158898723364021610e-01 -5.606487583716869283e-01
7.895715330315293545e-02 -3.655660607347211832e-03 -6.088917489239545899e-01 -7.198677934237052156e-01 -4.376909431606483825e-01 -5.387179208699366395e-01
1.463363920083324624e-02 -2.347447713546088610e-01 -8.736794306940751653e-01 -2.385206451159390117e-01 -1.574286815146527796e-01 9.582922894868944885e-01
6.519471961078405001e-03 1.189372774094644009e-01 -5.874479476973323289e-01 -8.987982848622921850e-01 6.990702843137473754e-02 -4.327524124768069580e-01
-6.541411890651570304e-02 -6.393449131334355551e-02 -7.282830826900573706e-01 6.497653134199200542e-01 6.294294042497825536e-01 -4.261732776020530356e-01
-1.069367030517273318e-02 -1.687105526085581550e-02 -7.310822734819515389e-01 -7.927062267370758031e-01 -1.085716253554656063e-01 5.998575166320250229e-01
-8.177058982885983610e-03 -1.109613519229295936e-01 -6.937063338063476081e-01 4.588267838378658481e-01 4.631234409581436728e-01 -7.582840238776555886e-01
4.365120000545408968e-02 -1.784730488366214340e-01 -7.053786977465988928e-01 2.796874481288775804e-01 4.941954192136412960e-01 -8.231317142398352216e-01
-1.637876684670501459e-02 -2.091073452090228824e-01 -7.838859902030562710e-01 7.485909052865796776e-01 5.307571485650326437e-01 -3.973770322619749051e-01
-9.182972252167263816e-02 -1.903689811513831209e-02 -7.510094615272601137e-01 7.363359033951081267e-01 4.670458840586376170e-01 -4.895687689744877558e-01
2.709312288170524427e-02 7.961653520611065502e-03 -6.160691421480916086e-01 5.661980066469171069e-01 1.887079973546993972e-01 -8.023771613171926109e-01
6.440411294109878171e-02 -2.281143464570236923e-01 -7.549331319902650161e-01 -2.593581952137683500e-01 8.708245125145883669e-01 -4.176098597724751671e-01
-2.544740844801074084e-02 8.319409082942144651e-02 -6.468904691867966017e-01 6.766470817933093462e-01 -5.150112702186275815e-01 5.262243991382330455e-01
-9.010682300098690756e-02 5.272050946892843648e-02 -7.383630417239931409e-01 7.002335930710154033e-01 -7.044063802886916248e-01 1.161230663711510652e-01
2.650561805646558730e-02 -2.551065811914497439e-01 -8.555682603010988929e-01 1.682023394860558685e-01 -6.337220747762671857e-01 7.550525179963845090e-01
-9.222021707159315518e-02 3.434821064462915269e-02 -7.723925974160219532e-01 4.122850831933467242e-01 -7.102253577576307375e-01 5.706145383481746602e-01
-3.944179527710825472e-03 -2.551183513103167932e-01 -8.344937769626139534e-01 8.894349274784255632e-01 4.350800676869761019e-01 -1.400387249404392576e-01
