-7.357956234947746199e-02 -1.412764552550082597e-01 -8.697460107367901427e-01 -7.921272074459302370e-01 3.978074081004264739e-01 4.629079317578528308e-01
9.788506793583587329e-02 -1.704954485932156927e-01 -8.423407728581094878e-01 -5.530154078880774593e-01 -2.078048908998461897e-01 8.068401861313591050e-01
9.649991481858616327e-02 -1.380319038658080755e-01 -8.254538294131110732e-01 -2.369098164747417967e-01 -5.568585080208198201e-01 7.961044786350159885e-01
3.409303354547081177e-03 -2.054573315799834987e-01 -9.122898889048083326e-01 -7.333864413468915711e-01 -4.990733227917589221e-01 4.615952189160271169e-01
6.837753802930753022e-02 -5.879745395403944419e-02 -7.803353635379499664e-01 3.524838372336666081e-01 4.183606613857839829e-01 8.370958735377204141e-01
-1.908166865240251697e-02 -1.435763112205878933e-01 -7.808974595416867670e-01 4.968634162887327621e-01 5.866385742649135038e-01 -6.395169495316906927e-01
3.072974015025008859e-02 -1.066504134464162784e-01 -7.529888277739782421e-01 1.718690587249457891e-02 5.341372085630557986e-01 -8.452230786573426968e-01
7.184538210061057473e-02 -5.506384418711291612e-02 -7.821272729716394201e-01 2.249490105614949942e-01 -1.659263900521470436e-01 9.601387273366630559e-01
2.231520866922816898e-02 -1.636703738898932226e-01 -8.594843158407837747e-01 7.262022628084852105e-01 3.861431898769264182e-01 5.687914471961649232e-01
-3.890932926945200182e-02 -9.559555430983059099e-02 -7.628725240613403180e-01 3.969165525581776488e-01 5.186831297784623152e-01 -7.572483484224645789e-01
1.157301259947120381e-01 -1.336439745722201589e-01 -8.123129971464154719e-01 -6.370654271830239468e-01 -4.566381026710616409e-01 6.209905673012143801e-01
-2.613466547504851578e-02 9.397186002322388890e-03 -7.068350126730758021e-01 5.155369532888349760e-01 7.710214129656874082e-02 -8.533914164093457932e-01
4.022520599577119466e-02 -1.310044602034899086e-01 -8.145915843623744435e-01 -6.575591509361733422e-01 -7.533139487058757577e-01 1.157832912210990210e-02
-6.507619300558244169e-02 -1.618606036679524351e-01 -8.206589123598337920e-01 2.129567087576389739e-01 7.931116887652861491e-01 -5.706341116153063053e-01
-1.167028273031268243e-02 -1.787475788826006773e-01 -8.784091565278062674e-01 5.051064032261579628e-01 -8.541460862281510247e-01 1.237011915911301468e-01
-1.030794177809332968e-01 -9.376497509517880968e-02 -8.395330474648901031e-01 4.937194851900433834e-01 -7.537248658700340664e-01 4.337509613970643718e-01
1.049371307940436503e-02 -2.571270584984107765e-01 -8.863874445948718428e-01 -2.661613497022891628e-01 6.955363683324842228e-01 -6.673734308852236063e-01
-2.178039022470691990e-02 -1.361612879463284242e-01 -7.750451907653238548e-01 2.807565677049784214e-01 5.947657348442845215e-01 -7.532791450356619567e-01
-1.723373584848344325e-02 -1.692356238445684169e-01 -8.022871462227446626e-01 5.915577029678575904e-01 5.193071725400917327e-01 -6.167491747929682022e-01
1.359036148475825309e-02 1.456629044783564753e-01 -6.034494174600919525e-01 -9.699922061611888635e-01 1.205839844755247914e-01 -2.111270297109211491e-01
5.911385552802578963e-02 -1.328765844416155140e-01 -7.693847537368416756e-01 1.206986931421750141e-02 5.665602548885294576e-01 -8.239319121355732634e-01
-5.020189967692946162e-03 -2.541343023307588989e-01 -9.355938332643377597e-01 3.454715825651609729e-01 5.893798364158815001e-02 9.365765850821742289e-01
2.064219575289759703e-02 -1.030426637250814875e-01 -7.508273571926252776e-01 9.291398386932294556e-03 5.437126489625387915e-01 -8.392200100534747964e-01
-8.576062526265962327e-02 5.133309614703311652e-02 -7.488212950757345832e-01 4.092965004589872446e-01 -8.318980631536642134e-01 3.747292185474844217e-01
1.060777909653015105e-01 -1.032336945359778185e-01 -7.508483411023625376e-01 -1.898678228800336765e-01 4.397072794032174103e-01 -8.778426500658400577e-01
-1.572286039934630252e-03 1.374161194893092075e-02 -7.693082464515728081e-01 4.202554054349390000e-01 -2.742867806750613480e-01 8.649578927032377518e-01
-9.420587441756146652e-03 1.513505351864264104e-01 -5.568180620361469213e-01 -4.927826967644401424e-01 7.219466830377712085e-01 -4.857552888238332867e-01
-1.023087179427177307e-01 -1.525758733164327974e-01 -8.666868729131594895e-01 7.320485660119943061e-01 3.041356042716400476e-01 6.095953011745640637e-01
1.937783547558346101e-02 1.188491168828593181e-01 -6.457307377600903786e-01 -9.911018055144485972e-01 2.076493875805878950e-02 -1.314763416907186178e-01
4.924943727038454122e-02 -1.234135311556988218e-01 -8.153258489621999505e-01 5.356767297810982598e-01 5.412224853870428731e-01 6.481733275000601813e-01
8.849586675983187045e-02 9.483663232307764854e-03 -7.480837756262566085e-01 -2.733125813839198393e-01 -5.809789567302641178e-01 7.666574754698946004e-01
-6.914175149458683112e-02 -8.401775523185321670e-02 -7.667895917806041295e-01 2.372832409353794469e-01 6.986064524490052108e-01 -6.750153243948008308e-01
1.101783937836509908e-01 -7.336614266063025414e-02 -7.887096415706744690e-01 -2.515131479036372686e-01 -3.798933950899686662e-01 8.901809618266500745e-01
-2.839891780971265031e-02 1.728269632301194514e-01 -6.008253073906445474e-01 6.741443755670242233e-01 -5.940844740888252540e-01 4.388541882424626395e-01
1.233192430149874924e-01 -1.041605594271505508e-01 -7.553426522920116959e-01 -2.065626571308322446e-01 4.384991625216876909e-01 -8.746715687312746068e-01
4.129510821249298552e-02 -6.607919613347598697e-02 -7.839201256412060559e-01 -2.407819495673193810e-01 -7.439509094587418714e-01 6.233466909177199922e-01
-1.095897913292694266e-02 -3.512102693808526188e-02 -7.750915944458193207e-01 -4.113123391404714946e-01 -1.374744341684014104e-01 9.010676665050585399e-01
-2.261854687829759764e-02 1.772014661450475870e-02 -7.619920088465564900e-01 -8.862883980750857482e-02 -8.273973911335067433e-01 5.545795577731311710e-01
-1.183361520781191362e-01 -1.228116458164968811e-01 -8.525732251682882623e-01 8.280138606922581301e-01 -1.074406925538751167e-02 5.606046837811268224e-01
1.156959670999996304e-01 -3.160079569586779491e-02 -7.505347541304832060e-01 -2.815450167817035720e-01 -1.210861145083812901e-01 9.518773851703028477e-01
7.611761986397309193e-03 1.735971773517555605e-01 -5.917232717443480228e-01 -8.599314091291286877e-01 -4.804851764543647819e-01 1.721974645597577624e-01
1.085434479243198719e-01 -1.599401347035604160e-01 -7.949192804363472975e-01 -2.267184154030283116e-01 7.189102302619002627e-01 -6.570896749621935040e-01
-8.583381637925263652e-02 2.787493597616555810e-02 -7.809375108135134802e-01 -3.495528420082038429e-02 -6.559759461410897829e-01 7.539719399226616492e-01
-8.431910720428012485e-02 4.194926591362400231e-02 -7.659101288310025124e-01 1.840944352257434524e-01 -7.998193875470981373e-01 5.713126869085785042e-01
4.581909381394883712e-02 -6.567900018798607242e-02 -7.724804449941381490e-01 -2.169398237682063080e-01 -8.637577141678568493e-01 4.548183418453330407e-01
-1.957983016263030451e-02 -1.331452699731923428e-01 -7.716628823235550660e-01 3.543487309053013345e-01 5.492469809961383342e-01 -7.568122163208189646e-01
8.167931565898364776e-02 -1.933884943833601988e-01 -8.618794304457263467e-01 -7.800191439430433915e-01 -9.362935442987771473e-02 6.187113051103932948e-01
-7.375675864505532031e-02 -1.147902424476294064e-01 -8.544245818484200727e-01 -3.914262367542923893e-01 -5.418377672912828569e-01 7.437723678096479496e-01
6.842957658435844248e-02 -2.180059720761458597e-01 -8.788065267378276646e-01 -6.641133428551448947e-01 3.969145925965492649e-01 6.335710489169151804e-01
-2.166247971560062574e-02 -2.089912530401843160e-01 -9.231849299271075449e-01 7.898649470837684761e-02 -4.872622909304223926e-01 8.696761428778644332e-01
4.794943100468019442e-02 -2.287312570526162658e-01 -8.492216540231495303e-01 2.269852602643991912e-01 7.405846769475050717e-01 -6.324650408467351603e-01
-3.834087800111188327e-02 -2.219278501855674254e-02 -7.269265871483643338e-01 3.342638755975691489e-01 4.290211136641272072e-01 -8.391713445422721573e-01
6.658973808327865729e-02 1.597514217999772626e-02 -7.455863785850286307e-01 2.632538119414726263e-01 1.438909637776822070e-01 9.539354386128094943e-01
2.464309279772348548e-03 1.450149134738233370e-01 -6.558798199798648865e-01 -3.047080437942009667e-01 -7.863722061163166410e-01 5.373748798509923041e-01
-1.335337219784153151e-01 -7.747389562013799746e-02 -8.112236695459451585e-01 7.891821717824858418e-01 2.864801542829836789e-01 -5.432500537898516946e-01
1.313431087800984998e-01 -1.013564624399686115e-01 -7.883434679419571989e-01 -7.283623247501048725e-01 -2.548780690053373821e-01 6.360231865464759382e-01
2.343224462400294791e-02 -2.153937317076118907e-01 -8.412334943567406631e-01 8.573703267941448769e-02 7.894534362495817525e-01 -6.077930842162128089e-01
6.107625367376925268e-02 -2.588761555158197378e-02 -7.044605311312037710e-01 -4.141922468331474261e-02 1.457777585494548223e-01 -9.884499445793549777e-01
1.119857370290923693e-01 -2.707666307347845591e-03 -7.458543158960154740e-01 -4.881069267195995431e-01 -5.961124789946407043e-01 6.374963062443665951e-01
1.947648582832512548e-02 -1.675610998527518603e-01 -7.956513991326241708e-01 4.293230841497890776e-02 7.159814875427400471e-01 -6.967979092895200122e-01
5.954591734189623731e-02 5.352332194326581832e-02 -7.116358057408216364e-01 -4.040677584255961130e-01 -8.995224994226136417e-01 1.660979218214597430e-01
-7.726216843460205486e-02 -1.870462012295704551e-02 -7.365892534992256602e-01 9.370488100833547496e-02 7.388888224473432187e-01 -6.672800786308491494e-01
1.889219684692670931e-02 -7.392600222345684091e-02 -7.947146528599607906e-01 2.410695485707215757e-01 -5.979974150608914352e-01 7.643850890306536083e-01
-1.135528019814202871e-01 -4.927846517951518096e-02 -7.750455201845801723e-01 4.294078794908696151e-01 6.129446102058062618e-01 -6.632554393676745041e-01
-7.527488312910611545e-02 -1.306274666397276574e-01 -8.661059955580793224e-01 -3.296706280692860980e-01 -5.269018097231544795e-01 7.833848095915998400e-01
6.690460448374496716e-02 -4.619990982525114254e-02 -7.182358583650697570e-01 1.489718777259148863e-01 5.134647318737420862e-01 -8.450806758935154317e-01
-8.775962015494180590e-02 3.158928623803769486e-02 -7.774583514892094982e-01 8.986352475384261351e-02 -7.245998180986643611e-01 6.832859215073859849e-01
3.168205410212118767e-02 5.924655646274406412e-02 -7.209269293643598697e-01 -9.501022727297125936e-02 -8.221010439880230836e-01 5.613581122486256403e-01
6.069374256781061988e-02 -1.482328619822097238e-01 -8.344747343770191339e-01 -4.668649237367450411e-01 -8.559491528581339992e-01 2.222345398576150155e-01
3.280410055483302251e-02 6.326728585480120848e-02 -7.146500040647806307e-01 -1.620313586679460183e-01 -8.744675652003555122e-01 4.572223925189811133e-01
9.938360681325020263e-02 -4.612646099519637777e-02 -7.112289311666577518e-01 -1.215714140055927234e-01 2.668973723939724318e-01 -9.560262464524047488e-01
-3.514240639292719875e-02 1.595631109851011475e-01 -5.741897042845559573e-01 9.154569804432046709e-01 3.683081049171095245e-01 -1.621346872516104265e-01
-9.776072010930117462e-02 -2.057339284909133481e-02 -7.450389277433073776e-01 4.251900640360256611e-01 2.334067089273446916e-01 -8.744911192646532827e-01
6.414792590062586009e-02 -1.087334208804257019e-01 -7.516226120888285234e-01 9.426144320112889163e-02 6.250932343273691849e-01 -7.748375498927430050e-01
-1.286004910297031470e-02 2.772264460565759814e-02 -7.564500731734260519e-01 4.830600862877100776e-01 -1.877439242999351943e-01 8.552222938652678241e-01
-4.704021127779899752e-02 -1.155628102974178562e-01 -8.390893848393404797e-01 -7.810877014352790582e-01 4.011168771655894139e-01 4.785470233106436377e-01
-5.410189204282532006e-03 9.015286089214188947e-02 -7.222713460602997460e-01 3.226493711270831954e-01 -6.477889993505433486e-01 6.901208558156458617e-01
1.244445491995503916e-01 -1.160006772277700077e-01 -7.616752335473288005e-01 -2.405455491066130214e-01 4.825510961962446443e-01 -8.421889801967255007e-01
-6.695843009077942498e-02 1.565222953710768139e-02 -7.714279503816880990e-01 -5.526113190482145887e-01 3.539159591148645645e-01 7.545622730720094040e-01
-5.903603478456310311e-02 -2.059863420502407727e-01 -8.987460388944362721e-01 6.914616580033429161e-01 2.029056594675635872e-01 6.933325817147936165e-01
-3.271622404959447644e-02 -1.054337569740506839e-02 -7.180045076150257666e-01 2.853629390340885474e-01 5.650059432552944072e-01 -7.741681194107786768e-01
4.395856538035734784e-02 -2.522702960672393302e-01 -9.042314623185884193e-01 -8.162402467420893926e-01 5.774141546930965374e-01 -1.856754045288592017e-02
8.923223294764334734e-02 -1.982888697791097277e-01 -8.415919889303619117e-01 -9.889559960579406006e-01 1.411817273535864448e-01 4.509720304525131201e-02
-1.424472253685739875e-01 -4.947183768562258416e-02 -8.036946039018602050e-01 9.895986883397426270e-01 -1.426986036151874256e-02 1.431461041087865593e-01
2.688466244849197634e-02 -2.423682566120261284e-01 -8.742799310665488877e-01 -9.457825083704167468e-02 7.415909251478681741e-01 -6.641519812565003233e-01
2.066479629998230899e-02 -1.122191460118694140e-01 -8.071717675541726367e-01 2.715318869131901347e-01 1.552818933046992353e-02 9.623041669479975857e-01
1.447043982795463875e-02 1.434083248065650372e-02 -7.667315356969165441e-01 -6.947786043729613503e-01 -2.031793379439082725e-01 6.899281466487904302e-01
8.131979019182286605e-02 3.968357715387415413e-02 -7.024663765302652241e-01 -6.137202392795300110e-01 -7.273908703669362819e-01 -3.070016117311232806e-01
1.340658588322888312e-01 -1.124932308767462030e-01 -7.887779332891086126e-01 -8.240758418317202239e-01 -1.280503843237524308e-01 5.518170946825412537e-01
-3.031301468904483778e-02 -2.443419094075714032e-02 -7.245964459579498085e-01 3.972026861944476517e-01 3.946241681645699662e-01 -8.285540368499426656e-01
-6.531843297602980825e-02 -2.069739694232262117e-01 -8.818586257908426207e-01 8.486505283270278088e-01 5.180611183468075698e-01 -1.067939999602575130e-01
-4.083890426542836384e-03 1.357274168086316235e-01 -5.851991651148832352e-01 -3.665467560345878062e-01 7.724691560135090729e-01 -5.185893159797039242e-01
-3.283800796981393988e-02 1.900852299221864397e-02 -7.578510084424555648e-01 1.747638321183033194e-01 -8.520011262484362691e-01 4.935095580175945518e-01
1.488309308248668070e-02 1.312423660779837298e-01 -6.180760624929111380e-01 -9.324401221130202977e-01 2.228590485426145684e-01 -2.844103780745994015e-01
-4.588281604305781414e-02 -5.737270213372618055e-02 -7.922551330592341179e-01 -8.056294247343923076e-02 -9.055510111562239395e-01 4.165176808899732630e-01
2.023914961220545441e-02 1.041666739269326292e-01 -6.578403710796213444e-01 -9.412519119572214654e-01 2.376037898128404990e-01 -2.399776600091156342e-01
-1.286182602400033348e-01 -1.079922179792366377e-01 -8.309512430851107023e-01 9.320834835718533329e-01 3.006947401519556862e-01 -2.019976556732942241e-01
-1.524500176592316451e-02 -1.617862962501924740e-01 -7.935019179517834864e-01 6.357221219979170002e-01 5.062116342677482894e-01 -5.827582388387496648e-01
6.867529460247366602e-02 -1.725694764695811512e-01 -7.944073547441857786e-01 -3.850895874372903815e-01 3.914558331127597768e-01 -8.357441835689749521e-01
-4.339107674633153888e-02 -1.514619266377648099e-01 -8.742754747360240719e-01 -1.199219269474534333e-01 -7.156591491443515807e-01 6.880775491782826769e-01
9.014073265424754622e-02 1.206876892418479175e-02 -6.940056193765861137e-01 -1.012266557129623684e-01 2.269716795073347948e-01 -9.686263577225167065e-01
3.947975423849125337e-02 9.488128543812091031e-03 -6.982102071271230059e-01 4.989866612113161293e-02 3.057414900835666027e-01 -9.508061129172508119e-01
-4.471805511124589405e-03 1.230971423940002973e-01 -6.841095977213418333e-01 4.534938829940889093e-03 -7.598280931960184059e-01 6.501082241595710354e-01
-1.863742414420923449e-02 1.302078500089233204e-01 -5.935919443717081467e-01 3.492338176188745091e-01 8.212846118870198442e-01 -4.511400302665831141e-01
1.150389984058963477e-01 -1.682751972001108043e-01 -8.127776343212864685e-01 -7.731211321881342746e-01 6.072747696807889728e-01 -1.830329726395830414e-01
6.334507580869899734e-02 -2.950691880525830712e-03 -7.524724646319613797e-01 -2.698005260042670717e-01 -8.214640611231027734e-01 5.023987186000377081e-01
-3.586157420781051902e-02 4.049407870580391290e-03 -7.758555486366133236e-01 -2.928371079974845803e-01 -4.621511155058400377e-01 8.370560164148975746e-01
-7.647527046801637363e-02 2.540227208897206240e-02 -7.239680165914075261e-01 3.306388005400696106e-01 3.042610563218183795e-01 -8.933662144850539333e-01
-1.373284483135888898e-02 1.005966234631326256e-01 -6.378610143434213509e-01 4.323712944830691574e-01 7.351905430496252780e-01 -5.220631466761777029e-01
6.787527123922484917e-02 -1.535402965952484267e-01 -8.359022660901077595e-01 -6.969964818755469693e-01 -7.143288531422579135e-01 -6.269125793582992767e-02
-5.366493231686541437e-03 -1.462318691125872872e-01 -8.586842585584882892e-01 -5.135916009265680815e-01 -5.878230324182450728e-01 6.250501979971717637e-01
-1.137629857626074187e-01 2.266809544955995792e-02 -7.747767298888592613e-01 6.295308028179148474e-01 -7.077356219100282564e-01 3.206263522904145291e-01
5.381167440359375248e-02 -1.425995430149744059e-01 -8.217487358239011774e-01 -7.126734649453673187e-01 -7.003832292327699660e-01 -3.949512086626991159e-02
-2.141262326342562375e-02 -4.689163670236293907e-02 -7.771687025712674668e-01 -1.329723071192188966e-01 8.380161505864100469e-02 9.875705822132184730e-01
3.581170856649321110e-02 -1.810494570230145872e-01 -8.670402588555264911e-01 7.259855439270284094e-01 2.978677293656576547e-02 6.870645807833513086e-01
-2.592959425744272451e-03 -1.891771776353002033e-01 -8.081130919187218264e-01 -1.761480363794677706e-01 6.620444776576048795e-01 -7.284703006181697527e-01
-6.869357413368669396e-02 5.786214109359819058e-02 -7.208724156884266376e-01 4.833564992866878907e-01 -6.841628789483608086e-01 -5.461571657191803819e-01
-8.403676782001337497e-02 -1.253079108295965804e-01 -8.654387373177797604e-01 -1.684697940085245760e-01 -5.419080828648364934e-01 8.233793525662898016e-01
6.423656838071631348e-02 -2.316065792423858405e-01 -8.693600496870668159e-01 -7.223805020006756061e-01 6.368156758353143987e-01 2.695036276929562713e-01
-9.306979700202561157e-02 3.116860904505660418e-02 -7.772592391055710426e-01 8.098565502923549264e-02 -7.206127545255262001e-01 6.885917380383090869e-01
1.155711215731839714e-01 -6.404415573731074562e-02 -7.227910310791382242e-01 -3.496722643731935837e-02 6.668525101440285763e-01 -7.443688754843860167e-01
6.321407885549361338e-02 5.012789825230141993e-02 -7.174312570119091292e-01 -3.693788766491284958e-01 -8.504464099891331230e-01 3.745666151995165616e-01
-1.424916145292466456e-03 -1.013360554123584750e-01 -7.469399833715878456e-01 -2.196794554946867595e-01 4.775254070074096413e-01 -8.507117152690244488e-01
8.922661730301442717e-03 8.502228475958346215e-03 -7.724850191301005919e-01 -3.047066065395127588e-01 -2.973188997244519127e-01 9.048510130390613471e-01
-1.736213335947059747e-02 -1.191875527693446735e-01 -7.630015932477517415e-01 6.520534380601035185e-01 4.263604336914106896e-01 -6.269314910709707922e-01
-8.781844975959665622e-02 4.284203375198106234e-02 -7.256043621734383775e-01 5.671502116632927137e-01 -1.730319842986135226e-01 -8.052332393909027441e-01
-2.306672949632816369e-02 -1.205665640549086481e-01 -7.690366347373104317e-01 5.118522100658151608e-01 4.695221362065363224e-01 -7.194138438081321141e-01
1.274909411068822218e-01 -2.291914310162340360e-02 -7.462759041964626139e-01 -7.730221662223839552e-01 -4.344992283031113844e-01 4.622198082437117828e-01
-7.380740068159351297e-02 -1.829896743668408821e-01 -8.571419344762967185e-01 2.820286811396587323e-01 8.007076522980857147e-01 -5.285140287314162855e-01
-8.229161262427966972e-03 -2.682451280171086472e-01 -9.292638363520674405e-01 6.668373782830089302e-01 3.080720877427944870e-01 6.785421871029383434e-01
-3.095898399799965756e-02 -2.196577824384175481e-01 -8.672549941957305997e-01 2.953794301754952834e-01 7.927647376104940413e-01 -5.331745146108956002e-01
-2.675743963620799346e-02 1.698992840302102902e-01 -6.075089832346572960e-01 6.520384938533846375e-01 -6.339279508811517250e-01 4.159100330901307485e-01
-5.204929279646135741e-03 -2.468296220308321964e-01 -9.354610781282978182e-01 2.375048032612632476e-01 -5.786663347401692359e-02 9.696612404124506090e-01
2.758703759062254915e-02 -1.788978538187960265e-01 -8.078086580325521959e-01 -4.796771855786293587e-02 7.535603006690543282e-01 -6.556263960762395149e-01
3.145163700811372948e-02 -1.060208529654743104e-01 -8.128394862297328993e-01 5.772435978057585682e-02 -3.638538778824242370e-01 9.296656677740897656e-01
-9.320608490833144633e-02 -1.176588116537059248e-01 -8.615352832370767322e-01 -2.327225670091490062e-02 -5.381404536958472873e-01 8.425338296852382669e-01
8.427907352059502144e-02 4.805396278659453992e-03 -6.961289162954698018e-01 4.972647928236131193e-02 3.473944450704536946e-01 -9.363996885904929401e-01
-1.170988989048116630e-01 -5.680245947912909016e-02 -7.840843463110704903e-01 5.246420549371022535e-01 5.400790469777954073e-01 -6.580769994513793186e-01
1.513559911745874891e-02 -2.424638823122459708e-01 -9.221610818257545139e-01 9.410358555998221686e-01 -1.073323949779286107e-01 3.208290439841953168e-01
-5.354570337842750639e-03 -2.098880354115961466e-01 -9.227235299294668236e-01 -2.560417876243235580e-01 -5.793755400310820480e-01 7.738000947297906107e-01
-1.318208073709063732e-01 -7.200242100237050358e-02 -8.062446826857398996e-01 6.686041484726223949e-01 3.799456767862841589e-01 -6.392259188554639815e-01
-1.067181739876029746e-02 1.322742908610360646e-01 -6.730282792449947538e-01 2.178419463825811697e-01 -7.197436263398249157e-01 6.591767583428946864e-01
9.128018175428687098e-02 3.074121276243529932e-02 -7.212392248948745754e-01 -6.293311006892736703e-01 -7.190786594633875595e-01 2.947341975569936490e-01
-3.116874556173608417e-03 -1.319880168609195159e-01 -7.647676550889644931e-01 1.485040766705943063e-03 5.437338046966497807e-01 -8.392564234392411171e-01
-9.024255745481687963e-02 -5.609000378586856406e-02 -8.287120850517696313e-01 -4.450685491085766277e-01 -1.718482277349635545e-01 8.788527596922811602e-01
6.755121595359879494e-02 -1.537810090124433204e-01 -8.321185552181381562e-01 -6.346958268357875133e-01 -7.684944439729896049e-01 -8.110176927713169670e-02
-7.396628440544925076e-02 -8.705606821692114805e-02 -7.716808019752894321e-01 2.063516312701115796e-01 7.277381862604765939e-01 -6.540765525001451808e-01
9.433608550472173671e-02 -7.806468353674755889e-02 -7.857440236940278488e-01 5.871038332135604110e-01 3.434518758723306142e-01 7.330415390588181923e-01
-3.314175111518075784e-02 1.446907274584447456e-01 -6.101751866006783764e-01 9.887439480985212858e-01 1.491702847447494984e-01 -1.155989825729584336e-02
1.057924982014185090e-02 -1.795243196991312407e-01 -8.060747663684199038e-01 -1.913573298785694043e-01 6.406419844729620561e-01 -7.436129504199678886e-01
7.784851523652169814e-02 -2.061656457305725831e-01 -8.672813165966589688e-01 -8.703616071680971844e-01 7.935648384651379506e-02 4.859765644959487818e-01
6.535119547872196566e-02 4.936497940532657419e-02 -6.997735547190923056e-01 -4.817010347487718502e-01 -7.789409657999082359e-01 -4.015159833937726463e-01
1.320306459245949512e-02 3.346180256979084527e-02 -6.916721711645932302e-01 -1.314614463528426813e-01 3.253261034813343389e-01 -9.364191446763948656e-01
2.178811583428283058e-02 8.198178005162706783e-02 -6.962206704588657091e-01 -9.898963082612243225e-01 1.407970071946353097e-01 1.677801108096339117e-02
-9.736374560377469844e-02 -1.237377081903552889e-01 -8.146264469673513142e-01 4.711741336051034623e-01 6.193845919262589428e-01 -6.279790307851225162e-01
-7.155015237205891894e-03 8.456735149529664639e-03 -7.669326011306966118e-01 6.264725283903438413e-01 -2.342939224944076415e-01 7.433966162516443266e-01
1.107986203014098281e-01 -9.042465301470078987e-02 -7.450805548652589261e-01 -1.632443076539653870e-01 4.904830207064596603e-01 -8.560243585420009849e-01
-9.687636137638759234e-03 -1.813667146679477371e-01 -8.944928990231338917e-01 -4.010425002298566299e-02 -7.382807416930646793e-01 6.733002269234966697e-01
-4.192055246402547064e-02 -8.104532245414322600e-02 -7.533590774689946645e-01 3.361777061957354484e-01 5.923967350418153366e-01 -7.321548047843235985e-01
2.097064881631189801e-02 -2.649108572747869150e-01 -8.962496690583200420e-01 -1.553923555754083419e-01 6.910100391832433298e-01 -7.059449989742105913e-01
-4.672080275913929881e-02 -2.025799182861499625e-01 -8.568739338782576098e-01 6.893065586079989426e-01 2.995530274530353032e-01 -6.596396379870743676e-01
-2.582829762087644754e-02 -4.775924343435773017e-02 -7.778480577963378106e-01 -1.945321900629676248e-01 4.108398142537266623e-02 9.800353735960476431e-01
-1.027596570532962432e-02 -2.091528595023371406e-01 -8.378182699364897790e-01 5.198608086800035055e-01 6.442199842611041616e-01 -5.610038783085155023e-01
-5.612653355399358640e-02 -2.197670788061062419e-01 -8.777203855625129725e-01 7.220595334151270750e-01 5.292064159166192105e-01 -4.456126115327247450e-01
-3.482537778594703426e-02 -4.904198797286346556e-02 -7.375329415356824958e-01 3.903785736825747255e-01 3.649513824071495272e-01 -8.452307718538581982e-01
2.065258547168215275e-02 -1.710627613509336231e-01 -8.554847986512826852e-01 5.070418111240888592e-01 -8.651517902467165122e-02 8.575684961391322192e-01
-2.763010710776578685e-02 1.598271445153864878e-01 -5.464777926390891327e-01 6.532497534702498276e-01 5.407799954459330261e-01 -5.299261798746638386e-01
1.041218083235706804e-01 -9.137990524146755167e-02 -7.444151218679314619e-01 -1.391641892917746259e-01 4.734480794776952384e-01 -8.697587277272041950e-01
6.294809688090227673e-02 -5.325683443569540626e-02 -7.226740245232248228e-01 9.147156416667907852e-02 4.765776002981030324e-01 -8.743607629823072491e-01
-3.432562172921473087e-02 -1.227225844582254394e-01 -8.296380268776877287e-01 3.258113334294495123e-01 -9.203564417691945110e-01 2.163122629507423789e-01
4.123568914196567604e-03 7.661800802915136321e-02 -6.617467411459947435e-01 -3.243866234763036482e-01 5.884714663892843811e-01 -7.405907451185763657e-01
-5.783420166713718058e-02 -2.200619260816589762e-01 -8.824135890847978336e-01 7.473883175509017374e-01 6.075499754847092371e-01 -2.688749338948531187e-01
1.147520092374386402e-01 2.068327825311763605e-04 -7.401768925207768968e-01 -6.221923196858127891e-01 -5.962603399383691327e-01 5.072970770077109837e-01
3.291671593229039683e-02 1.449071938869633119e-02 -6.971530365785427730e-01 5.715677177653052249e-02 2.746127196311644036e-01 -9.598546544435052619e-01
1.095717888268442075e-01 -1.379795426966973493e-01 -7.700389914082340637e-01 -1.016461277262712404e-01 6.384577586443727082e-01 -7.629153001120493327e-01
-4.245638482710292066e-02 -1.286573746521686712e-01 -8.384785346486692825e-01 4.333385883564968566e-01 -8.790747638052143209e-01 1.986082261186708497e-01
8.813200620341153646e-02 -1.985651885129805228e-01 -8.283162933980893206e-01 -1.994545517518300504e-01 9.275165283323444365e-01 -3.161186034636232489e-01
9.200029445468872052e-03 -1.733585267324681267e-01 -8.536592088616347107e-01 -8.484928614277928438e-02 -7.966173926603667965e-01 5.984992300346423377e-01
5.993595248635840214e-03 1.751327822750689545e-01 -5.934109999802351654e-01 -7.353013289953638232e-01 -6.216554344586292524e-01 2.699564342365347036e-01
-7.430645125419264863e-03 -1.626040968408224985e-01 -8.588712662684274690e-01 -8.016012071193406863e-01 4.443547644473895275e-01 3.999804345936450733e-01
-1.904451580595020385e-02 -1.530797278428388253e-01 -8.711450922200085767e-01 -1.732163435317916056e-01 -7.281766456077501948e-01 6.631401594873599370e-01
7.732590953466418615e-02 2.611706469203195491e-03 -7.445833224270882456e-01 3.653776495033465577e-01 3.891846137548510831e-01 8.455971320078473630e-01
-7.626208554552861563e-02 -2.231557162287489682e-02 -7.404157720569959356e-01 1.997231505114762107e-01 6.227208085773745516e-01 -7.565245916125337144e-01
1.535284851544055362e-02 -1.448899093240174074e-01 -7.725335757823438287e-01 2.642831446873336598e-01 7.839446884674061700e-01 -5.617696546253767576e-01
1.222810282588630143e-01 -1.592256580994898252e-02 -7.111487032192929103e-01 -7.872822255249221080e-01 -1.788981278568653743e-01 -5.900696206566090618e-01
5.788150530218275081e-02 -2.195915361210953598e-01 -8.467967087930233783e-01 -2.487014502487891188e-01 4.715975080334764424e-01 -8.460161813232438544e-01
-9.524362826583503139e-02 -1.891021487910635179e-02 -8.123614016025935136e-01 -1.155553158466775948e-01 -4.955082802051363200e-01 8.608824038320928018e-01
4.008149600308814203e-02 -1.298468874092696124e-01 -8.112810840279753855e-01 -4.023672057165653126e-01 -5.826800912421262746e-01 7.061051926121987288e-01
1.705219359153104311e-02 -2.493791647521171329e-01 -8.805567045173300356e-01 -1.376752145887875090e-01 7.298906804351598110e-01 -6.695559199214287105e-01
1.138832909855618490e-02 -1.847320052178195726e-01 -8.723041561929441023e-01 8.269279969303870992e-01 -3.843722757156667891e-01 4.104242214512404674e-01
6.847804607995251237e-03 1.758066680657272007e-01 -5.593718710373238867e-01 -9.685236506734106188e-01 4.940618976175845806e-02 -2.439691917014827627e-01
7.567502861354413746e-02 -2.177071165426318344e-01 -8.581371060876519241e-01 -6.825006770798606182e-01 7.105992285912390294e-01 -1.710016435917144362e-01
9.529361686069964810e-02 -1.484179560329972614e-01 -8.326980386738851436e-01 -2.380048803807973123e-01 -5.081571336326062838e-01 8.277258026987052153e-01
3.262247798112338781e-02 -2.575970769950240435e-01 -9.223873920481063804e-01 -7.739273910734936202e-01 3.811045121795897384e-01 5.057625373063255880e-01
1.363684690901348917e-01 -1.078246654448983960e-01 -7.628734301891140213e-01 -6.278494568966447309e-01 4.030123320586683211e-01 -6.658724500106771860e-01
1.134799885970615430e-01 -1.200349515175778842e-01 -8.004357563928157226e-01 -7.575780403233586258e-01 -5.879979401303999653e-01 2.834324173806273550e-01
3.046780899854344485e-02 2.874997497876898359e-02 -7.451446423538481412e-01 -2.749797587516774125e-02 5.163313454222349247e-02 9.982874739974018086e-01
-3.165771815292475755e-02 -6.080970453386266156e-02 -7.390379196039283949e-01 4.385914355275580268e-01 1.343391013984712445e-01 -8.885890830509494132e-01
-4.468600953789149399e-02 -1.032424086072929528e-02 -7.211104981666411895e-01 1.300454190276521260e-01 7.427839382875914831e-01 -6.567801839366789185e-01
9.126788595267172621e-02 -1.707773611717564033e-01 -8.004703769297818461e-01 -1.477880432980249181e-01 6.224809005042041266e-01 -7.685546322582514911e-01
9.107691237662195183e-02 -1.870265428717237666e-01 -8.132681149336772330e-01 -4.621142171680542310e-01 6.440329184498719828e-01 -6.096491205965089977e-01
-1.111563589642987765e-01 -5.384847669824738975e-03 -7.501902684919384834e-01 4.418394169671867600e-01 3.084665297648777615e-01 -8.423932155643883979e-01
-6.291720680593210907e-03 -8.464264275664362680e-02 -8.027988773858847349e-01 -9.608998978451931405e-01 -2.001552092988037324e-01 1.913355129390500453e-01
-2.318097210964118957e-02 -1.500069990046537793e-01 -8.687997689733465423e-01 -1.439459957027264814e-01 -7.268653371952811248e-01 6.715253769628818370e-01
5.584396560552826877e-02 -1.293359931783645903e-02 -7.028162796266672618e-01 -7.186285139173954895e-02 4.431985368976378709e-02 -9.964293658653213814e-01
2.054347790585045463e-02 -4.638770464274958455e-02 -7.227167012688004988e-01 5.484772511359790187e-02 4.084952327787003123e-01 -9.111110644959473648e-01
5.605790489731996007e-02 -2.805260322665818762e-02 -7.707669747898542312e-01 -1.902778076634208115e-02 -4.136363114091708426e-01 9.102433440805394183e-01
1.233506993443774825e-02 1.596869361117619068e-01 -5.948317404771367167e-01 -9.890919798566735199e-01 -1.275564313931218385e-01 -7.366418528333652793e-02
-1.099206591664383253e-01 -5.881618824262974110e-02 -8.335229876139271799e-01 8.601204390384599441e-02 -4.362567188063257717e-01 8.957019613687475790e-01
-1.019175983173337303e-02 -1.970134535042949997e-02 -7.094118487837388631e-01 3.080989918677378148e-01 4.629603411833402848e-01 -8.311093391976104305e-01
-1.150404267595936808e-01 -6.727123965796026617e-02 -7.893940131738321764e-01 5.563655126519251315e-01 3.906309784254117790e-01 -7.333927017812258420e-01
-1.154967223299771112e-01 -1.875362413700847747e-02 -7.560277375948304401e-01 6.196067190899376964e-01 4.041599654522961410e-02 -7.838712017173861124e-01
-9.806635328854292500e-04 -6.202951013880460968e-02 -7.271443109116553227e-01 -1.598865127575199996e-01 3.280717522645466011e-01 -9.310237528679432550e-01
3.198876545562617107e-02 -1.368213366666287158e-02 -7.023278611395680215e-01 1.235069887283481160e-01 3.592969833085855047e-01 -9.250144331417783361e-01
-5.439326041574201950e-03 -1.205551065347550826e-01 -8.288433543170860007e-01 -3.945958599726484550e-01 -7.546405828041318209e-01 5.242248545018503014e-01
-3.782635619256304732e-02 4.902736196269499858e-02 -7.033845176656932097e-01 4.063378990718429784e-01 2.484535777505618437e-01 -8.792953607752209688e-01
1.262709659943880014e-01 -1.173329712218172394e-01 -7.958029147371840084e-01 5.580593740861494734e-01 2.727866298531732570e-01 7.836818165352076315e-01
4.578784178803090021e-02 -7.438742304140334716e-02 -7.332452880935724782e-01 -7.653651063520380826e-02 2.288234422890046971e-01 -9.704545300006579556e-01
-1.099877750851882205e-02 -2.079074505768335190e-01 -9.224530145390129610e-01 -6.256651026518436631e-02 -5.545759169207499228e-01 8.297776715269856718e-01
-4.631449385567960875e-02 -1.806065226677303071e-01 -8.991371095648110767e-01 5.159406921011437663e-02 -5.704653561987597099e-01 8.196995360492550509e-01
-7.675033972132051796e-02 4.707661802879595410e-03 -7.834719287828264545e-01 2.105450034428944517e-01 -9.472621557833413863e-01 2.415889272005810329e-01
1.085173004807274758e-02 -1.014235369060736691e-01 -7.496837245804797156e-01 -4.310381265912996418e-02 5.117715765403720862e-01 -8.580395764646456813e-01
3.342626681777643299e-02 -2.164629205397954614e-01 -9.163881790837353769e-01 -3.195213354212379508e-01 -5.145215480263893859e-01 7.957221203580786550e-01
6.652378726452848334e-02 -1.070293538079398893e-01 -7.495541559472919113e-01 2.376760915125854523e-01 7.413088233157182350e-01 -6.276713343761733954e-01
-8.166802272841526197e-03 -2.543604057130604001e-01 -9.342175723792720543e-01 4.084003609520449052e-01 1.042365142652096482e-01 9.068317894009220170e-01
6.948643139157408000e-02 -4.746215582429905155e-02 -7.185164281217225613e-01 1.703948665748080682e-01 5.263844819761923643e-01 -8.329975789758387039e-01
-6.206416729756029232e-02 2.479516981973938286e-02 -7.190104582303530334e-01 3.396716917141034409e-01 2.655823942907215574e-01 -9.022688810387327063e-01
8.801935812704111961e-02 -1.957681445584286417e-01 -8.522430275444267123e-01 -8.422618098088999750e-01 2.080349828397204115e-01 4.973092495141364644e-01
-1.199768564875309390e-01 -3.157461282491814090e-03 -7.974606845723588577e-01 4.909108803209462080e-01 -5.110004552537267264e-01 7.056096954499687657e-01
1.930260766982676984e-02 -1.830226856156640103e-01 -8.114829962277015918e-01 -1.021900352945034757e-01 7.153265414651163168e-01 -6.912779005306499691e-01
1.411076060254068572e-02 -2.052933903793413006e-01 -8.983791082672131223e-01 9.015635088637017347e-01 -2.636010120655654099e-01 3.430710508384227642e-01
-1.818590290037111479e-02 -1.859974870652042478e-01 -8.910863398058381790e-01 6.934404079818905497e-01 -7.192185288328324377e-01 4.318690034542111561e-02
2.747888038871305894e-02 -1.029065367566920630e-01 -7.506530067517475091e-01 1.513026399984817964e-02 5.420539976246472325e-01 -8.402074379404370630e-01
-1.344717144915134888e-01 -1.162418015358440693e-02 -7.775437572711605405e-01 9.793260185045228328e-01 -1.600640805127677979e-01 -1.236933288810722897e-01
-5.886812966810992670e-02 -6.154426826027133840e-02 -7.535107099399573904e-01 4.436296791181450483e-01 2.149120830126712289e-01 -8.700606325887215720e-01
5.782214651008054512e-02 -7.337488904899147624e-02 -7.854292800002320440e-01 -3.655053173642549003e-01 -7.414883461920026564e-01 5.626729915678411187e-01
-3.779138201821864024e-02 -2.737407729434093717e-02 -7.906867461845348277e-01 -4.641356152719083306e-01 -2.779939240513078502e-01 8.410098149407785328e-01
4.406574283755237270e-02 -2.484878275151428950e-01 -8.873245730005494547e-01 -4.116496304617605628e-01 8.328502142967583177e-01 -3.700068949175672750e-01
4.598417570264838605e-02 3.663698623201796373e-02 -6.906906039181865964e-01 3.102148233826417661e-02 1.792343433221758320e-01 -9.833172010126768336e-01
-3.109086582922412326e-04 -3.261695175304039299e-03 -6.994943145514516125e-01 -1.724598442579050039e-01 4.327049411012610092e-01 -8.848864537696874422e-01
1.040697785081099586e-01 -1.043263293478840087e-01 -7.509613255044693680e-01 -1.898678228800336765e-01 4.397072794032174103e-01 -8.778426500658400577e-01
5.835117061529357906e-03 7.562836426251690058e-02 -6.632827857839853625e-01 -3.243866234763036482e-01 5.884714663892843811e-01 -7.405907451185763657e-01
2.198729561961330209e-02 8.182512775627782953e-02 -7.064007795500236719e-01 -9.992724610396330753e-01 -3.235194235158871112e-02 -2.019654509748090507e-02
8.349721271148716206e-02 -1.257381648378484273e-03 -7.454698418630053558e-01 3.440915181615562535e-01 3.188284054509227805e-01 8.831474820248864654e-01
5.049626275599511382e-02 -2.443896461863111769e-01 -8.994742170403640102e-01 -8.003189515228458228e-01 5.577451513040305731e-01 2.200225489130983592e-01
9.707355071914094968e-02 -1.919934476494206399e-01 -8.298674355949937631e-01 -7.454478726193264349e-01 6.653094437906875713e-01 -4.087558207838181551e-02
9.553035061531151007e-02 -1.799520814907603072e-01 -8.407177162714363217e-01 3.641511235145377667e-01 2.518268499096583124e-01 8.966477552013825125e-01
-1.013013427922326293e-01 -1.101772530732839789e-01 -8.564401441795592707e-01 9.414931956759761689e-02 -5.486615154866812949e-01 8.307264574147233960e-01
-5.498326120655119137e-02 3.108752472368879471e-02 -7.146553871092067300e-01 3.421694704862305869e-01 2.328179245319180746e-01 -9.103383258348636264e-01
-1.012780157046217905e-01 -1.552142832778966863e-01 -8.664472443995746564e-01 7.779909423065124452e-01 3.712223411285880403e-01 5.068767770731215094e-01
6.408623159416260151e-02 -2.908263329235236463e-02 -7.711868965573496215e-01 1.487564031835649468e-02 -4.506388334419452746e-01 8.925824091473020250e-01
9.753346055420920868e-02 -1.535822459766848780e-01 -8.350820923703679011e-01 -3.608890991678567750e-01 -4.637257616334307109e-01 8.091461401374334672e-01
-9.799960886435761520e-03 -1.802834576775628247e-03 -7.677518168179425784e-01 5.004967667408432019e-01 -1.816365824479303503e-01 8.464698095021453428e-01
-1.243045244173239805e-01 -1.141989104238569364e-01 -8.400316102474408853e-01 6.369816469726417019e-01 1.029722504699828872e-01 7.639706126894986182e-01
2.951649571456057414e-02 -2.636987183462877193e-01 -8.980459547136483422e-01 -3.357096225123218924e-01 7.108250028775817686e-01 -6.180832182131467123e-01
3.405803918865266209e-03 1.879831311141092476e-01 -5.683113318578028039e-01 -7.530926988882618023e-01 -6.412273510584030056e-01 1.472374651229007292e-01
-3.259013336114711251e-02 -2.393672736719170135e-01 -9.179017233332659176e-01 7.638273263753939668e-01 3.339628239302053769e-01 5.523012291447305655e-01
-1.705908830849217975e-02 -2.445472095225343367e-01 -8.878509633448348204e-01 4.827003278812879716e-01 6.672349278211522350e-01 -5.672723724621170360e-01
-1.226648400316007010e-03 -1.556700062717635002e-01 -8.515930811649579102e-01 -9.476489655566373571e-01 1.045448442505734904e-01 3.017147885339039881e-01
2.712002513726569780e-02 -8.715283980864357849e-02 -8.024116115780755010e-01 -4.950605047429803424e-02 -4.503382869486837747e-01 8.914844801086339032e-01
1.345285609058599063e-01 -5.086544658985491657e-02 -7.275098996118929406e-01 -7.497379642010414402e-01 7.236476156856330721e-02 -6.577661638597739335e-01
-8.639519957447988618e-02 -8.109673956100246772e-02 -7.751566249821028043e-01 5.658113611925900122e-01 2.168216731300732780e-01 -7.955161001554048594e-01
7.205713356942761161e-02 -7.798928628287120357e-02 -7.752894842951292276e-01 -1.406433133199040120e-01 -3.729660544180413151e-01 9.171236452465053590e-01
-6.553891833321173754e-02 3.161569090209367938e-02 -7.183520473109266113e-01 3.021417356885339744e-01 2.325679363551270140e-01 -9.244579636384976373e-01
-4.697190096792784597e-02 -7.106013232039212757e-02 -7.479520500908750646e-01 4.559267993552902909e-01 3.001941862321641508e-01 -8.378628791049579361e-01
8.969756925466124131e-02 2.862192198924837228e-02 -7.275515183185157220e-01 -5.097207905749843171e-01 -7.176355231777352683e-01 4.745355324198927138e-01
-2.663012051179568240e-02 -1.946175779441170206e-01 -8.330361138031101564e-01 6.528603171597634480e-01 3.419348707437678825e-01 -6.759097206339731434e-01
8.309014734176235631e-04 -1.757138612356362040e-01 -7.994817727636419624e-01 -3.310794614489337984e-01 5.592690261883365155e-01 -7.600029911474255329e-01
-2.811796707248056734e-02 1.120544283389457996e-01 -6.498604700748543683e-01 9.507216384659957775e-01 3.006632600138172684e-01 -7.569656683361586369e-02
-2.224605965257544365e-02 1.967604210329744197e-01 -5.509263839168643262e-01 2.322845444884443777e-01 -9.275286135694179590e-01 -2.928046471656297611e-01
-4.447736391463790948e-03 -1.751746515364544510e-01 -8.722664725001836317e-01 1.857913148719742280e-01 -9.786117332061741170e-01 8.832136179515429064e-02
-4.972469631770939924e-02 6.736424884813010938e-02 -7.284863960304097663e-01 1.599222704167439779e-01 -9.708403372114715602e-01 1.785886532450193243e-01
1.161269411398805629e-01 -4.314217446850768245e-02 -7.698564649721247877e-01 -5.000502157171978768e-01 -4.718665736076256279e-01 7.261485512434647793e-01
-1.224121102079405443e-01 -3.788081870253307004e-02 -8.198352417645093926e-01 3.019939092568802996e-01 -4.640390952218894638e-01 8.327468984495813853e-01
5.925214795962061021e-02 -1.362483470354158566e-01 -8.162828707997796807e-01 5.882782434494403523e-01 8.669880825443396222e-02 8.039975279385512819e-01
1.613830164392676680e-02 1.443138075846413793e-01 -6.253786407122828850e-01 -9.817815953543451712e-01 -1.898225544063205372e-01 -8.502756149420932427e-03
-4.917352497588117072e-02 -1.716263434510679198e-01 -8.283312799896891399e-01 3.241065047302689184e-01 7.685052681235642336e-01 -5.516834476924756814e-01
5.328710610502348372e-02 -1.296424844895398276e-01 -8.138869754576972815e-01 5.455184312573923000e-01 4.481101905598866009e-01 7.082421183993901082e-01
1.167453766173939811e-02 -2.132242481991149519e-01 -8.991031069061259373e-01 7.551667907597544582e-01 -3.832655212053398541e-01 5.318182569156614248e-01
7.080031510241037440e-02 -1.643694312236854693e-01 -8.509336765495518762e-01 -2.838753697355103078e-01 -6.906142021532198916e-01 6.651817783446859478e-01
1.220224838908130251e-03 -9.905054914400505950e-02 -7.959532878981393500e-01 -1.009174639363582121e-01 9.839841795465346583e-03 9.948461403584445417e-01
-6.989869117768268691e-02 -1.461662400011979890e-01 -8.115656382386939871e-01 7.530581616751447216e-01 8.102950638473685463e-02 -6.529453455148429564e-01
-2.781354555979991330e-02 -1.740237119381634889e-01 -8.909493561340517953e-01 -6.503049584420477203e-01 6.504649545148992462e-02 7.568833559110451636e-01
3.899390685031273868e-02 -2.243765564793269163e-01 -8.493084151439499463e-01 4.017163749150636232e-01 8.025871108034560164e-01 -4.409964667627858659e-01
8.194828463953590658e-02 -6.358820894877428506e-03 -7.446521349412289492e-01 1.057186834472272213e-01 -2.896484764430280467e-01 9.512766790289864938e-01
2.713471744097483915e-02 -1.597549960135607738e-01 -8.628258969654156729e-01 2.907124153454622439e-02 -5.672372727828474126e-01 8.230411528480926497e-01
-2.912312006798609826e-02 -1.346935364660702961e-01 -7.765233304930065916e-01 3.711999569988930214e-01 4.065436751972674734e-01 -8.348250308185053425e-01
7.892241362804060245e-02 -9.208145069096664026e-02 -7.416319057992308839e-01 -8.542668997713384615e-02 3.265622469063773070e-01 -9.413072715829877701e-01
-4.073403574836913926e-02 -1.843592591357808563e-01 -9.020693724901465149e-01 -1.421256566513670778e-02 -5.697124030546896201e-01 8.217212305781473880e-01
1.230407008020673217e-02 9.839300549708725196e-02 -6.475125428126158322e-01 -6.102794422986531631e-01 6.142504789537677201e-01 -5.002552862416468349e-01
-1.975735651611448124e-02 -2.194699794714287944e-01 -8.582846544920521570e-01 4.591033009161116785e-01 7.147106477118492229e-01 -5.276484143207849087e-01
4.404024651619679182e-02 -2.179730273227490356e-01 -8.407424300906789494e-01 -2.864445406382946091e-01 4.265652019517835458e-01 -8.578995591689917433e-01
1.436511520939394992e-01 -6.662926872676283585e-02 -7.441463815442399543e-01 -9.732670121029338706e-01 -1.945064574164055149e-01 1.221415620317161943e-01
-9.408528833642194888e-02 2.043522359475942116e-02 -7.329277493436052726e-01 3.757880548399668008e-01 3.194118728711061173e-01 -8.699191878034224779e-01
-1.079216641593575693e-01 -3.742563974970886109e-02 -8.232204420721125349e-01 7.190349269034419788e-02 -4.810007007069512786e-01 8.737666814764404322e-01
9.713685671301995617e-02 -8.835483714314690262e-02 -7.834662096975636425e-01 6.125463545450132719e-01 2.830660508186343960e-01 7.380112291879827868e-01
-2.397761005965847250e-02 1.245601930362552068e-01 -6.124834652607503704e-01 6.771181700430189965e-01 6.380913872245230767e-01 -3.665383545380712094e-01
-9.288620027173734306e-02 -6.338319401495372783e-03 -8.024949566371242238e-01 1.134340082048588272e-01 -9.424871294413023071e-01 3.144053698970071808e-01
1.058935743364887959e-02 -1.622981665963670883e-01 -7.910236878631966562e-01 -9.010525918212150542e-03 6.488228139404997874e-01 -7.608861718634455373e-01
9.734208362905114043e-02 -2.998053259084498476e-02 -7.697371288359650121e-01 -2.272729227468849589e-01 -5.259398724828554528e-01 8.195939660092709245e-01
-8.837839077466448298e-03 -1.122257694862304755e-01 -8.099952487312550575e-01 -6.064111653416467407e-01 -7.939364019091693647e-01 4.393732209076343237e-02
-1.982898378483949689e-02 8.349843195054845735e-02 -7.026130368767513623e-01 8.769508333828234248e-01 -2.628873486256269598e-01 4.023027190583722268e-01
1.257373706517770640e-01 -1.085524153718716613e-02 -7.250480490402297917e-01 -8.682293413622150791e-01 -4.665691951054593001e-01 -1.687927634005030042e-01
-7.332305827889916416e-02 5.739593062106097474e-03 -7.821919999512585431e-01 1.687016312456131872e-01 -9.533142371838039253e-01 2.504630208189044804e-01
-3.751192689149456666e-02 -2.262168705056168128e-02 -7.891792984711871739e-01 -4.151985328437769462e-01 -2.874453339237844629e-01 8.631253433481251847e-01
-8.796160535300157068e-02 4.953606483076210959e-02 -7.316324062873974521e-01 6.457012005109408204e-01 -6.434107982119853242e-01 -4.112085898944057849e-01
4.236290471161017340e-02 6.340971386769961304e-02 -7.027850353714276688e-01 -4.285452593924773401e-01 -9.034877782118624356e-01 7.667807641480630342e-03
-1.175683186052752793e-01 -2.435659766185441916e-02 -7.581694501430388256e-01 6.093131987929141236e-01 1.070033297434364178e-01 -7.856765958080742518e-01
-1.348353416817292538e-01 -5.192780374318640285e-02 -7.934758511014664562e-01 4.601511505875829355e-01 6.945454258610248566e-01 -5.530529540907009878e-01
-9.564812836072307534e-03 -8.570798435441630281e-02 -7.380770190347014648e-01 2.756231711580390265e-01 4.596289384783874832e-01 -8.442589095970600699e-01
7.402532931280068895e-02 -1.663278374346258441e-03 -6.993727707044592456e-01 7.164658727835297725e-02 3.662077456116891172e-01 -9.277707979804976635e-01
-4.043632788943395812e-02 -1.102303795444811163e-01 -7.730680730905651332e-01 4.545559792509939467e-01 4.768769506687411397e-01 -7.523079393759266598e-01
