-1.063538948596577105e-01 -1.733687783008098782e-01 -9.562070956663484278e-01 9.321450500264817363e-01 2.492597537772435756e-01 2.626312640529223641e-01
-1.467554679317291735e-02 -6.917251490298183259e-02 -9.431899269326653457e-01 -2.757415250818708863e-01 -7.459886620009220648e-01 6.061909992004156367e-01
-4.656238609440335741e-02 -7.466563063068483441e-02 -9.305604984494574294e-01 5.456800063902941256e-01 -7.381060305763490481e-01 3.967780465861412975e-01
-1.223186967290540439e-01 -5.754719265054763361e-02 -8.660419666061587307e-01 9.647341733439878109e-01 -1.141810028346502276e-01 -2.371722441053472352e-01
-7.283492350045552011e-02 -8.237003762735106704e-02 -9.195643286505572611e-01 -3.788768199583197327e-01 3.855875605458682354e-01 8.412934021199485191e-01
-9.007188890031074535e-02 -1.849481249987857123e-01 -9.813436480651395177e-01 -2.392613331636713747e-01 1.369524227892278956e-01 9.612481720892391834e-01
5.316837024435447367e-02 -1.696069117657088565e-01 -1.011520118383062439e+00 -5.342116387793455212e-01 7.152185635960900401e-01 -4.506443512130515194e-01
1.221751236795084669e-02 -1.816671257528446881e-01 -9.673110673434841544e-01 1.235943380398999147e-01 5.649994676204810329e-01 -8.157818588281134931e-01
-1.318687298297214518e-02 -2.599274990396532314e-01 -1.050850948686413266e+00 -1.555349840897950198e-01 6.913907929217711912e-01 -7.055406722416448506e-01
4.085721779519473074e-02 1.666460849518795473e-01 -7.741935801132872053e-01 -6.399699517673724802e-01 -5.624521187123296961e-01 5.235323055847446172e-01
1.475357965255168213e-02 -1.456159949906907780e-01 -9.389411885690404080e-01 -2.463447095287069760e-02 6.390989981545286414e-01 -7.687298702397027395e-01
-9.435361222189689312e-02 -8.328113915177338955e-02 -9.253352973336458343e-01 2.190262909069804476e-01 -2.567160743463743344e-01 9.413417769671746926e-01
2.632805991024290970e-02 -2.163441848538083800e-01 -1.088859047871286068e+00 -5.496873024796189444e-01 1.036517164014184311e-01 8.289150687372742743e-01
3.734866649947685135e-02 -1.015797197294256334e-02 -8.829065601193633039e-01 -6.268919714595424519e-01 3.838614290804861495e-01 -6.779799845009107928e-01
-8.989592045018959809e-02 -8.545698223433778606e-02 -9.254932843111142171e-01 -3.604521355062673127e-01 1.930660555149926738e-01 9.125786301556997326e-01
4.748978059620856396e-02 -5.462372761539743826e-02 -9.099013721188964343e-01 -6.701340429478451766e-01 6.064802927135242577e-02 -7.397581909163810643e-01
4.638128778925739576e-02 -1.342038589359501599e-01 -9.536173344406312369e-01 -3.929228650666843903e-01 7.698521771151665138e-01 -5.029306587381867644e-01
1.027841186656848482e-02 1.718201007202639907e-01 -7.350567767841281741e-01 9.640489467475460428e-01 -2.098367854937094323e-01 -1.630280703701490197e-01
-2.542998497618177700e-02 -1.106470417103215809e-01 -9.650297382315411454e-01 -2.627282857059166643e-01 4.594355268839229733e-01 8.484649931063286132e-01
3.552680450986252930e-02 -9.576556772140834561e-02 -9.224208471978150303e-01 -7.156168254995861622e-01 3.695093089564540079e-01 -5.927524185158747905e-01
2.619444000725701382e-02 2.151116385346240473e-02 -9.268894248355814547e-01 1.467004258654949211e-01 -9.021559086021671003e-01 4.057014932497544635e-01
-4.107763730869874730e-02 -2.357169770473034887e-01 -1.004862600050376642e+00 -3.098532278534984474e-01 8.524039801852654197e-01 -4.211869320777719694e-01
1.015270471577954352e-02 8.215571798146827087e-02 -8.125684521975333752e-01 1.857789206717563521e-02 6.744999323179375894e-01 -7.380411257033298034e-01
-1.875690735742930075e-03 -1.742389167993929622e-01 -1.019895874718117712e+00 8.824507994436664449e-01 -4.582264982398042696e-01 -1.063440777482254351e-01
1.566884751769211104e-02 -2.290702580468162997e-01 -1.033867972088116316e+00 -7.410474206734724012e-01 5.795514888466920533e-01 -3.390704824793456251e-01
7.244815799502979381e-02 -1.104672923943674917e-01 -1.041797152329126730e+00 4.347628313033107261e-01 -5.155555817519416051e-01 7.383655752007581841e-01
2.328225240293289172e-02 -1.148784987379587036e-01 -9.972178410964093187e-01 -9.723755219571589281e-02 -9.263189162638905128e-01 3.639754439720861434e-01
3.285934563271785541e-02 -1.927117206530322702e-01 -1.004114296458632483e+00 -6.462708652529539632e-01 5.828306015449948863e-01 -4.925875136743701477e-01
1.133172970123658835e-02 5.656859978887197188e-02 -9.013717452557699072e-01 5.005872109422407346e-02 -6.290207723764125181e-01 7.757750913514770419e-01
4.318666710053425430e-03 1.553185951511892315e-01 -7.523744892461532441e-01 9.533188214843720809e-01 1.362841832154101235e-02 -3.016579036221344046e-01
-5.196624043024346273e-02 -1.195020891126837431e-01 -9.611904607796161182e-01 4.150653196248045296e-01 -4.899495863036554821e-01 7.665964931602780030e-01
-6.622727688475797680e-02 -9.635370923087710482e-02 -8.811785491479551258e-01 -2.284081504522866568e-01 4.571656627295840325e-01 -8.595517864724532275e-01
-5.369645291839210410e-02 -5.028715165921837649e-02 -9.219895260346812060e-01 1.445458752326833352e-01 -2.676627544352401800e-01 9.526085974005054080e-01
1.608894706317159093e-03 -1.271624205056920975e-01 -9.901813535725780824e-01 9.784852322064304664e-01 -2.038722910369661634e-01 -3.166605913697317226e-02
-5.259376214543508288e-02 -2.405666543026693804e-01 -1.017810934617348284e+00 5.027581369993370242e-01 8.601601841159282058e-01 8.578294319157213355e-02
1.179383346559358635e-02 1.268531602342675424e-01 -8.373195551536185555e-01 6.157996356142892563e-02 -7.423154649079116707e-01 6.672148519377577580e-01
-4.142001392943139154e-02 5.421598841382260087e-02 -8.514557727721505653e-01 6.178879282716051025e-01 -7.849761371358782158e-01 -4.502190826096490878e-02
8.238888838868020648e-02 -7.335531949845301714e-02 -9.483218052787807384e-01 -6.329185870084430565e-01 4.149461038220884079e-01 -6.536312363574009465e-01
-2.450646037947645448e-02 -2.198977747907662206e-01 -1.072951163748839365e+00 -7.317631805670553602e-01 -3.703832480977570785e-01 5.721353835369236140e-01
2.676670996441984224e-02 -1.455390262778487598e-01 -9.453498875298407267e-01 -7.575481170289752875e-01 4.508992562359899758e-01 -4.720282948210678398e-01
-3.929564426305540148e-02 -1.058694727603141580e-02 -8.479142890604908223e-01 -3.128305791662840396e-01 3.014125794548278003e-01 -9.007149858223049144e-01
2.342907102644744416e-02 7.394264539084892396e-02 -8.854476520512618576e-01 4.110114273841687371e-01 -8.368148946079729811e-01 3.616772576785486359e-01
8.630697403837182813e-02 -5.425882060557394443e-02 -1.014827043827027708e+00 7.588896551729661377e-01 3.149830250761657680e-01 5.699756005175345974e-01
3.934890330032141115e-02 -1.802809738298159770e-01 -1.006699895243217791e+00 -6.921879869232429039e-01 5.315835750526155534e-01 -4.881543746535812467e-01
4.284981760800513940e-03 -1.220505906628951559e-01 -9.212174360643637927e-01 -2.069748179957209833e-01 5.288497660033306680e-01 -8.230913374066458621e-01
-2.127742379352888860e-02 -1.776657142899276676e-01 -1.026294816486969852e+00 4.976776539456107540e-01 -8.545848252500787279e-01 -1.483297988115851174e-01
2.863135206325926468e-02 -1.662041331701409885e-01 -1.062692630636029367e+00 3.054571467979948496e-01 -6.245356927505598676e-01 7.187844600091232161e-01
9.766424809696390430e-02 -2.592179613930365757e-03 -9.907014037821380015e-01 -3.649907989689902821e-01 -8.517616340259515084e-01 3.758774208028720643e-01
-5.740186459557351101e-02 -1.484884284591315717e-01 -9.194094082236312637e-01 -2.841620076515208870e-01 5.959881373748697753e-01 -7.510326847187746013e-01
-1.114777074778883909e-01 -1.573362638765911370e-01 -9.273566905027715856e-01 9.723996117104291015e-01 1.177210744214214344e-01 -2.014466276274509138e-01
1.746976519445245625e-03 6.041236543678134979e-02 -9.030272381056132502e-01 -3.033729349304352119e-01 -4.871619947137606488e-01 8.189249374992827457e-01
8.757519948119384112e-02 6.017252056752388917e-02 -9.140506421943501714e-01 -5.655674022532071188e-01 -8.246315049681245402e-01 1.078862931816707352e-02
2.876115675219712117e-04 1.296676687198135836e-01 -8.287805455351182626e-01 4.327603832403796869e-01 -6.723929144840786742e-01 6.005049702119428234e-01
4.326733306928159245e-02 -5.892275521515944608e-02 -9.062083796737633312e-01 -6.052389126848518597e-01 1.909595289323048548e-02 -7.958148045589237274e-01
7.677826487823431745e-02 -1.043055536844776920e-01 -1.039852897762148842e+00 3.683851675704098994e-01 -5.193691075476409846e-01 7.710694511127309525e-01
-2.943315314215540213e-02 -1.795016808317431989e-01 -9.552518794657259837e-01 -3.813957582348363462e-01 7.678041997225031334e-01 -5.147950917490965450e-01
-1.256294071912232302e-01 -7.443224568744137570e-02 -8.695980368388760429e-01 9.745970902147481629e-01 -1.153195794333236185e-01 -1.919945476941135043e-01
5.083797726967181040e-03 -1.315584680916547511e-01 -1.008112290207411776e+00 5.523937042337501158e-01 -6.801466368505443283e-01 4.819354188102489278e-01
7.968630297980516808e-02 -1.041201384989246109e-01 -9.735433581858377039e-01 -6.197758364745110660e-01 4.918757381152555341e-01 -6.115032058590476050e-01
6.904912969368640074e-02 -1.186302865256176342e-01 -9.736063148720076610e-01 -6.542786204814227125e-01 4.377520463014626384e-01 -6.166787111128518850e-01
-9.161152378390748086e-02 -1.165518454364129070e-01 -9.358054394985610980e-01 6.447081716252320849e-01 -6.818617498968669866e-01 3.455660971033364670e-01
1.243420709815244371e-02 -1.784813890964817573e-01 -1.045682245974678626e+00 -1.942775314817273558e-01 -8.408561958264111347e-01 5.051901609312109409e-01
1.133454613902158820e-01 -7.411116233599925572e-04 -9.388782795304996265e-01 -7.837484914936453384e-01 -3.556184500457792302e-02 -6.200593981719058068e-01
7.529228479717821332e-02 6.426656389831476857e-02 -9.224652965858908260e-01 -1.410309143190002779e-01 -8.988133713221843069e-01 4.150238604451512159e-01
-4.781077158862787058e-02 -1.178678882443189718e-01 -8.996184076744885294e-01 -3.424263858701246388e-01 6.053021875816824160e-01 -7.185773667245262120e-01
-5.221839431990753927e-02 3.789982111066023812e-02 -8.737385856406464368e-01 4.718578935148589060e-01 -6.756822927048560246e-01 5.663952397865196220e-01
-1.682528755275972815e-02 -1.561318316322829747e-01 -9.320950967857287717e-01 -4.105614511361343477e-01 7.135929945182999390e-01 -5.676480714451493936e-01
1.063391680012561735e-01 9.058640971521187898e-03 -9.829028290965039494e-01 7.835029700982286405e-02 -2.827061380168643390e-01 9.560012920943478099e-01
2.837768009568707867e-02 -2.318732955648097060e-01 -1.082114773503836114e+00 -7.771759589885591790e-01 4.673195397197096312e-01 4.214379866200625435e-01
-3.030630207708396792e-02 -1.851003347190969262e-01 -1.040926663842516309e+00 8.608679308073985403e-02 -7.337470334768464442e-01 6.739468487358643012e-01
1.000196912740244914e-01 -3.800665458930430757e-02 -9.502648481605545649e-01 -6.166552318865408111e-01 4.411345058398085106e-01 -6.520250553041843089e-01
-2.896545218564249013e-02 -1.515378604959131126e-01 -9.285593411596543278e-01 1.273771355925656934e-01 1.367899267191133306e-01 -9.823764967039944063e-01
-3.397970373603931282e-02 6.301841027885577177e-04 -9.061880298781261889e-01 4.336017822271223121e-01 -4.361712758933370959e-01 7.885075221803793388e-01
-1.639545585133130728e-02 -2.470096149613094372e-01 -1.078839077167563554e+00 -5.673267768630923386e-02 -7.405300605622607835e-01 6.696242473852003219e-01
-1.919994221539524093e-02 7.519132023493409200e-02 -8.577981108831472801e-01 9.603902469624664429e-01 4.647074258548172798e-02 -2.747563350005357008e-01
-1.064367848056180094e-01 -8.412797835239825550e-02 -9.199325725951721378e-01 5.371149928327950684e-01 -3.610482292364766144e-01 7.623330378774301197e-01
6.483991216892914800e-02 6.311974336495042304e-02 -9.259071091193439296e-01 6.065334889526118739e-02 -8.454418924887954212e-01 5.306120783517408457e-01
8.535951979445030591e-02 5.538606270072875953e-02 -9.361585082278039982e-01 -2.109814748615936597e-01 -8.818881510032913207e-01 4.216160651412882987e-01
2.516189530003263772e-02 8.920123409777724888e-02 -8.568805925186059325e-01 -7.824529346634373494e-01 -2.323809361966138187e-01 5.777252855198221626e-01
-3.380165069991385163e-02 -1.105563606941110943e-01 -9.646504594478133576e-01 3.317316211597503006e-01 -4.226399259944577658e-01 8.434035952485164911e-01
5.827863764692555598e-02 6.520314382634137193e-03 -9.665941141166791706e-01 5.942900292965668241e-01 -4.883928242018208965e-01 6.389771594876105798e-01
4.220127353214183502e-02 -7.087284353517048219e-02 -9.889223364724468723e-01 4.790354703670691716e-01 -4.867913313811594311e-01 7.304513795060963988e-01
3.555420981187500107e-02 -1.876407201700962951e-02 -9.585786141207404132e-01 6.763783366699279709e-01 -1.801321009286404040e-01 7.141881908143370428e-01
5.257915573823174031e-03 -1.184082069713630614e-01 -9.191683778934852667e-01 -2.587151068579178759e-01 5.243888490294299487e-01 -8.112230448508510605e-01
-5.058849108969890214e-03 -2.746598734862819580e-01 -1.068904415874559977e+00 -3.371235271343536732e-01 7.124851295278080698e-01 -6.153963500494907812e-01
4.652814411407101697e-02 1.393119313279430060e-01 -7.780269903193139935e-01 -9.827223270890763640e-01 1.513304386303157834e-01 1.065641880961269022e-01
2.554344082128656018e-02 -2.137913770048189555e-01 -1.089285770867138847e+00 -5.250723151360877639e-01 -8.238265917385283188e-02 8.470608958894713103e-01
7.616464267285186218e-02 -1.346191920608597326e-01 -9.917973283260587136e-01 -8.331456098919424180e-01 2.234967341537312524e-01 -5.058829929345319831e-01
1.980073190753377926e-02 1.701866828840296886e-01 -7.110844562160790749e-01 7.999920780110743035e-01 2.707771493514556371e-01 -5.354366540578099354e-01
4.007727750342312406e-02 4.952370068681381798e-02 -8.677588266660640759e-01 -6.392316822460215597e-01 1.989611069747878047e-01 -7.428306229042315190e-01
3.340013783476497577e-02 1.410751530831046152e-01 -8.087619337890656901e-01 -7.213744672713185979e-01 -4.551364688722925878e-01 5.219862763248492854e-01
4.759465378405743421e-03 -1.963481675296415707e-01 -1.081452440290335826e+00 3.350626908136380977e-01 -6.288972343851775282e-01 7.015848215343599703e-01
1.686192136966612951e-02 -1.314288794094069235e-01 -1.017642516870079783e+00 4.006109657624596365e-01 -7.257580060017165824e-01 5.592728947797149797e-01
-3.062237890578912297e-02 -8.770688494078801578e-02 -9.522113823959403867e-01 3.644362479015193501e-01 -4.746730294665100214e-01 8.011689811223023927e-01
-4.003312859956952019e-02 -7.951236978141230927e-02 -8.805569169176462596e-01 -2.490315206513013802e-01 3.705387611011868310e-01 -8.948096603433033369e-01
1.070169512821137342e-01 -2.405496923231970757e-02 -9.452441329117958757e-01 -4.870677417352359817e-01 6.299824489789358495e-01 -6.048860462429600515e-01
1.001705498008362283e-01 -5.770616949707882415e-02 -1.023379440458683121e+00 1.289683772790354011e-01 -4.388594101004152925e-01 8.892522565775855536e-01
9.377161269327376550e-03 1.479211288962251902e-01 -8.095605847948088574e-01 2.642273798282695485e-01 -7.878052442914079689e-01 5.563692917622635736e-01
-2.773874915841653341e-02 -2.543628124879230845e-01 -1.042852714748384368e+00 -6.025802035522264538e-02 7.032449687042506836e-01 -7.083893597274222298e-01
1.017609638456969945e-01 2.006211618693964915e-02 -9.772517658533833584e-01 -1.335464208107997597e-01 -6.082570960747391009e-01 7.824248580939582309e-01
-6.728014517992320087e-02 -6.745082307507467567e-02 -8.624856091151770210e-01 -4.231612838143180011e-01 5.570597956601345269e-01 -7.145760364997607583e-01
2.980338291530157738e-02 -2.022722861165823227e-01 -1.081679965060377890e+00 -5.546352893863311095e-01 -6.504812701322383317e-01 5.188967266947159818e-01
6.790036153263555307e-02 2.541462422089686007e-02 -8.943683484798218286e-01 -5.725114532698110104e-01 2.543414110968544306e-01 -7.794492173811903291e-01
3.417439219440960435e-02 -1.179812521077124310e-01 -1.001461559671313006e+00 -1.807223083552629561e-01 -9.493112379089786446e-01 2.571917977744779815e-01
1.757380833255367883e-02 1.524503418666073862e-01 -7.281573327398097595e-01 5.655510475076794830e-01 5.868184483472294044e-01 -5.794791811120713065e-01
-8.018445565511135575e-02 -1.992209681480958949e-01 -9.998182834924986828e-01 9.059600609187488107e-01 2.389895969615370153e-02 4.226880738151225780e-01
1.307009949025742489e-02 4.063019285360066485e-02 -9.141280072552380176e-01 3.194744723271836784e-01 -3.229407665875024813e-01 8.908677358660735957e-01
-2.460539954856312897e-02 -1.377024161141958691e-01 -9.229162278194030788e-01 -2.248194013316783813e-01 5.043838100438564620e-01 -8.336985120236863889e-01
-1.057433688273183049e-02 -3.880588025584142536e-02 -9.314336157222006252e-01 9.717714309897238500e-01 2.358487361930827197e-01 -5.971561630789136432e-03
-8.929024518598041582e-02 -1.794844186870422909e-02 -8.845470029027774350e-01 -1.761493544247192122e-01 2.454392859523508996e-01 9.532738126304293180e-01
4.438427547923325112e-02 -2.115860320726113131e-01 -1.070574265010151294e+00 -6.683693228789345797e-01 1.831356640911317724e-01 7.209325743592492897e-01
-9.309248130137488461e-03 -9.189844236079625084e-02 -8.961447036655917353e-01 -3.454246315054232963e-01 6.043973384558609663e-01 -7.179036712657305142e-01
6.548267972999809172e-02 -1.869366451308848986e-01 -1.058915341563042789e+00 -8.321120032573072756e-01 5.117525030103199368e-01 2.137732202540434112e-01
1.744874883424623810e-02 -2.281624220231169842e-01 -1.092345046816528775e+00 -4.222561638525052508e-01 6.766308823510704118e-02 9.039476968160572445e-01
5.457058628241582415e-02 -9.705772874204089684e-02 -9.436200753438152011e-01 -6.444213787485481015e-01 4.564248093797269590e-01 -6.135124122578942130e-01
-1.905793819229871511e-02 4.315873720165009503e-02 -8.386732970642875040e-01 -1.814718782427299781e-01 3.158999143990140479e-01 -9.312761145276687857e-01
1.258672330295818736e-02 -9.723012437234472560e-02 -9.792096658379569885e-01 7.803920196283204991e-01 -1.034853078974093399e-01 6.166677279944275947e-01
-1.432693701984751001e-03 -1.374108617563448431e-01 -9.963024146364121147e-01 8.448964419774380730e-01 -4.542121695433092299e-01 2.825620416344447605e-01
8.574995754559134112e-03 -2.387971233708673091e-01 -1.095388743440369073e+00 -3.594846026241870773e-01 5.152590702366551673e-02 9.317273750306573898e-01
5.527612313348270745e-02 1.604531188937761976e-01 -7.423690472001180929e-01 -9.703830768100371040e-01 2.137947207868153288e-01 1.124655574136959602e-01
-6.173927860448744087e-02 -1.075723651991382090e-01 -9.479636915627921434e-01 4.086228340768031653e-01 -5.139550529600914741e-01 7.542397384173225028e-01
-3.633574448029113901e-03 -1.755055089425752723e-01 -1.040695912277249224e+00 8.594040341791454596e-01 -5.045355368640246363e-01 8.287700572499298590e-02
-4.299180057959958029e-02 -1.994466038591777568e-01 -1.048946156448871347e+00 5.340962453877555749e-01 -7.027058824958192229e-01 4.700485542669757821e-01
6.343297673762984812e-02 2.894486029558936135e-02 -8.901115269867899693e-01 -5.794892277606714659e-01 2.370448691176491041e-01 -7.797448075712574145e-01
-1.934265889478235540e-03 -2.849459045725544759e-01 -1.082294733924548780e+00 -6.384779642281072087e-01 6.148757183043300767e-01 -4.628971162524844751e-01
7.789105425655108716e-02 2.125037808065852185e-02 -9.033867802051642748e-01 -5.949507030064498103e-01 2.637973450364453076e-01 -7.592395022282848460e-01
3.558688546499538807e-02 1.359449396754991435e-01 -7.418875626628035347e-01 -1.370500789385854512e-01 8.606449484153845253e-01 -4.904156896246364417e-01
2.433122301903590731e-02 -2.207011116989223143e-01 -1.036590044176681991e+00 -6.488612938981760392e-01 6.447138859976391245e-01 -4.041324368107663823e-01
3.221312237368337272e-02 -1.081631765099416442e-01 -9.253832861362473183e-01 -8.309349872209927934e-01 3.254270339220148855e-01 -4.512696451178254686e-01
3.306465694817520978e-02 1.041949508861009371e-01 -8.318406332585536189e-01 -9.739321043080367835e-01 3.847192593699044760e-02 2.235534994421197186e-01
1.335804227617264127e-03 2.508602310470682550e-02 -9.206946125864705621e-01 -3.551834897453377549e-01 -3.080698282664701693e-01 8.825744555130695668e-01
1.218152869415526363e-01 -5.121321022412532453e-02 -9.878543110682874717e-01 -7.825123881867862563e-01 3.172790067514723034e-01 -5.357316438376694689e-01
8.492846028808243020e-02 -1.005954372585540907e-01 -9.758398440645559280e-01 -5.979878344619342645e-01 5.093088947055208759e-01 -6.188820562993947449e-01
1.206517424923870957e-01 2.160024818795921314e-02 -9.442606074140821315e-01 -9.244639237663870857e-01 -2.841379271667672790e-01 -2.542284248462957641e-01
7.643817414336563990e-04 9.596017983605899249e-02 -8.726268457979968751e-01 1.339954841313547862e-01 -7.833737369715888521e-01 6.069355801529284777e-01
-5.123083670962813585e-02 -7.781914604305194272e-02 -9.259747013973660401e-01 5.777275720738753728e-01 -7.965926607490041444e-01 -1.779634381170665247e-01
-4.720058469035651183e-02 -2.378007929006129006e-01 -1.068762646506924430e+00 8.155292071915842822e-01 9.197667275643141294e-02 5.713601350165430359e-01
-1.163932462057728212e-01 -3.599718451230238259e-02 -8.592477885135512139e-01 9.341662569951025841e-01 -2.451952086437209355e-01 -2.592541493398361485e-01
4.751538016272372628e-02 -1.599447216932571858e-01 -1.063326461818973723e+00 2.115924542072122327e-01 -5.597789022331258746e-01 8.011717755495668669e-01
-5.944766392873380295e-02 -8.453398335209783010e-02 -9.206247046022575375e-01 6.056761719351325679e-01 -7.151852929799600300e-01 3.488070691014913960e-01
-6.643639261742172175e-02 3.663691699176500199e-02 -8.500178350733641475e-01 5.938034575829380657e-01 -8.025586625242643324e-01 -5.741991788405829966e-02
3.359161007056042647e-02 -2.294127925544421076e-01 -1.069157279828362839e+00 -7.296231546276368274e-01 6.713010885888266444e-01 -1.304028400406661570e-01
-4.362737885111216823e-02 -3.353901736080483736e-04 -8.992304085253685075e-01 6.245369454564181355e-01 -6.981661075247684867e-01 3.500252706072529141e-01
-2.864905849028897070e-02 -2.641337949120897144e-01 -1.084901707699612583e+00 8.041649777040229541e-01 4.242722845778996721e-01 4.163072389153687491e-01
4.835688856392782869e-02 5.993289987384394640e-02 -8.724374898070208495e-01 -6.515707970208970412e-01 8.769569433990297147e-02 -7.535017993766143229e-01
3.068605492626143641e-02 6.550505853525757753e-03 -8.665190939471555387e-01 -7.918236027646538000e-01 2.061762455370401426e-01 -5.748971541772092131e-01
7.383533742070877426e-02 -4.476496369469318282e-02 -9.994304850080706348e-01 7.833723565415920964e-01 4.814351750019867371e-01 3.931258364408005135e-01
-9.032252343542164497e-02 -1.907609558846830866e-01 -9.800556997893834499e-01 -2.068687942880318570e-02 2.937077140335671022e-01 9.556714036407466528e-01
2.042567001191663775e-02 2.558966853446376088e-02 -8.497642363994376558e-01 -5.646938023645329263e-01 2.296296716481956157e-01 -7.927112484819599514e-01
-3.436878822649751947e-02 -1.369708894006115840e-01 -9.829594594201931379e-01 5.285668836837849049e-01 -7.096489647327500760e-01 4.658491132615242281e-01
7.871333623423369674e-03 -2.136389697751816044e-02 -9.328584738431282553e-01 -3.765392440222891102e-01 -3.484536492373019878e-01 8.583695311719368171e-01
5.771705600001760667e-02 1.898246927319966471e-01 -7.207085899693883579e-01 -8.593922891136980269e-01 -4.983459838581639212e-01 1.144385153012593970e-01
-6.322101862874229816e-02 -2.397148419163260945e-03 -8.843836083805611814e-01 -1.443057591508074555e-01 2.948110917942995401e-01 9.445963519043265588e-01
-1.090848652466377827e-01 -9.485506975024045329e-02 -8.708032654299679987e-01 -2.064568313834205804e-01 7.357480786785042248e-01 -6.450196442714031253e-01
9.683342254740964772e-02 -4.015261899982110888e-02 -9.486823935063662949e-01 -6.331711777053051771e-01 4.244441919183059575e-01 -6.472568173994720508e-01
-3.094957585462587701e-02 -1.461537976551520734e-01 -9.988281811485747452e-01 4.348016649400950340e-01 -7.167385932103191859e-01 5.451910684963702236e-01
-7.144935430314530711e-02 -1.831665855960493416e-01 -9.441630279323547370e-01 -5.614991171939992531e-02 6.015514561711365893e-01 -7.968582264068614363e-01
-2.464893638524201167e-02 -2.717113887623073820e-01 -1.083133308659371297e+00 8.148550910998496599e-01 5.524590542236405000e-01 1.754997832334172780e-01
9.866861443137625587e-02 5.112998708923777863e-02 -9.274859220502825741e-01 -6.365348960224016528e-01 -7.650870924488282210e-01 9.728857648228093902e-02
6.781629094439666980e-03 -2.254330184689805339e-01 -1.015116853271552433e+00 -2.072000269664168448e-01 7.296430882341664592e-01 -6.516817571615957094e-01
-6.271491940994343558e-04 -1.519897382587665491e-01 -1.011834279602516595e+00 9.493313910029584912e-01 2.976678651175249102e-01 1.008154359845888220e-01
2.993664620740145443e-02 -2.260492505645281536e-01 -1.084105980221880650e+00 -6.585744541182427803e-01 2.855738472185355148e-01 6.962235748433568405e-01
-4.839850111488697149e-02 -6.337576946459499982e-02 -8.689664263742732375e-01 -3.678644701862045507e-01 4.710327299463189510e-01 -8.017505216050323513e-01
6.756656015424931938e-02 -9.896982092623218819e-02 -9.581072297787762704e-01 -6.093006054712593045e-01 4.566626144392719189e-01 -6.482376329293492168e-01
1.036510813478157822e-01 -5.855503685154786475e-02 -1.024100906212142226e+00 2.441890676531680363e-02 -4.408747881710546879e-01 8.972363892238848226e-01
8.945447286352489757e-02 -4.217794988491293390e-02 -9.428914047237141327e-01 -6.072404900372526670e-01 3.968057651341602710e-01 -6.883343460961476312e-01
-6.056836663046744063e-02 -2.230995274226813818e-01 -1.030550603165441448e+00 5.160442223386554339e-01 2.492820443781753326e-01 8.194857063680426323e-01
-5.280594840428889936e-02 -5.759339963386395783e-02 -9.234579054193692293e-01 -9.684024063110009684e-02 1.064068462782847696e-01 9.895956501822450457e-01
-5.947412838457538653e-02 -8.478457077635932759e-02 -9.234568928739576021e-01 5.186878874688436447e-01 -8.534088955649392627e-01 -5.153767906821727501e-02
-6.539702055862706143e-02 -2.026557349027877375e-01 -9.662279931743115169e-01 -2.686407270529523328e-01 8.581882765570560956e-01 -4.374300421192983679e-01
7.130619880445455971e-02 -1.087959230692671919e-01 -1.039965026087522615e+00 4.278186128679822287e-01 -5.177351794166497045e-01 7.408923798218777224e-01
4.888385339226283127e-02 1.462575358969907258e-01 -7.688798156120947302e-01 -9.761831593162703102e-01 1.250048700590555562e-01 1.773139078832336735e-01
6.794753245716961265e-02 -8.771366066653821236e-02 -1.020888663991296630e+00 5.025686539361607919e-01 -5.576341977806781314e-01 6.606578914584274598e-01
4.926575494069668215e-02 -1.198181995692188251e-01 -9.526866516760192916e-01 -7.281852643893382826e-01 1.751646392203349001e-01 -6.626187213571916867e-01
3.598097041468711205e-02 -1.129122296661793368e-01 -9.934255601506777333e-01 5.090288639103963675e-01 -2.163482975926016016e-01 8.331164563462147843e-01
-9.971096457437832877e-03 1.267686877931976652e-01 -8.084712295600299248e-01 9.586705094259284632e-01 -2.828957205211617976e-01 -3.034576853275318051e-02
8.296381328227918350e-02 5.995754282518005879e-02 -9.278245930709883016e-01 -2.097430862149549380e-01 -8.774801728390565492e-01 4.313193527531142268e-01
2.864296753128274184e-02 7.781736397180961939e-02 -8.329349464790255508e-01 -8.876552395401358098e-01 3.072901123578826721e-01 -3.429882834209121989e-01
2.829897932026088220e-02 1.438902005516120575e-01 -8.119052591423745469e-01 -5.423175467988912146e-01 -6.038740887862769080e-01 5.841470391319093514e-01
3.408481315720700289e-02 1.242271801048159055e-02 -9.412834037571983226e-01 4.291927066930340540e-01 -5.484750661872460631e-01 7.176132121779836837e-01
4.560019080056516155e-02 1.435959157710770817e-01 -7.369527360459657839e-01 -6.918732319467145730e-01 6.949927090539653740e-01 -1.956950824048417081e-01
2.359406025691141925e-02 -2.078905701690202668e-01 -1.015006696188784474e+00 -6.310453781317039157e-01 6.424755488129768599e-01 -4.347492379706710541e-01
3.993230234005876178e-02 1.340705838110630432e-01 -8.019805007000466723e-01 -8.895339303656568664e-01 -2.275414718300410033e-01 3.961745389669124595e-01
-3.863032813587920916e-02 5.081463118679413471e-02 -8.693140530753314943e-01 5.234703532327632525e-01 -7.137725434618087395e-01 4.653037131663861903e-01
6.757831432565594709e-02 3.022112368863355200e-02 -8.926699839440633832e-01 -5.483313786023723546e-01 2.444656350383055676e-01 -7.997307375144085961e-01
-5.772544795286699282e-02 -5.469010541883981280e-02 -9.228195608592708599e-01 1.060035951601398518e-01 -3.151976847133133308e-01 9.430873010302345261e-01
-5.241244085683174903e-03 -1.187843796480953368e-01 -9.164668565031293124e-01 -2.571430434870451420e-01 5.120516484236207200e-01 -8.195612024326631717e-01
-1.229653940697162384e-01 -5.963720654446411085e-02 -8.679500216891752329e-01 9.771030787517935856e-01 -1.610033796389949423e-01 -1.390952380154969470e-01
-2.926431902788811934e-02 -9.261393603191626911e-02 -8.864646776709202980e-01 -2.483317715914808155e-01 4.240558618321190743e-01 -8.709236230945028856e-01
-8.311438989014124923e-02 -3.673409523307689245e-02 -8.426718516148183902e-01 -2.691961430392812993e-01 3.577079005202072337e-01 -8.941915312046970765e-01
1.076156563893888446e-01 -1.168077443589377734e-01 -1.022936203553398204e+00 -7.634049428909011059e-01 5.662993752420855120e-01 -3.106733184072357767e-01
3.492965838970061437e-02 -1.264028262825167559e-01 -1.021410467631112873e+00 1.957356542611478623e-01 -8.371435714735956379e-01 5.107623658722257876e-01
6.480474558698740006e-02 -6.774782122833306053e-02 -1.001952484043843628e+00 4.870122485061066375e-01 -5.776150005571091262e-01 6.551182953760620320e-01
-1.052666179599828916e-01 -4.078896802112182834e-02 -8.832882505976982213e-01 1.332298396676151984e-02 2.145574488108990818e-01 9.766204990977713774e-01
2.365528935782582054e-02 -1.139778615304099102e-01 -9.943486633763418681e-01 -1.271307207533124983e-01 -9.512606066335943522e-01 2.809644783737431095e-01
5.779527665247840423e-02 1.733762419552196676e-01 -7.361880698598057826e-01 -9.634228552778166810e-01 -4.346109248170430817e-02 2.644381503653285281e-01
1.776177213625208459e-02 6.878657584312368456e-02 -8.889485463280037969e-01 3.780306371416097266e-01 -7.562026314930380133e-01 5.340883985870815698e-01
3.409814551457939630e-02 7.487353417343230177e-02 -8.911444803453064667e-01 1.067279640417469894e-01 -9.167259732869104116e-01 3.849969241340382986e-01
-2.054235257186990543e-02 9.738774030840176288e-03 -9.095908312974541055e-01 9.885621063142672194e-01 4.424168637199969722e-02 1.441791772291030893e-01
8.695607265335750236e-02 5.707313763054849137e-02 -9.042122396544879370e-01 -6.598931633730280577e-01 -5.709897144155747784e-01 -4.883766568593942980e-01
5.979088525744891136e-02 -8.394646226365830299e-02 -1.011061423091206501e+00 5.849907785288086526e-01 -4.863570184231869598e-01 6.490320790737281742e-01
1.045845607328445004e-01 -1.147930945338518222e-01 -1.014479211947322934e+00 -6.853112064953367222e-01 5.727076570471513195e-01 -4.498382929581122847e-01
-7.532406050648392335e-04 7.686458236240620301e-02 -8.197513045260883535e-01 3.599174492225772903e-01 5.664214309258330804e-01 -7.413677847958092260e-01
6.275627358978970449e-02 -7.300746637593007182e-02 -9.313354712980869143e-01 -4.090828468600938850e-01 7.576479975080594453e-01 -5.085476735536883508e-01
-9.183086357448219661e-02 -1.250891537889971261e-01 -9.442551979625286585e-01 4.549625102456402170e-01 -5.730160179655594543e-01 6.816610282434221180e-01
5.348345038184035977e-02 1.948954152753662461e-01 -7.205117982358679729e-01 -6.208621656119633903e-01 -7.751064420840217961e-01 1.172184915082600809e-01
8.603722426552935787e-02 -1.148626438213096873e-01 -9.891387123489998601e-01 -6.477250226974022862e-01 5.072037644822295910e-01 -5.685038577412685479e-01
1.674426920283377668e-02 1.854930718009538959e-01 -7.331316300932830821e-01 7.547054900013894230e-01 -6.443771012187389235e-01 1.232792552974661393e-01
7.067243565433593139e-03 -9.048687730245640048e-02 -9.668977326998446920e-01 9.672554370668443591e-01 1.042168655687970708e-01 2.314211839820264349e-01
-6.960091007021597387e-02 2.815425769883002707e-02 -8.688692118248003693e-01 5.702265442415725971e-01 -6.611295927537559347e-01 4.875954776529072277e-01
-5.262984070749543442e-02 -2.084361195622279062e-01 -1.046526074419220409e+00 8.127780171146590238e-01 -5.819497059300359210e-01 2.695245189416894949e-02
9.494049097521362057e-02 -4.742344225996245055e-02 -1.017582778521726850e+00 2.034447353067643516e-01 -4.039655560835880288e-01 8.918643782403455900e-01
-1.176402533625665880e-02 1.077511920017751035e-01 -8.446454767997622071e-01 6.773810051868850435e-01 -6.161207663151627711e-01 4.019330480654977333e-01
9.072164611642574705e-02 -1.382263236674914630e-01 -1.017760562146919234e+00 -7.854771842165235718e-01 4.159160238113453478e-01 -4.583006155486178401e-01
4.479829040890297848e-02 -1.710480240065582469e-01 -1.002664148752157480e+00 -6.186270492998016124e-01 6.454281922174320840e-01 -4.480212300388884961e-01
-5.518957851415920955e-03 -2.559837207305784568e-01 -1.097763370290306240e+00 -2.897467074516806018e-02 2.969793593639936946e-02 9.991388797641330699e-01
-5.046078590712024803e-02 -1.085276163624466633e-01 -8.890772733858550714e-01 -2.504343898486184883e-01 4.827658138970569723e-01 -8.391780414867053839e-01
2.018711477661094128e-02 4.749557059435809137e-02 -8.423274809775427308e-01 -6.365954772848471110e-01 3.741078698946696535e-01 -6.743808271172532232e-01
-1.071513853732362909e-01 -8.139828507366783650e-02 -8.583539898227093845e-01 4.219555525740011775e-02 5.164207826516864497e-01 -8.552947505754607826e-01
4.617310773751616415e-02 6.245514602175747387e-02 -8.702795236239887489e-01 -6.977987251424991877e-01 7.027919374727736868e-02 -7.128378315688187472e-01
-3.870267379276199488e-02 -1.049568476341733309e-01 -8.918483859939561054e-01 -4.422054447680184852e-01 6.966265849261054077e-01 -5.649475602139639729e-01
2.826719450072038772e-02 -1.548484382017873418e-01 -9.581212173864485093e-01 -8.074251303671265978e-01 4.325936485244920027e-01 -4.011575676812003666e-01
-6.748494825314084455e-02 -7.860978619274928969e-02 -8.702953215179505264e-01 -3.407526794279834848e-01 5.314857963421432130e-01 -7.755065826601397205e-01
2.514058775271999988e-02 -1.891082865932353085e-01 -1.068052282042467382e+00 4.838285143675875033e-01 -6.679553009608774072e-01 5.654605950931658187e-01
1.495049589647153530e-02 -6.950622312936345637e-02 -9.678925241343273589e-01 5.716919737694109438e-01 -4.625855809279061370e-01 6.776303324418313512e-01
-2.253171144469648390e-02 -1.117478927555626278e-01 -9.059494155103610113e-01 -3.092915813936968905e-01 5.581237227163081682e-01 -7.699588481342858337e-01
-9.542393454720209112e-03 -8.345323885676907139e-02 -9.524101288207680316e-01 -5.195610583437106911e-01 -5.242938531421501569e-01 6.746645553236961801e-01
-1.615500154454360682e-02 -1.750755346049880368e-01 -1.013104877338296683e+00 2.985647501737087040e-01 -7.876343446416034233e-01 5.389723824971953681e-01
-4.561317338707125690e-02 -1.191417257331636864e-01 -9.642438286229875199e-01 3.363429615218510582e-01 -4.142478078989511037e-01 8.457376460141906582e-01
-1.018992694390468273e-01 -3.607406238785366981e-02 -8.405840847749974643e-01 3.096429664772838430e-01 1.690058621936128824e-01 -9.357126972823128774e-01
-7.744297858930077050e-02 1.701526011162352719e-02 -8.737308612206321490e-01 5.857284070575793367e-01 -6.198044130532937013e-01 5.222688222797269297e-01
-1.320708638397144995e-02 -2.112228558123863675e-01 -1.080347379752160553e+00 8.109203595601103265e-01 -3.816433970319970670e-01 4.435724156806629681e-01
-1.513723789294977792e-02 -8.961111934419725700e-02 -8.901932692897712718e-01 -4.555207306980084692e-01 7.413089469815975496e-01 -4.929116645296469645e-01
2.228215391518207494e-02 -1.235282342564704844e-01 -1.010717006143767138e+00 3.412513979455099045e-01 -7.536069772444782267e-01 5.618042428183289694e-01
6.155431251221542277e-02 6.583519739457806275e-02 -9.210696021141698830e-01 6.720519387380967380e-02 -8.522010792621920183e-01 5.188803160852597518e-01
-5.847774156677788826e-02 -1.299943615407812558e-01 -9.043231534352662582e-01 -3.524507434488575175e-01 5.833596685119445402e-01 -7.317581366790409936e-01
1.246505678088663249e-01 -4.968647662343637222e-02 -1.013019776573331976e+00 -7.067766644743845861e-01 -2.804641586396049435e-01 6.494663981092799743e-01
6.599595402992874948e-02 -1.461282703068615962e-01 -1.050047609604564780e+00 -3.223540994096238954e-01 -7.647810383690039071e-01 5.578510535483809374e-01
1.652360469295603967e-03 -2.122787306265228947e-04 -9.297959863764851951e-01 -3.586930905381329748e-01 -2.849170773799976630e-01 8.889103024588270729e-01
8.198419357133793217e-03 1.602068978410292333e-01 -7.399882814837521749e-01 9.472595351724676371e-01 4.361753663405524423e-02 -3.174852492995814957e-01
3.000733723140106349e-02 -1.884461160230579135e-01 -1.071340555660335481e+00 7.113440474949144221e-01 -2.545258910769676031e-01 6.551383188800884438e-01
1.462212481213384825e-02 1.808143442958926039e-01 -7.227649521718316761e-01 9.458652017577552362e-01 -2.697467447280369468e-01 -1.804874339459351384e-01
6.141758914672492548e-02 -6.792668038553896503e-02 -9.244177377491490377e-01 -5.974032457691512699e-01 4.374987845204978965e-01 -6.720894103373228345e-01
3.631039797792535995e-02 -2.089594267917339321e-01 -1.080134656883196431e+00 -7.983505789605717107e-01 -2.411174145535600055e-01 5.518140497235703990e-01
8.864166006819527294e-03 -2.041733005544293100e-01 -1.088379826224944225e+00 1.791228062326469250e-01 -4.269362023800576944e-01 8.863636383475104186e-01
-8.072123800906433680e-03 6.512296709300195718e-02 -8.307979589621740102e-01 4.719305889594356818e-01 3.936063774221757461e-01 -7.888951380614486197e-01
7.741815529322960965e-02 -2.132173439674697052e-02 -9.208007039248150560e-01 -5.483684385707057185e-01 4.169097364647743609e-01 -7.248988393013185982e-01
2.088811348440332456e-03 -2.188286194326340417e-01 -1.093144696615926836e+00 1.260140675069076899e-01 -3.032520394480117676e-01 9.445415053670145333e-01
-9.835922748234236790e-02 -2.166474464159537025e-02 -8.847828169806238874e-01 -6.910196390673094269e-02 7.418060172497792371e-02 9.948478059039750354e-01
-1.228444029135398463e-01 -7.521590100107347632e-02 -8.925871621209422457e-01 9.062679821079245857e-01 -3.843604090112145988e-01 -1.759131052274449103e-01
1.020520689539733822e-01 -1.077478255984946481e-01 -1.042792344718491915e+00 -3.866843141467585232e-01 -2.990558369115960402e-01 8.723765514970907020e-01
5.502141208283718721e-02 -1.376717233128756657e-01 -9.656569508776343680e-01 -3.963914887986065838e-01 7.658048678442151980e-01 -5.063760381318690440e-01
-1.226392083229558838e-01 -1.132509172222932042e-01 -9.134493949245630073e-01 8.886754186396944588e-01 -1.161827757694343100e-01 4.435736273946787600e-01
5.004487522862662192e-03 -2.023795331565584558e-03 -8.571101674354846267e-01 -2.571117651643309854e-01 4.196870195168014295e-01 -8.704920136699625388e-01
-7.063355954431813077e-02 -9.883590899253841267e-02 -9.359640365564407816e-01 4.347797770533156081e-01 -5.752374466457127467e-01 6.928697030769854770e-01
-1.884670299696435819e-02 -1.199571827954415276e-01 -9.701093086652659014e-01 6.199579066622401546e-01 -7.838584939920180128e-01 3.490064990138069811e-02
1.032033621355984698e-01 4.279371595463613703e-02 -9.198628344097898868e-01 -8.458790543587738631e-01 -2.914784986096176089e-01 -4.466865906263469688e-01
-6.504099813799915641e-02 -1.999237945672056038e-01 -1.024746020161385829e+00 7.246987871615145904e-01 -4.000494492330691765e-01 5.610455472196065330e-01
-8.092923953675142459e-03 -1.892283939508654922e-01 -1.046428697466867508e+00 9.477773779183790159e-01 2.026261268724507264e-02 -3.182883416546211097e-01
-3.388064729009521159e-02 -1.791524057509224499e-01 -1.018081656536427015e+00 -4.360470626773276792e-01 7.292197587728346808e-02 8.969645168927408152e-01
7.371467675296203281e-02 -6.956669401600486247e-02 -1.009650192548150027e+00 3.653118984813214509e-01 -6.488950105679615055e-01 6.674447408497410361e-01
7.182403076038508527e-02 -3.386217013814806637e-02 -9.992166296897941891e-01 5.875499637041797785e-01 -3.052185286414009768e-01 7.494175671314328158e-01
-1.190291536797180860e-01 -1.065207535269781097e-01 -9.172453483037508182e-01 7.973607874794252925e-01 -2.218085691439461438e-01 5.612635149771506571e-01
4.197413839067373059e-02 -1.161178259239033089e-01 -9.429558536023517901e-01 -6.577195708662046947e-01 3.941209391860174827e-01 -6.419296311860882565e-01
-4.084955538598466357e-02 -1.008850482193848069e-01 -8.874435208258805163e-01 -2.031681825458981072e-01 4.302430938101739488e-01 -8.795530511740872193e-01
-7.869269324896821516e-02 -1.786945966185110313e-01 -9.917261132250644318e-01 7.445193158740994743e-01 -5.513418527671418712e-01 3.764480703598549471e-01
-1.090513780974440017e-01 -6.879065721848323656e-02 -9.098059997503034069e-01 6.184300137277431997e-01 -4.184202893705078474e-01 6.651832676517083209e-01
3.059739419257961543e-02 7.881438644420789286e-02 -8.379408091840697681e-01 -9.262930548863632652e-01 2.506137641512732328e-01 -2.813786020421927270e-01
-8.711086628226605982e-03 -1.680821966690167757e-01 -9.521573236460225687e-01 -3.065454975643235325e-01 6.858271084778827520e-01 -6.600538123516203060e-01
7.146872994769536136e-02 -9.134839124893960605e-02 -9.559041523729960854e-01 -5.820993729959008656e-01 5.098178843323276643e-01 -6.334398509508922803e-01
-6.172756788818093560e-02 -2.253406238451629573e-01 -1.028592277504110530e+00 5.679870790822689752e-01 4.335698991460081309e-01 6.995768868038113597e-01
6.230811533072057144e-03 -1.140753603586872333e-01 -9.721685038408940382e-01 8.491052430635958048e-01 -4.105336922849154857e-01 -3.323888892559832553e-01
6.637767736583695399e-02 -1.395192341090167321e-01 -1.043584278822398570e+00 6.984027749986264633e-01 -1.447113197049546551e-01 7.009223907277242205e-01
3.446006142234683128e-02 1.116154127928948026e-01 -8.265722598855151926e-01 -9.364011543785663028e-01 -6.942359563165552416e-02 3.439959919069708327e-01
-6.276425039705725573e-02 -1.207385776324006732e-01 -9.564751846769599108e-01 3.808916139509698762e-01 -5.014406290624211504e-01 7.768390270495613148e-01
2.967297883409484097e-02 -1.144086181256177559e-01 -9.253627003010705954e-01 -7.796970470407391662e-01 3.743486715914116636e-01 -5.019318548505333766e-01
-1.057614905419598655e-01 -5.569578473398559965e-02 -8.476270694682427331e-01 1.577606158844976625e-01 3.801435416243181820e-01 -9.113739495053962969e-01
3.040999332379014462e-03 -2.618187138456650742e-01 -1.093157778664345603e+00 -5.131334425002391786e-01 2.731405111327398494e-01 8.136881044761559156e-01
-6.393176518069569603e-02 -1.455996538758189962e-01 -9.145275975195131801e-01 -2.888731915772990710e-01 6.210869732280390743e-01 -7.285624550265944466e-01
9.213384047534540350e-03 -2.161654512270970718e-01 -1.005624413180694399e+00 -2.974866727307450276e-01 7.171215857477467592e-01 -6.302684434447182182e-01
-6.477921732485499018e-02 -8.445407167724504338e-02 -8.749571064124480602e-01 -2.779795261640736204e-01 5.046534170833716360e-01 -8.173446712737987285e-01
2.608658287853431873e-02 1.379880416844453568e-02 -8.584509210751232189e-01 -7.938720531479908082e-01 1.181842213318604895e-01 -5.964894408610897925e-01
8.761784937462613332e-02 -1.292673433421483338e-02 -9.218411250130160717e-01 -4.060116680165469227e-01 6.156397453833905020e-01 -6.753830241712442950e-01
-1.177187510475596714e-02 -2.080558437054122467e-01 -1.052886275339327327e+00 3.954488940650119355e-01 -6.426265775587914897e-01 6.562402410686454246e-01
9.045108087182203785e-03 1.130408101638684104e-01 -7.777450901846223452e-01 2.515181141773347173e-01 7.402573881105939391e-01 -6.235043204247736615e-01
7.576067528295761869e-03 7.691183713604857197e-02 -8.173047543002943671e-01 1.208244968049890788e-01 6.236201156149706604e-01 -7.723337312148113032e-01
8.841993803597732009e-04 1.502528555301840540e-01 -7.641148397558217287e-01 9.672454695170833450e-01 -1.237932028613274171e-01 -2.216110209895059968e-01
2.291952453212614017e-03 3.447251063159500334e-02 -9.168153360216789727e-01 -2.444814085344164389e-01 -3.704921307762094052e-01 8.960828209010213152e-01
-9.732079062128643626e-03 -4.286131917857895213e-02 -8.739415868557965927e-01 -3.059215841728789020e-01 3.995807590503220319e-01 -8.641453589147632952e-01
6.852186123358849912e-02 -1.090066861030575436e-02 -9.073390232108681230e-01 -4.821110022841499920e-01 5.613224021809810615e-01 -6.726709019173829907e-01
-6.878008793641100793e-02 3.422293166002388087e-02 -8.471752344144168889e-01 6.146371269258561476e-01 -7.728519665697818342e-01 -1.578639920106857109e-01
-6.334083056360077790e-02 -1.832061623761207514e-01 -1.012100195694225047e+00 6.294497789068688176e-01 -5.385005543947127826e-01 5.601875835384797497e-01
-3.585118616651897933e-02 -2.253804682191651032e-01 -1.077078167402716113e+00 4.299472985836343408e-01 -4.090686913198436359e-01 8.048652845181646365e-01
-7.134176316696762277e-02 2.853624735182358138e-02 -8.413075938514056329e-01 6.224884748287086156e-01 -6.416770529783243360e-01 -4.480609985107839588e-01
-4.254402278641883361e-02 -1.594337866116067870e-01 -1.005556879218262090e+00 5.026526157671503681e-01 -6.744078668605530957e-01 5.408459826781003565e-01
1.080520201501101174e-01 3.663038348596461130e-02 -9.535047449177836976e-01 -6.021631904167642491e-01 -7.388622409173793981e-01 3.024600486901573015e-01
-9.783114081483929025e-02 -1.855248499404665019e-01 -9.673131087679439633e-01 8.681887279675167823e-01 4.073583217819454205e-01 2.833858329294922651e-01
-4.474410509464510355e-02 -3.382586217572303156e-02 -8.499438713420082170e-01 -2.067681836899641079e-01 1.851733682645431145e-01 -9.607068969769694267e-01
-2.398741628959749628e-02 -1.839299652418265874e-01 -9.649900081687533548e-01 -3.071493255244209242e-01 7.818842992069366948e-01 -5.425092022109584411e-01
3.029223740672107659e-02 -1.000536575390195693e-01 -9.975904807544342390e-01 7.181724134972620188e-01 1.864806318247463623e-01 6.704128268803940527e-01
-2.699594076155302155e-02 -2.243145319975801966e-01 -1.002414034757777239e+00 -4.709915994908445702e-01 7.727831631544493929e-01 -4.254093275353275638e-01
-4.173475007721639402e-02 -6.499734424899634988e-02 -8.726532947551149944e-01 -3.405126625912531235e-01 4.522503406338692078e-01 -8.243304895559577794e-01
1.995462249171266883e-02 2.804622077699305341e-02 -9.166588695658981489e-01 1.590761592733437035e-01 -5.149538928861949749e-01 8.423284773484718269e-01
1.431075113794491420e-02 -2.344683823707937598e-01 -1.040126485522214539e+00 -7.410474206734724012e-01 5.795514888466920533e-01 -3.390704824793456251e-01
1.136556359990239205e-02 1.612474672417711918e-01 -7.910217070731386801e-01 3.542385948589168443e-01 -8.032144106789333993e-01 4.789171414661144155e-01
-1.518870765887291377e-02 5.530706033021851042e-02 -9.038810440591692474e-01 5.928065595009525124e-01 -4.625115865255924330e-01 6.592900843651625653e-01
-6.223507692379402767e-02 -2.328645890135656316e-01 -1.012849701001053981e+00 6.994940998258484255e-01 7.096996853408247263e-01 -8.387109714294167795e-02
-8.049582032016221189e-02 7.721148068590171464e-03 -8.338496515281091925e-01 4.432210056939774878e-01 -2.942288808119015719e-01 -8.467493760303548278e-01
9.377879823189324421e-03 -7.147729446753080251e-02 -9.639899866743852908e-01 7.499874509956848678e-01 -5.249275975590017573e-01 4.024547684770671263e-01
3.143918838862018450e-02 -2.059589349679401826e-01 -1.022929752799466518e+00 -5.270129237674241462e-01 7.197327406631711666e-01 -4.519315879639215217e-01
-3.249055524608874396e-02 -1.334191660584387040e-01 -9.175582922429083021e-01 -3.033314670745813624e-01 5.546556853317459179e-01 -7.748206836498066075e-01
-2.914955637612273373e-02 -1.668048206593367444e-01 -9.356223656736027960e-01 -5.371497632371489139e-01 7.093575533878647699e-01 -4.563792209400615030e-01
