6.861855577804328032e-02 -1.563970128429809092e-01 -1.034944122519931620e+00 -6.772988670003919909e-01 -5.324987357092152429e-01 -5.076527762438344249e-01
-3.043863151292647978e-02 -1.138365621216846924e-01 -9.773269070512405898e-01 -4.436262310437670275e-01 4.224633513679204588e-01 -7.903926137565350230e-01
7.743129363139407417e-02 -5.339885359189719405e-02 -1.040185103219921636e+00 -4.331964602805323666e-02 -5.999100431393904476e-01 7.988938279949961974e-01
-2.906070407131166461e-02 -1.323786757989587060e-01 -1.048610129932424639e+00 5.640330317785631209e-01 -2.109912822213599326e-01 7.983416673888874548e-01
7.162815784873040326e-02 -2.055387453458268898e-01 -1.048547526594914681e+00 -7.568501434702403774e-01 3.652219777681040003e-01 -5.420246925041618535e-01
-2.749656136465472578e-02 3.815923607253352695e-02 -9.570879705449353292e-01 6.293071853123930470e-01 -5.572397317949497886e-01 5.417161136825133783e-01
7.097206433790454079e-03 -4.869168212034924448e-03 -9.960466231864026909e-01 1.520515537345748514e-01 -5.576691481502062953e-01 8.160180428203317460e-01
-3.004015040436797471e-02 -2.709878108977646916e-01 -1.036059534971259799e+00 4.762051599122961720e-01 7.469633146439070837e-01 -4.639767798598242177e-01
7.261652379770970611e-02 -1.585510659087530916e-01 -1.039510156109527239e+00 -6.925425536149311112e-01 -2.668605768443394477e-01 -6.702016442525463580e-01
-1.108204275262127669e-01 -1.076172269471667303e-01 -9.916192966562886735e-01 5.461864050280941241e-01 -2.410578675885272359e-01 8.022290916167018615e-01
-8.067455718670506204e-02 -1.610406145007594603e-01 -9.729738265373145678e-01 -3.082685298281831465e-01 3.694068687738946144e-01 -8.766464959265150014e-01
-1.037247651756891507e-02 2.556023911377406366e-01 -9.017209153096187313e-01 -7.532260011375873088e-01 -2.732285505549613691e-01 5.983282964827204564e-01
-1.070230841513958447e-01 -5.101181223910009055e-02 -9.090676503423779087e-01 -5.754324810158492065e-01 8.149817280623350424e-01 -6.842691514655951934e-02
-1.059049269330480415e-02 -2.055427665474737764e-01 -1.076571664470691747e+00 5.787584627294140027e-01 -1.135402111450104085e-01 8.075563523818208855e-01
-3.533172106000830037e-02 1.782482803364146828e-01 -8.748597550710333071e-01 8.706116833675952016e-01 1.436432096384020474e-01 -4.705336599103406292e-01
4.046663939569035418e-02 -3.848179261848986427e-02 -9.616737079837257562e-01 -1.130107420820042480e-01 6.627887222472169659e-01 -7.402294791724901568e-01
1.255527842158470075e-01 -4.840614495669305628e-02 -9.963487933946080233e-01 -7.520071584751892857e-01 3.254476365962885032e-01 -5.732094463945632823e-01
-6.742627407524157124e-02 -1.273141135958200110e-01 -9.662287908336733011e-01 -4.027857536480379252e-01 3.473994629377141763e-01 -8.468041389889222614e-01
9.510599736978517238e-02 -8.874593282774463632e-02 -1.016430215916976909e+00 -7.288354424269244403e-01 -3.894118517167919902e-01 -5.631672110526751984e-01
1.045403948295175328e-01 -1.319143859041073119e-01 -1.032051006417750383e+00 -5.494735005115647386e-01 3.482634133750636685e-01 -7.594678842057225321e-01
-7.837733653347732365e-02 -9.611923245384675074e-02 -1.003045563001701890e+00 4.554366477598075225e-01 -3.187983726312857424e-01 8.312310493989940596e-01
-2.900722089214121877e-02 -1.103042752729121306e-01 -9.762671575280712499e-01 -4.633632765968572209e-01 4.310607226830062699e-01 -7.742616658865583146e-01
-4.567731567723318925e-02 2.280608018789065106e-01 -8.973130442219394709e-01 9.374821845410301613e-01 1.223250868867776925e-01 3.258277563166160906e-01
-1.192338617768072678e-01 -4.915566677183195315e-02 -9.541520515593621132e-01 4.393962996220613371e-01 -1.684434822852706459e-01 8.823591588202908120e-01
-2.752592720717714908e-02 5.874949758328128560e-03 -9.072287257373539138e-01 -3.530693050545841705e-01 8.731958608297026858e-01 -3.359628766071446337e-01
-5.611731851950102490e-03 2.550521831431949993e-01 -8.874609540719738954e-01 -9.389724030937534049e-01 -3.374846581158055248e-01 -6.659528335249878528e-02
-1.068928124009850822e-01 -1.192033586728195177e-01 -9.407976514151014102e-01 -5.466479135779606785e-02 5.686652326587678941e-01 -8.207506404206809103e-01
-8.614744332124137094e-02 -7.998204756875486321e-02 -9.209875354150640625e-01 -3.453234911152978093e-01 4.648789401185002279e-01 -8.152541061032706482e-01
7.006549086854553521e-02 5.916012551941816910e-02 -9.642352982978056319e-01 1.496460460213642485e-01 -6.834559098118766496e-01 7.144886844824007710e-01
6.113525587959985769e-02 -2.067846958782039168e-01 -1.081740446117875010e+00 -4.172651526542587308e-01 -2.306092193181849825e-01 8.790387820488212434e-01
6.374203266418181947e-03 -2.761357239146732812e-01 -1.091785214683485439e+00 1.297090430828228280e-01 -1.895578858345260409e-01 9.732642868514611578e-01
1.180549181916318441e-01 -1.577687234956388906e-02 -9.830909952074545766e-01 1.688034094008811770e-01 9.650858049576224174e-01 -2.002867894893129719e-01
-7.727241143523735922e-02 -6.142538467083737130e-02 -9.918747808304840818e-01 6.087936452413533761e-01 -5.066460648335466832e-01 6.104752759141245377e-01
-6.133226812684117180e-02 -1.418975056467352280e-01 -9.758536346294259811e-01 -4.944157671372799712e-01 3.724356282011570540e-01 -7.853946473286309571e-01
6.824435227368667867e-02 6.323853128664914947e-02 -9.321575271784046102e-01 -5.215129350780455253e-01 -6.614924526776239100e-01 -5.389359828373159189e-01
-6.192976252581368357e-02 -6.544075439963120688e-02 -1.000857248105457842e+00 4.309303984168226798e-01 -2.730249390823356048e-01 8.600909105201643978e-01
-2.378886728236611486e-02 2.641100464867909836e-01 -9.080015016097536806e-01 -2.309741312261520130e-01 -5.662932365778229338e-01 7.911781853100716688e-01
-4.130726937838847396e-02 1.906666180495597829e-01 -8.937717812291799957e-01 9.809461472898720613e-01 1.267074825130636573e-01 1.472748111265411997e-01
-2.907944446623171933e-02 -2.759567807065522183e-01 -1.059167515280380556e+00 8.736003520310221537e-01 4.379099240419199179e-01 2.122671038029071700e-01
8.742202816621451322e-02 -1.444415149196239256e-01 -1.029660275212699316e+00 -2.235988613869417663e-01 3.914411861420827865e-01 -8.926238552593933617e-01
3.933715771439424275e-02 -1.600236038199499833e-01 -1.068456210110271254e+00 1.472515330128713051e-01 -1.336486219825618882e-01 9.800280770812239695e-01
1.534664650266073620e-02 1.285127467965860304e-01 -9.002571592116392907e-01 -9.633208844056307951e-01 -1.060265517767499943e-01 2.465182427048457359e-01
1.045443152228885814e-01 3.898552581272093920e-02 -9.805989241211642282e-01 -5.704600818515724869e-01 -7.466968608327576584e-01 3.420805358923579287e-01
-1.700101747138267963e-02 -1.981803363532960160e-01 -1.007124649485762413e+00 -4.229236571322105842e-01 2.613661492557488031e-01 -8.676539150266873168e-01
1.451883387547868443e-02 2.494716990684059388e-02 -8.971301924172698783e-01 -6.213735979162834377e-01 3.403121307283781816e-01 -7.057496053783410828e-01
-2.155011238273655746e-02 1.571826793933494837e-01 -9.134316100328442323e-01 3.432128964619951539e-01 -3.051459136224581817e-03 9.392526796870519501e-01
-1.090904707099087656e-01 -1.501510884268348611e-01 -9.670685627917375848e-01 3.907150898258000549e-01 2.441424282257254330e-01 -8.875450373487890898e-01
8.069309657948715853e-02 -4.508598304510039179e-02 -1.034004001012672980e+00 4.533972840328701417e-03 -5.762551020649163691e-01 8.172573036898695964e-01
-7.871027493387040830e-02 -1.895094247009823929e-01 -9.873484712761523285e-01 -1.411619768164755484e-01 4.956844871703083855e-01 -8.569540159658352030e-01
8.078684770914158070e-03 -2.557662968575717399e-01 -1.047064779717690408e+00 -7.380214803910571941e-01 1.228614766092315791e-01 -6.634978161582686385e-01
3.595212366540547454e-03 9.941149359335822722e-02 -9.259070064344494533e-01 -3.251464779368659075e-01 -3.872747559644705850e-01 8.627270896859045024e-01
6.129052714294722093e-02 -4.477925374076395515e-02 -9.685759915498038941e-01 -2.719152766178168854e-02 6.061930868491783864e-01 -7.948525412173523819e-01
-1.266516237984182669e-01 -9.030129008963073967e-02 -9.264830002345109117e-01 2.771888576851180286e-01 5.106188848121360202e-01 -8.139009102147691799e-01
1.530005505624127023e-02 1.117922066848106577e-01 -9.075756891835541351e-01 -8.979640618808426566e-01 -2.457466593856288684e-01 3.650604374227119919e-01
5.274326740760247600e-03 -6.472129933400079527e-02 -9.674354555314678139e-01 -8.192807319951085354e-01 4.517753041237033695e-01 -3.530979421711411548e-01
1.726329362395671169e-02 7.737494836205130455e-02 -9.352244489854009135e-01 -2.069265492697760361e-02 -5.962940032026973203e-01 8.024993930069821424e-01
-3.345654929752550633e-02 -9.495520116223099549e-02 -1.036829019606879898e+00 5.333755542582779841e-01 -4.910491789453332312e-01 6.887533825519760455e-01
1.587266368706680836e-02 -6.596745537664880366e-02 -1.033885109055736384e+00 1.271845229083499174e-01 -4.357417193827123336e-01 8.910405440393679433e-01
7.182296265813244152e-03 1.208529107985152062e-01 -9.149858284500613781e-01 -6.192939901994849450e-01 -2.266258487725288928e-01 7.517417630881836343e-01
-1.501842025239823186e-02 1.900513280935250959e-01 -9.129564534208479687e-01 -2.508163921410662134e-01 -5.600364243796757124e-02 9.664133326206851837e-01
1.240758951850226832e-01 -6.624947638119796367e-02 -1.005491349732344553e+00 -7.007478042551446018e-01 3.816606254176744817e-01 -6.027335081421829610e-01
9.618504699952561132e-03 -2.131780863237870138e-01 -1.037090628331834630e+00 6.328739753819595526e-01 1.792998035289591618e-01 -7.532078808262108183e-01
9.066894643248624153e-02 -1.509039543352433954e-01 -1.072048900735977917e+00 -3.437792226511559024e-01 -1.517503815378683230e-01 9.267079732992904439e-01
2.332512212015241254e-02 -1.683094507719777588e-01 -1.068846801331738483e+00 -6.895930131094439586e-02 -3.785526319645158844e-01 9.230073236954536853e-01
8.861519467506631664e-02 -2.274243089153401090e-04 -1.014973491228694957e+00 3.279600099651845957e-01 -1.736341401605319412e-01 9.285975539674593549e-01
3.518947711201879207e-03 -2.914052819935881722e-01 -1.052865851294047417e+00 -5.390523096472966680e-01 6.184899056141139884e-01 -5.717454364639557030e-01
1.283776240444902128e-01 -1.227821050453157094e-03 -9.981637313887999907e-01 -9.415943921668430416e-01 -3.318294720439918244e-01 5.735156600267544980e-02
-1.468538883027498305e-02 6.961442866826959841e-02 -8.840729693361392139e-01 7.806090919966728325e-01 2.312917719826332319e-01 -5.806492587657918758e-01
-1.349508362600558564e-01 -7.819026455825366095e-02 -9.319976864475123524e-01 4.165020020579661142e-01 1.847512642054948417e-01 -8.901646210989162533e-01
2.507259878087325297e-02 2.803416726012059393e-02 -9.124209150573470151e-01 -6.282544940805174782e-01 1.356973162172517566e-01 -7.660825863045499506e-01
1.174478886157248325e-01 1.636600006697550057e-03 -1.011226946443445129e+00 -3.471426961182136894e-01 -6.096554179810431684e-01 7.126094441264001489e-01
4.559272699215379671e-02 -1.082466333362735039e-01 -1.059049504112660411e+00 -1.593287088865421031e-01 -5.915590614537560299e-01 7.903620938130185847e-01
3.456174649172624735e-02 -7.951058277674358243e-02 -1.042671259228069802e+00 1.240218487345123993e-01 -4.247072356376216939e-01 8.967955982460681374e-01
2.035804823966295626e-02 -2.494136115887344851e-01 -1.085435890673299708e+00 3.455129870384501117e-02 -2.187483506516711695e-01 9.751694041780900601e-01
1.077697853720776047e-02 3.061820362469100040e-02 -8.921548623415439527e-01 -4.609659847004162758e-01 3.279247086127110578e-01 -8.246064191057719261e-01
-1.528859998597560492e-02 -2.183166034345736944e-02 -9.314614303320858379e-01 -8.282365658276101827e-01 3.140826374766831353e-01 -4.640865090279796545e-01
4.969086171954499587e-02 -2.132761491838333356e-01 -1.087809994078885678e+00 -1.992716056821551007e-01 -1.131698789620837614e-01 9.733875927217086055e-01
-1.317783418319920172e-02 2.152824877895339328e-01 -9.108576709310479691e-01 -4.203926494005567616e-01 -7.495361906200657953e-02 9.042411046394032148e-01
-5.417466354274851070e-02 -2.173748087531810202e-01 -1.005552652983463524e+00 -6.362949297245459879e-02 4.090210093837509109e-01 -9.103038511984696823e-01
-3.794853115192307197e-02 -9.558356168096532324e-02 -1.031987778690671043e+00 6.438613606728951222e-01 -6.976708367443739123e-01 3.141623016672319690e-01
2.142336086014472868e-02 -1.851255992318700805e-01 -1.033043405154505656e+00 4.215477184363795038e-01 6.181062459202452120e-01 -6.635074904139847130e-01
-8.437398268338049123e-02 -5.890017327838178302e-02 -9.103094071374210339e-01 -2.465637312221240773e-01 3.968057874876227964e-01 -8.841671185144535094e-01
2.116209047309613317e-02 2.944852275209514439e-02 -9.060199483618340821e-01 -9.440042668285186789e-01 3.872567077240556682e-02 -3.276526615682807120e-01
-4.800144516199541384e-02 2.326596090275872830e-01 -8.881908616051644723e-01 9.901067076494332042e-01 1.328998771447467697e-01 -4.501477671288686006e-02
-1.173228912752578013e-01 -1.497699689736101680e-01 -9.935691735944356395e-01 4.792944433651555869e-01 1.259701620290739343e-01 8.685668395913204165e-01
-3.780908608556202838e-02 -2.822790325170282735e-02 -9.959149674364266014e-01 5.294462090387664910e-01 -7.341758069961789035e-01 4.250559917893029227e-01
-1.079093304659962671e-01 -9.013433335592309359e-02 -9.822796886134010919e-01 7.120762831828131301e-01 -4.406191339021942599e-01 5.466279774836177996e-01
6.722540025587737597e-03 1.013603832452631276e-01 -9.236589992811470307e-01 -3.862567207460542162e-01 -3.884006068545903245e-01 8.366305721604311296e-01
-6.197335846957951339e-02 -1.494956837171045050e-02 -9.678209937919629580e-01 4.406492547005084193e-01 -4.540709083339908858e-01 7.743693205032278204e-01
-9.247755935079168821e-02 3.132972155649754731e-02 -9.019472489569282381e-01 6.934728596276195089e-01 -6.282467595475467181e-01 -3.527058293789583909e-01
4.121608435098737225e-04 -1.666645252360075824e-01 -1.021408576727326656e+00 -5.992712578815997393e-01 5.447852611563145375e-01 -5.865858664371748077e-01
8.568103432830498356e-02 -1.014361174087870417e-02 -1.016919539506029979e+00 2.267207481964894356e-01 -3.191496498175109275e-01 9.201854179232489273e-01
-1.189538345168472400e-01 -1.024643957049089366e-01 -9.315290430855873716e-01 2.229195125960161394e-01 4.948962438942438591e-01 -8.398717751438750101e-01
-1.615180780346407025e-02 -1.194902278130072076e-01 -1.055994402749687477e+00 3.009365984318004839e-01 -3.024190106956569646e-01 9.044224155195167425e-01
-9.372107632383089651e-03 3.240878111868685657e-02 -9.730848924162145419e-01 -4.833136051223076157e-02 -4.779812693584239436e-01 8.770393296389542570e-01
-1.898906119693095917e-02 6.446250499862594963e-02 -8.920861056593309968e-01 7.274819825287008879e-01 1.213478704883842879e-01 -6.753107872854136051e-01
1.792429143459012275e-02 -6.819070631867800436e-02 -9.784626746371344330e-01 2.202557166217265217e-01 2.177433158568832516e-01 -9.508287267931587738e-01
-3.215982849359984297e-03 1.163189655171038422e-01 -9.214244001129634487e-01 -2.660725257995012472e-01 -3.272159133063889946e-01 9.067166906447348129e-01
-7.579793869367477954e-02 6.824229709388069352e-03 -8.876321371943807215e-01 7.236968369959856026e-03 1.104935421103428600e-01 -9.938504935052969724e-01
2.873721811690851252e-02 -1.107347420033381186e-01 -1.000247650247780173e+00 -9.723882841679791500e-02 5.392833434110182456e-01 -8.364915335898877036e-01
3.999126970027690534e-03 -1.425542701145013358e-01 -1.013235932397070549e+00 1.603540025033826921e-01 1.670577709285442081e-01 -9.728197649377459122e-01
7.935176199371830885e-02 -1.554928784051352528e-02 -1.017671018549879847e+00 1.651164202193122210e-01 -3.982301704186368974e-01 9.023022216210613289e-01
-8.352765440452193657e-03 -1.012669194354824942e-01 -9.967130130777704933e-01 -9.594032116134642019e-01 2.572190091159861081e-01 -1.156886290659566024e-01
9.357531263669795207e-02 1.344840599989343376e-02 -9.449068247493310757e-01 -4.846015938761743524e-01 2.267637802807982439e-01 -8.448310382351214010e-01
-5.655074772829950594e-03 -2.838606257599373545e-02 -1.012972094533714840e+00 1.377778891054537991e-01 -3.980768913634869510e-01 9.069465484999807980e-01
-1.190120830281904268e-01 -5.799132739773751877e-02 -9.119493923695384252e-01 -9.876164034297586769e-02 7.982789840619665123e-01 -5.941353398021019805e-01
7.024108181159690809e-03 -1.893337654339961318e-01 -1.034253409240786681e+00 5.972474724101504151e-01 9.811244084523368381e-02 -7.960335455563898321e-01
-1.036541391107103360e-01 -3.542037565403734906e-02 -9.573094966076547419e-01 3.643697754854449689e-01 -2.755843757719642628e-01 8.895436574688524445e-01
-2.820655355558851496e-02 9.521070805888075250e-02 -8.948899351673925695e-01 9.315179359581161611e-01 2.264629053716108731e-01 -2.845854660360919164e-01
-5.119480955534286976e-02 3.322052195437232708e-02 -9.396547618371130506e-01 4.747577042356023735e-01 -5.847146415179438339e-01 6.578099347558401533e-01
7.741979048055119828e-02 -3.320149784891161804e-02 -9.629067204558644510e-01 -1.678802957622242964e-01 4.699072551441905166e-01 -8.666045106377190388e-01
5.257749990937752443e-02 -8.388190599690785454e-02 -9.936017604017394200e-01 -3.772611204757083669e-01 3.156014726658019631e-01 -8.706720148417486094e-01
-7.671639144297530410e-02 -2.489358573972670977e-02 -8.998317684965405627e-01 -4.932598401048792214e-01 8.301561165197488545e-01 -2.598760326474103821e-01
-8.714875273374807219e-02 -3.358784170705177152e-02 -9.064510436733751453e-01 -6.327948276136072803e-01 7.633344597559993394e-01 -1.299661828880174230e-01
8.169190554143511418e-02 -1.907979283896861222e-01 -1.069774416971162712e+00 -8.382261557602929125e-01 3.484842669176863028e-01 4.194468113005078713e-01
-8.540020878455935327e-03 -2.132702094609233989e-01 -1.078800717064005710e+00 4.238900559627661879e-01 -1.357573065478354657e-01 8.954815320121124467e-01
-2.934103609249247638e-02 2.283722622684156989e-01 -9.139080132820496249e-01 2.182310475492187651e-01 6.983334178749930898e-02 9.733953535231001375e-01
-4.321899257311659533e-03 2.207301288869625011e-01 -9.041464101515851448e-01 -7.544308874455337710e-01 -1.431665626812561876e-01 6.405758123736630116e-01
4.399203424478350007e-03 -2.904702668456470294e-01 -1.094472729972219671e+00 2.124572496454649184e-01 -2.360342178324025264e-01 9.482350790206668378e-01
-2.397811632927888958e-02 4.212192053745202058e-02 -8.929551050782018606e-01 -4.717903181215487018e-01 1.883408726240623499e-02 -8.815095988608179223e-01
8.462351182144240563e-03 -1.915002893788947391e-02 -9.238859466367924655e-01 -4.881863498978302185e-01 5.692223432460300492e-01 -6.615587742014552575e-01
5.770512579917563140e-02 -2.366299703321383952e-01 -1.067097330799603228e+00 -9.964703947587484345e-01 -7.559762450238427522e-02 3.649317112749128622e-02
3.253215246293075791e-02 -1.506169885037461353e-01 -1.066293121699068314e+00 1.750771492056823753e-01 -8.051930666427470351e-02 9.812566601457110016e-01
1.317640032736948075e-01 -4.633668866336978359e-02 -1.003690677126503727e+00 -8.402769013802714460e-01 3.146203359680956879e-01 -4.415300365797237281e-01
-7.261213085117340454e-05 -2.185483869689008596e-01 -1.080821792880035659e+00 -1.087871970268109445e-01 -1.824342130092617698e-01 9.771812030973278107e-01
3.075866024138870780e-02 -9.481277242910032127e-03 -1.003456917996434994e+00 1.519402276217505232e-01 -5.336021096112325557e-01 8.319753336780441044e-01
-6.117995271953228370e-02 -7.746930389312951803e-02 -9.530027661748836643e-01 -6.090401830056267896e-01 7.768472993483069855e-01 1.599322637234735500e-01
8.309675099473247395e-02 -2.701054252826299087e-02 -1.023562295018642487e+00 9.302960866459396294e-02 -4.359740565720072736e-01 8.951380418169371245e-01
-9.987946718428324100e-02 -1.195983082532713071e-01 -9.534757897457898368e-01 -7.945496082220592227e-01 5.687300557130958722e-01 2.126900181079280638e-01
-9.546231253041008794e-03 1.209039514591219444e-01 -8.701866988576018036e-01 -7.385169898045651493e-02 1.887387975512792027e-01 -9.792464413295547399e-01
-1.170100942193517263e-02 -1.088972718482966034e-02 -9.245207295194316499e-01 3.143750114846172727e-01 6.132329122735654670e-01 -7.246473262619053113e-01
3.974309078330728190e-02 -1.771412262925069203e-01 -1.022123485986037972e+00 -3.729222076040246692e-01 1.517266163279757940e-01 -9.153731812618304264e-01
6.633662670543026552e-02 -1.269757473393135806e-02 -1.013412086358212782e+00 1.993911260840398048e-01 -4.572337733196866205e-01 8.667066720493041831e-01
-2.366868767052490372e-02 8.565744582876667901e-02 -9.239827065134387230e-01 7.875485259136564276e-01 -2.423901711376534596e-01 5.665812600740389726e-01
-3.707956494713730844e-02 1.564496722298642783e-01 -8.935604886061383478e-01 9.904377057191620093e-01 1.376436635507224948e-01 -9.347351180831764764e-03
6.000093273149360168e-02 -6.464366771862210814e-02 -9.959593204610293071e-01 -4.560902676236562869e-01 -4.882847962703965039e-01 -7.440158771895658552e-01
7.529770637022704938e-02 -6.386884850786032908e-02 -1.002620132151717414e+00 1.503231469663394715e-01 7.725580827199799439e-01 -6.168929893507990592e-01
-1.179728433957399208e-01 -1.211879184988891717e-01 -9.897783972814934161e-01 7.525709696639198976e-01 -2.777737024382475051e-01 5.970583772570778880e-01
4.669784317549709185e-02 -2.517902776318019509e-01 -1.079081409009775339e+00 -6.162204321434910925e-01 2.472038078405602024e-01 7.477717943316775084e-01
-1.066776241848430701e-02 -1.302661349480216668e-01 -9.989398825901606438e-01 -2.462578772278808670e-01 1.185579542963808020e-01 -9.619257088654379340e-01
-3.688868460507073975e-03 -1.767875358645553119e-01 -1.012709927946937816e+00 -9.391167404208975444e-01 3.419959313332490702e-01 3.314409167154749175e-02
3.576636202626649191e-02 -2.245765697039155129e-01 -1.032301695398870400e+00 -4.553746245394712511e-01 -8.096453348917547616e-03 -8.902631064852144505e-01
-5.776765844763705887e-02 4.705730049159054934e-02 -8.907597598136887118e-01 2.487875377905877927e-01 -4.637393490200578117e-01 -8.503238072702362649e-01
-9.402977861916321511e-02 -3.948582662261084474e-03 -9.450909018081071755e-01 5.769123032484736457e-01 -6.713117563593118398e-01 4.653092736388534378e-01
-1.068165988079871204e-01 -8.082951493392137587e-02 -9.767632916997311954e-01 6.513517013713397974e-01 -4.472036953778291135e-01 6.129843521339468637e-01
-3.348535372305085772e-02 -2.269059577664268024e-01 -1.011405163496820414e+00 -4.353566485244516615e-01 4.373295718711664448e-01 -7.868973466422030105e-01
-1.158470149464561200e-01 -1.005644433583537329e-03 -9.069571250810090079e-01 8.097221535411838200e-01 -4.161718184946443522e-01 -4.137040627737272880e-01
9.845735242651448837e-03 -7.633729582848131079e-02 -9.844024725685914801e-01 5.559342576487139587e-01 3.357954358251468152e-01 -7.603805142503144987e-01
4.372884939104981772e-02 -1.091764632124784112e-01 -1.060680371269911992e+00 -2.964744696879331731e-01 -6.921365948372140142e-01 6.580652117460736861e-01
5.216241676130997651e-02 -2.529294554909129467e-01 -1.052062889404696167e+00 -7.818113634824342961e-01 4.861408078975009150e-01 -3.904332296648202472e-01
-8.265140214130092811e-02 -7.403722691749367590e-02 -9.190883165657144360e-01 -3.493210704823790924e-01 4.650369706966554495e-01 -8.134589145140170841e-01
-1.043176010031689610e-01 -1.002154746232287591e-01 -9.930520734237898717e-01 3.647663320195536074e-01 -2.450764850522725580e-01 8.982666861792348856e-01
4.437656450539366991e-03 -3.877131886375351222e-02 -9.392726023757355103e-01 -1.317196764418896437e-01 5.991333205781657067e-01 -7.897399515100046452e-01
-1.345777149615695611e-01 -4.616048331510128055e-02 -9.352436593305833989e-01 9.032157242932800090e-01 -3.631084378460254780e-01 2.288091295258665725e-01
4.801745373317885777e-03 -7.216571291835092994e-02 -9.749277329491521371e-01 -8.227391009496367591e-01 4.298657886703903253e-01 -3.719082890974149680e-01
8.855518769315044725e-02 3.066971891282450555e-02 -9.903432739614245195e-01 1.554223615969803352e-01 -6.162174305087907422e-01 7.720880570587536074e-01
-8.796201895886862632e-02 1.196448485625231564e-03 -9.444623246014048901e-01 5.406457422141207614e-01 -7.154480810241881095e-01 4.425338685169183384e-01
9.811887146634684642e-02 1.576394786882149429e-02 -1.003236976113013545e+00 -6.252699712654817554e-02 -6.713897971976228174e-01 7.384619928264902766e-01
6.676811792796357586e-03 -5.339581504472078188e-02 -9.544601958155857213e-01 -8.039838674376649230e-01 5.148678679142868475e-01 -2.975248216357277986e-01
-4.097807495520718046e-02 -2.532890361294187764e-01 -1.032160393805473753e+00 6.359463094169570674e-01 1.958630052129810561e-01 -7.464649856007257167e-01
-8.989439910654106747e-02 -1.055501346581999289e-01 -1.000328609456949680e+00 4.608998936956089088e-01 -2.981572999555142101e-01 8.358669227063683094e-01
4.290949075790509784e-03 1.644079844528216205e-01 -8.719815344478384356e-01 -6.648186633287116454e-01 -3.832577823196025441e-02 -7.460209645933146838e-01
-5.451897488952873669e-03 -9.585275921078441341e-02 -1.048497125416142595e+00 1.618464324404641497e-01 -2.202167910525040517e-01 9.619305054133755473e-01
6.854572049618123594e-03 -1.723354876954863724e-01 -1.029184410672897121e+00 2.512508996602927924e-01 7.652999338126564854e-01 -5.926120119658703222e-01
-6.577210633216498681e-02 1.245366210654517101e-02 -9.527549520809773798e-01 5.240117352306101761e-01 -7.492756071600459311e-01 4.049663762036909143e-01
-6.708454130214143440e-02 -8.402771843006280605e-02 -9.360810979288815004e-01 -5.941672656608494307e-01 6.211342598793055947e-01 -5.110357048399816193e-01
-3.509003917195500227e-02 -2.699613003449331528e-01 -1.045269219996369792e+00 6.966359867568400199e-01 7.055230051563500249e-01 -1.301368170445109385e-01
-1.339423446841542797e-01 -1.085574624332714400e-01 -9.626507758111838564e-01 8.592904756128302290e-01 -2.408305402543719220e-01 4.512433150772023893e-01
-1.897431958191900594e-02 -1.399495678005412691e-01 -1.061128939554822681e+00 7.275411634670447825e-01 -2.218503531812560381e-01 6.492043409084469197e-01
-6.831152906159625171e-02 3.835549935323327719e-02 -9.229811584048804862e-01 4.152699127237022281e-01 -6.473100211558183714e-01 6.391718361267980653e-01
1.263292762064258390e-01 -5.625705214192210785e-02 -1.001991272409025635e+00 -7.583896359577485535e-01 3.400964754035364912e-01 -5.560391600327854178e-01
-2.644625924984411389e-02 1.999666885064853294e-01 -9.126235496333404695e-01 2.855429167451881689e-01 4.854140646748633658e-02 9.571358182383566948e-01
1.285961343141626689e-01 -6.148859427380951731e-02 -1.037069365249041697e+00 -5.671656694432206658e-01 -3.765062547300394025e-01 7.325067532481746024e-01
-1.703356041303896729e-02 -2.333216340435930458e-01 -1.073323490866758823e+00 6.124429801309919652e-01 -4.864393717915221904e-02 7.890167067077732410e-01
1.309842952549644113e-01 -6.052595835763571741e-02 -1.011810318150305088e+00 -8.371786909710174918e-01 2.661762780682042084e-01 -4.777886859039374712e-01
-1.058445780427127586e-01 -1.628133167878792753e-01 -1.004299854569726369e+00 6.833551962563313431e-01 -1.267027394282150277e-01 7.190077131511571906e-01
9.418051041510475119e-02 5.209465658164698365e-02 -9.617023857745744531e-01 -6.815454103740110625e-01 -7.297846904313105565e-01 -5.394589150433081598e-02
5.276279568966703998e-02 -2.125225996719486421e-01 -1.038800423923600169e+00 2.834442723308704393e-01 7.200783605782133945e-01 -6.333612706108698864e-01
9.587348666016159635e-03 3.634105216958846696e-02 -9.723355833180638008e-01 1.602917375853067927e-01 -6.352704470669670034e-01 7.554720497445414074e-01
9.607009806164130972e-02 5.007604292373351446e-02 -9.666638396757195606e-01 -6.364400901031134206e-01 -7.586105759150962857e-01 1.394776176284449609e-01
1.258387353710618273e-01 -2.170695936188593925e-02 -1.024273192465753324e+00 -1.725870778211318346e-01 -3.883801697244820827e-01 9.051930978161207841e-01
5.230111346970694325e-02 -2.002496127848977792e-01 -1.032662782374033306e+00 -4.510526003559631181e-01 2.495738815611643069e-01 -8.568923090765943051e-01
-7.482924824703320564e-03 -8.028255075261019405e-03 -9.196125417482725606e-01 6.138791566867436433e-01 4.857524828374688020e-01 -6.222514816397040072e-01
-8.896708732556880828e-02 -1.783165436772714552e-01 -1.026440722286284801e+00 6.593506977266910818e-01 -1.303276484021386739e-01 7.404534836634196759e-01
-6.669416617273971060e-02 3.536819056332479727e-02 -9.268943810008746231e-01 4.299790401692274444e-01 -6.213594890794778003e-01 6.550041300221243201e-01
-3.134205437074519957e-02 2.567824423706988046e-01 -8.690971668372914349e-01 4.491846524645657507e-02 -3.572467495678279259e-01 -9.329293067554069729e-01
-5.443711886379200976e-02 -4.179051803751163835e-02 -9.181813070653507269e-01 -4.883942269728556163e-01 3.325274136300533367e-01 -8.067816298380214857e-01
7.427245499315235366e-02 -1.985054376610038418e-01 -1.047738860879239065e+00 -7.106606413800048427e-01 3.801523377576135898e-01 -5.919845039279164611e-01
-3.131743372736795622e-02 1.644052677956298614e-01 -9.065490515242080605e-01 7.170446590554708788e-01 4.732447189160656625e-02 6.954188315541967036e-01
-3.465403633887636104e-03 8.779923466697776152e-03 -9.039052600393279180e-01 3.283252982915942919e-01 5.223511425030923361e-01 -7.869890611866530161e-01
9.722983426373535409e-02 -7.063124005179283182e-02 -9.925564726249332947e-01 2.540308874440991987e-02 7.412259128174231160e-01 -6.707747977154637775e-01
3.672459052904974552e-03 -2.436693575468847767e-02 -1.012744921033986056e+00 2.004873877533866477e-01 -6.024412938464416278e-01 7.725731647038022176e-01
-4.290098499237271490e-02 -1.839541173796408746e-01 -1.048091200095899955e+00 5.882191759269658204e-01 -2.126893830463924828e-01 7.802316498394217259e-01
4.170959741562303008e-02 -2.172713414107813878e-01 -1.084927704249237124e+00 4.276536396404276852e-01 1.897114625802337473e-01 8.838110236175852341e-01
1.301426001588016079e-01 -2.747594640382301778e-02 -1.025591212274626240e+00 -3.097052790310221848e-01 -2.534611441311729330e-01 9.164278959940237446e-01
-8.729907257290286590e-03 2.021999316379320330e-02 -9.799371821042555109e-01 5.122380058871030956e-02 -5.162032507247990010e-01 8.549329366648581452e-01
1.307254813322286935e-01 -1.794942149594432393e-02 -9.956985645099211135e-01 -8.827475931277330989e-01 1.744292585567967513e-01 -4.362695503774246530e-01
-1.312687650471526524e-02 -2.221689200332104264e-01 -1.076100585096304130e+00 6.548784003396523890e-01 -5.826018866126711493e-02 7.534852561170201080e-01
-3.994570286426799011e-02 1.845935907207744697e-01 -8.961048738524209911e-01 9.545457242658782482e-01 9.359315772823693924e-02 2.829890123524008705e-01
-2.487151315988085296e-02 -2.813489642598461793e-01 -1.052683041972287681e+00 5.897079671573283166e-01 7.634181224306723079e-01 -2.635095516591343112e-01
1.068814753981189303e-01 9.236166630847484141e-03 -1.008203839616297781e+00 -1.108452421584032455e-01 -6.614089529183935223e-01 7.417894103384323756e-01
-4.948563813533089079e-02 -6.510199620397169595e-02 -9.371983310788691846e-01 -6.064792739203395122e-01 5.460445148000017124e-01 -5.779431444025342479e-01
-8.878660928561883658e-02 -7.517435007394659974e-02 -9.914385975045114652e-01 5.651958866485542465e-01 -4.486091185424141980e-01 6.923174622065751960e-01
-8.720154155798544304e-02 -1.935785033181914444e-02 -8.918429296484580160e-01 -6.561188199157770573e-02 2.319559295846949643e-01 -9.705109621596363922e-01
-5.440391898896132505e-02 -2.194596944850001341e-01 -1.055121392613200593e+00 7.120163510203846302e-01 -2.902995821173616764e-01 6.393425283070895970e-01
1.234729605880154624e-01 -6.478015761877588090e-03 -9.770675350792689118e-01 -8.684467184861516253e-01 1.002005450432525285e-01 -4.855513854615904346e-01
1.576933206259399298e-02 -7.757022836355208228e-02 -1.039656544025305607e+00 8.278161128858843587e-02 -4.362304493062776900e-01 8.960190845794012704e-01
-4.468172640377422386e-03 -2.386664016965028834e-01 -1.083910118480444273e+00 2.899671208994437643e-01 -1.585778846259604802e-01 9.438072490211349974e-01
2.420193556505230090e-02 -4.701435529706603916e-02 -9.829040132695131549e-01 -2.767495092227912901e-01 7.054384480664059875e-01 -6.525077050384958666e-01
1.289677898890674058e-02 -3.006753228494166708e-01 -1.092742327793195800e+00 -7.717755966482726659e-01 2.401116838202083381e-01 5.888198431704105840e-01
5.156714830685363987e-02 2.801512883599048195e-02 -9.889048600203219630e-01 6.861291826780846481e-02 -7.765115616041565749e-01 6.263561783377321612e-01
-2.389989140088161906e-02 -9.860334134108192372e-02 -1.043994164776222533e+00 6.121011511718829068e-01 -2.278298072371939820e-01 7.572488096182909967e-01
3.678413997060418013e-04 -2.536993403546553560e-01 -1.087779969996704565e+00 2.516564543949477081e-02 -1.889057487932252200e-01 9.816727093907035018e-01
-9.870415871885242221e-02 -7.217796593573397312e-02 -9.787085242465429769e-01 6.135972551404900166e-01 -4.575159094760881673e-01 6.435663144232488531e-01
-1.758494844328938392e-02 1.681612583760219992e-01 -8.646795360110588469e-01 1.709413627614174147e-01 1.079138730634588150e-01 -9.793536881524023130e-01
-1.721134409524092967e-02 -2.773036473601818153e-01 -1.079057786022225018e+00 6.329241735387458601e-01 -7.700475700133614654e-02 7.703747516303094400e-01
1.149897803236964167e-01 1.005014781072884750e-02 -9.626015850329951995e-01 -7.729534801471884542e-01 4.308172033105236304e-02 -6.329983277242261508e-01
-6.696184320003858992e-02 -5.630600599649034782e-02 -9.967131943124789561e-01 4.773135267348834754e-01 -3.483554197786847828e-01 8.067343420895903838e-01
1.048947781945525938e-02 -5.640459633441735621e-02 -9.779298952524695387e-01 -7.918223250823102077e-01 1.292083036300679388e-01 -5.969276503683544899e-01
-3.365637594559708207e-02 -2.530891674499247679e-01 -1.025903359528115510e+00 6.560266902982753168e-01 -2.042499174090872324e-02 -7.544612656251310501e-01
-1.019264931862931718e-02 -8.574788513612695284e-02 -9.767323566887760045e-01 -8.862459473476237415e-01 -1.428999595502586373e-01 -4.406219721830125224e-01
-1.327637909135850336e-01 -4.730505179485217787e-02 -9.416481850842934875e-01 8.384380871449333972e-01 -4.082858289262111806e-01 3.610045095601738807e-01
-1.674920239260462365e-02 -2.381333063152613061e-02 -1.009134475194685576e+00 2.622553595795710235e-01 -5.839755814904326048e-01 7.682412684793111790e-01
5.605926890183351996e-02 4.293808111318929747e-04 -9.468114995525588329e-01 -4.137870912016000657e-01 -4.243260915222178964e-01 -8.054362862501273090e-01
-5.956745346110658978e-02 5.280075284744813885e-02 -8.957976011977791808e-01 4.266775163614662247e-01 -6.886275856034033138e-01 -5.862920307983370272e-01
1.225379464276732527e-01 -1.022587370905965604e-01 -1.048189045994855961e+00 -5.573368046006766940e-01 7.481779939276982372e-01 3.600074660890133504e-01
-1.265642879425637191e-01 -4.416821589937072745e-02 -9.485368115617148765e-01 6.911251361330108534e-01 -2.909076548208336943e-01 6.616031911741128146e-01
6.112662936793938212e-02 -1.800870961755453858e-01 -1.075272899533834092e+00 1.144563988278226169e-01 -1.961887203535914725e-01 9.738632957316888383e-01
-9.844310414984264179e-02 -1.380410065387433416e-03 -8.916239387651675452e-01 3.928882997421645484e-01 -1.289424024403718061e-01 -9.105013128923077348e-01
6.129146222042129721e-02 -1.535574689218010234e-02 -1.013745794515162668e+00 1.540496832908838931e-01 -4.978244732420107344e-01 8.534866659294055857e-01
6.158315585334925985e-02 -1.152377721707984193e-01 -1.061821826276941660e+00 -4.352141247037863425e-02 -4.109908255129354204e-01 9.106000373384458557e-01
-5.936747981077545450e-02 -2.048811243697076789e-01 -9.993244335276713075e-01 -1.511135971548742407e-01 4.005102569502752563e-01 -9.037456582648343284e-01
8.951784074151276221e-03 1.754725099811318134e-01 -8.935300578799023619e-01 -9.676664810202075806e-01 -1.629727807262149331e-01 1.925135170639542814e-01
-1.096679427221864192e-02 1.273828129551836108e-01 -8.689534656923664224e-01 7.573304483163972867e-02 1.511959120927572620e-01 -9.855984487036127950e-01
-1.255713499122542709e-01 -9.907541458336110995e-02 -9.677307932323793160e-01 6.838710028743826275e-01 -3.998256968517310272e-01 6.102948988518696050e-01
1.340574944270097879e-01 -2.321732443899635762e-02 -1.005719081964492112e+00 -9.448232506815856802e-01 2.143845050374004746e-01 -2.476859078981890894e-01
-3.538175997742575019e-02 1.902949445267217987e-01 -8.724064281747049288e-01 7.557192623160314815e-01 1.106204305722533476e-01 -6.454854893059349674e-01
-3.501435455275120345e-02 2.292275177043385237e-01 -9.119924117213161763e-01 4.944552348029035427e-01 1.250670620577714887e-01 8.601582707643070647e-01
7.925956800439060146e-03 1.623554088719973421e-01 -9.034143536117289486e-01 -8.717840392902750368e-01 -1.622566925040173358e-01 4.622394991521048824e-01
6.905223699930901349e-02 3.832996212555998122e-02 -9.803400751135410429e-01 1.872474561357000411e-01 -5.831561686573459857e-01 7.904854667402773094e-01
-2.856038643597835075e-02 2.350500520460871989e-01 -9.144042557096706547e-01 5.905893897086162553e-02 7.594320414747597614e-02 9.953615782575951920e-01
1.262787982883045446e-01 -7.255851089162672352e-02 -1.012070119541860880e+00 -7.257128720540862998e-01 3.600031820595568366e-01 -5.862921935707509080e-01
9.857958698037043443e-02 -1.395071077641126533e-01 -1.067572894092840619e+00 -2.933750965999286087e-01 -1.600176906294941692e-01 9.425101545238576684e-01
-2.723769875640241409e-02 -1.672790609981288645e-01 -1.060089928649395441e+00 7.837399679726674284e-01 -1.823249621748665728e-01 5.937249116974424590e-01
1.242405889531825319e-01 -4.313255707055270449e-02 -1.029900568593693944e+00 -1.902219354698669873e-01 -3.962916918710925329e-01 8.982029337627686072e-01
-4.452672863796799246e-03 -1.797915872465770948e-01 -1.072940550404406501e+00 -5.470630747963604879e-02 -1.477115237977983109e-01 9.875163419707421175e-01
5.995989923018677295e-03 -1.196031728191242482e-01 -1.007050336008470603e+00 5.819363259248154785e-01 1.517509821743767973e-01 -7.989504064572711117e-01
-6.833752821589251722e-03 1.029108284301867432e-01 -8.731923515380773937e-01 -3.809118167057080895e-02 1.601271365194667784e-01 -9.863611722026651707e-01
1.049433991811725558e-01 -2.213554260829940848e-02 -9.706000674525137040e-01 -6.871207381204783582e-01 -4.497661241256388220e-01 -5.705922579511304438e-01
-2.296376325308636251e-02 -2.751848314566995302e-01 -1.037055937916512738e+00 2.855420225329775574e-01 7.841736055985935039e-01 -5.509423832400971444e-01
-2.010398026710223315e-02 8.338770253168249075e-03 -9.110627167451738062e-01 -1.200193005348663966e-01 9.289609106144313122e-01 -3.501813730761930143e-01
5.406184943801028986e-02 -2.291921468411747820e-01 -1.053845086418745414e+00 -7.989241443656813768e-01 5.560933597822604463e-03 -6.014060920601691507e-01
-9.337714355034608046e-03 1.077567504599717674e-01 -8.723583328970667683e-01 1.453910561713469239e-02 1.634869983677169347e-01 -9.864383486932004619e-01
-2.071658721590702301e-02 -1.136184129002873328e-01 -1.051152325704312718e+00 6.542274239770123900e-01 -2.244036498544492997e-01 7.222392122063188147e-01
1.193158078289152241e-01 -7.783802549405316636e-03 -1.018196656703591607e+00 -3.717798926475927024e-01 -5.843945590661688838e-01 7.212923892270056703e-01
-1.417633656304867658e-02 -1.949942639313662907e-01 -1.015888957436558604e+00 -8.118943407140697399e-01 4.782043846714433832e-01 3.348852728883016661e-01
6.419007473166461752e-03 -9.458257955414435536e-02 -1.051855160698472957e+00 2.917869434549413832e-01 -3.326229644977140021e-01 8.967844462957501595e-01
-8.067948038630150254e-02 2.664407166071298960e-02 -9.258689591899882387e-01 4.499813562100313802e-01 -5.498978684273905237e-01 7.036541148621198172e-01
-2.104489138074680521e-02 -1.898304049084860792e-02 -9.238894930691979868e-01 -4.241896597976915206e-01 4.912738030655648402e-01 -7.607320046785303047e-01
3.021305448398439383e-02 -1.639740667936925300e-01 -1.067919810751886800e+00 5.152907321098590399e-02 -2.284241442118508936e-01 9.721970813343868700e-01
5.736359259253209081e-02 -1.165541398927185390e-01 -1.062906377215858678e+00 -1.247613254347518241e-01 -4.865595321102614279e-01 8.646932597102900964e-01
2.080296302295536054e-02 6.598894483818540380e-02 -8.999098878934926882e-01 -9.913172880970928524e-01 -1.295238901032723100e-01 -2.266266119282779601e-02
1.004558489130407198e-02 -1.546031085305154540e-01 -1.013156494615125691e+00 6.193016732773405364e-01 3.523951084930256328e-01 -7.016289083169783281e-01
1.303247993918552061e-01 -7.802451715649628972e-02 -1.027189175558652412e+00 -9.656612446711514419e-01 2.354364027088400868e-01 -1.098547259779183577e-01
-3.135896548479219503e-02 1.589090962329455792e-01 -9.061205562439992311e-01 7.369287230578360770e-01 4.745513299589402406e-02 6.743026527344297971e-01
4.932204900863120661e-02 1.863183614259660698e-02 -9.272801263848993170e-01 -1.554944834577097479e-01 6.861059979490855554e-01 -7.106898234761136468e-01
-7.741444402019588555e-02 -1.118207631368691723e-01 -1.009937489302185520e+00 5.175045390893110442e-01 -3.272436540029534657e-01 7.906330646619548208e-01
1.983569086866560430e-02 -4.039081842521655835e-02 -9.627982407905695261e-01 2.081185310116413500e-01 7.906262425722476728e-01 -5.758444421939364899e-01
-1.398013481180632456e-01 -6.028807547912583276e-02 -9.334295010221513866e-01 9.615540791280684507e-01 -2.541379189301361530e-01 -1.040560958042903578e-01
1.157354419094028392e-01 -1.149371010720461467e-01 -1.058374150752617426e+00 -7.915079448201043366e-01 1.731612863074707409e-01 5.861146152511441665e-01
-1.220578575139141253e-01 -8.063899094040113957e-02 -9.609143474830690312e-01 6.786667880402188491e-01 -3.250385648627398538e-01 6.586055892285934688e-01
-4.357058938319268576e-02 -1.370702535945099443e-01 -1.041884155062002382e+00 4.146083492912711055e-01 -1.207869643109140273e-01 9.019481281928142247e-01
2.537831008278210523e-02 -4.401104229301375237e-02 -9.688943817252588797e-01 1.427931105848113669e-01 9.792727919080587151e-01 -1.436486219847231127e-01
-3.059615078264686303e-03 -1.498381733949419141e-02 -1.002680204466837477e+00 -7.879167831933420185e-02 -6.215126504977585009e-01 7.794317780914975513e-01
-5.221858183721567875e-02 -1.152312042029174227e-01 -9.679362942084724919e-01 -3.838342860117062716e-01 3.981746495444832279e-01 -8.331435586632182089e-01
5.100620100852756161e-02 -1.637432073494336227e-01 -1.024701453283463515e+00 -3.801164435915062034e-01 1.334853165146473175e-01 -9.152557891575064941e-01
9.924641968008102166e-03 -3.004815903999724092e-01 -1.078899373739116152e+00 3.941715085389688733e-01 6.625074339213563590e-01 -6.369558241001124221e-01
8.202756949368271433e-02 -1.752542012332039267e-01 -1.074831241885350508e+00 -3.353635022792912368e-01 2.837302316012569880e-01 8.983476370617694551e-01
1.375472737704109584e-02 -2.723037994212346505e-02 -9.452018781439115447e-01 -9.518997419063045529e-01 3.040416930903657167e-01 -3.802012916146520899e-02
2.384705436955251306e-02 -1.495060172623673307e-02 -9.416701882366382836e-01 1.481872365997471686e-01 5.192709765214030826e-01 -8.416639447258262852e-01
-9.971321656416086421e-02 -1.051388221681161528e-01 -9.324148322342342698e-01 -1.655761928155725926e-01 5.291892733283681816e-01 -8.321918272651407378e-01
3.211333804165125705e-02 -2.102385319488304649e-01 -1.035930546311686129e+00 -8.159412434776599499e-01 -5.088965138246358544e-01 -2.743432620081311946e-01
2.141196626022138366e-02 -2.194544611823142088e-01 -1.080297147974932592e+00 5.549990921680302003e-02 -1.348534283904020137e-01 9.893100186131148499e-01
2.647309184362952109e-02 3.437795072458345313e-02 -9.118410597876974721e-01 -4.927140351922303929e-01 2.111561967348345448e-01 -8.441835938378980941e-01
3.752492436034707973e-02 -5.549348342771977943e-02 -9.865952533527261314e-01 -4.441628777788314553e-01 -5.818252286139780072e-01 -6.813213201944580133e-01
-4.955684352377436042e-02 -2.395010190409329887e-01 -1.056466340073022536e+00 2.498993502825185564e-01 2.735389601849620433e-01 9.288308521950080499e-01
-1.373400280179526145e-01 -5.469038605307217221e-02 -9.266376409611208897e-01 9.523479710048000646e-01 -2.134761430804760496e-01 -2.178560957570946921e-01
5.955016711443009841e-02 5.193489814059065734e-03 -1.002554459211763449e+00 2.819521253110486847e-01 -4.160120447636486696e-01 8.645443757518468386e-01
1.107538748108810069e-02 9.407149046491676547e-02 -9.249519859869090865e-01 -4.046693498328889915e-01 -4.774967744792042446e-01 7.798971391586089208e-01
-1.026721336695046033e-01 -1.585422735148196011e-02 -9.504260011533293140e-01 5.426540333280578388e-01 -6.097624547301419007e-01 5.776818751824075449e-01
-8.035726274328337804e-03 -4.459696840285370771e-03 -9.959724421791603666e-01 -4.749940111646410584e-02 -5.572215604338315309e-01 8.290041854425481693e-01
8.404878836013046639e-02 -7.293837206768876390e-03 -1.015530829441475991e+00 2.269824629863293752e-01 -3.183497669468375313e-01 9.203979505526691529e-01
-1.113740114264799574e-01 -5.504575718512524224e-02 -9.162273847919328862e-01 -1.835357697290329049e-01 7.890100027186029985e-01 -5.863257088342290757e-01
-1.187810711781683570e-01 -7.857141263324918246e-02 -9.196001101263876487e-01 5.155146014544577104e-01 -2.498376981613128003e-02 -8.565164954237752815e-01
-8.034597734302677263e-02 4.030013237356576405e-02 -9.122410301496278739e-01 4.668047207847098590e-01 -7.338164638128866768e-01 4.935653453092702647e-01
9.031762057807057875e-02 -1.740053961881388861e-02 -1.020424943248013028e+00 1.541433297365143174e-01 -3.054916215558023951e-01 9.396354096440526771e-01
6.845505682776148459e-02 -2.239844869658254647e-02 -9.557618747866274411e-01 -1.526880719626267924e-01 4.422169747942481521e-01 -8.838158744241692011e-01
-8.429498239688167083e-02 -8.098822415801500141e-02 -9.223596558307619597e-01 -3.549881394785459054e-01 4.671616597145493155e-01 -8.097798494173018558e-01
5.710663972596864008e-02 7.038726034886408356e-02 -9.310034794042311157e-01 -4.594694931144073791e-01 -8.095300837820068596e-01 -3.654433312417761925e-01
6.747280665578977987e-02 -2.100101598057236563e-01 -1.077851623955736082e+00 -6.770380710222070331e-01 1.700006109148361200e-01 7.160441625173067370e-01
-6.795470146779909737e-02 -1.655244679402650132e-01 -9.817098512141209099e-01 -5.049254706914068080e-01 3.392614267035436448e-01 -7.936951262280355079e-01
2.032231128915623977e-02 -7.128918806465940616e-02 -1.037030559386584283e+00 1.004522939140772286e-01 -4.191832509878010704e-01 9.023274010793963518e-01
-4.473457227432340449e-02 -8.889452803464715711e-03 -9.747632895254548790e-01 4.810002692480472852e-01 -4.957939356872929637e-01 7.230678490425433980e-01
5.538047451217382317e-02 6.777495693386521858e-02 -9.507741381878871412e-01 1.631567288834663287e-01 -7.554412542350420479e-01 6.345773343098801700e-01
9.904833109743432784e-02 -6.365396266173645179e-02 -9.869713264984772971e-01 -2.185312692094271148e-01 5.787177907803916499e-01 -7.857033810618225811e-01
-4.668785180475052560e-02 2.247848749409055991e-01 -8.855635027677902782e-01 9.817697194975856245e-01 1.429082137484686266e-01 -1.253214280195292241e-01
-2.657017140268969763e-02 7.996342119563709661e-03 -9.047520349666169359e-01 -4.152995154961391933e-01 7.029732302345236272e-01 -5.773689894706083292e-01
6.990025186193524198e-02 -1.526039562378790349e-01 -1.075764321684985925e+00 2.655687551107261957e-01 5.506956168933827694e-02 9.625178334370141364e-01
8.509909738116658295e-02 -1.772957141773496836e-01 -1.054468470949637915e+00 -9.487432157898766372e-01 -2.905716746406867834e-01 -1.243157769118228700e-01
9.602931376285003817e-02 7.228842278010115877e-03 -1.012618900781330655e+00 -7.515502615996705327e-02 -6.515108799300515230e-01 7.549074747117453521e-01
-1.626812333264312724e-02 -6.984821546492485378e-02 -1.035349454085913834e+00 2.371127218419955551e-01 -3.903148934509319545e-01 8.896245506341806664e-01
1.489878729002511518e-02 6.512131417204018724e-02 -8.847953839503691631e-01 -7.242882560778770573e-01 1.029795580960461143e-01 -6.817636927279208114e-01
