8.997933238323080340e-02 -1.542954930631369181e-01 -9.254787720493503622e-01 -8.015682602807291390e-01 3.756543034337576914e-02 5.967220144704251661e-01
3.741657875216727186e-02 1.853893166732460684e-01 -8.418697470356877322e-01 -6.362671682863517419e-02 9.989965546867136947e-02 -9.929610766504644026e-01
8.067566651277890966e-03 -2.611057696838592901e-01 -9.964011465504166720e-01 -2.307283328649143983e-01 1.357151375308516539e-01 -9.635070512758893146e-01
-1.021793519950255427e-02 -1.915215962521969184e-01 -9.870705660099954315e-01 9.225385800893727284e-01 1.840937686482169156e-01 -3.391637548317638085e-01
3.503398967721373103e-02 3.648080753615189076e-02 -9.272766854726171015e-01 -9.721618868883501463e-01 -2.333758481542487218e-01 -2.090404697582810140e-02
-1.156458905866538343e-02 -1.954838459505139625e-01 -1.017827346780689091e+00 7.477172189495736587e-01 -1.462020402379256637e-02 -6.638563173764470138e-01
-4.106732988182765914e-02 -1.156352139694795528e-01 -1.073075613294542041e+00 -4.297528443355093652e-01 -3.101585657243085548e-01 8.480059887131572438e-01
5.069501664727896900e-02 1.275197518384177907e-02 -9.121264831733678635e-01 -8.151160861004962399e-01 -5.629873841399506418e-01 1.364953166942527163e-01
4.089359855281816947e-02 1.461988910037079203e-01 -8.567175593733100669e-01 -6.547370808748431692e-01 3.382652346053395820e-01 -6.759408154453195872e-01
7.252795305704243245e-02 -6.673481421232849153e-02 -9.216405922501567094e-01 -8.635350793211167275e-01 -2.523087608613115429e-01 4.366319456641968855e-01
-3.989653233408017863e-02 -1.868407975782540864e-01 -1.027724263738389210e+00 -2.270007742612869528e-01 8.602377737627554533e-01 -4.565759751415687795e-01
-9.573011497827245767e-03 -9.021274407833531836e-03 -9.052630554861037515e-01 -5.386662092579872635e-02 5.936337990435971435e-01 -8.029304451713750179e-01
-3.149204474713664104e-02 -2.683454045812048300e-02 -1.033356227289212503e+00 -5.031542113204011679e-01 -5.274912730199811106e-01 6.845354603804720828e-01
7.755166227901034992e-02 -1.931516603596919734e-01 -9.336502232022479975e-01 -9.232693246030609924e-01 3.736674424926199611e-01 8.914256372817933038e-02
-3.567198525323142522e-02 1.864108922669888493e-02 -9.413059573557310822e-01 8.205479958289617626e-01 -3.217476712292668406e-01 -4.724186941682325669e-01
3.768825262926647074e-02 -5.473731224224437364e-02 -9.911560999664342786e-01 -8.237371170576607282e-01 -2.679773549625706353e-01 4.996451733068160705e-01
6.147295343625599345e-02 -8.771225944817750975e-02 -9.552921821290797366e-01 -8.222463287387449249e-01 -1.311776236550055430e-01 5.538080948558637973e-01
-3.380084246907436030e-02 -2.458825080051122991e-01 -1.077590516367428419e+00 -1.047598495048936290e-01 2.610307348949161485e-02 9.941549192586205397e-01
3.004289193772693989e-02 2.282025683074163647e-01 -8.509136702181772094e-01 8.580044401106748930e-01 -3.444655329963043910e-01 -3.810142744411803561e-01
-1.580219349302981182e-03 1.529277127526879332e-01 -8.622919957568033755e-01 8.805216262285293638e-01 -2.482501317064172708e-01 -4.037988829251665801e-01
-9.374536469323749288e-02 1.615841026680726530e-02 -1.038696765773614805e+00 7.515187218257426416e-01 -5.296728651787258046e-01 3.932763235166357729e-01
-6.549088649749268409e-02 -1.913956505564517463e-01 -1.076178277778744530e+00 8.929644518024767441e-01 1.571589521051123817e-01 4.218003693577395130e-01
-5.838847392099317385e-02 -1.290791534445021316e-01 -1.042746177296964394e+00 -5.502935569789803999e-02 7.665695013862918739e-01 -6.397991634535371563e-01
3.270314307116187202e-02 4.223515852064690240e-03 -8.495088523785216950e-01 5.297889318738127074e-01 2.509423434316255391e-02 -8.477582008254093138e-01
-1.753354260040387858e-02 -2.247589444148129501e-01 -9.981169078602863953e-01 6.996864087336271965e-01 8.982309751980437074e-02 -7.087811655125914045e-01
7.450116563184749907e-02 -1.991236534875743536e-01 -9.371756138168290118e-01 -8.468934469501463447e-01 5.309495026165700349e-01 -2.939583616971614202e-02
-3.833384630038420837e-02 -2.823391896937469392e-01 -1.048681262581810048e+00 2.433892163609993262e-02 4.526410559316152993e-01 -8.913605843757643754e-01
-7.046147607009360658e-02 4.261121327014840560e-02 -1.025209674710930718e+00 -3.277837096072439005e-01 -5.812540299341301120e-01 7.447829162926923319e-01
-9.900381550778036225e-04 2.522735678960375330e-02 -9.748078938752708922e-01 -7.161047015676350602e-01 -2.165611067367539666e-01 6.635475442209702868e-01
6.059336796185912921e-02 -9.443736770098271061e-02 -9.582244540695508128e-01 -8.379683630505306846e-01 -1.232261449512643964e-01 5.316242467446946618e-01
2.132486266119463028e-02 -7.239006067021881707e-02 -9.095542781308987301e-01 9.036661269014354403e-01 4.014685830248577170e-01 -1.490319024067388587e-01
-2.176015328698185924e-02 -2.047833203593025231e-01 -1.020440649955847157e+00 -4.278625746658321072e-01 2.768515418108281612e-01 -8.603992334941336084e-01
-3.560139580602345033e-02 -2.928649417705522229e-01 -1.057026641334813721e+00 5.785582724552087441e-01 7.584030752946996357e-01 -3.001584594130017880e-01
-2.145822680475632793e-02 -1.070076880311913031e-01 -1.000266507724412612e+00 2.744312679944257427e-01 8.825572499782669000e-01 -3.818117070727017337e-01
-6.147080523220020687e-02 -1.877553655083702075e-02 -9.757230638785200361e-01 5.928480484447069543e-01 3.859884402977897255e-01 -7.067843485899939493e-01
-6.712935564952204892e-02 -1.987466346055714317e-01 -1.059285156086644308e+00 9.748123683910088211e-01 2.121497858268989178e-01 -6.879909015032745212e-02
-2.177292753410457055e-02 -1.970861857176133825e-01 -1.076065022635435797e+00 -7.768078599283529950e-01 1.819957852194478976e-01 6.028657254446373459e-01
4.474524191233122256e-02 4.795562189815603948e-02 -8.762457622948024438e-01 -8.297004666577769694e-01 -5.400256571621611101e-01 1.413132167719750032e-01
-6.130703907990314033e-02 -4.417294324265139821e-02 -9.988334846592453742e-01 -1.004555470589285487e-01 9.716304869905920683e-01 -2.141095042624607259e-01
3.576723140114134586e-02 -2.014932873467657759e-01 -1.015770693635121624e+00 -9.735468106184433923e-01 -2.115789583450440325e-01 8.626095246566040098e-02
3.688376741683934562e-02 2.414057491879197936e-01 -8.491679153616830122e-01 7.585316252115863467e-01 -3.799773564900845724e-01 -5.293835869279259754e-01
5.420905297670804840e-02 -2.316419965636757304e-03 -8.411714003989648747e-01 1.069484544434506773e-01 -1.023174456316494479e-01 -9.889859293294176457e-01
7.460987965434379143e-02 -1.134558736626203879e-01 -9.414198013382489849e-01 -8.157269340112375255e-01 -1.343399519512589180e-01 5.626209616059106855e-01
1.226224929960809985e-02 3.899105719722667507e-02 -9.529508558775228177e-01 -5.450251552668665678e-01 -6.255021162141420898e-01 5.582962320649833554e-01
-8.523644093577752157e-02 3.570929761587928603e-02 -1.027853994427536222e+00 6.401372252258350493e-01 -5.794244347296889641e-01 5.044716615612309107e-01
-6.786762912879121257e-02 -1.599048051537144965e-01 -1.048706107731948833e+00 8.017533909776402012e-01 1.042822242452240283e-01 -5.884868033884226302e-01
5.520727383466802161e-03 1.358903128514575287e-01 -8.973777783180677536e-01 3.408056863279023130e-01 -2.795569751337601550e-01 8.976075878804888886e-01
5.457275683534600769e-02 -1.490643776779474461e-01 -9.915703613846569286e-01 -7.341089623159129385e-01 8.184742995116046915e-03 6.789823572299632515e-01
-4.137936513892290918e-02 5.202170344045929651e-02 -9.936265348417860910e-01 -6.336917810787872085e-01 -4.659031455437229741e-01 6.175507959396205893e-01
9.482147650652739124e-02 -1.097802850099667965e-01 -8.873916908496128908e-01 -9.504078090776599819e-01 -1.207859196735384943e-01 2.865933670775020481e-01
-1.324420053275349521e-02 -4.721744145656599917e-02 -1.028781736722449436e+00 -6.539398082835484738e-01 -1.922088783507303611e-01 7.317229490901799860e-01
3.402949728417112296e-02 -1.590652668659023883e-01 -1.019141562772411413e+00 -9.067364058514362224e-01 7.408994045792186012e-02 4.151382553156970356e-01
4.655601891518734714e-02 2.599315757605381583e-01 -8.549722655226683621e-01 6.024308954936572480e-01 -7.162988808865259349e-01 -3.521262975061944522e-01
2.458764886135006780e-02 1.914001097239518001e-01 -8.874412218565963517e-01 4.574703702106403536e-01 -3.061822072388513116e-01 8.348492776242216751e-01
5.016298739558665981e-02 1.434394777311540949e-02 -9.097680298983110703e-01 -8.306950681111985313e-01 -5.016725799492488536e-01 2.413924736664253834e-01
2.657142433421466263e-02 -1.194559930276494486e-01 -9.286742157936040964e-01 7.583259055573533525e-01 2.219732918994223037e-01 -6.129189821207642330e-01
-4.391110026291369928e-02 -1.795714176545274224e-02 -1.037556549061293909e+00 -5.578555713187871579e-01 -3.706524165679339622e-01 7.425725201224054883e-01
3.922700298012282705e-02 1.664162950864019053e-01 -8.465725781217410262e-01 -4.826008061212431199e-01 3.002500483048196056e-01 -8.227675069082879267e-01
3.542016926651617159e-02 -1.793251644606450312e-01 -9.545379015024728631e-01 9.746405423945576629e-01 1.223872821338561484e-01 -1.873423771940834759e-01
-5.325825027610254364e-02 6.236206020356012403e-02 -9.970674022083294563e-01 -5.222270337456015321e-01 -5.496868597527361233e-01 6.520147862130476479e-01
4.489054443611208145e-02 -2.180462010377245408e-01 -9.563670561583130780e-01 9.152452690466468879e-03 4.082749827937743325e-01 -9.128131084918160720e-01
1.246243638005787094e-02 -2.859257764907416300e-04 -9.754594177796416243e-01 -6.049389472587993755e-01 -4.463417098047305354e-01 6.594148528642687079e-01
-1.205129931912189180e-02 1.094974680810498757e-01 -8.689509522893437143e-01 8.067094831602884542e-01 -9.220021574233661088e-02 -5.837113413291940001e-01
4.425295128836936182e-02 -1.021135333032853337e-01 -8.773882817202791617e-01 7.691954524817185002e-01 3.472351856731200614e-01 -5.364383298311171666e-01
-1.384629918803072322e-03 -1.768545367861924511e-01 -9.767008213223717927e-01 6.861128643373327618e-01 7.785220318548917960e-03 -7.274534539992317805e-01
5.328640165682975438e-02 1.716560717950423587e-01 -8.765524316594898169e-01 -9.091027984382850091e-01 2.949261738280950507e-01 2.941949249439887448e-01
5.105607827218793535e-04 -1.018200960880904365e-01 -9.672728757356131579e-01 9.626571204975767904e-01 6.504171209916920215e-02 2.627942998668785224e-01
-1.017862197826793248e-02 -5.922563255022587209e-02 -9.639023127587834638e-01 9.894695003560215474e-01 -9.375226574815978542e-02 1.102752036148285930e-01
-1.245480364081559370e-02 -2.423875572011335577e-01 -1.067661407240708238e+00 -4.387846691542962030e-01 -1.077604673233244631e-01 8.921074463299886181e-01
1.029393253374760869e-01 -9.330885924074898419e-02 -8.636343455214838816e-01 -9.361667444972114893e-01 -5.442808894339037917e-02 -3.473174479225929479e-01
-1.835689330588475068e-02 -3.311435997742783518e-03 -1.007163178374440804e+00 -6.628285790696797353e-01 -3.820034956023276029e-01 6.439965870375958801e-01
-9.169598349257310210e-02 -3.993794760732264672e-03 -1.059611848605788609e+00 2.037136291421445533e-01 -2.447783188296687173e-01 9.479368818295117460e-01
-7.751579741500602867e-03 9.208723871871726113e-03 -8.918963390717069561e-01 5.621922963737543272e-02 6.045898745528677232e-01 -7.945504904077070885e-01
3.732855766266016118e-02 -1.316364040614008135e-01 -1.012085446652381426e+00 -8.678867420892996121e-01 -3.906372373588556934e-02 4.952238164643417151e-01
-1.789529395610040680e-02 7.087257279881888951e-03 -1.000694930645550151e+00 -6.701763457565061977e-01 -3.650630470814613115e-01 6.462140800416333875e-01
-6.851110930983683733e-02 -1.920326942815964444e-01 -1.060529232783548048e+00 9.792648445391732848e-01 1.233745925666871884e-01 -1.606831483344559885e-01
-2.246869692709397431e-02 -2.334924072747290580e-01 -1.072191595287718124e+00 -4.742281317935450047e-01 -8.502474306721978514e-02 8.762867522004185172e-01
6.833687839257750196e-02 2.083432911800154330e-01 -8.555480671827477845e-01 -8.710028941349357012e-01 3.731689922359509026e-01 -3.195291248731028655e-01
-4.841022286329398766e-02 -8.743667155386446177e-02 -1.007140161512905419e+00 7.164374801231832013e-01 2.733156610306697321e-01 -6.418846364496594292e-01
-4.863325656205300801e-02 -2.115909599007745334e-01 -1.040345806966270104e+00 6.550230866864087398e-01 -7.535232804756523128e-01 5.610188667969320808e-02
-3.816125497034505987e-02 -7.874001497951527151e-02 -9.915338485166693694e-01 7.066834687627275846e-01 2.729015971505258653e-01 -6.527811220081133348e-01
4.885612725162584435e-02 2.167287627907593384e-01 -8.391428282038300157e-01 4.428312232526419867e-02 8.384000012824012471e-02 -9.954947812297271215e-01
3.916786964918127223e-02 -6.745594123646236895e-02 -8.665350021891180532e-01 7.582809790960888252e-01 1.454385935334973623e-01 -6.354978931924756269e-01
9.738039945283098742e-03 -2.278423216625830028e-01 -1.055059557953290872e+00 -8.007377013375509556e-01 9.709229668503024935e-02 5.910940869109428952e-01
6.460135106145172001e-02 -5.839543589644088928e-02 -8.419542856442048251e-01 3.122031690278432303e-01 3.094135574177519499e-01 -8.982162499838574066e-01
8.105435397945724360e-03 -1.581170499423458220e-01 -9.686676893673731303e-01 6.113463733976783887e-01 -1.957499321141898188e-02 -7.911209966713557140e-01
-2.376488603190254206e-02 -8.258928605441756207e-03 -9.271461530595567213e-01 9.690614258952504612e-01 9.705966295113113707e-02 2.269347365867039890e-01
6.896430892760277431e-02 -7.087564240172719576e-02 -8.453922040301733443e-01 3.029318429509448296e-01 4.372273647191148860e-01 -8.467966285166246276e-01
-7.586115153102551689e-02 -1.219901002094022019e-03 -1.053749975442934028e+00 -5.101757803394599833e-01 -8.864547832751068501e-02 8.554897149160296532e-01
9.702988020054686968e-02 -1.037748600400462823e-01 -8.598464298519127302e-01 8.593074763884388234e-02 5.775250813422342366e-01 -8.118378452812328172e-01
-4.032574962070045732e-02 -2.204224318551561423e-01 -1.083432930473426259e+00 -1.058311483125239094e-01 3.189627808338923454e-01 9.418399611874423982e-01
-1.878375873908057561e-02 -2.109186717039141234e-01 -1.069280052595381170e+00 -5.894323817622558748e-01 9.419483815094648049e-02 8.023071729679295272e-01
-1.729442251717146564e-02 8.914331492771573884e-02 -8.721072017706049673e-01 7.736838962155729860e-01 -1.269219994800508677e-01 -6.207286321611694691e-01
5.564045400086427284e-02 -4.826179139045512489e-02 -8.425673894038311351e-01 4.506392986027308867e-01 2.074218776615889270e-01 -8.682743732381945634e-01
-2.414070161405670878e-02 -1.890601234138589715e-01 -1.021691520368589234e+00 6.133849760885518032e-01 -6.994214743310690485e-01 -3.668357566451238561e-01
-2.938890412576237315e-02 -2.772674542596803016e-01 -1.023371025697215275e+00 8.224301316020686814e-01 4.015054472298407173e-01 -4.029913826346286365e-01
3.794697421039529284e-02 -2.078130467329795950e-01 -1.006859814635539196e+00 -9.589170246717576562e-01 -1.322071761111838217e-01 2.509968174686090792e-01
5.643323441989123168e-02 -2.159435665337263999e-01 -9.454416725047551928e-01 -3.116286834659267035e-01 8.175413563634034153e-01 -4.842661399238853415e-01
-6.542718442333812778e-02 -1.703374535174441984e-01 -1.047213207170389460e+00 8.311754249789808924e-01 1.017032677267529633e-01 -5.466295438820620856e-01
-1.474193563235585633e-02 -1.278929019309403559e-01 -9.926523980760635357e-01 2.136383348464475085e-01 8.043015478397133600e-02 -9.735962469553093301e-01
-3.252859711016239247e-03 -2.929181932224869112e-01 -1.064489368494832444e+00 -8.756999794943273185e-01 1.125934513527902942e-01 4.695447376194324951e-01
5.419922295264548856e-02 -1.780122450963236846e-01 -9.882194022475140338e-01 -6.562931461356811269e-01 1.299564977110414243e-01 7.432298534356714947e-01
7.923482380672197678e-02 -2.177787910887223760e-02 -8.826100287890774609e-01 -8.606263537258019847e-01 -4.786147726271901548e-01 1.739257850223890622e-01
2.484720340250873988e-02 -2.252357279047889627e-01 -1.027697750243398156e+00 -7.681281011820351168e-01 1.567813305937913460e-01 6.208049891485420968e-01
-9.125778554776135809e-02 -8.497767842206575134e-03 -1.003140104042570924e+00 8.632538691245342788e-01 1.885030807223528060e-01 -4.682513705262416615e-01
1.299990466140718386e-02 -2.461617679540832604e-01 -1.041583330807924979e+00 -8.712822478348594135e-01 1.275366516849832377e-01 4.739215621648988352e-01
-4.705426794371234817e-02 -2.139758532513310052e-01 -1.084788720977757137e+00 3.775801321511705333e-01 3.443247826777264819e-01 8.595776217646903250e-01
-8.773183169513264212e-02 1.488311657076183542e-02 -9.981185586813238197e-01 2.003000105358550553e-01 8.740549260169218071e-01 -4.426148349128051773e-01
-3.532546351776889859e-02 -1.753992551953783285e-01 -1.074666284088880319e+00 -5.410102210248667332e-01 -1.849646730927643201e-01 8.204242868505976505e-01
3.512640996363607104e-02 -1.022139312788291898e-01 -1.015695554302679549e+00 -8.179718008339752489e-01 -1.483374837568207927e-01 5.558040337683047838e-01
3.275907037272977190e-02 2.013905985747821703e-01 -8.419021855124139142e-01 2.588917285873966190e-01 -3.159467926358906775e-02 -9.653894805265182955e-01
1.648708529313496970e-02 1.564479165911848990e-01 -8.466523224155064753e-01 2.765038611956133208e-01 4.699782988234918468e-02 -9.598629166345926667e-01
3.433486648502855759e-02 -1.297590033541428101e-01 -1.020607189774134227e+00 -9.648485188595434803e-01 4.462056978680456476e-02 2.589910044894341290e-01
2.358973396114889473e-02 -6.607345120123468696e-02 -9.343328864634621311e-01 8.541273908167481554e-01 2.776749836458983212e-01 -4.397306035674845015e-01
2.276133228742791004e-02 -2.184977115832901773e-01 -1.032585880138903400e+00 -8.236815383908464572e-01 1.499473203770937957e-01 5.468679222863758183e-01
-4.530816585745133657e-02 7.843120236132853154e-03 -1.028717526293411177e+00 -7.020298436797866026e-01 -1.969913004482145569e-01 6.843599390164913920e-01
1.919938007082179487e-02 -2.687748541368276123e-01 -1.014924500573471722e+00 -7.351352118766120158e-01 6.779115623356015696e-01 3.483376355269755288e-03
-5.961641292317668844e-02 2.178610252945760786e-02 -1.036926392599374358e+00 -3.128325057742449289e-01 -6.338533084670777695e-01 7.073653982747152291e-01
9.383143920094347973e-03 7.938517979473090624e-02 -8.658652095593968312e-01 -5.091890679075663506e-01 4.768683935765460902e-01 -7.164656504893645028e-01
1.358859267749556662e-02 8.016667654639568485e-02 -8.684720255134975586e-01 -5.133060908857756122e-01 5.205781667255163780e-01 -6.822867647758267262e-01
-4.751974394863108658e-02 3.376349599097599324e-02 -9.327771610000213931e-01 7.323133435284777670e-01 3.126263678508306443e-01 -6.049643964850650590e-01
-4.749811427234583265e-03 -1.438892448866943008e-01 -1.050866906263798750e+00 -5.657084149357176628e-01 -2.328363633027290269e-02 8.242765686043473927e-01
1.011284935129095203e-01 -7.456757692843453411e-02 -8.759539457558690456e-01 -9.598958559781227695e-01 -8.579198048160621703e-02 2.669076277686169285e-01
-6.723526657102013582e-02 -6.307697281652305255e-02 -1.026759556727830480e+00 8.104792138949022950e-01 -4.996589307676820857e-01 -3.057194739436762121e-01
-5.772849966915268721e-02 -8.634515500785039377e-02 -1.016742683777991596e+00 6.914775403991312297e-01 2.707268789148269961e-01 -6.697505268057684091e-01
-6.447517621745139926e-02 -2.060305475383591156e-01 -1.070285726191888998e+00 8.755431406972206121e-01 2.776627809202272257e-01 3.953828383601054042e-01
9.429879103629000558e-02 -1.180307083837085907e-01 -8.931991197566305773e-01 -9.513625795130852270e-01 -1.469826797476966040e-01 2.707495783124969080e-01
3.461179422844691544e-02 2.286668407185668828e-01 -8.446206611221154237e-01 6.542625710196736666e-01 -2.999764874065696252e-01 -6.942294974761176185e-01
-5.684973163088004322e-02 6.406052240357144878e-02 -9.980787221644580320e-01 -3.085317997697676340e-01 -6.970037651670202283e-01 6.472973658789485940e-01
-3.959427718442300875e-02 -2.007613733398631028e-01 -1.085519130139326549e+00 -1.205310377830335483e-01 -2.613829476010779418e-01 9.576801259472377259e-01
3.139398405880636234e-02 -1.585838008184006498e-01 -9.367148246930709909e-01 8.734448708179831655e-01 1.622196898470126547e-01 -4.591065561149131335e-01
3.171699847775157760e-02 8.372267144104442171e-02 -8.839421726450743533e-01 -9.632879843762742755e-01 7.931817036101580787e-02 -2.564856467853033894e-01
-1.900603419024360016e-02 -1.593228623225226293e-01 -1.002528644374765410e+00 -1.981627851105024485e-01 4.354606953030150107e-01 -8.781261261592571143e-01
4.531424118870330808e-02 -1.022444050904437601e-01 -9.152210329214744977e-01 6.169362839516254748e-01 2.731304173731156637e-01 -7.380985006417143390e-01
5.404171243912908595e-02 -1.121124384549726793e-01 -8.722645007989171528e-01 6.082680226394916456e-01 4.164782903507516787e-01 -6.756891639657673920e-01
9.020731093381062493e-02 -1.142901765713800893e-01 -9.060723898350949712e-01 -9.530576507395976948e-01 -1.662456036441733453e-01 2.530681995741534407e-01
-1.840421258124475337e-02 4.457422340806745098e-02 -8.764977188443534573e-01 4.240509901673752968e-01 2.756258892773187918e-01 -8.626767221260557283e-01
-9.468699737108553227e-02 -6.935290340519571772e-02 -1.072412928742942029e+00 8.515073782432265315e-01 -3.097408458367847603e-02 5.234269680495551302e-01
-9.834619760383477016e-02 -8.847042928932532732e-03 -1.024488856210429066e+00 7.708443038846507500e-01 -6.299899319063667624e-01 -9.440203845892214396e-02
-9.121469239146649810e-02 3.061806667515344638e-02 -1.024769823276548530e+00 8.048192989181692791e-01 -4.877417588314749142e-01 3.381920649288591152e-01
-2.790364409974186582e-02 5.280826582451558088e-02 -8.990816418874063576e-01 9.498414483848321987e-01 -2.578777533538454403e-01 1.769188719593746129e-01
5.144333146812724022e-02 -1.838838022763692737e-01 -9.896412546766943930e-01 -6.826051886685629011e-01 1.492684711082470361e-01 7.153803743015055838e-01
2.420634390797198748e-02 4.060729279057494201e-02 -9.435554428420528383e-01 -3.730725317608046820e-01 -5.684388104197630742e-01 7.332763495805303400e-01
-7.215921156159807448e-02 -4.886472631559733021e-02 -1.013733945660716174e+00 -1.917390732436725087e-01 9.397703906144934116e-01 -2.829624369345519752e-01
-7.297339881936720785e-02 -1.594992933552724090e-01 -1.059139346498717549e+00 9.478270108390071114e-01 -2.408193558071010376e-01 2.088779437677546758e-01
7.620192401749618927e-02 -1.359431651375221928e-01 -9.442401524489454356e-01 -8.400311449882044146e-01 -7.180285723784773921e-02 5.377657716350934258e-01
5.531396233714363023e-03 -8.215268093845377873e-02 -9.438696835292885723e-01 8.206310434189310055e-01 7.761917596035070033e-02 -5.661624803008344919e-01
-5.072592740465037969e-02 -4.669040219388386100e-03 -9.589953707327617538e-01 6.569752362529139855e-01 3.184110545003359105e-01 -6.833724748059524234e-01
5.657012599026708249e-02 -8.896261542084103746e-02 -9.631517714016504250e-01 -8.458705217838472512e-01 -1.535022559440904488e-01 5.108229808820244910e-01
6.430398967935026244e-02 -4.567689332723764116e-03 -9.040499061015158100e-01 -8.245834597170099700e-01 -5.405172237867861273e-01 1.670426554834176791e-01
-7.835307968568362138e-04 -2.067416551485116993e-01 -9.945749694506343941e-01 9.359628940163805533e-01 3.033060489651773772e-01 1.788264568949884947e-01
9.015772103343677735e-02 -4.128365507572338139e-02 -8.812321921428772908e-01 -8.944639252517884165e-01 -4.423080153082071253e-01 6.555841683016842836e-02
-2.914059033312240560e-02 -2.530641779874892583e-01 -1.023166542667429901e+00 8.086342388120260072e-01 -3.329600223080100285e-01 4.850240111226914452e-01
-5.143003175353676876e-02 9.040520997115896601e-03 -1.034509163098320528e+00 -6.726565642195598826e-01 -8.513437821778403747e-02 7.350410085551747352e-01
3.610648472652624227e-03 -3.694244924405388347e-02 -1.011806245712233654e+00 -6.998180740387841547e-01 7.790542914648676542e-02 7.100601434795145162e-01
1.309886964952436568e-02 -2.285462335273087398e-01 -1.047826435163324410e+00 -9.133863405226484433e-01 1.619865230161817993e-01 3.734779234543488813e-01
-1.083732526973336073e-02 -2.375129302976695944e-01 -1.066306611800299287e+00 -4.625812881383607467e-01 -8.175565037076767960e-02 8.827992781469113925e-01
4.837189657175094276e-02 3.910951396591674789e-02 -8.814244621448726891e-01 -8.171237366623352871e-01 -4.800396420258046803e-01 3.191719615923677145e-01
-5.956133637006088416e-02 -6.045772918661750095e-02 -1.013796825207736507e+00 7.350670126676773775e-01 -5.516546774148176624e-01 -3.941492151129701860e-01
3.195781235471438497e-02 -8.484654384563740381e-02 -9.109787589301052702e-01 6.088981200672028971e-01 6.307860507057053701e-01 4.809906834999259084e-01
-2.514955993384542995e-02 -1.070070113352882962e-01 -9.998173031298182023e-01 -1.238005359356741386e-01 9.757952611556806044e-01 -1.802693418420252824e-01
3.375789836129987342e-02 1.922013809096710657e-01 -8.415674888041971835e-01 8.552220692046164086e-02 3.410706609407634926e-02 -9.957523086420176917e-01
3.309483982172264915e-02 1.910092583289380377e-02 -9.478114959839294418e-01 -8.155630867648979709e-01 -2.372512044185359770e-01 5.277960946316914148e-01
5.317381025570474401e-02 -2.121391539655230821e-02 -9.286778359535453609e-01 -8.353246013030347639e-01 -2.846736188151656188e-01 4.703123868330537638e-01
-2.221094799331886291e-02 -1.933523726653438024e-01 -1.017086024795673227e+00 -1.165615137541507473e-01 1.228477382348161367e-01 -9.855566177150509866e-01
-6.922856902514419597e-02 -1.556820222364354300e-01 -1.050523951626533892e+00 8.694920067197012825e-01 5.423743432650122293e-03 -4.939172332058518466e-01
-8.539388288519123710e-03 -1.437036613172903154e-01 -9.964305527801714524e-01 4.596977896843961187e-01 1.482000583420391981e-01 -8.756224556660804348e-01
-3.155683901722212276e-02 -2.742842567937617271e-01 -1.029680447417459455e+00 9.890023718903914185e-01 7.598554976145700801e-02 1.268877638806397978e-01
-4.498334339409974791e-02 -5.962845502609014775e-02 -9.943128578558835251e-01 7.742564818067906307e-01 7.969875310938921709e-02 -6.278335839479913805e-01
-3.111401739414967893e-02 -1.259223283811584382e-01 -1.008653081089747605e+00 7.814037414687867722e-01 -1.464743912286773087e-01 -6.065916629271869143e-01
-2.130501561234579219e-02 2.139982207197858172e-02 -9.980755302203994095e-01 -7.486804221087725031e-01 -1.078688543683600370e-01 6.540962741128312219e-01
-2.744174010623949903e-02 6.042876242445942292e-02 -9.071218644905680861e-01 6.312832464924198472e-01 -7.048423026461798913e-02 -7.723428228332254175e-01
-1.009987893076364635e-01 -1.443151928000630663e-02 -1.043022945571431492e+00 7.653727111897273838e-01 -6.145357392555601539e-01 1.911816888295219119e-01
5.058242335483945085e-02 -5.187966259475712549e-02 -8.516361671362516761e-01 8.088384408823241500e-01 5.822534535677731382e-01 8.222707801844982012e-02
-9.050380824089499995e-03 9.877807041905981023e-02 -9.025294916590473893e-01 8.098974025367342566e-01 -2.293962814723233545e-01 5.398551133507227817e-01
6.919433430373975180e-02 -1.186977509739109010e-01 -9.510597127294387887e-01 -8.426804900032405232e-01 -1.595925010482649731e-01 5.142176828708425740e-01
4.926296018957890960e-02 1.640537951432365082e-02 -9.085811013480837861e-01 -8.306950681111985313e-01 -5.016725799492488536e-01 2.413924736664253834e-01
4.741109457722217368e-02 2.288788506753443308e-01 -8.388145012773718934e-01 2.607492824384105568e-01 -6.865813187467402490e-02 -9.629620307339921137e-01
-6.824576696979967050e-02 -1.793326457229633131e-01 -1.075721977951589858e+00 8.726174709095224635e-01 2.356207169891081921e-01 4.278102700836058370e-01
-3.871285429246421050e-02 -8.447669949734286365e-02 -9.947354443501645882e-01 7.072861848748320801e-01 2.996219876298196194e-01 -6.402912752911451566e-01
-7.404844408553053203e-02 5.641754788407978699e-02 -1.007220896738805882e+00 4.183537218769581290e-01 -8.224714103715998759e-01 3.853841492758212084e-01
4.031872842367625887e-02 1.928915077011703061e-01 -8.413068601486022313e-01 -1.802961925068007412e-02 6.862029038023308158e-02 -9.974799188844897246e-01
9.905282432702547379e-02 -9.645346480163384528e-02 -8.576630701563208170e-01 -7.110089513963075980e-01 1.095151918881751424e-01 -6.946025437471556874e-01
-2.556523296480534002e-02 4.351171799470301971e-02 -9.849780801434844246e-01 -5.364529645464851670e-01 -6.491816790762189315e-01 5.392414713104594082e-01
7.906130479511681158e-03 1.470863826998683177e-01 -8.949641108578649806e-01 4.357627441076074026e-01 -3.020889661575865692e-01 8.478520433269287615e-01
1.913351146408326852e-04 -2.250570438214208047e-01 -9.806153751830957166e-01 7.790010647049745440e-01 2.166939167781071207e-01 -5.883885515710507441e-01
-3.666675692003298903e-02 7.288004216051674478e-02 -9.714545675701576899e-01 -6.341368941011696903e-01 -5.731001429769100319e-01 5.190632193284044904e-01
7.943962352487499157e-02 -1.890986160402416405e-01 -9.303171798020338779e-01 -9.278787460730739678e-01 3.641997871133835218e-01 7.999717277770593271e-02
-3.775070756147320267e-02 -2.372190573211776787e-01 -1.024630973629338415e+00 -3.581339915722382694e-02 3.010174551700886547e-01 -9.529459019922007501e-01
-8.149450089917666118e-02 -7.672984604259149022e-02 -1.044497560592293040e+00 8.917703086752707398e-01 -3.372740307379122338e-01 -3.016487108459350863e-01
2.353018091935556166e-02 1.888810708879135047e-01 -8.439882691348644661e-01 4.050632826979870260e-01 -9.499082407662151617e-02 -9.093406844253559829e-01
-5.015802718048854858e-02 -2.102359862987212002e-01 -1.048403010800265767e+00 6.670002373795812511e-01 -3.766019581573298858e-01 -6.428698534288626032e-01
-1.680736440782957392e-02 -1.817996690704242746e-01 -1.067853891053443416e+00 -1.953910570369804534e-01 -5.621026057033496892e-01 8.036560181392757851e-01
-3.320526496161466806e-02 -2.946562461691608625e-01 -1.058197136494336110e+00 3.853325284191319033e-01 7.971392008648408023e-01 -4.648525970527450091e-01
4.248960205617194341e-02 -1.623145377013014423e-01 -9.204119948465814272e-01 7.804089367465981697e-01 1.582733173681526717e-01 -6.049061484687723311e-01
3.874963833507273636e-02 -1.578671226363709268e-01 -9.243110775273261082e-01 8.112249562233020406e-01 1.472631522428329287e-01 -5.658865914580462064e-01
3.617569444083523766e-02 1.263438088013361937e-01 -8.625167974512669700e-01 -7.797483539337819458e-01 3.709301966749007917e-01 -5.043840736306776096e-01
7.677973684164961232e-02 -1.407741197546786838e-01 -9.439886754452812001e-01 -8.565899005297585855e-01 -5.988252130425452541e-02 5.125112934879230142e-01
7.780281916291054145e-02 -1.660162653081284634e-01 -9.029356692042329602e-01 5.356031273257263470e-01 7.650091157592668889e-01 -3.576175929734534686e-01
-4.185358708364881469e-02 -1.959719178380706361e-01 -1.084216719599236489e+00 -1.488439398120259827e-01 -3.431476632676422889e-01 9.274131564600486266e-01
1.123650080278170045e-02 -1.289752095980339630e-01 -9.728022411038582673e-01 2.821601297396306163e-01 -5.397703584457836518e-02 -9.578476605320639381e-01
1.226287122015768880e-02 -2.718063773295187335e-01 -1.034899195190547516e+00 -9.076806561735915047e-01 2.753309044976113840e-01 3.167155181496565941e-01
2.029173070570762169e-02 -8.094362425960908991e-02 -1.015113637074620989e+00 -4.809071702136156201e-01 -3.595815565623615151e-01 7.996432941113943427e-01
1.738301996535190561e-02 -9.159537286244322229e-02 -9.310215399955741322e-01 7.261757353605026166e-01 8.637558867472762414e-02 -6.820616240888557336e-01
5.948174102752486897e-02 2.654884866034237234e-01 -8.594052120329214173e-01 -7.332702207774643988e-02 -9.958918944031833753e-01 -5.312704109254094698e-02
2.659075402675990969e-03 -2.732803018591954958e-01 -1.056684717696145803e+00 -9.071880258705261602e-01 1.013465033251816222e-01 4.083365915282348158e-01
-2.360914088240866852e-03 -2.474593598000942585e-01 -1.064479592644227646e+00 -3.943078128746164701e-01 -1.539565330810488408e-01 9.059904715987362467e-01
8.296500616462526914e-03 -2.396087820541039082e-01 -1.054610639411338369e+00 -8.898005595685498648e-01 1.102086942739469166e-01 4.428419671823430881e-01
-8.493342834329077259e-03 -3.010066048974667230e-01 -1.073062296855409770e+00 -8.821137761312722869e-01 8.326911375897562417e-02 4.636178821542829565e-01
-5.961788683484375156e-02 -9.684169332473657743e-02 -1.077921754273614363e+00 -4.944764896685482913e-01 -1.400121132409876401e-01 8.578400837632051967e-01
1.441056681229420898e-02 3.087464122717160919e-02 -9.567674594710121605e-01 -6.599599618009343027e-01 -3.583013292058215282e-01 6.603582408882702204e-01
-5.402116188017756782e-02 5.961279233814353873e-02 -9.343976121584974814e-01 7.592033538370150936e-01 -1.217158228181430407e-01 -6.393711957840536586e-01
-1.499217791574064540e-02 -2.941921007554602063e-01 -1.033587206606357167e+00 1.259218161129540270e-01 8.481152959723086138e-01 -5.146301011062400788e-01
1.838828585401592816e-02 -3.657256719635543912e-02 -9.971540181070566167e-01 -7.037672511798334085e-01 -1.282075449661946587e-01 6.987663998651639785e-01
1.756604706278603245e-03 -2.284803871983528967e-01 -9.864986730447240504e-01 7.632940722586815108e-01 2.991854223825388681e-01 5.725995479290397761e-01
-4.589045659992174730e-02 -1.364915911480119315e-01 -1.084057288403141417e+00 -4.074926711847031702e-01 -1.875750912854995400e-01 8.937367107039925207e-01
8.473696420311790933e-02 -1.500726449439218624e-01 -8.849318834123365285e-01 -2.970300639876023996e-01 5.892536968654423779e-01 -7.513675677176452350e-01
-6.131358137848443718e-02 -4.734457654428376322e-02 -1.014203954624244064e+00 -5.967517446172975609e-02 9.485477586272275108e-01 -3.109598417098659584e-01
-2.425802973054058675e-02 -1.216041609736534940e-01 -1.069379785229205737e+00 -5.902533684462930585e-01 -1.097793005353056572e-01 7.997183668090810382e-01
7.535211106562579586e-02 -1.244509991575425967e-01 -8.676168519762410547e-01 2.315996338713818270e-01 4.543299162728958174e-01 -8.602011025162114022e-01
8.385466419445279651e-02 -1.093973123565354783e-01 -9.290400618100701502e-01 -9.099054783061283347e-01 -2.473380735613369130e-01 3.330103570693595527e-01
-1.797132133502621354e-02 -3.919756277983810905e-02 -9.691966640866493954e-01 4.898323142978583955e-01 8.617190315167538861e-01 -1.323050059197754535e-01
-5.550056534714100515e-02 -2.560563091711161032e-01 -1.049332275189475139e+00 9.135144651686384343e-01 3.475794613000795508e-01 -2.113760630014746011e-01
7.508980952548605092e-02 2.361868631794525886e-01 -8.797844127756522248e-01 -6.480415251123722298e-01 1.952760133477162707e-01 7.361449995354537590e-01
3.194509955512356281e-02 -1.023275213607379996e-01 -1.018766404247765989e+00 -5.711182246988398825e-01 -2.389943711354363398e-01 7.853060957247325335e-01
-8.757973239814807742e-02 -7.648995858587052943e-02 -1.063680416127104955e+00 7.973545561382419100e-01 3.953722053975461392e-01 -4.559676863601935248e-01
-2.887726478673883004e-02 5.114484608213332173e-02 -8.938841447989501754e-01 9.906620215049103395e-01 -1.332323619331839404e-01 -2.894644851289205137e-02
-2.498792076907758314e-02 -2.455911106669248223e-01 -1.074824327562237114e+00 -4.554383741276585296e-01 -1.133401088757430286e-01 8.830231633949300329e-01
4.764665822448337779e-02 -1.056350842178511579e-01 -9.865194989972750905e-01 -8.916373937954127360e-01 -1.778645589425348061e-01 4.163495606553483941e-01
3.723046438248363288e-02 2.185981801921246248e-01 -8.413934561310719706e-01 2.922002994635120587e-01 -4.952149224134906602e-02 -9.550741368080405413e-01
2.439802395686586564e-02 1.189005025207739430e-01 -8.553381580332551914e-01 -4.732253019722773568e-01 3.332615392412405786e-01 -8.154719860521305597e-01
6.765716958679572103e-03 -2.805513066204927131e-01 -1.046530307105815849e+00 -9.379994916004100736e-01 2.152408497344086014e-01 2.717136918945791679e-01
4.212142024159347409e-02 -2.125937083837123043e-01 -9.981686861834492275e-01 -8.718256226546435839e-01 -9.247605520901742635e-03 4.897290735447230037e-01
1.787993415438999395e-02 -1.297700389510882298e-02 -9.794841492828444407e-01 -5.354754945522164356e-01 -5.188457745461627635e-01 6.663820653121239612e-01
6.032411143518619234e-02 -6.494123826311799796e-02 -8.529827990708702679e-01 7.986013943149734562e-01 5.857758258272289797e-01 1.382117754556697609e-01
1.178263296270490486e-02 7.441488199582936558e-02 -8.704965609446493335e-01 -4.059972450818932210e-01 2.542492373411864293e-01 -8.777947153505416544e-01
-2.097618458721307519e-02 -5.815052522207767027e-02 -9.690966020018635385e-01 4.553463148853685860e-01 1.812399016922261741e-01 -8.716718600223979374e-01
-4.251766010518912009e-02 -3.997713900896535111e-02 -1.050772776115355356e+00 -4.431566536920524824e-01 -5.280578638254895818e-01 7.244080843975466699e-01
-6.409840609417566740e-03 -1.685130830160158077e-01 -1.055176701863274502e+00 -3.924882205750017117e-01 -3.002659319773394175e-01 8.693637712739407108e-01
-5.916817925820267582e-02 7.600834084549779046e-02 -9.576670868557969341e-01 6.248684141702312012e-01 -7.687502675290589504e-01 -1.362442334426703094e-01
1.060024240989063983e-02 1.914604405375269491e-01 -8.651190459041381287e-01 9.139935506762788542e-01 -4.006771617884725134e-01 -6.382477060908929578e-02
-6.084850498111926687e-02 -2.413234385412962590e-01 -1.060863565452586199e+00 9.380783453135972394e-01 2.123716635848041101e-01 2.736919702145577671e-01
2.551114816842756094e-02 1.529823315586050989e-02 -8.543566645190403541e-01 6.109568789820013501e-01 -4.882389190482587168e-03 -7.916488200587206148e-01
3.600187565905905301e-02 3.801038381397577742e-02 -9.137882678445813367e-01 -8.847025897500533365e-01 -3.944665648669745117e-01 2.483897278302746314e-01
1.106517142864408589e-02 -2.292596290041277740e-01 -1.052590123059908400e+00 -8.705702978476633769e-01 1.214883092023743005e-01 4.768101794557022544e-01
-3.129415884168493950e-02 -2.092594137554315836e-01 -1.082925330926958196e+00 -6.587537236558645981e-01 3.022584781783211327e-01 6.889726728534724121e-01
5.625695397136103865e-02 2.768114308477627114e-02 -8.515544641146656213e-01 -4.937413837175211873e-01 -6.277469041240351100e-01 -6.017917167653581423e-01
2.048436348098555890e-03 -2.036107205310308532e-01 -9.748537759178896867e-01 6.364399885147559166e-01 9.275807019157586431e-02 -7.657284645575559434e-01
2.355103960973554608e-02 -9.422238847900943348e-02 -1.022302310913597578e+00 -6.581758021780591550e-01 -2.211109469821597173e-01 7.196628117055383633e-01
3.957040173364530927e-02 -1.333216559335835549e-01 -9.167167315195186017e-01 7.758429765172861758e-01 1.694738573425564887e-01 -6.077386670816927738e-01
-4.425846344087445983e-02 8.164570459374413669e-02 -9.626641039245639186e-01 -4.556006801228115743e-02 -9.664580152067557828e-01 2.527512315406881260e-01
3.036472151335650738e-02 -2.466148188880941117e-01 -9.784208185314910988e-01 -9.154473605230126210e-02 7.543311963982591850e-01 -6.500800008010442221e-01
-1.611028315942660341e-02 -2.276402855620250909e-01 -1.068267894053188671e+00 -4.791460309195522682e-01 -5.642920040001457582e-02 8.759194177527145353e-01
-2.634023498488419213e-02 5.093465991226834438e-02 -8.832148801577950348e-01 8.758668072541623273e-01 6.163458296959840876e-02 -4.786005789095578167e-01
-3.688694363277593424e-02 -3.218815858051111284e-02 -1.041437518736298529e+00 -4.886113307722195764e-01 -5.148507475500605501e-01 7.044059022950789339e-01
-4.988382841752144609e-02 -2.488010403178146923e-01 -1.033212447589886063e+00 7.375275060458844623e-01 2.352264531224859956e-01 -6.330258237837954605e-01
7.739187003885328320e-02 -4.128187857264465493e-02 -9.022772982831834820e-01 -7.514926369274005369e-01 -2.120921871876932929e-01 6.247205141323939337e-01
3.103061652460595288e-02 7.319394837033520174e-02 -8.952511141896872804e-01 -9.848382113751116274e-01 -6.105560268201416785e-02 1.623758319350723511e-01
2.441669118218249557e-02 -1.219328273747067280e-02 -9.748189282145168777e-01 -3.623897765115570713e-01 -5.073031110090302498e-01 7.818677659556397819e-01
-4.562700974873473703e-02 2.227061078360211693e-02 -1.026863649532219203e+00 -6.087084712547228271e-01 -3.821633232462793850e-01 6.952878478645359017e-01
-7.995927090288245526e-03 7.586880154660895041e-03 -9.902698834949266171e-01 -6.635865554376342290e-01 -3.630326751061844215e-01 6.541102049713510835e-01
-6.964783629170782919e-02 -1.484144433008803832e-01 -1.085833722677315816e+00 4.831983747734255319e-01 1.286326680519690457e-01 8.660097963222773698e-01
-8.236047239882249293e-02 3.855856922527209352e-02 -9.741599182485940478e-01 8.706775626251344047e-01 -8.138116052659437327e-02 -4.850749309668557774e-01
-8.651846762133187652e-02 3.153018026284926112e-02 -9.809465466054240190e-01 8.733897692226562093e-01 -1.148160861431189207e-02 -4.868865203318152868e-01
-7.788182365455111056e-02 -2.923088833622219333e-04 -1.054786257438238284e+00 -4.913561796598148179e-01 -1.450474803282418290e-01 8.587958623331508612e-01
-2.844526428100216733e-03 -2.956045785524948344e-01 -1.062284302570483563e+00 -9.014154583450391112e-01 3.725370645993855701e-01 2.206044128214041111e-01
6.978093330199824917e-02 3.714608487602669932e-03 -8.772886158515695865e-01 -8.307665525490056657e-01 -3.612170979745022992e-01 4.234963320935841158e-01
-7.032357258667057409e-02 -1.645054048485600773e-01 -1.053751907869817428e+00 8.555027471070741907e-01 1.575253208008489669e-01 -4.932553324585949861e-01
5.696027929069876622e-02 -1.315073077316922245e-01 -8.816430636258643094e-01 5.918261848005139658e-01 4.220828175224749512e-01 -6.867225510617496198e-01
7.237668220578791223e-02 -9.751425818087465502e-02 -9.421507382904226180e-01 -7.030424557700195587e-01 2.670097372994418520e-03 7.111428660718455141e-01
-5.532244578196065382e-02 -1.601465395052640572e-01 -1.086310116286971272e+00 -3.805812697632928177e-01 6.148127440052290199e-02 9.227014414226561989e-01
-8.021071289910504387e-02 -7.766641025074093319e-02 -1.083654525337830465e+00 -3.786993220739041238e-02 -3.223125623061184886e-01 9.458755099981561720e-01
7.031623991873316160e-02 -2.021433105913186257e-01 -9.584363733217187153e-01 -9.593343538617120636e-01 1.873264697934119150e-01 2.111548986300559871e-01
3.295083593412503897e-02 -1.274239749356751994e-01 -1.024003524667380649e+00 -8.790942083850691313e-01 -5.062644196866362967e-02 4.739518289419530905e-01
1.948642314000700523e-02 -1.914361703669568704e-01 -1.044137946791962257e+00 -7.677038750121716326e-01 3.770149418183653400e-02 6.396947378459140188e-01
-8.694103522872802248e-02 -2.201917062521759755e-02 -1.063191241473837811e+00 -2.191848681723505554e-01 -4.080840502636510214e-01 8.862422927646159687e-01
-4.038340388871454467e-02 -2.158038120483559974e-01 -1.085239371331896407e+00 -3.344388730428781570e-02 3.272010235963416225e-01 9.443627462789309090e-01
4.982727006639593031e-02 -1.094656625124384580e-01 -9.057533967632854788e-01 8.560833001882984794e-01 4.499100015983643064e-01 2.543666125899223251e-01
-3.395782640090407034e-02 3.511192739762988499e-03 -9.362213217634673956e-01 6.817370144258839693e-01 3.916352858433546080e-01 -6.179453422788101502e-01
-9.609867816630461579e-02 1.092225478374855493e-02 -1.040308300378082862e+00 8.594039464948567408e-01 -4.199431478656233674e-01 2.916720920996331290e-01
-5.402551807997622163e-03 6.430637405658459760e-02 -9.430251444057987653e-01 -6.289959600027600350e-01 -5.569757975544500361e-01 5.423486362468246114e-01
-2.596363203647009815e-02 -6.864844755991235696e-04 -9.109092074577709308e-01 9.376090486700643378e-01 2.631010580802367049e-01 -2.273039926817758127e-01
-3.739404625251210867e-02 6.555424406774060415e-03 -1.020984863039327672e+00 -7.017957000254801958e-01 -2.315518721416606474e-01 6.736961673732739797e-01
3.129591778447012723e-02 -1.342963917041236077e-01 -1.027686709541788090e+00 -8.163711017200523390e-01 -9.492639139344841159e-02 5.696728925386972398e-01
-1.284149487908334969e-02 -5.879002871613967646e-02 -9.500385367123891367e-01 9.751431455388948066e-01 2.114494755632955192e-01 6.621906819426662261e-02
5.003047306971544587e-03 -1.373412957435850290e-01 -9.725072657073869919e-01 6.626282794086915118e-01 -6.821540345069540545e-02 -7.458353853632424535e-01
1.202507801062322607e-02 -2.245971161182055142e-01 -1.052025484628443142e+00 -8.705702978476633769e-01 1.214883092023743005e-01 4.768101794557022544e-01
9.344239431888505532e-02 -1.314821302554714522e-01 -9.054637771143402292e-01 -9.571195967911482194e-01 -1.363876711128769181e-01 2.555787170457581303e-01
-5.336346692185649221e-02 -5.658128799803913145e-02 -1.007922560114788535e+00 7.047739166325258653e-01 -6.427427277429802466e-01 -3.002923781383113888e-01
4.456397434980215871e-03 1.291148225517843862e-01 -8.537294984190942904e-01 5.231416475008306977e-01 5.902283236276579387e-02 -8.501994600739248842e-01
3.044237507737689724e-02 1.246916842788825183e-02 -9.549916110639288247e-01 -7.214099341108467511e-01 -3.469510719088276240e-01 5.993268396021482758e-01
5.293110167238849334e-02 -8.566771828889309381e-02 -8.602880681346685154e-01 5.662873255136019468e-01 3.415840041058060828e-01 -7.500926830077043750e-01
9.387475491936639327e-02 -9.960549024911938276e-02 -8.572401777394651479e-01 4.624474716316285261e-01 6.651545164398998677e-01 -5.862693964732571539e-01
-6.705269984720740872e-02 -1.419873660449888497e-01 -1.057643041130266637e+00 8.009288719213605162e-03 7.883365853036733428e-01 -6.151920672163747605e-01
-1.846657393317076637e-02 -4.105495812671246941e-02 -9.366297028772643252e-01 9.890594793152359676e-01 1.265546741286264765e-01 7.579749885630342188e-02
-4.406824289262004091e-02 -3.760874926563319981e-02 -9.775682350762074924e-01 2.601548776239260841e-01 8.309548808180095003e-01 -4.917656206905964833e-01
-3.051479154986666553e-02 -2.592998355102781871e-01 -1.077857535782793086e+00 -1.083350092374547879e-01 -1.178360777245504726e-01 9.871059642004066381e-01
-3.845501243110810430e-02 7.255768115142618990e-02 -9.738642162025302751e-01 -6.219662732764528190e-01 -5.628279113166830827e-01 5.444104124183344329e-01
2.606819286706157576e-02 2.203056150235719879e-01 -8.737762290058870285e-01 8.029901288066029208e-01 -3.924928896424855762e-01 4.485043863991154955e-01
-2.342440519683812450e-02 8.677185563077012553e-02 -9.316740185149237075e-01 -4.151349315774222060e-02 -9.525320674390503894e-01 3.015945795038937338e-01
8.142370533112325282e-02 -8.118000507931213972e-02 -9.117789492252661443e-01 -8.686597148555310621e-01 -2.200874760278817288e-01 4.438375859284385827e-01
8.143746014134676386e-03 -2.800183478723928254e-01 -1.020931671545574293e+00 -6.569323231920224382e-01 7.367658879283579543e-01 -1.600498332728605422e-01
2.800605104282792579e-02 -9.995325443097510809e-02 -9.218964939596391295e-01 6.779568596210988618e-01 1.147796603661586784e-01 -7.260854812340811204e-01
-1.303059782071781456e-02 -1.599968955000793391e-01 -1.057154565285518544e+00 -5.345831406253720441e-01 -9.056805668813831811e-02 8.402489469596781113e-01
-5.974032768587030084e-02 4.970708151138043124e-02 -9.414153999498935388e-01 7.546140444443797390e-01 1.268151405906275397e-01 -6.437977664175882353e-01
5.811313668611888666e-02 1.949265826099352283e-01 -8.491314774825707845e-01 -6.887845674378367811e-01 3.425342277676740599e-01 -6.389414076948489729e-01
4.078555595105516629e-02 -3.498703810925893332e-02 -8.623352724745251274e-01 7.363631610332770361e-01 6.227627568410442072e-01 2.644538594250848140e-01
9.325317129242284564e-02 -1.263442485128683235e-01 -9.026817887489851922e-01 -9.534676366794836433e-01 -1.755920679547978980e-01 2.450854778974017045e-01
-7.721835682571304149e-02 -2.863657699575017715e-02 -1.062552714744542826e+00 -4.186912050915635453e-01 -4.269561083407312219e-01 8.015024368830778734e-01
1.417099492928555922e-02 3.356796562848490817e-02 -9.555805928162952601e-01 -6.407341743081967911e-01 -3.386940920906478247e-01 6.890181636622398909e-01
-2.340202186109727450e-03 -2.155066724979059611e-03 -9.906530213783489858e-01 -6.303822819964544077e-01 -3.948685744593918856e-01 6.683539387550212485e-01
-5.617771542806460072e-02 6.169044821825627606e-02 -9.375035335783139523e-01 7.821589688536716434e-01 -1.212649411301291308e-01 -6.111645944379201500e-01
