1.076494925042753396e-02 -5.725296237593033993e-02 -8.106820073893022949e-01 -2.687405562602259226e-02 -1.789052524646393416e-01 -9.834992098495926038e-01
3.101846657870195589e-02 -2.588530388784804903e-01 -8.281073381127622701e-01 -1.633090917212745297e-01 2.205672746416424690e-01 -9.616029419247481558e-01
1.959645545974432208e-03 5.253912358155837098e-02 -8.339882453849603028e-01 8.556798306307022983e-02 2.403580412528638355e-01 9.669054412297020118e-01
-7.892270547050447838e-02 -8.090986417299772526e-02 -7.957043833681265443e-01 -3.556082298356891269e-01 -2.680349487121431729e-01 -8.953770452396054846e-01
9.691696339448795106e-02 -7.870424316587937286e-02 -8.224689847881693217e-01 -1.839016248746631332e-01 -3.285965271942995619e-02 -9.823952542595150161e-01
-7.699511921146508231e-02 1.706738544297106974e-01 -8.561919536894672111e-01 -8.974019982622960523e-02 -3.921243405665091331e-01 -9.155245480435949545e-01
6.709277374902948565e-02 5.066229615835628197e-02 -8.373751055679210520e-01 -5.817052573236767277e-01 1.850916079437029960e-01 -7.920606607266955645e-01
7.355107155111403894e-02 4.567345820750548686e-03 -8.270583213012671076e-01 -2.568129607076638510e-01 -7.864753859953474424e-02 -9.632557645219665954e-01
7.454064050311805245e-02 6.882433549013185041e-03 -8.275167689712779051e-01 -1.606605111868167346e-01 -1.483026375166051070e-01 -9.758045541248561161e-01
-2.454456613891224312e-02 -6.249080298586863307e-03 -8.155577723814713131e-01 5.933217899794719363e-01 6.093159985341134455e-01 5.260259190058335088e-01
-3.647985884760137406e-03 -2.149773491799240877e-01 -8.205464873704328976e-01 1.154826667587639452e-02 -2.904260514894763667e-01 9.568277515587717552e-01
-1.632516904029564231e-02 -2.305838148495680806e-01 -8.208274145076533967e-01 3.282954097855158571e-01 -1.482123264597305645e-02 9.444588159240265846e-01
-2.812896864555997772e-02 2.180775385334322511e-02 -8.228717735328906491e-01 1.254749488809136226e-01 1.862878331903893570e-01 9.744500399756580444e-01
1.089846604028365112e-01 -8.278985113095936599e-02 -8.245666916413161296e-01 -3.602273718337578590e-01 9.404748605947003959e-02 -9.281116909874786991e-01
3.718823430964261073e-02 -2.432103482423262075e-01 -8.336193356403833743e-01 1.325952055396391882e-01 -1.782332432583278170e-01 9.750135498881635776e-01
-9.300195982571617115e-02 1.128921162620335344e-01 -8.363740390452256701e-01 6.819139544684205134e-01 6.283641028765851733e-01 3.743686858129899320e-01
5.411180179819574665e-02 -8.469064248059111899e-02 -8.154475766381226176e-01 -1.765408127537359817e-01 -1.398037103795048836e-02 -9.841940310009462678e-01
2.178464629692351481e-02 1.395945009320632424e-01 -8.636353528240905408e-01 2.253193234387323995e-02 4.262579365646031460e-01 9.043210069110072524e-01
4.010840878213205174e-02 1.690736750658566531e-02 -8.307155934450654033e-01 -1.787820073164327409e-02 2.832076114802279387e-01 9.588919744884003560e-01
-2.503078521196678424e-02 -1.637810522442804118e-01 -8.117385451279650610e-01 2.870064124925024718e-01 4.319320953259386808e-02 9.569543697786518921e-01
5.210909913874851168e-02 5.339240876564210064e-02 -8.334247601920280468e-01 -1.479477067065375628e-01 -2.194674624268675711e-01 -9.643368234264352301e-01
-2.003936988333562819e-02 -1.549883225359104943e-01 -8.044502028531624882e-01 -1.726242319326930508e-01 5.556667209793958451e-02 -9.834191474145740353e-01
-1.122062352556819770e-01 1.010001180829843553e-01 -8.244876314462309397e-01 -4.853884122042664145e-02 -2.795421205508047402e-01 -9.589057220242964696e-01
-8.320725413266162607e-02 1.283331532287833587e-01 -8.378740366006153240e-01 -1.030107596436218853e-01 -3.272584888475003062e-01 -9.393032869499045034e-01
-7.641524603889561507e-02 1.211863028533451681e-01 -8.442401708736203547e-01 9.938152629680178929e-02 3.185677950114465529e-01 9.426759104869832928e-01
3.329597557319807083e-02 -4.194049843568692926e-01 -8.876846928210796461e-01 -9.999026215443626020e-01 1.377092691718176908e-02 2.260309835556003136e-03
3.336803711881914519e-02 -4.147663779623285696e-01 -8.840672158744921072e-01 -9.999026215443626020e-01 1.377092691718176908e-02 2.260309835556003136e-03
-1.618430176351049604e-02 -1.405535554672437681e-01 -8.079942258095935692e-01 -6.565808031255362387e-01 -5.556093050840389402e-01 -5.100979798735307824e-01
-2.665207484521075684e-02 -5.531758186809039579e-02 -8.111640960329594696e-01 2.710187903682365618e-01 1.917263926545953456e-01 9.432867038323998754e-01
1.116040391449868302e-01 1.982561635555486756e-02 -8.419498817695044712e-01 4.363251474206195080e-01 -6.493145131394223446e-02 8.974431861453067150e-01
7.913748652987313836e-02 -4.335254508914847260e-02 -8.217309136140072967e-01 -1.594050974338696303e-01 -6.485012193758507570e-02 -9.850809492609116091e-01
2.157741721882450170e-02 -3.231763949586523993e-02 -8.189080250425286867e-01 7.339528398933086173e-01 -3.994516073099101394e-01 5.493192534674863348e-01
-4.937501627160388595e-02 -1.368047074094249915e-01 -7.989552042583522029e-01 -5.776883633386561273e-02 1.387661682090113313e-01 -9.886388178243958880e-01
-6.783845081071646077e-02 -1.175579923201863913e-01 -7.957197348248614688e-01 -4.730284540289182021e-02 1.001608961429192313e-01 -9.938461831192175744e-01
6.179638926939363258e-03 4.723189616194729823e-03 -8.172932316964218735e-01 3.812983808166532651e-02 -2.715410851223939437e-01 -9.616712299629321947e-01
-8.010586579622920589e-02 2.534570511421489064e-02 -8.159955314886886413e-01 -8.458257753623452113e-02 -1.750609110245452543e-02 9.962626783894091842e-01
-6.933909790244983939e-02 -7.380797922266132960e-02 -7.994429632279789200e-01 2.927007460130247041e-01 4.064907860812350671e-01 -8.655007302795751922e-01
-2.988637825827719294e-03 1.209231849712359697e-01 -8.537950886468921308e-01 9.984354437026900231e-02 3.414977630679100207e-01 9.345643607944804643e-01
3.260069157411771973e-02 -9.870235962810620933e-02 -8.118947103435056878e-01 -5.738605213074796443e-03 -1.219978267288603646e-01 -9.925137775787514771e-01
-2.266788571200908931e-02 2.796240368080040173e-01 -9.232046456928327816e-01 -1.006161082264588613e-01 -5.483062064508572586e-01 -8.302028081937757875e-01
-9.009015759939023593e-02 -2.215753332814681190e-02 -7.986100207133552953e-01 -1.682672543580648328e-01 -1.636239496709014918e-01 -9.720665276640754193e-01
9.426900312796629433e-02 9.124886600504043821e-02 -8.510847678897722757e-01 -7.658271890313765873e-01 1.303780609488116027e-01 -6.296906206729840916e-01
6.940509119028040463e-02 -4.104953271637352269e-02 -8.275784831500914152e-01 3.798311011606836929e-01 -7.102464157047623516e-02 9.223252327031110642e-01
2.127605808858078207e-02 -1.272740162917997131e-01 -8.105959648992758781e-01 -9.967424918574736559e-01 -7.771316201333267060e-02 -2.156546720206907464e-02
1.435903614434000386e-02 9.167209805633852460e-02 -8.457305096753410245e-01 3.174811774882405069e-01 1.533917630019406564e-01 9.357759715785808341e-01
-2.477655417123870996e-02 -1.571211475874896846e-01 -8.038831759382485398e-01 -1.480990776758739080e-01 7.883551862193770299e-02 -9.858253517713799763e-01
9.189881464298754743e-02 -3.253313182691006805e-02 -8.323786531839019176e-01 1.345900619131562836e-01 1.073401081071951174e-01 9.850703611548510263e-01
-2.647148464231711268e-02 1.734327454960813975e-01 -8.695477571596016420e-01 9.502474131305005400e-01 3.295249789080566608e-03 -3.114787234589536657e-01
5.221158154283184888e-02 -1.962282436512338413e-01 -8.265539287782310840e-01 7.362930016183972803e-01 -5.531597486836891120e-01 3.897267096363401517e-01
-3.151585693987228598e-02 2.730183709713537247e-03 -8.176673763593006461e-01 2.555465970022077760e-01 2.776429504995184816e-01 9.260725289082454292e-01
-9.277926122513893703e-02 -8.528320863666070950e-02 -7.998561273938576965e-01 1.695040531127659789e-01 6.317870268270722733e-02 9.835023271480726192e-01
-1.199692704670124455e-02 -2.087082192073420328e-01 -8.185204808116890440e-01 2.067069594769816582e-02 -2.852011697218507225e-01 9.582447574176056193e-01
-3.944066833355365509e-02 2.666313906755808372e-01 -9.120228728893715608e-01 5.347783199214616312e-01 -3.799806020644015403e-01 -7.547363053389930521e-01
3.102056711846628081e-02 -3.663396444098664939e-01 -8.591661235708990541e-01 -7.443960016252724188e-01 2.315616545098703460e-01 -6.263016788457130835e-01
8.620038246338211640e-02 1.191365405238600794e-01 -8.569159824659080549e-01 -1.195820082772686282e-01 -3.269677010869373457e-01 -9.374392064247678569e-01
4.667252784677485000e-02 -1.689316454026279155e-02 -8.197226954435409274e-01 -1.206589262847523603e-01 -1.518509377770091151e-01 -9.810110683392178066e-01
1.724719745115764480e-02 1.397869169223423802e-01 -8.632627661452206835e-01 1.072231468995092918e-01 3.723279085608486860e-01 9.218867204139946647e-01
-7.215400461108625874e-02 2.046345857336884788e-01 -8.738805726834404375e-01 1.735205092962423604e-02 -3.612613269326869214e-01 -9.323031481183413627e-01
1.814458072834938471e-02 -2.717366104407905048e-01 -8.392608717847431787e-01 7.429055825856933915e-01 -1.428584720515214956e-01 6.539745807950916312e-01
-5.511077980735905324e-03 2.374351304135794705e-01 -9.067626888396648210e-01 -1.671112639328388438e-02 5.570942717082872919e-01 8.302811034128626533e-01
6.955634914626369902e-02 -5.806034539513729026e-02 -8.191016620055424635e-01 -1.742402317480968577e-01 -6.303182609921960389e-02 -9.826837388188363054e-01
7.063545228210549483e-03 -6.527324238898783715e-02 -8.090501215301589832e-01 -1.347546315981035803e-01 -6.705117252191199195e-02 -9.886077733491154262e-01
-5.852244414902525727e-02 -7.980734123153061799e-02 -7.990577051836849076e-01 -5.663858821856563447e-02 4.974989518111681136e-02 -9.971544605797416638e-01
-8.648421644218698412e-02 1.168158055229538000e-02 -8.123575720495448405e-01 1.615223009219578787e-01 2.039889944111271947e-01 9.655563352099211238e-01
9.655493857379543465e-02 4.192426465514060424e-02 -8.372152077063429454e-01 -1.528529668172646516e-01 -1.973922298585602531e-01 -9.683347965071922303e-01
5.103120571105788233e-02 -7.265278046579984328e-02 -8.229925666331047163e-01 1.710005094450524343e-01 3.572066184394469962e-02 9.846232071645290018e-01
1.534818906788338114e-02 2.665269312190410647e-02 -8.235709599185602192e-01 -1.049982946015329266e-02 -2.765112941409359482e-01 -9.609533067708403431e-01
-5.774087583693768462e-03 1.656960844438247829e-02 -8.264063572624429366e-01 9.936859654183919366e-01 1.109954733460069010e-01 1.637702742301310951e-02
7.470278468150939877e-02 -7.101808641291043611e-02 -8.260012701757539766e-01 4.276975662007672513e-02 1.381641446800425110e-01 9.894854304351791141e-01
-1.431228878415439706e-02 5.169949308475088427e-03 -8.139989270335850069e-01 -1.306727250376836513e-01 -1.667709644975485239e-01 -9.772983599350729689e-01
-4.438395430420492838e-02 4.575679856436823401e-02 -8.253396475521244113e-01 -2.778938055778761712e-02 5.059143772116026644e-02 9.983327384983026187e-01
6.577213391050662494e-02 6.373027683872285742e-02 -8.380272786027246346e-01 -2.472713582859170089e-01 -1.637483795154998090e-01 -9.550096039189791552e-01
2.664806847482912092e-02 -3.879888060562611263e-01 -8.668664887637188565e-01 -9.840244481394749831e-02 3.982539881081587629e-01 -9.119817540996005834e-01
-5.737714235216083425e-02 4.962651642171538729e-02 -8.248876265606382985e-01 1.163732814013467842e-01 2.071599760554564962e-01 9.713609029071458290e-01
-3.697371355374008683e-02 -1.458886759482284634e-01 -8.012662753491109902e-01 -1.437722616793472297e-01 5.639981832112967580e-02 -9.880023265483480754e-01
5.506112458182946950e-02 -1.949766068413271991e-01 -8.221631048477746617e-01 -1.411087841964962092e-02 1.075620949091407597e-02 -9.998425811434583643e-01
5.192136786518056213e-02 -6.238980907324535169e-02 -8.174079881729814367e-01 5.006711196935644675e-02 -2.035438116978827428e-01 -9.777848439296574767e-01
1.083679073442243707e-01 8.040229394219360060e-02 -8.490675233896826102e-01 -7.466155014199417073e-01 -3.726516867498598784e-01 -5.510862123134029344e-01
3.317699935825897672e-02 8.465643493319344182e-02 -8.394500903086754562e-01 -2.549321654204651511e-01 -1.880642568111948187e-01 -9.484942943128786830e-01
-2.459306272833567536e-02 -2.018107234531640037e-01 -8.082815462701663511e-01 -1.723131013656497013e-01 1.180499341688524828e-01 -9.779429472829591630e-01
-7.012643986429976939e-02 -9.723197119020252077e-02 -7.954366335986778891e-01 -1.717159082562539352e-01 -4.076321931904358653e-02 -9.843028023949120797e-01
4.368450089874929831e-02 -1.232138395669543501e-01 -8.168274248716619335e-01 -7.276143806136102787e-01 4.447669194210945309e-01 -5.222640141852985529e-01
-8.132068553300379754e-02 1.407652568156492374e-02 -8.059624919913873642e-01 -1.307376672332503098e-01 -1.726625594410829689e-01 -9.762660000909907376e-01
2.507687029320226565e-02 1.101519708233505146e-01 -8.467383254345357546e-01 4.443618209633262706e-02 -4.305389733195187918e-01 -9.014774640409355388e-01
4.570086255337025942e-03 1.729081970269688573e-02 -8.296081202364385954e-01 -5.036638364690892988e-01 8.463035809737426418e-02 8.597444052284076710e-01
1.883209248954485424e-02 -2.222935279239448836e-01 -8.162036586795724524e-01 -6.777610776725918884e-02 1.773118110485565890e-01 -9.818181709861566464e-01
1.245781653778168033e-02 1.549999027510763627e-02 -8.203086299532300618e-01 4.129458565818044935e-02 -2.943394492862745904e-01 -9.548083817128816264e-01
2.056331995040976829e-02 -2.006304318462344138e-01 -8.157126349496284234e-01 -2.346888024861134570e-01 1.455787752794004131e-01 -9.611076870859912580e-01
5.954382710838455189e-02 1.130425492832943801e-01 -8.524357453294048037e-01 -2.307162535245737001e-01 -2.412349909583820784e-01 -9.426429278878051266e-01
1.922987156426429756e-02 -3.581073347585305156e-01 -8.623572935672386697e-01 9.998219298910833164e-01 1.780118113255577811e-02 6.263102997332721175e-03
-7.047086281879397229e-02 -1.200781687263754866e-01 -7.958484293363460305e-01 -4.730284540289182021e-02 1.001608961429192313e-01 -9.938461831192175744e-01
1.997341905671601997e-02 -1.178690447404731473e-01 -8.157775215410919545e-01 -9.410168267926373176e-01 -8.356309514070545119e-02 3.278788508330800489e-01
5.149378244899674439e-02 -2.099884664344175422e-01 -8.301919141435338823e-01 2.063958015826937442e-01 -1.656912282376376000e-01 9.643376949876740767e-01
5.500494303547692754e-02 6.192987213892065662e-02 -8.437126955835461128e-01 1.157012471663130537e-01 2.625962415128940131e-01 9.579438581396413355e-01
-1.570093890139510201e-02 -5.014436443272971694e-02 -8.143728713921800644e-01 1.722767300493484310e-01 1.087740788830416916e-01 9.790244777566338152e-01
-2.418222451212852578e-02 -5.645659487445525704e-02 -8.116422083533528786e-01 2.710187903682365618e-01 1.917263926545953456e-01 9.432867038323998754e-01
7.663965741814418586e-02 3.510368247248216861e-02 -8.405434581707023067e-01 1.670723681470792643e-01 1.904850030458388188e-01 9.673687442833541761e-01
4.405326161706372284e-02 -2.243844053151020645e-01 -8.313229821841506828e-01 1.602611064757103188e-01 -1.630657502929107328e-01 9.735121667614591301e-01
-8.116349941112990796e-02 5.256354958091511570e-02 -8.155279433551666513e-01 -5.725465651931157390e-02 -1.520239701205650662e-01 -9.867170905663066316e-01
4.869609253801869542e-02 -2.007875046774960093e-01 -8.265613595253807899e-01 7.187627919851750091e-01 -5.515951818194558820e-01 4.232290210408984898e-01
-1.401231546798923505e-02 2.191360362572318532e-01 -8.893842888392458068e-01 -6.734954720853493226e-01 1.737475928541713441e-02 -7.389871222290047559e-01
-2.195334480759860915e-02 -1.366650943796996753e-01 -8.088167359762047370e-01 -4.548477945583299653e-01 -5.946869580288214330e-01 6.629184759348994982e-01
5.770270901763900617e-02 -7.226368128861923590e-02 -8.164636856873546122e-01 -1.376216992142277884e-01 -6.165411275916090478e-02 -9.885641295764625580e-01
-5.061071366571637947e-02 3.134085297470631110e-02 -8.140565541049918918e-01 -2.562424978039519810e-02 -9.455418786938558917e-02 -9.951898830773716620e-01
-7.727237098589546938e-02 1.743133486842736446e-01 -8.661005934479083512e-01 7.061032695425016603e-02 3.976685402353145049e-01 9.148081295192603823e-01
2.005426377344942182e-02 -3.371477825026916730e-01 -8.487006664107543674e-01 9.379206014252817747e-01 1.363450738623899483e-01 -3.189278386335958060e-01
1.014221790702324669e-02 -5.510704667484490372e-03 -8.178046962991747382e-01 -9.936668323437359840e-01 -1.111650315928779664e-01 -1.638786291497311420e-02
1.905477619361051200e-02 -1.310953882538262727e-01 -8.072882876742675240e-01 -2.243084832246604599e-01 1.251441186169590519e-02 -9.744378347792167494e-01
3.393280349437712007e-02 -1.897654640536184378e-01 -8.242719469527004517e-01 1.561259978982444674e-01 -1.019907282393171244e-01 9.824574108496972880e-01
6.730007186816192033e-02 -2.099685536316500956e-01 -8.258681571368597929e-01 -3.946215674164077480e-01 2.695601661577046171e-01 -8.784139885901454115e-01
3.752911117425195703e-03 1.873555300063770301e-01 -8.740481367068321239e-01 -2.400446238161038082e-01 -3.405207477787047243e-01 -9.090787638643952340e-01
-6.200044433006421558e-03 1.274131956120975739e-01 -8.505264513757254674e-01 -9.908973921605537249e-01 -1.338335969059948616e-01 -1.452331052539543831e-02
-2.570856750082594483e-02 2.853335608841431337e-01 -9.357430014665965023e-01 4.197915106138500746e-02 5.145044063960625413e-01 8.564595534379897401e-01
2.592273925154112493e-02 -3.066280348700469727e-01 -8.509662168946455774e-01 1.024688335847310228e-01 -2.915579334743546580e-01 9.510489522479630420e-01
2.188586717815963270e-02 -2.239182924873864555e-01 -8.167396431613377361e-01 -1.039213933692436226e-01 1.794577305207402940e-01 -9.782613490047227245e-01
8.218630995378536919e-02 -1.333422245135313100e-01 -8.266978730323795155e-01 4.196818757723767140e-02 4.413083480170541806e-02 9.981438476748660804e-01
-6.303296748264897165e-02 -1.009446641917430970e-01 -7.965203658922610508e-01 -1.717159082562539352e-01 -4.076321931904358653e-02 -9.843028023949120797e-01
8.267107036818242827e-02 -2.462100575721574980e-02 -8.317722452019774559e-01 1.653568560421079525e-01 1.071332487902931646e-01 9.803976627693001822e-01
9.394332170580912966e-02 -8.222928044206014031e-02 -8.218695453932712836e-01 -1.389864257589814855e-01 -3.803681390332253054e-02 -9.895635271385193610e-01
-3.461371784822248054e-02 -7.275233520200458104e-02 -8.092186964096513835e-01 1.724583509803066751e-03 -1.003287932139839411e-01 9.949528426332290287e-01
-3.688405144528897166e-03 1.295744601602477793e-02 -8.180386324059359948e-01 -2.879823363089517585e-01 -2.934163305182960757e-01 -9.115772216105532122e-01
-7.101650094597074248e-02 -1.139829231730617176e-01 -8.025210389124646237e-01 1.850447466544146435e-01 2.552885826888414561e-02 9.823984523252725642e-01
-2.185645160310548465e-02 1.994833404709643598e-01 -8.758263581195668834e-01 -1.754185775642671252e-01 -4.473389916040714787e-01 -8.769926734220654385e-01
6.716163596215447840e-02 7.775655680684007143e-02 -8.416587653197583618e-01 -1.376903403990988872e-01 -2.414389418022003797e-01 -9.605980468136576800e-01
9.450028966195002378e-02 -9.301962293220518430e-02 -8.293159582527654949e-01 1.283683282956436522e-01 2.080764417789122966e-02 9.915082522270542986e-01
-6.833921524769859257e-02 -1.029335075975665453e-01 -7.955162748458908251e-01 -1.683164870057111406e-01 -1.911599684674849045e-02 -9.855476339916865447e-01
-4.101809738634155239e-02 -6.065282662229737332e-02 -8.031765500528573742e-01 -6.507241422204024239e-01 -6.400735180400761726e-01 -4.084898802116421757e-01
-3.351453446049876186e-03 1.945640154639226849e-01 -8.763105586942392389e-01 -1.165662966791784355e-01 -4.474106961153832551e-01 -8.866994798013868584e-01
5.248615247352747537e-02 -8.078231591281796742e-02 -8.152507841144490675e-01 -1.395350767149225457e-01 -3.907520672301870862e-02 -9.894458502544311029e-01
8.479419737623404563e-02 -1.522861187840273967e-01 -8.251681395556184073e-01 5.816528414986945617e-01 -4.938769943718620548e-01 -6.463478060662927183e-01
-7.756026294561987888e-02 -5.693681661204731681e-02 -8.036634697176158193e-01 2.326040903365502455e-01 1.826787438163886002e-01 9.552611233146527381e-01
-5.305864084429548488e-02 2.086407070489330606e-01 -8.775866418450244399e-01 -8.561975159603824048e-02 -4.608323570622299692e-01 -8.833474949424501288e-01
1.004039351264296165e-01 -8.375562828030105877e-02 -8.227826491442516987e-01 -1.662072868566143724e-01 -2.013460156258458159e-02 -9.858852547916918674e-01
-1.886180042681762439e-02 1.986695638396878683e-01 -8.886304189791419672e-01 -5.189229428410098155e-01 2.991114224009597811e-01 8.007817033265062223e-01
-5.254686641468401392e-02 -8.651937401159162655e-02 -7.997319951161921958e-01 -5.663858821856563447e-02 4.974989518111681136e-02 -9.971544605797416638e-01
-8.532553535105185868e-03 1.025402434014842934e-01 -8.523286892313863827e-01 6.569828426104024066e-02 2.901654643124175204e-01 9.547186699575506141e-01
2.555327450777193296e-02 6.707254634065699939e-02 -8.341967090147794917e-01 -2.591332437277595324e-01 -1.611539707519685505e-01 -9.523021367748804034e-01
1.932233864367937509e-02 -3.238996910528227358e-01 -8.451788691281932886e-01 9.369769102993570353e-01 1.375864431019123146e-01 -3.211607700832005419e-01
2.577803482615262029e-02 -2.667491879548587463e-01 -8.396769654933726734e-01 -4.691494309695681819e-01 -2.438241183425786662e-01 8.487924426709950732e-01
4.536723689905000634e-02 -1.758447641694013686e-01 -8.171430355872443263e-01 -1.805692611067090392e-01 1.230139842032004494e-01 -9.758392806368433314e-01
9.505291292651667223e-02 -1.388702787808429873e-01 -8.265523346639007674e-01 7.610103477311817022e-01 -6.456025518403100127e-01 6.372280363688911931e-02
-3.373593446778170440e-02 1.445996475014430238e-01 -8.511907370762249458e-01 -2.423387544981409902e-01 -5.029422392178438672e-01 -8.296511508331865237e-01
-2.496888579615929096e-02 1.188785549116945922e-01 -8.420710571379305120e-01 -1.044550311885003302e-01 -3.175630327312867207e-01 -9.424663743083447898e-01
8.242255421597310949e-02 1.141158256619622391e-01 -8.625202835883725161e-01 1.452918271506766779e-01 2.944067478690290396e-01 9.445713058167709564e-01
2.197525366489522583e-02 2.075675909446657863e-01 -8.866880670189918323e-01 -2.481675314319339021e-01 -3.833794287814064061e-01 -8.896252525250296639e-01
-1.545299341108152813e-02 1.330741273151147819e-01 -8.514514364128346058e-01 -5.526426264008886813e-01 -7.619498717425658985e-01 -3.376662856078688768e-01
-6.513983195954502203e-02 2.052295478610873525e-01 -8.743759052483258687e-01 -9.416932208978072427e-02 -4.389541970534174276e-01 -8.935610508892724013e-01
9.222104587479365567e-02 6.580850548100844466e-02 -8.455095216800028179e-01 7.376761069028212603e-01 -6.204099688206837770e-01 -2.663182905709172710e-01
-4.221199887289804609e-02 2.968216256793716479e-01 -9.409177630951748306e-01 3.512501920779288467e-01 -4.308149184857094638e-01 8.312772152389175107e-01
-6.729367605616073944e-02 -9.563762763168656700e-02 -8.029504286102663313e-01 -6.021799971180751693e-02 -1.795283925599934494e-01 9.819080144165915902e-01
-3.549612502696251545e-03 -2.348176819404932669e-01 -8.170828652984720719e-01 -1.826476833499579844e-01 1.805141642931944457e-01 -9.664649296567480175e-01
-5.133946329261073610e-02 -1.079859242436513184e-01 -8.038666021907486803e-01 -5.352620831761225606e-01 -6.256960936921992511e-01 5.674494696907204094e-01
-4.734592332938060075e-03 1.427660806776751001e-01 -8.574914639977736508e-01 5.644044412178310655e-01 -6.764656438276689387e-01 -4.731192867072795960e-01
-4.891660090574809910e-02 2.709930926737652013e-01 -9.233510943200189391e-01 2.006050352919909185e-01 6.568098343905169889e-01 7.268827011722048814e-01
1.085823978341932949e-01 -4.428090676033723770e-03 -8.307132535230070669e-01 -1.612899128124051784e-01 -1.328963433173437625e-01 -9.779182613888774966e-01
2.988355808180262821e-02 -3.128575673804639967e-01 -8.402042172581655199e-01 -7.432067325996752905e-01 1.746498245885332035e-01 -6.458646850461088329e-01
6.262628859527137604e-02 5.150274428414858101e-03 -8.252912515821336781e-01 -1.189243018401751201e-01 -1.779470383400584832e-01 -9.768274473917226697e-01
7.883023760127091939e-02 -6.717336736793867724e-02 -8.209944902327841465e-01 -2.653613910202901049e-01 3.236303365678536853e-02 -9.636057109670461696e-01
6.704385294115124128e-02 8.629968542756404071e-02 -8.519035927390654628e-01 1.573428074125715614e-01 2.528346225958494897e-01 9.546297159487256989e-01
5.609308454983076564e-02 -7.682007650150447786e-02 -8.159554336240287808e-01 -1.376216992142277884e-01 -6.165411275916090478e-02 -9.885641295764625580e-01
-4.072386462575463412e-02 -1.568790845278228707e-01 -8.073180782561386604e-01 5.909593444806638951e-01 4.382203466875056463e-01 6.772960806914994913e-01
6.645682883121681317e-02 2.964434566432987139e-02 -8.328842667449619652e-01 6.414382044264401728e-01 -6.057685049174718062e-01 -4.707457364142930700e-01
-5.468657325047409506e-02 1.658577090488859984e-01 -8.608252560094413752e-01 -6.323706534249337041e-01 -7.727551766061081517e-01 -5.437640770945484370e-02
1.637265186101249589e-02 -1.185138169677547315e-01 -8.163172048135723946e-01 2.871094636180920867e-01 -1.100545900679952976e-01 9.515545928142518095e-01
1.301542153919797024e-02 -1.535665956179879665e-01 -8.164564281711842453e-01 3.150272944700301392e-01 7.945836286838385554e-02 9.457505867347738571e-01
-1.092083640868277833e-01 5.641844289904626025e-02 -8.120754917741267453e-01 -3.964468626955601760e-01 -5.041930663707151483e-01 -7.672152480774501182e-01
-1.693327691574375224e-02 -1.074494498704664514e-01 -8.113110131108975942e-01 1.649614848410927703e-01 1.232621304837741051e-02 9.862229834022870900e-01
8.775046046259210586e-02 7.875963975060619460e-02 -8.506488650247227001e-01 -4.207785980457922070e-01 5.532708172342111208e-01 7.189136069261770068e-01
-7.005795874303816229e-02 8.995815403991536119e-02 -8.290555844462088597e-01 2.649888558395327998e-01 1.789929011207699316e-01 -9.474927163990367607e-01
-1.404507647420521338e-02 1.242060281698019741e-01 -8.585409517564404069e-01 2.090223847707695093e-01 3.023011738955269090e-01 9.300127111637381816e-01
-5.099389706889705803e-02 -8.154040818246131861e-02 -7.995596582128409180e-01 -5.186076482811927124e-02 5.110814977634918488e-02 -9.973456863584865273e-01
1.334479165817542903e-02 -9.440161021624647597e-02 -8.060239653492009548e-01 -2.211629130747771177e-01 -2.581213199811439526e-02 -9.748952249970200823e-01
3.705153343767370044e-02 -1.694812682136955517e-01 -8.151206599060378810e-01 -1.566302064971039631e-01 8.356322421713688331e-02 -9.841159311641647367e-01
6.121810183540676679e-03 8.678945343859947870e-02 -8.411250233319260694e-01 7.389382866148597184e-01 -3.012343185200594964e-01 6.026840747194590620e-01
-1.977879588264284255e-02 1.326935835330398383e-01 -8.510469812103239606e-01 9.450725903563332864e-01 2.745155853785574696e-02 -3.257057120945424100e-01
-3.772893557217091992e-02 2.838155569311089366e-01 -9.244701597884007471e-01 -7.110221458924656512e-02 -5.672466537580320711e-01 -8.204728568824321000e-01
1.843330301786463019e-03 -2.367281039435014944e-01 -8.181847061949606426e-01 -1.163856674507102174e-01 2.143222298981877771e-01 -9.698042885982309791e-01
5.750554447847094908e-02 1.302373470090698038e-01 -8.649947425653474742e-01 9.792004385497603269e-02 3.456447087313559985e-01 9.332424124189039327e-01
1.837887444630304304e-02 -3.238423459507683289e-01 -8.482703922473932012e-01 9.996655438069622646e-01 2.319162018215894377e-02 1.144330714682809808e-02
2.011570345477322122e-02 -3.392255000734146764e-01 -8.494082277630453648e-01 9.379206014252817747e-01 1.363450738623899483e-01 -3.189278386335958060e-01
4.865387665634316426e-03 -3.671599873376120426e-02 -8.222220508339747047e-01 2.286589224825166800e-01 1.106736067319890326e-01 9.671951457395077112e-01
2.587898618046372001e-02 -2.841497832542072000e-01 -8.305005363821018616e-01 -2.453513881206136060e-01 2.427393235019673357e-01 -9.385522453082167926e-01
-2.995236957556476551e-02 -1.561753093173222917e-01 -8.105082906380552954e-01 1.733551796762370090e-01 -5.536466411642824298e-02 9.833019554779164340e-01
2.350458709962677598e-02 -1.432563273639473889e-01 -8.180280032888336272e-01 2.596232119184506415e-02 5.484046002976623174e-02 9.981575435882127367e-01
8.409957642988661469e-03 -7.897130039628308396e-02 -8.193595515691700637e-01 2.320070971427286022e-01 6.647700783005992820e-02 9.704398560989581091e-01
1.082161186268803116e-01 7.815868277017384846e-02 -8.542241018292597854e-01 -2.482823572871783735e-01 5.606099376348446656e-02 9.670641323294812963e-01
-3.931411513340683089e-02 2.259075748855426946e-01 -8.969871197207105462e-01 1.294254017485412522e-01 5.045969770865755821e-01 8.535988262042766284e-01
-2.153620062695249873e-02 3.225822873510138245e-02 -8.210943607545594380e-01 -6.122029045140782166e-01 -6.804470107289849468e-01 -4.027399524439000955e-01
2.524209785367384148e-02 -2.990024232380812941e-01 -8.485551400582715953e-01 1.024688335847310228e-01 -2.915579334743546580e-01 9.510489522479630420e-01
1.926896311782645005e-02 -1.283426578992531708e-01 -8.074236535444221374e-01 -7.349052893042508083e-01 -3.666304224484921020e-02 -6.771779951283027899e-01
-9.122254452769858191e-02 9.258764289569133832e-02 -8.249601527185310701e-01 -3.618769280159080948e-01 -5.113565340358887656e-01 -7.794610856666110976e-01
5.680807592065811873e-02 -2.102550222067783858e-01 -8.312106402250423187e-01 1.725589170129669947e-01 -1.562672211112487997e-01 9.725245373590734044e-01
2.825457269083061704e-02 -2.419487878679892900e-01 -8.293660251585530663e-01 -9.376112940149654573e-01 -1.178340954780800615e-01 3.271088309392525817e-01
-1.058282946981149303e-01 1.893038805145890813e-03 -8.030610286543697907e-01 -6.755406068975781109e-01 -7.326056518719769040e-01 -8.326972605747691436e-02
-1.055299184531677259e-02 -1.514749981612029672e-01 -8.126509691224031995e-01 1.625871168469575356e-02 -2.035595973016856020e-01 9.789275482081039037e-01
6.547017001453023233e-02 4.743127573249446977e-02 -8.369384693680216314e-01 -5.817052573236767277e-01 1.850916079437029960e-01 -7.920606607266955645e-01
9.595346019935134529e-02 1.228725755064198621e-01 -8.637368818325947828e-01 -8.345006248507684798e-01 -6.853961250924058002e-02 5.467275634543772300e-01
2.840518393255522800e-02 -2.741638229458111531e-01 -8.366158229980442673e-01 -5.524694787996687895e-01 2.567570464042960299e-01 7.930027075089747246e-01
-5.183338825203835654e-02 -7.950973590376908540e-02 -7.994119455793926576e-01 -5.186076482811927124e-02 5.110814977634918488e-02 -9.973456863584865273e-01
-1.022498592902295333e-01 6.541931848411823569e-02 -8.198550871094180126e-01 6.608243370095588931e-01 5.982595614554596652e-01 4.532071190338891609e-01
1.467493083606996075e-02 1.461787644991731361e-01 -8.573115626124223621e-01 -1.390933501400010708e-01 -3.602841389934025584e-01 -9.224144291676131813e-01
-3.013290062244625492e-02 -8.538869252875948279e-02 -8.020738307814621049e-01 -1.766683000729622754e-01 -6.648553869863943477e-02 -9.820223953114721738e-01
-4.420502834297230371e-02 -1.482155234613805050e-01 -8.070452246189726564e-01 2.674197984899951419e-01 6.356126809583907689e-02 9.614814696985164444e-01
6.224909999259975457e-02 1.506698849012794439e-01 -8.733635899989852236e-01 1.249054142412711899e-01 3.527969287613431648e-01 9.273257057527199976e-01
-2.770444699394837909e-02 1.889199953947387489e-01 -8.731702721744323270e-01 9.491007072116802723e-01 1.639723515443896381e-03 -3.149685045795544425e-01
8.330502352724615620e-04 4.510003486503947473e-02 -8.215779300086218928e-01 -2.085276946067915749e-01 -3.024730938123952328e-01 -9.300678620947692155e-01
1.033307849938881057e-01 -8.626823720186417577e-02 -8.232247628627298308e-01 -1.662072868566143724e-01 -2.013460156258458159e-02 -9.858852547916918674e-01
7.990447664722311397e-03 5.322612771844353885e-02 -8.272173262986143305e-01 -1.501101253754487386e-01 -2.231768016374769126e-01 -9.631505933500915662e-01
-3.457652241656081205e-02 1.155538449306658805e-01 -8.469452625887993191e-01 2.059335668368235672e-01 4.217762531016839289e-01 8.830040534274844477e-01
2.819505796904219624e-03 -5.642872585627245474e-02 -8.163983229173125133e-01 6.702880468660354918e-03 -5.243723758346990893e-02 9.986017261691657598e-01
-2.475895320609290684e-02 6.292420429819294003e-02 -8.328134885412898925e-01 1.440465871801472342e-01 2.609147131215110438e-01 9.545543950967236846e-01
-3.692614269142693861e-02 2.226158269594930711e-02 -8.139443209807711854e-01 -1.294568338183557932e-01 -1.936567398682004226e-01 -9.724906144952487619e-01
4.580489960907011687e-02 -8.322824818701407557e-02 -8.217226541453446220e-01 1.813789849325728454e-01 1.086842640104321127e-02 9.833532128042266063e-01
-2.504655690063653517e-03 3.467847323460168663e-02 -8.288941878850801803e-01 2.831153077815033448e-01 3.393007348225353659e-01 8.970622798048483171e-01
-6.851179716284307164e-02 4.847762870796497314e-02 -8.154953165752526489e-01 -4.569709050256273719e-02 -1.314708746351763158e-01 -9.902662192775548711e-01
9.654014896408007196e-02 -9.968851586360080730e-02 -8.220276050607171481e-01 -1.610405467271667779e-01 9.101774414425375503e-04 -9.869473713865598574e-01
2.658504483973341687e-02 -2.067363504292906440e-01 -8.223522894394943439e-01 -9.397166426018737084e-01 -1.041409283674364500e-01 3.257104521746739256e-01
1.773617797685190806e-03 -5.486204762049740752e-02 -8.124466657310976947e-01 9.412136404798757683e-01 7.012549505325157972e-02 -3.304531705373022765e-01
3.847925156463231910e-02 4.205033759214611699e-02 -8.366619592936519467e-01 1.539100260609178872e-01 2.114988937302827166e-01 9.651838798015610621e-01
1.490726818470203795e-02 -1.565117659722544130e-01 -8.116665144006675048e-01 4.458229872634398294e-01 5.604385072361423026e-01 -6.979617064240896118e-01
-2.404780040982897743e-02 -4.843223450959557690e-03 -8.174576015620935721e-01 2.555465970022077760e-01 2.776429504995184816e-01 9.260725289082454292e-01
-5.883854666592407828e-02 -1.666269540404521909e-02 -8.044689262754096681e-01 -4.028080111006619723e-02 -3.753774149885909933e-02 -9.984830369240611514e-01
-4.281867762927608900e-02 2.639768121186873429e-01 -9.133136866194475623e-01 3.253183775592342619e-01 1.460102659617159848e-01 -9.342638575135058243e-01
-2.115908421870772368e-02 1.586093740805824548e-01 -8.584633108753896291e-01 3.827458976784379324e-02 -2.571130160595525016e-01 -9.656230904192709685e-01
3.322441246450765634e-02 1.789775548811240735e-01 -8.818404429877231276e-01 1.224607896636762255e-01 3.991964182041772280e-01 9.086504139039967010e-01
4.095423918268592534e-02 1.518853059996628785e-01 -8.647450376709487907e-01 -6.067028370101803514e-01 3.883925244605815341e-02 -7.939793322456382141e-01
-2.040349903947534516e-02 2.731112118732217375e-01 -9.205374651839152156e-01 -7.698574360810486183e-01 3.095101486551041226e-02 -6.374649502439400095e-01
2.250186950331576480e-02 -3.471033001497875192e-01 -8.503831795297874807e-01 4.440047642638912939e-01 3.072732797319219222e-01 -8.416905018317327736e-01
4.277533744773875241e-02 -1.925853003125622132e-01 -8.213026414619966076e-01 -7.064859668413632221e-01 5.090847021353834823e-01 -4.916404628465315674e-01
1.068881638083170882e-01 -6.958769749463022958e-02 -8.242520141556671787e-01 -1.035562207303721283e-01 -8.592274302090288640e-02 -9.909053392629421086e-01
-5.874463470036175167e-02 -4.619441360449198092e-02 -8.071854857322129373e-01 -5.717836933970879554e-02 -1.074280581901238124e-01 9.925673006870371351e-01
1.608892592165132862e-02 -6.590367909751707054e-02 -8.148559701174934444e-01 -9.407499673180662603e-01 -7.002152579931496257e-02 3.317928343346083220e-01
9.739834602862451618e-02 -1.413482898321708481e-01 -8.239611227542553706e-01 -9.290611525996879116e-01 3.344407261949985943e-02 -3.684112766145480333e-01
1.168036172616957746e-01 5.114271239282194847e-03 -8.335698450514241742e-01 -1.742798324661469223e-01 -1.416502611102381792e-01 -9.744545877171357784e-01
8.296685791169218505e-02 1.049666648334642433e-01 -8.597584692644721915e-01 1.204965501513378667e-01 2.969410723594518298e-01 9.472626779028322508e-01
-2.312173143334716671e-02 2.483219920767928968e-01 -9.039878248381003623e-01 6.434714424237752972e-02 -6.061363076447210396e-01 -7.927535692651749288e-01
4.326513303168194602e-02 1.840025299772339584e-01 -8.853600839857048710e-01 1.107837712044138362e-01 4.254990142034933975e-01 8.981522949642690712e-01
-2.531631073257302814e-02 -7.025455388794152149e-04 -8.124533222217750206e-01 -2.043323287178856404e-02 -4.485418558053909377e-02 -9.987845538604978035e-01
-2.664448128030708074e-02 -1.983608506105581041e-03 -8.175983885593971490e-01 2.555465970022077760e-01 2.776429504995184816e-01 9.260725289082454292e-01
1.922496005004512704e-02 -1.461635959942139407e-01 -8.079233770561401462e-01 -2.529483804419819792e-01 4.687191977786726860e-02 -9.663436966049478993e-01
-5.626255178633335352e-02 -1.143360002803513464e-01 -7.973621187083402839e-01 -1.768991936155336064e-01 -2.185821598083858078e-02 -9.839862263732703784e-01
1.886003579556879296e-03 5.383111439480082333e-02 -8.362889760943414963e-01 -5.115952719232318424e-01 1.808770739063414734e-01 8.399724768591375623e-01
6.012942698868276731e-02 9.160476669239782377e-02 -8.491517037968180359e-01 7.892597006928163683e-01 -3.754471150811691249e-01 4.859100622949818482e-01
1.393523560063019730e-02 -2.561488070814414014e-02 -8.156357645778219423e-01 -7.364988567690240462e-01 3.616509408022229866e-01 -5.716450218402917560e-01
2.849618979038473152e-02 -3.064813344918735916e-01 -8.374119124994700014e-01 -2.493835509816094698e-01 2.783194699717285725e-01 -9.275484446294215424e-01
8.501793118272137420e-03 -1.348881939727342993e-01 -8.118633712568734673e-01 9.387830680692265117e-01 9.086544980532487714e-02 -3.323098270262344611e-01
3.197672504126752857e-02 -3.281921006107920702e-01 -8.476081474316961017e-01 -9.996579206447943067e-01 -2.505755682072409798e-02 -7.494033513532314533e-03
-4.608630203231533357e-02 -1.235318598679694402e-01 -8.066383406349074692e-01 1.428696099310186041e-01 -2.971938693667560555e-02 9.892952201432424486e-01
1.274622534563501532e-02 1.368751147452297035e-01 -8.616224169657359377e-01 1.072154579339906488e-01 3.560814851449807805e-01 9.282838044030226055e-01
3.216277132289434987e-02 -1.680754993234480077e-01 -8.217584332779394041e-01 1.736254929100773670e-01 -9.771945093288292306e-02 9.799515789676080946e-01
-2.592986408832981607e-02 2.042878107483250827e-01 -8.843491838204257105e-01 5.379880844933485617e-01 8.065621779908547229e-01 2.450025999409529420e-01
-7.746697162507918885e-03 1.890428623170165856e-01 -8.816105121431582203e-01 1.044287776603758100e-01 4.280998889660697637e-01 8.976776233501638780e-01
-6.750587362387767965e-02 -6.788402561721743056e-02 -7.980845441367865334e-01 -6.476868170647315237e-02 2.684923427811161667e-02 -9.975390400824845072e-01
8.016704664516131895e-02 -2.651922920377522419e-02 -8.308381395219555099e-01 3.886856143414712528e-01 -6.097150327164491818e-02 9.193508410790673935e-01
-3.577764236657361013e-02 2.685023785070181912e-01 -9.276072644446408111e-01 6.579966821371054098e-03 5.288278166880675535e-01 8.487036257337194911e-01
9.831772708700541735e-03 1.806235231737226554e-01 -8.770221689471113802e-01 -4.544527083732016748e-01 6.666373885100482788e-01 5.908192008497731296e-01
-3.016864317616883145e-02 -1.959089183573531900e-01 -8.141542859076986716e-01 1.896040850446791270e-01 -1.216115542765269925e-01 9.743002210821968267e-01
8.638508401557147554e-02 8.220597404923593587e-02 -8.524609734424447582e-01 2.732024670557221466e-02 3.304882117552907506e-01 9.434146204139178815e-01
1.137592557853075136e-02 -8.089017291270592103e-02 -8.196575379176389564e-01 7.814979875731661862e-02 1.622152142771487657e-02 9.968096464203991536e-01
6.016128305236154161e-02 -2.136700347913179920e-01 -8.321738417057724657e-01 1.018537124492223250e-01 -1.158822056832621572e-01 9.880268901534478010e-01
-5.198831614739739954e-02 8.081100674143916474e-02 -8.334538893661811443e-01 2.156276572664628799e-01 3.685356542235245225e-01 9.042600206731555845e-01
7.353814764525573588e-02 -1.346479703342291501e-01 -8.189926331151399230e-01 -1.792789122970659399e-01 5.294823840797704267e-02 -9.823724118963605978e-01
2.483630101333140355e-02 -2.350138365244548444e-01 -8.323311321660983308e-01 -4.784471175576820445e-01 -1.860571432607356634e-01 8.581789412135439887e-01
-9.674666326532262162e-02 8.821608778605956325e-02 -8.302651036087175251e-01 1.109296511856121409e-01 2.744643360144537469e-01 9.551774394027442439e-01
-8.344510122892294379e-02 1.845258737578114872e-01 -8.697112606870431861e-01 -1.397718387890788394e-01 1.475622456796736592e-01 9.791267623405517373e-01
-5.755056231088211821e-02 1.568646967186645702e-01 -8.525623103060006036e-01 -1.335411534805474865e-01 -4.021701213065771441e-01 -9.057736769498977436e-01
7.760122436744701369e-02 1.012254122954317909e-01 -8.499601868742963084e-01 -6.663374564822255319e-02 -3.268923655522439353e-01 -9.427095657118081951e-01
-5.360014716421473285e-02 8.205118588535405266e-02 -8.335749771988708590e-01 2.156276572664628799e-01 3.685356542235245225e-01 9.042600206731555845e-01
-4.747710195077027573e-02 1.747443049390242920e-01 -8.641554300523102139e-01 3.340322285449641715e-01 1.252595513876040845e-01 -9.342015387909938795e-01
8.441405301075073642e-03 2.292073379401891320e-01 -8.970960282418474208e-01 7.734813777202557139e-01 -6.284892925066728475e-01 -8.202296949292167683e-02
5.020679636988778505e-02 -8.083285289500445267e-03 -8.291703100282561412e-01 1.742267119543530751e-01 1.226719198329701971e-01 9.770346221736813108e-01
1.793303375327832830e-03 -1.122400337971008605e-01 -8.142093278231160580e-01 1.415627805245166237e-01 -1.431613507701144476e-02 9.898257561038832364e-01
-1.106440292372342510e-02 -1.180917028294903859e-01 -8.047169419148751945e-01 -1.374776241881745520e-01 3.781428544594485353e-02 -9.897827957000402410e-01
-2.863399440219289993e-02 2.363806592559605513e-01 -9.083799283721145645e-01 3.101150156275169281e-02 4.353914173464176196e-01 8.997069525528305078e-01
-3.423135671612610731e-02 2.409751743559271076e-01 -9.051948453463888322e-01 -2.316644990241813196e-02 3.782101044854392913e-01 9.254298636115174670e-01
5.671003720701708883e-02 -1.243796685198414048e-01 -8.221932203573487641e-01 7.328519625378544511e-01 -4.936185903764899185e-01 4.682613460869282651e-01
-1.289718130912598064e-02 2.476126572826340966e-01 -9.126926213056850701e-01 9.101126205123417912e-02 5.178380689590734720e-01 8.506237032416740229e-01
-3.113695586715484534e-02 2.609762050720256799e-01 -9.125983569319469080e-01 -6.214280222708645773e-01 1.287708996544402740e-01 -7.728164520367741819e-01
-2.932632838488985483e-02 1.053700819343547784e-01 -8.421655473569067407e-01 4.912608765892442775e-01 7.038129133578873153e-01 5.131375391875460101e-01
7.422993502720175163e-02 -9.916240156694179630e-02 -8.230795371016753625e-01 7.639369972914544782e-01 -5.252222882632633372e-01 3.748890663660618960e-01
-2.617442288625776436e-02 2.765038123404731096e-01 -9.207144362932824233e-01 -1.040479723075969642e-01 -5.461477159735163012e-01 -8.312019560826290343e-01
2.460704973296901077e-02 -1.768179358721708172e-01 -8.131031503349441802e-01 -7.358740486569230743e-01 2.322782058609479741e-02 -6.767199220239407120e-01
-4.273765701150980534e-02 -3.846561750321095957e-02 -8.046937887006359036e-01 -3.475828559686289926e-02 1.635133932696155798e-02 -9.992619753020633988e-01
9.241935364938347330e-02 4.853183556147973310e-02 -8.379044446040201377e-01 -1.545413334945633654e-01 -1.972441407290141946e-01 -9.680969606345197764e-01
3.144183100517739665e-02 1.883452725970193586e-01 -8.785811095308962981e-01 1.264204132014654369e-01 -5.545925278272116898e-01 -8.224627694942756584e-01
5.289560165075411768e-02 1.293967280327200098e-01 -8.641390210656871851e-01 1.164567685424532650e-01 3.439979716042083635e-01 9.317205678704530980e-01
-9.982347635010835329e-02 1.264581620034515574e-01 -8.407697193599380503e-01 9.607613220495676565e-01 2.636646797102894513e-01 8.613140383644748987e-02
-3.449610095138493787e-02 -5.039997954973132049e-02 -8.094053825121781953e-01 5.809576315545118552e-01 5.585222360798927088e-01 5.920651502519705955e-01
2.197634315191960772e-02 -1.782296724128454857e-01 -8.233022947623348520e-01 -4.660648941118515909e-01 -1.251583713569793532e-01 8.758532391649737070e-01
-6.844922542560880063e-02 1.066917092554652870e-02 -8.071008778304051834e-01 -1.667679106735781014e-01 -2.085479906189630916e-01 -9.636888499813424103e-01
-4.606830485137706349e-02 2.914001573668692502e-01 -9.367231744650161840e-01 9.949482184054931899e-01 1.003685074086037576e-01 -2.050710195009223472e-03
4.990152462497034896e-02 4.207853519465216269e-02 -8.305944681092660709e-01 -1.518600112238382982e-01 -1.953264534324779533e-01 -9.689097551271665942e-01
-1.014890227486392182e-01 9.601260272809553076e-02 -8.241613156672509266e-01 -1.782955947557774146e-01 -3.361939324243029548e-01 -9.247617642894665480e-01
-2.406717327745336657e-02 1.860339023318562934e-01 -8.839835140501985933e-01 1.807691473725989983e-01 4.478664100877673970e-01 8.756358798457720694e-01
2.661685875289830638e-02 -2.518598578915396957e-01 -8.256965649494129034e-01 -1.653448202994682037e-01 1.939744623163442705e-01 -9.669720773472321174e-01
-5.223666274105842611e-02 2.284432493012310966e-02 -8.183441112150626751e-01 2.381127642456711546e-01 3.129217502067074830e-01 9.194467302409945475e-01
-5.730134703086020576e-02 1.837866357289316965e-01 -8.718355062948860423e-01 1.983241502504677622e-01 5.201661098629978275e-01 8.307194168775794418e-01
-5.306591635659017869e-02 -1.452488539437088444e-01 -8.008098230577671561e-01 3.489260877020883833e-01 4.924156056501732825e-01 -7.973565429800443249e-01
4.642065548557183785e-02 1.030363961424697883e-01 -8.537667853916964811e-01 2.403681818825141592e-02 3.654663767403306673e-01 9.305141368317193518e-01
1.108782000181210980e-01 -7.750049125658822757e-02 -8.319058384138314777e-01 -5.059110083530349300e-02 1.265205659354557144e-01 9.906730474337352987e-01
-6.398518864022248454e-02 1.176843128839522856e-01 -8.365759628348420351e-01 -1.411967383865535275e-01 -3.575991864599881720e-01 -9.231393735033480707e-01
-7.676973684473552273e-02 5.597871177718079932e-02 -8.237188767048462257e-01 1.435495155848000581e-01 2.641042393788224363e-01 9.537517954465420944e-01
-7.355104441450242836e-02 1.782532452512642918e-01 -8.672437295977883931e-01 -1.089750605955127488e-01 1.813384766486561273e-01 9.773642069642970442e-01
-8.420292488988819282e-03 -1.351708255184105034e-01 -8.091471853300270523e-01 4.442567486261254639e-01 5.588126115904175073e-01 -7.002602419298415981e-01
1.129459779426531668e-02 -5.905594234054953318e-02 -8.074475841227769513e-01 -2.417679626755432909e-01 -6.931898708788541974e-02 -9.678549117780136379e-01
2.785213050891036449e-02 -3.087989786102331990e-01 -8.512630719443194938e-01 -4.804591284879968782e-01 -2.744319738160297395e-01 8.329742598664091613e-01
2.606992406775775553e-02 -2.654397767623294796e-02 -8.180715768887988348e-01 5.273013144452269874e-01 -5.390710622476746483e-01 -6.567767608796001300e-01
-9.730000359503443441e-02 1.295234980289644844e-01 -8.372259872803380354e-01 4.241281811349744690e-01 -1.248815705622284833e-01 -8.969503215346150693e-01
5.571559322143216850e-03 -8.585621642335369841e-02 -8.174836088431428616e-01 7.255484505319904631e-01 6.670935008526043819e-02 6.849301486588467158e-01
7.506710657416676424e-02 9.011543984739493751e-02 -8.541300766902598651e-01 1.098520850645728908e-01 2.762562731712717157e-01 9.547853114394279084e-01
1.138726493389285825e-02 -1.774683299861072316e-01 -8.118730723823281981e-01 -2.694241186402896449e-01 -3.265223172446525546e-02 -9.624679091057087854e-01
-2.820319571707959397e-02 2.117392941643105042e-01 -8.814059190449152759e-01 5.070088134297615623e-01 -3.038976647171983125e-01 -8.065905234280765779e-01
