-1.059318736794859633e-01 8.653476695095953242e-02 -7.125524880820859330e-01 -4.440426713613221388e-01 -2.304059675427390097e-01 -8.658748155079895037e-01
2.692607383083979108e-02 7.072444612036397904e-02 -8.065838348687000003e-01 -6.119456763785244835e-01 -3.264049721514951652e-01 -7.204042499294488477e-01
1.187278795293695566e-01 -1.721543430228812122e-01 -8.383926775447737567e-01 -7.444854023931700704e-01 1.853568556151824476e-02 -6.673813857040395980e-01
6.534156321843465065e-02 6.080140655021056689e-02 -8.353688089014112972e-01 -7.183315757634374243e-01 -2.546406863144360377e-01 -6.474240249902144528e-01
-1.068714071762935820e-02 -3.486833209631477748e-02 -7.430159755050043113e-01 6.439901426601671863e-01 2.692836422202660174e-01 7.160747280760053624e-01
3.020190563488570328e-03 -8.164765425908977747e-02 -7.314147297962836358e-01 -6.617556184853011780e-01 -1.718333063052251142e-01 -7.297621641653881941e-01
-1.395896500728675653e-02 -1.845071233815899839e-02 -7.359364525989648964e-01 -6.445789474285653631e-01 -4.435253624931173033e-01 -6.227384951624813647e-01
2.629550605277016645e-02 1.213165840518587099e-02 -7.818308601451996465e-01 -6.505980377795125280e-01 -2.607947991137630206e-01 -7.132378747603496105e-01
4.931321770656595105e-02 -1.890111957863288561e-01 -7.730917141541062687e-01 7.174405876395060222e-01 -3.869218416429040519e-02 6.955443322262622186e-01
8.115737251815594022e-02 -7.435304923147285916e-02 -8.082271422827959073e-01 -7.178290673846408065e-01 -1.206448919445570200e-01 -6.856866923496350852e-01
-1.216290309164591715e-01 1.045955258383701875e-01 -7.210185436432450246e-01 4.518850067218342370e-01 1.173316091342001405e-01 8.843264296615741538e-01
-9.925020275778574652e-02 1.672933568508802593e-01 -7.695770591513844128e-01 -4.944985696374768480e-01 -6.720991438757992764e-01 -5.511387351909745602e-01
1.216156597255571292e-01 -3.324333459729036933e-01 -8.704103442552713066e-01 -7.504687266996091788e-01 -3.403667430413919170e-01 5.665219946985838861e-01
-5.744739083236109073e-02 1.036770622672036624e-01 -7.680149619127758509e-01 5.380978373422387051e-01 4.027609016223575034e-01 7.404285067256334285e-01
-3.254407008248517280e-03 7.621719048673473995e-02 -7.849036680953134226e-01 -7.107770191268779625e-01 -3.083194294465264607e-01 -6.322461217808125200e-01
4.762522840811057867e-02 -8.110798014153530744e-02 -7.892825349917046429e-01 6.384660279082932099e-01 1.138652519898888799e-01 7.611805538742341115e-01
-1.645072990322418022e-02 -5.876704203693853407e-02 -7.197499287596615947e-01 -6.622939515063275273e-01 -2.264821365318410440e-01 -7.141936457503011981e-01
-8.239716421532723711e-02 1.782110299126813402e-01 -7.877262671631980462e-01 -4.910545128751008237e-01 -5.114162296018153198e-01 -7.052084128006846919e-01
-3.649179194764392425e-02 1.497917892449566468e-01 -8.010664608408382126e-01 -6.192228819686421692e-01 -4.179624187919691591e-01 -6.647333592682224124e-01
-6.292495383478960425e-02 2.474277203363964978e-03 -7.020100726101773381e-01 -6.051548562032063039e-01 -2.956123323074811293e-01 -7.391893864236742662e-01
-1.089367362823165028e-02 2.947690112533777815e-02 -7.695309525782119131e-01 8.762707618903242679e-01 4.605034987065905194e-01 1.417253665902477588e-01
-5.006380084518016749e-02 7.297734885773798919e-02 -7.463731584893243953e-01 -5.662309903934045208e-01 -4.110277626451198096e-01 -7.144498889726639268e-01
-4.351479631074420956e-02 -1.322728996555924165e-02 -7.119959323199922530e-01 -6.129988960646201024e-01 -2.713649616866108394e-01 -7.420198184633488570e-01
-1.122445688450524059e-02 -1.136560399728405307e-01 -7.207667535652597657e-01 6.970988809682504561e-01 1.749944444694374324e-01 6.952913738553399003e-01
7.159181484783960769e-02 1.145696811954049002e-02 -8.302375418730938428e-01 8.495983475531369011e-01 1.361611875626179413e-01 5.095515467904269125e-01
7.787910366781154725e-02 4.439260951173901182e-02 -8.398935464574609489e-01 -3.246233279244447045e-01 -3.583263872405720862e-01 -8.753410165040695912e-01
-1.650541990394447101e-01 2.468802685904080418e-01 -7.900237378569311408e-01 6.142796523689862676e-02 -2.534957104703831621e-01 -9.653841359065157279e-01
8.529413722098766470e-02 -1.429911695967988616e-01 -8.048390645136914712e-01 -6.133874292664109884e-01 -9.992194621335320770e-02 -7.834356810120913783e-01
7.244992586919668520e-02 -1.587877413681993977e-01 -7.990581684059084866e-01 7.383005680158497563e-01 3.852628698312201005e-01 -5.536106866714965991e-01
1.150871952109547153e-01 -7.340179315687936357e-02 -8.433044115236488780e-01 -7.996087585802993392e-01 -6.873768200833110797e-02 -5.965743577072302184e-01
6.974052016073106763e-02 -1.140722110755557489e-01 -7.901233624600045857e-01 -6.854501364871760094e-01 -1.038388400696221986e-01 -7.206771854878628591e-01
3.072786192138106387e-02 -3.880346908312742177e-02 -7.836363983726345461e-01 6.046428200018767463e-01 1.871552502010411512e-01 7.741963397887928755e-01
-7.773775470601830551e-02 1.427221547247734812e-01 -7.772173339111028145e-01 4.929603346151451015e-01 4.859556360048887247e-01 7.216905350156729293e-01
7.117231873409859966e-02 -1.995863202135736703e-01 -7.867563891107421936e-01 -8.008856001779927070e-01 -2.030656947868534346e-01 -5.633352279311754085e-01
7.155250459130554908e-02 8.228389365500266353e-03 -8.276198846860108871e-01 9.607789876257194495e-01 -1.666085598014124258e-01 -2.216874483090930659e-01
1.050865374034218314e-01 -2.540233531747594919e-01 -8.414058717212243854e-01 -4.747029699550854298e-01 -3.975751422666589652e-01 7.852331479041539941e-01
-1.276707447632952352e-01 2.217444722492410425e-01 -7.926101782828141040e-01 -4.226094424441838027e-01 -5.760133936482773054e-01 -6.997212512814020569e-01
-1.908284231540966977e-02 5.123349595091184622e-02 -7.703079950169852141e-01 5.689048834917060926e-01 3.064755384851138853e-01 7.631644500692809086e-01
3.859674656190690417e-02 -4.171246128741857434e-03 -7.938961439620294547e-01 9.955648142416197999e-01 -9.184082285169799242e-02 -2.039519310945736227e-02
-5.149431538417592602e-02 1.409156284821887484e-01 -7.946224086435353939e-01 5.364529561133349889e-01 4.461707046692175993e-01 7.163448388675933698e-01
2.636270215773072606e-02 -1.091698929152010514e-02 -7.762313152356663526e-01 -7.217097539814822937e-01 -4.285116473849404639e-01 5.436108893900419847e-01
3.123331232632652402e-02 9.788096857960792985e-02 -8.233027174670142223e-01 -6.785326016613605349e-01 -3.294574657563688058e-01 -6.565449617048756403e-01
7.870026478873959341e-02 -8.476946733667883871e-02 -8.038221115007746498e-01 -7.178290673846408065e-01 -1.206448919445570200e-01 -6.856866923496350852e-01
9.486169413031311781e-02 -2.479509024785156168e-01 -8.319119264523661128e-01 9.847154751430026165e-01 1.544068873471361181e-01 8.058502437586843870e-02
-5.000196278735780098e-02 -2.102624709143931930e-02 -7.128530659158033300e-01 6.349954345618418206e-01 3.916492305664486806e-01 6.658766239194213732e-01
7.063106129313029280e-02 -1.100597050234650709e-01 -7.901565663939105200e-01 -9.377445595019864300e-01 -3.228068153073069824e-01 -1.281830765568517660e-01
-3.101024636257717834e-02 8.833175687295136136e-02 -7.705847496705313660e-01 -8.253398263555944414e-01 -5.448474800767009185e-01 -1.481735282882419291e-01
2.089973105829936312e-02 1.181194578709546250e-01 -8.352441358882181088e-01 5.533020847624069427e-01 3.878334364385458422e-01 7.371852064290510542e-01
-4.555441616497912793e-02 1.874451690933424675e-01 -8.189053246734163682e-01 -5.735161604205020192e-01 -5.530625501730822569e-01 -6.043186488373265552e-01
1.073051763111679269e-01 -3.339503254535519661e-01 -8.695720827024071564e-01 9.966687372181730620e-01 6.869998608241403848e-02 4.395156611781413786e-02
-4.693097305679916342e-02 -6.168201715730957900e-03 -7.117553412236440336e-01 -6.129988960646201024e-01 -2.713649616866108394e-01 -7.420198184633488570e-01
7.615356570605316677e-02 7.545172920372253400e-03 -8.347227077217080904e-01 6.666619841738239405e-01 2.266929914333306040e-01 7.100507633207838731e-01
7.966562932327557467e-02 -1.779273106534606103e-02 -8.199524672415582360e-01 -6.511830756406815635e-01 -2.011888735269840300e-01 -7.317674761617146695e-01
-1.160291216241558232e-01 1.333224742775221405e-01 -7.445984664473325187e-01 4.828595339000618103e-01 4.586915321435812709e-01 7.459549241486305160e-01
7.203827872428200663e-02 7.320164629988354550e-03 -8.255235438166599327e-01 3.227322511472999755e-01 -3.736060748486362271e-01 -8.696334830867492593e-01
-1.197337398729026448e-01 2.288843568218201785e-01 -8.031658024492299708e-01 -4.300019693551522248e-01 -5.746658851784998134e-01 -6.963170447164868104e-01
4.923269386535261694e-02 -1.931577430667069384e-01 -7.730827457891127352e-01 7.086754426424451969e-01 -2.647481708784381327e-02 7.050377302355523845e-01
4.444105262989935662e-02 -2.643514921872551840e-02 -7.955082271783182613e-01 6.891800275961252886e-01 1.949000357461304900e-01 6.978859975875438826e-01
2.282406123161644443e-02 -9.655348674585227664e-02 -7.469711968386130163e-01 -6.810578948271557298e-01 -1.273375031017670578e-01 -7.210723293799383704e-01
5.583065567904362675e-02 -8.263852830047993536e-02 -7.780653149012526359e-01 -6.486430551734745364e-01 -1.172362863918048059e-01 -7.520092021566487928e-01
-4.904210351322205175e-02 9.122999340383980416e-02 -7.583287532544286114e-01 -5.340827641756678013e-01 -2.711741140814349360e-01 -8.007622623866755829e-01
-1.091129732791267133e-02 6.531596177743935472e-02 -7.836158529248908877e-01 5.736595740852404868e-01 3.535383732565160475e-01 7.388675873899713809e-01
-5.887490767088420993e-03 -9.135110744238898739e-02 -7.266069404876893678e-01 6.472731162271322392e-01 6.923549292848276693e-01 3.188764100786044553e-01
7.778427704336017545e-02 -2.472898049849731744e-02 -8.163712736803160341e-01 -6.511830756406815635e-01 -2.011888735269840300e-01 -7.317674761617146695e-01
1.059647386747796238e-01 -2.553010751659861577e-01 -8.358541064289206624e-01 -9.440040919374804718e-01 2.614349112212990267e-01 2.012661461846093902e-01
3.956055817017987281e-02 -1.189339786476983907e-01 -7.634664675791300592e-01 -2.616387948733042701e-01 6.027051124331292975e-01 -7.538512376219952404e-01
-1.402682955720160884e-01 2.183278642441408568e-01 -7.809949454708443595e-01 7.421510593534401401e-02 -2.402039018536384629e-01 -9.678812962266051256e-01
-1.288030108945399932e-01 1.419924458003285206e-01 -7.409114207294329457e-01 4.285011217528167382e-01 1.912552713258301174e-01 8.830675001644329170e-01
-4.935726176955836098e-02 3.121494868912880541e-02 -7.261240983407405425e-01 -5.948852802143409502e-01 -3.157308299780159921e-01 -7.392060243164273459e-01
-5.570594332758047745e-02 -9.306902322956460763e-03 -7.135061000876032899e-01 6.256322128579729913e-01 3.156954238034095916e-01 7.133868050532065075e-01
-4.382060907315374343e-02 2.457312395782285455e-02 -7.380584484641760090e-01 5.941822563155790826e-01 3.044596759635549987e-01 7.444808607290683833e-01
5.734266265572741245e-02 -7.600204159096105028e-02 -7.834448027690066318e-01 -9.263132973960840344e-01 -3.514219591587717795e-01 -1.358170890875109449e-01
-1.170023956379045715e-01 9.986251961255127041e-02 -7.222479399092311958e-01 5.156783239412833231e-01 4.194922248876267745e-01 7.470623397521372056e-01
-6.044159184898980491e-02 -3.790263637560476601e-02 -6.980899288350830290e-01 6.441708035646500630e-01 2.706697772870063634e-01 7.153892978639498912e-01
8.870146701036174530e-02 -1.484816083899338952e-02 -8.383276063082484297e-01 5.716350687143675335e-01 2.270479299309282328e-01 7.884685064921747033e-01
-7.570565183608589377e-02 2.574277822408549063e-02 -7.110615670165315594e-01 5.906083535858973610e-01 4.619574937132059911e-01 6.616472222240253886e-01
3.834117050188128040e-02 -1.614050332721940206e-01 -7.606813447257088079e-01 7.076829105592928881e-01 6.547765416441045927e-01 2.654290462909325576e-01
2.981735158741468869e-02 -1.516841130392003988e-02 -7.738854377228336912e-01 -8.988212282630863026e-01 -4.063509898738304482e-01 -1.643145539877552130e-01
-1.588980282303686098e-01 2.101098178840338782e-01 -7.647372707956754390e-01 -3.831746186030572376e-01 -4.502800551193462120e-01 -8.064893574128058074e-01
1.018206443293411395e-01 -2.197075339189084320e-01 -8.255980780401126484e-01 -7.454128360183941426e-01 -3.664617524321215902e-01 5.568352430507546025e-01
2.123942609010541147e-02 -1.183171160540007066e-01 -7.444883779003369506e-01 -5.352108283153287349e-01 -8.447075133822444792e-01 -4.311158731151934834e-03
1.050081507884629423e-01 -2.447050375281997758e-02 -8.426028371650797766e-01 -3.744028515228328691e-01 -2.606045049824288196e-01 -8.898920140974606596e-01
8.385401809136465434e-02 -1.617501853342067919e-01 -8.015735934082083292e-01 -6.049885268647720027e-01 -8.174469320215427270e-02 -7.920269487178316359e-01
7.983347624547576515e-02 3.890365901752053379e-02 -8.486922576645739014e-01 6.302675699172660684e-01 2.566254379437076238e-01 7.327388176634186401e-01
-3.992530832809884633e-02 -6.180877487503892015e-02 -6.986560099438354765e-01 -5.363998631686764940e-01 -3.801512390324122970e-02 -8.431073698807561856e-01
7.127115706273274946e-04 -2.958910383981400508e-02 -7.540390429561358854e-01 6.011097642126004281e-01 5.808902713401708356e-02 7.970525179026131113e-01
5.662187598765845015e-02 -1.316867192707276146e-01 -7.808351350552776848e-01 6.708170489932445690e-01 7.221173466837019772e-01 1.689704838085201999e-01
-1.703615078169219699e-02 -7.933596186699917729e-02 -7.228135603766586703e-01 6.908310695115140732e-01 3.009573526197323878e-01 6.574017837682673004e-01
7.576354151620127986e-02 -1.393172056949687487e-01 -7.898178010955122508e-01 -6.564600057241096742e-01 -3.784267144194743832e-02 -7.534110386122829794e-01
-5.047911408473317735e-02 1.358797997542223468e-01 -7.922461347853961833e-01 5.364529561133349889e-01 4.461707046692175993e-01 7.163448388675933698e-01
6.656345306076122403e-02 -5.286064123513667390e-02 -8.024444195447073547e-01 2.036435644028463110e-01 -3.405093547829191047e-01 -9.179230239963609428e-01
6.354892750684387748e-02 -1.663815499526662134e-01 -7.785336513474807596e-01 -7.168772106648706455e-01 -2.688428335782539619e-02 -6.966809170184661282e-01
-1.289134571295569576e-01 2.080794226912475453e-01 -7.808036408062380973e-01 -4.410954546845648472e-01 -5.805439617978002120e-01 -6.844001083260665697e-01
-1.594997500298610538e-01 2.095730837395944346e-01 -7.744234523716688745e-01 4.041032528877875896e-01 5.833054822627424807e-01 7.045958241202812111e-01
1.111251487739157856e-01 -3.545549721210293770e-01 -8.841351061445055226e-01 7.390555018480839955e-01 -2.704995857788503599e-01 6.169497056337309715e-01
6.127086022765362155e-02 9.037908575385257548e-02 -8.502776384990978764e-01 -4.618112891022710942e-01 -2.296763008858640764e-01 8.567258196582409058e-01
8.075240198961189386e-02 -2.876045944241564789e-02 -8.179478840265820283e-01 -6.880786677561721021e-01 -1.881553419608507915e-01 -7.008176041385422161e-01
-1.242710470421766883e-01 1.249573219641169491e-01 -7.254498835194437278e-01 1.628195247971681581e-01 3.186793153106843302e-01 -9.337736858243210758e-01
1.102259393648967051e-01 -1.537303055973192611e-01 -8.330091956975407275e-01 1.518063664590499073e-01 -2.695244302061914343e-01 -9.509528950608061582e-01
-1.168206181398170063e-01 6.236329336387513161e-02 -6.972474781746798023e-01 7.844698509950407406e-01 3.460433813687180393e-01 -5.146465108117632692e-01
2.850424873046120827e-02 -2.214391708231265576e-02 -7.806535872234368068e-01 -4.968496115593600271e-01 -3.410707567390668382e-01 7.980045127634013413e-01
-4.940651255067805836e-02 1.357806165921420227e-01 -7.826123787877380389e-01 -4.847993663948997334e-01 -4.610112205873617697e-01 -7.432618844227482091e-01
1.192088041946064714e-01 -3.259452107855413394e-01 -8.603958589545044333e-01 -8.262923161177927467e-01 1.845047631733445215e-01 -5.321644489169129466e-01
8.979427675627060790e-02 -1.919633356611898656e-01 -8.195683276532931272e-01 1.903058038023110743e-01 -2.389092196853765393e-01 9.522111560932694507e-01
-8.530565220497750636e-03 -9.987597563301049697e-02 -7.172526332115805037e-01 -7.106836696217568861e-01 -4.339252321532644507e-01 -5.537486926699594081e-01
-9.520259160581076574e-02 1.415923269801582507e-01 -7.597573621944139211e-01 4.137324994590803606e-01 8.980010656985473183e-01 1.497314425750832512e-01
1.047472388917021630e-01 -1.808729328573711326e-01 -8.338252603633209414e-01 8.563233362928259762e-01 -7.282171005306491141e-02 5.112801015737569177e-01
1.387170081065744465e-02 -1.327393007809754277e-01 -7.313740037817046957e-01 -6.585646781353557966e-01 1.790511053703987276e-02 -7.523110870704563524e-01
3.610149567657998382e-02 -3.289504198663315004e-02 -7.801535137171354828e-01 -7.276697951568665834e-01 -4.176434142289727758e-01 5.441237430654267682e-01
7.784749424663874040e-02 -1.654244552061975571e-01 -8.042084677986536256e-01 6.560970604543735485e-01 -1.348162625766776423e-01 7.425370176684704671e-01
6.697550879646193590e-03 2.376226701715923942e-02 -7.750026169644613772e-01 -7.217097539814822937e-01 -4.285116473849404639e-01 5.436108893900419847e-01
-1.345723533830010532e-01 1.995338798695531213e-01 -7.811472955314001654e-01 4.300571049467669660e-01 5.596505914095109002e-01 7.084081464945121143e-01
-7.410476012156736597e-03 5.739862883781319397e-02 -7.723898308229397713e-01 -6.031876420230569691e-01 -3.399122374756090581e-01 -7.215430266622979705e-01
-4.097426568719406137e-02 -6.530478769697213581e-02 -7.049911372652625241e-01 6.698917655617255829e-01 3.422233610115278379e-01 6.588840517196997704e-01
-5.650572077243119079e-02 1.056082475825351058e-01 -7.594550906341546170e-01 -5.348592913026674056e-01 -3.849589846272013505e-01 -7.521516593493645653e-01
1.050874278754099361e-01 -2.925744835354399664e-01 -8.546200548906751626e-01 7.234463261846781901e-01 -1.718450128150629252e-01 6.686514074616782821e-01
2.501424368927857370e-02 1.774530186727186695e-02 -7.827259061667738438e-01 -6.325453157642646485e-01 -2.854594029660686982e-01 -7.199995505296807874e-01
1.413515140057002017e-02 1.366590132133963797e-01 -8.401563040082777878e-01 5.542709605470299561e-01 4.002580585190431695e-01 7.297788630022378209e-01
-4.012205239418593222e-02 -2.588008416847044357e-02 -7.113688805873679133e-01 -6.103721241650480467e-01 -1.549380417838680524e-01 -7.768140532009107924e-01
-2.449648933606190723e-02 7.825435465128624535e-02 -7.698114393881165807e-01 -8.253398263555944414e-01 -5.448474800767009185e-01 -1.481735282882419291e-01
-1.601219325664857418e-01 2.295820232360594737e-01 -7.917662005383430124e-01 6.836107861642056749e-01 4.858496774249864147e-01 -5.446341744565730281e-01
4.057803748121776438e-02 -1.032206748376997552e-01 -7.734438936833109013e-01 6.929426098252260413e-01 1.064118912237934783e-01 7.130968019103577360e-01
-1.098325285621438580e-01 1.861434067340085041e-01 -7.769165935103552467e-01 -4.289525365919952260e-01 -3.702174393555471843e-01 -8.239774080327169070e-01
-1.403636920959165368e-01 1.757135337575957967e-01 -7.590128734970477131e-01 4.401444623664670930e-01 5.255459867824450182e-01 7.280619946302647749e-01
6.703915047008296435e-02 -8.298897639407760984e-02 -7.935766201466529779e-01 -5.358096304616429828e-01 -1.833728008133431175e-01 -8.241859352272566941e-01
-1.620141051855147341e-01 2.405377051227267915e-01 -7.887556086980060943e-01 -3.706955986056747476e-01 -5.898765734461437482e-01 -7.173774468672796667e-01
-4.586731313664017123e-02 1.844818100083990831e-01 -8.166361283083729550e-01 -5.195724085807839066e-01 -4.984985157584345128e-01 -6.939335285372806306e-01
5.488337466700473483e-02 -1.620742892424868742e-01 -7.805691231001622432e-01 7.292884934358992988e-01 6.144601802279144737e-02 6.814416190776281246e-01
-2.426679891605696554e-02 -4.991516277090150139e-02 -7.213851320716306859e-01 1.179275979731578411e-01 -6.927032213830630614e-01 7.115162181720163792e-01
7.449373737724271360e-02 -1.566933603953289955e-01 -8.065955960615397435e-01 6.728265776621775718e-01 1.564541053148497778e-03 7.397985865103382519e-01
-7.946339172805774731e-02 1.985120052738068019e-01 -8.140906843285753425e-01 3.584988725188831271e-01 5.467364554233363760e-01 7.566754963085667862e-01
1.040549911860371851e-01 -1.595245132957017961e-02 -8.447710696069390401e-01 -3.962269512388825743e-01 -2.752064806741267300e-01 -8.759369818125626317e-01
1.686501778990370445e-02 3.201388368523771372e-02 -7.917444659835672915e-01 6.247964950832310960e-01 2.984534791786416785e-01 7.214948790517327071e-01
-5.720391376373275272e-02 6.054232281796302628e-02 -7.353408066880500193e-01 -5.574081834736700491e-01 -2.513328786617344823e-01 -7.912824407884895273e-01
2.253143922859893525e-02 -2.638103963304393174e-02 -7.802380546917877524e-01 6.046428200018767463e-01 1.871552502010411512e-01 7.741963397887928755e-01
7.871140867128066654e-02 6.505953764731668698e-03 -8.367441294695058263e-01 6.373942731431985198e-01 2.428552119881759730e-01 7.312659479111767169e-01
-1.516115690044993747e-01 2.144023769200252838e-01 -7.820446761585901907e-01 3.618349003026349320e-01 3.445613246285517128e-01 8.662291835843445309e-01
1.041341839800845048e-01 -2.681028061674077811e-01 -8.468377376794250511e-01 2.339729367779869451e-01 -3.457429346176343898e-01 9.086905347902940466e-01
1.223233362510900424e-01 -3.764570166455096234e-01 -8.856722330198190107e-01 -8.335377434791053641e-01 2.439768465310145906e-01 -4.956713917027520955e-01
-1.230072301058414419e-01 1.697583466201390279e-01 -7.656672164627107424e-01 4.556972376773589239e-01 4.870021241056448624e-01 7.450966103062169887e-01
1.000263444017337466e-01 -2.208316621353451081e-01 -8.278432977142604621e-01 -4.761071096647443435e-01 -3.913823876111741096e-01 7.874908550544951202e-01
-7.168265486969681299e-02 7.835961043658983341e-03 -7.074613805428225932e-01 5.995936408214592728e-01 3.054598735682673705e-01 7.397173321790730949e-01
-6.041843713391002735e-02 6.337867800285865161e-02 -7.340087789158190601e-01 -5.375133737260701094e-01 -2.735735568213679691e-01 -7.976445838051704484e-01
9.204245298095327724e-03 -7.802668401262721765e-02 -7.379683226143024521e-01 -6.767675516587665641e-01 -2.188799224276299915e-01 -7.029062957321363658e-01
-4.183509877789296297e-03 7.468973305233604296e-03 -7.639153799952660417e-01 6.197188641562875189e-01 2.633931911235237178e-01 7.393054553285859365e-01
2.984811332727414432e-02 -6.369910341294410250e-02 -7.716234499967575822e-01 6.745848420361659770e-01 2.055226101160604890e-01 7.090104002242300085e-01
-1.932922820106777739e-03 1.073905502239776329e-02 -7.570254348332923211e-01 -6.300095902342829346e-01 -3.017707105208435325e-01 -7.155573733004056969e-01
-1.281125307624510767e-01 1.970785109801725943e-01 -7.894948107567958395e-01 5.131900882798025032e-01 5.453189475273414466e-01 6.627693254512020404e-01
1.076821733905747869e-01 -1.125088831225305591e-01 -8.300450408293500448e-01 -8.103017586201115563e-01 -1.836179288506784718e-02 -5.857251100466842608e-01
7.738707976389200272e-02 -1.385784627147632585e-02 -8.294126749439770796e-01 6.511216916353610440e-01 2.185201400949968731e-01 7.268352571627004766e-01
1.103254360177222289e-02 1.425802732705770681e-01 -8.364518388787496317e-01 9.619229596221443579e-01 -1.654251300252549961e-01 -2.175746908716678918e-01
6.575060984360257821e-02 -1.049980858963880798e-01 -7.836717041761344094e-01 -6.434615350708029480e-01 -7.481916985987338564e-02 -7.618131954132884021e-01
-1.482203758457166509e-03 2.159503382567968741e-02 -7.644265253545572403e-01 4.989837525494467685e-01 3.286444387686275337e-01 -8.018778258301734185e-01
-1.849128184508918096e-02 -9.331100894159036208e-02 -7.109738935790406167e-01 -4.241806906644889352e-01 -8.917625684892532822e-01 1.575762136518302770e-01
9.497788404788602701e-02 -1.943706967725541135e-01 -8.177776323458615382e-01 -7.432969568429486085e-01 -3.730221549922033142e-01 5.553054167149683584e-01
-5.686611717784322700e-02 1.219721768954998842e-01 -7.666171574008523448e-01 -5.076093230702886094e-01 -3.576525880128978985e-01 -7.838478177680917591e-01
-1.868209205163276574e-03 5.001701679995472494e-02 -7.822001197933717842e-01 4.437268873231379196e-01 3.755024605895027623e-01 8.136979486011675089e-01
2.261008252429057806e-03 -1.340884577175489346e-03 -7.662495186060214181e-01 6.265851725875215550e-01 2.495290940949169700e-01 7.383266571739340867e-01
-2.915003182865064102e-02 6.686490426249461216e-02 -7.640686989219317438e-01 5.103069403058722031e-01 3.088567548264924967e-01 -8.026171762887379657e-01
6.643955545658179751e-02 -1.387488773057003466e-01 -7.901210402155073309e-01 6.666523786206514091e-01 7.308575386686325670e-01 1.463620997753727893e-01
1.549647391112602378e-02 1.316383233083225079e-01 -8.287105944154044002e-01 -1.799577682400110568e-01 -4.660919968949744363e-01 -8.662409896100101703e-01
-3.208623919208912836e-03 -7.474318908537842809e-02 -7.273855986155790543e-01 -6.698876746838791085e-01 -1.803278061261255616e-01 -7.202307863763974805e-01
7.396339731971103559e-02 3.754459035293288699e-02 -8.393965471002353684e-01 9.448050366344765694e-01 -1.871482358173212623e-01 -2.689218856482116782e-01
-5.421570588519242923e-02 4.341018536880037609e-02 -7.297836378828915782e-01 -5.949457938026657677e-01 -5.129428389229330199e-01 -6.188126909123614627e-01
-1.576975320794404001e-01 2.012004997389364724e-01 -7.651256886063776408e-01 5.680844148769942370e-01 7.705718040522734347e-01 -2.889622680792217624e-01
4.278027765859337972e-02 5.657444397651861800e-02 -8.224534038536608360e-01 8.000807691393689858e-01 2.131164423339300951e-01 5.607603274664535453e-01
1.125404417505144472e-01 -3.165927268202716194e-01 -8.521886004287307914e-01 -2.262395085450125687e-01 3.746075380507801200e-01 -8.991578711265583168e-01
-7.132772713077910332e-02 1.978008358333591121e-01 -8.132115568121008886e-01 -9.277063465604092896e-01 -3.605641352154387858e-01 -9.671834855848437940e-02
3.150547566319643333e-02 4.906294697536526389e-02 -8.016955691984039012e-01 -7.271247407169953991e-01 -2.658205252060527046e-01 -6.329526521126366267e-01
1.029611672690382979e-02 -4.771689096724074375e-02 -7.579339122640217363e-01 6.642771506143906324e-01 2.250039492047354039e-01 7.128177116303289207e-01
-2.187048086104399422e-02 1.243137176797835981e-02 -7.407008685323155373e-01 -6.087712226056161136e-01 -2.960548726334409908e-01 -7.360360799018349498e-01
-3.618556540309027930e-02 6.302233477448275500e-02 -7.519949159850257692e-01 -5.748603965617714584e-01 -3.801121057490306487e-01 -7.246035547303648627e-01
9.338488645475968852e-02 -1.720468246944504009e-01 -8.104029449231934246e-01 -7.540939749256994062e-01 -2.989541934632691626e-03 -6.567597274649075167e-01
9.410538164635712244e-02 -2.290607393256650359e-01 -8.183768753173881194e-01 4.767848228015775791e-01 3.913818226113343068e-01 -7.870810007079946935e-01
-4.914151638061475119e-02 1.469333367017683079e-01 -8.000489093611621305e-01 5.084036967452594258e-01 4.537961415184588176e-01 7.318433869884413134e-01
-5.632807015718066523e-02 1.308728214596369954e-01 -7.842414334390788166e-01 7.139649814380287784e-01 3.808519833036285718e-01 5.875421449512263639e-01
3.386758249766401441e-02 -3.220999967219304039e-02 -7.816165844184894684e-01 -4.968496115593600271e-01 -3.410707567390668382e-01 7.980045127634013413e-01
6.247152431667226530e-02 -1.571982497456592964e-01 -7.888272680363941358e-01 7.193910721155942767e-01 2.579994437061397528e-02 6.941259599171096806e-01
2.479287147291519763e-02 -9.132259662749682427e-02 -7.497546222903194169e-01 -6.817592646186019234e-01 -1.279712220398481481e-01 -7.202969328244644975e-01
7.870323465347223157e-02 4.810620500120994097e-02 -8.509670477327373472e-01 6.348333327658333136e-01 2.635122851123095633e-01 7.263249377546621144e-01
-5.075975641102089403e-02 9.143735856743434587e-02 -7.704526717701707383e-01 8.254697965026361883e-01 5.447666585355387392e-01 1.477460754467615767e-01
5.110382019821878979e-02 4.142916586879928642e-02 -8.143585394783280362e-01 -5.913527405686488381e-01 -2.994014278770010251e-01 -7.487728101414751203e-01
5.940637338372345422e-02 -3.124848672847397452e-02 -8.040770337969550541e-01 -6.838551954343306816e-02 3.314517217758204959e-01 9.409905296274871933e-01
-1.539349845009058138e-02 1.533902560079073718e-01 -8.282431632158819834e-01 5.161411724597894102e-01 4.451598968759095665e-01 7.317314782796102701e-01
-9.050559206082674224e-02 2.241154946746611032e-01 -8.211764086859512091e-01 -5.388020993735997966e-01 -5.724575397093788487e-01 6.180490781001833911e-01
8.139939242346376502e-02 -2.326662725821070365e-01 -8.009836260146266929e-01 -8.679671021552307075e-02 7.433353851002659773e-01 -6.632637758490975699e-01
-4.570898510105247947e-02 1.656357423414872299e-01 -8.143541173906111430e-01 4.878546611725914639e-01 4.688583709399630761e-01 7.363217079318656877e-01
1.059161053334548158e-01 -4.919260170727566411e-02 -8.478203526225455144e-01 6.683288591595387684e-01 1.560614558138872510e-01 7.273110462682109700e-01
8.787428868681936012e-02 -6.091421501065454047e-02 -8.213991787353964735e-01 -9.857837506919719939e-01 9.534727561528892614e-02 -1.383448369271882417e-01
9.524668549012622887e-02 1.049930964494678702e-02 -8.469017608693110155e-01 -9.926170530180769003e-01 -3.628702207550166953e-02 1.157352067721851840e-01
-5.849629692648523893e-02 2.132868730675793398e-02 -7.236039912059321066e-01 6.142138183358160086e-01 4.451995220119466246e-01 6.515663979715893284e-01
-5.693784013681851136e-02 1.107182994556146355e-01 -7.717070988294015832e-01 4.941238086487632630e-01 2.663889424210887924e-01 8.275739200109042404e-01
6.107068707518296252e-02 2.408829381778338635e-02 -8.254324526339914536e-01 5.263576408483151559e-01 2.945785481605172618e-01 7.976033556124484392e-01
-1.037259217807892306e-02 -1.842710215494522408e-02 -7.398512179790907028e-01 -6.583697547419641305e-01 -4.613357165466460685e-01 -5.947424843404066630e-01
-6.062350553890705207e-02 1.836383706510825997e-01 -8.110865624093114290e-01 6.042013782295965196e-01 -4.155972407502175892e-01 -6.798673606125401614e-01
-1.173893681951724000e-01 1.765117071416912042e-01 -7.685386140609929972e-01 -2.778936365661732188e-01 -9.521648038326698815e-01 1.271114200153606044e-01
-9.055941376614631833e-02 7.091056947480900430e-02 -7.170897812634925428e-01 -1.791363709100481649e-01 2.918942236752524733e-01 -9.395253710263493652e-01
8.624731472970792803e-03 -6.823956766107279470e-02 -7.448441744741939319e-01 -5.341231838221384143e-01 -8.445367281698595852e-01 -3.834239528056084673e-02
-2.531371897469105597e-02 1.917224471047661652e-02 -7.405851905883863440e-01 -6.125739520417297079e-01 -3.140346117478877708e-01 -7.253519255536102772e-01
4.203274759230861413e-02 4.918651828783873053e-02 -8.175917351558728008e-01 9.859553330599232224e-01 -1.009587387441805567e-01 -1.330391456747985757e-01
-8.668277481959481279e-02 1.569033558178090093e-01 -7.838952743096943010e-01 -5.281152268574179631e-01 -2.872699858266930528e-01 7.991059143846135360e-01
-5.258749465205186241e-02 -4.462013864857231754e-02 -6.923849369633170436e-01 -5.896594459562941593e-01 -1.903256918507307827e-01 -7.849062802755860657e-01
-3.548982902455976446e-02 1.202568121883135499e-01 -7.924085408751658788e-01 4.231831710298435967e-01 4.543019217756459893e-01 7.839169392404280456e-01
-2.914710408970890704e-02 1.247218842271621830e-02 -7.348278289633777272e-01 -5.742736540588895267e-01 -1.705692413514181549e-01 -8.006971363497265015e-01
3.338857521059705041e-02 3.069696802999222207e-02 -7.969154473286929052e-01 -9.963690721391696981e-01 -2.343278841209054959e-03 -8.510688061962150275e-02
-9.100147455309297306e-02 1.051501653264023256e-01 -7.429828705781952314e-01 5.292131361219170049e-01 5.360833797600220718e-01 6.576838651670550151e-01
9.698948240009994115e-02 -7.022312321427176540e-02 -8.264618237449480320e-01 2.949994518037640789e-01 -3.266662174877772995e-01 -8.979223272576012382e-01
-4.998512186197646284e-02 2.511053081159618505e-02 -7.332076480300369070e-01 6.024861476331015986e-01 3.468086869517948978e-01 7.188422473429038062e-01
8.872838353714355974e-02 -1.643511179711125980e-01 -8.027646662272647227e-01 -9.563084260333926112e-01 -2.629690105923322418e-01 -1.277556016995925470e-01
9.870093846139985083e-02 -8.185925519086847957e-02 -8.246751242888347155e-01 -4.588396284865284835e-01 -1.897569352452646296e-01 -8.680198735378522601e-01
-1.089603013542365523e-01 6.579321257007708645e-02 -7.056291641856514696e-01 9.809830249028189675e-02 -6.847129275111774049e-01 7.221806768029719326e-01
-9.112169470324367471e-02 1.631447626391392958e-01 -7.817138966293515345e-01 6.386210145218218504e-01 4.624807990352972631e-01 6.150404135784836024e-01
1.250239277768048878e-02 9.447591086045517561e-02 -8.161405525214113776e-01 7.677172831863396940e-01 2.891763063943023071e-01 5.718279784315682956e-01
-9.184111841699837964e-02 1.874747223419184761e-01 -7.888503025691614434e-01 -2.173973410263494166e-01 -5.376120819441129184e-01 -8.146849976907575286e-01
6.514232070640421646e-02 -2.164585903183984805e-01 -7.812208598179060104e-01 -6.111968086512800102e-01 2.366400239604632971e-01 -7.552747580546314010e-01
-6.784524229940994133e-02 2.614298471159001713e-02 -7.103264934034029254e-01 -5.755751663485835223e-01 -2.344072027387471002e-01 -7.834325058273982068e-01
3.095985250717077017e-02 -6.253459167891885218e-02 -7.627823415821530784e-01 -6.250111393063463305e-01 -5.044135309025694208e-02 -7.789844322201870952e-01
-3.476151638604542404e-02 9.738961451745947739e-02 -7.719667485831844811e-01 -7.001515557648921861e-01 -3.520140921562982528e-01 -6.211874740232438130e-01
1.086397880229508089e-02 -9.967623153622652901e-03 -7.754281582561722841e-01 6.742975586036555891e-01 3.123821120247846084e-01 6.691339316968498707e-01
-1.301780597353852931e-01 2.452868157424829831e-01 -8.124767022604743039e-01 -4.851882117095918656e-01 -6.641879340247046626e-01 5.687238235857918767e-01
-7.429888390385794295e-02 1.639788339096046044e-01 -7.836322553253234346e-01 -6.221872868606167506e-01 -4.482523180709250821e-01 -6.418355236453237023e-01
-1.287754841152950469e-01 1.461446027878363085e-01 -7.388123508825328312e-01 -2.057832070246457257e-01 -9.252395134301160118e-01 3.187241981623829545e-01
1.097115328092983511e-01 -3.183345839029249613e-01 -8.678844126198023146e-01 7.162283614526531172e-01 -2.494835440402290716e-01 6.517475703859392233e-01
-2.935155695000571732e-02 -1.553983164669646595e-02 -7.230843182647129774e-01 -6.366108209390517469e-01 -2.957665772903387835e-01 -7.122140088633927002e-01
-1.544070339262707536e-01 1.841621098633796916e-01 -7.563712898311607535e-01 3.870718588185588227e-01 2.453342376386879187e-01 8.888118405787522880e-01
-7.530878803058177473e-02 3.462199022843168161e-02 -7.076208892804067840e-01 -5.544663874328904507e-01 -2.525281878654341283e-01 -7.929669220973342147e-01
8.627703684969870168e-02 -1.814817686775022365e-01 -8.025589340094239077e-01 -7.588180965553378288e-01 -7.313742044075977923e-03 -6.512615492392029859e-01
2.319814293867412253e-02 -5.949557210909733190e-02 -7.567515886082943899e-01 -6.250111393063463305e-01 -5.044135309025694208e-02 -7.789844322201870952e-01
-1.346550917875984077e-01 2.401964867846984042e-01 -8.145374807436034370e-01 4.231866913185093337e-01 5.942676861772592245e-01 6.839290470921814968e-01
4.367965612850031876e-02 -1.626199294426014519e-02 -7.978624035712760243e-01 6.707457639428348051e-01 2.188907662977638280e-01 7.086515029140351141e-01
9.149575804936468937e-02 -1.014595265425660003e-02 -8.413447360057428881e-01 2.861490545593575047e-02 3.249347471247460706e-01 9.453034419152006596e-01
-4.903271692435034329e-02 6.566718796670575897e-02 -7.433318087124288764e-01 -5.716401147938430238e-01 -3.548525571953013991e-01 -7.398021639671226168e-01
-3.199480182783553950e-02 -9.429151819381996480e-02 -7.054854327010363635e-01 9.206543483619871182e-01 3.865519290493519278e-01 -5.452684651059284265e-02
-1.524865413229871958e-01 2.113746667327327244e-01 -7.693472367696452263e-01 -4.102035165251749493e-01 -5.608313209265343158e-01 -7.191670908058706013e-01
-6.364837714669062396e-02 2.783485027425057143e-02 -7.139079484159215339e-01 -5.647896885387146959e-01 -2.234137845362705044e-01 -7.944173264723791705e-01
2.275936506509180016e-02 -9.415062483534758497e-02 -7.578886855585404980e-01 6.917100568518719239e-01 1.632636222378282265e-01 7.034786328693742874e-01
-1.535339510726239642e-01 1.876818540707830274e-01 -7.563815726037963483e-01 1.015776002902454844e-01 -5.550662310464069549e-01 8.255806867116090020e-01
-9.610502710372063884e-02 1.532578765725555181e-01 -7.614165424961476525e-01 -4.805994414093847644e-01 -4.822488669531733718e-01 -7.324344388676491402e-01
1.093996166601710757e-01 -2.518105706877139527e-01 -8.301649506713727478e-01 -8.086137187283610750e-01 8.027550276458469969e-02 -5.828376253642041371e-01
-1.920322040801075020e-02 1.293612087860809001e-01 -8.110854651232179968e-01 5.551835718361698424e-01 4.190230462110238197e-01 7.184642568056304190e-01
7.791048742608581990e-02 -1.493296315500821647e-01 -7.919331330029487637e-01 -1.924449003089798438e-01 2.071000550230775172e-01 -9.592051540491768336e-01
8.583517405326793193e-02 -1.355867766573989608e-01 -8.067712978197049134e-01 1.058163141285675957e-01 -2.721342466061822951e-01 -9.564234728865295132e-01
-1.563430695450264418e-01 2.367312859326116681e-01 -7.992394114794253435e-01 3.578060855443241928e-01 6.098073291180432509e-01 7.071844359863741492e-01
7.716659101873966919e-02 -8.108913499561022642e-02 -8.028647453748171126e-01 -7.150726866759478106e-01 -1.194435259974817448e-01 -6.887701335477103282e-01
-1.375587394253331430e-01 2.216398827362142665e-01 -7.828853190436374510e-01 -3.400363946312279784e-01 -5.741565064141528341e-01 -7.447949761300024507e-01
-6.374256818491305654e-02 7.329262580641680846e-02 -7.359487442523238165e-01 -5.585514676928822198e-01 -3.755453112031472696e-01 -7.395850033440771742e-01
-4.412762551421781781e-02 1.824678444109372466e-01 -8.245114152386038286e-01 -7.249378233177858344e-02 7.907576835532671711e-02 9.942291860442677986e-01
4.125022532785192590e-03 -5.122243766750624733e-02 -7.505756862681612906e-01 6.895505476270749057e-01 3.683257854895062855e-01 6.235833208246828185e-01
-6.573498496612113773e-02 1.148632781521056606e-01 -7.580684918336308975e-01 -5.543409108713009958e-01 -4.842214152785491721e-01 -6.769311453316468885e-01
-3.864045383405954187e-02 8.271177119234833508e-02 -7.640046787640678572e-01 5.103069403058722031e-01 3.088567548264924967e-01 -8.026171762887379657e-01
-1.356333004656996022e-01 2.433079899706181437e-01 -8.068157286563720776e-01 -9.142752689785574663e-03 -5.777500609134882392e-01 -8.161625311098972269e-01
3.639349122832615663e-02 7.631917510741957622e-02 -8.219376131377148509e-01 1.535927863194905263e-02 4.598513657859480408e-01 8.878630603559899415e-01
9.877149720217047457e-02 -1.357261854875642659e-01 -8.281250780924153121e-01 5.925374314297806588e-01 9.904341097972202412e-02 7.994309195271971369e-01
7.964073564477290590e-02 -6.998506087181741685e-03 -8.230650914480622804e-01 -6.488702320518558997e-01 -2.181585405338097583e-01 -7.289542325476467965e-01
-9.523069219635572902e-02 1.472465514314464929e-01 -7.680799486348984795e-01 5.011486125723085827e-01 5.301649895541319379e-01 6.839408980079473288e-01
3.833509526031983472e-02 -1.438805681343087450e-01 -7.542483092678423651e-01 -7.046366418164317080e-01 -6.603176273664881912e-02 -7.064892138734691907e-01
-3.555342794611989019e-03 6.928069906844071257e-02 -7.812879093331196456e-01 -6.107449844144003936e-01 -3.434375937211761043e-01 -7.134712210255311771e-01
8.111810731216860179e-03 -4.522693371702808662e-02 -7.566843160016073488e-01 6.642771506143906324e-01 2.250039492047354039e-01 7.128177116303289207e-01
-9.843872782643771011e-03 9.401312880520662496e-02 -7.884052466759448041e-01 -5.884560878045420607e-01 -3.652795752903668647e-01 -7.213114893036587372e-01
1.530411686674076378e-02 4.148541215103674490e-02 -7.847428263770637180e-01 -4.604903003430793618e-01 -3.450002014868482902e-01 -8.178774628659081225e-01
1.007951539763530246e-01 -1.541521805751698837e-01 -8.197581755137113291e-01 -8.349023802863712040e-01 2.799675941811315474e-02 -5.496855436103773584e-01
1.169410979511011639e-01 -3.757572408992254087e-01 -8.815837970573424665e-01 -2.275994253709576476e-01 4.532309407558452463e-01 -8.618469794066587752e-01
6.661701346084542008e-02 -1.486567205853738804e-01 -7.857817022738601276e-01 -6.535579251326270045e-01 -7.452524049756377167e-01 -1.321396661656282778e-01
6.214232259898324479e-02 -1.038382852484473762e-01 -7.810005831244724028e-01 -1.689560321169849277e-01 1.538930391240644346e-01 -9.735352031233610592e-01
1.046610961966342318e-01 -7.197145126090889744e-02 -8.316709694829038657e-01 -6.782307246174397175e-01 -1.347071104484815762e-01 -7.223967598069106488e-01
8.580370264304852668e-02 -1.835284919101631829e-01 -8.166544872354188911e-01 1.903058038023110743e-01 -2.389092196853765393e-01 9.522111560932694507e-01
-2.440892063600172066e-02 1.150118257829673730e-02 -7.485391050284965209e-01 6.157063481474648325e-01 3.271868380860138426e-01 7.168364289251693000e-01
-8.176955995976892266e-02 1.067907347902279785e-01 -7.517918463028110398e-01 5.318307315252788214e-01 4.481018612836354942e-01 7.185824899894429629e-01
7.742923456147660956e-03 -1.203218345688315816e-01 -7.378790279931131124e-01 6.835361841749080236e-01 1.021655340559602942e-01 7.227312699576978750e-01
-3.019162414544638781e-02 -3.612757553104199715e-02 -7.191863385510073314e-01 -4.174914688417453168e-01 3.388789366516654633e-01 -8.431262893174419348e-01
-1.804091929533889818e-02 8.258224793686552712e-02 -7.864701980726135355e-01 5.970953925798517803e-01 3.639202245756400500e-01 7.148700317573318808e-01
2.684513019391717228e-02 -1.075854552740204695e-01 -7.504334201739204513e-01 -3.154570122759142725e-01 5.360142994556686968e-01 -7.830552625357948271e-01
2.688840139347992500e-02 1.358499889241973069e-01 -8.394871271514849909e-01 -8.383252985723534945e-01 -5.394731662305481956e-01 -7.860913872293512350e-02
-5.563168008560177846e-02 -4.389442696125133575e-02 -6.901058942607549707e-01 -6.233893207972499573e-01 -2.393858426093626868e-01 -7.443656178748110364e-01
-1.108985043920002189e-01 9.775672238835533823e-02 -7.252879607799760375e-01 5.207974547385781916e-01 4.238814403484412741e-01 7.410091333215464982e-01
2.485859206758785078e-02 -7.824677695933819621e-02 -7.548933358580807162e-01 -5.658194693073874681e-01 -8.204678734692225639e-01 -8.173614107356853842e-02
-1.919722617621786448e-02 3.742560593362193738e-02 -7.628786005889767186e-01 6.180131515132293307e-01 4.847262546410132655e-01 6.189508886966573753e-01
-7.686973182102133095e-02 5.184059810086372178e-02 -7.222911997450061072e-01 1.488398619603691631e-01 -5.824481674124899477e-01 7.991250388828087248e-01
1.110362806036084699e-01 -2.266558333676414738e-01 -8.334661370443631201e-01 -8.812555023241298580e-01 1.210391063947955509e-01 -4.568788398980576093e-01
-5.460721648929334898e-02 1.032949243189130450e-01 -7.662345433214177159e-01 5.100084065306123016e-01 3.086744064129936516e-01 -8.028770367208740710e-01
2.177272385847020195e-02 1.264295701655503701e-01 -8.298782996949963797e-01 -5.873841486302356918e-01 -3.756253219809394528e-01 -7.168580608632708628e-01
1.174311929018271444e-01 -3.325100670497476707e-01 -8.749121180649261920e-01 -4.728981706882363079e-01 -4.162226789458436382e-01 7.766118732615828746e-01
6.681796203742496054e-02 4.949588522162411824e-02 -8.373767479928984070e-01 1.986154273680830473e-02 3.895682089928633185e-01 9.207834325519801411e-01
-2.384031850045475326e-02 7.879163482079473702e-02 -7.754470986494689244e-01 9.997983559115857233e-01 1.133527849482056130e-06 2.008102375889131777e-02
3.854835552064563020e-02 -5.678563605979625867e-02 -7.860582420800367176e-01 6.235406139630010891e-01 1.474497488326004246e-01 7.677601671797298355e-01
6.099077323517063803e-02 -8.762752534284033723e-02 -7.821679688823316434e-01 -7.300474574587322296e-01 -1.677124125788722331e-01 -6.624977407697438814e-01
9.730949540187706914e-02 -9.170981093762677061e-02 -8.319352053157792470e-01 7.160934072575035891e-01 1.042866843795807186e-01 6.901699207756397669e-01
-1.205356437990754565e-01 1.918140436308038987e-01 -7.741328013521667772e-01 -4.032607162353721852e-01 -3.732363084320871605e-01 -8.355090979811785612e-01
4.649087539902321126e-02 -1.825501352024772594e-01 -7.691216461067547083e-01 6.329234098755400773e-01 -2.034667408578036130e-01 7.470001623803186330e-01
2.096313510588776376e-03 -1.312268654413155378e-01 -7.295446684647893809e-01 7.310527930800961860e-01 2.552448584272161702e-01 6.327810648054036369e-01
-4.475401595944861893e-02 8.333015120227520167e-02 -7.691941960928212474e-01 7.103738226448930160e-01 4.479092181610205836e-01 -5.429054838434270724e-01
2.682352647279969901e-02 1.371803977900453407e-02 -7.923009540614196489e-01 4.832163668822527791e-01 3.108001370367589056e-01 8.184773775707231414e-01
9.515364479369620154e-02 -1.918119912606537081e-01 -8.141566829767338254e-01 -8.699822040155567038e-01 5.486069459201595166e-02 -4.900217024633869434e-01
3.633643678532625515e-02 -1.756078284903809794e-01 -7.491644023529961949e-01 -7.463881709034243528e-01 -8.383204649640549344e-02 -6.602097290374214777e-01
8.568378435730765463e-02 -7.766798155247647828e-02 -8.165823537045798775e-01 -9.916056596742999218e-01 1.200560060930546541e-01 -4.800803164972217846e-02
6.024334611421135882e-02 -1.995418744448833673e-02 -8.081837373079010511e-01 -4.629229110538156389e-02 3.482939678823443463e-01 9.362416011484359091e-01
6.290510027631809886e-02 -1.129427609302317559e-01 -7.940942457335445903e-01 7.178864223987833082e-01 9.391332465469363899e-02 6.897966163933960670e-01
5.975624020874155395e-02 7.639532074053610733e-02 -8.457431421360123158e-01 4.546250895484930110e-01 3.235719616973238844e-01 8.298296292350438863e-01
-7.980583210342946654e-02 1.404838445789016455e-01 -7.743006335932334228e-01 4.924040398600205148e-01 4.856106963767040097e-01 7.223022311290916431e-01
9.331686004777237087e-02 -1.437245979183739697e-01 -8.114867829424416978e-01 -7.202666401995259093e-01 -4.430355724152808955e-02 -6.922811291891708407e-01
1.083338836579188919e-01 -8.440903014240053182e-02 -8.335174853021048991e-01 -7.136250090027761450e-01 -1.047297709552827832e-01 -6.926550523900346645e-01
-1.929702070337442968e-02 4.398601452639570170e-02 -7.570514754783441713e-01 -5.416639419315176784e-01 -1.389965743902666639e-01 -8.290235981677365196e-01
5.065184499683663549e-02 -7.899404562602996283e-02 -7.784574102214910640e-01 -6.502808658399047426e-01 -5.249721307757483288e-03 -7.596757439517828336e-01
-7.424351613493476720e-02 1.362292895989626884e-01 -7.750336930501844357e-01 5.053850675403316339e-01 5.901966137742931107e-01 6.294870058997346085e-01
-6.795216803931916454e-03 -3.931420269122688771e-02 -7.350303198985009834e-01 -6.122404372334865341e-01 -9.464477085108276289e-02 -7.849866332407802183e-01
2.935849014055264689e-02 -1.560515220767942079e-01 -7.487038587832914871e-01 -3.335595314974367231e-01 5.577483280665181953e-01 -7.600360790687600288e-01
2.859766698786029085e-02 -6.081993320877049358e-02 -7.712683105362667657e-01 6.745848420361659770e-01 2.055226101160604890e-01 7.090104002242300085e-01
-7.606631809303338043e-02 1.531535807596045018e-01 -7.750642673672561989e-01 -7.505581003207743018e-01 -6.440611846885975211e-01 -1.478097710585829783e-01
1.775627082418823957e-02 1.038240405424175061e-01 -8.151736462235587011e-01 -5.591204199093922078e-01 -3.701798404075395954e-01 -7.418566180847842029e-01
4.682596694443664359e-02 -1.883788299047050308e-01 -7.594568922590613225e-01 -6.887668884763016308e-01 4.918861321426533373e-02 -7.233122794953308343e-01
6.014344932780228692e-02 2.143215307421928589e-02 -8.151511697060006556e-01 -7.476172263552157693e-01 -2.105167446898068839e-01 -6.298818802459241750e-01
1.098818374049363306e-01 -2.243542235255626682e-01 -8.402847234200668813e-01 -1.203928336995995357e-01 1.593450769737388417e-01 9.798544341064207019e-01
