3.228101048996365185e-02 5.211876422908289647e-02 -8.613409320762211996e-01 1.509411617984516285e-01 8.646707744818137309e-01 -4.791254714915019752e-01
-5.441396602513441649e-02 1.450457074426334328e-02 -9.588196406735930433e-01 1.088261614857407439e-02 -8.814710221818597979e-01 4.721127044673016915e-01
-1.388620548277079945e-02 -1.290760401569226168e-01 -1.135106985090558407e+00 -1.609924520264375547e-01 5.835920180159476223e-01 -7.959282548688599856e-01
5.787571521255120699e-02 8.408973126106654428e-02 -7.505611081921298444e-01 -6.959934403648594392e-01 6.760126185445818336e-01 2.420745144321980735e-01
9.652994934781997105e-02 2.669648089054955584e-02 -9.266607609449530880e-01 -4.024966990586020810e-02 9.129155731048541611e-01 -4.061589842107454218e-01
5.935788108424830400e-02 1.669302424769224897e-03 -9.806009812316225371e-01 -4.958621654953128122e-01 -3.822450068481516583e-01 7.797496185122217982e-01
-6.356599968765601349e-02 -1.033684906463190195e-01 -1.108498825456632364e+00 3.898770462660796077e-01 8.031012507935811895e-01 -4.505821454170399476e-01
-6.619515417704284477e-02 7.674843271687669527e-03 -9.683896240447114057e-01 1.320994473262790958e-01 -8.217530536834751764e-01 5.543208951302261989e-01
-7.843594695825129026e-03 -6.507508349193764354e-04 -9.812366246755185317e-01 9.884418839802444623e-01 -1.380262816871667131e-01 6.270077796327636066e-02
-5.136568913482794652e-02 -3.247565831444441942e-02 -1.033324976193844336e+00 1.476533197102140038e-01 -7.494642185773755516e-01 6.453695702857061844e-01
6.537476754124306802e-03 -1.065281649452653467e-01 -1.113645160610590379e+00 -1.610202953322142361e-01 7.753179810284240858e-01 -6.107000022802805406e-01
-9.219314290877628215e-02 3.780091418126009517e-02 -9.081200238190636487e-01 -2.579270798768087403e-01 -9.517376997866625610e-01 1.663399298755854905e-01
2.144082419252265823e-02 7.575174330220033059e-02 -7.769274791485989429e-01 -3.916732008510803720e-02 9.805944515442178711e-01 -1.920948792603407729e-01
-3.171079052413146998e-02 -1.371919046720662949e-01 -1.142569047134225801e+00 1.176047109573206545e-01 7.557060654644414122e-01 -6.442650654667675392e-01
9.311556754687995430e-02 3.373907575176569862e-02 -9.289455685273765306e-01 1.016028537043719461e-02 -9.016786662570319688e-01 4.322873482050234029e-01
-3.259748887656053074e-03 -1.556114618045128239e-01 -1.153854442330127572e+00 -1.101316324528631430e-01 6.500627966471361763e-01 -7.518572896159027019e-01
-2.917225128644505144e-02 7.922865454361717463e-02 -7.544985174203350242e-01 -6.403080712374074022e-03 9.839849392036922326e-01 -1.781365767541767675e-01
7.096419089437351613e-02 -7.804701294299296044e-02 -1.096578920053577377e+00 -3.826208640618203871e-01 -4.910092495917722233e-01 7.826309418876247204e-01
6.684498647205044421e-03 6.249812289270961774e-02 -8.149816626019962262e-01 -6.389378378130409208e-01 7.289578085749820469e-01 -2.457212907510373801e-01
6.737582018651046278e-02 -5.318287643492161654e-02 -1.055137969025403910e+00 -4.325704055889564859e-02 7.972467272294510021e-01 -6.021017226050887627e-01
1.089808020142158523e-01 2.311347487391293611e-03 -9.758796397626540164e-01 -2.526180792443904477e-01 8.951934908536082203e-01 -3.671685171310383189e-01
6.151575992458772207e-02 8.324098753888264923e-02 -7.813866858494551426e-01 3.300676826627280819e-02 -9.801685947791379805e-01 1.953972340062836710e-01
-1.545611348836980689e-02 7.800743585704135452e-02 -7.616202739114855680e-01 -1.155793413131618076e-02 9.828394111791745047e-01 -1.841008038863199969e-01
4.620093708739498109e-03 3.154734624900511902e-02 -9.307639282878228393e-01 -6.003376379802395357e-01 -7.070287584204977271e-01 3.737713942915855125e-01
8.163956781435893414e-03 7.505716763920355916e-02 -8.055649712442911614e-01 -5.753048227895292133e-01 -5.186764484367643036e-01 6.324548226649339133e-01
-7.228644854577589984e-02 1.352382729464244975e-02 -9.434630241859079947e-01 -9.280499652305717467e-03 8.911308986429189449e-01 -4.536514011992766604e-01
4.834690225726385321e-02 -3.758946603876955200e-02 -1.041035922842811656e+00 -5.179755798555910618e-01 -2.996539968298605472e-01 8.011920998469431732e-01
5.949948956154851171e-02 5.556973560576956850e-02 -8.526254977435506754e-01 -3.576223691136763694e-02 9.522124586758472509e-01 -3.033356160321320494e-01
-3.502578001508217798e-02 -6.943149789516414594e-02 -1.071385436120382062e+00 -1.860696889210486926e-01 6.569024089648551890e-01 -7.306553879641168869e-01
-1.011939281226211136e-02 -1.083299442594596179e-01 -1.117048946682444921e+00 9.789289558704422634e-01 1.375704420211114054e-01 -1.509055096426954179e-01
-4.451010671078772102e-02 8.114941320207937070e-02 -7.452271583174461256e-01 1.171377312587471714e-01 9.892390939353039592e-01 -8.766280251972345672e-02
-2.331494315281232299e-02 7.935498234719745581e-02 -7.540112517449168994e-01 -6.403080712374074022e-03 9.839849392036922326e-01 -1.781365767541767675e-01
-3.930783918377925984e-02 2.798302239462548829e-02 -9.330932569637738760e-01 3.887991317209853886e-02 -8.909568627590770395e-01 4.524204030039243873e-01
-9.752213715677432448e-02 4.442889883234214105e-02 -8.804722669521926059e-01 6.379427442848887297e-01 7.648151711766690841e-01 8.992668654113400439e-02
-3.365130897001494814e-02 5.480104267144092489e-02 -8.709445643407828230e-01 3.738807575766508323e-02 -9.286137472067681475e-01 3.691593697710290334e-01
2.596433488067617645e-02 -5.394469216322874544e-02 -1.055731679044188187e+00 -1.611545095870475230e-01 8.444729229895097111e-01 -5.107785296753494242e-01
4.118093733912370734e-03 6.881752402301787030e-02 -7.843649959121030690e-01 -9.521810504549062248e-02 9.789716688418065305e-01 -1.804105985706886961e-01
1.285625195482747139e-02 9.250617954567733059e-02 -6.419798100556373122e-01 -7.063850971521736799e-01 2.246050597603502508e-01 -6.712470943336467100e-01
-2.111671485011476848e-02 -9.356826239399568257e-03 -9.873182335262590259e-01 -4.406194997656249362e-02 8.532597847971932215e-01 -5.196212892214004953e-01
-3.779221119071239643e-02 5.744990222532079388e-02 -8.633507542983356320e-01 3.686188750300784661e-02 -9.373960480773043669e-01 3.463088943396741559e-01
-5.175525560143349330e-02 7.164963548437991436e-02 -8.129511332029950577e-01 4.944055269033564293e-01 -6.499862300383946190e-01 5.771317663479367255e-01
-5.368316632790522819e-02 7.007733050755819704e-02 -7.949098141551557140e-01 7.100489344384913748e-02 9.813606425823229173e-01 -1.785765782442861604e-01
-9.528767641204556604e-02 5.846748992038707654e-02 -8.565972770399293834e-01 5.059037293564064980e-02 -9.395162696924391765e-01 3.387473884023851634e-01
4.683959284751324642e-03 8.009165904434367711e-02 -7.901114949510752439e-01 -2.200870689870612282e-02 -9.671611641342685584e-01 2.532092008815890471e-01
8.529664777383904814e-03 5.571802626192448593e-02 -8.483233068457073367e-01 -9.878516533405817812e-01 1.522986144497686656e-01 -3.089082434898564322e-02
4.140690999493539665e-02 8.035272347979433016e-02 -7.564864703118568956e-01 -1.152927824150532521e-01 9.883879311292166348e-01 -9.897914892088130467e-02
-3.437041153494153900e-02 6.690894614221953862e-02 -8.312877807128700169e-01 1.150444416686464688e-01 -9.265275322336711250e-01 3.582059581499628109e-01
-2.682405334929387902e-02 6.825718507906709809e-02 -8.301992874434744873e-01 1.137035841065440755e-01 -9.266788855474111797e-01 3.582425687183669605e-01
4.618631776853372034e-02 2.245655466316923837e-02 -9.366819614178136799e-01 -5.591797548471103552e-01 8.198164492463627662e-01 1.233652759661784809e-01
2.519659184074276442e-02 -5.564547264524970227e-02 -1.061150488664647007e+00 -5.785138039692515610e-01 8.151215714819959324e-01 -2.997669631142858143e-02
-5.936925506763307547e-02 1.319703439084059932e-02 -9.449493197093371544e-01 -4.704674153763384326e-02 8.763666285089062313e-01 -4.793413570167127102e-01
-6.430450721850035356e-02 -8.952095837378300225e-02 -1.103437122358612799e+00 1.155734854541826118e-01 -6.944618650253010506e-01 7.101869384081576086e-01
1.583595605147205751e-02 6.268272976766871458e-03 -9.638435824869328039e-01 -1.546924988103226817e-01 9.135674757404408375e-01 -3.761179310815389587e-01
1.047065024104412156e-01 5.064186788935199496e-02 -8.721844068434041475e-01 -2.082066818657612173e-01 9.469569986903424441e-01 -2.447905640702441321e-01
-1.446555286704001402e-02 5.813804877223897188e-02 -8.398067691229502696e-01 -1.021118083981353494e-02 9.578543694121310903e-01 -2.870727064420186547e-01
-1.987648319797222576e-02 -2.404553988242561814e-03 -9.898395132653634576e-01 -1.154901603589755105e-01 -9.066574240337216262e-01 4.057515721532012343e-01
9.283049894611283825e-02 1.204814620163664144e-03 -9.750753670140281937e-01 -3.646766403220008668e-02 8.727909444544988959e-01 -4.867299834181764151e-01
2.014743814191219048e-02 -5.471388257402457628e-02 -1.065167244668875357e+00 -1.132247236636228366e-01 -6.943463012046806604e-01 7.106781099447732064e-01
3.304795384644222851e-03 2.886056712479020264e-02 -9.077701528016924870e-01 -8.556610942152621802e-02 9.386665475446707152e-01 -3.340412451165749030e-01
4.571373866519968382e-02 -2.836647793753391614e-02 -1.019857397094370954e+00 -2.215663925057769629e-03 8.181181150194053453e-01 -5.750459466081524473e-01
-1.123263184878638826e-01 1.781548203975330535e-02 -9.373304622131779507e-01 -7.209945231771907048e-01 -2.947577802310080708e-02 -6.923135677266682997e-01
-9.397457387763045317e-04 -1.167399670801691838e-02 -9.853115744451196312e-01 -1.079938728490483363e-01 8.535108394307385771e-01 -5.097612876644317392e-01
8.032331805545850356e-02 6.385756012456010600e-02 -8.279819469563638457e-01 -2.914062634436856078e-02 9.627487844048345789e-01 -2.688226218592309480e-01
7.771645036937398221e-02 -3.900440345657249508e-02 -1.036665046689527081e+00 8.108556238878538965e-04 7.921183817309943587e-01 -6.103669485129644690e-01
-5.251322701965180535e-03 8.458553141394399566e-02 -7.381517321715016511e-01 5.195348899150373789e-01 7.901397353952590574e-01 3.252117720970138515e-01
-9.137031928707459172e-02 -2.519663671428376550e-03 -9.716736841454128859e-01 -1.646878053847527709e-02 8.730739566591035894e-01 -4.873095991986954867e-01
9.427612380471402792e-03 -8.975180037243675468e-02 -1.095819591200978271e+00 -2.217899972366358871e-02 7.357487912499049987e-01 -6.768912823678269186e-01
-6.113664119496799859e-02 -8.579111951164437866e-02 -1.098679610899265802e+00 -2.354764651568883871e-01 -8.378038475753708525e-01 4.925804983402422010e-01
-3.747159689201982717e-03 1.417956218370462242e-02 -9.470662854777734951e-01 -1.901454849959385296e-01 8.127894034469309581e-01 -5.506524132154887452e-01
2.164862372018441262e-03 6.373848378262264580e-02 -8.283034404335434253e-01 -4.421971629800631742e-01 5.394400246009388722e-01 -7.165655091552495248e-01
5.982389243614696928e-02 2.145748385594119581e-02 -9.518381171626225656e-01 4.847345917591396741e-02 -8.937492634303756400e-01 4.459401057016311176e-01
2.750258706535912891e-03 -8.410615453770202421e-02 -1.087226994275408476e+00 -6.379243283445384938e-01 5.727671820942841219e-01 -5.147720917279243746e-01
3.351939416297444740e-02 -8.632442880654239356e-03 -9.888281361850688178e-01 -3.940587034424473944e-02 8.578943434497048326e-01 -5.123128661857050403e-01
6.037282648322089135e-02 6.520167204687733753e-02 -8.473915828727276445e-01 1.524463791555000572e-02 -9.450855028993571105e-01 3.264674458874771146e-01
5.802778906029208879e-03 4.220329944334309802e-02 -8.869955352102384394e-01 1.446099573918644965e-01 8.618520032983441048e-01 -4.861060425809926588e-01
1.784540092380724639e-03 -1.314265359893112550e-01 -1.135122657028274418e+00 -6.454921459732153588e-01 5.260279443510671449e-01 -5.537458724439253688e-01
-3.169353271016484008e-02 -6.984755780402060292e-03 -9.968362191187123411e-01 4.643328932252228231e-02 -8.426272735099077371e-01 5.364915913413277337e-01
-1.364428923886788943e-02 7.218543617556920367e-02 -8.170614203519056540e-01 -1.309748758875439456e-01 -9.833312009815871058e-01 1.261163393948300515e-01
-8.588658030528906195e-02 4.478596995150350979e-02 -8.903950138034141260e-01 1.252033427270459742e-01 -8.911593536972136631e-01 4.360723899628803357e-01
8.466513856912230573e-03 9.503028822489671679e-02 -6.415708938836967024e-01 -1.249623945941988196e-01 -8.061538794381972739e-01 -5.783600285324254076e-01
-5.226099135608877622e-02 -1.166192935855176749e-01 -1.125524317136485708e+00 7.280287243083746196e-01 6.845431243911020980e-01 -3.707947452147281053e-02
1.043212060965199861e-01 2.616369375244203058e-02 -9.302037187951053276e-01 -1.163925681367062176e-01 9.326737790148756924e-01 -3.414269936906763059e-01
3.337860785297683958e-02 7.782672472683418996e-02 -7.786698531025726400e-01 -4.961921934548917390e-01 8.242700955434434373e-01 2.727125166676913626e-01
-1.350711383489664949e-02 -1.453084049314947168e-01 -1.149033157543435824e+00 1.278629765908882721e-02 6.681720789052527643e-01 -7.438968904113026914e-01
-1.407996397048368389e-02 8.949612627803132936e-02 -7.276010355882936986e-01 5.576436468687746562e-01 -6.529329994642140145e-01 5.125544471737201180e-01
-6.017133592617504578e-02 5.175663480380753023e-02 -8.650852290015530466e-01 4.164601417603977507e-01 9.048611094482986728e-01 8.824580971866886892e-02
7.283384397144883338e-02 -5.334845376640962727e-02 -1.056041753418863305e+00 -1.363099686695861956e-01 8.350397089907014569e-01 -5.330368438016468424e-01
-1.493983775317523667e-02 4.336104873324708037e-02 -8.809891868640411516e-01 -3.530440365585464646e-02 9.268223801410850893e-01 -3.738366952990551106e-01
-5.537804899226389001e-03 4.567367990758360030e-02 -8.847789746053604798e-01 9.874242894993029429e-01 -1.548578126168624891e-01 3.181713969415442267e-02
6.715188315792745832e-02 -7.745809017898080961e-02 -1.095968181685788467e+00 1.847809266887332283e-02 -7.516783202211911874e-01 6.592710087670842212e-01
9.772099630830664851e-02 -1.403950800956883446e-02 -1.012155006128275803e+00 7.131632451115762494e-01 -6.075118294353683002e-01 -3.497535745607436852e-01
-3.867336585766505130e-02 7.502319590569513086e-02 -7.813987823101760100e-01 -7.073454719725555950e-01 2.672777315999640968e-01 -6.543890260928130198e-01
3.103356404414538486e-02 -3.724328022384715275e-02 -1.044688677195087623e+00 4.912783047907240234e-03 -7.906811231817616470e-01 6.122084824688006632e-01
-2.441561204584487277e-02 6.744461065169832237e-02 -8.330656245646167468e-01 1.137035841065440755e-01 -9.266788855474111797e-01 3.582425687183669605e-01
1.275612363803389944e-02 9.294449016412892339e-02 -6.868478974799907544e-01 -9.814686410449204867e-01 -1.875633089693799216e-01 3.923406394823306109e-02
2.432786201122147732e-03 8.941565554622314671e-02 -6.505868603952401630e-01 6.132601605191393412e-01 7.725957193087287234e-01 -1.643405915343721380e-01
1.928447951884039793e-02 -1.416668531780212736e-01 -1.152580699691298838e+00 -6.484599313193568637e-01 -1.821380535695388270e-02 7.610308632162785525e-01
6.559368697751878641e-02 -6.673605433331994408e-03 -1.001609319168283108e+00 4.505339096532735843e-02 -8.507201620600359782e-01 5.236844448969927290e-01
3.792571206990547061e-02 3.338723156253001201e-02 -9.100738984858512959e-01 1.537847280992754861e-01 8.259844268635225806e-01 -5.423098597502814533e-01
-2.010896490828634892e-02 -1.172692513874218911e-01 -1.131997744072759549e+00 -9.192817522211388370e-02 -7.610550238302520309e-01 6.421405308054201067e-01
3.422498520919308590e-02 -4.574996604993879223e-02 -1.044628586214348065e+00 -1.699016369929952641e-01 8.562492521159380532e-01 -4.878223570091850259e-01
4.000125136649287927e-02 -1.059923883574919179e-01 -1.114194070344220355e+00 1.365398376226464525e-02 6.941183499481791142e-01 -7.197313978093751174e-01
2.705508530281187235e-02 8.355438353973659860e-02 -7.751848459878160069e-01 -9.826170523598098949e-02 -9.486929527370492332e-01 3.005433724292983499e-01
9.676732997735691677e-02 6.391267008625070578e-02 -8.531179047474438670e-01 2.967493684140193877e-01 -9.526964521520817630e-01 6.564512474446640433e-02
-4.298653541044508697e-02 -1.144061474018153307e-01 -1.119030513049683595e+00 -3.111208166587127802e-02 7.054402468906010304e-01 -7.080862210503350296e-01
-2.110899546312896679e-03 8.437115626928752554e-02 -7.375775639549870810e-01 9.867973060854619005e-01 -1.619020536453547598e-01 4.336095927435010614e-03
2.830379815007358097e-03 7.370481106778203895e-02 -7.839533726573746364e-01 -9.045506443880385605e-02 9.682000794920548881e-01 -2.332519826045432176e-01
8.186444209371446581e-03 6.190820400592142447e-02 -8.452755187539087167e-01 -9.791514918781161203e-01 -1.826949267124203524e-01 8.879707037061064512e-02
-2.344960972703019619e-02 -7.579527035815669667e-02 -1.089915930335656258e+00 1.244832075785991254e-02 -7.643779833281086900e-01 6.446482280387985098e-01
5.104481176734919790e-04 -1.451760626245425789e-01 -1.159346669499829341e+00 2.414053687942285375e-03 -6.371092980741278611e-01 7.707696897597126062e-01
-6.639591596670901819e-02 -4.841389335042608350e-02 -1.042685407851837498e+00 -2.185407719057292364e-01 6.806484722398856713e-01 -6.992550237591129703e-01
-6.263797934995719505e-03 2.237249378359618471e-02 -9.447980286943823414e-01 -1.443742483148082456e-01 -9.281849967763916576e-01 3.429703896588504608e-01
1.286118956122200884e-03 -1.912920025447042427e-01 -1.196324128251773589e+00 -5.930913791527426815e-01 -4.754576997122325621e-01 6.497557939403465488e-01
1.056546783346193202e-01 3.763091811552490840e-02 -9.027861468168877357e-01 2.367166135579507381e-05 9.149498649426068830e-01 -4.035675210930107504e-01
-8.678070763447487054e-03 -2.727339254264380536e-02 -1.021019869866609753e+00 9.783189138963965803e-01 1.633310242574413373e-01 -1.273384436358085681e-01
5.074865893412951884e-02 7.506002008934645198e-02 -7.831959644089134809e-01 2.106011113334746720e-01 8.845174141004401580e-01 -4.162644784967554634e-01
-2.143244648467773628e-02 8.913339751611540351e-02 -6.788358953016003783e-01 -4.217753175214503103e-02 9.948481885411775139e-01 -9.218534358364315062e-02
5.690383697546080172e-02 4.831488729166447810e-02 -8.899812328036552644e-01 6.378406088455933487e-01 -6.947328459177664062e-01 -3.324238717518401831e-01
-7.718091525668445418e-02 -1.107333045920908497e-02 -9.869050382524870990e-01 -5.157022992380084353e-02 8.445285469075544116e-01 -5.330216176139770390e-01
5.304579178994511118e-02 -6.275134898509510117e-02 -1.077875159147924311e+00 -7.973332190486963345e-02 -6.894783616167449170e-01 7.199042896387710666e-01
6.907534328661152356e-02 -2.290508962200083626e-02 -1.014392370575278868e+00 -1.291310223028466209e-01 8.729085233805641275e-01 -4.704847382100560416e-01
2.507430301718963778e-02 7.121450132410213352e-02 -8.255191085034530030e-01 -2.386124160351769073e-03 -9.536061577085428453e-01 3.010475085295359343e-01
-5.797971285229109456e-02 -9.868471736506660708e-02 -1.113106890788920111e+00 1.016393726954296223e-02 -7.165389808707481878e-01 6.974729982385627913e-01
-7.115332346194845614e-03 1.060806348991142310e-02 -9.555971792964331746e-01 9.796999290869047305e-01 1.691113909176668595e-01 -1.076540125076901333e-01
3.196007935249184362e-02 3.577864314647378335e-02 -9.117529482241605310e-01 5.713470767878428003e-01 3.381406449768851186e-01 -7.478124243823467410e-01
2.090611405453287816e-02 7.134482056240946946e-02 -8.246317091179466985e-01 4.899582771596160125e-02 -9.645962304506460194e-01 2.591399642410099902e-01
7.138494598517775491e-04 -2.705119982155147484e-01 -1.234610038367538243e+00 -6.345209087993078922e-01 3.651003773926670415e-01 -6.812377930827329120e-01
-1.343004603478561119e-02 9.540947062865018369e-02 -6.940082279375517915e-01 1.921554567903397542e-02 -9.959772666198524194e-01 8.752169548577279357e-02
-5.759747791382099219e-02 4.693147059527585235e-02 -8.875663321411068063e-01 -2.236248873002204263e-01 -9.561136422545056801e-01 1.893108894775648587e-01
4.944235468394948818e-02 1.187841022920894246e-02 -9.693218109537576899e-01 1.128959580338563876e-02 -8.696507346667208260e-01 4.935383923467644429e-01
-4.485122253833261075e-02 6.717113620890001469e-02 -8.071567921442658333e-01 6.649746871167516726e-02 9.788029718555988357e-01 -1.937081024159479636e-01
-6.601517300460198190e-02 -1.475329570020985845e-02 -1.007515520034086620e+00 4.894095337656453881e-02 -8.338950760444118204e-01 5.497488383175332949e-01
-9.474701853078075497e-03 -8.435484203794042790e-02 -1.091605190711901541e+00 -6.194856238647614699e-01 1.258687763633109802e-01 -7.748513489448735081e-01
-1.157889110829746493e-01 1.045808780441520418e-02 -9.611915810315466713e-01 6.838764075033461065e-01 -5.334538217400091042e-01 4.977349488746954931e-01
-2.039795577447269751e-03 -4.768427295107479508e-02 -1.049238218030656533e+00 5.988752130817390773e-01 2.253006546757467254e-01 -7.684972961299092464e-01
-2.489485151233554114e-02 3.441521488415400475e-03 -9.748968053987498994e-01 -5.706562813194118178e-01 -8.132271690378439777e-01 -1.140744499412298940e-01
3.881245378526168577e-02 -2.883990230883541617e-02 -1.033523854521453345e+00 9.337199780881204336e-03 -8.064544615154544127e-01 5.912224777544156096e-01
2.462954525336506773e-02 5.440234335135062105e-02 -8.757332775331593266e-01 4.475129824094996323e-02 -9.458869021613711681e-01 3.213958456877041292e-01
-9.754031068337963573e-03 5.566843000694893934e-02 -8.487845131556541745e-01 8.356207624524560063e-02 9.691516476528464485e-01 -2.318673397987663920e-01
-1.317281480579891861e-03 -2.313856376919863067e-01 -1.209827874993385954e+00 -1.281866336948554452e-01 5.251948589659353184e-01 -8.412719816193408029e-01
2.674296067336615415e-02 -1.776114637484750222e-02 -1.004635118567522190e+00 -1.584612364458702072e-01 8.856095630223648207e-01 -4.365612653767875218e-01
7.945919384758451951e-04 3.086919886473348668e-02 -9.345224602356845267e-01 -5.637529726284691567e-02 -8.890005267314624593e-01 4.544225889298504351e-01
-3.787586301371099334e-02 7.038293892430311227e-02 -7.943477463695353125e-01 -3.978036616270613779e-02 9.662797856977769495e-01 -2.544030232128128843e-01
2.121512239177610407e-02 6.842268762480312183e-02 -8.343869254166763616e-01 2.269580568149744473e-03 -9.495238218556745213e-01 3.136867238705487448e-01
6.739753681082519612e-03 -9.040752371373714236e-02 -1.096444261143433296e+00 -2.217899972366358871e-02 7.357487912499049987e-01 -6.768912823678269186e-01
-2.029285948740145015e-04 -1.819891996657751754e-01 -1.176075271720843141e+00 -6.331109064406849063e-01 4.640641986492678450e-01 -6.195280459171054188e-01
-5.576870542876732895e-02 8.336312231668271955e-02 -7.623411110198807794e-01 -7.198219285365227149e-01 -4.381793316616582334e-01 -5.383820804061959509e-01
-3.872319880542097505e-03 5.340608706630207850e-04 -9.908190696057028735e-01 1.165027406038869479e-01 -8.524282528133954040e-01 5.096991124548732044e-01
-8.072583537700482592e-02 -5.274644736855148286e-02 -1.047878232983650237e+00 8.155199574134623652e-02 8.381227608454101530e-01 -5.393510079192129769e-01
-1.134643985835735863e-01 2.088421514048011476e-02 -9.431296573437177866e-01 5.077252477261428448e-02 -8.951547636846671763e-01 4.428544905280535349e-01
-7.030685111632875746e-03 1.757375355796035599e-02 -9.409143132495867423e-01 -1.953354476133093709e-01 8.119285407093403961e-01 -5.501055423164802338e-01
5.417915514371695121e-03 8.310523979308788445e-02 -7.810014088318593117e-01 -6.867017768878919126e-02 -9.801828867723986205e-01 1.858115044197136967e-01
-3.834231500921626845e-02 7.580723678963764700e-02 -8.034919339587804910e-01 3.092741803214163476e-02 -9.667970723510749265e-01 2.536669385380270758e-01
-3.019111830482040792e-02 2.151124023978060948e-02 -9.298567725190449718e-01 -1.150059194794539157e-02 9.103327457450246518e-01 -4.137173291139386033e-01
-1.784561916753430594e-02 -1.236602017220669869e-02 -9.922690101640649907e-01 -5.413100350604761746e-02 8.365867618932251171e-01 -5.451535786220580437e-01
-4.551589155369278883e-02 2.892837683084135969e-02 -9.299773735631544636e-01 1.484136305511223330e-01 -8.502469422546194977e-01 5.050282481736089180e-01
-6.868270088853360711e-02 -9.714062780099685934e-02 -1.103602213869484983e+00 8.405738305578509539e-01 5.298777182206527714e-01 1.125399445289359396e-01
-5.003735307284558342e-02 -9.266275470574004969e-02 -1.105835283768097588e+00 -1.107458765507644965e-01 -8.031082085189585884e-01 5.854507291279699155e-01
5.361423534956873127e-02 5.686248589219572436e-02 -8.690851624718745061e-01 -8.066491452089262493e-02 -9.050692874488098782e-01 4.175437180490689237e-01
3.876124353401811523e-02 6.933046015206385804e-02 -8.298815998678411576e-01 -6.786750337351615814e-02 -9.291159923760158312e-01 3.635071865822973591e-01
-6.754817112628529532e-03 -4.200020230804988458e-03 -9.957359752468128988e-01 6.293623016355064381e-01 -6.714134323330346321e-01 3.912890187097399219e-01
5.800758396596487898e-03 5.200811537070330892e-02 -8.654003491780378754e-01 -5.283526169811904039e-01 8.132493173151174037e-01 2.438627893214193043e-01
-6.312796896138447855e-02 -4.275491626429417380e-02 -1.041640632055433224e+00 -6.011577963055757534e-01 -7.961266475648242080e-01 -6.922185332839395078e-02
-9.896979536769176175e-03 -2.256772289546423726e-01 -1.219906220956490372e+00 6.242323978573049992e-01 -4.141219448010987625e-01 6.624476796694778180e-01
-6.959557534800735711e-03 -1.717042674211230252e-03 -9.731423578911454486e-01 9.786240499551641658e-01 1.671764197538010144e-01 -1.197790195637510602e-01
4.334081180060905120e-02 8.800486622537057047e-02 -7.244387917329265791e-01 6.629649967214636952e-01 3.046054141509765278e-01 -6.838808045208037978e-01
1.883294252491932077e-03 9.023912774589880337e-02 -6.817142966518866531e-01 8.915038380304687871e-02 9.937043304881663097e-01 6.785213804173446939e-02
3.284078597470222599e-02 5.835511198996341797e-02 -8.652433833875914360e-01 4.475129824094996323e-02 -9.458869021613711681e-01 3.213958456877041292e-01
-1.556061200979247557e-02 -1.343630432135058117e-01 -1.139234395989473292e+00 -6.787885334125703940e-02 6.604155141914742622e-01 -7.478260559008937935e-01
-2.375161652812127905e-02 -4.026814324582989046e-02 -1.033888261816636955e+00 -1.860058556088718951e-01 7.137661215880529708e-01 -6.752331044553133710e-01
6.136355822828724882e-02 -2.560239577268216826e-02 -1.017184577177536964e+00 -1.450124874783816353e-01 8.726593825802830828e-01 -4.663013837315209131e-01
-8.094339797771323008e-02 -6.991485820136625340e-02 -1.080556214884296873e+00 4.098761486666548798e-02 -7.513597789634357538e-01 6.586186286338693296e-01
-6.288867999404339302e-04 -1.178794897223087446e-01 -1.126649366381696327e+00 -6.238592251568214619e-01 7.765911078092254671e-01 -8.778336094255274891e-02
1.151474714184465564e-01 4.253280455574249413e-02 -8.919854966829722231e-01 -4.276649619331108348e-02 9.166796213349450717e-01 -3.973279484664641314e-01
2.650368145506928202e-02 6.283552147475107708e-02 -8.466680679660290032e-01 -4.144054611455091353e-01 -6.102974956063599299e-01 6.751333798808816233e-01
-1.487170707384527371e-03 7.106289228003184744e-02 -7.802824986180038058e-01 5.972334635230619471e-01 7.852810313263394182e-01 -1.632356942806571232e-01
-5.108040625563239207e-02 6.953602712155527998e-02 -8.159096700181246442e-01 4.944055269033564293e-01 -6.499862300383946190e-01 5.771317663479367255e-01
1.380609010336827924e-02 8.115264059535398644e-02 -7.855992584499469356e-01 -3.281658563121700456e-02 -9.696411895326219055e-01 2.423201090897554311e-01
4.147006092918725795e-02 2.378637803253515898e-02 -9.428505911951452489e-01 -5.265450600445701346e-01 -4.131800241273446139e-01 7.429889416436739058e-01
6.567079707925440463e-03 8.658120603042401831e-02 -7.130336794944878154e-01 1.156748508337420156e-01 9.655358891152204803e-01 -2.331518297484971858e-01
3.973433288798202540e-02 -2.723478254399915033e-02 -1.018153556243910129e+00 -1.273575521446979920e-02 8.193388567225312613e-01 -5.731680716890400484e-01
8.058389817488059020e-03 9.957522868943331773e-02 -6.718265854764534639e-01 -5.700784655361365583e-02 -9.961988549628657541e-01 6.586309134860257597e-02
-1.099389034285473341e-02 -1.637434464783296129e-01 -1.168274809283043947e+00 9.782209080997150696e-01 1.242755567406173128e-01 -1.662511382017539951e-01
5.601432339980945418e-02 5.517504100295859276e-02 -8.534842047339542548e-01 -3.150419039379556696e-02 9.520537640070616536e-01 -3.043043154929246374e-01
-1.032544802682328761e-01 2.396180356674064080e-02 -9.219644733007755777e-01 7.001063164855642063e-02 9.353116453004176600e-01 -3.468294070888388037e-01
-5.626622361377932313e-03 -6.861469652571883238e-02 -1.081372717824603757e+00 2.202247725327804717e-01 -6.570525893977686716e-01 7.209597383547657889e-01
7.501522804933877416e-03 9.924392524372391278e-02 -6.773196453231064007e-01 -5.700784655361365583e-02 -9.961988549628657541e-01 6.586309134860257597e-02
-3.498526632739318147e-04 4.678228142712572563e-02 -8.970483561418860496e-01 1.058167846871779921e-01 -9.372758537158286662e-01 3.321397027151856141e-01
-8.280824399605966890e-02 4.893543756601880651e-02 -8.825980624231256622e-01 3.669328895927691930e-02 -9.281414786249485571e-01 3.704146301123175666e-01
-2.341487717612903210e-02 6.168836061379620594e-02 -8.274316768338521033e-01 -9.436326529496942908e-03 9.614095247782143971e-01 -2.749594177462488798e-01
-9.053621692093986872e-02 -4.227559177377708532e-02 -1.044708068597952622e+00 1.485145209982340064e-01 -7.336936539346916586e-01 6.630513247318233772e-01
6.483795749497256455e-02 5.392660418853308102e-02 -8.651278812216244285e-01 -4.320745344500176999e-01 8.948405746525359694e-01 1.121246745160027203e-01
7.418213744082469141e-03 -1.243028746988197181e-01 -1.132282142103847589e+00 9.806984287624129215e-02 5.872581122373248252e-01 -8.034365037323626391e-01
-1.063307030126500567e-02 -1.599916594716150609e-01 -1.170044472747743924e+00 9.892659036511475268e-01 -9.647722129489721965e-02 1.097502512274751429e-01
5.728181674588019717e-02 1.144282906721455668e-03 -9.751945996105740866e-01 -1.461555365833336617e-01 9.028952027514377532e-01 -4.042509269927255233e-01
1.065506227704052580e-02 -1.274376424634649785e-01 -1.144170196832718700e+00 5.565308291737420393e-02 -6.841395847625133531e-01 7.272246990599037231e-01
1.331284696650227375e-02 9.553550358312411228e-02 -6.477161405758716795e-01 -9.790389217072651418e-01 -1.991904628053965398e-01 -4.249646231920066464e-02
5.459514017172396178e-02 6.776015768957290020e-02 -8.161744382299286338e-01 -1.119841064942624226e-01 9.756645888067196903e-01 -1.885157023732934589e-01
-6.628999147427007410e-02 3.966549347036380652e-02 -8.867015200502456063e-01 -4.630733513427361114e-02 9.174016214145076509e-01 -3.952592766005552094e-01
-8.800083980768731717e-02 3.605574212188483035e-02 -9.117797479586137177e-01 -2.286763688752596890e-01 -9.554130530425575252e-01 1.867967247944281040e-01
-5.952008741284505085e-03 -1.023255682634396785e-01 -1.119181796319454358e+00 5.587355743017003579e-02 -6.976157361614050423e-01 7.142901582970876406e-01
-9.889674116528873737e-02 8.928443496212580890e-03 -9.665704499952919582e-01 1.267564808544514345e-02 -8.737227135211290685e-01 4.862591364929704230e-01
-5.830769989797710343e-03 4.178087807339363885e-02 -8.946337237626423855e-01 9.874242894993029429e-01 -1.548578126168624891e-01 3.181713969415442267e-02
1.062185888575397502e-02 8.608403963775348999e-02 -7.486724869770983171e-01 -9.799149810096750013e-01 -1.896933711940074763e-01 6.150654369951730205e-02
-6.277390673506708096e-02 3.216946599339581131e-02 -9.180355867625135113e-01 5.163269176129013927e-01 -4.885937323628722906e-01 7.033368174950590523e-01
-8.014615014959802775e-02 6.105097281506034756e-02 -8.272551610711286196e-01 1.888672468184062203e-01 9.637515525039512809e-01 -1.884465657035393205e-01
4.028383746246649855e-02 3.759921269925954601e-02 -9.043829595937129540e-01 5.897519483293135467e-01 3.210103109729088855e-01 -7.410431969128756791e-01
-9.423201441289365266e-02 5.300187108843197603e-02 -8.710848443223342397e-01 1.199740177204429020e-01 -8.983419894026962726e-01 4.225966222629102265e-01
3.579421390668559300e-02 8.810772974610080188e-02 -7.543673832600756857e-01 4.070020802124102964e-03 -9.824082961958973126e-01 1.867012975213197257e-01
6.473207972288820555e-02 -8.414219426307273375e-02 -1.092035575552622317e+00 -2.565555160930130599e-02 7.345833395270676691e-01 -6.780332661167025599e-01
-1.488825804190974100e-02 6.455170501506021785e-02 -8.432864150011478710e-01 1.387945434218687268e-01 -9.130891394827171936e-01 3.834113953379918449e-01
-4.668557735394492092e-02 6.934167022787249279e-02 -7.978703012456274113e-01 -1.270583599082624479e-03 9.719019200334310105e-01 -2.353827594634912423e-01
1.864851786359043168e-02 5.113058813046090362e-02 -8.839217383623577673e-01 4.934001359982315843e-02 -9.357382407010931269e-01 3.492270149166473714e-01
6.270813761736432346e-02 -4.692063826750466488e-02 -1.046800779458031849e+00 -1.477084711606764696e-02 7.943490528593920574e-01 -6.072819808761500404e-01
-4.145599609357063231e-02 6.490408038303867311e-02 -8.286872074781271857e-01 4.275469727964140709e-01 -6.752852878448906138e-01 6.009936489455324216e-01
8.306337594225354781e-02 6.810812602464670629e-02 -8.131973060406917364e-01 -1.652922031034953498e-02 9.599613063040929317e-01 -2.796445516631268502e-01
-7.191223869036769689e-03 -1.002810736269490327e-01 -1.117088093961735140e+00 5.587355743017003579e-02 -6.976157361614050423e-01 7.142901582970876406e-01
-3.032150305989079683e-02 -1.144641973494633230e-01 -1.120551085914312184e+00 -1.949439009652509103e-01 5.867567809725392491e-01 -7.859474253785642128e-01
1.072740721758133481e-01 9.700409041562527840e-03 -9.606761924329992874e-01 -3.630684072595138923e-02 8.802752860163209903e-01 -4.730721236189935897e-01
9.927335120519895084e-02 -3.395975800813500617e-02 -1.035833874208808236e+00 -8.668809617143653501e-01 4.656077302033546639e-01 1.781202958454116692e-01
-4.266788948635116124e-02 6.950753009758570133e-02 -7.973434040168793091e-01 -1.438164782350710193e-02 9.719197468656882721e-01 -2.348726758446305629e-01
7.160418044717241359e-02 2.010761938904783580e-02 -9.549782256305554551e-01 1.033666478540646964e-02 -8.789788671443917734e-01 4.767486806218512174e-01
1.085493227222137647e-01 -1.974875102956988315e-02 -1.013609100293892507e+00 -9.800602955985789899e-01 1.771839362359316217e-01 8.993147241743136566e-02
6.649532085819107041e-02 -1.221115773779328680e-02 -1.010192784681739786e+00 6.570776950681895580e-03 -8.344946733691093188e-01 5.509768280144344832e-01
4.705857563127122979e-03 6.480662200078277091e-02 -8.446774219334500788e-01 2.546832089448398603e-02 -9.562258580487700277e-01 2.915192498441721569e-01
-1.822554272868837219e-03 -1.241967799031146041e-01 -1.125802253249946761e+00 -1.126759820308338572e-01 6.793271168888639355e-01 -7.251336368786454045e-01
9.663028096467721553e-03 7.162243291220532493e-02 -8.051107791960627758e-01 -5.916673797217484321e-01 7.439827734419238725e-01 3.105146447349362848e-01
2.469184024582625567e-03 -1.706573461603885511e-01 -1.174527688808479464e+00 -9.893282433328760561e-01 9.643198121353256658e-02 -1.092268279458786240e-01
7.113700109261007765e-02 6.408656771313248068e-02 -8.264335820948174316e-01 -2.564795626356774529e-03 9.572188325413786281e-01 -2.893536390846240813e-01
1.186355137071022497e-01 3.909720628855500868e-02 -9.091864536379600237e-01 -9.615649134350757743e-01 2.723402961370254283e-01 -3.498114278568586338e-02
3.952158434124412173e-02 -2.057643539504822733e-02 -1.021405286180876004e+00 5.166134668178967715e-02 -8.355883429635645454e-01 5.469215906895871226e-01
-1.120402955715706222e-01 3.428033918425824056e-02 -9.136925082758755590e-01 1.849284419886425002e-01 -8.556065579143607991e-01 4.834654996973337671e-01
-4.606978769463813961e-02 -4.267374418711138671e-03 -9.899282991589709590e-01 1.536991796599060656e-01 -7.871624787733693118e-01 5.972870283065226937e-01
4.397576254487982339e-02 -5.378095830521973514e-02 -1.066634944324765355e+00 2.066668482169949361e-01 -8.544631363959706016e-01 4.766356704952058321e-01
1.092833907480372443e-02 -5.159249717726249740e-02 -1.062610546226854691e+00 1.626353923438400920e-02 -7.773202740739693084e-01 6.288948153746704017e-01
5.200907570180469258e-02 3.260116243984076401e-02 -9.107794637884439881e-01 -4.116548143083070821e-02 9.197274122227364623e-01 -3.903932508953458780e-01
3.703678347286543104e-02 -7.189965839929872427e-02 -1.076671981596913463e+00 -1.341737500955113294e-02 7.479520019481676885e-01 -6.636171914813397965e-01
2.891010380546886471e-02 -1.074946163952903155e-01 -1.116537344072749294e+00 1.232472500957502576e-01 5.962323976126654435e-01 -7.932950544286080374e-01
2.527305514759656258e-02 -1.284138965981193314e-01 -1.144794342192929859e+00 -1.671753240596736689e-01 -5.572830347680124419e-01 8.133191441158243995e-01
8.223240750378701600e-03 -4.472438442722857788e-02 -1.042420283976379869e+00 1.264514005497739124e-01 7.127940266593860708e-01 -6.898802206598614317e-01
-8.500537671209219825e-02 -2.878663121541092870e-02 -1.020116120519297231e+00 -7.168382695420311146e-01 -5.237312625118525217e-02 -6.952696965686507857e-01
-7.505197973840473102e-02 -3.758269581873749376e-02 -1.029878718994103437e+00 -6.958240354422855489e-01 2.267513967553753257e-02 -7.178542677601825739e-01
-6.539339599108816292e-02 -9.904519211714590821e-02 -1.110324173777619272e+00 8.369454425492719452e-01 1.197095368950267524e-01 5.340336627707862327e-01
-1.060762312459732730e-02 -1.385960153542147300e-01 -1.150089154382406997e+00 9.891621627384241666e-01 -1.022842879848161468e-01 1.053382183164417452e-01
-9.744807192352381714e-03 5.813362838706814112e-02 -8.397495407782005206e-01 3.370207402991158563e-02 9.583507826699235732e-01 -2.835982150191130313e-01
3.629095708557649597e-02 -2.317536524993684625e-03 -9.781063594276805384e-01 -2.442708048008653508e-03 8.531590613997941386e-01 -5.216451371658845648e-01
-8.561402788379164630e-02 -5.166813377608513169e-03 -9.766813611198186251e-01 -4.341957232307758208e-02 8.578758212915259529e-01 -5.120193511798851738e-01
-9.631627588590209801e-03 -1.024536734745553207e-01 -1.108445175729303012e+00 -1.486865279995342425e-02 7.219857995264682415e-01 -6.917480960913738874e-01
-3.182623973256928050e-03 3.562107002352234153e-02 -9.245653298515558172e-01 1.134630333433002403e-01 -8.860183746439065366e-01 4.495526441451623278e-01
1.772233086559559315e-02 -5.412755877631413720e-02 -1.054013461960402021e+00 -3.948573594651205720e-02 7.922578725870426108e-01 -6.089074970638936879e-01
2.053502417374599223e-02 5.771308683434307751e-02 -8.459166541463341016e-01 -1.227373888109627026e-01 9.663452463405265425e-01 -2.260805127889921329e-01
2.722922288115458590e-03 -1.491602532626006561e-01 -1.157566882066380698e+00 -9.781148764307416865e-01 -1.301240127423518300e-01 1.623546421039547827e-01
-6.006663997323838378e-02 1.034979822243095940e-02 -9.500824022950601355e-01 -4.923731704085097804e-02 8.760497532016610078e-01 -4.797004445754949331e-01
6.828481570012111257e-02 4.327761300090374880e-02 -8.866156830783027409e-01 -4.759144853016785554e-03 9.251025061427397000e-01 -3.796876396048334823e-01
-9.925324019773140716e-02 5.536290927795834566e-02 -8.646119620381852444e-01 4.428952789495512604e-02 -9.431236800948111787e-01 3.294786211019798960e-01
-1.810631330439592054e-02 8.518841116583636408e-02 -7.642376574783661392e-01 3.998621782418838172e-02 -9.789476817124328489e-01 2.001562860715840331e-01
1.086831985738316436e-01 1.171060217277999568e-02 -9.725188940661215753e-01 -2.588962490929247115e-03 -8.751657633293891125e-01 4.838162708811148960e-01
7.947207901298004862e-02 6.949588511286014861e-03 -9.770860311185329827e-01 2.282491426167584103e-01 -9.213474812481906584e-01 3.146762585457146821e-01
6.144578827246867381e-02 -1.627794464405759103e-02 -1.002399574353215472e+00 -1.528122423419672228e-02 8.341426662845009554e-01 -5.513370080719122157e-01
4.727553922963292909e-02 -3.317848957859994424e-02 -1.027117773090664654e+00 -4.308830526543985795e-02 8.211020679918176191e-01 -5.691526964610751360e-01
-6.083719086855036984e-02 7.981593908553870353e-02 -7.848494750407540854e-01 1.690646616244727979e-02 -9.730355522388303147e-01 2.300347484211292814e-01
-7.283957397589460592e-02 -7.542999449261221512e-02 -1.086171198673512750e+00 -3.089250286168452875e-01 -8.508365590917874588e-01 4.250205599814300128e-01
1.265784777031798113e-02 3.169585750108509792e-02 -9.157044794105375640e-01 -5.712065056024704379e-01 8.034696616971294114e-01 1.678083153175529696e-01
5.283240465789872803e-02 8.153042870969050282e-02 -7.878131827778164231e-01 2.747343323128002487e-02 -9.778139664067204695e-01 2.076657351766131310e-01
-7.060971551091585474e-02 -2.891549752403414428e-02 -1.021604611657670247e+00 4.582762415515902465e-01 8.851453655831943435e-01 -8.062610133165189208e-02
-3.437812080047195767e-02 8.246999229470218518e-02 -7.344997993577265794e-01 -3.007943364132848948e-02 9.870125297749220428e-01 -1.578020714031511951e-01
-2.153289687814155529e-03 8.378330654079867157e-02 -7.498797827554705142e-01 9.867973060854619005e-01 -1.619020536453547598e-01 4.336095927435010614e-03
-3.102319142907151994e-02 -4.458351186915614217e-02 -1.051437462740029583e+00 5.290233705620427801e-02 -7.900020037958149777e-01 6.108176296838434549e-01
-8.669304140256856028e-02 5.882193780073270706e-02 -8.543650198935125450e-01 -1.912297407740881916e-01 -9.736318812074560292e-01 1.243870818851575133e-01
-5.646204732930393266e-02 3.487560681959499947e-02 -9.167867502083858477e-01 1.385521123690629797e-01 -8.522297321598913955e-01 5.044876567179322757e-01
-2.613016793678699448e-02 8.299924252792391377e-02 -7.705402065942448253e-01 1.283660806589423387e-01 -9.472387378775958267e-01 2.937020987332590871e-01
-3.850252506893604015e-02 -1.099513545002218512e-01 -1.125292769831074402e+00 4.251295149808800855e-02 -7.040920538706726406e-01 7.088349798303543725e-01
1.090465603570157406e-02 -1.500598397364935610e-01 -1.159870901800132303e+00 -6.333369536415321965e-01 -3.528605584942287599e-02 7.730712757661192258e-01
2.650964904514603528e-04 -1.092813386371732920e-01 -1.125649736434324533e+00 -1.276396668140550583e-01 -6.013661215554328976e-01 7.887121802666503534e-01
-3.866627177935552662e-02 -1.197687533455913528e-02 -1.000068648934741899e+00 5.808925137420865026e-01 -3.218866243030493735e-01 7.476315192480769145e-01
3.430766454881296196e-02 4.540248568380034905e-02 -8.790244544738108345e-01 -4.350047516368299449e-02 9.382775733427143328e-01 -3.431368590266002938e-01
-4.150486085591373331e-02 -1.034670964580856750e-01 -1.109452352416710141e+00 -2.119184641631198796e-01 5.853245903754098478e-01 -7.826146487567192667e-01
-8.059408739480647399e-02 1.266210354012618300e-03 -9.807413673396698783e-01 6.221371635905675185e-03 -8.743286827845460074e-01 4.852943941518474968e-01
-2.368828552370700127e-02 2.601577864787723779e-02 -9.225506720821581297e-01 -1.748679000812765894e-01 8.337160694655856297e-01 -5.237735512948502592e-01
1.060612309593445407e-01 3.492529349032595545e-04 -9.788049319321103781e-01 -1.680445841533486917e-01 8.971015310331917902e-01 -4.086194571415208698e-01
-3.145007802943460690e-02 7.047622173744751140e-02 -8.229909592620621162e-01 1.137035841065440755e-01 -9.266788855474111797e-01 3.582425687183669605e-01
-3.073371252633191886e-02 -3.049019241220670209e-02 -1.021531962381811542e+00 -6.318653505297630035e-01 1.681348303486248641e-01 -7.566220044537025347e-01
-5.783751315008816424e-02 4.358473869095373654e-02 -8.815334526242712965e-01 -6.633553812285700735e-01 2.811218354843815770e-01 -6.934912773849363221e-01
-9.897123918334761739e-02 3.096385832487054401e-02 -9.053348926783230111e-01 -5.615886548044780879e-02 9.048723965965270732e-01 -4.219622349282056151e-01
-3.170933046891077217e-02 2.565445576233229066e-02 -9.383319282632296421e-01 3.887991317209853886e-02 -8.909568627590770395e-01 4.524204030039243873e-01
4.018139097004113508e-03 3.029116669034545919e-02 -9.132894971462236500e-01 -7.321570056483286959e-02 9.202705307811966939e-01 -3.843717098935549581e-01
5.982029032597432211e-02 6.730786584991434521e-03 -9.636288370796518565e-01 -4.395869918554493050e-02 8.820241575632179476e-01 -4.691492494300831262e-01
5.971567929271560243e-02 7.483297695027485430e-02 -8.112065706168121171e-01 -6.851225491884836705e-02 -9.364649555485643484e-01 3.440050260611903776e-01
1.013443897901184290e-02 7.817366919613304155e-02 -7.664310496422409580e-01 1.397408933024218147e-01 9.371904342448731384e-01 -3.196037745380161943e-01
-6.392396091617831566e-02 -9.652877886601865520e-02 -1.099783662661760975e+00 -4.294359977867533151e-02 7.302792884614399682e-01 -6.817976298596980511e-01
-8.909925239658861296e-02 -4.348390493112170435e-02 -1.034867325913129799e+00 4.266255300305160886e-04 8.127448006550886950e-01 -5.826196932809404316e-01
7.194678799228726961e-03 9.028924364232993049e-02 -6.657136632449796032e-01 -7.077288423858038580e-02 9.959820158428266401e-01 -5.487278901433637057e-02
-1.147777980488477456e-01 3.590936427436423883e-02 -8.939915927382575678e-01 5.607645039991591140e-01 7.629189285479587301e-01 -3.217108632263009915e-01
7.013694395451836039e-02 7.652786293156832453e-02 -7.776295981209112584e-01 -4.232161952466462901e-02 9.790139020449817320e-01 -1.993505959947648454e-01
3.860611776955999875e-03 9.041998720680727297e-02 -7.366765041159374361e-01 7.769541620406447691e-02 -9.828860710429400127e-01 1.670281223346824495e-01
-1.043094359571409835e-01 4.250010257005724934e-02 -8.893684326249021721e-01 -7.031155454620280354e-01 -5.500798021558398476e-01 -4.506004227581537069e-01
-1.087857440757590138e-01 2.487269664225391641e-02 -9.223532817361256297e-01 6.191387669361658741e-01 7.836617117252731024e-01 5.041337969804159103e-02
1.009025356487438518e-01 -1.283727592954313212e-02 -1.012240431083664349e+00 3.444748067779579426e-01 -8.985540839554455594e-01 2.719148133189487893e-01
-7.885071986066524707e-02 4.443841726966086397e-02 -8.928576480083053601e-01 1.131150368048027544e-01 -8.803644004967945413e-01 4.606121044724805214e-01
2.901012015098203972e-02 -1.022719210416766084e-01 -1.119074438228230495e+00 2.188170707194706244e-01 -7.866568018368159665e-01 5.773128836996650470e-01
-3.918423444080674362e-02 -3.502294393437459935e-02 -1.025393147192872334e+00 -5.240369815939685538e-02 8.036889979752684932e-01 -5.927375869242034190e-01
8.601588822054206940e-02 4.416056910861839574e-02 -8.859729400730946836e-01 -1.147077993216788494e-01 9.504865983387426054e-01 -2.888206141417591910e-01
6.303645917654827902e-02 7.679300342020158043e-02 -7.754783030867364868e-01 2.222398544933897740e-02 9.731678573146824718e-01 -2.290205579425066973e-01
-2.596276920508323437e-03 9.814916011796299966e-02 -6.544971325967372522e-01 -2.195532702130422592e-02 -9.995697495289452839e-01 1.944940724107448518e-02
-1.132866676690993252e-01 -1.667357396019156224e-02 -1.000865352054695956e+00 9.783280373146482356e-01 2.066330576727926915e-01 1.330529521885000753e-02
7.713202605135598133e-02 7.223914268139522421e-02 -8.099458136668599151e-01 6.737074565305741780e-01 1.526920944624485799e-01 -7.230514416718739623e-01
-1.126251899679095794e-02 -2.199951090028142153e-01 -1.212022423981769181e+00 9.897016443549413456e-01 -7.890532514344435200e-02 1.194345210780046879e-01
4.419981208133491601e-02 8.039839189089866001e-02 -7.592836589036260353e-01 -1.152927824150532521e-01 9.883879311292166348e-01 -9.897914892088130467e-02
5.931132243909903110e-03 8.345983325947223253e-02 -7.058675465947658045e-01 -9.521810504549062248e-02 9.789716688418065305e-01 -1.804105985706886961e-01
9.423508135548260695e-03 -5.529136246754404183e-02 -1.067098755562998935e+00 1.754222068132261364e-02 -7.651219478119277717e-01 6.436463900854639819e-01
-5.994674447272432122e-02 -9.000760482193134737e-02 -1.103886234044160641e+00 4.572646092586374333e-02 -7.270928445963169562e-01 6.850146612358245513e-01
6.914723131117235522e-02 8.679179020524066535e-02 -7.636972070677061630e-01 2.889452160168243244e-01 -9.470904982053464094e-01 -1.397506720919060863e-01
