2.305146723374664613e-02 8.214845068130093020e-02 -8.134948546095113198e-01 -7.380101896316768606e-01 5.756938844545966827e-01 3.520191918083354077e-01
-2.259858934331978805e-02 -5.746858998298062793e-02 -6.948176970025508048e-01 -8.207328395325097503e-01 4.934182531117963233e-01 2.879861691279754776e-01
1.731195876424720601e-02 4.440611247860177385e-02 -7.626312576211653482e-01 -7.512699806592618712e-01 5.603931569083960840e-01 3.486444117585619229e-01
-3.738771460755869330e-02 -1.640431698622274448e-02 -7.905824110116149717e-01 1.906382069101441590e-01 -5.389356118092226700e-01 8.204909995788520760e-01
-1.434796702098821430e-01 -3.338345020206895386e-01 -9.382975964697567450e-01 -8.181870361410273906e-01 2.926306768279183235e-01 -4.949113666809398793e-01
-1.082640551852807470e-01 -1.426477395485673538e-01 -8.533117312243836405e-01 2.105385184193803161e-01 -5.053274946053478711e-01 8.368498404478872388e-01
1.226118118887373210e-01 1.052642621504193965e-01 -6.498326113465372478e-01 1.858317950928813633e-01 -1.087797690193850232e-02 -9.825213552646467896e-01
-1.054674005239284867e-01 -1.486640843713532834e-01 -8.528835087576996932e-01 -9.388072730438282720e-01 2.798663276497915242e-01 2.007878052268867175e-01
1.653055859093128244e-01 1.696211632817548887e-01 -6.951234938426441579e-01 5.912517419840239707e-01 -6.642331535961636391e-01 -4.574010223693780741e-01
7.509958457273684107e-02 1.375438059267835855e-01 -7.843579039213102178e-01 4.271638540911094073e-01 -6.095315960730568472e-01 -6.678340176620691793e-01
6.838556295792609652e-02 1.074795936162568355e-01 -7.433578622933357805e-01 6.889139381085176428e-01 -6.393215178827674761e-01 -3.415634386931476474e-01
-1.242050591890811878e-01 -2.026985325379737357e-01 -8.806691510950379609e-01 -9.623797873158462801e-01 1.987430968864455083e-01 1.852736527569188718e-01
8.762383818236084421e-02 1.309323854348206917e-01 -7.685458832490976722e-01 -5.961828418196392088e-01 6.479401972794178732e-01 4.740669993464722842e-01
8.104779034057070508e-02 1.407615400981267750e-01 -7.986548589680528831e-01 -6.616292213749076501e-01 6.398404747530432868e-01 3.909615585842595720e-01
3.451146219476925597e-02 7.237893977612838703e-02 -7.533053462498553454e-01 6.430065057677246676e-01 -5.978408156621964897e-01 -4.786742030533296943e-01
2.808191328282889920e-02 4.350134192605441263e-02 -7.369239755531762359e-01 -7.411756793202034510e-01 5.871592876391229510e-01 3.254267710612521181e-01
1.019582113226268072e-01 1.378495649166316395e-01 -7.573765185309639936e-01 -6.427950346015888217e-01 6.721263751824285704e-01 3.675060261759952041e-01
1.958712747171984653e-02 1.945461956060806630e-02 -7.152475745047569555e-01 -7.734505390965604743e-01 5.363810950291757473e-01 3.377418903046269238e-01
-6.719382859770911542e-02 -5.216111036329398182e-02 -8.042704936170208541e-01 7.130116944907428644e-01 -6.049334413668828736e-01 3.544994429268675251e-01
-7.199024503495762839e-02 -2.317840930811793099e-02 -8.964444537400274582e-01 -1.448170793597909622e-01 1.022601103319721455e-01 9.841599887013254833e-01
-1.264444958050335022e-01 -1.846357992903456535e-01 -8.720235359592418689e-01 8.983794082748055576e-01 -2.654189606723786343e-01 -3.499531598705813984e-01
-1.151045887760311776e-01 -1.721360503565832478e-01 -8.679414447705580127e-01 -1.270130690113501493e-01 -4.140398760922148202e-01 9.013537936381370574e-01
-5.282959191648225333e-02 4.257509926872906150e-03 -8.579841179683423968e-01 8.591104274042932198e-01 -4.379213717216027257e-01 -2.648662789308642851e-01
-1.003129469553308284e-01 -1.702890982145445764e-01 -7.967965188183310232e-01 -9.398841479862383164e-01 2.718836743160330527e-01 2.066326595787707776e-01
8.951655950765252667e-02 1.123098383384023152e-01 -7.264705362544551237e-01 -4.070677911704740498e-02 4.375067842128689821e-01 8.982932549572163472e-01
7.668359607571340053e-03 6.749598733124964611e-02 -8.013320570669234533e-01 7.694741545335515021e-01 -5.554041281866860524e-01 -3.153343937759774951e-01
-2.720102004186689473e-02 -2.991510853338401679e-02 -7.527241509926716478e-01 -8.408519293957353868e-01 4.476668723954235207e-01 3.042407010759227148e-01
-4.980673340656290027e-02 -6.481822507173659598e-02 -7.367037686425242926e-01 8.448389115759888934e-01 -4.646483222078576225e-01 -2.652341421395845167e-01
1.381478301313943668e-01 1.363970187728950068e-01 -6.794361023880121087e-01 5.770157965687221502e-01 -7.023142475643335825e-01 -4.169022285600145206e-01
1.154660655122395074e-01 1.412811645449072451e-01 -7.391581418148182037e-01 -5.358515061549450342e-01 6.779918980366744785e-01 5.031800369133343498e-01
1.720274700524020151e-01 1.538566420162632287e-01 -6.819281714125886573e-01 -5.220611803409318519e-01 7.593853160022855375e-01 3.883118151964243814e-01
-1.714163971077130658e-02 3.435566603527584473e-02 -8.137394190078161005e-01 7.412646168740293084e-02 -3.809901107193393033e-01 -9.216028446200519308e-01
1.263186590885870542e-01 1.367631281008774013e-01 -7.058127363406516697e-01 -9.298670157156262162e-03 -9.893405597426638831e-01 1.453230593587284403e-01
7.850827853593683736e-02 7.189739200830801147e-02 -6.773758170216906960e-01 -6.911916114330725058e-01 -4.334591053173084685e-01 5.782450694144057879e-01
1.734914783360214929e-01 1.860474898840663860e-01 -7.198029165811379304e-01 6.047251368128000459e-01 -7.506604041032370889e-01 -2.661136347846631001e-01
-1.547097383814037899e-02 -2.702613763086018223e-02 -7.025518435108769610e-01 8.462279088410533667e-01 -3.875055876704870395e-01 -3.657017170080666957e-01
2.169003797094869179e-01 1.906188682353962549e-01 -6.937819270534953953e-01 -5.018233153927002810e-02 -3.205149446704017024e-01 9.459132644403565049e-01
9.714882280535976078e-02 1.180258781024039610e-01 -7.122708812212380503e-01 4.446928679538963980e-01 -2.669243786999541679e-01 -8.549851631733628166e-01
4.243406851956424419e-02 4.558339375457585996e-02 -7.084784883948084255e-01 -6.615492874533832612e-01 7.015471782851339100e-01 2.649228131174954370e-01
4.712170664795486269e-02 9.143581360745603459e-02 -7.781796192409853319e-01 -7.026488275022562124e-01 6.047121725820583382e-01 3.749770840208657141e-01
1.183874534354881040e-02 4.360165120815524820e-02 -7.512727771766867235e-01 7.687435888745124402e-01 -5.408439737656689505e-01 -3.413518574809502604e-01
-8.443825698437846042e-03 -2.178087342914876434e-02 -7.154669161506107544e-01 -8.148304803245494110e-01 4.835473945395477036e-01 3.197392774872664378e-01
3.756000546248222660e-02 1.191168543040452971e-01 -8.238599457948053706e-01 7.316667522344049157e-01 -5.911318750817545764e-01 -3.394508358173340956e-01
1.150921196655274870e-01 1.075342518285251903e-01 -6.637738114547118151e-01 6.159523056528420915e-01 -6.884463271068139711e-01 -3.829417865081917727e-01
-1.914781143219397921e-02 3.289784782422214282e-02 -8.133213092138222855e-01 6.885249107936105561e-01 -5.167020834684464825e-01 -5.088736622738666560e-01
1.643986530114696087e-01 1.476782039073035735e-01 -6.775397798623905565e-01 -9.371639449290125601e-02 9.867702227622856537e-01 -1.322942359776859145e-01
4.262515743977386001e-02 2.909085770350798225e-02 -6.593730931101910997e-01 7.320250567057857705e-01 -5.774489273325710270e-01 -3.615135580823413131e-01
-7.833848897795696320e-02 -1.029356194511590189e-01 -8.020212273044111662e-01 -8.380710123200809658e-01 5.237286261747380323e-01 1.527917027652883064e-01
1.338867327897171333e-01 1.381674260278776545e-01 -6.956884336403446056e-01 -4.585457539062991195e-02 -9.877472693126582159e-01 1.491733551313102757e-01
1.052310600936444962e-01 1.361306750794928078e-01 -7.315272804761545622e-01 7.027325807207708275e-01 -6.668165149988205531e-01 -2.480376086772992372e-01
1.181191998556677114e-01 1.013807684007785731e-01 -6.671455227590213921e-01 -6.338941981240492352e-01 6.668180895157453936e-01 3.918313171241417647e-01
-6.698215766789800130e-02 -7.751881410359801050e-02 -7.982537602240473706e-01 -9.204230494439719079e-01 2.077437402452714799e-01 3.311554747262448473e-01
6.978893522671870964e-02 1.384184678461940210e-01 -8.053463365762548731e-01 4.059639574045750127e-02 -1.647778568849816994e-02 9.990397465725215920e-01
3.172560877474850383e-02 3.296818598233948461e-02 -6.905095602457489434e-01 5.921171848458958165e-01 -7.880390031731926426e-01 -1.684985723618215858e-01
1.781964032242743246e-01 1.626751322128511257e-01 -6.934320004948496541e-01 -4.211891637559994628e-01 8.787168267512369679e-01 -2.246250803422406295e-01
-1.060825966425309325e-01 -1.509714441284027708e-01 -8.525438381726113679e-01 -9.388072730438282720e-01 2.798663276497915242e-01 2.007878052268867175e-01
6.875035394434307612e-02 1.151940869642631843e-01 -7.584330031970879515e-01 7.350304074055420411e-01 -6.252323347090443795e-01 -2.623258047229064527e-01
-1.482902170374979511e-01 -2.642872539490356276e-01 -9.093075754913270137e-01 9.878168382661229874e-01 -1.553765862533150466e-01 -8.718399060968313671e-03
-9.149412102031916072e-02 -1.065193658839937996e-01 -8.199167747640206949e-01 9.358582546422065107e-01 -1.638813392863460172e-01 -3.119490885573417138e-01
-9.311040173634572981e-02 -1.303057188822668022e-01 -8.391375141752619449e-01 -9.299561380246762488e-01 3.444886537596314469e-01 1.284879324337725448e-01
6.019124052869230523e-02 1.331525323616077339e-01 -8.220757835433476490e-01 -8.390863929185043979e-01 5.438802957661107440e-01 -1.132471175708786408e-02
-8.003659614879603257e-02 -1.191690045798236147e-01 -7.857417454368075260e-01 -9.390363991789889564e-01 1.331488679608763270e-01 3.169889903099087913e-01
1.225309611569737611e-01 1.430266184949256503e-01 -7.333251640171671859e-01 -6.023857573351467654e-01 6.842746474224161712e-01 4.109739727217398553e-01
1.321683260810975306e-02 4.288684237952751326e-04 -6.800309808156081992e-01 -3.775484066824594254e-02 -9.614406622454179097e-01 2.724085626172701446e-01
4.400615777304509035e-02 3.835965918932321417e-02 -6.756008541403648593e-01 6.142754492546396161e-01 -7.533352580511277763e-01 -2.348439086287978927e-01
-4.526312500690339580e-02 -6.097649992642001707e-03 -8.409719754785337509e-01 -9.191304530416720686e-01 3.937068581069484985e-01 1.393270149561532355e-02
-6.152033192963616420e-02 -1.119634709908082365e-01 -7.175601998891792954e-01 -1.275598214538709585e-01 8.520899498606575584e-01 -5.076132477557283584e-01
2.364328423666437612e-02 2.524001963455550432e-02 -6.933463282546301620e-01 7.400292043545764198e-01 -5.862686967807748672e-01 -3.296146111405018897e-01
5.435459055579062310e-02 9.641788218920897824e-02 -7.719763068131905159e-01 -7.083888611009581115e-01 6.163083645271116850e-01 3.440192164429250465e-01
2.068500519135031690e-01 1.872705877433496480e-01 -6.990283341362439895e-01 -4.756178149784122122e-01 7.678936073764713877e-01 4.291003400435735582e-01
1.034243353060797510e-01 8.753416764652435789e-02 -6.657659878010643295e-01 -5.917069099310409142e-01 7.393547241149703853e-01 3.213059673718109965e-01
1.082171354626023374e-01 1.549455697401967424e-01 -7.764202659500103465e-01 -5.356454233669201148e-01 5.857733977675633197e-01 6.082380347314009228e-01
1.118959818938196904e-01 1.652868152070310070e-01 -7.700001119377076764e-01 6.272466952351724023e-01 -6.754889088802280561e-01 -3.876548945858336315e-01
5.138922217145142773e-02 4.772474578068092860e-02 -6.930205266864131186e-01 -6.548795346468734291e-01 6.976692013072586240e-01 2.905003969842144818e-01
-5.033888379774024285e-02 -6.123592818020644896e-02 -7.455837755661699484e-01 7.209108004009182613e-01 -6.818083342342069475e-01 -1.241974767621435299e-01
5.390672564349634904e-02 6.515862213428767757e-02 -7.124752310433061231e-01 -7.500850396472330539e-01 -3.341061168439201090e-01 5.707412163011230666e-01
-1.182541799573699204e-01 -1.848884070480219521e-01 -8.258557727283301064e-01 9.545459965113425316e-01 -2.412764630671398181e-01 -1.750074538811961511e-01
6.873869407962673872e-02 1.001157311517189008e-01 -7.264680914092376263e-01 7.085102927928513816e-01 -5.641811849339528617e-01 -4.239254127474651468e-01
-1.123795026445715967e-01 -1.404207934185756623e-01 -8.624343416799529205e-01 9.690630212051746240e-01 -2.461062526442138743e-01 -1.867011896378077337e-02
-1.215517252359408357e-01 -1.850196821081682708e-01 -8.873003866307095366e-01 -9.603620923244400309e-01 2.159025033326886223e-01 1.763257232535915819e-01
-8.242581649885388773e-02 -8.943309163836669906e-02 -8.092530715257090224e-01 8.956124428438272389e-01 -3.837657572677478646e-01 -2.249493182297388205e-01
1.262932176263443507e-01 1.637429884901344945e-01 -7.501170361590911995e-01 7.892194699966517124e-01 -5.778850723929217503e-01 2.078015189637260896e-01
1.081120458248645416e-01 1.062376448448419941e-01 -6.826110065594401810e-01 -6.894686134065207694e-01 -4.017585322384480961e-01 6.026799423416191459e-01
-1.250030021664993996e-01 -1.988099406582257700e-01 -8.462939259750593690e-01 9.636530769692522869e-01 -9.099672350497483089e-03 -2.670017663065276103e-01
-4.917220075674172408e-02 4.479653149000588884e-03 -8.472647572817333383e-01 8.330370037333532096e-01 -4.600811491259690911e-01 -3.072046331517235829e-01
-7.258763187256846161e-02 -3.925746349365998034e-02 -8.827111289303908315e-01 -8.810818230378966165e-01 3.953246474552616907e-01 2.596406058893517277e-01
1.388738679066434112e-02 7.504858304853798123e-02 -7.996910071185158175e-01 7.360808993210961049e-01 -5.701417770651829864e-01 -3.648606085885424122e-01
3.638487958026884184e-02 1.040830227131660929e-01 -8.218509850322208710e-01 -7.270603084199471766e-01 5.820686709791691449e-01 3.641145014756139164e-01
9.281115583473900643e-02 1.008225287912535156e-01 -6.886430468456291587e-01 6.333448691930981811e-01 -6.830208013207103024e-01 -3.638088256625887640e-01
-2.201927350788314419e-02 -2.761889552429666952e-02 -7.421012703560080359e-01 -8.265749464824068138e-01 4.721218159423893890e-01 3.063900271857208923e-01
-2.791437010648603959e-02 -6.695792410092080843e-03 -7.679606812022731210e-01 8.681315391847349572e-01 -3.107263482532834908e-01 -3.870358732390607459e-01
1.820715188011458874e-01 1.673518376436726740e-01 -6.900103047094652275e-01 -1.349913053109382810e-01 5.915470386287561277e-01 -7.948895826339640314e-01
3.888426832591022203e-02 5.638770115322694343e-02 -7.134115056986417569e-01 7.388528258439206464e-01 -5.721052397744216256e-01 -3.560787783133171347e-01
4.980379287597650612e-02 9.059314597740825148e-02 -7.711861335640678439e-01 -7.295678759810669822e-01 6.020670101698558652e-01 3.244164447151304254e-01
2.793296157425961823e-02 6.067374847843092639e-02 -7.421786997501220728e-01 7.084625757754043907e-01 -5.638668610558997818e-01 -4.244230692700928786e-01
-1.028510757619427729e-01 -8.324625934382169634e-02 -9.006277685092186625e-01 9.358788787403531373e-01 -3.117690996890319366e-01 -1.641059194751656181e-01
4.686144520576524669e-02 6.174082915172021679e-02 -7.415452700619218351e-01 -5.874789416449580637e-01 7.615680002117591885e-01 -2.736469882479648508e-01
3.582379585581595052e-03 1.192025369083967584e-02 -7.176080260765443919e-01 7.838244463362246117e-01 -5.268031456934979539e-01 -3.287821208842512943e-01
1.050886032092377721e-02 1.997207729070555465e-02 -7.145094608988170615e-01 7.530786396075839217e-01 -5.768937620567959890e-01 -3.163323408485881338e-01
-7.029898480576306230e-02 -8.522215651696160577e-02 -7.722464099129316972e-01 8.832833042994918671e-01 -3.851857685076631732e-01 -2.672873511502784072e-01
-1.248617761713776420e-01 -2.073291391448552623e-01 -8.787729903145653498e-01 -9.651264245971888922e-01 2.030597569203189401e-01 1.652202156629377638e-01
-1.041843574341676376e-01 -1.597002121012348341e-01 -7.968021891384533539e-01 8.474620049248567932e-01 -5.260180513089481869e-01 -7.150636269506834009e-02
4.148347717208367147e-02 5.534636954655857560e-02 -7.277293672491506049e-01 -7.961746345938319758e-01 4.034518479012758618e-01 4.509241151839453177e-01
-8.130326353755298885e-02 -7.434090194194388490e-02 -8.282326331861444846e-01 8.791676170240459998e-01 -3.920757631094123341e-01 -2.708152454320700286e-01
7.022831206350259314e-02 4.537343455547755006e-02 -6.391731594371748981e-01 -2.831684739490495928e-01 -9.107550261918377910e-01 3.005676257145327157e-01
-4.641607588686001012e-02 -3.305137848531146394e-02 -7.787919795216210472e-01 7.598102772251102976e-01 -6.266655996509968851e-01 -1.731432032658450082e-01
-9.253102829773826934e-03 6.407955043450960786e-02 -8.362560290174980704e-01 7.977744047683119621e-01 -5.227710024903350350e-01 -3.004438018196008975e-01
1.426606159522792738e-01 1.398646516796584194e-01 -6.835559219659960162e-01 -1.912900763145015115e-01 -9.337088308022455374e-01 3.026481884721858306e-01
6.325697367531273041e-02 1.022262246534113295e-01 -7.441018284160190177e-01 6.984270780505824616e-01 -6.289491009025941493e-01 -3.415005785054309184e-01
7.573768036681258198e-02 1.133080337251939768e-01 -7.402807858519993012e-01 6.554985018143147935e-01 -6.406494668277646909e-01 -3.998624448138253240e-01
9.189146273221008784e-03 -1.941326256954033214e-02 -6.590447002239520069e-01 7.486324927674948837e-01 1.858374398023940055e-01 -6.364069741450187889e-01
1.595268556565572482e-01 1.856681722564584858e-01 -7.388576792345715738e-01 2.718598952047984185e-01 -6.476691388066709854e-01 -7.117702466503226244e-01
3.841672603770929229e-02 1.067580458934219156e-01 -8.222113193169318102e-01 -7.136138879502367249e-01 6.017512701791059015e-01 3.586790037936148368e-01
-1.477458820887233293e-01 -2.608976182014998701e-01 -9.080420682709260394e-01 9.878168382661229874e-01 -1.553765862533150466e-01 -8.718399060968313671e-03
-8.372283017501712388e-02 -7.406747459915698217e-02 -8.415503344534879249e-01 9.370226863481818658e-01 -3.412998848133986796e-01 -7.418135813799543732e-02
-5.563749744873140377e-03 2.861188232664578848e-02 -7.606980700618205526e-01 7.918458426932583061e-01 -4.766264808472107650e-01 -3.818472982287646200e-01
1.830225250308619919e-02 6.307333292357963916e-02 -7.748962748301306824e-01 8.522206204240422300e-01 -3.430430775664650711e-01 3.950208362324560962e-01
3.645541702121284783e-02 9.818526254189301194e-02 -8.117452368036519594e-01 -7.479234989107422793e-01 5.840205608094654055e-01 3.154844280291984049e-01
-1.117458677925050881e-01 -1.701405602796973726e-01 -8.139215337414983376e-01 9.347380936735464330e-01 -3.243569932242449938e-01 -1.451111201185892041e-01
3.472282455204187641e-04 8.826907268272946028e-02 -8.568066499067277242e-01 8.289198809376631116e-01 -5.386355454581965851e-01 -1.508760423501405989e-01
3.598609869905330938e-02 6.043342772567861232e-02 -7.283574407608460755e-01 6.120934750317597040e-01 -7.643663394489816909e-01 -2.026960210288022701e-01
-5.928631086739741436e-03 4.879572222097446760e-02 -8.249614983033959348e-01 -8.731606376431872985e-01 4.817486851358347422e-01 7.422065238487918215e-02
-3.684424484208871642e-02 -1.104354151265105402e-02 -7.770279690658057348e-01 8.306579425598733524e-01 -4.217293490946297796e-01 -3.635268058540083724e-01
-6.762623512984362872e-02 -4.034109547144390691e-03 -8.922008993763009821e-01 8.710352069587333768e-01 -4.300160550133094728e-01 -2.374528598883302311e-01
-1.223398849041931191e-01 -1.536111960772732488e-01 -8.957073669460744458e-01 9.739589891688180678e-01 -2.144973304601546227e-01 7.344918408478932903e-02
-5.985939775533067470e-03 8.733542639667274399e-03 -7.356297082564215994e-01 7.969756584145801792e-01 -5.109148560331152611e-01 -3.221735708889040817e-01
-8.792603989919300922e-02 -1.286871013116506479e-01 -8.035447107260453858e-01 -9.228643611853339923e-01 3.110114742151395273e-01 2.271414399895163860e-01
-2.966286437030258780e-02 4.121579163478636398e-02 -8.550820668628726917e-01 6.530341570471729362e-01 -5.152654903256781438e-01 -5.550205980043683152e-01
-4.296199590207936542e-02 -2.169505910608642354e-02 -8.127524894962604440e-01 -8.349416698923729507e-01 4.565422826949355750e-01 3.073134425778233370e-01
2.726191712326268488e-02 6.743387442164180956e-02 -7.572537173910857122e-01 7.237807318027117409e-01 -5.821662805633417426e-01 -3.704374090803674302e-01
1.492523968636177700e-01 1.637455222894510787e-01 -7.149254608365172015e-01 6.359477137523561474e-01 -7.167833143583711708e-01 -2.859933314442485441e-01
-1.214862336487341349e-01 -1.882746818653776577e-01 -8.381072017509233474e-01 9.577031482514797300e-01 -2.167546662627367615e-01 -1.892672567628485014e-01
-1.998466420131042934e-02 -4.341770045761070285e-02 -6.987153624744519842e-01 -6.378186672847045990e-01 -5.804343563377051263e-01 5.062443141863393059e-01
-2.741391027833478197e-02 -3.315068171018257376e-02 -7.485516331346364627e-01 -8.408519293957353868e-01 4.476668723954235207e-01 3.042407010759227148e-01
1.542548328773779174e-03 3.543817447257526648e-02 -7.851194959350703551e-01 -7.892538164281686086e-01 5.346711639278406425e-01 3.020019200561788186e-01
-1.549333874928840449e-01 -3.354292168764725357e-01 -9.498196314184922384e-01 8.242345845779567304e-01 -2.847173156781198644e-01 4.894623578362782279e-01
2.931883322552371676e-02 3.915374712400340046e-02 -7.245225831728229204e-01 -6.654940964181700336e-01 7.055724809204205750e-01 2.434852804593451159e-01
-9.731687295346834465e-02 -1.074499916990539206e-01 -8.288955882607739190e-01 9.147147530142738514e-01 -3.748856966357317355e-01 -1.508563391971920464e-01
-1.503476058561147889e-02 1.867997464701675811e-02 -7.966999562932070011e-01 -7.226216983092585977e-01 5.215662521288081388e-01 4.536369977999494263e-01
-1.540990366442412107e-01 -3.566634023207726489e-01 -9.558187448666985997e-01 7.556985179225470528e-01 5.318667463580721844e-01 3.821485498181879104e-01
6.400242938979873453e-02 9.692885288360934826e-02 -7.336482010112431729e-01 5.947313393214200827e-01 -7.620927960453248717e-01 2.559476591898595665e-01
-4.166662275561881096e-02 -3.819526093549558549e-02 -7.555218362736034754e-01 8.512278811104573295e-01 -4.359990827113313094e-01 -2.920888465776790843e-01
1.477997147961670199e-01 1.766213407000580549e-01 -7.369431056356859910e-01 5.420704805524727554e-01 -7.125844245316590442e-01 -4.454021015088450719e-01
-8.070763923297964021e-03 1.590184099021692624e-02 -7.637931067112179173e-01 2.414551851518043357e-01 -9.541107085259543652e-01 1.771218491305031062e-01
1.487118090719753982e-01 1.267798004393911326e-01 -6.657567433999861395e-01 -5.645225384331361562e-01 7.130983305175978559e-01 4.156982975837441030e-01
-8.286358114266494101e-02 -1.048084822547910577e-01 -8.315810524283190341e-01 -6.925302516275334552e-01 -1.922982359473112204e-02 7.211324874565148146e-01
1.469627821337408102e-01 1.461892683321262820e-01 -7.009239558494234634e-01 -4.788456942931594851e-01 8.265608254050721415e-01 2.958107553193218275e-01
1.409884117037523144e-01 1.370937511989093194e-01 -7.081065561950455889e-01 -5.971704076872031974e-01 7.321450630084029854e-01 3.276447937860773041e-01
2.581124540241330582e-03 5.770147649861015471e-02 -7.966253339278939194e-01 7.851249568165841186e-01 -5.386629707144233725e-01 -3.056485010021628979e-01
-3.841443477789929090e-02 -3.387962843193911139e-02 -7.909009141004290644e-01 -8.383506504686754068e-01 5.018355467636269607e-01 2.129067186896662911e-01
-9.715016531534992339e-02 -1.063834064176988198e-01 -8.306177461810166918e-01 9.136794856505906504e-01 -3.812739101191210400e-01 -1.407835322889315621e-01
-1.702180264341374843e-02 3.214921660057937225e-02 -8.274793689861690282e-01 -7.973370523728799952e-01 5.095281403432002643e-01 3.234728722964677061e-01
-1.407130475102850165e-01 -3.123227516329425968e-01 -9.306162364026707712e-01 -9.966472425955000825e-01 8.014324349851080498e-02 -1.647222960999873351e-02
5.316646599279260116e-02 9.344456887445391768e-02 -7.674489228501166771e-01 -8.041054251402739439e-01 5.748973305119645660e-01 1.513523195401919874e-01
5.692630094534298357e-02 1.357665037018261356e-01 -8.302747402154555534e-01 -2.687990372469833411e-01 -2.543852984902479353e-01 9.289968770061191039e-01
-8.340250451843805868e-02 -9.204624411745823687e-02 -8.132761587329001562e-01 1.182258168521889696e-01 3.900255570893229606e-01 -9.131827424162131113e-01
-6.848024701503081790e-02 -6.985075278297389612e-02 -8.019530500304110632e-01 1.148130859362743450e-01 3.839458550328421205e-01 -9.161896832539042634e-01
-4.633928991254165908e-02 1.224433635801189073e-03 -8.598743042641201484e-01 -8.489279521343817692e-01 4.424474644994265127e-01 2.890701873991045612e-01
5.266776789938931030e-02 1.027225072777422782e-01 -7.675606449923568775e-01 5.775912015306577940e-01 -6.238671728419512563e-01 -5.264771168479803753e-01
-2.956890930324631087e-02 2.589586357534262237e-02 -8.260011642507939511e-01 8.251106304465394281e-01 -4.911972813313282837e-01 -2.791373825499300909e-01
-8.456688797293948623e-02 -1.250591852647072177e-01 -7.634593928236744764e-01 9.311260367045051112e-01 -2.232947034556050092e-01 -2.883466302553818195e-01
3.993266420717447862e-02 9.395424025125678757e-02 -7.757933832855529177e-01 7.232074558602347158e-01 -6.030082939194051361e-01 -3.366778478792077367e-01
-1.923008965631130968e-02 1.981852128575206998e-02 -7.882369278741702123e-01 8.136493990421042044e-01 -5.057738859401772480e-01 -2.866486206828762762e-01
-1.333709072269855800e-01 -2.051504447037304224e-01 -8.841413456311275620e-01 2.123363394384388536e-01 -4.938672500241029772e-01 8.432131511708734761e-01
-4.805851615196208952e-03 6.969260193755083543e-02 -8.548610444900940353e-01 -7.323949966706154724e-01 5.325064406897457303e-01 4.243046776501379624e-01
-8.083089065194956971e-03 -1.108593841311968954e-02 -7.080558109543710898e-01 7.777240938913893009e-01 -5.542488593186614132e-01 -2.965694450289512729e-01
-8.238494795993306363e-02 -8.641742103161592636e-02 -8.414024332455021238e-01 -8.404885186939389241e-01 3.756397460683453260e-01 3.904789765369928722e-01
9.047858851439348482e-02 1.194615348503385854e-01 -7.194500296436506792e-01 5.977795258193103756e-01 -7.365202077982911932e-01 -3.165400796360587909e-01
-5.673614249605398591e-02 -5.452035196503492165e-02 -8.085437655005887070e-01 -6.701637779162064046e-01 3.375588605675229614e-02 7.414452447251929090e-01
1.384402188928280375e-01 1.671480979083276308e-01 -7.507570190089577489e-01 -5.024747793165439402e-01 6.807823778981370033e-01 5.329675882210364035e-01
-5.547531450737845649e-02 -9.810055747237159118e-02 -7.292408136570279753e-01 -9.165270666299784041e-01 1.194534351153912627e-01 3.817184996483409254e-01
-1.382388512587871821e-01 -2.179817275690384415e-01 -8.838923256987852861e-01 9.758368636472649627e-01 -2.058022886778478056e-01 -7.340186320543226617e-02
-7.680862678386585207e-02 -2.906920428329822642e-02 -8.959911119448227268e-01 7.673141952089792550e-01 -1.976039129622071955e-01 6.100668974897923702e-01
6.855394356893288257e-03 1.599212365284541013e-02 -7.163293826849770340e-01 7.838244463362246117e-01 -5.268031456934979539e-01 -3.287821208842512943e-01
2.092530509138139025e-02 2.609209699169915200e-02 -7.011051637973435557e-01 7.382349383698176837e-01 -5.948846963331027027e-01 -3.179958707888885794e-01
1.895190150359244707e-01 1.725695723007355242e-01 -6.873920942156143132e-01 -1.349913053109382810e-01 5.915470386287561277e-01 -7.948895826339640314e-01
-9.705250243833653256e-02 -1.363868276276469504e-01 -8.312247202825042702e-01 -9.489837193902741497e-01 1.433876397747698150e-01 2.808378270319403791e-01
2.390374632784042497e-02 4.047145695606645804e-02 -7.530942166838549001e-01 -7.164594199719392931e-01 6.317182240584557906e-01 2.960033528963863514e-01
4.233964118593465387e-02 7.193708620505413764e-02 -7.436093152608562740e-01 8.553715003509942960e-01 -3.000406888294537833e-01 4.222738228141018069e-01
5.804725787487300531e-02 6.586784133191063428e-02 -7.066184510183671774e-01 -7.500850396472330539e-01 -3.341061168439201090e-01 5.707412163011230666e-01
5.212337709832020466e-02 4.669066655199403948e-02 -6.889045886837938948e-01 -6.552062923519309523e-01 6.967123480674494163e-01 2.920558482769645137e-01
1.247461701209227475e-01 1.375864970974661206e-01 -7.195737333949303594e-01 -6.982670327144638867e-01 6.820291118209061976e-01 2.173923679730355440e-01
1.269028892209724153e-02 7.874901389769579929e-02 -8.089310260027772204e-01 7.696915155875996284e-01 -5.558636730001812465e-01 -3.139913181462374858e-01
1.387739708807262662e-01 1.394851732914171583e-01 -6.866532847438286957e-01 4.627929136419315359e-01 -8.381868472692916017e-01 -2.885576686688066106e-01
4.113003058997925787e-02 7.396431041676866658e-02 -7.581544260885616504e-01 -8.129900167811672240e-01 5.595400446104957792e-01 1.611278098015416216e-01
-1.101844823217008884e-01 -1.626771463270705320e-01 -8.554648347887251481e-01 -9.397776990611451664e-01 3.136526024739479390e-01 1.357936718284734057e-01
-1.310400309813128938e-01 -2.463878658649899800e-01 -8.990130971040369845e-01 -9.834154942441267755e-01 1.725470788964899860e-01 5.587012837705357393e-02
-1.142708034347474505e-01 -1.546109638286980725e-01 -8.892902544374111651e-01 -9.503740546368623088e-01 2.556294736883235053e-01 1.773209757894451677e-01
2.008620311280614745e-01 1.894967310294161100e-01 -7.049719612454606876e-01 1.807836318097181816e-01 3.064685279208380075e-01 9.345556804512626936e-01
-5.241185344461515849e-02 -6.136219560834731829e-02 -7.544853389234832397e-01 7.606000698960886375e-01 -6.300976615799208647e-01 -1.564112225691639269e-01
1.024947049348200467e-01 1.059681279863371600e-01 -6.831872927309703414e-01 4.874110352107670074e-01 -8.372798574847568620e-01 -2.477759532421846267e-01
7.696843973640821179e-02 1.266029513168446807e-01 -7.627960777738150844e-01 7.207450993071594647e-01 -6.394971509814436628e-01 -2.675255047866076930e-01
1.558792273278434282e-01 1.297598851554289390e-01 -6.521767773641669041e-01 -1.994600747580836109e-01 5.885599701112764759e-01 -7.834620859748819832e-01
-1.103025840782123276e-02 3.111238648772196580e-02 -7.855658497735890089e-01 7.877978446067254170e-01 -5.216374426178654877e-01 -3.275193650642517773e-01
7.864490775550540477e-03 5.417176038651594361e-02 -8.013534481765083317e-01 -7.694866787009163600e-01 5.409966441190675601e-01 3.394302319383756261e-01
-4.477685587169352721e-02 -6.965891406170481026e-02 -7.151947962433079509e-01 8.901531670303671762e-01 -3.225545594977596298e-01 -3.218476275708949119e-01
2.183387208763106213e-01 1.889675148141952976e-01 -6.889823326499426859e-01 -4.879871732622382274e-01 7.561575797967738932e-01 4.359979739028790324e-01
2.153415345867408792e-01 1.797646794174218576e-01 -6.760166738736447245e-01 -4.654712314578791088e-01 7.702733386563795914e-01 4.359076925683229575e-01
7.720322023252998433e-02 1.234940293961956093e-01 -7.554851382221623446e-01 6.677766985225560559e-01 -6.551080474349425531e-01 -3.534228729104725297e-01
-8.478331493798252350e-02 -1.316280411229782676e-01 -7.859639894911230051e-01 -9.145998210091003111e-01 3.434925507568462044e-01 2.133542476368287255e-01
6.650189147498122844e-02 9.559340960798171083e-02 -7.248865256483018049e-01 5.419497453075534654e-01 -1.994242398071393307e-01 -8.164070345963603259e-01
1.518628843904166470e-01 1.249135208826911703e-01 -6.568762906746947738e-01 -5.037444028416077080e-01 8.303528145942977723e-01 2.382347159863141550e-01
7.489243844834859998e-02 9.075312728410243890e-02 -7.357026382521747454e-01 -7.110104897332291118e-01 5.736308970699527388e-01 4.067083444140714987e-01
1.493424121997841830e-02 -7.801056078703955468e-03 -6.576006642169082150e-01 7.682452030620111616e-01 -4.940530723462124851e-01 -4.070759998789876821e-01
-1.246251133244245246e-01 -2.006174801503445293e-01 -8.445079111948403661e-01 9.691448807927592890e-01 -4.191546829820718550e-02 -2.429018187468554302e-01
-4.275226974857667533e-02 -3.444590581069364998e-02 -7.847366277952422253e-01 -1.920467969109664053e-01 5.402032398803304769e-01 -8.193280706890446741e-01
-7.824771623327457515e-02 -6.207849482935877405e-02 -8.669230760333993535e-01 -9.462041329928145839e-01 3.234176820978013622e-01 9.936881492775913663e-03
-3.195949163559980155e-02 -1.267405526414211274e-02 -7.722219430200157886e-01 8.669509125064156496e-01 -3.352035107148424453e-01 -3.688288515134598433e-01
-3.211237502149009992e-02 -5.100069751103271376e-02 -7.227189926075370252e-01 -6.633464698384203828e-01 -5.517786132139039790e-01 5.054817731161496130e-01
-1.334514895719066396e-01 -2.589059346483731927e-01 -9.027988328068882184e-01 -9.834154942441267755e-01 1.725470788964899860e-01 5.587012837705357393e-02
1.478321556890037185e-02 1.122819527589390132e-02 -6.927482800340328817e-01 8.085938523820086488e-01 -4.435560742034190262e-01 -3.865669294278462620e-01
1.625761994084022888e-01 1.520330138987980029e-01 -6.988300047028775941e-01 -4.891052505467469724e-01 8.349894757771811893e-01 -2.521281999875298330e-01
-9.705516642062169894e-03 -4.490757564885974190e-02 -6.801257781728424767e-01 -8.236169962100237107e-01 4.614331766509982558e-01 3.297490971022459250e-01
-7.455079880343926102e-02 -9.837445118052198789e-02 -7.968799864348921069e-01 -8.380710123200809658e-01 5.237286261747380323e-01 1.527917027652883064e-01
2.089482387736878166e-01 1.787227373232101180e-01 -6.890552688642486157e-01 -5.071987319370946379e-01 7.842289984301994421e-01 3.573993905179042585e-01
-1.167281262204720449e-01 -1.598327711295141340e-01 -8.618269833590127549e-01 7.968440425725661358e-01 -3.572049268870224059e-02 6.031281938515946628e-01
-6.574798691040165122e-02 -9.318894988830327131e-02 -7.648525050831351813e-01 -4.236066176373594616e-01 8.964480400660599368e-01 -1.301473970371881395e-01
-9.952221758593005063e-02 -1.108641410180997433e-01 -8.485208077103587598e-01 8.353055571879176577e-01 -3.371566692325304593e-01 -4.342695090873964769e-01
1.355959310797826909e-06 -3.595147458115498934e-02 -6.654939279509555217e-01 -6.009838605206409001e-01 -6.306141321869611627e-01 4.910643701998674282e-01
-3.139691684124586157e-02 3.185382583271611622e-03 -8.192983198171115422e-01 -8.229316916573845564e-01 4.765811066023447617e-01 3.092796140963699481e-01
-5.840175639411546854e-02 -4.161915988913819642e-02 -7.922791029825722031e-01 8.524938661239455095e-01 -3.894975197725245031e-01 -3.486343217643671499e-01
-1.117971484888180544e-02 6.439378207989826693e-03 -7.648141251484796843e-01 -1.836863608764445210e-01 5.480984830788087070e-01 -8.159947142443247925e-01
5.177435935390401617e-02 3.005826128107469755e-02 -6.431672779131715201e-01 7.621402426743796310e-01 -4.825514237260692951e-01 -4.316090522176069255e-01
-9.616891145072041513e-02 -1.359968915151521518e-01 -8.279108198555295006e-01 -9.300827474515660498e-01 2.999717132482095372e-01 2.120449342565866035e-01
-7.715226926661312989e-02 -8.697433036681610774e-02 -8.248047650639879214e-01 -9.084351347689814116e-01 3.603131750419580892e-01 2.119434401165694037e-01
-5.001633616152482281e-02 -2.729142522101053389e-02 -7.984654073458509194e-01 8.391065581002437046e-01 -4.546740865106645435e-01 -2.986162406984171347e-01
-6.918542576864077087e-02 -8.095475351716020784e-02 -8.022221193160572472e-01 -9.204230494439719079e-01 2.077437402452714799e-01 3.311554747262448473e-01
-5.229534355505133236e-02 -5.689331101236348026e-02 -7.738478728222295544e-01 -3.495751401650410428e-01 9.235950667040111473e-01 -1.573828902346278702e-01
-6.107599762844827251e-02 -9.530775281016613809e-02 -7.362211621900633940e-01 1.282111156392537199e-01 -9.598687427450733889e-01 2.494271567562960645e-01
1.704421820729620229e-01 1.812100832109848070e-01 -7.268296882182171403e-01 -1.705969750890285255e-02 7.453797025974356893e-02 9.970722429746314841e-01
4.419878803994894967e-02 5.501496948646065338e-02 -7.003856243515883540e-01 7.220272084835920312e-01 -5.904264820240517908e-01 -3.606567336597134021e-01
5.640775648044662853e-03 1.004587932770241963e-02 -7.328486256451748337e-01 -7.881219196419576578e-01 5.153748228850594248e-01 3.365302835051690034e-01
-4.182035079768200297e-02 -2.882932111504701508e-02 -7.830374931037581421e-01 2.814279770208500397e-01 -9.375189132769461420e-01 2.045888095619249891e-01
1.022347895786382410e-01 1.467073467667747988e-01 -7.722413302865831497e-01 -6.116478971786751817e-01 6.667965351402513896e-01 4.257572437456117465e-01
1.702752509660469260e-01 1.679554238052154980e-01 -7.040215105522724670e-01 -6.427941271816829671e-02 -3.312016597160513109e-01 9.413679502202846328e-01
-7.836243244343223113e-02 -3.187164607708892206e-02 -8.847597270738218889e-01 8.905993652461515753e-01 -3.844479764603547789e-01 -2.429660964387635458e-01
-1.603667360193927402e-02 -2.759103731156178213e-02 -7.260187297427781461e-01 -8.098381924677073851e-01 5.095714455611342064e-01 2.906871925100457110e-01
3.309291092458403749e-02 7.648483171279145398e-02 -7.601425205851850553e-01 7.255293693470649119e-01 -5.896828522007190321e-01 -3.547975028594129721e-01
-7.223635130868406862e-02 -1.079858946374170486e-01 -7.683391100845970989e-01 -7.031864766750884899e-01 -5.312622111904058420e-01 4.725349108609391280e-01
-1.408840208452907805e-01 -2.974562670423865351e-01 -9.305727661230340786e-01 -7.565282550273059181e-01 -2.293773893972444466e-01 6.124140858754348882e-01
-5.908185204955054143e-02 1.131642448918624907e-02 -8.888980908844659190e-01 8.314647853548720047e-01 -4.508052313744757567e-01 -3.247167289810949931e-01
-4.592776785483718843e-02 -2.966139531688046296e-02 -8.091099347004624409e-01 -8.477250408322469788e-01 4.411623959364515124e-01 2.945131500588297202e-01
1.685342845585759142e-01 1.690905630949633975e-01 -6.976261644998336120e-01 4.311350070714602967e-01 -7.322600521567645959e-01 -5.271791172769121347e-01
-6.702100822792650403e-02 -8.137296022693642217e-02 -7.957520237899824433e-01 -9.177777654173232547e-01 2.143535216435373814e-01 3.342701617922220758e-01
-3.557800905359172899e-02 -1.130579929297913580e-02 -8.072883176132379379e-01 -8.422342571038171632e-01 4.678777275112109835e-01 2.678280946049655942e-01
4.867495516068867656e-02 5.838280655674745606e-02 -7.177484944472277695e-01 -7.961746345938319758e-01 4.034518479012758618e-01 4.509241151839453177e-01
-9.030550869040204418e-03 -1.505253883465644711e-02 -7.031536162127700607e-01 7.973795451389636968e-01 -5.058984212788092405e-01 -3.290177021705479876e-01
7.498600469874784624e-02 9.795715265970746100e-02 -7.278137426661469567e-01 -8.657148458784136302e-01 -6.533876216422702943e-02 4.962546239427511052e-01
-4.833894130866446537e-02 1.719194612600427607e-02 -8.668734556993730189e-01 8.847722603586164469e-01 -4.379080987595867502e-01 -1.594193976298633186e-01
2.384869065800601998e-02 7.324248248775537540e-02 -7.781153839423479157e-01 8.095292786904175752e-01 -5.530043131579481797e-01 -1.971004225558080358e-01
1.168755352429842881e-01 1.019040911360863805e-01 -6.699310179835008539e-01 -6.400162378988297762e-01 6.499976745481303997e-01 4.097343509004967022e-01
-7.424941356218732469e-02 -4.830378263349258822e-02 -8.741977759953672988e-01 -8.940130001053778752e-01 3.845663977357319241e-01 2.298900636720620783e-01
1.845764889413845089e-01 1.792152603367775654e-01 -7.103754607949593902e-01 -6.549992435813869474e-01 7.347911313795640886e-01 1.762327556209418722e-01
1.528881773986320580e-01 1.627131195105314121e-01 -7.023410308416535575e-01 5.025022402258102483e-01 -8.371611945520724962e-01 2.159922056561050518e-01
5.897664798718596502e-02 8.574824329854775773e-02 -7.239776460376400324e-01 7.065391933631668397e-01 -5.943203834697778909e-01 -3.841687780573294075e-01
3.559441365525065071e-02 1.787805437992059585e-02 -6.582012398930773278e-01 7.814668190481204313e-01 -4.859743045099552683e-01 -3.913292553373405869e-01
-1.052168386819728740e-01 -1.446926958137167707e-01 -8.197244450717231512e-01 9.389355359966322645e-01 -2.757145074991045886e-01 -2.058678449812968714e-01
4.872712904715653659e-02 1.283497207939927609e-01 -8.173999226868275958e-01 6.843358520634262865e-01 -6.008640115746954891e-01 -4.130942763764568482e-01
4.008701259449373722e-02 7.898998116298693029e-02 -7.554703268878690814e-01 2.515161073548254078e-02 -4.201334500571662911e-01 -9.071137087600832372e-01
6.448824065045264016e-03 -2.151057708702926174e-02 -6.761340226479621851e-01 -7.407809520398886960e-01 6.219033884035106707e-01 2.539286446762322180e-01
-1.150856292511387435e-01 -1.253129130942247926e-01 -8.949182184184885092e-01 9.542033321200710239e-01 -2.753946757157425540e-01 -1.168493626785121892e-01
-8.317438916185948550e-02 -1.133373541307892141e-01 -7.911910380991024061e-01 3.436435279067800441e-01 -9.230877586592521888e-01 1.726792273008535272e-01
-1.065234277769197824e-01 -1.232944355708143341e-01 -8.569545252080248421e-01 9.296115124942774255e-01 -3.095237453089176860e-01 -2.000437125431387686e-01
-8.611307853669251944e-02 -5.049307672321801110e-02 -8.870752494817829570e-01 9.326392221472541433e-01 -3.473976402580511991e-01 -9.746261260453843722e-02
9.761555043088059047e-02 1.468711113400402724e-01 -7.606998251909931064e-01 6.388399666947151001e-01 -6.755515703313679232e-01 -3.681216820241890453e-01
6.456839250521533013e-02 6.865505984329825506e-02 -6.966940443075521072e-01 -7.185457626224646122e-01 -3.940251006418932223e-01 5.730935413014586199e-01
-1.245709327836389130e-01 -1.948620070594342391e-01 -8.892074588837084459e-01 -8.948526315706464285e-01 2.269177543412198850e-01 3.843788502712223165e-01
-7.108731665259000743e-02 -9.274123153040111922e-02 -7.932399413181175918e-01 -8.847444074167489791e-01 4.014940435965762555e-01 2.367062874138671780e-01
-7.843890998209314402e-02 -8.765538218411064730e-02 -7.969149209842139037e-01 8.808000460588312208e-01 -4.121161117922952921e-01 -2.331342730358647308e-01
8.755432211166698508e-02 1.473998968120998065e-01 -7.984689068317593064e-01 -6.695469368248309072e-01 6.401765438380414563e-01 3.766708007107345546e-01
-6.147435304624027964e-03 -4.524365053806382597e-02 -6.648592185791980524e-01 -8.673131810003764652e-02 5.958106051999927377e-01 -7.984280814148813077e-01
2.073295071353793706e-02 8.340373622763305739e-02 -7.989365629251768963e-01 7.360808993210961049e-01 -5.701417770651829864e-01 -3.648606085885424122e-01
5.084252763399579184e-02 6.335563120953098537e-02 -7.011796469680142696e-01 7.054107045583981606e-01 -6.219398240536246902e-01 -3.399802834732780776e-01
-3.281146493608244619e-02 1.768598675285279823e-02 -8.211732445500804500e-01 8.248863955062495368e-01 -4.906589800921705158e-01 -2.807422301037343915e-01
-3.746116801706691340e-02 -2.463434387324212049e-02 -7.941874814187155351e-01 -1.028230006343215236e-01 -3.755785032213953545e-01 9.210690628061126706e-01
1.556170085728582897e-01 1.621806912233865472e-01 -7.003837795986777026e-01 5.370391070944164902e-01 -7.205831806658336003e-01 -4.385759651334563691e-01
2.190159138514545523e-02 2.665213304170981415e-03 -6.701786446753985604e-01 -3.794266530816117061e-02 -9.688675415024574633e-01 2.446549430775853129e-01
2.797243036666197114e-02 1.024448169843136802e-01 -8.319862362855502402e-01 -2.788669112851384080e-01 4.926340863177112728e-01 8.243451357218045672e-01
1.420138540859221254e-01 1.676633877149056595e-01 -7.297178530819096176e-01 3.751898170539229582e-01 -6.673464439932563774e-01 -6.433360901337646931e-01
-2.603144245523039343e-02 1.139276660033857781e-02 -8.175000147279077867e-01 -8.279603075028731940e-01 4.868902044273917817e-01 2.782438822910584530e-01
1.932758656143304665e-02 6.618489989783814991e-04 -6.755422592153739192e-01 -6.702294895763326599e-01 -5.109833577674269822e-01 5.382271262087915398e-01
-3.996600704486757451e-03 -1.834131316213586868e-02 -6.857168674445892620e-01 7.967633866003763776e-01 -5.119932277089703776e-01 -3.209844864681929422e-01
-1.505088411305960210e-02 -4.825438885734269906e-02 -6.889093789689884062e-01 -8.232524616363441350e-01 4.759271737501540867e-01 3.094328839924587182e-01
-1.066668601145739637e-01 -1.518219761933772283e-01 -8.202834219392062254e-01 9.536197154702231726e-01 -1.366383872160072122e-01 -2.682151923465545540e-01
8.672982549765544114e-02 1.127637838959322097e-01 -7.235679907239912501e-01 8.047217730102514954e-01 -4.044042972500063171e-01 4.346033046457032367e-01
-4.198541186151075882e-02 -4.798733925435429842e-02 -7.661543292638360869e-01 -7.906269274217399001e-01 5.810174547725072136e-01 1.932039825814577672e-01
-7.097003060891222959e-02 -5.333407522712808185e-02 -8.265200058703673358e-01 8.059677546255519243e-01 -4.182646834490068577e-01 -4.188921497034148178e-01
1.491643336497152084e-01 1.287459003703861071e-01 -6.686284738154650853e-01 -5.655952743303044317e-01 7.201309370080420935e-01 4.018873215456628678e-01
-3.766272160041955058e-02 -3.125084021831541631e-02 -7.547897160598852073e-01 8.261384873853532262e-01 -4.887007169870919432e-01 -2.804760397555246532e-01
-1.031274923073955546e-01 -1.197359249422877830e-01 -8.732802799587091602e-01 -4.274123489647735918e-01 3.263857436338752360e-01 8.430842367788503600e-01
-1.004225577334637021e-01 -1.477231132454792928e-01 -8.299806433363903224e-01 -9.318698557984166353e-01 3.059539163502701387e-01 1.949635169055225214e-01
-1.223564269914421965e-01 -1.790735060052478511e-01 -8.571806994411039771e-01 1.266399370673198799e-01 4.139305467925481485e-01 -9.014565040930191397e-01
-3.423172046855634670e-02 -1.698508406249027783e-02 -7.907078736811170572e-01 -1.028230006343215236e-01 -3.755785032213953545e-01 9.210690628061126706e-01
-5.309029916935276844e-02 -4.322778042316851449e-02 -7.818672644075472800e-01 8.616047618608896341e-01 -4.231720690831700660e-01 -2.802902679125842678e-01
1.541317326449352931e-01 1.759222806479497636e-01 -7.454925353316537162e-01 -5.655816439421926800e-01 7.243887316284129962e-01 3.941806305812420863e-01
-5.520516831302998972e-02 1.789441193771802718e-02 -8.880795139812859285e-01 8.497483793012485798e-01 -4.680851818223543126e-01 -2.425365012389570085e-01
-4.937821806668683117e-02 -4.298809776265177796e-02 -7.982183431844896981e-01 -8.684546833729417381e-01 4.398129084390728916e-01 2.288035587528462478e-01
-7.847423619978055598e-02 -4.476796038920094478e-02 -8.676597059711433912e-01 7.848879438213944848e-01 -4.239967050887049616e-01 -4.518602767645607532e-01
-3.351289501129351561e-02 -2.519217358861362485e-02 -7.531405677346025840e-01 8.258454712555165500e-01 -4.922256933858324413e-01 -2.751238346228665477e-01
-1.005348121965976976e-01 -1.301755788757681109e-01 -8.210654347509346307e-01 8.519659447582268452e-01 -5.147616922655907645e-01 -9.578324043425855139e-02
-1.290236399342949425e-01 -1.855035700621009143e-01 -8.857834438520558740e-01 9.643696167810617004e-01 -2.115556036194688183e-01 -1.588567556220074894e-01
1.533501129064024360e-01 1.457979157406251725e-01 -7.015814382688955186e-01 -4.891052505467469724e-01 8.349894757771811893e-01 -2.521281999875298330e-01
6.487530118074624763e-02 1.128117636284474423e-01 -7.798380199448365913e-01 -6.959946044115351560e-01 6.288217775913504948e-01 3.466622025212507396e-01
-9.333432896735391338e-02 -1.426797244938423914e-01 -7.854515040653013980e-01 8.093728263829057523e-01 3.896506014473919977e-01 -4.394178384005733018e-01
-9.480578406325930463e-02 -8.607248808290947351e-02 -8.627107466656206425e-01 8.991726638287617090e-01 -3.560087447407813133e-01 -2.544529313864981601e-01
-3.655974026067211613e-02 4.889275928676086770e-03 -8.108908670369234795e-01 8.248588173088723385e-01 -4.750590275336536994e-01 -3.064748796664861774e-01
-6.869290976530194326e-02 -4.420907741481928943e-02 -8.316089455496025185e-01 8.700696023287108893e-01 -4.088170251523607912e-01 -2.754042974412944100e-01
7.946385070943828843e-02 8.270790836403954516e-02 -7.002049726015661113e-01 -6.097127101482064937e-01 7.321308274290780904e-01 3.037019305367398281e-01
-6.743068273396381207e-02 -1.007196627392863697e-01 -7.526563766922675924e-01 -6.470986680452286421e-01 -5.875868577898005762e-01 4.858034565200207711e-01
9.213694001347812190e-02 1.474121365558956065e-01 -7.730402353665217774e-01 6.992836344281985195e-01 -6.666211974813941454e-01 -2.581057490436073909e-01
5.811972769074901651e-02 3.008521076345331557e-02 -6.395765972687413869e-01 1.956100078776734086e-01 3.201098988191200534e-01 -9.269662224137992235e-01
7.737725009167788215e-02 5.749987926788715370e-02 -6.603621409116230412e-01 -6.244692186122031696e-01 7.302806437323596800e-01 2.769988743582088020e-01
