5.360659663161108923e-02 -1.341001205945144487e-03 -7.485552348002211254e-01 -1.426669284084244316e-01 9.079959821673019293e-01 -3.939409142327590652e-01
-1.322677733286324077e-02 4.698191529715664561e-02 -6.407228372675454198e-01 -1.910788221183568614e-01 8.634553542555570838e-01 -4.668337337267645104e-01
-1.745324636944394934e-03 -6.365518480942775059e-02 -8.309651524992369698e-01 -1.158844737185170809e-01 7.908119131152511194e-01 -6.009886079003318171e-01
-2.870237785195078536e-03 7.835021613453178879e-02 -5.185389014564145693e-01 9.803995852323690308e-01 1.891440092625284453e-01 -5.514704920750686246e-02
3.117961218496959497e-03 -1.310930816872351856e-01 -9.163288131144015081e-01 -9.790366268504080427e-01 -1.300496854987888140e-01 1.567621210211219696e-01
-6.805067095742686756e-02 -6.049746134331495523e-03 -7.637667524906746053e-01 1.150901890022719767e-03 -8.668247981656428403e-01 4.986115168244029672e-01
-1.169870994527841962e-02 -1.783245866638126162e-02 -7.711437656634239080e-01 -3.982760415421960493e-02 8.399374157337816671e-01 -5.412198255771780708e-01
-2.063680697599751604e-02 2.937835370521834147e-02 -6.981754226787570961e-01 -1.203065664075780583e-01 -9.427345680967880170e-01 3.110914081015125898e-01
4.097527534007314176e-03 8.357617414064086314e-02 -4.332390674017901344e-01 7.046712453798513465e-02 9.954094065922086676e-01 -6.476494134248306223e-02
5.144614176661552185e-02 -1.232269437831834923e-02 -7.792046308104800811e-01 4.789784675541149811e-02 -8.576442482502231179e-01 5.120079488831249526e-01
1.861134056396064954e-02 7.516759360628669229e-02 -5.362783995105255830e-01 -2.096545591277294840e-02 9.821088293640477529e-01 -1.871435196408075818e-01
-1.038882420143078938e-01 2.177929680109587721e-02 -7.024867080356119731e-01 4.552742283151699487e-01 8.903140380871213955e-01 -8.141905000088427158e-03
-5.606047798871500315e-02 8.571138029174744932e-03 -7.388526558899298768e-01 3.979849243302781975e-02 -8.749766350276722005e-01 4.825266502025662985e-01
-5.245380259383154026e-02 7.627341392506009621e-02 -5.615280484557018115e-01 2.787717821781111188e-02 -9.698435203281554617e-01 2.421289099056598282e-01
9.942605738092363029e-04 -1.494531760967323097e-01 -9.225185054833631160e-01 -6.397553171542627037e-01 5.130814527724805174e-01 -5.722416945607243788e-01
-2.584215372061690608e-02 -1.191930058491892791e-01 -8.970169211046010727e-01 -7.496869401710777592e-02 6.783284622912834072e-01 -7.309242041162080650e-01
-2.020412777910285049e-02 -9.080339144474755542e-02 -8.784884002426167626e-01 3.925014322141297946e-02 -7.259632870644403546e-01 6.866125050504772176e-01
2.301664385336158608e-02 8.743304258068031187e-02 -4.548413803764397301e-01 6.798147132681520155e-01 3.899485209663840490e-01 -6.211216520298337151e-01
-1.060367258794061608e-02 -2.256979146094312272e-01 -9.855365940975137073e-01 9.790695205966579717e-01 1.078015456343098255e-01 -1.726316905944096647e-01
-3.366036866157079421e-03 -2.458918099944651658e-01 -1.007778111823293354e+00 -5.252966642951167192e-02 -5.069452731290814418e-01 8.603761527360490602e-01
3.870000868449696013e-03 7.383353928973394875e-02 -5.434641385376549616e-01 1.821950513218097700e-01 9.317119626498735485e-01 -3.141938604253171063e-01
9.822502550428981183e-02 3.964171027626731125e-02 -6.831142475101386058e-01 4.720360835171771158e-02 -9.287160498696066524e-01 3.677748197921818507e-01
8.250959822786321785e-02 4.332768715424646644e-02 -6.529767744290565501e-01 -4.040821024131169281e-02 9.387073764040591017e-01 -3.423384845875525051e-01
6.514986946585946299e-03 9.441062915300900416e-02 -4.365824128892436540e-01 -1.735563503845694716e-02 -9.973093862379905916e-01 7.122338137167028016e-02
2.474775129996581880e-03 -1.455094437478219316e-01 -9.206376763272390296e-01 -6.397553171542657013e-01 5.130814527724785190e-01 -5.722416945607228245e-01
-5.732596317850269935e-03 -1.452583526288727571e-03 -7.483419370465552722e-01 5.854334904965473596e-01 8.064430664844580710e-01 8.316975847129091937e-02
1.504804029224343122e-02 7.147107663128760002e-02 -5.556431399043091357e-01 -1.332086001387829399e-01 9.835808129223395646e-01 -1.217548902512560760e-01
-1.745755428357614186e-02 3.660145187291481694e-02 -6.645816209787501760e-01 -8.348919996717959688e-03 9.326167523408064319e-01 -3.607717959987662426e-01
-2.241980717290190106e-02 -1.205434647565031964e-01 -8.987292229927567044e-01 -1.561011755806595847e-01 6.031016178972002928e-01 -7.822409229080996562e-01
2.119480530213635125e-03 -2.148455311876622531e-01 -9.748010098410074820e-01 -6.445919257420014148e-01 4.385098637328082027e-01 -6.262669947213026500e-01
-4.447772193596123691e-02 -7.813055520389421138e-02 -8.522549744511418446e-01 1.105641214795186344e-01 8.191419824171055630e-01 -5.628338899562076447e-01
-6.698912437446034873e-02 -8.114086904196252115e-02 -8.562978880665180759e-01 -2.538838755604288511e-01 5.946317508014488107e-01 -7.628604450810255733e-01
1.023456170249453963e-02 -1.073952924596606635e-02 -7.750747002413488351e-01 3.960558424592004745e-02 -8.513147360239334827e-01 5.231583105762916963e-01
-4.168381339810400127e-02 -1.174620092373113434e-01 -9.043279004927130549e-01 2.335780365358663957e-01 -5.706499933758881760e-01 7.872737045704932823e-01
-3.871279591428370553e-02 8.423456196034288801e-02 -5.206061944279919418e-01 1.176291614750967773e-01 -9.636260701924169725e-01 2.399753679363460790e-01
-8.187066652145301091e-03 -3.847412575910521410e-02 -8.159456200936059389e-01 9.877318833236623519e-01 -1.352383663528083091e-01 7.807887635023198769e-02
-7.465773119491017629e-02 7.206953786009884233e-02 -5.745160011620394913e-01 -2.844503727557228245e-01 -9.585542141706885344e-01 -1.618035644675159396e-02
5.443343200479627136e-02 9.087705477564866907e-02 -4.877345593684420666e-01 -5.948606820635276259e-03 -9.958138567610884673e-01 9.121061758095851124e-02
-4.914716036191157239e-02 -3.053541123068347074e-02 -8.020981610854778232e-01 1.434789199524176828e-01 -7.574821531816547937e-01 6.368944866620936951e-01
6.826836795174216765e-02 5.532987655928282150e-02 -6.196882935310236151e-01 -1.263599349862789822e-01 9.670347302899525710e-01 -2.210814267262223298e-01
-5.734130372668286985e-02 6.599403991589106178e-02 -5.905061330297642908e-01 -6.890458387782427696e-01 -5.685483229516951065e-01 -4.494092083293385054e-01
8.527566157550844211e-03 7.312514712391161853e-02 -5.785019180404039618e-01 -9.805406118197280696e-01 -1.883968617164230031e-01 5.519720162830973192e-02
-6.033494025980869896e-02 -2.631907365191371931e-02 -7.946117065722198003e-01 1.358734212373761963e-01 -7.590655950539531016e-01 6.366771833563997784e-01
-3.645116971390616190e-02 -6.031075758596742172e-03 -7.644316699033438800e-01 1.450106139277702599e-01 -7.955031935983146729e-01 5.883422395367967628e-01
3.576203151475509934e-02 -6.407557187091919570e-02 -8.502665888643976544e-01 3.506292747129415022e-02 -7.712292169677716913e-01 6.355911311624954374e-01
7.445852072423148060e-02 1.567153549520722711e-04 -7.599128170671430871e-01 3.392714379800390589e-02 -8.652859710490712342e-01 5.001291205472594426e-01
7.051188052987267252e-02 -4.391056346417497071e-03 -7.538907356354440648e-01 1.685272460832908936e-01 7.490843475821462594e-01 -6.406802693504866086e-01
-8.817674626576768593e-02 -1.069625982643776507e-02 -7.687882095530467197e-01 1.209534353491531905e-01 -7.897992134288471799e-01 6.013214356269137584e-01
4.855633366814425533e-02 7.647406182087193582e-02 -5.686203047442647263e-01 8.162443931803486930e-03 -9.700882840258115980e-01 2.426151184590858711e-01
1.180383279009168812e-01 3.640401383057946527e-02 -6.777634688461833257e-01 -9.650991339941997760e-01 2.598011502142099638e-01 -3.297004566298120110e-02
-3.854897910766398594e-02 3.561106059859452805e-02 -6.846858425748117982e-01 -3.863556554321806533e-03 -9.264476226862322639e-01 3.764038726551314218e-01
5.746374403287414501e-02 -8.123596964595819481e-02 -8.709292038284175419e-01 1.029531990131843031e-02 -7.357664627553360814e-01 6.771570856696620400e-01
-8.644567532610034771e-03 -2.333468065156635296e-01 -9.989311249707559792e-01 6.359080171474540411e-01 -4.187325322699090302e-01 6.482931899583882496e-01
-1.705438997855470437e-03 4.283216131726294215e-03 -7.544684391807335855e-01 1.127287186146311571e-01 -8.587341063407883945e-01 4.998679531702254764e-01
-4.209784106546805849e-02 -7.902958101897092358e-02 -8.533261465642172361e-01 -1.425175930060144057e-02 7.610386727122886441e-01 -6.485499410170013634e-01
-5.504672844111579977e-02 7.012653589149278610e-02 -5.547668624951109795e-01 -4.728281500635659641e-03 9.792713450814176657e-01 -2.024975951869102675e-01
-5.298103081990896551e-02 -1.689975993534123880e-02 -7.695891974514543765e-01 -2.355508710670236872e-01 7.238930807039299919e-01 -6.484555457766864039e-01
-4.589323561834131489e-03 -1.012182356322974125e-01 -8.792782583530910356e-01 -7.204303904173545159e-02 7.184670029227570032e-01 -6.918200389095577885e-01
1.128751729940830582e-02 8.691052365347649855e-02 -4.821729714285364898e-01 -9.813216662482574515e-01 -1.845333547628586757e-01 5.436201184383213786e-02
1.471585788187838514e-02 -7.920376087306359170e-02 -8.671034936937134230e-01 3.395869302621953856e-02 -7.540191905929919391e-01 6.559739837717960542e-01
1.507575631478825368e-02 -1.216669220031163512e-01 -9.112590608138628756e-01 4.922327551413412799e-02 -7.045562276246901678e-01 7.079389742505529659e-01
-7.409597491172969673e-04 8.354616995893324183e-02 -4.638050917973909892e-01 6.138064214929317419e-01 7.868033482613826513e-01 -6.466968454166661939e-02
1.998113257640595636e-02 9.474062631391726164e-02 -4.305208774096168645e-01 1.045201453545309108e-03 -9.986623361994210191e-01 5.169570398627056085e-02
3.214642126628876329e-02 -6.137028397864072865e-02 -8.464498661622344988e-01 1.799880240050313052e-01 -8.445238788795184082e-01 5.043646787960638367e-01
-5.342534231524052185e-02 5.104605953916094285e-02 -6.237951609280519838e-01 7.732557593231952076e-02 9.662977193207759052e-01 -2.455391474738846114e-01
-9.723726427678643092e-02 2.987137120648198155e-02 -6.944053718415986731e-01 3.509889258560393993e-02 -9.066247101134994324e-01 4.204755673649508418e-01
5.367142996469816130e-02 -4.960513284404807072e-02 -8.328342037152272059e-01 5.296957803803165749e-02 -8.084239488372880755e-01 5.862123700066375065e-01
-1.200584908749334836e-02 3.803108274333621974e-02 -6.609523241048639308e-01 -3.564858580099713233e-03 9.327603038399220337e-01 -3.604795519356963074e-01
8.106540147320843992e-02 -4.525508441104420659e-02 -8.265938464301788580e-01 -8.993281848972116410e-02 -7.339169799437329500e-01 6.732592032113374758e-01
8.720633001523538097e-02 3.764402142676468582e-02 -6.848952511345267613e-01 3.159558610868761774e-01 -9.369847980077589122e-01 1.491019186570366750e-01
-1.752778524742010235e-02 -1.054492162959398405e-01 -8.897873397457688460e-01 6.194090083539454117e-01 -1.149684229999759777e-01 7.766046240416550894e-01
-1.024335337039251198e-02 -2.246990251524424165e-01 -9.914512881276436040e-01 9.884020026748607801e-01 -8.403953769627253712e-02 1.264865100005579390e-01
1.195325775583514633e-02 3.144472261794806212e-02 -6.807075624946912207e-01 -1.623792111901434521e-01 9.440150428950417894e-01 -2.871734503068468780e-01
-5.002474908276507981e-02 -1.010787920802997536e-01 -8.774518794812425915e-01 -7.057059066203283382e-02 7.016011159708133160e-01 -7.090667569433227735e-01
2.022660954094781041e-02 -9.378455771507755723e-02 -8.817345925541753004e-01 -1.132177025139015913e-01 -6.373062084768240654e-01 7.622483509161358528e-01
-5.221309405451108471e-02 8.440617307252065715e-02 -5.059145724431493019e-01 9.477911460294571322e-01 -2.555262427246843271e-01 1.907833399098928240e-01
1.222034497274947749e-02 8.301494024519359693e-02 -5.319117528975918496e-01 2.027399970268036755e-01 -9.784285165788674243e-01 3.967532672642615915e-02
1.621572311153299251e-02 9.105296236116863784e-02 -4.814131263180129738e-01 -3.420084401310053562e-02 -9.892082546773325324e-01 1.424687023420128928e-01
5.744770859562006032e-02 6.803242302434539361e-03 -7.318247811279114945e-01 -4.024543662755499657e-02 8.876967892898833812e-01 -4.586662349847542841e-01
-4.120997797578986044e-02 -8.227646790251443021e-02 -8.667434505992026583e-01 1.705151418785267881e-01 -6.472641382184756154e-01 7.429493399730832115e-01
-4.034979053763055462e-02 -6.456308796188128807e-02 -8.364072047549827582e-01 -2.038661556046080237e-01 6.605379622356084557e-01 -7.225843833384634207e-01
8.616862442731544613e-02 7.455434523604073660e-02 -5.788558208592485821e-01 1.987452470069366386e-02 -9.742362835903812801e-01 2.246523247240575782e-01
1.095328434656080846e-02 8.435599533127986771e-02 -4.505923136135626672e-01 -6.356111131736112974e-01 7.712689850379076395e-01 -3.380333606019476217e-02
-4.265998751517779963e-02 8.917151244341990635e-02 -4.895692904247653798e-01 1.827004900251747192e-03 -9.943049240870448502e-01 1.065569330890779043e-01
-1.013572042945761441e-02 -1.834401190550218608e-01 -9.618741931112425592e-01 9.884726505340105662e-01 -9.528544926796322923e-02 1.176541639895076347e-01
5.233443891417224186e-02 -4.372955776371043046e-02 -8.220839478145518520e-01 6.330979757033109445e-01 -7.655401908349984685e-01 -1.146087665786697102e-01
9.090625394055562580e-02 -3.546859471711089756e-02 -8.139467442759619198e-01 -1.745194180385655491e-01 -7.217196067992905917e-01 6.698236946308766537e-01
-1.953850740605078684e-02 -9.252654069660289082e-02 -8.803483558661441277e-01 3.925014322141297946e-02 -7.259632870644403546e-01 6.866125050504772176e-01
3.716551174074909231e-02 8.631217080970596256e-02 -4.554625611169513255e-01 -8.964304451633456350e-02 9.932492541805920672e-01 -7.362094565774100763e-02
4.790143546091221683e-04 3.909955648596114691e-02 -6.860244252503062690e-01 -6.004079286912451102e-02 -8.942882426669058749e-01 4.434451964103166000e-01
8.911753545298489732e-02 -3.029211229814654516e-02 -7.946006454487859472e-01 -3.714584029088549566e-02 8.275461940832978813e-01 -5.601673707092664767e-01
-7.829899756470181174e-03 -1.400656764509578822e-01 -9.171586895308116993e-01 -6.228103127795523580e-02 6.587663163783931131e-01 -7.497653056445046094e-01
-8.902335202992678331e-02 1.410933892468742117e-02 -7.185997771516781096e-01 4.360528915245074355e-01 8.999205209722417331e-01 9.652596361058602553e-04
9.377175643756062440e-02 -2.766994377824014487e-02 -8.043379418772131917e-01 6.414748580819594308e-03 -8.164154925220272752e-01 5.774292983306791305e-01
-6.479621221823055879e-04 4.596089825426845181e-03 -7.331973799306126249e-01 -4.898035396088550736e-02 8.790937369673423873e-01 -4.741256442660104486e-01
4.259667714742727124e-02 -1.523059839005823542e-02 -7.786979884180089684e-01 6.354325677244507808e-01 -7.478043499761096724e-01 -1.923905040066144212e-01
6.483653575312726958e-02 -1.889948378375796642e-02 -7.763363937657133951e-01 -3.804320800035226185e-02 8.519893261256963335e-01 -5.221751645692505051e-01
5.493327315742462663e-02 -9.140320093626599918e-02 -8.710076971160164439e-01 -3.095380808393482022e-02 7.345283083944822433e-01 -6.778716883985074215e-01
-3.984831135928391943e-02 5.756357718999360190e-03 -7.304649224273971342e-01 -1.977708959046712567e-01 7.845795878245142019e-01 -5.876406581425243081e-01
-5.554313614914909575e-02 -1.072094898981617445e-03 -7.422136652423235725e-01 1.004379347026462255e-01 9.110185740072416216e-01 -3.999467203096919166e-01
1.020555663507051042e-01 6.226302727459248620e-03 -7.500646256201463080e-01 -8.324028735064510631e-02 -8.232664536092536567e-01 5.615188339881614921e-01
1.336064064951239527e-02 -7.844419013917158789e-02 -8.558349967645875189e-01 1.140829142913516725e-01 6.613352388933800841e-01 -7.413641416096599102e-01
8.232268409144380406e-02 -3.006923218330842876e-03 -7.655119524200552084e-01 1.457450148033376074e-02 -8.565118074169457696e-01 5.159216099970579394e-01
3.305201189644695059e-02 -9.703782466604604640e-02 -8.844868807338986949e-01 6.175326315615915496e-01 -7.864382607020978799e-01 1.297347526590056539e-02
-1.624302571959000338e-03 8.726557398029874402e-02 -5.046872311131184174e-01 1.943807793972265052e-01 -9.487687071019363927e-01 2.491065093991855495e-01
8.871824353128865415e-02 -3.167111735753026791e-02 -7.966113986869400865e-01 -3.714584029088549566e-02 8.275461940832978813e-01 -5.601673707092664767e-01
-8.539090057704289138e-02 5.061157826983339603e-02 -6.449709000247302315e-01 3.329458492189340396e-02 -9.326070921472515707e-01 3.593542573722017242e-01
-2.293213268744147965e-02 -5.958476106924504717e-02 -8.370721433373335962e-01 6.017864329294229098e-01 -2.140179074186605579e-01 7.694474799791203301e-01
5.803764433155026575e-02 8.987684807445196766e-02 -4.953984783579553630e-01 -2.800393473751224428e-03 -9.905003428904686213e-01 1.374817388974110821e-01
1.084249564161444135e-01 3.663552268033427178e-02 -6.895877108137961065e-01 -1.298343518520480300e-01 -8.604318537462437577e-01 4.927474669016181918e-01
3.015128992552706597e-02 -8.329741125238909749e-02 -8.610580415904424134e-01 -3.669981157890385426e-02 7.607595696998247226e-01 -6.479953710793083799e-01
-9.738609837769538272e-03 -1.087303344554964579e-01 -8.942223195593990148e-01 9.884982727603778274e-01 -1.149248107465021124e-01 9.830286173164066998e-02
4.986574265886066504e-02 -2.470025959388079048e-02 -7.980458548063693591e-01 4.066128567226850142e-03 -8.134212233013314863e-01 5.816608806524985464e-01
5.084643703369660060e-03 -1.407595688463484651e-01 -9.182189716046140759e-01 -3.135395226086680476e-02 6.674911434826813483e-01 -7.439573260945858690e-01
-1.867598562856633004e-02 6.676267062154733756e-02 -5.751925697404522975e-01 -2.142133725790589527e-01 8.928549713522313525e-01 -3.961346123982495970e-01
1.130558111423396375e-04 7.270376474531718702e-02 -5.758581676127461080e-01 1.312579439483491650e-01 -9.314927226551288353e-01 3.392530910559065638e-01
-9.464345207304326879e-02 -1.079901941900948854e-02 -7.574885061585384660e-01 8.335457108312301078e-02 8.955497392481170937e-01 -4.370842939436029861e-01
-1.902660507267869838e-02 -9.545958379369293145e-02 -8.726964367222636021e-01 -1.565960472465761921e-02 7.420109145359650160e-01 -6.702048787418427578e-01
-5.271530782605320792e-02 5.694056692224343241e-02 -6.049172421074954231e-01 -3.475236983642939620e-02 9.538294120464937409e-01 -2.983315697437872727e-01
-7.449118530669171165e-03 7.207787568506991704e-02 -5.494933087554459972e-01 -3.283293342593376907e-02 9.790425598161152099e-01 -2.009917026928140782e-01
8.914019354510278881e-02 2.844953989285550419e-02 -6.890820822999927930e-01 2.346456989605100359e-04 9.038754187871256285e-01 -4.277957132251257177e-01
1.946931216668983458e-02 9.162198882183482385e-02 -4.765623293964964535e-01 -2.698936534439811546e-02 -9.911674788111185519e-01 1.298406835530274972e-01
6.753161147277560736e-04 -2.814049486176311010e-01 -1.013709968996309829e+00 -6.492340561865082016e-01 3.637050619740326285e-01 -6.679923414097492795e-01
-5.187752834438894012e-02 -1.036463098433233337e-01 -8.907487799041112764e-01 9.231196409456152163e-02 -6.934242908038804609e-01 7.145916695625130766e-01
3.241771013003677537e-02 3.009110829995819206e-02 -6.841801387583773542e-01 1.349677859841986738e-01 8.371295073169926493e-01 -5.300923360375369153e-01
-2.449332910071193997e-03 8.385434033198073400e-02 -5.076314939682473604e-01 9.870916449943276660e-01 -1.600475513679005535e-01 5.904717057681074625e-03
-4.388920852205428769e-02 5.111092677752405306e-02 -6.235324715829466680e-01 9.572724972403210807e-04 9.506548148062878845e-01 -3.102491042936120769e-01
-3.336146877031662822e-02 4.451214904752887058e-02 -6.431572555963261939e-01 3.248020265439606718e-04 9.429318886797672938e-01 -3.329855069135149170e-01
-1.361767684420719070e-02 -1.476983029239658518e-01 -9.240805238760746443e-01 1.610365955152313344e-01 7.343406395830338607e-01 -6.594020321182250122e-01
-6.314938312761157226e-03 3.671070488813257121e-02 -6.728298457807460053e-01 9.869706051046395201e-01 -1.572675655689334540e-01 3.399908056702116016e-02
-6.142586610262942143e-02 -1.748437859270635802e-02 -7.684108920636613105e-01 -3.630733579341628714e-02 8.404384546913082898e-01 -5.406893574351818721e-01
-4.814703329015925654e-03 -1.060564337043781447e-01 -8.843988157487597812e-01 -1.914935009937998936e-02 7.272053482259094315e-01 -6.861528138122042764e-01
4.699067951676069027e-02 -1.115606729837602812e-01 -8.951596939394699248e-01 -7.801064316248454977e-01 6.191236304812088864e-01 9.011040737516244625e-02
5.941292389973496131e-03 3.514985588027346591e-02 -6.608842270729731183e-01 -6.367049423057520308e-01 7.329848740087753223e-01 -2.394577017299062971e-01
4.491158405319426589e-02 1.157789707783252534e-02 -7.382766491725621938e-01 3.767983289972259842e-02 -8.867316132226230607e-01 4.607464338486552680e-01
-4.317728325095540609e-03 8.843748378042880220e-02 -4.981220813424552807e-01 1.943807793972265052e-01 -9.487687071019363927e-01 2.491065093991855495e-01
5.890373648028762732e-02 7.399889526571520881e-02 -5.460097782052174553e-01 -8.047382274824878626e-03 9.754981706805933017e-01 -2.198603161949393703e-01
-2.765861366013670861e-03 -4.760080131918469071e-02 -8.322669613897952789e-01 1.164620699003355297e-01 -7.928965202450815042e-01 5.981234776012143151e-01
-3.512054904493776969e-02 7.821872932803229303e-03 -7.314274044823266818e-01 -6.312898225315540790e-01 2.646506158639724271e-01 -7.289946580674641075e-01
-1.634073515147259695e-02 -2.465134048440856956e-02 -7.921738779531055652e-01 6.145363409711903646e-01 -2.627959375290200850e-01 7.438302096876572289e-01
-9.969968342711485465e-02 3.499995504732384549e-02 -6.651114725400546490e-01 -2.823820384435491437e-01 7.781280807289163715e-01 -5.610499749091866217e-01
-4.534958198215174874e-02 -5.296816609464655157e-02 -8.311065105520502039e-01 -1.582193892256781587e-01 -8.650546670886143374e-01 4.760746242147965712e-01
1.060880551504960467e-01 4.089749304815347430e-02 -6.805067279081447040e-01 1.123576164464740049e-03 -9.150213255629056075e-01 4.034039059574234809e-01
4.392031212996567666e-03 -4.567472951066389730e-02 -8.215486015322629454e-01 -9.789141910767955590e-01 -1.552080065200242276e-01 1.328061791504560052e-01
-1.532575350437978372e-02 5.597990248366387783e-02 -6.125590174208312977e-01 8.278896397110380168e-02 9.758206142406422590e-01 -2.022872123185423254e-01
3.301050763553863010e-02 8.497469976289601101e-02 -4.758548862170542404e-01 -1.689104854625994856e-01 9.855829732782915853e-01 -9.769886627356751813e-03
5.255677202050944297e-02 7.986588823418395988e-02 -5.178700020248923064e-01 -1.476227414724436138e-01 9.866576967700787515e-01 -6.865941744963387217e-02
-1.160454727710272110e-01 6.864870183649964507e-03 -7.243859398934346938e-01 6.108801080160335406e-01 7.616315927836225796e-01 -2.162008568535323527e-01
4.706496462666392988e-02 -4.833794571619712266e-02 -8.240487112919184787e-01 6.034222386085215106e-01 1.162157696102084636e-01 -7.889077872898628829e-01
7.053184650839697256e-02 7.531444846918612657e-02 -5.406770422295722467e-01 -1.191030943221543376e-01 9.739963189987868031e-01 -1.927319991586795844e-01
3.961549107857151308e-02 2.416684524808796267e-02 -6.961169250690955046e-01 -4.014602997014398572e-02 9.151297440174231967e-01 -4.011556404841412071e-01
-4.879637183676703571e-02 6.824450395184022966e-02 -5.634772861455771276e-01 1.658748501022885976e-03 9.746656164134588352e-01 -2.236608699231552866e-01
-1.573379967521616827e-03 -3.925258051639362450e-02 -8.212341950941940416e-01 -4.075309821006998373e-02 -7.944694229023059329e-01 6.059352449392240159e-01
7.777967083761205824e-02 2.395272063456979628e-02 -7.158609539981051206e-01 6.598535579211411463e-03 -8.846738049056694919e-01 4.661638319753427240e-01
-6.749334914604294966e-02 -4.213120892372265031e-02 -8.069599682362131876e-01 -2.569800469661753795e-01 6.621964591971081227e-01 -7.038871393114630726e-01
6.283127717789440195e-03 1.710264669975354243e-02 -7.108864246330236503e-01 -9.881714446689069398e-01 1.439733092407136650e-01 -5.280986808583513353e-02
-2.853495970429316495e-04 -1.727769724379080996e-01 -9.411964411550105547e-01 -1.035197253123605055e-01 6.334740069347031266e-01 -7.668078957661723649e-01
7.483871124617576254e-02 -1.055905148671472220e-02 -7.632968155727103410e-01 -3.095829888897680057e-02 8.649031745709730989e-01 -5.009831158302180398e-01
1.635828061936508418e-03 9.193310142911242933e-02 -4.861430761780763943e-01 8.699268250367669930e-02 -9.816866900615324187e-01 1.694801337822438858e-01
-1.242969568886525406e-02 6.588434392920688998e-02 -6.040582483002800984e-01 3.954350646830284699e-02 -9.527305680763848983e-01 3.012320961468747949e-01
2.862852647022998825e-02 3.277838308161210717e-02 -6.835563107965683116e-01 5.751078977766567180e-01 3.459382892528080622e-01 -7.413350159973256526e-01
6.016940763894516354e-03 -1.518570425323315654e-01 -9.292989218934689655e-01 -2.115926161232973557e-01 7.297076347142370523e-01 -6.501963800590192522e-01
3.176781276089882949e-02 -4.240222124275613153e-02 -8.211865971086259597e-01 -1.125291737829004629e-01 -7.205629460662099639e-01 6.841975049677702092e-01
1.545671221422566070e-02 7.628072281152811773e-02 -5.625526780315672770e-01 -7.253155868939219209e-02 -9.490665750894181629e-01 3.066134521545476055e-01
6.810263509186574582e-02 7.328885012822031197e-02 -5.505244383936354069e-01 -3.952620051080087127e-02 9.814280472606884409e-01 -1.877143242356628106e-01
2.196104904600978611e-02 7.626962247133570183e-02 -5.307418964626486879e-01 2.134354713812001633e-02 9.811870518399361529e-01 -1.918760597292349657e-01
-2.635658785649025795e-02 5.806031538904064815e-02 -6.069757148455734441e-01 8.045471068686686766e-02 9.759780318098577601e-01 -2.024695556197246282e-01
-1.057697614195514391e-02 -1.834037046446824470e-01 -9.581176383500620286e-01 9.886849766818327501e-01 -9.463357470605679445e-02 1.163894472106339895e-01
-2.594776758848729714e-02 4.728384487880746279e-02 -6.358672727813597936e-01 -3.317823336171634580e-02 9.390943467436877468e-01 -3.420541079201385726e-01
9.896884845140783982e-02 3.947392238409014320e-02 -6.694057461410463095e-01 6.865040872564449614e-01 7.103520165588135538e-02 -7.236477999040027420e-01
-4.583705762086167507e-02 4.914250305179453104e-02 -6.295251331094410263e-01 -4.356573442803282625e-03 9.503657125976573417e-01 -3.111045364288089754e-01
-1.283894268246506612e-02 7.998064861594035568e-02 -5.158929256115477591e-01 -6.381797075237884975e-01 4.737710694176356929e-01 -6.068505867902918016e-01
-1.385327305537281846e-02 -2.268334526373501359e-02 -7.911318593609766303e-01 1.431351152776107749e-01 -7.609725797724680163e-01 6.327978125822651956e-01
-7.045352794192263901e-02 -1.468818730928486520e-02 -7.775525235697139381e-01 3.013183168761870631e-02 -8.425470540716935020e-01 5.377792617740662084e-01
3.015620466350205781e-02 -1.621466206659665302e-02 -7.750532014921923674e-01 -5.821402585173875988e-01 8.109952978638770293e-01 5.830391287032558184e-02
-3.609375045763742879e-02 -2.959438396870777560e-03 -7.450744285605439554e-01 -4.802523415820417196e-02 8.587652264610212693e-01 -5.101135782405723518e-01
-1.030756834576273401e-01 4.258891746762051567e-02 -6.605018813249750043e-01 -7.231038511299464622e-01 -4.942741317004070711e-01 -4.825079307253398730e-01
-8.815817166951905870e-02 -5.112386926639934243e-02 -8.213057287637769432e-01 6.400565537097655522e-01 7.657907240650289049e-01 -6.238729829970740548e-02
1.966618602965789289e-02 6.945741840247506016e-02 -5.773913100355385630e-01 6.104664988412284998e-01 3.821346585422762399e-01 -6.937605902134470481e-01
-4.131212619609040543e-02 1.061725867787660866e-03 -7.529329707562741891e-01 3.740629330119620011e-02 -8.626723642507573286e-01 5.043779943449887559e-01
-2.233830123081821661e-02 1.934722678951020930e-02 -7.031813483701981893e-01 -4.098143210973533707e-02 8.909101231126529408e-01 -4.523269555947695975e-01
-2.164744761832220268e-02 8.387630892109752823e-02 -4.819279139966328174e-01 1.436805950951808852e-01 9.894695070038640461e-01 -1.749232124747860176e-02
5.986968663146102765e-02 1.574977840880546071e-02 -7.148316795641344035e-01 -1.835296787403330404e-03 8.826843278100204859e-01 -4.699627741899081168e-01
-2.831325708421232254e-02 1.822528621029461922e-03 -7.521430142922288509e-01 1.783377476573331198e-03 -8.748482066070328855e-01 4.843938841080001056e-01
8.308142291515899225e-02 5.037234890696255102e-02 -6.553301051675869404e-01 7.671151973007214915e-03 -9.329256755698593917e-01 3.599872737888498153e-01
3.017633142707516064e-02 4.601935669123625311e-02 -6.423766439257517780e-01 -3.861787332359726405e-02 9.424012859043107149e-01 -3.322476127617236541e-01
6.473824180199436520e-03 8.676104420198403611e-02 -4.378889409369196573e-01 1.406405916676526160e-02 9.992954180492322758e-01 -3.479755315483949729e-02
1.063797759168622487e-01 -2.259928363405942081e-02 -7.903506504448969405e-01 -9.629343910178378430e-01 1.638650963786341119e-01 2.142558955639885243e-01
-5.795464429580625583e-03 -2.394296539539550461e-01 -9.881396689081091145e-01 7.203984204391990220e-02 5.374668250527240287e-01 -8.402021620574610106e-01
2.076117993550753021e-02 -1.226031825195963293e-01 -9.122356363274267688e-01 -2.972902160525497939e-02 -6.630056204383436569e-01 7.480238850073981371e-01
-1.154745450380530031e-01 2.147575241101968777e-02 -7.033805596335842569e-01 -6.945622462608616043e-01 -5.726586451434627634e-01 -4.354829069108450690e-01
1.561932509138811744e-02 -1.130452954658772713e-01 -8.956239849796612251e-01 5.669480221620355476e-01 8.101169626831343507e-02 -8.197603584184141035e-01
-3.310098450485817302e-04 4.809058638757293669e-02 -6.597116615299392084e-01 1.025568772699144982e-01 -9.414227149430810515e-01 3.212559084497000894e-01
2.860194795218596198e-03 -6.255964152210795326e-02 -8.463692914410220203e-01 -1.329983190363119017e-01 -6.851484084897822013e-01 7.161585756502772959e-01
-7.272489795433809134e-02 2.388147186811642037e-02 -7.087539058824888771e-01 1.833142014813244876e-03 -9.103496317192345533e-01 4.138359428795514994e-01
-2.596828154552271832e-03 -2.000302207303987501e-01 -9.781294509234498280e-01 -8.017697318842442744e-02 -5.700787766546010493e-01 8.176685400443972629e-01
-2.031837333238818710e-02 -8.541120056505456526e-02 -8.727806440613604666e-01 3.925014322141297946e-02 -7.259632870644403546e-01 6.866125050504772176e-01
-6.346292968066047369e-03 3.507846851733107535e-02 -6.794697817315102917e-01 9.869706051046395201e-01 -1.572675655689334540e-01 3.399908056702116016e-02
-3.768055964932663909e-03 -2.604123465078183042e-01 -1.000593155093048470e+00 -9.397700896768194923e-02 5.067622425852873480e-01 -8.569482780631620944e-01
-9.366489366067201269e-03 -6.309675391744649919e-02 -8.353081881780132223e-01 -4.871822467609232196e-03 7.931034387634474658e-01 -6.090674845757558797e-01
-5.589074203675686858e-02 -2.158043376697172874e-02 -7.751879825778855704e-01 -4.230974362453135407e-02 8.395290744291364904e-01 -5.416648583603921319e-01
-7.606135617574202694e-03 -2.717913308926968585e-01 -1.022079064300508433e+00 1.118261225569527617e-01 -4.740297510430835914e-01 8.733789059966524659e-01
2.436403210680822273e-02 3.281148203168769706e-02 -6.919549336398115313e-01 1.893464316225427213e-01 -9.474055566334778078e-01 2.580128680740936820e-01
8.627961838990332033e-02 9.013976552192255395e-03 -7.362982048757010789e-01 6.751674975775104892e-01 5.891643044549176034e-02 -7.353078977125728777e-01
2.700657014421059890e-02 5.145700836731618294e-02 -6.495518634599908303e-01 3.198974072586567661e-03 -9.332037479967758564e-01 3.593334541754400480e-01
3.511882262620925899e-02 7.584077481955658895e-02 -5.695915747132391793e-01 4.026865616421221317e-02 -9.754032336574557371e-01 2.167186357960643739e-01
-2.440841440666111431e-02 -3.000902360204783792e-02 -8.009630343501764616e-01 -1.462943705160981156e-01 -8.900775407125913752e-01 4.316942536962055099e-01
-4.296742080820411223e-03 6.994200173814461852e-02 -5.776906705244039264e-01 9.869006861960905042e-01 -1.576788804913260289e-01 3.412339714459185908e-02
5.850155846976767479e-03 7.391544157255250380e-02 -5.424109813315518558e-01 1.903519321480983892e-02 9.741791111158604188e-01 -2.249727114224898128e-01
-7.192890981871113976e-02 -6.394131199114155839e-02 -8.393100191709640390e-01 5.098511476714624457e-01 8.508794700157927826e-01 -1.267120149146723218e-01
9.782315796714428566e-03 9.468414126897498062e-02 -4.523412189348177126e-01 -6.033750368726290558e-01 -7.953843538093255949e-01 5.746559487445527387e-02
2.948055556420514298e-02 -3.766786461739893982e-02 -8.157366998372329592e-01 7.936761814421038497e-04 -7.980021343530390165e-01 6.026540995016238522e-01
-1.629196533393792098e-02 3.723444654511877394e-02 -6.629712769694986463e-01 -3.564858580099713233e-03 9.327603038399220337e-01 -3.604795519356963074e-01
2.256728473995739392e-02 -1.243723582931434840e-01 -9.036179582343943917e-01 -4.708574334704879877e-02 7.049694173760219229e-01 -7.076729847450501376e-01
-8.901442344195240053e-02 5.427435045588888812e-02 -6.348412219304154780e-01 4.017256985190885421e-02 -9.362043014930969687e-01 3.491527896169757672e-01
6.576633867050253601e-02 -2.669119540562723061e-02 -7.932147625306469330e-01 -4.919908997692676311e-01 8.695568715311858821e-01 -4.261222497268878084e-02
-6.697612352137366498e-02 1.720368000877301948e-02 -7.221003241826474683e-01 4.247911048529805222e-02 -8.837732293355566870e-01 4.659832660967336282e-01
6.116866068086931202e-02 7.391089524799145105e-02 -5.759039518005167890e-01 -7.590462419927852811e-02 -9.473239040715650816e-01 3.111525490812739325e-01
3.562130539923530348e-02 7.495732381939028410e-02 -5.736611613693011202e-01 4.026865616421221317e-02 -9.754032336574557371e-01 2.167186357960643739e-01
1.000404134597225325e-01 6.242324078763312328e-02 -6.221693449059911840e-01 4.872583459105897519e-02 -9.581666155797058382e-01 2.820328523983280933e-01
9.440429251517248183e-03 7.331255670910531708e-02 -5.616458694197369317e-01 -9.805406118197280696e-01 -1.883968617164230031e-01 5.519720162830973192e-02
-1.010411300013480673e-01 -2.132765620267651485e-02 -7.742212554711337402e-01 -2.949443895246743885e-01 6.582369299265222740e-01 -6.926268484319848540e-01
7.915972967064989485e-02 6.179689286045075142e-02 -5.973634059570331889e-01 -2.609146313898997108e-02 9.659732476819170577e-01 -2.573225996956278183e-01
-8.468871501140984304e-02 1.777131717750380160e-02 -7.034298007346804216e-01 1.372548242233680724e-03 9.094275146525291342e-01 -4.158602069256526756e-01
3.237700152988132879e-02 9.241889594699612132e-02 -4.436374569069747031e-01 6.729981905736562853e-01 -2.874454015432638676e-01 -6.815046416688711473e-01
2.964736421917517351e-02 -6.108538503667764602e-02 -8.450693819685646258e-01 1.963775301295796194e-01 -8.433173625539120977e-01 5.002516283584887979e-01
-5.393088673796769122e-03 -2.287309197676780370e-02 -7.793492484043649249e-01 -1.143504073876036413e-02 8.407054680491291565e-01 -5.413719200656770258e-01
1.020238977760769966e-02 7.759901377395024558e-02 -5.091089996827365960e-01 -9.863250492724160434e-01 1.646771591114911393e-01 -6.658111198743934048e-03
-9.650111005464043212e-02 2.981989191202846778e-02 -6.762518164868350778e-01 -3.661595769789196403e-02 9.111735402872718215e-01 -4.103925573426324136e-01
-8.400616177235303850e-02 4.138279136685992649e-02 -6.488704758248183824e-01 7.400528865494369890e-02 9.564370287006552784e-01 -2.824029521470342585e-01
-1.735041736250438060e-02 -6.035876479493833963e-02 -8.320477277886584311e-01 1.110064311859999125e-01 8.415494602507602728e-01 -5.286511876341546401e-01
9.299296966618060545e-02 3.226382009955633401e-02 -6.808978783397002799e-01 -6.342118022628451951e-03 9.115499435380955973e-01 -4.111404601528313441e-01
1.366688807287747519e-02 7.384334952396619245e-02 -5.426739675059480961e-01 -2.096545591277294840e-02 9.821088293640477529e-01 -1.871435196408075818e-01
-7.667440144448467443e-02 4.863217470943682202e-02 -6.311394687309660467e-01 -2.654513696398187461e-01 8.280099814186430152e-01 -4.938978042342797581e-01
-9.349717169246006543e-02 1.784466390930724081e-02 -7.046746012443070306e-01 7.587390892726079972e-02 9.298227005306808346e-01 -3.601012295479278369e-01
3.780698165934349032e-03 8.289584976006224293e-02 -4.440400861010908584e-01 7.046712453798513465e-02 9.954094065922086676e-01 -6.476494134248306223e-02
2.623142075439348093e-03 9.353100139453594808e-02 -4.075003989353558342e-01 7.245592062238360720e-01 -2.869289735801793251e-01 -6.266464081094771377e-01
-8.094897372068450558e-02 4.404656678922308499e-02 -6.607056125376388200e-01 1.094396147084105153e-01 -8.860771403072819075e-01 4.504334269982014360e-01
1.473545075903907181e-02 9.485912962612642885e-02 -4.267186215102888869e-01 4.921335271208501783e-02 -9.987731094607757987e-01 5.506517310350227991e-03
8.865857477701645506e-02 -4.048407919256346438e-02 -8.099730082964183842e-01 -1.432719133129095046e-01 8.510759172932118588e-01 -5.051167606199344906e-01
7.553884268189219042e-02 -7.668971939573047958e-02 -8.578537148855605032e-01 -9.231640130445240011e-01 2.433429190535349451e-01 2.975776012505559343e-01
1.086243133599740784e-01 1.328804438903515581e-03 -7.504121218417909578e-01 -7.367606336115660737e-01 6.675469434639983435e-01 1.075399787621201669e-01
-8.042726163451816013e-02 6.435214207673255193e-02 -5.766411660513229842e-01 1.713928380196408406e-03 9.666115173436317098e-01 -2.562405841941303719e-01
1.013064262429229923e-01 -1.163000652898275346e-02 -7.768615028289576063e-01 7.133749100099924245e-01 -6.047282766626059791e-01 -3.541185524268814500e-01
-6.397504477934793992e-04 8.987023306386824131e-03 -7.250685224182963351e-01 -5.029243119784002763e-02 8.787502139888498931e-01 -4.746248337147572216e-01
-1.098511138003118066e-02 7.087894150862208975e-02 -5.592126123522943582e-01 1.242933680047814404e-01 9.851122231750043534e-01 -1.187647524361854501e-01
-4.111154215383743676e-02 5.715992612103039383e-02 -6.089453522272405550e-01 -2.128028676047471202e-01 8.687309744741437134e-01 -4.472375582712179165e-01
6.674491655039138660e-02 -4.828314165072435105e-02 -8.190623557098567487e-01 -3.865618895448900971e-02 8.044722141869232734e-01 -5.927310989451320955e-01
-2.135764317444784283e-04 7.282417353345507771e-02 -5.466582125801852099e-01 -2.593297461952265986e-02 9.753520618896269756e-01 -2.191251610268354078e-01
3.162271346873408301e-02 -1.242755745492559946e-02 -7.748024974108833618e-01 -5.437034881022213550e-01 -3.409732906424212673e-01 7.668922558573377790e-01
3.055615676771105890e-02 3.487852039274216137e-02 -6.813803549367964951e-01 6.167219153526184439e-01 -7.363132475332606619e-01 -2.783826155326888929e-01
2.752493209758701334e-02 8.854247405039455954e-02 -4.906513888943133117e-01 -4.992318690932104341e-01 -6.894613386867484150e-01 5.247957729802866789e-01
4.352623551145270303e-02 1.791293317968471223e-03 -7.552018052320782493e-01 -9.511447074329035245e-02 -8.130316153713773586e-01 5.743977975774562372e-01
-6.193188576811708285e-03 8.726134626109351144e-02 -5.018488679364866423e-01 1.136426169629872612e-01 -9.673980216734622273e-01 2.263325501824146324e-01
-1.185165191435301382e-03 -1.042667690634270783e-01 -8.778830568563750214e-01 -1.104566460819290524e-01 7.169900295477837915e-01 -6.882765627750226933e-01
-7.050158113956214202e-03 8.330827509268275144e-02 -4.797382254089519460e-01 -1.636098250589056169e-02 9.932184761233484593e-01 -1.151059378948605105e-01
-1.111033158357368489e-01 2.945576737359732744e-02 -6.897638444980258576e-01 6.501403610729580285e-01 -4.438656152768471475e-01 6.166853545194906916e-01
-3.469602245191311107e-02 -9.205605248593760892e-02 -8.711094600162566648e-01 5.541875279989053604e-01 8.228574887880517608e-01 -1.256253834059169461e-01
8.495841706889706996e-03 6.333958150535722031e-02 -5.824883828588781620e-01 -9.873643277297803333e-01 1.549488326428428986e-01 -3.320457181382627243e-02
-9.086110839051650748e-03 1.669689990066992868e-02 -7.099457890749728550e-01 -1.499705388150687491e-01 8.363490507491350145e-01 -5.272846506380958198e-01
-1.045745478420611468e-02 -2.272715163551826956e-01 -9.914874398502034891e-01 9.884020026748607801e-01 -8.403953769627253712e-02 1.264865100005579390e-01
4.261194789571790025e-06 -2.743366970228859180e-03 -7.397761132026426933e-01 -1.041698093935159164e-01 8.598066754505707676e-01 -4.998811175285134967e-01
7.457052300003931544e-02 -3.246047757640863757e-02 -7.998026943568378178e-01 6.663579448803039762e-01 1.297550378751147551e-02 -7.455190980762048669e-01
-9.039823498160191872e-02 -2.291297063720062338e-02 -7.878792205817729544e-01 -2.101652046602103252e-01 -9.089060621162792231e-01 3.601671237056630615e-01
-2.725169626743966563e-03 3.731721853663916288e-02 -6.827712744954943513e-01 1.847073282595105073e-02 -9.179286587292346811e-01 3.963152905357308908e-01
1.596072154685157160e-02 -1.157122378526854317e-01 -9.052865915967989174e-01 1.972546309709397594e-01 -7.756804639773888788e-01 5.995084889843855791e-01
-4.744540489704789088e-02 8.515218533959265090e-02 -5.121818579165964280e-01 1.903474369229733176e-01 -9.564460871787814344e-01 2.213113995646256993e-01
1.007893468793755187e-02 4.738942128910608731e-02 -6.453828853497587392e-01 5.653413238010065456e-01 4.112249211850767527e-01 -7.150407343636115964e-01
9.439142644271840410e-02 4.107527497338901018e-02 -6.765385386221367536e-01 2.634050916647906471e-01 -9.509667532987579053e-01 1.621110477588821042e-01
-7.070649897656583471e-02 -4.430019955459176678e-02 -8.207329815769741632e-01 4.632510106364006591e-02 -7.889650033845225785e-01 6.126893245731506177e-01
-1.317760216079626005e-02 -3.944833597293773142e-02 -8.153890270997821155e-01 -1.142398325908038775e-01 -8.672580811610348661e-01 4.845747427492533843e-01
-5.514762998920760134e-02 7.963954334964253035e-02 -5.464053757936966349e-01 -2.627463310397713803e-02 -9.838619804636590249e-01 1.769893981383576786e-01
-2.305414085646105907e-02 2.117720376451039631e-03 -7.505546056869406568e-01 -1.189897818761091325e-01 -9.112358871282972839e-01 3.943229511689384514e-01
-3.893957507486568714e-02 2.159208817270435316e-02 -6.977440315516687530e-01 -1.354043080599943473e-02 9.033382034634850344e-01 -4.287152282074329079e-01
-1.014931800637650962e-02 -5.857508789877960767e-03 -7.573640510858694608e-01 -6.215978409312864494e-01 2.651659232592434301e-01 -7.370910101823492377e-01
-7.419558378586353642e-02 -1.675604389745213169e-02 -7.667690146768081361e-01 -1.012661259927626414e-02 8.522247370111926124e-01 -5.230778616453460872e-01
2.898572265483709623e-02 7.441916061840453400e-02 -5.719295007945331966e-01 1.884585810408422324e-01 -9.795442078642291328e-01 7.054436952522916138e-02
-1.152152142521232006e-02 -1.321154915674248864e-01 -9.098667650129522722e-01 -6.228103127795523580e-02 6.587663163783931131e-01 -7.497653056445046094e-01
-3.262595359476182927e-02 7.598099202717041589e-02 -5.614716111959088263e-01 -2.145029169868234442e-01 -9.755868416891879669e-01 4.710427716311162138e-02
7.852410380404311122e-03 7.038774463525214464e-02 -5.583594024762432717e-01 -1.867879071067729546e-02 9.772027008284847049e-01 -2.114851868833883819e-01
1.025601315720762324e-01 1.682967871875397023e-02 -7.310079246598326641e-01 1.719966524891786142e-02 -8.894435776055590326e-01 4.567212429606808399e-01
2.800119635988454134e-02 2.632315457755466520e-02 -7.085434495634731489e-01 9.846144780237471236e-03 -8.943180050446936091e-01 4.473235510073735322e-01
-1.990481437576186244e-02 -1.132933954630509915e-01 -8.986776270743048745e-01 -6.001094377565628912e-01 -7.975003333363309688e-01 6.214403466096295181e-02
-1.311614932665548967e-02 7.613132162326761987e-02 -5.284022726257384672e-01 -1.270914365259367788e-02 9.822114824403632705e-01 -1.873474884537334184e-01
-1.165245936673976329e-01 7.001912175785234352e-03 -7.321075706699021746e-01 9.238704632352052748e-01 -3.578481351503434021e-02 3.810286265928864435e-01
-4.555335891694463693e-03 5.337521752163577882e-02 -6.195378701173362979e-01 -1.206868828249616984e-02 9.575859756227816932e-01 -2.878948524265500519e-01
1.047742536645116379e-01 1.317975153438875413e-03 -7.448242655588404038e-01 -1.193008109149706897e-01 9.033603786296104943e-01 -4.119555107498835689e-01
-6.355259407138702521e-02 -5.205978727713973797e-02 -8.312659683007278533e-01 4.632510106364006591e-02 -7.889650033845225785e-01 6.126893245731506177e-01
-6.443129963058387942e-03 -2.866496720395562137e-01 -1.015266755293205758e+00 3.666839996430832499e-02 4.901741693975371628e-01 -8.708528647822730839e-01
1.181195601711185067e-01 4.367209072110699031e-02 -6.706763900499538300e-01 -9.768743096521766978e-01 -2.132675992276321930e-01 1.528117342566939936e-02
1.075551149652612809e-02 -1.023439727646102276e-01 -8.817480952729133126e-01 -1.794283238648364531e-01 7.865409915632894933e-01 -5.908965604788142256e-01
6.784957334532963624e-02 7.624685890021785928e-02 -5.356399725794411815e-01 1.045953532932679744e-02 9.782210766486399978e-01 -2.073020099301263741e-01
-5.391171200436907680e-03 8.703061766295236423e-02 -4.266198196234399220e-01 -1.071172588827484437e-02 9.994946151253685240e-01 -2.992947149359609718e-02
-9.018405435658258251e-02 4.722351896333966403e-02 -6.516133478624859254e-01 1.082810618499848859e-01 -8.989407708173674516e-01 4.244769748842885937e-01
5.957892844705135922e-03 1.335086140358116361e-02 -7.272520573965571833e-01 -9.800199544863877898e-01 -1.705726650013650314e-01 1.023027602894002186e-01
1.018836203851827826e-01 5.964013782394802371e-03 -7.355104811862726022e-01 -3.258099589344623515e-02 8.859794769765950706e-01 -4.625784745131039100e-01
2.399189403901367743e-02 -1.338749648828813643e-01 -9.191116175140192635e-01 -6.694679004679832124e-01 -6.578329253940758126e-03 7.428118576242689342e-01
2.618685156041533624e-02 -4.536078116549866618e-02 -8.135126427095737967e-01 -3.994598186901940351e-02 8.132849480192227976e-01 -5.804928180932904525e-01
3.017023600282621974e-03 -1.474589342485544685e-01 -9.259971034013237956e-01 -9.886606442752139401e-01 1.047159101194512082e-01 -1.076322843257268985e-01
-6.672375225257064224e-02 -9.708349826639203761e-02 -8.751407275007726527e-01 8.411681571037623595e-01 5.267482729269158392e-01 1.223617115080183892e-01
6.023488865896577116e-03 -9.486115483598654696e-02 -8.729019433733928857e-01 -1.736270031154887872e-02 7.298703443742663444e-01 -6.833650686425823961e-01
-2.990108422791509790e-02 6.966103550579799165e-03 -7.408511936792643304e-01 -1.409759411505051296e-01 -9.227893131097548718e-01 3.585884376651823358e-01
-7.894284810895212112e-02 3.784069310486334273e-03 -7.440651287132316050e-01 -1.867176438637247748e-01 -9.306581810754528394e-01 3.146615188854664513e-01
-7.899297147461598056e-02 5.938702285511652385e-02 -6.089299041175597615e-01 6.585399694026823347e-01 -5.147544113200076543e-01 5.489562867166259963e-01
-1.052362887396205982e-01 4.131301534504604189e-02 -6.680174632113685673e-01 -9.243127325427841212e-03 -9.353275768353790376e-01 3.536621107900931316e-01
-5.188733538620775299e-02 3.123869913800011826e-03 -7.333782925176228762e-01 -7.759395216041288686e-03 8.878733082810796873e-01 -4.600225866497120175e-01
2.000426263504135813e-02 5.557360689339332221e-02 -6.178363479889660281e-01 -1.198563537618883845e-01 9.692481126731135044e-01 -2.149245228970223520e-01
7.254016860293793778e-02 2.473801161475247534e-02 -6.981402740989907096e-01 1.719803877500182543e-01 8.032108655917664652e-01 -5.703288977639822122e-01
-5.338903247524764278e-02 6.640930723818298798e-02 -5.743443320053674972e-01 7.602027917655146405e-02 9.803957386650292705e-01 -1.817831476275254543e-01
-1.274802368077292310e-02 -1.023895866160296070e-01 -8.803733763177812310e-01 -1.055964860196516308e-02 7.302899947337265774e-01 -6.830556473767100956e-01
-2.146353081365904789e-02 -7.288413012372459143e-02 -8.497192818643405365e-01 -6.201643589825794889e-01 1.254381339652950733e-01 -7.743781004102783250e-01
5.392098975467536290e-03 9.398195015564438093e-02 -4.143446697181685234e-01 1.007488671908961589e-02 -9.955921658406181596e-01 -9.324556812194607913e-02
