7.328676463201085067e-02 1.374236869559351537e-01 -7.088258200948380772e-01 -6.184665421768341664e-01 5.768152537764641430e-01 5.336509151295663056e-01
6.979586210125861279e-02 1.404873066272749882e-01 -7.021613710797933727e-01 6.345555354793497305e-01 -5.732615293320423300e-01 -5.183729269362007397e-01
-2.685663679394062128e-02 3.560772305689005601e-02 -7.374265753356966657e-01 -9.242717992307784014e-01 4.744703711852374384e-02 -3.787748933276506857e-01
-8.659154303169749878e-02 -7.913828464152478093e-02 -7.496717728479108667e-01 9.564912736445756458e-01 -2.519544072189563305e-02 2.906710051047524668e-01
-6.129280889062661830e-02 -5.367397007718362201e-02 -7.169014140712636207e-01 9.168278979767614523e-01 -2.721461436187562755e-01 -2.921696117068858789e-01
-1.206784501673508064e-01 -2.164529439578507519e-01 -7.767473695062431238e-01 -8.961757101664232783e-01 8.867366466766729571e-02 4.347482923510023189e-01
1.952856999380207514e-01 2.028108370884893763e-01 -6.544601978723381119e-01 4.270300820994003543e-01 1.872378759410022742e-01 -8.846396366856285054e-01
-1.199418739542503498e-01 -1.933700851867182768e-01 -7.638257952080529378e-01 8.029806508892430861e-01 -1.621097839535729501e-01 -5.735350837080617215e-01
-1.398485852029464904e-01 -3.227907849958278619e-01 -8.188036849263472527e-01 1.479555211446133833e-01 -4.260273690068861474e-01 8.925300244921154924e-01
-6.224064627522987031e-02 -9.538344270940843361e-02 -7.076569222489245137e-01 -8.434041687112087127e-01 2.594893204371160333e-01 4.704622203531740876e-01
-3.283080873613019451e-03 2.459809166983752821e-02 -6.827522389810618542e-01 3.947392307030047065e-01 -6.811589485258785770e-02 -9.162647895736422132e-01
-1.842730316518489606e-02 -3.225059500598920909e-02 -6.604248492884746691e-01 7.903812787765748249e-01 -3.598926645311623096e-01 -4.957566985691331807e-01
2.317677623602836662e-02 4.606092907222048699e-02 -6.659184509386079087e-01 7.216354528412743941e-01 -3.478582722013372486e-01 -5.985289430459224125e-01
-1.165773349152012667e-01 -2.342844642849859216e-01 -7.708154253369017272e-01 -9.250695839538852772e-01 3.068439182384737340e-01 -2.238148223050616670e-01
2.784857341837581809e-02 6.816445381571832607e-02 -6.948374061509782207e-01 -7.078693429897797706e-01 4.962042663114744623e-01 5.026950560225441622e-01
-8.878497607433753769e-02 -7.501481863348856416e-02 -7.671630280763019893e-01 -9.494586785401123441e-01 2.022505729776114258e-01 2.400477524891483638e-01
1.746153064127033139e-01 1.748586670339902505e-01 -6.433061635446140070e-01 -4.817633400956051193e-01 7.904608602758813607e-01 3.782535029736538990e-01
7.114385403858790313e-02 1.354699678576605504e-01 -7.091975678456706733e-01 -6.184665421768341664e-01 5.768152537764641430e-01 5.336509151295663056e-01
1.462998560554330252e-01 1.978771579794911528e-01 -6.941581189280087161e-01 8.145615865665281063e-01 -5.305580168618626580e-01 2.345156976277450733e-01
-4.557383044463967497e-02 -6.332112996705652197e-02 -6.885512065455207109e-01 5.843537188292116102e-01 4.364048128508520308e-01 -6.841648709273834283e-01
8.998337967117257807e-02 4.390968250564773051e-02 -5.858729820373416164e-01 -4.910707364041583256e-01 4.539008693773280978e-01 -7.435210371105738236e-01
-6.523399361122793338e-02 -3.354838954697278441e-02 -7.420335224534189145e-01 2.929689251758101423e-02 -3.813199709360566847e-01 -9.239787724045059880e-01
-1.145921542567076255e-02 7.149644713115174688e-02 -7.466735956651486816e-01 -1.849036667316046045e-01 5.054674684590384492e-01 8.428008497615663286e-01
-1.369543154198079871e-01 -2.696517812629377620e-01 -7.832346252268914677e-01 8.928110704891735194e-01 2.092229047173949086e-02 -4.499451635181691556e-01
-3.066273391116136615e-02 -2.934109598297200000e-02 -7.052040155448835446e-01 -8.176122826369700558e-01 4.003569053746454665e-01 4.137928269073797294e-01
-2.748764006316235103e-02 -8.503935957693749617e-03 -7.039562331936767281e-01 1.833147984520564766e-01 -3.440911648007235479e-01 9.208675013130624976e-01
-6.661128820435474433e-03 8.927915860015198102e-02 -7.498601981542489803e-01 7.890773399252575260e-01 -4.484434744405597639e-01 -4.198278240519064397e-01
-1.108610778978607048e-01 -2.040893279136604122e-01 -7.386222670630536724e-01 9.074742624472725838e-01 -1.516602090088282895e-01 -3.917775440210641280e-01
-1.317127925895425211e-01 -3.158013174422554248e-01 -8.036356835607991744e-01 -9.464716095935394868e-01 2.158744297215996477e-01 -2.399785882652626656e-01
-3.518263935990389307e-02 -1.752880644448059910e-02 -7.009600089245699994e-01 8.769467668662263016e-01 -3.344121269507403515e-01 -3.451563376662154514e-01
-9.208045205454867821e-02 -1.485011582554549292e-01 -7.341096288118282853e-01 -4.727862972054497348e-01 4.532008735569373892e-01 -7.556997322892134994e-01
-2.466673435746439321e-03 6.929787090026033602e-02 -7.235533946433008179e-01 7.071444285237797889e-01 -4.717273926765610526e-01 -5.267067725085279317e-01
1.133602250320055876e-01 1.308228363476742484e-01 -6.538608490387541883e-01 -5.565892184533682840e-01 7.092470241192998515e-01 4.326396892096078250e-01
-2.849245410007830021e-02 6.013171334848746441e-02 -7.676412817032456370e-01 -7.315963201792946569e-01 4.375784739922841116e-01 5.227732810680925102e-01
2.837141115600838592e-02 1.048636899461368177e-01 -7.160213795967486083e-01 6.909092806218428695e-01 -5.201482041798590750e-01 -5.020858608236996590e-01
1.046609024619137851e-01 1.596074510418812320e-01 -6.969927801453089655e-01 -4.782896901104838339e-01 6.227670234300137775e-01 6.191931902582085145e-01
1.839939693769583051e-01 2.004094837390041628e-01 -6.756855411992368499e-01 -1.798955893732668010e-01 2.883028152499513830e-01 9.404887365848659808e-01
-1.592343141537455251e-02 -8.757748404856742844e-03 -6.905103766626348172e-01 -7.760069907888020868e-01 4.119320893873511524e-01 4.776244382146702105e-01
-3.751994849628478151e-02 -8.458423889241782623e-02 -6.701147584477588071e-01 -8.185794617022689179e-01 3.420091565532673017e-01 4.614730779936639382e-01
-3.962220947001805077e-02 3.512224815994569038e-02 -7.616388540956313680e-01 -6.752693324571297229e-01 4.356104398317693915e-01 5.951931395374738809e-01
-1.445956248520387623e-03 -3.474330169287873776e-02 -6.460397400136060897e-01 -7.498469082580306866e-01 5.248210763287173286e-01 4.028553735734937136e-01
-5.841384146614814719e-04 -3.164386304873276212e-02 -6.343894895401710476e-01 7.837136418862994391e-01 -2.748080226534515003e-01 -5.570219728220899835e-01
2.021470785198051512e-01 2.084020875403433393e-01 -6.695208236833802840e-01 -5.746563308262093717e-01 8.117315859428629876e-01 -1.042206017255827150e-01
1.151933587281406685e-01 1.211783989545364426e-01 -6.379667129712636164e-01 -4.704597531690796752e-01 -4.366931601066580404e-01 7.667898698888433451e-01
-7.666249685754923660e-02 -1.431183947172835758e-02 -7.726401233818865899e-01 8.789056170465083806e-01 -3.015595904717734976e-01 -3.695764193216236060e-01
-8.856275672659025266e-02 -1.674259330022793424e-01 -7.162199587254219901e-01 -6.138454795187819890e-01 7.878947047079427612e-01 -4.914938013383649690e-02
-4.737984551286580220e-02 -8.352235722407752583e-02 -6.721441570444059987e-01 8.319337144601000045e-01 -2.802802431613205525e-01 -4.788833678862230436e-01
2.077668204229414159e-02 2.031692483869930801e-02 -6.451346925921890296e-01 7.254637909562021703e-01 -4.559160911546286665e-01 -5.155994626042000872e-01
-4.312982345615327950e-02 -1.787867165464759574e-03 -7.394473925801832159e-01 -7.769441538708483641e-01 3.814319204430345889e-01 5.008667206284023177e-01
-1.089020719660340891e-01 -2.006304521485299530e-01 -7.623829232623309249e-01 -8.795154179266542194e-01 9.470110186781453832e-02 4.663521533501527871e-01
-3.983265874129612860e-02 -7.268590705980750022e-02 -6.663680242411109678e-01 8.200876475831267998e-01 -3.390248726393108036e-01 -4.609971648648958920e-01
6.153767738084305744e-02 3.852506251302479506e-02 -6.058136691916030658e-01 6.978137966265972603e-01 -4.887026529304368538e-01 -5.236655633668559906e-01
8.401349934314879253e-02 1.017282473025105383e-01 -6.571359426434959516e-01 -6.370375500573196570e-01 5.694480103602844734e-01 5.195306760083383546e-01
-1.174400606983850293e-01 -2.082927341400670485e-01 -7.527925776628447974e-01 9.055495810058019623e-01 -9.772137187380100509e-02 -4.128322780734548503e-01
1.243138154548368429e-01 1.768867076330237487e-01 -6.980376652972835050e-01 -5.445112278409905970e-01 6.394384205810784705e-01 5.427946472100404485e-01
1.468955335636411459e-02 8.099046938476246738e-02 -7.136800368281172036e-01 9.630145981278456224e-01 -2.530816757698352015e-01 9.247999341585104449e-02
-5.921683420470313236e-02 5.848970430238705116e-03 -7.716813637343082899e-01 -7.903353006286345517e-01 3.660667445006229315e-01 4.912893761836922280e-01
-1.741351807217728347e-03 -3.154835711693882577e-02 -6.498120503729439834e-01 -7.727094380124368556e-01 4.160953528431299842e-01 4.793587192790539353e-01
-1.371980277819858096e-01 -2.743321245019495480e-01 -7.839004563024095651e-01 9.049132091818765655e-01 1.216554747518510705e-02 -4.254222411943059390e-01
1.860437603469876702e-02 2.596637921724916087e-02 -6.543881443424102162e-01 6.801285560641973094e-01 -6.253554064469678542e-01 -3.825647172094908122e-01
8.709107114827538410e-02 1.333836357702660735e-01 -6.820145949241939176e-01 9.003773697445446866e-02 4.959524082426763347e-01 8.636691581148469021e-01
5.003018792934096903e-02 9.279106659897146114e-02 -6.754129458369197980e-01 7.019551329710568277e-01 -5.440375042843494935e-01 -4.596544193496263087e-01
1.049660390792162973e-01 1.368909532762807579e-01 -6.577310085014118624e-01 5.952104107985833892e-01 -6.152699015300604479e-01 -5.168824964614020523e-01
6.043106174378795603e-02 8.820451941071982827e-02 -6.590384493353591555e-01 6.931591390522374718e-01 -4.056010431905067160e-01 -5.958340387315358422e-01
3.399305852508123504e-02 2.855685173158045796e-03 -6.103611279129544931e-01 7.162480697672828356e-01 -4.980394513304706727e-01 -4.888204245662052805e-01
4.342305059817325175e-02 5.408971946511144380e-02 -6.463098582160929917e-01 7.102052255896061927e-01 -3.770371824546429607e-01 -5.945178723906296980e-01
-2.288687730830304967e-02 9.475868897668150714e-02 -7.761375403385707417e-01 7.636981430882986421e-01 -4.906928720811325473e-01 -4.195064380104958079e-01
-6.116055202041662670e-02 -8.940831445301195002e-02 -6.930272705683049317e-01 8.341868546666775242e-01 -3.272606548582437380e-01 -4.438837182000130444e-01
-2.061927871389067010e-02 -7.207636768494746216e-02 -6.497559998438628970e-01 -8.101098032480016364e-01 3.548200893396685762e-01 4.667170565583326214e-01
-6.565692696477713752e-02 -7.302195987087883866e-02 -7.084527429351050731e-01 4.582295531113568243e-01 2.811228717671524283e-02 -8.883892029764095533e-01
-6.079911519090706526e-03 -2.092132013474384822e-02 -6.633727591087749120e-01 -7.780961949400998501e-01 2.102222610909588174e-01 5.919230628734977184e-01
1.390962746985654197e-01 1.249593474049308234e-01 -6.119225409558607387e-01 -5.547186640989654194e-01 6.483205451062379332e-02 -8.295082931521484682e-01
8.566244452667202969e-02 1.479313484447947469e-01 -7.060670144425159611e-01 -6.137027773591313684e-01 5.989365290367613115e-01 5.144355501392620100e-01
1.252022168638640062e-02 8.811340021439333092e-02 -7.332606856336504331e-01 -8.477899621406849162e-01 4.299679608769758632e-01 3.104508539411536816e-01
-2.528563980541626358e-03 9.935253597594215225e-03 -6.892620725231285439e-01 -7.985611719269325448e-01 5.924984584088351935e-01 -1.060454217485965883e-01
3.461907919099391912e-02 1.246952816772193690e-01 -7.407354426002781267e-01 -5.597347106111456583e-01 5.610031014861746046e-01 6.098955434006299026e-01
2.185966600700514906e-01 2.286982285642179535e-01 -6.678477450567620322e-01 -6.202502308411064202e-01 -7.153241524341574786e-01 -3.218711047700749117e-01
-1.153018121876576152e-01 -1.414852313296463548e-01 -7.769033752442893181e-01 1.051881456929607689e-01 -3.246466727230657434e-01 -9.399680802535365087e-01
1.683431485284483109e-01 2.105397324959553951e-01 -6.970139480032901957e-01 -4.468043138578128293e-01 6.351604510545162396e-01 6.300294489420892319e-01
-1.130447942300055325e-01 -8.983110811192077105e-02 -8.010277567628685258e-01 4.154818327614415718e-01 -1.203560498966634862e-01 9.016037199892561471e-01
-8.937269262220562394e-02 -1.245165293066589490e-01 -7.243688348534634835e-01 4.800057145355570709e-01 8.151322396967955464e-02 -8.734701530855407681e-01
1.237665705829909812e-01 1.688666265043685666e-01 -6.809636786650197227e-01 -3.342427353306328675e-01 -4.403161886647101175e-01 -8.333087350307086805e-01
-2.721490829989856725e-02 -6.853288710415911256e-02 -6.630980336337835013e-01 -8.028775290526265485e-01 1.269474399840943846e-01 5.824706179918721638e-01
4.099896756177532492e-02 6.884060649925489994e-02 -6.660278223186335556e-01 2.451656684654414942e-01 -9.566289503661410398e-01 1.573367291107477806e-01
-1.097620491468316861e-01 -2.230721954916848049e-01 -7.451874354296111891e-01 -5.850670828506553400e-01 7.885285442360777663e-01 -1.895237280383557099e-01
-7.780521907239415502e-02 -2.343738801380340978e-02 -7.746172175351825340e-01 -2.997431609641350025e-01 4.207281407715056099e-01 8.562370402045103024e-01
-9.586944604218749708e-03 8.119468154910058910e-02 -7.467003333160839862e-01 7.957720509220566063e-01 -4.524071555735922345e-01 -4.025849085064107657e-01
6.711127874802173821e-02 5.558889520267788070e-02 -6.281418619592137320e-01 -6.474119527341993807e-01 6.191689692264410461e-01 4.443957144302332352e-01
1.489886967694892539e-01 1.665924860778675576e-01 -6.561534362879919424e-01 -2.203084998485647372e-01 9.746858181594519888e-01 -3.810145369030748519e-02
-5.624092786335073424e-02 -1.242057388752277752e-01 -6.630198011966119687e-01 8.485688032032890904e-01 -2.453054862770746858e-01 -4.687816172083811850e-01
-1.135472686535924786e-01 -1.888138396622902615e-01 -7.657954488826804740e-01 -9.762475382392952206e-01 7.294169678740422547e-02 2.040104236344071342e-01
-8.346799336618009046e-02 -1.482072600475316526e-01 -7.201106665135449392e-01 -8.769272797822155185e-01 1.840319417184575757e-01 4.439941332958107778e-01
-3.428708750476865824e-02 -8.917856445583631497e-02 -6.595502981621824690e-01 -8.018772930880048166e-01 4.531319374676422429e-01 3.894409506930091025e-01
9.668773237190038394e-02 1.253138702983453145e-01 -6.666289052856561037e-01 -5.629836121711144781e-01 7.071316153611041377e-01 4.278017426139819057e-01
-6.967120569329986191e-02 -1.157740299922778299e-01 -7.015695054468624736e-01 -5.629685926841494492e-01 8.254483828463218265e-01 -4.124719272411677545e-02
-7.524042978211226140e-02 -1.370888187260168971e-02 -7.696570305721315286e-01 8.830615051662596970e-01 -3.041066274289417337e-01 -3.573815009864034775e-01
-9.848456980485785495e-02 -1.079815862243071467e-01 -7.538323755716349606e-01 7.318430558102428929e-01 -2.796544751266774043e-01 -6.214492064553210904e-01
7.778811208215903605e-02 9.521676610399035234e-02 -6.444606742390057708e-01 6.644461171192839188e-01 -4.607824475313531676e-01 -5.883798887556596080e-01
-5.564396306104588130e-02 -8.484499292631828005e-02 -7.006896813490725018e-01 -8.267653559206931124e-01 1.095631943566010014e-01 5.517743675558943739e-01
-1.262388135165521952e-01 -2.090371587067121339e-01 -7.726936832184805315e-01 9.313792129136753140e-01 -9.767291576510543638e-02 -3.507032410432572300e-01
-7.840556508393875523e-02 -1.325783090701674605e-01 -7.013008156262110493e-01 8.428843209740692899e-01 -4.268884495765297715e-01 -3.275855202450634884e-01
1.436939368636473008e-02 9.907894041895055903e-02 -7.347655856360248983e-01 -2.271613920590190849e-01 -3.994044428753615872e-01 -8.881856748277526803e-01
-4.905181576442831093e-02 -1.242858881140544436e-01 -6.660557603358537859e-01 -8.494093503155973890e-01 2.823112899776146767e-01 4.458745239948226913e-01
4.564560211967580439e-02 8.769592217665188316e-02 -6.830262106848026260e-01 4.364351249960922718e-01 -5.110580524807218916e-01 7.405025649275340793e-01
-4.904360155524278148e-02 -5.989792405372777739e-02 -7.141118277799234360e-01 -7.881768354977631841e-01 2.947704167190798308e-01 5.402663023102514117e-01
1.550807824025256243e-01 1.847996690394286823e-01 -6.626854002259773280e-01 5.113579072090179700e-01 -6.757281578076468342e-01 -5.309468405412138825e-01
-9.505903042439249606e-02 -9.326223950535954266e-02 -7.566162696196319093e-01 7.090533515869399395e-01 -3.067765135613748084e-01 -6.349263857570064395e-01
3.908643102599068664e-02 2.609447665178142150e-03 -6.153384248607324247e-01 -7.420195335705843664e-01 1.775931396349032798e-01 6.464268624943660946e-01
8.700762566698783118e-02 5.609933755288768614e-02 -5.923325995724842974e-01 5.325326053517066560e-01 -7.974943400346077294e-01 -2.835697477695546809e-01
-5.720914758945468137e-02 -4.951830698324388019e-02 -7.262998250537106015e-01 -7.111048330090226077e-01 3.569653269210379398e-01 6.057273907025887416e-01
2.547140464672283111e-02 2.656715833561888729e-02 -6.569356037547671168e-01 -7.402779424016854293e-01 2.646871827420049783e-01 6.180042583070340934e-01
-1.157882823739204425e-01 -2.025143230507421288e-01 -7.691908452355474823e-01 -9.277333736195029212e-01 1.011666896286262940e-01 3.592716080935995926e-01
3.351558285186698183e-02 7.614027224068323219e-02 -6.795894823007972985e-01 7.017823609219822067e-01 -5.557043650272556201e-01 -4.457512496767939703e-01
-9.444342326593604953e-02 -3.190844607232967700e-02 -7.896839692310674286e-01 8.383889932950493451e-01 -2.990697960560524948e-01 -4.556985330333034323e-01
-2.283554442119829428e-02 2.589537136468586867e-02 -7.242754007443673592e-01 -6.026232706743720607e-02 4.126990176145183820e-01 9.088718131818305235e-01
-9.059126891905087964e-02 -2.919043775167924973e-02 -7.999699239948907525e-01 -6.740770429956999266e-01 3.013616396706146894e-01 6.743895775004324911e-01
1.053008101157466431e-01 7.877931498390282339e-02 -6.064787093615465752e-01 -6.346668910370002470e-01 5.824020925116499825e-01 5.079426543021168250e-01
3.564222254033977411e-02 -8.761248036746910328e-03 -6.124618523962451766e-01 -7.319150089116164271e-01 4.730694833186686044e-01 4.904137882263470138e-01
-6.071824268898785154e-02 3.712545304832549214e-02 -7.829051409763022606e-01 7.905043876365417388e-01 -3.794473915817416221e-01 -4.807520048311691441e-01
-7.394444614626251300e-02 -9.081382705122323373e-02 -7.319829602645835376e-01 -8.668480622631754562e-01 2.512481096363514133e-01 4.306376949997964831e-01
9.185733361354658788e-02 1.595564552025286464e-01 -7.088427437325400815e-01 -9.004413042085485097e-01 1.248774121201757931e-01 -4.166666408741833694e-01
2.148508969795148993e-01 2.236258070848695378e-01 -6.717777747651092479e-01 -8.619506335500631833e-01 3.236981410520398672e-01 3.902058672061432532e-01
-5.446393620111100731e-02 1.567197187699477176e-02 -7.712314557456799724e-01 -7.986772003481923399e-01 3.752671066957148915e-01 4.704139966839847586e-01
1.114894049607667928e-02 6.917723566635088084e-02 -7.086890783459767196e-01 9.675281869970751014e-01 -2.123939911426293292e-01 1.370328423869888179e-01
-8.510362971587606684e-02 -1.101937448056196783e-01 -7.403094045309163151e-01 -7.546238220933826346e-01 2.764596249232937897e-01 5.950739138262125527e-01
3.779081385544254962e-02 6.311118445818955647e-02 -6.742896447262211046e-01 -7.135195831823549772e-01 3.141741678289528550e-01 6.262462747867352242e-01
-4.449745894460407913e-02 -1.215663578498561159e-01 -6.591269123107040828e-01 -8.383535267392714374e-01 2.976618832584497221e-01 4.566845382305587675e-01
7.143385020821628462e-02 1.346049213087798513e-01 -6.937812151979246833e-01 6.019434521713291630e-01 -5.845515814574989699e-01 -5.440253018046126154e-01
5.882613224010414810e-02 2.382770174677624996e-03 -5.892172064278837773e-01 -7.262958516892518146e-01 5.048676210509255302e-01 4.664793897198065697e-01
-6.778572834800371261e-02 -4.008414349948302181e-03 -7.627014032877821315e-01 8.056170736053435144e-01 -3.598605859472309709e-01 -4.706181991777174112e-01
-1.161882095736249121e-01 -2.113381793514532425e-01 -7.485611685329977005e-01 9.072517439436613707e-01 -8.320087588046043425e-02 -4.122764695734029705e-01
1.283494339574378640e-01 1.261143765483133117e-01 -6.191912660569205418e-01 5.788084928944883245e-01 -6.295939418570156709e-01 -5.182588126893313829e-01
2.411939402254589804e-02 2.901458221311459251e-02 -6.573384053892903367e-01 -5.607561954605758681e-01 -4.016879709811118082e-01 7.240160655825653713e-01
-5.355519489653386145e-02 -2.288494839375165499e-02 -7.377469111590702067e-01 -1.277163521549652125e-01 3.807261433366018744e-01 9.158253857435193490e-01
6.131583112477315828e-02 5.721843885767802229e-02 -6.388745451838243605e-01 -6.476055473539071849e-01 6.201049733276039477e-01 4.428056877353969689e-01
1.069972816737328331e-01 1.462562221717278177e-01 -6.662100796794802049e-01 5.799182617508723547e-01 -6.012228418655363171e-01 -5.497507654446466274e-01
-4.125846161553106684e-02 3.282420770976624685e-02 -7.618172198672081841e-01 -6.814762158853742147e-01 4.393041704351118848e-01 5.853221446527280269e-01
-1.046382030320789636e-01 -1.368907165238996693e-01 -7.509615001697788061e-01 8.741428364814488594e-01 -2.022744132627401770e-01 -4.415420287666636523e-01
1.066678267782549400e-01 1.701503306798221871e-01 -6.947904263259715441e-01 6.638146207287328737e-01 -6.114599459266594206e-01 -4.306586627877524442e-01
-1.835013114010493329e-02 -1.501100613658805892e-02 -6.878558391797114924e-01 -7.495323632747191711e-01 5.397082927484642134e-01 3.832964846464842479e-01
-6.209436910970114742e-02 -1.021303035361722650e-01 -7.033415518172366765e-01 -8.433165710138268434e-01 2.958909944606464837e-01 4.486264375296789009e-01
1.889867647679431550e-01 2.152611363250299947e-01 -6.707285795200813583e-01 4.828431303987341106e-01 -7.167220795736339856e-01 -5.031619739988273388e-01
1.509267921576066540e-01 1.836067974084034105e-01 -6.652069252397962984e-01 5.092904629514451997e-01 -6.612745908065366107e-01 -5.507623261447268659e-01
7.455942710589359701e-02 7.540896042914754793e-02 -6.262316169470103500e-01 6.655465285045384372e-01 -5.177146961107843559e-01 -5.376051635042914389e-01
-2.681338795031760341e-02 -6.238369831362919164e-03 -6.905929121556115824e-01 4.120188247867693776e-01 -8.406985154622645395e-02 -9.072886795735547460e-01
1.171600676591446899e-01 1.307231669768888493e-01 -6.488918215810590695e-01 -5.468460317716787866e-01 7.136685692799071834e-01 4.377631674290773933e-01
4.050790866552349268e-02 1.037519087840776122e-01 -7.035740109641499540e-01 -2.542737398687943129e-01 -4.243794367200362516e-01 -8.690494571095026544e-01
-1.044443931905767314e-01 -9.812960304619715302e-02 -7.696610563927390736e-01 8.815095214562223003e-01 -2.187943047201310887e-01 -4.184136897904466856e-01
2.048676007920549880e-01 2.254100494385525288e-01 -6.833182705052494033e-01 -3.303009804819278528e-01 -1.410375948164002968e-01 9.332789824811666968e-01
4.052449821700336574e-02 6.606442095872179510e-02 -6.613962847062643258e-01 6.294183355234923560e-01 -6.730247219869684994e-01 -3.884202395617406545e-01
-1.304268305783419860e-02 -7.087504574655582867e-02 -6.376670982299280643e-01 -7.953443842020747612e-01 3.727084851344403815e-01 4.780331532718342658e-01
8.988080193373586269e-02 5.055277951892916261e-02 -5.953330601100257358e-01 -6.682159344426080727e-01 5.004310049397460158e-01 5.505054715913256791e-01
-6.117545121917794537e-02 -9.544912771115429684e-02 -7.057025510270664714e-01 -8.442455459699350628e-01 2.608728815860431594e-01 4.681824406819635742e-01
-2.525442199279172295e-02 -7.912876309371702499e-02 -6.524399459801704104e-01 -8.101098032480016364e-01 3.548200893396685762e-01 4.667170565583326214e-01
1.290564705941103958e-02 4.453860215729128769e-02 -6.933211370106205917e-01 -7.080789341430627770e-01 4.739604836989552705e-01 5.234364172606603693e-01
1.007857946321718580e-02 1.288574399398695614e-01 -7.645977493095359456e-01 7.990452181705919310e-01 -5.113330056139122615e-01 -3.163309922985004241e-01
-1.527833313132025660e-02 7.512514846706863647e-02 -7.591042331702352319e-01 -8.816957739831354779e-01 1.027171121624772393e-02 -4.717065338629194415e-01
1.369304097678135379e-02 5.728887563835800140e-02 -6.893753216450321242e-01 7.235389557317642995e-01 -4.781223367681327052e-01 -4.978859413781114296e-01
6.175956946471295242e-03 9.417397864809533281e-02 -7.350963831003582971e-01 6.830094595535033397e-01 -5.027625199996719196e-01 -5.298376417771869518e-01
3.262880102837055485e-02 2.869792161460823360e-02 -6.360377440621195477e-01 7.199200403624134159e-01 -4.889839009067144526e-01 -4.925544438319822138e-01
5.114678477564216230e-02 3.010568598038628613e-02 -6.118028668609878373e-01 6.978137966265972603e-01 -4.887026529304368538e-01 -5.236655633668559906e-01
-2.505664926842359960e-02 -1.536292722303714449e-02 -6.923397664918840011e-01 -1.814558993759998462e-01 3.429508760537522405e-01 -9.216607039445755545e-01
-1.100880100041199128e-01 -2.205756549823998380e-01 -7.392843083982343355e-01 3.908689399332022640e-01 6.781155729041881131e-01 -6.223991818602586656e-01
-6.207871708740260452e-02 -6.412070749643478118e-02 -7.188430777892089729e-01 4.614861076270806439e-01 -4.706540302989667413e-01 7.520075506472961857e-01
3.412315368251762904e-02 4.162049716420893747e-02 -6.540107955153329211e-01 -3.968733254982451109e-01 9.178567595521782696e-01 5.525617824189222975e-03
1.127911819493351321e-02 1.812839481718293844e-02 -6.571475223338618665e-01 7.369029577985625190e-01 -4.622992321198673982e-01 -4.932073101334884524e-01
4.960929281561091836e-02 6.653141936528852995e-02 -6.494891274671934500e-01 6.748791347012815800e-01 -5.421399941662276012e-01 -5.006219933945097456e-01
-1.095539336540831687e-01 -1.201916702157957567e-01 -7.729607201907761072e-01 9.595804094498578962e-01 1.719841064867498603e-02 2.809086194320182805e-01
5.529978203150714283e-02 1.124371861038562237e-01 -6.895303305639802760e-01 6.679599101265970562e-01 -5.482863358222203054e-01 -5.032014034303877725e-01
-2.833289114964021582e-02 -6.262755234384337517e-03 -7.024028144827769715e-01 4.485295713443392396e-01 -4.926211020496461535e-01 7.457517505477644360e-01
-8.419243825793762404e-02 -1.337569918209294551e-01 -7.358628351555176472e-01 -8.882070785760214360e-01 2.635640566593366318e-01 3.763272161360682322e-01
-9.131095909372996533e-02 -1.907770526403630151e-01 -7.186823161294536577e-01 -9.010926900134397233e-01 1.520324644058717867e-01 4.061010881184886068e-01
2.199012443268895667e-01 2.224438694514716541e-01 -6.684605355217424494e-01 -9.073990951109496272e-01 1.743015662471499860e-01 -3.824210326271558769e-01
-2.909148763176952132e-02 -4.728198501334261727e-03 -7.108570770296180896e-01 -6.912008127353427844e-02 4.059611968698879081e-01 9.112726929962884359e-01
2.670162913599956681e-02 7.869058966960723600e-02 -7.067544638245188970e-01 -6.773139951533491132e-01 5.077467746275632354e-01 5.323898616847576593e-01
-9.269940484362478028e-02 -1.005091212701147707e-01 -7.534894734965212892e-01 9.914205416962264261e-02 -3.470146290962685676e-01 -9.326047931938835633e-01
-1.455467835093162896e-02 -1.899450066201995718e-03 -6.940756462810664384e-01 -7.628325243232501052e-01 3.751316398290297505e-01 5.266524400720090648e-01
-1.880731521357095759e-02 -4.305036455671717999e-02 -6.680470205644742920e-01 -7.863638474295212566e-01 3.946069025998246160e-01 4.753075760772309533e-01
6.976335138617575926e-02 6.330580179778470817e-02 -6.343411234881313199e-01 -6.583865319733687160e-01 5.502276378700317050e-01 5.135919791430213488e-01
8.328023484810608001e-02 1.461782215620482384e-01 -6.969573001411908386e-01 -3.570055991037393017e-01 -3.891506904107303599e-01 -8.491812187992807681e-01
-3.699340347516412442e-02 -2.807299343275909687e-02 -6.949515965949094598e-01 -1.748394725387547866e-01 3.532164816509920646e-01 -9.190589077597062229e-01
-1.428435387505333221e-01 -3.158567248170874864e-01 -8.021205503290781413e-01 5.466825610273965408e-01 2.994154126010766248e-01 -7.819773578342621434e-01
-1.390723111619135421e-01 -3.625640567563849226e-01 -8.382277046244515084e-01 -5.557113665432835692e-01 -3.460987749808838720e-01 7.559103882414420772e-01
-1.362952848784940163e-01 -2.615556799070405392e-01 -7.815504672254869334e-01 8.928110704891735194e-01 2.092229047173949086e-02 -4.499451635181691556e-01
-7.345977060820521598e-02 -1.440785194478461373e-01 -7.021992210522999267e-01 -8.711917980010284168e-01 2.359376632973100574e-01 4.305325424791258682e-01
2.522187793352637011e-03 -5.184729420695376179e-02 -6.266787405517703080e-01 -7.854551220216734464e-01 3.544994274142780899e-01 5.073365818200643584e-01
-1.114333209795221324e-01 -1.016319912257755420e-01 -7.987448107835499744e-01 -8.863242702134660478e-01 2.078147492315343958e-01 4.138143521343856102e-01
-4.719752717148745919e-02 -6.457383781127321032e-02 -6.990668715022745339e-01 -7.968682211675488514e-01 4.706823715011350107e-01 3.787600074603097999e-01
8.489543045888281458e-02 9.213789787780754525e-02 -6.442876588595213283e-01 -6.026243295751306794e-01 6.557590175555454426e-01 4.547790983529362285e-01
5.756681152719567846e-02 9.303436977750340064e-02 -6.807806878602923328e-01 -6.600505669294937094e-01 5.462186414357452779e-01 5.157309810784522774e-01
-9.718652810680603049e-02 -4.898178083604830951e-02 -7.977180523130275036e-01 -6.740770429956999266e-01 3.013616396706146894e-01 6.743895775004324911e-01
-8.567912490942844461e-02 -1.108102456619798060e-01 -7.331930835705774419e-01 4.704588600031722745e-01 -4.585331755546120380e-01 7.539335434640900280e-01
1.814234755771339802e-01 1.901372929824201585e-01 -6.569308084317110330e-01 -5.422497690851505459e-01 4.629456858255338036e-01 7.011750707937546290e-01
-7.983665273090828629e-02 -4.197430290970335237e-02 -7.581918877926761002e-01 9.007369490828682768e-01 -2.663203647800507223e-01 -3.431419704150265315e-01
-6.897852498177751979e-02 -7.023627200638303536e-02 -7.348790283570465487e-01 -9.267877592450735058e-01 2.421868271452531640e-01 2.870714023911309920e-01
-2.378427674287543828e-02 6.298853529785249095e-02 -7.501319533948690443e-01 5.190932921729873861e-01 -4.653701491874700502e-01 -7.169189481846893752e-01
-3.521638537826365586e-03 -6.255221862634080532e-02 -6.136821387051633048e-01 7.889866629569153300e-01 -2.616506086514915341e-01 -5.559127671392471992e-01
-3.304333822926561887e-02 4.067338419198124333e-02 -7.578578348773215012e-01 -7.512559650440252534e-01 4.165011805673730638e-01 5.119973062153300170e-01
-9.905447138328249412e-02 -4.268036915028199790e-02 -7.917234761828763068e-01 9.115860319575314064e-01 -2.475919824140521974e-01 -3.281906710803982330e-01
2.389692791134347127e-02 9.869635337084997628e-02 -7.159398282919055001e-01 7.626205887802161021e-01 -4.978228818478812046e-01 -4.130159995414062202e-01
-8.335786050694965477e-02 -3.098795244052972991e-02 -7.818034529379218611e-01 -8.114000156861742585e-01 -1.034890600422671419e-01 -5.752564897470032745e-01
7.125312499852276549e-02 9.385877014585693179e-02 -6.508249925996155705e-01 6.813729419291449929e-01 -4.401124756303810281e-01 -5.848349534709081921e-01
-2.409448617372271506e-02 -1.957731792570671300e-02 -6.926591800339129135e-01 -7.495323632747191711e-01 5.397082927484642134e-01 3.832964846464842479e-01
6.662531252421076411e-02 6.875732833624616236e-02 -6.296483898012845692e-01 6.655465285045384372e-01 -5.177146961107843559e-01 -5.376051635042914389e-01
1.609366075027989784e-01 1.800367835271946548e-01 -6.649595444689084811e-01 -5.283013292443046183e-01 6.646480101842562327e-01 5.283377026834350509e-01
-4.316739593739134240e-02 -4.447729927998037014e-02 -7.064990415657840250e-01 -7.983893205566582330e-01 1.700740313699681261e-01 5.776238539695575103e-01
-7.033297389770681862e-02 -6.089795618354516306e-03 -7.656377987629299220e-01 8.164657919554398902e-01 -3.361797440162221373e-01 -4.694324128985594147e-01
-9.669777243372650044e-02 -1.017167949934345977e-01 -7.694723100387610426e-01 -8.635084670286240494e-01 2.249171777631119307e-01 4.514037998477107849e-01
5.373418076601942789e-02 8.689865803625357321e-02 -6.792360702243286363e-01 -6.557611248959943628e-01 5.326574417365045333e-01 5.350265384425920701e-01
6.378812717205935290e-02 5.292412166182427352e-02 -6.241996682412701558e-01 6.471183843131925739e-01 6.359998311781110691e-02 -7.597320835869033617e-01
6.347649995504273113e-03 2.802992225856514724e-02 -6.947960315769516892e-01 -3.903687200256747980e-01 6.644305781950922418e-02 9.182579063057990654e-01
-1.427704463985317029e-01 -3.251272091120219199e-01 -8.189687164204646486e-01 4.838532825930771386e-01 -4.026973616603584105e-01 7.769947463372518515e-01
1.727578524485260184e-02 2.426414045767623373e-02 -6.541424391557011386e-01 7.206398412762693440e-01 -4.912018336924885986e-01 -4.892841482640226669e-01
-6.597301637363284232e-02 -1.045994489804577821e-01 -7.091596159181327019e-01 -8.518762994110705700e-01 2.737439616451264879e-01 4.465098139621694884e-01
-7.146197507269026750e-02 -1.402330926207436546e-01 -7.001891068333718771e-01 -8.705785061669691904e-01 2.010843054793830798e-01 4.490636554988194917e-01
1.592266694211019740e-02 1.354073008907609732e-01 -7.695032300614440546e-01 5.332145298853958604e-01 -5.026167090670756732e-01 6.804841723990930902e-01
1.555917156458397621e-01 1.470129385035311986e-01 -6.291580344104914513e-01 -5.378574872045970290e-01 6.786005394766497778e-01 5.002105869330999433e-01
3.331066103668022665e-02 7.407296785852829357e-02 -6.904659308287303121e-01 -9.440652954331487656e-01 1.558653387536399759e-01 -2.905971681450708055e-01
-7.571029132779677484e-02 -8.787524234815452528e-02 -7.372003272691446396e-01 -8.450774757675518778e-01 2.647291343631961169e-01 4.645024707896134308e-01
-1.084211618490019957e-01 -2.133352514633485297e-01 -7.325694289177631102e-01 8.549301041873380580e-01 9.457593291855237450e-02 -5.100489288948782951e-01
2.486459200238442906e-03 5.475033534016306158e-02 -7.142030752445297503e-01 -9.471749826434296970e-01 1.114761037781640401e-01 -3.007201864538835978e-01
-8.728219522222449567e-02 -3.497939993564405659e-02 -7.911786685974100397e-01 -8.170242692686959796e-01 3.071235883017692236e-01 4.880025050495115924e-01
7.081506270373530421e-02 3.835222777621430379e-02 -5.934559733530406778e-01 6.916844696981307994e-01 -5.015154465860696131e-01 -5.196680201955770073e-01
-5.109148512921617841e-02 -4.242875043639601773e-02 -7.071309697317614829e-01 6.689773895868326159e-01 -3.718463874449204898e-01 -6.435833406527464717e-01
-6.239988033004974927e-02 -7.147846621896020158e-02 -7.192874565814976195e-01 -1.062107094867837109e-01 3.520005013374398195e-01 9.299542635250965805e-01
-9.961734336765110109e-02 -4.057526155439318549e-02 -7.984701997944650964e-01 9.129796661537573632e-01 -7.920464544557004327e-02 4.002433676272665886e-01
5.794582093737436074e-02 5.074805153328829782e-02 -6.315649106828197246e-01 -4.177936211646106068e-01 9.026478530432624492e-01 1.033215539495547231e-01
-7.448590393267744136e-02 -1.029169184114716723e-01 -7.258873830000885929e-01 -9.035951456837756357e-01 2.937254050118348614e-01 3.118352115258147816e-01
-4.009574551934475678e-02 -3.008050900246479059e-02 -6.957093792912073527e-01 4.364515909211472144e-01 -3.229881455715113286e-02 -8.991478161907541233e-01
-6.927300956975709911e-02 -3.982408811397319774e-03 -7.793501413330801153e-01 -7.322093511716204484e-01 3.668892747704324830e-01 5.738133199179507038e-01
-2.394191880821498752e-02 5.981192559569247641e-02 -7.609795179235977480e-01 -7.373167667361741895e-01 4.410597807789001790e-01 5.116935169307720299e-01
1.694287999804572342e-01 1.575394683641047344e-01 -6.284170606374841483e-01 -5.329592744636273416e-01 6.476334562091300429e-01 5.445413833326357977e-01
-6.211504703619414453e-02 3.441752505601118617e-02 -7.946106032674213893e-01 2.255708416928374482e-01 1.226094666855375055e-02 9.741496109760428013e-01
-8.033744598877361198e-02 -1.044573346799874125e-01 -7.319392674940479182e-01 1.639664113837202286e-01 -3.701407856351395798e-01 9.143909529010804116e-01
-6.038871375735315600e-02 4.354273259112265843e-02 -7.948864899987200250e-01 6.595694377871262892e-01 -2.014771869353677025e-01 7.241374868640519935e-01
-7.684533732911420778e-02 -2.815267359165912059e-02 -7.720127266772028873e-01 -2.921934394786376288e-01 4.147960994924404510e-01 8.617233835584949819e-01
4.001531543370355493e-02 1.314988285823763814e-01 -7.286048467716009780e-01 6.609795542958465386e-01 -5.557972492549614341e-01 -5.041779909153932815e-01
1.168698693273885203e-01 1.936413591755774266e-01 -7.143189454271974270e-01 6.401420185822206399e-01 -7.352573279539418305e-01 2.227439286164935583e-01
-1.264702956953154267e-01 -2.519697844621144323e-01 -7.728018851210544105e-01 -1.513281831464455551e-01 4.079963222177471760e-01 -9.003548089738776516e-01
7.283798734949459286e-02 3.310509134154378946e-02 -5.880694998405082696e-01 5.568967022683892765e-01 -2.793741782048896893e-01 -7.821867625797148671e-01
-2.719263667896792275e-02 9.201949055889548090e-02 -7.837287064745276366e-01 7.243022194310484441e-01 -2.967724397014310789e-01 6.223442889276944445e-01
1.043619042631065974e-01 9.596263772000683534e-02 -6.237392518811636366e-01 -3.980108189832899379e-01 9.143922164933567798e-01 -7.398825845103106091e-02
-1.293516180034201268e-01 -2.266438310373603549e-01 -7.692554765745159839e-01 9.353746866752954414e-01 -1.219373383042990922e-01 -3.319721088500595108e-01
1.619893079746193565e-01 1.789985421664427867e-01 -6.490689555729938220e-01 5.390818083300845664e-01 -5.149101162290925515e-01 -6.665271008237461103e-01
1.083942991783205523e-01 1.611422658375029904e-01 -6.818226612942093201e-01 5.444806906101425925e-01 -6.200494106549696571e-01 -5.648712294843196702e-01
-1.247354560179747412e-01 -2.616744352196336831e-01 -7.888592577587102417e-01 -9.060127338531133168e-01 -1.204335686863151032e-02 4.230790513028765409e-01
1.041660789414702686e-02 3.051278296504615628e-02 -6.913541472885303962e-01 -7.342127398071419675e-01 3.954936823450287409e-01 5.518300462371177328e-01
-5.306749739644393837e-02 -2.898447876663680714e-02 -7.198697859800300414e-01 8.127111469359470375e-01 -3.510637765792530285e-01 -4.650320595614565455e-01
-1.682724544044027562e-02 -4.693567818984489826e-02 -6.596324539720020974e-01 -7.684324256957763000e-01 5.023503384833625240e-01 3.964287383187001246e-01
1.690251796437111376e-01 2.019191712053311216e-01 -6.667104362507785265e-01 4.926886620502697878e-01 -7.357447559550597260e-01 -4.646907965214555070e-01
1.408070004583543144e-01 1.244840514635636025e-01 -6.134107631132118543e-01 -6.504749785568035847e-01 1.659059694343188729e-01 -7.411865565278317192e-01
1.618037141772193585e-02 7.725029514218523241e-02 -7.151078239683881232e-01 -7.631515080551913577e-02 4.847717127269952075e-01 8.713049892530551066e-01
1.079573856059808622e-02 2.398978856996468456e-02 -6.702260770286707636e-01 3.342759859807274969e-01 -9.376329324509590224e-01 9.541514125141746516e-02
3.792179874469414624e-02 1.039031976352410430e-01 -7.042037712916235925e-01 4.905648637670463885e-01 -5.505883811993329546e-01 -6.754247174374928830e-01
-9.462641271684142652e-02 -2.013774441791203740e-01 -7.219202312203654159e-01 -8.963470846375697354e-01 1.530497371123869799e-01 4.160981636964507513e-01
4.893744432267483485e-02 5.620931833120555200e-03 -6.049739128044536729e-01 -7.382017514971388472e-01 1.692981412741340064e-01 6.529902858754329520e-01
-8.119619755752797985e-02 -5.952631010048448079e-02 -7.483354607711265594e-01 8.572585523069503610e-01 -2.766970464607982350e-01 -4.342194364333110124e-01
-7.161809037946796630e-02 -7.406777760217894691e-02 -7.378997282383917833e-01 -8.542577087120418744e-01 2.741484013775750683e-01 4.416858851357737814e-01
-4.798957923156554201e-02 -1.188994264630750808e-01 -6.509288221327429458e-01 8.401920491495423748e-01 -2.671038907614753932e-01 -4.719457935886011146e-01
1.621650199908459544e-01 1.569261546810721553e-01 -6.210727896129464298e-01 3.398223642088755991e-02 -1.191270188752768661e-01 -9.922973148113040098e-01
5.720600529186872785e-02 1.594849289793040525e-01 -7.382122497379026704e-01 6.374424985917339637e-01 -5.808942669923798929e-01 -5.061905881824680931e-01
-5.200208146379865087e-02 -3.892266461165747038e-02 -7.265501749438068035e-01 -7.986387718169546401e-01 3.418348977894193896e-01 4.953029525492487206e-01
1.929530523843380474e-01 1.899278050672822682e-01 -6.406850899917888587e-01 -6.343108970862286755e-01 3.625102266022243724e-01 -6.828147782865185977e-01
5.602802388121511101e-02 -4.230419967574389336e-04 -5.905370734811737909e-01 -7.262958516892518146e-01 5.048676210509255302e-01 4.664793897198065697e-01
1.176164229126221566e-01 1.731214956493288271e-01 -7.003690572868485065e-01 -5.481565707534378218e-01 6.392539719607808202e-01 5.393317469537618480e-01
3.853098676981561027e-02 9.244910716145300633e-02 -7.034262823619006344e-01 -8.093568854142038083e-01 4.749567144539598718e-01 3.454816224167633343e-01
-9.028392174498367506e-02 -8.570272820499100219e-02 -7.606542275142734733e-01 -9.008000041013290993e-01 -6.549661200202407108e-02 -4.292662884822213143e-01
-1.039546735815972262e-01 -1.278289095071678261e-01 -7.695443067196128251e-01 -7.763212662730869518e-01 2.446364678916653768e-01 5.809288167319994756e-01
-1.002153262048956495e-01 -6.579718374678099335e-02 -7.795230524936570538e-01 8.579864328011893582e-01 -2.608716265654629218e-01 -4.424988989615451507e-01
-7.325945730618418916e-02 -8.654939246362013117e-02 -7.333079600661710495e-01 -8.552006825692995973e-01 2.751307814508841543e-01 4.392434924176220612e-01
1.085260560160783289e-01 1.612737932013833253e-01 -6.957231421850007536e-01 -4.638666699259167969e-01 6.341430969508514703e-01 6.186196287876932765e-01
6.997850922584541999e-02 7.963473245267448097e-02 -6.386579667091838441e-01 6.022971351897334902e-01 -6.928691943589422308e-01 -3.964472732289001655e-01
-2.408736045244416410e-02 -1.015186474397991589e-01 -6.352803210152279112e-01 -8.255783881626569398e-01 2.619234765292717815e-01 4.998163837266333398e-01
-8.900330665676108033e-02 -1.636921920576089595e-01 -7.106635704000211495e-01 5.396692153912862056e-01 5.640031763006614351e-01 -6.250260435227629197e-01
-6.495736729376438978e-02 -4.804720447851220516e-02 -7.411369075271346807e-01 -9.229166344451337212e-01 2.628041383151829558e-01 2.813518628850383840e-01
-4.581736059495622460e-02 -3.826822301932960441e-02 -6.981925689353420950e-01 4.364515909211472144e-01 -3.229881455715113286e-02 -8.991478161907541233e-01
1.072406111428197278e-01 1.379247680606157378e-01 -6.704091117028032620e-01 -5.986108254746236312e-01 5.963076362811318143e-01 5.348666025631054755e-01
1.159451508548462600e-01 1.408646444379769991e-01 -6.640927399897511574e-01 -5.929620913710594854e-01 6.179826190058352875e-01 5.162300270262744073e-01
2.575346942904979675e-02 1.104659574740580047e-01 -7.264425247852653866e-01 7.536679045528718035e-01 -4.927485219834280006e-01 -4.349523924868451408e-01
-1.049401278685326150e-01 -1.682635968791466041e-01 -7.383656241285907473e-01 8.889667359129993507e-01 -1.462993916653684556e-01 -4.339753799912278165e-01
-1.151656051463912506e-01 -1.702464697110506742e-01 -7.776510765039357231e-01 -9.108767173725426103e-01 1.396556825312648131e-01 3.883296229820067946e-01
-8.057252606603797218e-02 -9.173688943336624768e-02 -7.274200819144159835e-01 8.427529843169611068e-01 -2.611608330903717468e-01 -4.707041817154366536e-01
-2.885257125879607185e-02 -7.594472788181186318e-02 -6.611431223049523132e-01 -8.187693986784914113e-01 3.425116104225267577e-01 4.607629200721657381e-01
-3.644864187211753481e-02 -2.066143675259212234e-02 -6.942919137743959190e-01 4.414662296228665794e-01 -3.698823151084358607e-02 -8.965151637492084769e-01
-2.509433541468317382e-03 -2.035309156218225238e-02 -6.447410825358190767e-01 7.595940576794476540e-01 -4.390412931635875871e-01 -4.798537385863702598e-01
-8.656575764649482307e-02 -1.828373710213457848e-01 -6.937047111528296117e-01 8.979409175305808066e-01 -1.757171107151945244e-01 -4.035165493833462458e-01
-7.317710651985498416e-02 -5.589483646269844536e-02 -7.522757324089740516e-01 -8.231232566097542724e-01 3.058177967514525974e-01 4.784804903214338601e-01
-6.653649047405904571e-02 -1.277408188778983156e-01 -6.955081544119284809e-01 -8.409366840287142431e-01 2.579422003699977789e-02 5.405184101096583982e-01
5.536300914887479913e-02 2.174433548389829302e-02 -6.110143047436716879e-01 -6.738688290251125812e-01 5.922420959007034247e-01 4.417579666644003145e-01
-1.929235583003028470e-02 -2.933282399356283709e-02 -6.641143536513623991e-01 7.875197029340997856e-01 -3.911830581028681308e-01 -4.762231961421820592e-01
2.041004488370478168e-02 4.616260941824108094e-02 -6.787262775414577565e-01 -1.933107161797704143e-01 3.239747445999845432e-01 -9.261054647670742268e-01
-9.657061440563875776e-02 -1.319371234205986010e-01 -7.542133855435784184e-01 -8.880031584121975685e-01 1.987178841814736530e-01 4.146825209197994022e-01
-8.646699872132433684e-02 -1.393285395766262202e-01 -7.255994984257935210e-01 -5.401084561445930188e-01 -5.658723004320769245e-01 6.229537665066432472e-01
-5.234514030337959062e-02 -6.715809819664020353e-02 -7.148360638336421768e-01 -8.567035662611932612e-01 3.308590675117665802e-01 3.957161571134006905e-01
-8.179772209750919842e-02 -1.614104647449937369e-01 -7.045395374878821171e-01 -6.276527146579715666e-01 7.784085916800432825e-01 -1.149496329575113579e-02
1.641940319887531807e-01 1.746819743984846796e-01 -6.434972186145117012e-01 4.831302869893510099e-01 3.613704294912725018e-02 -8.748024004999529479e-01
1.358328549394153539e-01 1.918355023276895055e-01 -7.042061289726386786e-01 -7.588828582148056112e-01 5.962947466020006582e-01 2.617811732775734979e-01
4.111360573364898630e-03 4.674200126830683338e-02 -6.967856188010427276e-01 9.569760459573001254e-01 -1.768332169047682478e-01 2.300583857698795809e-01
-9.429598056811340501e-02 -1.251800721724052046e-01 -7.521522572536425422e-01 -9.553287061703030769e-01 1.606959487341207415e-01 2.480400677862664716e-01
-5.501570158005155559e-02 -1.129762265862607751e-01 -6.715996149279293004e-01 3.612450958124022726e-01 -9.110768710325415354e-01 1.985973711332603142e-01
-1.058240154765283936e-01 -1.564429801243185092e-01 -7.450275676760084176e-01 8.631460079905646232e-01 -1.721701965270637791e-01 -4.746961052271067016e-01
-6.453748392731013805e-02 -7.714991948489814504e-03 -7.553168282195444894e-01 6.397810724648017588e-01 -4.095139314336728176e-01 -6.503679875866624771e-01
1.559237922927050879e-01 1.456094281255670975e-01 -6.265238904179353252e-01 -5.279470357588315066e-01 7.482458462569813173e-01 4.017462893327543028e-01
-3.085276581926115619e-02 -9.980446953525518028e-02 -6.443874088150959301e-01 -3.913131810618034612e-01 -6.747699032825515975e-01 6.257472109017732098e-01
-9.050979863338169673e-02 -1.984569204416728183e-01 -7.133322113330571312e-01 -8.958622656194237255e-01 3.601049123848771294e-01 2.602983924566442120e-01
4.186030173493308221e-02 3.021868792999083536e-02 -6.246288971280922198e-01 7.107994574701070878e-01 -4.687823769040117550e-01 -5.244113026665481181e-01
5.383925013889283295e-02 4.955435056536106747e-02 -6.380266595736225899e-01 -4.163423072554804372e-01 9.062036851088064449e-01 7.385095994232018790e-02
-1.111349157140765348e-02 2.193093087962639381e-02 -7.087187694089881473e-01 -7.705926126026942935e-01 4.239975059964941062e-01 4.758288981460736533e-01
-2.684314518205155320e-02 -7.525578009874898944e-02 -6.426770017498335541e-01 8.132991888838069228e-01 -2.116060324659872482e-01 -5.420030593870712732e-01
9.748733680506495303e-02 1.836459167333556186e-01 -7.260461486575121581e-01 2.209137079762424349e-02 -7.081152104452651530e-01 7.057512451794468733e-01
4.156802407688689471e-02 1.255721299078753073e-01 -7.203632888643768384e-01 6.273899539679168580e-01 -5.581639559814550733e-01 -5.429869647636740293e-01
1.217762722316394763e-01 1.174728717350475432e-01 -6.164229531297312770e-01 6.016453043389561328e-01 -6.021209608532259727e-01 -5.248554813165930977e-01
