1.880766852506354780e-02 7.778585288152874144e-03 -8.082401700429423519e-01 -3.785639720942448605e-01 -8.221100302339662269e-01 4.252345437766489877e-01
-4.056715609921476146e-02 9.311836332743521349e-02 -6.032592903749429691e-01 -2.757066940804790423e-01 -9.516502235812787092e-01 1.354535743231424505e-01
7.620809519031220003e-02 -6.760431288263141214e-02 -8.796916252741208142e-01 4.001122473373441846e-01 -8.963836976934119738e-01 1.908047589557077262e-01
4.096118598088698687e-02 5.802549128145822327e-02 -6.331404129480868725e-01 -6.896464517961369278e-01 5.175210205837988964e-01 -5.065172897136894781e-01
-6.501057036518859134e-02 9.784687162815333683e-02 -5.394319192194177992e-01 2.489093681209597619e-01 9.667941123507828305e-01 -5.790743290361275580e-02
8.677941820116873151e-02 -1.262539384314717295e-01 -9.320451073567596056e-01 4.012669766645599601e-01 6.678483710906235604e-01 -6.268679020894948328e-01
8.317565543092157732e-02 -9.100871884792552380e-02 -9.068693915686584228e-01 -5.427510588078421350e-01 -5.865640794386743906e-01 6.011354829613924089e-01
6.398926805815105534e-02 4.418209782128542512e-02 -6.479272678563277044e-01 -4.431234208052936552e-01 6.624515558025522166e-01 -6.039863989764938657e-01
4.923401576331457724e-02 2.970425332877081950e-02 -7.088170317444598689e-01 3.205985309808503381e-01 8.918085923442702345e-01 -3.192084218090928682e-01
9.655451418867892766e-02 -8.823435979557796294e-02 -8.875016433478603028e-01 -2.556999270622928866e-01 9.171064890267458525e-01 -3.058320373757026367e-01
1.160175880952366290e-01 -5.720633603644836862e-02 -8.384047869627929694e-01 -5.900743076955845545e-01 -6.201424830746571359e-01 5.169483650071592384e-01
6.611797133046089237e-02 -3.860682287177002320e-02 -8.498728624318043767e-01 -3.764132246525299097e-01 -7.763705555532505187e-01 5.055312500495109385e-01
-8.178743865942228464e-02 4.451377902678028964e-02 -8.015376419673592157e-01 3.336106199447554932e-01 8.593762836422861318e-01 -3.875259441292268625e-01
6.722876268878442974e-02 -1.088645686487234032e-01 -9.377659985311981306e-01 -5.571492637405734971e-01 -5.430112607930832613e-01 6.282702193843369143e-01
-6.122457205390149926e-02 6.708154432035921821e-02 -7.410545699730232139e-01 -2.505336334714642343e-01 -8.816868750201615201e-01 3.998264034762685770e-01
3.137196575271392670e-03 -2.222906200205704980e-02 -8.606428677707815833e-01 4.765157801803412418e-01 8.104394359146764870e-01 -3.407647751065558395e-01
-9.672517997984419330e-03 -8.228083635101342275e-02 -9.515266528324749506e-01 2.661373190981778381e-01 5.872156168965542156e-01 -7.644270708550514604e-01
7.473898312632089314e-02 -1.429386699249512727e-01 -9.568105218950785362e-01 4.072281211325678996e-01 6.452298263461710981e-01 -6.464083295813323193e-01
3.318210898895280342e-02 -1.055597362227132796e-01 -9.563216371094988011e-01 1.933776800690184539e-01 -1.780234839518634593e-01 9.648381791848646971e-01
-2.136252675111369181e-02 -5.931768408524612513e-02 -9.325479926281757814e-01 4.862635989189074692e-01 7.550773287978266302e-01 -4.397794218718863446e-01
-3.145589690025108603e-02 -2.685386670978879772e-02 -9.060737739076167863e-01 -5.648365077474539753e-01 -7.922911646062809066e-01 2.307258763175111527e-01
5.164290622399601155e-02 -3.524590203683939369e-04 -7.956891095796427837e-01 -3.415656525803404953e-01 -8.417687477208058988e-01 4.180410031778128976e-01
3.337331711190253541e-02 3.245839939019370957e-02 -7.209322580812537185e-01 5.428403789297844284e-01 7.519877362458031733e-01 -3.739502206701855735e-01
-8.768011187134940043e-02 1.030374140461366439e-01 -5.410132321756266904e-01 1.906720159916171775e-01 9.813190844920459677e-01 -2.563272770082882998e-02
2.298192154085960254e-02 -4.593836660245363690e-02 -8.934471585443265473e-01 -4.121054495840792420e-01 -7.578120638979215506e-01 5.058556851848917679e-01
-5.094401492854027519e-02 -2.135177579893715594e-02 -9.140915261200216468e-01 -2.325782928295805907e-01 -6.959095793458841550e-01 6.794241643326446312e-01
2.713288272525003330e-03 5.636203599579787948e-02 -6.981901604326672395e-01 5.141931280511926605e-01 -8.562006624548017530e-01 -5.025786184159083264e-02
2.787704772809089515e-02 -3.984182938142843966e-02 -8.671302095383256470e-01 1.754983473172937736e-01 8.599621140849644796e-01 -4.792342771833177362e-01
-5.586827079531467982e-02 -1.483951931184706620e-02 -8.940585718314935093e-01 1.830751333491579813e-01 6.498319736060770291e-01 -7.377004145507976007e-01
-8.586058195964635376e-02 1.123255410787022956e-01 -5.377427008303465872e-01 -2.897858823517425186e-01 -9.570853529510793267e-01 3.430678669022248130e-03
-2.366081602679370732e-02 3.022640519746857407e-02 -7.809747161984246233e-01 2.408077437099161722e-01 8.085864973688046131e-01 -5.368421619453779270e-01
8.608172982800650630e-03 -2.472515551439999001e-02 -8.589288585312234714e-01 4.765157801803412418e-01 8.104394359146764870e-01 -3.407647751065558395e-01
3.765041081080815200e-02 5.156233614514920544e-02 -6.772662406652354417e-01 -4.259672776882879042e-01 -8.540909709933670602e-01 2.984635515543500595e-01
-5.604148550598768604e-03 7.761062092266889090e-02 -6.340554129205332456e-01 -2.648914354917360492e-01 -9.444866129039815039e-01 1.943645169476462542e-01
-1.043867344546663273e-01 9.967272903230110781e-02 -6.717017634726458741e-01 -1.403908392742738431e-01 -9.325819498995345791e-01 3.325376955616413666e-01
-1.905259535068950030e-02 -1.059868340745811349e-02 -8.725860071265277851e-01 -4.002649092085356353e-01 -7.998703411344942893e-01 4.472084970454723307e-01
6.287249762486619986e-02 -8.274861500194595487e-02 -9.111977513512786730e-01 -2.432066493866476831e-01 -8.052073590474485565e-01 5.408249574769579127e-01
1.087255667402658582e-01 -7.557859996910176736e-02 -8.600902977980897646e-01 -2.870230933905227322e-01 9.082843961285496093e-01 -3.043635977082858601e-01
-9.777916354600545146e-02 4.032800169836762982e-02 -8.436518047381159624e-01 3.590576493057888730e-01 -6.483624443870618093e-01 6.713447290203706785e-01
-3.656427821976361570e-02 8.309863993630885182e-02 -6.661231495661831259e-01 -3.930735449802930659e-01 -8.849749631808966344e-01 2.496247238948817448e-01
5.152883133603790994e-02 -3.797546621379356557e-02 -8.508004418942045621e-01 8.908368756308387981e-01 1.233949337772144786e-02 -4.541556978828589219e-01
8.886513799518630519e-02 -1.150674984350642249e-01 -9.308102083207260291e-01 -4.160531709999270022e-01 -6.683854812924204802e-01 6.165716562561116554e-01
-1.192931920907680104e-01 8.759950150710141270e-02 -7.427602489140975317e-01 -3.078247482979089011e-01 -9.218194786819848829e-01 2.355690409578526379e-01
-3.238342514574818476e-02 -2.570930567644978681e-02 -9.045365796336841679e-01 -5.063185784961967695e-01 -7.981613688318186517e-01 3.264658119529647018e-01
6.742838599689197909e-02 -1.822652343320824431e-01 -1.005458481858299891e+00 -9.572307882175778992e-01 8.626017529521498584e-02 -2.761673410206089696e-01
8.948346546490688891e-03 6.295331678464395619e-02 -6.524475223210768338e-01 -3.056610093149140783e-01 9.519634821462144014e-01 -1.835418330087175420e-02
6.894504393282462062e-02 4.362985347982727830e-02 -6.708080268510060451e-01 -3.463514079299823689e-01 -8.964497247809618541e-01 2.764391310307868221e-01
-8.698541305848093985e-02 3.206455700653221969e-02 -8.525469445569158200e-01 -2.852169134632540071e-01 -8.310195560255324576e-01 4.775539862440909000e-01
4.289655593702716013e-02 -2.099487642392794048e-02 -8.240959043096649506e-01 3.540020794866872711e-01 8.163907720190056727e-01 -4.562769280615808221e-01
8.262364655157017346e-02 -8.365830483160591191e-02 -8.862087458098267811e-01 3.942104615541810464e-01 7.324902794313691290e-01 -5.550280195988256393e-01
-5.029462255541540527e-02 3.759171203422045221e-02 -7.898403953329319327e-01 4.330291899729642457e-01 8.735137530367778069e-01 -2.223947928503749449e-01
4.775860995219616961e-02 -1.040331156205806934e-01 -9.350475272954141825e-01 4.636516780841179464e-01 6.471589873930929659e-01 -6.051548284911292264e-01
1.129367701706361082e-01 -1.267440933796596010e-02 -7.519710247005255699e-01 -1.687040678600681687e-01 8.788949950903104380e-01 -4.461866482680408308e-01
-1.355797269376632364e-02 5.593526748127432974e-02 -7.024905654638162744e-01 1.911729167431004128e-01 9.548098738650765416e-01 -2.275764062324831249e-01
9.700700104767535914e-02 -1.233657488892843657e-01 -9.224370457656070332e-01 2.428549069137911354e-01 7.605569912918683784e-01 -6.021416421282909104e-01
7.232447138240792606e-02 -4.517418886166218138e-03 -7.690183774530158223e-01 2.429221031461228641e-01 8.965873794350118775e-01 -3.702970737677014901e-01
7.651197309351211520e-03 4.777518741719039008e-02 -7.005397632488092885e-01 3.381581511407740770e-01 8.935804280071577566e-01 -2.952339470650318098e-01
-8.235426881720166181e-03 2.568119702574950952e-02 -7.702744752377094217e-01 8.376766572873503014e-01 5.436799820718855036e-01 -5.205665116202959353e-02
-1.882058674063680215e-02 6.641651521313009232e-02 -6.660644120517986710e-01 2.956672120786301705e-01 9.267042914853881319e-01 -2.319483904755866577e-01
-3.463092383380684397e-02 6.106185469718448944e-02 -7.288571639981551442e-01 -4.513875109752464865e-01 -8.886231105956053922e-01 8.122981134388052027e-02
-9.284375032211034107e-02 2.650610633661011281e-02 -8.544793457832472461e-01 7.226615085397158911e-01 6.899804935811011397e-01 -4.107630159449841140e-02
-4.804190994591369529e-02 5.807697474222674183e-02 -7.304317789952761153e-01 3.148328615894033233e-01 8.985239501318879052e-01 -3.058348905910116544e-01
5.948725013264317268e-02 -1.618558924977275826e-01 -9.948054755385377090e-01 -4.452297152981888329e-01 -5.701048560968524637e-01 6.904715444319775575e-01
-7.656463587918824198e-02 6.379355346460667542e-02 -7.689168248441318188e-01 -3.351944394444741904e-01 -8.805187379786962865e-01 3.351588277726080811e-01
-5.090529295861623282e-02 9.664108030017497242e-02 -5.800507572562764169e-01 -8.080929370563448844e-01 -5.345860866281576529e-01 2.473934539619878081e-01
-6.754686070834718670e-02 9.369866207339293263e-02 -5.955022178851289150e-01 2.858064994351974253e-01 9.544175392484118836e-01 -8.603374719029928397e-02
-4.440214349098278029e-02 7.125949026670370945e-02 -7.069986099200992191e-01 -2.333321024077529005e-01 -8.959505936566921624e-01 3.779267967638691994e-01
-3.361532389882157523e-02 2.836202895275594452e-02 -7.937177087263894704e-01 3.611370619567419449e-01 8.531869340483301256e-01 -3.763669460120837029e-01
-9.901877181472315548e-02 5.133660825426305391e-02 -8.166617508503718481e-01 2.180888445415350707e-01 -5.174464435509864568e-01 8.274578139959608558e-01
-6.316175222875682060e-02 -1.972787906378834985e-02 -9.096458357886206825e-01 8.005766724124128153e-01 3.432546293000638959e-01 4.911753770835262656e-01
-1.076149911345027493e-01 9.171000420596457647e-02 -7.124264070802754922e-01 -2.763824135438138763e-01 -9.298894997766939952e-01 2.427308791413776701e-01
1.623286081736175640e-02 4.128213418998033513e-02 -7.314282634194019250e-01 -4.660350849395668016e-01 -8.087154669416468655e-01 3.588740630565611656e-01
-7.627670187849523720e-02 7.656904978587790629e-03 -8.851478548473524777e-01 -8.723626596144701262e-02 -9.954823028579401489e-01 -3.748090977759051257e-02
-3.522059243431381603e-02 4.430911043252165615e-02 -7.715494832528251301e-01 -5.828546169803257015e-01 -6.596036863555317931e-01 -4.745560793108767883e-01
9.080589328766654200e-02 2.463558638149078092e-02 -7.031812442993394807e-01 -3.280169222851060939e-01 -8.955664521662562993e-01 3.006087630940768585e-01
1.004170917539623092e-01 -6.548063406656896845e-02 -8.625630927533545211e-01 -4.137643461737668393e-01 -7.298306931773479445e-01 5.441931873256655727e-01
2.308440488437487476e-02 -4.318686309828723147e-02 -8.720851982150449322e-01 8.588808669727518996e-01 4.870225559767061285e-01 -1.585329187205309631e-01
5.041421353689558467e-03 -7.996865488771272290e-02 -9.376376128929485576e-01 5.134280283557752789e-01 7.350015166177975567e-01 -4.429045385500567367e-01
-6.803826966824269573e-02 9.947806061956575296e-02 -5.419273192095511726e-01 4.957798159372508451e-01 8.601813224295201676e-01 -1.195427398574567673e-01
-4.478435759879365041e-02 3.381644694847944083e-02 -7.976881616951503329e-01 6.084121342479258399e-01 7.165743731601911248e-01 3.411097222741724666e-01
-4.055804988019429125e-02 -8.466006103485653952e-03 -8.843050622047162745e-01 -3.103264066255669307e-01 -7.373346424136648647e-01 6.000292879914915778e-01
5.769309297809009640e-02 2.133505764120321654e-02 -7.339069425341600006e-01 -8.164109888216281030e-01 -3.587760961257627779e-01 4.524961990780130838e-01
-9.579543976605697786e-02 6.132358314773735108e-02 -7.951565665359514590e-01 -3.569701751315944582e-01 -8.795288597542022524e-01 3.146446867912942036e-01
8.520714604804415296e-03 1.970390483804273021e-02 -7.908050388675346154e-01 -1.913434043513340121e-01 -9.143943158600043031e-01 3.567502441963519844e-01
7.279753194522711746e-02 -8.422697936451926937e-02 -9.070715182218783701e-01 -4.014631603670165694e-01 -7.129514220363771804e-01 5.749152987044566787e-01
-6.241904818416815163e-04 6.819960401743627165e-02 -6.334933117385097567e-01 2.685932646279801106e-01 9.424787352342242075e-01 -1.989761086858939654e-01
-3.817049141342498952e-02 7.015374078425690163e-02 -6.625139066203568072e-01 2.450322836549285732e-01 9.161917712846199269e-01 -3.170990668500952014e-01
7.490297130059525577e-02 -2.576286758471046934e-02 -8.069963084179330171e-01 6.044493734067049040e-01 6.275407827492901491e-01 -4.907479199901412237e-01
6.241328772738704428e-02 -2.230179279731192010e-01 -1.040916764599278954e+00 1.755250523582180533e-01 -5.170011581176207072e-01 8.377951769374683000e-01
-4.151203445770835186e-03 -1.312211604586217654e-02 -8.600784311585475406e-01 1.759704293662121000e-01 -3.376975378625966528e-01 9.246592782804977650e-01
2.355132561897111190e-02 -5.576177223902916563e-02 -9.063851159785059064e-01 -3.844953539630263650e-01 -7.293540150710891012e-01 5.658675140706779239e-01
3.279084182653218410e-02 -2.792964101217564402e-02 -8.438987438993235113e-01 3.684011672963165007e-01 8.014743202347701656e-01 -4.710833195294908404e-01
-1.635952515141518224e-02 8.660661399263862303e-02 -5.945232241794553563e-01 -3.591713383839221230e-01 -9.189166559378388888e-01 1.630586677350250591e-01
3.942850567393170469e-02 3.630258726360851423e-02 -7.237727753333919045e-01 -3.074729120317953868e-01 -8.949179960741895368e-01 3.233916954240549924e-01
-5.222593455084111741e-02 7.938701764839678487e-02 -6.283488806828717577e-01 1.985238676852238149e-01 9.645081005125044626e-01 -1.741045605521590600e-01
-7.598909550800884982e-02 4.657013817342939982e-02 -8.118786736879842758e-01 -3.473492756766604073e-01 -8.497441771066597260e-01 3.965896042008981159e-01
-4.429643561729387086e-02 -2.175779046872765299e-05 -8.594282622381769210e-01 3.742570880508678255e-01 8.010747536001922020e-01 -4.671304648468947995e-01
-1.010700029106949838e-01 4.707904673892662067e-02 -8.329200382434982508e-01 -1.250355446257097602e-01 -9.885927370368965406e-01 -8.396733208843591700e-02
-1.081245410797600642e-01 1.084095670264182826e-01 -5.210543583263911316e-01 2.116747885610618107e-01 9.508548076383355196e-01 -2.259843328168868737e-01
6.092074061836548482e-02 -1.196924468045686418e-01 -9.512214718688019044e-01 -8.689035297317758699e-01 4.440849075005523505e-02 4.929853364644461999e-01
-6.512056728118119364e-02 9.390198005455890895e-02 -5.881447259778572745e-01 1.958972001888558134e-01 9.744056255696676994e-01 -1.102631571122101445e-01
-6.556818442005041270e-02 9.502622735893138939e-02 -6.364726261334175961e-01 -2.398435059582243734e-01 -9.459296860735727508e-01 2.183852597004184715e-01
8.659350793342334221e-03 6.820323366222315331e-02 -6.208227317014557434e-01 1.881104824249497376e-01 9.670666652441659572e-01 -1.714541086570418871e-01
-2.500706171535149389e-02 5.431290894864454488e-02 -7.237150196289364734e-01 8.218986139133617197e-01 -3.483245158584548640e-01 4.507246388863911379e-01
2.169503085130307374e-02 -1.403358235919228980e-02 -8.357937865385026699e-01 9.019912953632164276e-01 1.102656196488339679e-01 -4.174364576943962457e-01
5.650215086210983589e-02 -1.544077791875191064e-01 -9.935007654433241076e-01 2.100926409984453791e-01 -5.885227414014757574e-01 7.807061323261077490e-01
3.943167663649289889e-02 2.595515121007821446e-02 -7.502582159564267217e-01 -3.643712104841838606e-01 -8.550500088570921475e-01 3.689486459167144461e-01
4.720570123266524393e-02 -4.851197531440652744e-02 -8.786642115682478105e-01 -3.775967717744124208e-01 -7.651257742753023727e-01 5.215392866171840724e-01
-8.669076926405355765e-02 6.183093034432424195e-02 -7.611537379353215949e-01 3.332997084290621470e-01 8.935316807571557218e-01 -3.008528541403495682e-01
2.355543789811527511e-02 -1.129253679878252509e-01 -9.625271371306616253e-01 2.881860978336318602e-01 5.626144794702558904e-01 -7.748636786595672898e-01
5.435316085165749905e-02 -1.260052814669845034e-01 -9.622339258488327163e-01 -8.677991770494118962e-01 1.057789895029090793e-01 4.855258939460457279e-01
-4.571297703188548223e-02 -1.474982866334877477e-02 -8.979126248088823425e-01 -6.422156539570947897e-01 -5.151914781945804434e-01 -5.675709599760579982e-01
-2.190692723932919153e-02 7.560858042094110998e-02 -6.623771522318738780e-01 -1.094701083418072041e-01 -9.829169744213009929e-01 1.479544415491079734e-01
1.689979887390364102e-02 -2.322013397708887553e-02 -8.514605557781118605e-01 9.485537146760207872e-01 -4.620913406872859119e-02 3.132260626176251450e-01
-2.384626409643864076e-02 -1.795325034660100270e-03 -8.477569515534724154e-01 4.551705479424201228e-01 8.353032026614964911e-01 -3.083639601335475544e-01
3.422282075831277470e-02 6.398323740719956410e-02 -6.216769189521988981e-01 -7.438748464246096592e-01 -1.844845200225429249e-01 -6.423516752751683434e-01
-9.090865123844910078e-02 9.537181236272718188e-02 -6.332636036304256644e-01 3.307054834301381696e-01 9.433805712400380461e-01 -2.582597599429430762e-02
-3.359822131130128786e-02 4.292272055670716402e-02 -7.717191074254107219e-01 -5.980319512479085331e-01 -6.406511277816162586e-01 -4.815847980976581399e-01
-7.472014719031404642e-03 6.965841565804886670e-02 -6.364356131139683459e-01 3.096867463937011400e-01 9.291252228271609237e-01 -2.020406875222459375e-01
6.847135309985477591e-02 -2.541497438720486390e-01 -1.043213662198142266e+00 -1.985612016419926462e-01 4.865862919528656239e-01 -8.507686111311633104e-01
-9.361935947023161675e-02 3.555478599087629615e-02 -8.343133690805810687e-01 1.473298196790763237e-01 7.121246391237762152e-01 -6.864200045061056299e-01
-2.404602802854583637e-02 9.259164989425067160e-02 -5.582828552870472416e-01 -7.003711686913213219e-01 -4.878650423348519782e-02 -7.121096145051188930e-01
3.487755622377226861e-02 -8.833983489819154100e-02 -9.385417195734795381e-01 -4.285737904837123580e-01 -6.901974500385383848e-01 5.830540164261990288e-01
4.366596510942022391e-02 5.218933571789330372e-02 -6.497951518100485435e-01 -7.047804430901073447e-01 6.860971320105674343e-01 -1.804307415175858131e-01
5.853357089330066959e-02 -1.816486134350497050e-01 -9.963005393800545839e-01 3.672460432776449291e-01 5.822371229436332785e-01 -7.253483827535802675e-01
-2.630323257830402897e-02 9.341274354971307314e-02 -5.720294899760501872e-01 -2.975003618388156745e-01 -9.480036122127966092e-01 1.130605410267575273e-01
7.739800261392951186e-02 -6.674036489200503575e-02 -8.781280774742735717e-01 4.001122473373441846e-01 -8.963836976934119738e-01 1.908047589557077262e-01
-2.065122817079382417e-02 8.102618734033129044e-02 -6.011849153515768096e-01 1.478660499380272664e-01 9.829672438355776531e-01 -1.091376599621452920e-01
-6.965990152558461379e-02 1.826955670593847017e-02 -8.471800276194310086e-01 3.545404925811224683e-01 8.270580162343972308e-01 -4.362064613262377488e-01
-7.972256534050758958e-02 9.102839548953563231e-02 -6.783972976335315153e-01 -2.837878032454286825e-01 -9.349879444456281608e-01 2.127487402323989529e-01
-9.182868203759244567e-04 3.861607674861353839e-02 -7.584755948398630432e-01 -3.413261413161492452e-01 -8.718844555404209329e-01 3.511608768658770474e-01
-1.238196995014177598e-01 8.903303234123936816e-02 -7.329236714917025663e-01 8.012464939003171027e-01 -4.701632643721385674e-01 -3.700683191619942858e-01
9.406877532905341677e-02 1.294638674269288706e-02 -7.271537876365102848e-01 -4.628805473442375029e-01 -7.958831647344818405e-01 3.902711710881612284e-01
4.934114651770740712e-02 1.851915462522834080e-02 -7.405787584216895203e-01 2.132017815389846693e-01 9.228897993607620975e-01 -3.206546718581458899e-01
9.531988272821095842e-02 -2.546302494243078002e-02 -7.885542993539060852e-01 3.617204343823757218e-01 8.157524794951839242e-01 -4.513382540264952447e-01
4.045854201547966628e-02 2.020794974388655241e-02 -7.424530008256927660e-01 3.315754118084903723e-01 8.713055948258336958e-01 -3.617793619172188224e-01
2.366838322691741658e-02 -1.293888506073043350e-02 -8.294988180226168240e-01 -8.124572547224849783e-01 3.310077139100727761e-01 -4.799448953586554767e-01
6.201220016032961413e-02 5.915161620029201969e-03 -7.551738565257043456e-01 3.745343121060790703e-01 8.414465882384277728e-01 -3.894761715395896884e-01
-7.182761163173111141e-02 9.685718898703098156e-02 -6.362657621338916325e-01 -2.662248347542955917e-01 -9.462072834210227823e-01 1.838915826269817422e-01
-2.787060454580923829e-02 3.479628829027339026e-02 -7.935085933426093696e-01 -3.460951446757062899e-01 -8.497775185909015594e-01 3.976132791160174040e-01
5.410833591199163545e-02 -4.784012533314223325e-02 -8.727279470327491406e-01 -3.738261967453393453e-01 -7.660332381275363201e-01 5.229216506425757860e-01
-2.351316324982553538e-02 7.488297521015166436e-02 -6.675827890899102002e-01 -6.254057996872280922e-02 -9.846869645554265915e-01 1.627275566454415567e-01
-2.802329385619224331e-02 -3.009566054774179961e-02 -9.088024886467015451e-01 -5.648365077474539753e-01 -7.922911646062809066e-01 2.307258763175111527e-01
4.138221195805529690e-02 -3.076309604311057433e-02 -8.546831278471371807e-01 -5.313022079755216343e-01 -6.735477954526765121e-01 5.138592521704506977e-01
3.114939533513480519e-02 -2.337943083435725308e-02 -8.375701081172493012e-01 4.006309813911619333e-01 7.820209040358025998e-01 -4.774286568698828948e-01
-3.064905934383734681e-02 8.289347311937159124e-02 -6.011755459851602090e-01 2.539104028096488275e-01 9.564699164837032752e-01 -1.438568948875904585e-01
-3.499946792648693517e-02 3.426011285863188316e-02 -7.812572896503908737e-01 3.324904348715393421e-01 8.583226744935493757e-01 -3.908097966647908761e-01
6.559158276498129603e-02 -1.539096165559167284e-02 -8.032354377716973692e-01 -2.894704544031649895e-01 9.416283010428810885e-01 -1.718807688565600345e-01
-8.334085527540179006e-02 1.070831697392103238e-01 -5.697039075629771743e-01 8.417824719530624389e-01 -3.561472923418860792e-01 4.056616522055481733e-01
1.254431481908399766e-02 5.406343644924843650e-03 -7.975709234259367175e-01 -8.166305065063668156e-01 3.359149619276483034e-01 -4.693354388881171846e-01
-4.351867275796166695e-02 8.438839456107179171e-02 -6.144390052532801016e-01 2.693129100298947698e-01 9.496910132210798494e-01 -1.598672446073563513e-01
-9.390124023970956857e-03 2.618986121049741989e-02 -7.954819703813874598e-01 -3.644064871820540397e-01 -8.544690308210837193e-01 3.702574610555651180e-01
4.325796410518573110e-02 -1.571016791996941442e-01 -9.917197509954881474e-01 5.803167829594246818e-01 6.484963542154715821e-01 -4.926306019573546413e-01
-7.082825004420562065e-02 4.874297666156349185e-02 -7.838693607750525372e-01 4.094017022520732851e-01 8.847958916359968118e-01 -2.225454478014900483e-01
4.829764863718326307e-02 -1.081604102447652170e-02 -8.009344423733539831e-01 3.998772510027051030e-01 8.010719186264121383e-01 -4.454009040389553253e-01
-7.183044014382218567e-02 1.036162939331311122e-01 -5.871225085713072112e-01 -2.684796649115324674e-01 -9.608452419533212163e-01 6.852073076562244236e-02
5.099229851920338008e-02 -1.344936878969536509e-01 -9.717894699002923575e-01 -7.732568330027133063e-01 -6.147256898313253615e-01 -1.555191193262585037e-01
-9.727439251207244120e-02 1.090814498848946129e-01 -5.873802808140724530e-01 -1.616552752774790547e-01 -9.657171136609051798e-01 2.031207236040002417e-01
1.131181999775450336e-01 -7.119036715708006169e-02 -8.517568555560476318e-01 -3.792094106199404568e-01 8.763630375629752889e-01 -2.969647273510314101e-01
1.530173084216955408e-02 -1.400724335869176634e-02 -8.506701389742281627e-01 -3.957647113109849513e-01 -7.944111049775705036e-01 4.607399370244000258e-01
6.420867768569564482e-02 -6.483001379486079407e-02 -8.809841054261312587e-01 -3.230702224242213427e-01 9.118616961988049718e-01 -2.532466749795590499e-01
1.226501358346603586e-02 -6.956211310645872559e-02 -9.206744971120698340e-01 2.869701446931863797e-01 6.329157853002372880e-01 -7.190728369035751522e-01
-8.065630380359795071e-02 1.039000720671072187e-01 -5.450008520451189442e-01 -8.379604480732819605e-01 3.612240998230227262e-01 -4.090714328474570061e-01
6.449055053857001563e-02 -1.380167120778064693e-01 -9.701117247543025179e-01 -2.611412399350708236e-01 -7.351340819905963775e-01 6.256062134450207646e-01
1.137258865185444973e-01 -5.281059474925174115e-03 -7.480954796714148758e-01 -6.676690251391305120e-01 -6.981490714359165350e-01 2.584684640781739762e-01
-7.544795252598819613e-02 1.056197124172748511e-02 -8.691355653421803940e-01 6.432943284005461226e-01 7.417971467549123732e-01 1.894977575433581529e-01
8.650910847832865569e-02 -1.417968551275199975e-02 -7.914964762335102710e-01 -4.396157453446813274e-02 -9.406606058777976509e-01 3.364892338754171819e-01
-6.628956928915209768e-02 1.048498034359592046e-01 -5.512374994047856136e-01 1.068728331850547081e-01 -9.942555149167414674e-01 -5.845390033577899797e-03
-7.276051889084643454e-02 8.965222507348129255e-02 -6.749462523906819555e-01 -3.040924214285321003e-01 -9.361547144959844191e-01 1.764713850930900996e-01
-5.061687088700272952e-02 5.113243142598288167e-03 -8.556861558257613520e-01 3.742570880508678255e-01 8.010747536001922020e-01 -4.671304648468947995e-01
6.581561523326449892e-02 -4.626433497579909154e-02 -8.467037241999577635e-01 3.778000450830517609e-01 7.748982848333259010e-01 -5.067541554813473903e-01
-3.498020158076145525e-02 8.216117805542730301e-02 -6.136191838575121293e-01 2.505457070815886311e-01 9.571565942851069098e-01 -1.451829972122151147e-01
2.651889137331435789e-02 -1.111229444466952238e-01 -9.677914629440640404e-01 -5.608351671000753047e-01 -7.038104251969984348e-01 4.360215599346558557e-01
1.014750764308938596e-01 -2.927334025515819851e-02 -7.915610614923271893e-01 2.602361138999959578e-01 8.654685114693975168e-01 -4.280670749744411308e-01
4.913521688570009899e-02 -1.478849857687801195e-01 -9.807452116357581184e-01 9.567544437817555592e-01 -7.980845919752414808e-02 2.797347746426619985e-01
6.602945269029242281e-02 3.108599905280192907e-02 -6.885083382597289026e-01 2.241915457544714496e-01 9.388274687350933734e-01 -2.614213739553016835e-01
3.489267894449610968e-02 -2.521243500968395335e-02 -8.532462408726494418e-01 -4.027064043205078048e-01 -7.691406074077319355e-01 4.962361110960313848e-01
1.094060033394109177e-01 -1.534880412560890584e-02 -7.573647569277572877e-01 2.596004029811438407e-01 8.687980155909899027e-01 -4.216605730646223460e-01
6.832668010992792862e-02 1.089075600275720042e-02 -7.379424328605088679e-01 3.776729782395985002e-01 8.495180096537122694e-01 -3.683507469540774348e-01
1.178133435023448472e-02 -3.208627722163741704e-04 -8.125431190049794417e-01 3.910016019948089339e-01 8.232114321468271267e-01 -4.116317349528125780e-01
-6.930172025254166535e-02 9.733474512180580185e-02 -6.287249595069953623e-01 -3.005386440592077713e-01 -9.463262485720167483e-01 1.189249960717516374e-01
7.562702025288521590e-02 -2.084127400009638462e-02 -8.013166944523723023e-01 9.119138583826796873e-01 -6.018586886692373766e-02 -4.059443016946384097e-01
-2.180226695008005353e-02 7.337915491507458754e-02 -6.743610633339469640e-01 -3.180117248236004057e-01 -9.189883793948271373e-01 2.330856096201306404e-01
8.770569237642251992e-02 2.741065356983374279e-02 -6.985003898575808945e-01 -3.033994741180627841e-01 -8.967139407203966739e-01 3.222621101255618847e-01
5.448612534442848210e-02 3.677124114908644770e-02 -6.826439089307004826e-01 3.445842778600567979e-01 8.912796445173635229e-01 -2.947579866952972361e-01
5.943969816978900665e-03 6.344445456715437637e-02 -6.495181973935177933e-01 1.864783595850153519e-01 9.641493183765031949e-01 -1.887906599400667185e-01
1.145609668778621582e-02 -5.562696880378754059e-03 -8.318540225743097372e-01 8.130811105652571147e-01 -3.301070834085926831e-01 4.795085203887839431e-01
9.186867188031054565e-02 -1.196280855681007838e-01 -9.216949925140178745e-01 4.696359793712869268e-01 6.401766760507342502e-01 -6.079604183831420761e-01
-7.421719697848232211e-02 1.015599738786941847e-01 -5.922170575112043478e-01 8.332796300053280092e-01 -3.531654298339589881e-01 4.253460207741205368e-01
2.515118296607730258e-02 5.026295462066188852e-02 -6.979757854563739539e-01 -4.391815124127078085e-01 -8.417051649849841555e-01 3.140891822277341872e-01
-1.172564417778558243e-01 9.084043088547485989e-02 -7.003617570645120916e-01 5.906112149050189997e-01 8.038960014173037738e-01 -7.021119379192961030e-02
-6.578166674558191297e-03 -3.720943711548594518e-02 -9.000873851068534881e-01 1.367317257410383124e-01 -3.185591691097471312e-01 9.379896006630270566e-01
1.047759015135779070e-01 -1.833536404974208181e-02 -7.670842732411096154e-01 3.523847316041855970e-01 8.314282441856857275e-01 -4.295952463686647516e-01
-2.849277922952216796e-02 8.374156869146222315e-02 -6.325228877955257900e-01 -4.208422797231439194e-01 -8.804756939185700571e-01 2.182987128135197297e-01
1.039572459876774296e-01 -1.131935131537437911e-01 -9.183894889874379963e-01 -6.906472653914385029e-01 -4.322187576781935103e-01 5.798217832389941373e-01
-7.693713388208978099e-02 1.051547973594590818e-01 -5.832139704843598560e-01 3.240214657122270081e-01 -8.749813975650856390e-01 3.597466381674044311e-01
5.485175853393536860e-02 2.443522275562508977e-02 -7.360041805332551146e-01 -4.549562384546089744e-01 -8.070695777656137215e-01 3.763688586167391326e-01
6.282011536053237755e-02 -1.372883059841380204e-02 -7.961528713024679238e-01 2.336587319844733723e-01 8.861402805104522384e-01 -4.001987009277577778e-01
4.004650105444548802e-02 1.049469186811314951e-02 -7.735849155436098634e-01 -3.987055051524101557e-01 9.098682065369151362e-01 -1.147770312146934452e-01
-1.177798987506617481e-05 7.470644357834377303e-02 -5.983567000176732709e-01 2.818775544577409309e-01 9.438221666498471940e-01 -1.724666983313327961e-01
9.791968179164420305e-02 -1.218912806170005698e-02 -7.786334922030231365e-01 -3.553961280292656233e-01 -8.307110904066183910e-01 4.285004976161088108e-01
3.202561568091750327e-02 -7.239215855940756006e-02 -9.063298935843471238e-01 8.740786820085834075e-01 4.434264456839302482e-01 -1.983921493564048122e-01
1.629681225580000697e-02 -2.789657189688547496e-03 -8.346018931909761074e-01 2.383613757474159212e-01 -7.609826472365337491e-01 6.033980984032648598e-01
-1.100337363894196702e-01 1.084407933467099044e-01 -5.230138504223770246e-01 7.075791257673872403e-01 6.487827646677106763e-01 -2.800226866673162229e-01
-1.332524355794987951e-02 3.856662101954533989e-02 -7.569836385193042805e-01 9.365503776485781806e-01 -2.673155099567780385e-02 3.495122520136758615e-01
4.845508064245529489e-02 -1.123614619694407457e-01 -9.579328909754357690e-01 2.101827164727949893e-01 -6.356538294253057941e-01 7.428104972555659158e-01
-2.239162257422034133e-02 7.950025267257026726e-03 -8.262393355153860863e-01 3.569669895421884731e-01 8.237587923809328583e-01 -4.404497932253958470e-01
-2.676049841539570023e-03 -9.745725240216861207e-02 -9.622595794992224727e-01 4.080156283436484066e-01 6.638527436892421862e-01 -6.267557592265132760e-01
-2.682875218688855149e-03 2.184503326058846989e-04 -8.290024382600230668e-01 -1.825030233012970571e-01 3.209710231530528146e-01 -9.293386082488818145e-01
-3.625843411214487583e-02 -3.323427546210750566e-02 -9.060338708976850564e-01 3.748942540992622474e-01 7.463432588622022079e-01 -5.499327578843669073e-01
-8.843589571516929926e-02 9.470024300149697261e-02 -6.738837381402766891e-01 -2.838378053715723270e-01 -9.349777224141386789e-01 2.127269584023600002e-01
-2.223095236271419983e-03 -3.345120577797041500e-02 -8.802254363639973045e-01 3.760747431216748260e-01 7.582506235606162326e-01 -5.325634041650844086e-01
-2.627394664324559856e-02 7.468610025350924664e-02 -6.671277913662641001e-01 5.342880748422270676e-01 -8.405263199208536928e-01 -8.973159199352989668e-02
-3.205122255178807084e-02 8.214922152443328296e-02 -6.085987430910314577e-01 2.539104028096488275e-01 9.564699164837032752e-01 -1.438568948875904585e-01
2.671695058713242574e-02 2.938140053045166719e-02 -7.538288041111705917e-01 -1.621109799123404693e-01 -9.424343170382465384e-01 2.924680978508840123e-01
6.543170302717523854e-03 -5.087524009128176899e-02 -9.065069033295845013e-01 1.196841916810209849e-01 -3.203104561664443795e-01 9.397217172823586484e-01
-8.554054602534265361e-02 9.476236644970435774e-02 -6.697479121058708129e-01 -2.837878032454286825e-01 -9.349879444456281608e-01 2.127487402323989529e-01
-9.095829441935794624e-02 1.095820899203064497e-01 -5.204819162965285129e-01 -9.190462882996104366e-01 5.414685021120250324e-03 -3.941124219671736650e-01
-2.492997068139549480e-02 -2.574275469912638142e-02 -8.877762732038093629e-01 4.725596672744908355e-01 7.981557515790318469e-01 -3.736773435555508782e-01
-4.196468270291903169e-02 8.372798500469476324e-02 -6.157443097724647485e-01 2.693129100298947698e-01 9.496910132210798494e-01 -1.598672446073563513e-01
7.563862098615115048e-02 -4.857289070159807876e-02 -8.556473300221519862e-01 -5.259266370079719310e-01 -6.530748980516843938e-01 5.448801244496508378e-01
-9.251089661611387738e-02 1.119530476664280239e-01 -5.360835901964676742e-01 -2.010328137742471988e-01 -9.774885964954247441e-01 6.404569858634873158e-02
2.501586614235512540e-02 -3.906680769057577912e-02 -8.692895524270000118e-01 4.996176892381278267e-01 7.948493980123618741e-01 -3.443785694257693319e-01
3.206596739286268066e-02 -2.059263064745503469e-02 -8.481780608058413495e-01 -3.669982994923236541e-01 -8.005078092847757176e-01 4.738137771781564811e-01
1.094408929245787726e-01 -2.843306997125449875e-02 -7.882178030315111217e-01 -4.542340048653769613e-01 8.586801956394251034e-01 -2.373600439008192176e-01
1.093219528266309859e-01 -9.206598978732563610e-02 -8.894151253776441113e-01 -1.086952001667214479e-01 -8.672184821986134162e-01 4.859191883367538489e-01
-5.003721539537222228e-03 5.873778125403072981e-02 -6.831361558156726632e-01 -3.074600724793296047e-01 9.515531583224445811e-01 3.858849256715592060e-03
2.642739868717788182e-02 6.187662703536139959e-03 -7.875399187914425836e-01 2.006067794343448507e-01 9.104849357559233747e-01 -3.616270202937167388e-01
4.676825852641301740e-02 -1.391073398983981302e-01 -9.693964536932953013e-01 8.913904472687258496e-01 3.733246552818511588e-01 -2.570053934779338300e-01
-7.693046316558860287e-02 7.419230761698025756e-02 -7.109183690053978433e-01 1.585807717536857342e-01 8.569156852607514585e-01 -4.904565701304266501e-01
-3.788906048153387746e-02 -3.176955078263690030e-02 -9.192091046238554108e-01 -3.975097483389120612e-01 -7.480218544074871412e-01 5.314595989389211406e-01
6.294497580775122725e-02 -1.322615045671897971e-01 -9.640167705548625676e-01 -2.743276321922878958e-01 -7.304193089655639515e-01 6.254853981557371156e-01
2.460189717852498403e-02 -2.336116702543343179e-02 -8.430056561737322429e-01 4.242539741922160546e-01 7.695744637676522615e-01 -4.772459639419080468e-01
-7.789537106310916170e-02 4.258716024440347553e-02 -8.024776244638354150e-01 3.293802821777246370e-01 8.597530813735706490e-01 -3.902989479631898129e-01
-7.763976037814651274e-03 3.556762336847505562e-02 -7.513769809414980738e-01 3.293848199598365944e-01 8.747283175514536380e-01 -3.554659067387884730e-01
-3.051121503468037788e-02 3.199999787509417732e-03 -8.475186518464296048e-01 6.196629287505351913e-01 7.393242869105799420e-01 2.634719216851608148e-01
6.783235748853273794e-02 -1.978367246694498205e-01 -1.012225548041925549e+00 -8.008984737210372851e-01 2.821719104226155239e-01 -5.281483198494194564e-01
6.249509754300750647e-02 1.578487821653807872e-03 -7.637879124362769723e-01 3.865472918974142136e-01 8.268668719156410107e-01 -4.085001435192135988e-01
-5.339088445568120067e-02 4.400140023917093607e-02 -7.932089745819193016e-01 -2.726926393923562730e-01 -8.286891810291062699e-01 4.887872396723745294e-01
7.749519807944692251e-02 -1.200481433008559196e-01 -9.340416904850362689e-01 8.705084213117870728e-01 -1.232277252804189482e-01 -4.764766690484161793e-01
-3.220220970622136164e-02 -1.229805396023238122e-02 -8.702231902406790676e-01 3.749968121171504132e-01 7.879120094349726378e-01 -4.884383853569641554e-01
-8.159008907236718622e-02 9.629853442249898532e-02 -5.709204240361057670e-01 3.344788829538966057e-01 9.356870963362324822e-01 -1.123099933567069109e-01
6.805652631334284386e-02 -9.989269842795614820e-03 -7.963865316379602488e-01 -8.374959267970485399e-01 -2.769358416363393305e-01 4.710701775909032496e-01
-2.223529659678409251e-02 8.768708223166142568e-02 -6.019763464595270230e-01 -3.801792659836711885e-01 -9.054467552971332545e-01 1.887588383043564966e-01
-9.657446379563141420e-03 6.833931591083908241e-02 -6.784443289478359063e-01 -3.306124700975035524e-01 -9.123569924064023340e-01 2.414541633999529868e-01
-7.059399113899490763e-02 2.736475758964241820e-02 -8.462280661868465392e-01 -4.970654767986935618e-01 -8.555355042992347503e-01 1.448617018343408558e-01
2.087710924736381479e-02 -8.166598436352405510e-02 -9.406926009205942574e-01 -4.105457621596514395e-01 -6.854169792674303929e-01 6.013782018868505386e-01
4.105361509960270272e-02 2.077912527492779132e-02 -7.405091371989273030e-01 3.235272655134103781e-01 8.823178018225634744e-01 -3.418265716067356297e-01
-3.041554715583314264e-02 7.908334638858198484e-02 -6.285028135746798528e-01 1.412993969751314693e-01 9.812224812145201591e-01 -1.312894617769632677e-01
-5.910065903028503820e-02 8.782304624745793098e-02 -6.265539392575033562e-01 1.659128484056133779e-01 9.288977633648710652e-01 -3.310919388171143507e-01
-3.447256607230275716e-02 8.284477085622897474e-02 -6.082363823621182997e-01 2.505457070815886311e-01 9.571565942851069098e-01 -1.451829972122151147e-01
-6.991941341635206364e-02 1.974808406062025096e-02 -8.452899009577341527e-01 1.564843893825659249e-01 7.081480656691405695e-01 -6.885048677886164148e-01
8.967109034771078568e-02 -1.382673076614320262e-01 -9.522183228217090400e-01 -5.806335173166208286e-01 -4.978008674221162111e-01 6.442507392019957146e-01
-9.886079110060022601e-02 1.063104270842895605e-01 -6.238687143551050474e-01 -2.570315506911079462e-01 -9.544231549291335437e-01 1.516945064412129340e-01
-1.002823420688533501e-01 1.080030121298413415e-01 -5.483158459468620016e-01 3.989184119290131725e-01 5.888367915384493667e-01 7.029476037050973458e-01
7.886490827845832330e-02 -1.488909586978874322e-01 -9.608476277051269943e-01 2.749307963594543880e-01 7.294599213956671768e-01 -6.263395886342992824e-01
-6.753601629606834078e-02 9.733983870899987415e-03 -8.614111050819127646e-01 3.877605461395330355e-01 8.102335825778083089e-01 -4.395034704307818618e-01
-5.068472485301306341e-02 2.264916714544575743e-02 -8.213165457610592801e-01 3.713950103381559731e-01 8.440574025268635650e-01 -3.868240524263265034e-01
-2.166880831639500515e-02 -3.647376746120744445e-02 -9.136800989836927345e-01 -4.131291420431213446e-01 -7.570359597997864398e-01 5.061826424964911419e-01
1.054736654773339583e-02 5.959292921538106302e-02 -6.777762704317301656e-01 6.007156869486710571e-01 -7.927257990158248502e-01 -1.035686778350877191e-01
-4.799257429618100645e-02 8.543990622367199361e-02 -6.569772601761864061e-01 8.332796300053280092e-01 -3.531654298339589881e-01 4.253460207741205368e-01
7.177753087919921948e-02 -2.444203325166918739e-01 -1.042948820723480052e+00 -9.580424063463840456e-01 1.041181937137785202e-01 -2.670470920639465562e-01
8.202471958429036203e-02 -4.260893132389989568e-03 -7.648196225307383189e-01 -2.306350489750949306e-01 9.597987643975729455e-01 -1.599806427201349301e-01
1.306143634796213052e-02 2.401036077651406281e-02 -7.679664976219523487e-01 8.951897293138342260e-01 1.658201619212469058e-01 -4.136895241983237770e-01
1.180318534327261942e-01 -4.534988544628002632e-02 -8.195859107224197082e-01 -4.177005350761749947e-01 -7.625492057077540853e-01 4.940090807581885568e-01
3.259366302552996197e-02 1.909592532095189671e-02 -7.523125431950711262e-01 3.285600271542349904e-01 8.720841692031428005e-01 -3.626534301253364623e-01
-6.169364291708794024e-02 4.998811871529033890e-02 -7.680850016813444148e-01 3.276089599139549446e-01 8.801615656311346791e-01 -3.434937958243881040e-01
1.100534286540350154e-01 1.681392180994143153e-03 -7.361353715878452553e-01 -7.006160603361851757e-01 -7.080906705387887135e-01 8.800419475758801402e-02
3.904719592636118203e-02 1.439693664702904399e-02 -7.740874823741725752e-01 -5.036278317728528631e-01 -7.505424475078099622e-01 4.278376345680230952e-01
-2.582293881385009163e-02 -5.541511292887371654e-02 -9.317367163155078069e-01 6.832786208698831132e-01 7.196119553272267710e-01 1.236485342099768320e-01
-6.395421625554346956e-02 8.351017353540945987e-02 -6.673686746138239867e-01 -2.426895804527390288e-01 3.948104073790551505e-01 -8.861300749691650713e-01
-1.435668893892437341e-02 -2.197679671654867786e-02 -8.720091616215311925e-01 3.781867813926558242e-01 7.726605109893794898e-01 -5.098730166791477503e-01
-6.519483479346588339e-02 1.049109869942822237e-01 -5.467489663392427479e-01 1.438637262042805898e-01 -9.894446905217798571e-01 -1.739059173458516044e-02
1.204648932575907647e-02 -9.534919081830644030e-03 -8.218996861662200004e-01 4.470699949872019019e-01 7.927174568523421838e-01 -4.144001124320534912e-01
-7.451259169665039837e-03 -5.895495348032558924e-02 -9.198995633398220351e-01 3.909618742295871141e-01 7.163428513270543307e-01 -5.779288297459421742e-01
-8.969443958645366421e-02 1.039072383543814537e-01 -5.576849496658937699e-01 9.206616967574828836e-01 -1.149528112461447628e-02 3.901921304120554157e-01
-1.070610126455275452e-01 1.124230176543462578e-01 -5.788455138619846840e-01 5.945153780716339736e-02 -9.613562747809237807e-01 2.688115094107920156e-01
3.770730880607107288e-02 4.687056416271469933e-02 -6.855334573926239461e-01 -8.089603860935629109e-01 -4.544064417001124623e-01 3.729582811425372069e-01
-7.719896771925428836e-02 1.054263788787232065e-01 -5.736156028856513878e-01 -3.502228728794022361e-01 -9.301069743839593951e-01 -1.106569270963852492e-01
-7.212632487019800254e-02 8.996021379279021263e-03 -8.742816267243554984e-01 6.432943284005461226e-01 7.417971467549123732e-01 1.894977575433581529e-01
-7.354784121341090275e-02 2.545402786008545484e-02 -8.412981106505432738e-01 -3.234222785538040101e-01 1.305480361878908757e-01 -9.372060819171794677e-01
-5.896843638314064329e-02 1.034667408710429198e-01 -5.503610207724316528e-01 -2.600467535148567322e-01 -9.628323971626608913e-01 7.300315719465431952e-02
9.894810118780926478e-03 1.335322854068017248e-02 -8.102609284535078338e-01 -2.782755519651460285e-01 -8.601645747161222877e-01 4.274103667225744863e-01
1.536984761150484401e-02 1.821034431901739220e-02 -7.718981366558185231e-01 5.018120804524245360e-01 7.561352593301755576e-01 -4.200525032775037082e-01
1.899907216541471197e-02 -1.079864153106569608e-01 -9.606381000901149658e-01 2.966156578256548548e-01 5.658582455180326543e-01 -7.693007198176199379e-01
-1.485071945753802447e-03 4.164508049121220384e-02 -7.286647761248424837e-01 3.433570304985213428e-01 8.848282804286848879e-01 -3.149362852401322299e-01
-7.911979446910653857e-02 8.526604481584240669e-02 -6.950203085485076038e-01 5.128403823502557246e-02 -6.980951945826746607e-01 7.141659798134365467e-01
1.139516318129109446e-01 -3.880495919597964916e-02 -8.010238235178032129e-01 9.048668957237835375e-01 -2.611576194686150987e-01 -3.361734653667502459e-01
-1.741727341024994560e-02 5.738899439294069260e-02 -7.261303278060021738e-01 -2.454098169602034196e-01 -9.162174058743394189e-01 3.167328320721667922e-01
-3.830762871517694873e-02 8.818576567406205546e-02 -5.811268644552445295e-01 5.361537320955220842e-01 8.238536209698336110e-01 -1.838596931764459597e-01
1.003053251383497213e-01 -5.210795298069412912e-02 -8.303291600250899407e-01 6.211154424530436202e-01 5.723229428572126354e-01 -5.354083079534903700e-01
3.609377885863615087e-03 -6.436641044620924901e-02 -9.321285641174469339e-01 -3.990159282090550152e-01 -6.996594918586725997e-01 5.926743494428706738e-01
5.127909679448799246e-02 -1.543751097283241613e-01 -9.777008002087231864e-01 4.963264687721392621e-01 5.820875571018748751e-01 -6.440761696129969627e-01
-5.418214646283821961e-02 -2.522957422925533114e-02 -9.184320914210711839e-01 4.962635866132253382e-01 -2.114191425730509166e-01 8.420358654804758203e-01
-8.074462505813624624e-02 1.067160661496102253e-01 -5.770246610496054807e-01 -2.700288087597249587e-01 -9.610849081286180207e-01 5.831159239130288136e-02
-1.202840993692170200e-02 -6.172336864136919454e-02 -9.380645439063143298e-01 -3.256258849422325463e-01 -6.536661650674456814e-01 6.831459051341864930e-01
-5.479859146267115726e-03 5.862616391268545002e-02 -6.938216930967312512e-01 -2.715889217175386228e-01 9.623967414183491886e-01 -5.654176124574003363e-03
-8.361178986104831831e-03 6.158389489236681252e-02 -6.961331596543004485e-01 -7.908777874972509059e-01 -4.619060872206051660e-01 4.014412682223934548e-01
1.294384165706478039e-02 4.245795159938422873e-03 -8.244045195920813862e-01 2.383613757474159212e-01 -7.609826472365337491e-01 6.033980984032648598e-01
2.702856147372731041e-02 6.033649190430343673e-02 -6.631530469000080918e-01 -3.278727859461184058e-01 -9.121573045634359111e-01 2.459034118663224189e-01
3.105422728169658642e-02 -1.352573847916832550e-01 -9.882760678923212527e-01 -2.571129449682620915e-01 -5.343049533585140232e-01 8.052398092160518717e-01
9.899318098787622533e-02 -4.879082260950824701e-02 -8.323477015306067761e-01 9.047894622236951623e-01 -1.762236511801590078e-01 -3.876870565465014296e-01
4.988904921318566138e-02 -1.518108435427858727e-01 -9.844435329849064997e-01 9.567544437817555592e-01 -7.980845919752414808e-02 2.797347746426619985e-01
4.608448325276612301e-02 2.975743058927777032e-02 -7.117899493646148157e-01 3.612228664068864448e-01 8.717117940554570676e-01 -3.311141629248268159e-01
-7.302133490744461275e-02 1.042676229075969463e-01 -5.888987048168088378e-01 3.240214657122270081e-01 -8.749813975650856390e-01 3.597466381674044311e-01
4.921580277901454331e-02 -1.515563055546753357e-01 -9.781298011085398647e-01 8.936573830457269496e-01 3.517743945238775427e-01 -2.786238630936380689e-01
-7.271141088364102556e-02 9.134870104037220995e-02 -6.234750374305126908e-01 2.407658209571765795e-01 9.512921966979123178e-01 -1.925486327151592070e-01
7.689523587680713312e-02 -7.561844948072385386e-02 -8.932739685053281420e-01 -3.853525901941793341e-01 -7.371430094173361258e-01 5.550887901027996563e-01
-9.078651389736949739e-02 1.115980166141224000e-01 -5.488697390262049502e-01 3.735085775080866366e-01 -8.850213753269342565e-01 2.779001758587194559e-01
1.117779322517389005e-02 -1.008481511241603734e-01 -9.685689444899184819e-01 -4.253614670850738300e-01 -6.664126968800719863e-01 6.123411955407400686e-01
-9.896658073678817058e-02 9.884377379202267944e-02 -6.219487935088289232e-01 2.724815550856751201e-01 9.543156160022338019e-01 -1.226193589624775537e-01
6.511314945864773995e-02 -1.279667088014186105e-01 -9.544459401623988093e-01 3.560006503998950911e-01 -8.921993395524362436e-01 2.779278241145500261e-01
