-4.155451177998500945e-02 3.206408402108683331e-02 -8.997257602098593932e-01 2.909648155255983859e-01 4.748241701653504454e-01 8.305910447102958782e-01
1.201048810344981926e-01 1.231431931476951180e-01 -8.625778427676479287e-01 -3.741961399788296116e-01 4.157863022787673390e-01 8.289143500159069644e-01
-6.002411250995359770e-02 -8.894908419643310360e-02 -8.879020625746295581e-01 -5.037485180868185308e-01 9.336681832736594411e-02 8.587898856884369492e-01
-6.296733809840364578e-03 -1.125170126853695801e-01 -8.533338821567433286e-01 -5.693348931655101142e-01 2.288786472185364573e-01 7.896026496103147885e-01
6.325011690520473961e-02 7.003306981921021690e-02 -8.629561432660882714e-01 -4.533551521221719782e-01 4.485022667990521406e-01 7.702693183039255320e-01
7.477670362521608716e-02 4.502217371175030319e-02 -8.396338079578842262e-01 4.204235851410255687e-01 -3.109950969324976611e-01 -8.523649797716428278e-01
3.649534454270984135e-02 -5.115336942175453122e-02 -8.384632569615056985e-01 1.543386249780235031e-01 -6.293082506355874850e-01 7.616762530904251927e-01
1.299323644118425547e-01 2.559052918303672541e-01 -9.474300122511475353e-01 -2.550732851555998493e-01 6.201974655495352540e-01 7.418171762138315861e-01
-4.507224237508882132e-03 -1.408233118274305196e-01 -8.425664249851402277e-01 4.968047166470309084e-01 -2.260177428410993158e-02 -8.675679992464412349e-01
7.589121364280929094e-02 1.862398321347054631e-01 -9.251861477067842010e-01 -2.705217001120407971e-01 4.808887799233718674e-01 8.340047908209532457e-01
-6.713458827645744920e-02 -1.040845527878566656e-01 -8.898192764799984777e-01 -3.567743425347301156e-01 1.401251436553669627e-01 9.236216826301089089e-01
9.103191200390930993e-02 1.920321339771017405e-02 -8.220622743611595284e-01 4.159956635281463755e-01 -2.823091482730689661e-01 -8.644357423933322071e-01
8.989813574246101335e-02 2.314558249820410640e-01 -9.344594303593763973e-01 8.736182895810217230e-01 -3.322438227664441524e-01 3.555349861027322644e-01
9.229616576228043268e-02 1.542593930508628398e-02 -8.202266455550067947e-01 4.285675235512669823e-01 -2.658375780909549846e-01 -8.635162186269981222e-01
-5.845572281285051769e-02 -2.473938504342265143e-01 -8.811091128297338093e-01 3.906310561336389098e-01 2.976455973723327597e-01 -8.710995788937020423e-01
-1.458610377913617528e-02 -1.190924385761023829e-01 -8.521259635535959331e-01 -5.254598177024540073e-02 5.755753899000539686e-01 -8.160587542212889289e-01
-5.715501934759262964e-02 4.506415770056660525e-02 -9.103344926802212633e-01 -5.961155359236008922e-01 -5.009460218345799243e-01 -6.274546605441915226e-01
-6.862717308805371674e-02 2.926580103494976631e-02 -9.071605388248609181e-01 4.697695035753305381e-01 -2.260815003394076317e-01 -8.533485622621450606e-01
-6.413391712227790864e-02 -1.011447390344810959e-01 -8.803746320559154848e-01 5.192843134262189464e-01 -7.272395350670142478e-02 -8.515016314815935239e-01
1.217544457022609779e-02 3.570445757606035414e-02 -8.752347242434774799e-01 -5.031116654826386370e-01 4.246928718344029074e-01 7.526716526270487151e-01
-4.430261687989138497e-02 -3.030831085418072418e-02 -8.795731865052146548e-01 4.612663159033635885e-01 -1.737095604923814263e-01 -8.700910150130743981e-01
1.139717072936484964e-02 -5.029646277231925033e-02 -8.462767060094910088e-01 3.936968401137450058e-01 -4.300929864637634270e-02 -9.182336294834767543e-01
1.245118850074073413e-01 1.672056120143895208e-01 -8.779037938584124401e-01 -4.916686479349766659e-01 -4.253167099310759536e-01 -7.598471141559970388e-01
8.783770262236421933e-02 4.829996546356982862e-02 -8.430277118204589915e-01 -4.582531093959846813e-01 4.258894934120566744e-01 7.801424402826275806e-01
-6.930222096309621160e-02 -1.582701230541456727e-01 -8.811973567537101371e-01 3.153055447833179037e-01 -9.139695348869034119e-02 -9.445787475493405694e-01
7.649198967661267889e-02 1.014582151164717533e-01 -8.626415417575099553e-01 3.983445458284199936e-01 -4.006983902269181108e-01 -8.250832823893029522e-01
9.999575984845497645e-02 1.682290508516934985e-02 -8.254551226434472255e-01 -4.629689347609796668e-01 3.301339372500454172e-01 8.226003579637360952e-01
-6.981196762094100949e-02 -2.269436184613124463e-01 -8.932943040922757261e-01 -6.712321266959939692e-01 -1.795056868556934027e-01 7.191836625491700996e-01
-1.001294917654738936e-01 -1.019471759425510243e-01 -9.013282911291168320e-01 5.241701631049788812e-01 -5.912602197688172218e-02 -8.495585639823126645e-01
-5.204968977145174591e-02 -1.519070270742288453e-01 -8.739544071248951385e-01 -9.648983499725186097e-02 6.248972653798091637e-01 -7.747213172896687539e-01
-7.612058237659537208e-02 -2.939120114115865157e-01 -8.992871407680996798e-01 -7.830395819189450712e-02 3.096099500736885779e-01 -9.476339846939060285e-01
4.217238866770901123e-02 5.711828446059392939e-02 -8.619418087805921225e-01 2.449690041233371432e-02 3.292424245557982743e-01 -9.439276072574673826e-01
-1.102829404446785122e-01 -7.596288740783911642e-02 -9.095838318079094709e-01 5.018905557345474389e-01 -8.015268843706530033e-02 -8.612092757284828259e-01
-5.571458043690233342e-02 -2.513013253249692935e-01 -8.817290586087900284e-01 -1.728771559836483618e-01 6.987083396722030271e-01 -6.942046852416933200e-01
1.253941062293039699e-01 2.512375842172899221e-01 -9.445585186510515596e-01 -3.168000970803686034e-01 7.168240057577637270e-01 6.211288459404075146e-01
-5.770814309895949679e-02 1.294799555888083709e-01 -9.458658347469494077e-01 5.948218642257170341e-01 -1.590916575383651832e-01 7.879573556612935459e-01
-4.738034101794235536e-02 -1.372028768846984270e-01 -8.808529299183428529e-01 -4.373030730580135250e-01 4.547294012922091684e-03 8.993026989902662693e-01
-3.975357060732764847e-02 3.669327622261955163e-02 -8.951004125910554388e-01 5.824886137510878470e-01 -1.870928180755229986e-01 -7.910140910722736063e-01
8.695819315937382277e-02 2.082600970185803646e-01 -9.342933378371830466e-01 -2.705217001120407971e-01 4.808887799233718674e-01 8.340047908209532457e-01
9.615195749944556447e-02 6.112005205409735270e-02 -8.355692475401570452e-01 3.950265588978565390e-01 -3.350933228287070742e-01 -8.553750538570400463e-01
3.962416518456363806e-02 1.309788912485921053e-01 -9.002187454401178179e-01 -9.282011386579069878e-01 -6.084033385207365807e-02 3.670709740240071239e-01
5.888037686394989589e-02 1.573659864754330118e-01 -8.987206007290998722e-01 -2.428923869462066287e-01 -2.427198249061454094e-01 -9.391966646880215430e-01
6.912059302097461888e-02 2.235489196656457456e-01 -9.430530261297142003e-01 4.351291449799566391e-01 5.605825759117922802e-01 7.045635548146892413e-01
-5.441346310146250032e-02 1.057575186529092007e-02 -9.033405450205678200e-01 -4.750958740700093053e-01 2.232895313264589010e-01 8.511320083522087021e-01
-2.059560194651095105e-02 -1.016491084077567886e-01 -8.637942270149379098e-01 -4.899564390989623597e-01 8.922746524169562765e-02 8.671684653122520015e-01
5.418888783222183120e-02 1.582301081381023433e-01 -9.020028249741889326e-01 4.006926049883771657e-01 -4.516147824775303410e-01 -7.971759683754905401e-01
-5.277734828112825433e-02 -1.493527997001192764e-01 -8.723624062855399597e-01 4.165742674635749543e-01 1.201484637005826167e-01 -9.011271976572317044e-01
-6.251892031546792301e-03 -1.390236186446129896e-01 -8.437084858362829953e-01 5.224369193981642789e-01 -6.338101903925251468e-02 -8.503190646312135392e-01
-5.418077910689047400e-02 -2.586524557008680961e-02 -8.942665952163857401e-01 -3.099838236417794546e-01 2.457463076798973023e-01 9.184327854242352318e-01
4.254786866763513725e-02 -2.563368725801079204e-02 -8.422329376245930588e-01 -5.215319892189975715e-01 3.374861349712954262e-01 7.836501087369361906e-01
6.641426801623405429e-02 9.635429858213977183e-02 -8.651071761590068965e-01 4.090383796942739236e-01 -4.061416472715920767e-01 -8.171514953107535950e-01
-1.978930083747972718e-02 4.711978270131622626e-02 -8.889821740568492059e-01 2.293190002306611519e-01 -3.697063313583707211e-01 -9.004054779302180789e-01
1.892019278127584150e-02 -1.374093579182142921e-01 -8.370462337073052428e-01 -5.666505243023493010e-01 1.787045195654228258e-01 8.043456209831468806e-01
-6.417352419229500893e-02 -2.013427148748646034e-01 -8.879072127597261721e-01 -3.909419302326284096e-01 1.402417780849399623e-02 9.203084969849958386e-01
-5.204101212456242048e-02 -1.262711196652845369e-01 -8.714030603929295848e-01 4.803730329856253367e-01 -6.355406946587308092e-02 -8.747586120950844313e-01
-8.640948341367614416e-02 -4.135507854269593331e-02 -9.092568176440347649e-01 -3.669028116905465042e-01 2.050932336568110081e-01 9.073693251822897432e-01
-5.233071256254263198e-02 -1.767779653714464938e-01 -8.763276682321158306e-01 -9.079084883538944828e-01 2.430765880285149505e-01 -3.414907745860231714e-01
-7.112951515308247631e-03 -8.427196903205069756e-02 -8.501541783277354325e-01 5.738233224818477529e-01 -2.922106592738678565e-01 -7.650749801049729903e-01
1.061076283140624243e-01 7.133363144037543901e-02 -8.349599495761310664e-01 3.799564984360442876e-01 -3.536007206017459104e-01 -8.547511858348874059e-01
-8.453166393076731733e-02 3.491143778056448460e-02 -9.197307906216455331e-01 8.834597737122701355e-01 6.431093354120617778e-02 -4.640721194591664323e-01
-5.935092968570968713e-02 -7.207223997960375550e-02 -8.821078130510698889e-01 2.992758311916475233e-01 -2.105624246440229719e-01 -9.306435634508941623e-01
-2.569328040375673528e-02 3.137268149106759579e-02 -8.943786065675961572e-01 -4.166287508759095037e-01 2.839629530856810913e-01 8.635887477372771182e-01
9.214866296959742242e-02 -2.111120006120620340e-02 -8.174662576056690444e-01 -4.656977626519879232e-01 2.380109323305758529e-01 8.523358434045014143e-01
-2.349831606774630682e-03 -2.275296213184235892e-03 -8.749134540249877690e-01 -8.538246326362447514e-01 3.454974896323791955e-01 3.893776847243631267e-01
-2.153822587549489992e-02 9.988179636931238115e-02 -9.155194069949895708e-01 1.939608528719038438e-01 5.479213803847660103e-01 8.137329712322441955e-01
-3.906921873930142147e-02 -2.123055914470695082e-01 -8.645091040745286337e-01 5.211500711518168849e-01 6.173841956675771986e-02 -8.512290942442315433e-01
3.047106934331879693e-02 -2.336166580636797260e-02 -8.408682943627100448e-01 4.501015551648786528e-01 -2.001629982056986057e-01 -8.702547697010702965e-01
-6.275815723634657617e-02 -2.757171837996185912e-02 -8.944753649076497837e-01 9.281441131541047218e-01 1.993614723255939802e-01 -3.143302539838504495e-01
-8.164329221397148562e-02 -2.697577841290350609e-01 -8.989411006187409958e-01 9.426504246795137654e-01 -2.622879383275119811e-02 -3.327494962063972661e-01
1.672137389672446323e-02 4.827973838838729714e-02 -8.808816538763708515e-01 -8.290415530964256874e-01 4.392601808033512745e-01 3.460355426832243397e-01
-4.814936373877050368e-02 -1.324217611018298768e-01 -8.776585138026550270e-01 -5.262283724432209597e-01 4.891779386777581756e-02 8.489350678814417961e-01
-8.246456975672572520e-02 -1.481767037545147214e-01 -8.977832907286806829e-01 -5.076070079584797945e-01 7.393416664154204600e-03 8.615569991947543693e-01
-2.974211004777795042e-02 3.175631730422564386e-02 -8.964660860367643647e-01 -4.283594142322880161e-01 2.634745644288882249e-01 8.643433149724584208e-01
-8.353162633161607953e-02 -3.134881438587238112e-01 -9.078104084076998870e-01 6.409394849200831246e-01 2.071679725509027181e-01 -7.391062222844066998e-01
-4.290280224868348036e-02 3.590874031744135247e-02 -8.974072305393733240e-01 9.147641319197564735e-01 9.612391193728453409e-02 -3.923860044738695652e-01
-5.110402325804978135e-02 5.844908455427629684e-02 -9.100801549848085426e-01 8.826570288588458935e-01 7.949191021173064586e-02 -4.632468085340304409e-01
3.495382790691295427e-02 -6.597675779828839071e-02 -8.291135108337378545e-01 4.769413395219405105e-01 -1.411992065669203100e-01 -8.675193039465398659e-01
-4.744817406289201372e-02 -1.593660756121615674e-01 -8.783582209101044036e-01 -9.205587597129878397e-01 1.424710014020167115e-01 3.636943547474885685e-01
3.428488471884196670e-02 1.218600418370121979e-01 -8.908722222491057829e-01 4.684260254487288000e-01 -3.836953941148357750e-01 -7.958359775841801209e-01
9.759654315443751227e-02 1.466271387101124139e-02 -8.259370805743274646e-01 -4.477502721383339601e-01 3.189333744980988872e-01 8.353449565486722461e-01
1.208246614133910019e-02 -1.618553905811665194e-01 -8.365556680667046718e-01 2.790193820811747716e-01 -7.891064133759539967e-01 5.472287024562740854e-01
-8.312254153101211740e-02 3.645367263769141303e-02 -9.180479348203313128e-01 5.531814728155061145e-01 -2.029315701926879267e-01 -8.079659868786540633e-01
7.537486648443147974e-02 2.043675912819315210e-01 -9.221833692119976167e-01 5.129514394113453557e-01 -4.633657338579599827e-01 -7.226154008129794803e-01
5.823644010862473464e-02 -5.123693282665778281e-02 -8.280747803173682531e-01 -4.688586779930017379e-01 2.131012805828365886e-01 8.571810685523857387e-01
1.323502754863289770e-02 -6.495175009108379582e-02 -8.455530880553994155e-01 6.341312001240783092e-01 -7.433431851332000795e-01 -2.128814931956866663e-01
-8.182429508119891393e-02 3.179817448710518107e-02 -9.213454821636799519e-01 1.570253356405000855e-01 4.520625868710522743e-01 8.780560696894249562e-01
-6.736678751471328330e-02 -1.509538516952987353e-01 -8.812032797691022878e-01 3.946320227452369545e-01 -7.382170701898545240e-02 -9.158689437887965745e-01
9.131389608115967477e-03 1.949694615211828852e-01 -9.444040525111256912e-01 7.651615070673205565e-01 -4.042601812483286317e-01 5.011003631604505903e-01
3.898608773465921107e-02 2.132423839705336888e-01 -9.419918908559510307e-01 4.750956300882664962e-01 -4.681407807103700747e-01 -7.450693603329278103e-01
9.417724307742833534e-02 1.902012170311341288e-01 -9.118999282145267005e-01 8.860164621717489530e-02 -3.553696591912225422e-01 9.305171431058757436e-01
-5.870719182148145809e-02 -1.626540706954684168e-01 -8.714605285031127302e-01 4.521791743675130371e-01 3.182970492111230482e-02 -8.913589984697236623e-01
-1.145775203029893857e-02 1.580312783335527105e-01 -9.393291195417732276e-01 -6.739001784268725537e-01 2.594723256383510979e-01 6.917605523185423877e-01
-4.961844113740430245e-02 -2.294397569695770800e-01 -8.726163108914404276e-01 5.175433221355650870e-01 1.072273843652314929e-01 -8.489117726566605127e-01
-6.858239233396949686e-02 -2.774412870837877354e-01 -8.997459425668241639e-01 -9.121246325738054939e-01 2.160408058758101768e-01 -3.483604811809610791e-01
-2.475448525974646360e-02 -1.714953417784519096e-01 -8.547768511973057315e-01 4.246272726576278411e-01 1.332429477465140177e-01 -8.955099084829627465e-01
5.897191723064182725e-03 8.739325626028920935e-02 -8.905815314282097273e-01 1.713872827511056518e-01 -4.196170506894212338e-01 -8.913741807355113345e-01
7.101347082740808170e-02 -1.483012957938794132e-02 -8.258412612261597507e-01 1.032581909541109844e-01 2.807961127627658371e-01 -9.541966721060204382e-01
-2.579930406276955898e-02 -4.664474243528798220e-02 -8.704872882967308323e-01 -3.957911887938687090e-01 -3.841720055064621331e-01 -8.341230155428388526e-01
-7.203441061980943305e-02 -2.919697713795325889e-02 -9.019604140688229910e-01 -9.483231573633057465e-01 -3.012328434737407967e-01 9.970939384639720959e-02
-5.323369043585850745e-03 6.222373167677273768e-03 -8.751356924338007381e-01 -4.016176896892687531e-01 9.951953642847154169e-02 9.103840361065851372e-01
-4.032976767782685962e-02 1.199107639412899801e-01 -9.336019585906215612e-01 -6.490240970398201137e-01 2.292980689416507512e-01 7.253896311922829465e-01
-4.900353855573971740e-02 9.850891877448691991e-02 -9.211421960208749926e-01 4.260244896901859701e-01 -3.335396069028062627e-01 -8.409842238777954782e-01
-7.867223954019789134e-02 6.774766811866853033e-02 -9.331430545154854039e-01 -4.158743479424124034e-01 3.072047956172570538e-01 8.559636325646274857e-01
4.253796681084838494e-02 1.533569952008005666e-02 -8.534779852135201406e-01 -5.037186974942575723e-01 3.998598407443937353e-01 7.657542566349575530e-01
4.016417514048576526e-02 1.994749564648524986e-02 -8.569317652731248680e-01 -4.510646546192089157e-01 2.949128791725866838e-01 8.423580420767577959e-01
-2.315283565795663023e-02 2.876290954098815241e-03 -8.760529849370980449e-01 4.657095101300724460e-01 -2.256932244435043977e-01 -8.556735479227469687e-01
-4.420309787376591748e-02 -1.088512303255366465e-01 -8.651882380553608254e-01 4.488452589049461983e-01 -4.684083537467785552e-02 -8.923810115079511274e-01
3.680401930573462543e-02 -6.138063379482114335e-02 -8.289475166088371427e-01 4.648480652984043338e-01 -1.641619819111345691e-01 -8.700385737904603456e-01
1.293720026708132347e-02 6.455422170205678267e-02 -8.783298789774304227e-01 3.102116946279891430e-01 -4.023092545087546545e-01 -8.613454407220375586e-01
-4.661304203627523492e-03 -1.109736157373226034e-01 -8.526020500956075221e-01 -5.693348931655101142e-01 2.288786472185364573e-01 7.896026496103147885e-01
-7.573716315163755985e-02 -2.544763076121897005e-01 -8.930992734545462053e-01 6.009705538563943072e-01 1.386274368126493850e-01 -7.871574347996045384e-01
-9.020054975463066838e-02 -3.992362296807633326e-01 -9.439090674366131806e-01 6.284852436942169884e-01 3.166422137092034794e-01 -7.104533812685782657e-01
2.616047013856383219e-02 -7.824931533572897224e-02 -8.404808661641214318e-01 -4.889412046693577540e-01 1.637191758400447783e-01 8.568153417386582538e-01
1.307848246979433082e-01 2.577037715821103303e-01 -9.486405163578547350e-01 -2.550732851555998493e-01 6.201974655495352540e-01 7.418171762138315861e-01
1.131447626530230829e-02 5.917617770563271540e-02 -8.850515336035837954e-01 -4.704958977574751899e-01 3.071991109108098694e-01 8.272014968851274519e-01
-1.843178934581734055e-02 -2.757691790322233313e-02 -8.784748788902013716e-01 -4.015917003797133122e-01 1.605425917747885789e-01 9.016375005579371216e-01
8.510388430663153037e-02 2.508292375728587292e-02 -8.347186284836576320e-01 -2.778737125505388872e-01 1.753133654753907811e-02 9.604576264012054665e-01
-7.181174027405758109e-02 8.226275572412820869e-02 -9.272099440369414580e-01 8.471195418415480849e-02 -4.279591753947400989e-01 -8.998193313181017672e-01
-5.806863483944280785e-02 7.791131952105026515e-02 -9.203875989533466528e-01 8.338705341662109305e-01 2.614566082983146855e-03 -5.519538896443758613e-01
-5.059047769746242984e-02 -9.344780573417423020e-02 -8.747067027793455907e-01 3.461870599798312353e-01 -1.648025198764815624e-01 -9.235770942075611778e-01
-9.769772833998024986e-02 -2.320238489275001925e-02 -9.180704825034403660e-01 -3.681870729756972493e-01 2.255559789595333875e-01 9.019771502921762885e-01
-5.074597035119488703e-02 1.054954172445512484e-01 -9.336816452315397363e-01 -3.951228203651562243e-01 3.633980391232545237e-01 8.436941519224002706e-01
-6.598836335685961951e-02 -2.408524387280117085e-01 -8.846781352911887719e-01 5.820871176303245020e-01 6.924356631466399570e-02 -8.101727692368136946e-01
-6.403537408676263087e-02 -1.859459650575659151e-01 -8.784703079268044723e-01 5.309016472688612431e-01 2.487116059569555171e-02 -8.470683952892072988e-01
4.491533622551995703e-02 1.278690376881417012e-01 -8.938938536834335480e-01 5.147086819604147490e-01 -8.522632724607063226e-01 -9.339318566758809947e-02
1.137032577497659597e-01 1.388278132764048656e-01 -8.710909533541401073e-01 -7.786695429853592865e-01 6.139682676763643654e-01 -1.292931131710269577e-01
-1.074220193370510092e-02 -8.906048450678803741e-02 -8.589697677140756271e-01 -3.961781732452040461e-01 -4.475858079210781604e-02 9.170820707491610380e-01
1.041009619190849528e-01 2.106198231690880329e-01 -9.225817905081259429e-01 -3.642338755444360365e-01 6.382495835927805006e-01 6.782117316513498473e-01
-7.698276228783322572e-03 1.298502407499339296e-02 -8.781693197633201331e-01 -6.302244154999538939e-01 1.627954639223152811e-01 7.591540179924357590e-01
1.027774476330821779e-01 2.679874116953566698e-01 -9.625890448778532393e-01 6.600281855196290515e-01 -3.262087717261767383e-01 6.767204973758111919e-01
-7.079390156929776801e-02 -2.251392769504016733e-01 -8.825947033867289626e-01 4.797649786216564016e-01 1.059449213324160782e-01 -8.709771747480121729e-01
2.538504864942354999e-02 6.413072344463646712e-02 -8.799498255308139116e-01 -4.075763431353577326e-01 3.242404274261191377e-01 8.536683605118188245e-01
-3.909854553609348835e-04 3.869179471946865290e-02 -8.720389117279137015e-01 5.145615937026585263e-01 -2.659088996370656544e-01 -8.151802398120217008e-01
-2.327167039446227312e-02 -2.428989888323920127e-02 -8.665746466188508634e-01 5.428183652783777902e-01 -2.022122113395110610e-01 -8.151432045362915213e-01
4.361936510537529205e-02 1.408563672941324507e-01 -8.945377288498604917e-01 4.679514559996023615e-01 -3.835833636644284117e-01 -7.961691013520525440e-01
2.368521323693761893e-02 -8.773272976591300898e-02 -8.330463359359965292e-01 4.191665847859452065e-01 -1.400738450222662780e-02 -9.078012818774237047e-01
4.475601432409413022e-02 6.585835794845555646e-02 -8.711981426258643690e-01 -4.200398050773337943e-01 3.609862378805693828e-01 8.326196599957440547e-01
-3.947578287883578979e-02 -3.717264542273321370e-02 -8.842980042548695963e-01 -5.033439360330225210e-01 1.514163992140759307e-01 8.507161430864164098e-01
-1.217991200666962287e-01 -3.913937531338346210e-02 -9.249011155491364544e-01 8.902825584200658726e-01 1.215676966089449223e-04 4.554085543710362782e-01
7.513126087251956187e-02 1.809362034373880879e-01 -9.070088069746173876e-01 4.265534976441255344e-01 -6.383988418760705441e-01 -6.407019840291233725e-01
6.304308791722268435e-02 9.496743749343650176e-02 -8.733042870413364467e-01 1.048815908586142598e-01 -4.693755814729679288e-01 8.767476349645201283e-01
-7.787823551988366788e-02 -8.375026249584584248e-02 -8.973164683932253194e-01 2.131081181493489907e-01 3.696339900935433631e-01 9.044090022475280710e-01
-3.672378110630092340e-02 -1.156040891734822218e-01 -8.731821861233589610e-01 -9.040785392980652535e-01 2.565941272534955631e-01 -3.417622691867752693e-01
8.378202247152667648e-02 1.922583761323765350e-01 -9.255521306184227859e-01 -3.963545338116294392e-01 5.186544082170930769e-01 7.575623329891361113e-01
-8.543362297059570176e-02 -3.626722694538315750e-01 -9.392215620463446601e-01 7.175459322389430294e-01 -2.985214948419739334e-01 6.292954411440302431e-01
-3.676896405202901424e-02 4.243668876120267053e-02 -9.032402051228226592e-01 -2.831642654627485323e-01 3.392188576590743354e-01 8.970777922640905677e-01
-8.664473229473773630e-02 8.022050889194003165e-02 -9.329351005158645904e-01 4.207516363077066224e-01 -3.068860315978974573e-01 -8.536914103787630603e-01
7.007308183087072873e-02 9.222760807738024022e-03 -8.381907306200474528e-01 -4.200282021909508279e-01 2.548009895165901373e-01 8.710067537657810721e-01
-7.165054948712552829e-02 1.131887255522423356e-03 -9.070098205337809860e-01 1.760056138158309913e-01 4.558513128583406848e-01 8.724801456025459423e-01
-9.127231953384412622e-03 1.171890991703265911e-01 -9.191047797942695219e-01 -3.804562494876521095e-01 3.913391961080553427e-01 8.379180603228995050e-01
9.212299840956170160e-02 1.027632909884057255e-01 -8.651019147541579857e-01 -3.701398271861136013e-01 3.806184305878876906e-01 8.474232228511602294e-01
1.014169271260162292e-01 1.140266120217287432e-01 -8.572997128000984235e-01 3.839043832397258660e-01 -4.322147431257101213e-01 -8.159704898794453154e-01
-1.967181405845602749e-02 -2.129171173338743894e-01 -8.603429520769941830e-01 -7.005144575581380151e-01 1.865412211271358367e-01 6.888264422715090207e-01
-1.103417240264123328e-01 -1.779846819149911163e-01 -9.078575061442585303e-01 7.770505946464759672e-01 1.396292757841394172e-01 -6.137556832352387692e-01
-6.368850309643157848e-02 -2.187035841190150265e-01 -8.935242466686751373e-01 -4.739454949709779874e-01 -1.045111783879113243e-01 8.743300757658315492e-01
-6.813043239724972389e-02 -6.730378343640400218e-02 -8.952216960449346228e-01 -5.033468634780068340e-01 1.178002645828473971e-01 8.560169581796051030e-01
1.978270563424064030e-02 2.508515124708833588e-02 -8.608371994513822623e-01 5.072118291950575841e-01 -4.083205418152263122e-01 -7.589535528978857970e-01
-2.851510959578639880e-03 -5.786989520227268924e-02 -8.521344469215406114e-01 3.960448851299610551e-01 -2.164816653643062902e-02 -9.179759287955249203e-01
-5.932814389754559325e-02 -2.081651769581641387e-01 -8.838028465209537554e-01 -7.536412628359124843e-01 5.663004535260219852e-01 3.336594720479439946e-01
-1.064352322135457690e-01 -1.928619055289041428e-01 -9.080558264088067766e-01 9.416585231564335023e-01 3.177345165436030738e-01 1.110135251383706501e-01
-8.588633525830315085e-02 -2.433470763287383931e-01 -9.042873836384179853e-01 2.967558893411580412e-01 2.267364397844472135e-01 9.276456915305606454e-01
-1.989260134516779733e-03 -6.524454071948804224e-02 -8.553952986116235557e-01 -6.552198503063636492e-01 6.957509857837526068e-01 2.943085346119660994e-01
-7.682234285935576022e-03 -8.132205801856506877e-02 -8.557549077747735877e-01 6.076881514532057882e-02 -5.869048564553279723e-01 8.073721821904595863e-01
8.833406863239137707e-02 2.004739647400624880e-01 -9.287951998768980699e-01 -3.963545338116294392e-01 5.186544082170930769e-01 7.575623329891361113e-01
-1.050292122454432042e-01 -1.642136118133351863e-01 -9.118640595365006263e-01 -5.209657185042558813e-01 -2.952744715963454697e-02 8.530667324468695911e-01
4.225910767968902443e-02 1.108814869792487112e-01 -8.831176459081857555e-01 3.700150925843136984e-01 -3.637566442138962519e-01 -8.548508261972181943e-01
7.474851346019342757e-02 2.102737847021091677e-01 -9.334745093643963543e-01 -1.671557876347797844e-01 5.791014455908806147e-01 7.979351216576124894e-01
1.154290297649125385e-01 1.075760512749400905e-01 -8.511474718410625417e-01 -6.499960223016733041e-01 1.978034599699989016e-01 -7.337431173209733037e-01
8.178770283298468155e-03 1.300721605366833844e-01 -9.097268800022810797e-01 8.377781286335957978e-01 -5.990859336960220605e-02 -5.427142596465157620e-01
-1.096005937630430555e-01 -7.732116583013416700e-02 -9.176119614020046278e-01 -4.696062891703681741e-01 9.587570443269496923e-02 8.776547057192658485e-01
-3.322898173792214471e-02 -1.695600422888677572e-01 -8.679632339644300920e-01 -5.302414082876557577e-01 1.478827598587002454e-02 8.477177335826409088e-01
2.185823689635478517e-02 7.056860165685002739e-02 -8.819846106386595164e-01 5.371573984328995022e-02 -3.697360735248713115e-01 9.275828023564789415e-01
-3.760766495702029533e-02 -1.756803699660205997e-01 -8.705953011883829085e-01 -5.302414082876557577e-01 1.478827598587002454e-02 8.477177335826409088e-01
-1.152893793012302048e-01 -1.466561634825297167e-01 -9.167850042802866417e-01 6.831665066415547327e-02 1.495645347671076264e-01 9.863890131088900448e-01
8.687376709737010261e-02 2.052712785791002137e-01 -9.325975244805163600e-01 -2.704377887306651518e-01 4.808637100962075417e-01 8.340464583816531441e-01
5.362831067800120227e-02 1.857894389741713836e-01 -9.277562868289369602e-01 -3.182787789233557096e-01 5.017526280237778469e-01 8.043276192934630808e-01
-9.631056649800372182e-02 -1.915652614019401970e-02 -9.103809953046039238e-01 4.818435154731589010e-01 -1.699786592166618870e-01 -8.596127511893789652e-01
8.865747135254825606e-02 2.269882440996414119e-01 -9.409287196195428304e-01 -3.657114325902063312e-01 5.519437463457285142e-01 7.494085994587071919e-01
1.008483359942783514e-02 1.212288149909685336e-01 -9.059177936378324247e-01 8.318117468998278419e-01 -5.754496826981513047e-02 -5.520668386584023368e-01
9.772159478586327566e-03 -3.961117935547797675e-02 -8.482234155984788027e-01 4.589018626599786210e-01 -1.763755380943741735e-01 -8.708046566303615510e-01
-1.870842413602396203e-03 -1.728566749198889030e-01 -8.416032031357899568e-01 6.378661654444326423e-01 -7.699490643391568856e-01 -1.746978261091882215e-02
-4.912654892537519219e-02 5.020090325567520134e-02 -9.077091328428180672e-01 8.958282004068011117e-01 7.584338085589036049e-02 -4.378808250383436351e-01
-1.131690295816166064e-01 -1.400033327115777493e-01 -9.165327880973385133e-01 -5.280249006675193923e-01 2.063045178517287654e-03 8.492263821382656230e-01
4.747283970116662061e-02 1.432930930677832511e-02 -8.476982677056935644e-01 -5.851811386436173157e-01 7.516252382996723158e-01 3.043395079951343729e-01
-8.490619637503551975e-02 -1.171176540506152358e-01 -9.001035884773322948e-01 -5.301542125546410134e-01 3.311817812189263993e-02 8.472542104872980984e-01
-9.776877187898722066e-02 4.021689233128146468e-02 -9.336557135791379025e-01 -7.237997123529922305e-01 5.205213121825862099e-02 6.880440044309394931e-01
-5.982055627121438818e-02 1.306663515375303397e-01 -9.422138644208467584e-01 8.589236327792134640e-01 -4.807370644732393838e-01 1.764711531526090282e-01
-7.606985123820764194e-02 -1.470123301496781276e-01 -8.939993397112752094e-01 -5.278434661364321823e-01 6.027928631463828381e-03 8.493202807736848214e-01
1.364646902504479675e-01 2.045807398430496971e-01 -9.041589340178772805e-01 -9.151640198176116403e-01 1.851023751523700744e-01 -3.580669316541553737e-01
1.336927421065145331e-02 -8.640212267364591470e-02 -8.378870414458466920e-01 4.763326820404548134e-01 -1.105247701438988039e-01 -8.722909211981889621e-01
-7.634524991227889523e-02 -3.691355015455811683e-01 -9.323717700378678641e-01 -9.141161421836105916e-01 1.901886958863274746e-01 -3.580781179525093783e-01
1.478101259396991194e-03 -1.227669362614639270e-01 -8.416555856652226941e-01 5.820017359343410135e-01 -2.349409426908207477e-01 -7.785093016894288898e-01
1.032775141845823225e-01 2.252526250087980575e-01 -9.356149714054392552e-01 -7.823235405446115065e-01 5.454673483405685364e-01 3.007245414063385303e-01
-1.713869708468109335e-02 1.607648297888314981e-01 -9.352142705052193250e-01 3.913302766968243529e-01 -4.303138088643859160e-01 -8.134436922375215540e-01
-4.932914154811360308e-02 -1.714267648314875547e-01 -8.690104120201250781e-01 5.318039719826723744e-01 -4.469441312652394638e-03 -8.468556898774464159e-01
-4.094869858405283253e-02 9.141277090775279390e-02 -9.232811392008504203e-01 -4.396751082029923263e-01 3.270591480310477972e-01 8.364915498173858266e-01
2.215175731121309805e-02 1.828673809693386609e-01 -9.310050110571708171e-01 7.653328265918153683e-02 -5.656752767393015136e-01 -8.210688996249490001e-01
-3.872207370374096402e-02 -3.020486358097550922e-02 -8.769500304349273634e-01 3.094565071426251257e-01 -2.579877588918304543e-01 -9.152480464054851828e-01
-9.753530715741665080e-02 -1.383230067506842909e-01 -8.996346160108408263e-01 6.414348705096151182e-01 6.795981765228369109e-02 -7.641614816771264973e-01
8.848077366712261971e-02 2.555981972550835923e-01 -9.537746149668245854e-01 -5.773025961263669043e-02 -6.463472813813920803e-01 -7.608563655355332633e-01
4.766241970000357348e-02 -2.429462517267673427e-02 -8.394801039536511356e-01 -5.094018421216526260e-01 3.306875308917562872e-01 7.944529691276761563e-01
-5.016056087773117927e-02 -4.197073806673125990e-02 -8.806400680245461965e-01 4.909063875226188367e-01 -1.592725399033393108e-01 -8.565297290358530047e-01
1.369250040101036014e-02 6.908545921828687653e-02 -8.894505462779023208e-01 7.439584006037512909e-01 -1.803504281204743043e-01 6.434280233622641232e-01
2.190557706503929586e-02 1.606947233041590151e-01 -9.176719971969096168e-01 3.361930207814156635e-01 -4.560489427326031575e-01 -8.240106884078273186e-01
-1.168160635914943651e-01 -4.088095976160686928e-02 -9.264906215410625423e-01 -4.692813533102194734e-01 1.362889997572445944e-01 8.724679478241584851e-01
-1.823224529007607883e-02 -2.652977473633977984e-02 -8.671635792317438085e-01 3.602003047226295385e-01 -3.675517749175769011e-02 -9.321506302123461207e-01
-1.519097160931104709e-02 -1.123564889543466894e-01 -8.596284155330116139e-01 -5.027526797234939115e-01 9.382025914209998763e-02 8.593238632816820877e-01
-4.924145309701401935e-02 -1.775031918802147946e-01 -8.689560466623812429e-01 5.342811956895361369e-01 9.139919836612815304e-03 -8.452573961805597280e-01
-8.583406696935765023e-02 -3.214151503486578076e-01 -9.194703314912759939e-01 9.133666755209047805e-01 -2.029482162571483173e-01 3.529494830226161395e-01
7.701640647429233710e-02 1.770179291113755660e-01 -9.157447349394006730e-01 -8.741152443789812487e-01 3.332713058549795493e-01 -3.533451234105129402e-01
4.170510994564850110e-02 2.265281690336873044e-01 -9.559986062880534430e-01 6.496800358552160537e-01 -2.150871320851149293e-01 7.291456484287385242e-01
-6.554984590852369619e-02 -1.650182072393490962e-01 -8.792867631238462378e-01 3.946320227452369545e-01 -7.382170701898545240e-02 -9.158689437887965745e-01
1.038759382547137788e-01 7.777156952876990159e-02 -8.390469276529118892e-01 3.924099772800946906e-01 -3.658948653466352896e-01 -8.438811274367991055e-01
7.384803735285468129e-02 -4.649604924668811028e-03 -8.241661589761252182e-01 3.842395963277360216e-01 -1.522278236179833710e-01 -9.105968495060975387e-01
1.141141189558543025e-02 4.866109881690134503e-02 -8.812238075388538761e-01 -4.427278952542663126e-01 2.990511151631223830e-01 8.453167697871728503e-01
-8.937471350233895662e-02 -3.580047852467027059e-01 -9.308447333605611718e-01 9.143562302829749688e-01 -1.954898264105687233e-01 3.545933049462061115e-01
-7.229058793309203756e-02 -1.071580614723021269e-01 -8.892850726416964280e-01 2.401754375236438421e-01 3.562851022255721367e-01 9.029821067675926072e-01
-8.375291353539054962e-02 -1.959891445505900637e-02 -9.120446190359677852e-01 -4.972182535536807113e-01 1.647592202830640562e-01 8.518382520553676729e-01
-8.049564871425481105e-02 -2.424542188082159100e-01 -8.943258325440945899e-01 5.357462562572987697e-01 1.365716078172441172e-01 -8.332611504471462149e-01
-4.996987547829781495e-02 1.084166653966950888e-01 -9.256244419229766596e-01 4.279738414083018028e-01 -3.449816388428587621e-01 -8.353598385914402513e-01
-1.063721297508005703e-01 -1.420072437891752304e-01 -9.107616708856539622e-01 -9.177838755566685158e-01 -3.968937003814244635e-01 1.217162132674892358e-02
-1.134097375181035983e-01 -7.130181322291034851e-02 -9.202351205196237505e-01 -4.070733525856122803e-01 1.415919559810479567e-01 9.023541453421548564e-01
1.163551258595944965e-01 8.856612041573909411e-02 -8.402735370913788637e-01 4.287157897124205808e-01 -8.642290683734082934e-01 2.632696128110622591e-01
6.445642184837471755e-02 1.236600935822308733e-01 -8.790431724099669886e-01 3.722703413905071312e-01 -3.939320995461766950e-01 -8.403762811194378513e-01
3.820049993926184773e-02 -5.966933387814782330e-02 -8.372096826691818316e-01 -4.572193579057654556e-01 1.527545361256298917e-01 8.761372668990190515e-01
1.865110571093191519e-02 -2.925737452959537369e-02 -8.456421300250392958e-01 4.571236134599321876e-01 -1.754893330787678507e-01 -8.719182851580206117e-01
1.032813333121888749e-01 1.421156540521301415e-01 -8.805516587956867536e-01 -3.586540982711584613e-01 4.780093022849629669e-01 8.017944529131796338e-01
-2.455876355654315960e-02 6.444371489358977079e-02 -8.980656344442935479e-01 -4.479389091617865803e-01 -5.167409137338689895e-01 -7.296091842434789809e-01
-5.802617482358445739e-02 -2.194260424767195128e-01 -8.830026067195447803e-01 7.712135612083972913e-02 -6.884626309825291335e-01 7.211598312237701425e-01
-5.736996677573390213e-02 -2.494954126882822920e-01 -8.888604437110780854e-01 -6.339126319985008973e-01 1.999552728910867008e-02 7.731461400544942242e-01
-4.877030667553538396e-02 -3.845089855068024171e-02 -8.804977835430701782e-01 4.909063875226188367e-01 -1.592725399033393108e-01 -8.565297290358530047e-01
-1.056509800020347806e-01 -9.736390519980171743e-02 -9.050192633584493995e-01 5.147137672836059608e-01 -5.865423315919172237e-02 -8.553533881976648212e-01
5.756596004047008497e-02 3.307870263066703051e-03 -8.425244967834609744e-01 -3.232218670555035978e-01 4.733974643329723342e-02 9.451383883139998776e-01
-5.303678227570766263e-02 9.592309381266661550e-02 -9.306190321749497896e-01 -3.045401776422959617e-01 3.797563398155407999e-01 8.735218386345598995e-01
-7.056662377537635533e-02 5.850735570659586215e-02 -9.260921842669005422e-01 -4.603542167786510708e-01 2.679119578995409756e-01 8.463434160602592016e-01
1.081436406243793391e-01 2.388596306091622379e-01 -9.356401000861814810e-01 -7.670701903737845440e-01 1.404757539796273880e-01 -6.259951162619251663e-01
-8.926990181061322804e-02 -3.884941721913514612e-01 -9.382981611220982954e-01 6.284852436942169884e-01 3.166422137092034794e-01 -7.104533812685782657e-01
3.152222277725129362e-02 2.089876876027146613e-01 -9.463441594441608373e-01 9.314345339791210154e-01 -2.159179675170520285e-01 -2.929319719907724218e-01
-2.789405170271040332e-02 -1.439248515543192219e-01 -8.607088814016817802e-01 6.875752310913417764e-01 -6.618144928760756329e-01 -2.987337922111772959e-01
1.031052244815764719e-02 -6.753605052649443163e-02 -8.446580877847963409e-01 6.290806250396684396e-01 -7.643535158912437844e-01 -1.414965368636076082e-01
-9.009480789364804343e-02 -3.717456914770578269e-01 -9.363327219680311897e-01 9.147718871744194846e-01 -1.895435851066155364e-01 3.567430781112404525e-01
2.585496020670993191e-03 -1.853060850865641263e-01 -8.399677798521778538e-01 -5.101496306976746054e-01 6.671349681505638340e-01 -5.428427843950516252e-01
1.005915991147912358e-01 1.397924973461537046e-01 -8.804254593170051102e-01 -3.736649196194903322e-01 4.613873618746476835e-01 8.046715044961592067e-01
-8.422354418675843946e-02 9.097889858437491206e-02 -9.386608733950156935e-01 8.734291559424143259e-01 -4.593648070990673515e-01 1.615719144794612872e-01
7.646125163153395798e-02 1.783156475418300746e-01 -9.041678614380354029e-01 3.396174875972580720e-01 -4.967844209926436383e-01 -7.986646362379706821e-01
1.676936481272078491e-02 1.057001415875811062e-01 -8.942999379110045943e-01 8.569916854947715601e-01 -2.335669862067749070e-02 -5.148006561984678209e-01
8.246067319865379996e-02 2.546626566089316701e-01 -9.540405763865332789e-01 2.630580713479508947e-01 -5.972893371103442650e-01 -7.576581675617189982e-01
2.454031330657499566e-02 -1.266768522570917987e-01 -8.269675724734181221e-01 4.188231578645464359e-01 3.736380761216048785e-02 -9.072987977050837038e-01
-1.581654210514362238e-02 3.030518528623312498e-03 -8.733503297380298402e-01 8.938907062289548344e-01 -2.882592750231999790e-01 3.433161745106100282e-01
-8.059883919651453232e-02 -1.834633292055189852e-02 -9.026084311859084996e-01 1.488867466637383286e-01 -3.049631669640740506e-01 -9.406541359411172420e-01
-2.076884065401651824e-02 -1.668554124872397570e-01 -8.602679045178155404e-01 -6.018483093923353566e-01 1.463426532611890318e-01 7.850875367231753277e-01
9.141747288270736516e-02 1.489199374377072477e-02 -8.292184787483495301e-01 -4.427973237890414082e-01 2.985380333486237214e-01 8.454617511689092035e-01
-1.047478875754943306e-01 -1.804479323597841800e-01 -9.035274708444840375e-01 5.887952604812589641e-01 6.545554978899249809e-02 -8.056275269854097365e-01
-1.261585734407985430e-02 1.583009697833876461e-01 -9.327498604667023852e-01 7.438178930304410914e-03 -5.288264661758539376e-01 -8.486973796154663185e-01
7.749256207716374856e-02 2.059739794346380493e-01 -9.203186586596654450e-01 4.062421084919102809e-01 -5.204203938146395592e-01 -7.510858559378299493e-01
-8.564405469446501051e-02 -1.241316678549100189e-01 -9.002911205495571778e-01 -5.301542125546410134e-01 3.311817812189263993e-02 8.472542104872980984e-01
-5.245396806637939169e-02 -2.459622271594470028e-02 -8.852201306877131026e-01 4.824370405318818555e-01 -1.834390425328014107e-01 -8.565072209838562323e-01
-3.120350569109353947e-02 -1.800776174770052918e-01 -8.659670484244759159e-01 -6.015556843349443294e-01 1.114631072559837954e-01 7.910162668145060971e-01
6.810541779444657939e-02 7.001607567226580953e-02 -8.562152779392009361e-01 1.565623481850966225e-01 1.625315455919152385e-01 -9.742031245167875886e-01
-5.465439184119969679e-02 -1.918370914566314700e-01 -8.805844457880499521e-01 -9.073860355504010933e-01 2.358896549155213296e-01 -3.478601057781162686e-01
1.055946056814757450e-01 1.833856233955008241e-01 -8.950938677701811841e-01 3.253278620774829322e-01 -4.953543877914026727e-01 -8.054724158230986975e-01
9.324946310921201909e-02 2.449228041236899481e-02 -8.227224279534085527e-01 4.159956635281463755e-01 -2.823091482730689661e-01 -8.644357423933322071e-01
-7.841364996533185805e-02 -1.337236747844218199e-01 -8.955718189111701033e-01 -5.321360388972059541e-01 6.621511576081189759e-03 8.466329734254619543e-01
-9.028069931650449520e-02 -1.176116179802838557e-01 -9.033507522678532187e-01 -4.967529319168130786e-01 5.077505025759288665e-02 8.664054587220633152e-01
-3.082531565406309779e-02 -7.418655186705181012e-05 -8.857793654526990856e-01 3.072018920145757059e-01 4.500307852479361603e-01 8.385101608637732795e-01
-4.504809510412808443e-02 -2.205110497185512955e-02 -8.818165803819940640e-01 4.457483301359591032e-01 -1.973800924233512222e-01 -8.731262940124718819e-01
-1.116723864129052918e-01 -5.627793436382473591e-02 -9.127767925363485801e-01 4.129186643124068135e-01 -1.435890502273943214e-01 -8.993777634104883623e-01
5.027048402227617639e-03 -1.687917227607752813e-01 -8.426086478231507026e-01 1.867792134362266931e-01 -7.194372620191863410e-01 6.689720109589646357e-01
-5.222007930487296279e-02 -1.305812484095334736e-01 -8.796580917109925180e-01 7.233706048573329550e-01 -2.400020317958803107e-01 6.474055859831495674e-01
9.531295199014366837e-02 5.563628097153519581e-02 -8.340747616042356594e-01 3.692113598082786829e-01 -2.391102040078653679e-01 -8.980586184252332682e-01
-2.835534800404194977e-02 1.341012881046624583e-01 -9.277012716687156324e-01 5.061996234366892278e-01 -3.404491384299219159e-01 -7.923738545502859720e-01
-5.526045758012769135e-03 -1.072061247693743419e-01 -8.467612315462463846e-01 4.147500299375845856e-01 4.565915540506893661e-02 -9.087891142583457427e-01
1.106486461435196994e-01 1.898966539756836713e-01 -8.970567498720494193e-01 3.253278620774829322e-01 -4.953543877914026727e-01 -8.054724158230986975e-01
-5.554710886248941798e-02 -1.318574224095329095e-01 -8.815567512682244145e-01 -3.720055915317078687e-01 1.113135582738274121e-01 9.215319482327040124e-01
-3.832616647361773016e-02 9.816497458944491161e-02 -9.245427274312101318e-01 -4.396751082029923263e-01 3.270591480310477972e-01 8.364915498173858266e-01
1.035254419445649360e-01 1.854475016547007526e-01 -9.066673818274272323e-01 -3.367600079494844079e-01 5.215566987707365154e-01 7.839459847548390092e-01
1.230350672264561712e-01 2.412704088053837792e-01 -9.289608619656855026e-01 4.214016443787351185e-01 -7.790762502829730041e-01 -4.641776064826056980e-01
-1.825692373411787889e-02 -7.065384263311701163e-02 -8.586324448327201653e-01 3.951428741816325196e-01 1.513561552791244796e-02 -9.184949766471613986e-01
3.971808353409064102e-02 1.729466854167160395e-01 -9.191700788195903415e-01 8.709043732977402863e-01 -1.128781184252632824e-01 -4.783138122108144819e-01
-5.681365633741546767e-02 -1.749422638191197032e-01 -8.738929537194513042e-01 6.304218450011381814e-01 -1.463312082060623520e-01 -7.623355395429987080e-01
8.806840643400994095e-02 1.084179058756890718e-01 -8.685682851040377184e-01 -2.421931887165389430e-01 1.386397290146888228e-01 9.602715682962025268e-01
-8.813172124328132184e-02 -2.012052685017114428e-01 -9.034373769446600866e-01 -5.532868476570887983e-01 -7.650191874990082408e-02 8.294703856300505995e-01
-2.642896125984919853e-02 -5.347351952154610205e-02 -8.731603281620297086e-01 -6.176530464872352910e-01 7.315160882029020373e-02 7.830412226007263943e-01
-1.627898781050301016e-02 -1.506800713242589795e-01 -8.490960028733741671e-01 5.041557196630449544e-01 -1.221099315783969299e-03 -8.636119031413924674e-01
-1.018175067023114611e-01 -5.571205717667612051e-03 -9.162488278486838889e-01 5.763201734626266504e-01 -1.409875857620275508e-01 -8.049705325793004018e-01
1.188314428119710137e-01 2.186853933807791361e-01 -9.224813694619032889e-01 -3.853961123660653021e-01 6.568967766577157308e-01 6.480404782031955468e-01
-8.818524211907652344e-02 7.076537362205206905e-02 -9.308577064281745583e-01 5.887909193558678034e-01 -2.395758108417789523e-01 -7.719641728367813149e-01
1.605163221790018371e-02 1.977064412898172641e-01 -9.499797671707443936e-01 3.615784892543562057e-01 -2.295748596708391820e-01 9.036350922333925562e-01
-7.356672068645321583e-02 -3.218948889156197368e-01 -9.132634891553171874e-01 -9.140275121534843228e-01 2.024930806944945649e-01 -3.514971682636502948e-01
-2.820101405571092540e-02 -8.101944039068219305e-02 -8.734743145891085137e-01 -8.971066052458468443e-01 2.317496505973892507e-01 3.761540087148621536e-01
5.086661399784456195e-02 4.539283222723922151e-02 -8.520569631432423074e-01 4.831804780886546080e-01 -4.754256734243191840e-01 -7.351918488687505526e-01
1.228417668610807117e-01 2.809926407463876896e-01 -9.629655184856494854e-01 8.251742837802220620e-01 -3.704963072583738470e-01 4.264034330252352012e-01
-1.083486143552657016e-01 -9.523006020855475859e-03 -9.228174177160584080e-01 9.812316661312767696e-01 1.019192440378782205e-01 -1.636975414475915769e-01
7.684396150663706793e-02 4.091508581384129678e-02 -8.455268707003018580e-01 -4.660903912710045449e-01 4.241791597397402969e-01 7.764224285833902783e-01
2.370911350082938185e-02 1.788293205536206076e-01 -9.356519844148633025e-01 -6.264664328420586070e-01 3.330238621640516095e-01 7.047232902008314648e-01
1.092494903635859577e-01 1.754733093300846758e-01 -8.968821509395468183e-01 -3.734653685644175325e-01 5.915990434768636508e-01 7.145167529458660294e-01
4.577597269292023319e-02 -9.533313705852704267e-02 -8.268201445975306152e-01 -4.581973940557815816e-01 7.328721262864988650e-02 8.858239850814685346e-01
-7.942382964711493243e-02 -3.493190838544888988e-01 -9.332350393470166816e-01 -4.728770499659512572e-01 -2.958517214341674362e-01 8.299753336936822601e-01
-1.720817759114543627e-02 1.152079485160918682e-01 -9.217770273207358533e-01 -2.875461372443532393e-01 4.277297332425695209e-01 8.569506953472245669e-01
2.712323176047008733e-02 1.715962349005196452e-01 -9.239737605014392008e-01 -6.713756205498753182e-01 -5.315250148026411381e-01 -5.164648436925035613e-01
-8.106075918012867199e-02 -2.512024930676282075e-01 -8.963331663595418553e-01 6.838545063274922287e-01 2.131741385190260296e-01 -6.977820582690936746e-01
-7.136185871145619974e-02 -7.208722695464660213e-02 -8.964040653009249793e-01 -4.771164083501404640e-01 1.139202356788800163e-01 8.714253340280682103e-01
-6.934610837212810269e-03 -8.031556000602024792e-02 -8.520788221454133060e-01 6.456935292401049242e-01 -7.392820842302492146e-01 -1.911592692851609432e-01
3.457400891057788028e-02 1.410529850581698774e-01 -9.096188302324553776e-01 -5.867883044504136336e-01 3.243967929401760375e-01 7.419206200735610768e-01
-8.354359934038714519e-02 -2.972279007001520368e-01 -9.112677005892211302e-01 9.123054012241598176e-01 -2.097005775999994659e-01 3.517449681963501495e-01
8.031921052212227796e-02 1.044836750449176371e-01 -8.623681616869218747e-01 3.941007547509284836e-01 -4.254213641741709795e-01 -8.146786225309559093e-01
7.072260547276941478e-02 9.221613521559816895e-02 -8.609834034038646999e-01 3.796108032033210788e-01 -3.648679946188327916e-01 -8.501570352553468046e-01
1.068015680702352616e-01 1.076833162748602885e-01 -8.517769307371959586e-01 3.539152731634324645e-01 -4.103620860103440737e-01 -8.404444882244703763e-01
8.049354630994839596e-03 -1.419235906067579378e-01 -8.356383158761101493e-01 4.368202080047107194e-01 7.210325360863133193e-02 -8.966544633791606600e-01
-1.196190387559394920e-02 -1.937876280991858435e-01 -8.553985139081501377e-01 -5.293646815663353156e-01 -2.700670509471007202e-02 8.479644283754476097e-01
-1.061088163010106139e-01 3.404238640373893898e-02 -9.282837359042950265e-01 4.829782588186684045e-01 -2.219149336928560035e-01 -8.470453138484285160e-01
2.074066049901804754e-03 1.415936904939779084e-01 -9.206193639012286711e-01 8.397851571588195174e-01 -1.091857010001254097e-01 -5.318264496175871825e-01
