-4.484512291185474564e-02 2.275709848172003009e-03 -8.417393414540406127e-01 3.877024356362651081e-01 8.031720923334264572e-01 -4.523288753754878821e-01
-2.340503091101222427e-02 1.510418831512876613e-02 -8.142816494581679443e-01 -3.889095294190479946e-01 -8.138015377910472470e-01 4.318291734192830633e-01
-9.758096692665967076e-02 8.933384522149843965e-02 -6.507654297737973659e-01 3.093855109966097139e-01 9.402285895999036303e-01 -1.423053227547818600e-01
2.793454949563788092e-02 3.308735190304638862e-02 -7.121245934716190495e-01 4.859368211652967395e-01 -8.739938244905552933e-01 -4.478706719311330818e-04
4.816236829505448486e-02 -1.279587711753726043e-01 -9.478871502075449929e-01 -1.662397730394740980e-01 1.425738386711724037e-01 -9.757238535499430654e-01
4.675062190118461219e-02 -1.510654481729414023e-01 -9.679620185356532236e-01 5.667658487319514604e-01 6.477314887251333086e-01 -5.091369081348094960e-01
4.627298400205067525e-02 -1.524722983254340851e-02 -8.059840613458605363e-01 -4.231644768164253279e-01 -7.931016344329533396e-01 4.380886017924452425e-01
1.025153001650952606e-01 -6.841288536734450865e-02 -8.422838033149494530e-01 -4.427753540469868132e-01 -7.313730879040972743e-01 5.186939291510853645e-01
-6.105413827559240392e-02 3.595870512267576591e-02 -7.872221864868113039e-01 2.440921902655133757e-01 7.873365980564778210e-01 -5.661449319849437556e-01
6.034141503261674505e-02 2.792459280428355450e-02 -6.698775398978310536e-01 2.453734215397190832e-01 9.342191079159104516e-01 -2.588948481656048739e-01
7.585385889273048299e-02 9.239638149348146368e-03 -7.036112279268327274e-01 3.981305230197815792e-01 8.505216062945324396e-01 -3.436642021889439458e-01
-9.374926179826473249e-02 1.051110109772268458e-01 -5.405194571815645777e-01 8.222899057878385598e-01 -3.756929180206926566e-01 4.274273531122277925e-01
7.688800832711045752e-02 -2.740687592725863930e-01 -1.050085537087721121e+00 -5.526279957633508655e-01 -3.913988384645631369e-01 7.358051695572496165e-01
-1.780896824472852705e-02 8.147830508319009457e-02 -5.640209159820839258e-01 -9.116080244822214462e-01 -4.017152808596373137e-01 8.715298516679963192e-02
1.942870818267873265e-02 -6.526592589605226258e-02 -8.994168625010516838e-01 -6.869090309598245847e-01 -6.700530252849582480e-01 -2.813981636263996888e-01
-1.677843981789338759e-02 -7.280479299066643269e-03 -8.457587149290154427e-01 -6.461978593730934861e-01 -6.066681095384910405e-01 -4.630141805718537840e-01
7.824106850542979219e-02 -2.622022255068331975e-01 -1.038151986405241090e+00 -9.486844489912750200e-01 1.272651651282616370e-01 -2.894847042366789913e-01
-1.438747441314976346e-02 -7.557597019645991010e-02 -9.420990765102630338e-01 5.814306643830513543e-01 2.667258909457718812e-03 8.135915856527730083e-01
-9.501053197228881420e-02 8.811735496506208076e-02 -6.529010020724885788e-01 3.233951087229353649e-01 9.329069783140653271e-01 -1.584303426336021170e-01
9.186200891711944483e-02 1.983038829523033758e-02 -6.715104543765019196e-01 -9.023097016697724237e-01 -1.905478628220681481e-01 -3.866894286718329798e-01
-6.738145710894077878e-02 9.404612617513646855e-02 -6.101050639092446826e-01 -2.914789315040010598e-01 -9.485077073258745273e-01 1.239885544423317137e-01
-1.180982947294872271e-02 5.968992910685849002e-02 -6.784055389925792712e-01 -8.107736448349093239e-01 -4.553147245932228637e-01 3.678785103940073742e-01
-6.597090493754549645e-02 1.013643144317591949e-01 -5.190193843971577792e-01 -2.229007211799053090e-01 -9.747504496477059632e-01 1.329772195051615209e-02
-3.489928981819743342e-02 -3.023218887815103464e-02 -9.019541732139878532e-01 -3.389322039376904128e-01 -7.094275865804779979e-01 6.179299802829913979e-01
1.459018144231120223e-02 1.450296386298694819e-02 -7.748573741594264597e-01 -9.308749278206627231e-01 5.692823163385145324e-02 -3.608753873540265222e-01
8.066156333839910597e-02 -1.902502431552317505e-02 -7.793516814132868120e-01 -8.163591790575706886e-02 -9.348228062219673395e-01 3.456036716746084814e-01
1.134295542997886680e-02 -7.929002794057847525e-02 -9.171571804820191076e-01 5.390986407665536717e-01 7.334037957163120902e-01 -4.141153558521592504e-01
-9.539490015959356528e-02 5.216981902574135965e-02 -7.833390416629301134e-01 3.820011286933784889e-01 8.679099522309585701e-01 -3.175018936879588360e-01
9.803046404845210116e-02 -1.182869267514683603e-01 -9.086047112624273669e-01 -5.155517813818996098e-01 -6.190161826976479098e-01 5.924739034526183001e-01
2.287685445952516647e-02 6.288489800719002099e-02 -6.159927111114215093e-01 4.211200877866318193e-02 -9.939811008557313254e-01 1.011343159281468534e-01
-6.589496814211533160e-02 9.825498121655840134e-02 -5.783722565166738994e-01 -3.628033346921299418e-01 -9.282516643863057970e-01 8.199138918400873666e-02
8.108371473604762680e-02 -8.194254104426751395e-02 -8.645723895308921048e-01 4.577666771052890105e-01 7.099439768571905729e-01 -5.351908248990997485e-01
5.091536424520294590e-02 -1.031170570375701881e-02 -7.924966274337083005e-01 -4.157409461494206426e-01 -8.075741892625545315e-01 4.183101654654264312e-01
2.166116861066261570e-02 -9.147225100152457655e-02 -9.249877039988424476e-01 5.368550142103375444e-01 7.166493357180550028e-01 -4.451970612347848633e-01
-6.761482929358055005e-02 6.569255953879796217e-02 -7.254050564802713152e-01 -6.698094867765805316e-02 -6.745451081555742245e-01 7.351887169819907308e-01
4.575061397589412493e-02 -1.092517307576938712e-01 -9.273299927903565498e-01 9.425125945760240986e-01 -9.211037212670465657e-02 3.212252922984912828e-01
-9.693950507996662580e-02 1.031154532632870546e-01 -6.091758487829185276e-01 -2.766191973238748547e-01 -9.524091893456744229e-01 1.280568456655498677e-01
-9.736655297707207113e-02 6.310957047753483484e-02 -7.795767562431302755e-01 -3.530429559580268162e-01 -8.718013151884251855e-01 3.395926060504716459e-01
7.308807561535998754e-02 -8.440884201373741180e-02 -8.743980840110129327e-01 4.586886498794412459e-01 6.932669376342615042e-01 -5.558647997984657030e-01
8.622925308486577289e-02 -8.016066026315234183e-02 -8.579603394741367461e-01 4.236343328547360065e-01 7.345096596886835361e-01 -5.301221669113047597e-01
3.045086833408503640e-02 3.415794856066550322e-03 -7.709977497464571838e-01 -3.577810169223224479e-01 9.246531639647636025e-01 -1.304195932365257715e-01
4.336138873874475358e-02 -6.370256791393810215e-03 -7.919388032078928941e-01 -3.783944374981605963e-01 -8.277274463186226061e-01 4.143487954384598715e-01
1.108749516092970566e-01 -4.905407124943040459e-02 -8.056798945438211623e-01 -3.412572563070493947e-01 -8.140449172885053652e-01 4.699727201173864444e-01
-1.590786976052719834e-02 -6.761818850131799674e-02 -9.272659502996638548e-01 -2.723026938653992923e-01 7.791674946842441773e-02 -9.590517311729964689e-01
4.579996941187411408e-02 -7.101093428453282563e-02 -8.794060805340464526e-01 -7.847333908734280827e-01 3.332555009200092733e-01 -5.226224988984355946e-01
-9.716699216521708371e-02 7.319857943402256761e-02 -7.479341534698270566e-01 -3.018326900184968298e-01 -8.698597800561982396e-01 3.901807148960345639e-01
3.711327503974162084e-02 5.265223904617988976e-02 -6.394759269918895983e-01 -4.513429283424825189e-01 -8.543998518707128786e-01 2.574693266362744759e-01
-2.486781863328407869e-03 -3.264515014674115173e-02 -8.770846926849366065e-01 -3.344060382594177261e-01 -7.053418207965219677e-01 6.250324130883838647e-01
-1.015345501203819834e-01 1.053584359684023447e-01 -6.024197892794064257e-01 -2.766191973238748547e-01 -9.524091893456744229e-01 1.280568456655498677e-01
4.921916097929456002e-02 -7.315450489593038064e-02 -8.795360340989446524e-01 2.973138558256609443e-01 8.100112074666104833e-01 -5.054565410720903706e-01
4.527712937507327035e-02 3.348673227914521905e-02 -6.705700917896736390e-01 3.808366246662469035e-01 8.782227669622791888e-01 -2.892891925080136595e-01
-9.381806507254905614e-02 9.534362406105831300e-02 -6.006708919170280492e-01 2.909064311580421558e-01 9.519984549992982492e-01 -9.524909443055191993e-02
-1.090373472445163999e-01 1.112446873292620986e-01 -5.414311135989153811e-01 -4.128519204899394057e-01 -8.615326704695449589e-01 -2.954906926814843127e-01
1.271057532976603913e-02 -1.903710085383461537e-02 -8.421142534956539416e-01 -3.153387296936647766e-01 -7.309285925705375497e-01 6.052312600304441403e-01
-2.976004241450058013e-02 8.043276866155675553e-02 -6.082999777346431713e-01 -8.314283978404721775e-01 -4.820907466437712174e-01 2.762522963974722856e-01
4.803983916096733753e-02 -9.351527242858287403e-02 -9.182747723359364622e-01 -5.694629817899571345e-01 -7.166357685428229596e-01 4.026724321528961648e-01
-8.484887983226545305e-02 7.871414328591661014e-02 -6.859177911513424375e-01 1.659489530743184782e-01 8.519958609334539190e-01 -4.965521099802117089e-01
8.061587801900957362e-02 -1.316429362350331200e-01 -9.236154177180740943e-01 4.777308320015057341e-01 6.295699521270451404e-01 -6.127111289456877996e-01
2.278649107076367863e-02 -1.960453955502377069e-02 -8.204080555588738610e-01 5.519578532139157723e-01 6.875010333427795661e-01 -4.718949644021388501e-01
6.604883036717057107e-03 -6.073666082467395200e-02 -9.108377607850075552e-01 -4.291761573016992792e-01 -7.021858997039891470e-01 5.681045575073713216e-01
1.034680548095507219e-01 -2.106200727575311543e-02 -7.627622029981794283e-01 -5.117845625795490738e-01 -7.447403912487190469e-01 4.282969894220184925e-01
-1.063390671843157248e-01 1.026576970403176720e-01 -5.635381279959016387e-01 3.564192655406751009e-01 9.299661560622722867e-01 9.015683961967252413e-02
9.430661613849533609e-02 1.373291849365418892e-02 -6.925346265165374104e-01 -5.310879604262754849e-01 -7.797676226213471340e-01 3.315238045777577081e-01
-2.570250129853856019e-03 7.232114250672369571e-02 -5.720053494580729092e-01 -4.457082316534543565e-01 5.564831265335494770e-01 -7.011923431696871489e-01
6.191761405870157414e-02 -2.140886671573499767e-01 -1.011523054335182970e+00 9.480404490204450418e-01 -1.152097916383937742e-01 2.965569269663940188e-01
2.343002448575441654e-02 -3.669223570303257326e-02 -8.420786120864190982e-01 8.710763544301625139e-01 4.756257064187514594e-01 -1.224996822294730225e-01
-5.182833144899567923e-02 5.455964068954131246e-02 -7.488062671269847259e-01 -4.388668757294145739e-01 -8.912557724056053843e-01 1.142760409761831852e-01
-1.043243061525459675e-01 1.088377451660222928e-01 -4.894099293223622138e-01 -8.728913637078070664e-01 7.474974735014472405e-02 -4.821546872482053159e-01
1.103593526608389608e-01 -2.839788640018776900e-02 -7.624255176063939876e-01 -9.588420582869727760e-01 -1.067422258954696668e-01 2.631121518875212950e-01
-7.842752812017568520e-02 5.589110968766322629e-02 -7.541189717680820692e-01 4.162428712315602297e-01 8.915889750054165619e-01 -1.783563057413380670e-01
-1.218768403298692814e-02 7.171016022365299392e-02 -5.949705346599326594e-01 5.781561766022931259e-01 7.856884861324981983e-01 -2.200659860483704100e-01
-1.007569631471160881e-01 9.669770073053488013e-02 -6.140132363978457741e-01 3.362185366705571776e-01 9.417836357980540196e-01 -8.239794340801583940e-04
-5.474801523748226706e-02 -1.174307969163902558e-02 -8.755423503363582993e-01 3.845502294159985901e-01 7.620555119057705884e-01 -5.209534699281088699e-01
6.829018909790940395e-02 -2.464288697636843606e-01 -1.021460689528358001e+00 3.884999400556311544e-01 4.919877723581274620e-01 -7.791122052867986980e-01
2.472930134443784150e-02 4.526398183614015885e-02 -6.570362575989736609e-01 2.318493339451817570e-01 9.499145201664200844e-01 -2.095430522021079767e-01
-1.687229974924579420e-02 7.633423129293426257e-02 -6.075015756248802745e-01 6.898013478854037039e-01 -7.058877459907126894e-01 -1.609241762931581943e-01
7.089528588431362466e-02 -1.570312475407913688e-01 -9.667562859803581210e-01 -6.131289846029519541e-01 -4.472125020014015018e-01 6.512095102909659650e-01
6.870449555190055735e-02 -4.751014264194262232e-02 -8.247116441555426558e-01 4.062912995083329815e-01 7.764309256991727137e-01 -4.817493098715927013e-01
4.836288089483007052e-04 -2.026831021463746177e-02 -8.527669256742108628e-01 -6.575068230954478343e-01 -6.311029103684888675e-01 -4.115748948944221719e-01
-2.677206396853682585e-02 6.859023400151305350e-02 -6.396961930081178638e-01 5.351590329498036036e-01 8.080830764016149192e-01 -2.461839781251674575e-01
7.270931082713616433e-02 -1.969605675346017826e-01 -9.941406186177905724e-01 -9.466470072978532269e-01 1.110504830518742186e-01 -3.025346819588851655e-01
-7.782048175793501721e-02 8.150392853320051478e-02 -6.934536028979867428e-01 -3.413990943180201243e-01 -9.195512538673872305e-01 1.946076820419770370e-01
-6.889398902965224170e-02 7.545729949746864118e-02 -7.047788367726516290e-01 -3.214610000103704235e-01 -9.097427686120382884e-01 2.627373601725426222e-01
-1.049450592419941125e-01 9.072968139846171454e-02 -6.951476863425906094e-01 -2.985925806722860565e-01 -9.289649071265396740e-01 2.187845334909303552e-01
-1.838543356726151171e-02 -4.575115303522893362e-02 -9.100813401688963022e-01 -3.563000771126714761e-01 -6.804464348562717646e-01 6.403459255284552620e-01
1.042991381413915699e-03 -9.234948455633791575e-02 -9.406088045536340481e-01 4.544169040507304302e-01 6.735552381806206856e-01 -5.829482124789444608e-01
1.104045134086167335e-01 -6.049872465957372922e-03 -7.245651824167776978e-01 -4.186796579373259775e-01 -8.237619730116850780e-01 3.822611095172773754e-01
6.533709581786667844e-03 6.158545232523622570e-02 -6.353134003829061793e-01 -7.957824744706100129e-01 -5.207270190201488402e-01 3.091498422898232290e-01
3.086750446631561159e-02 -2.345023357527283719e-02 -8.248942092802736825e-01 -7.884687366909315376e-01 3.473396480792989016e-01 -5.076142434301420536e-01
-6.834692281581214446e-02 8.530013356628940446e-02 -5.783026601997621752e-01 -3.321034841209060118e-01 8.693370824415510567e-01 -3.660058919290333224e-01
-7.662129252678905045e-02 8.766380575339143000e-02 -6.241375838006489873e-01 3.587560622905784924e-01 9.333352581001594928e-01 -1.339342214922093453e-02
-5.928268243673544269e-02 -1.086481382153738073e-02 -8.779479499395572706e-01 4.164969637013045123e-01 7.805915329146438930e-01 -4.660548658361596819e-01
1.744479852011544818e-02 -1.445225806747447300e-02 -8.244705834116419219e-01 7.896759136600972617e-01 -3.459751217640185672e-01 5.066686950122963884e-01
9.541662210067973493e-02 -7.176841104745577959e-02 -8.386197506237329513e-01 4.163574498929328294e-01 7.512041697545828178e-01 -5.121901690407403285e-01
1.946556560781157255e-02 -9.791482641309189050e-02 -9.446597508267001730e-01 -5.823854360663788254e-01 -7.128813266643737601e-01 3.906755917011153212e-01
5.668866953188792662e-02 -1.238411093924461082e-01 -9.348823057479859200e-01 2.789800109732982203e-01 7.597890236813263920e-01 -5.872740356687968788e-01
-4.448549938127049908e-02 3.311967787857159756e-02 -7.913068210642763001e-01 -5.968905610633297165e-01 -5.310478253605399601e-01 -6.014231998296581949e-01
6.002148682027477755e-02 -3.543665449788527960e-02 -8.147275671384873741e-01 5.834772412759389182e-01 6.476996905862408838e-01 -4.899381794956454428e-01
8.567084154166246246e-02 -1.374243041592119741e-01 -9.377528128979033539e-01 -4.603446609491897434e-01 -6.309902525037559551e-01 6.244470308847835938e-01
-7.750080728495156723e-02 1.024120424106159249e-01 -5.509788239380974950e-01 -8.015487883577362971e-02 -9.967783281710114185e-01 2.856551666898891721e-03
2.951095352867686566e-02 4.849271072788846615e-03 -7.784674618082103592e-01 -8.970566449406401910e-01 -1.913088629074116420e-01 3.983595043938521485e-01
-5.535838372507645433e-02 8.877128388287834626e-02 -6.204450577045960147e-01 -2.925337766711582632e-01 -9.460363366294021192e-01 1.394246724340045263e-01
1.114037057696752459e-01 -4.064467931697449826e-02 -7.839741166558397145e-01 6.689910443427885545e-01 -7.413029841746336945e-01 -5.404505752544157965e-02
1.386907185257479566e-02 -4.518867774709365431e-02 -8.824366319482546128e-01 -3.264479874166579254e-01 -6.881141568432510569e-01 6.480205387667241634e-01
6.372103503195011842e-02 -2.555836730902158460e-01 -1.034288603261937833e+00 9.481710097149523842e-01 -1.279483331112134525e-01 2.908624423850387775e-01
-7.478755743755403917e-02 7.479974327959887370e-02 -7.134240549752409732e-01 -2.831882580859741982e-01 -8.924206660093141341e-01 3.512687936064398664e-01
3.991402565731694274e-02 -1.414625400747386852e-01 -9.633918787781412529e-01 5.082404216596714264e-01 6.340276423165677189e-01 -5.828384189204534049e-01
6.316832430802449272e-02 -1.587929820932021743e-02 -7.859200575519353915e-01 -8.813676223477516780e-01 -2.033828260150994105e-01 4.264112338566880545e-01
-4.281147516004213394e-02 5.828380433060732779e-02 -7.045999380305519866e-01 2.315388787513038560e-01 8.551474147600977016e-01 -4.638023788810387571e-01
5.187840896493699228e-02 -5.167660329507854297e-03 -7.816085932150372839e-01 -4.157409461494206426e-01 -8.075741892625545315e-01 4.183101654654264312e-01
4.344104213109226120e-02 -4.444166344443283706e-02 -8.506113393907219766e-01 3.891794240475706101e-01 -9.058205196520334734e-01 1.674173290771339140e-01
7.018973853039071897e-02 -2.711785798574505302e-01 -1.051386709404142694e+00 1.688988884846294170e-01 -4.559060882670565307e-01 8.738551391104179000e-01
-1.865608339090427809e-02 7.757670879171039285e-03 -8.238495445792753946e-01 -3.889095294190479946e-01 -8.138015377910472470e-01 4.318291734192830633e-01
2.579414728300241655e-02 -6.824781380558909288e-03 -8.152669736550359758e-01 -4.800818689277123741e-01 -7.889911431445849610e-01 3.834245364687503543e-01
1.112702961943882324e-01 -9.814822251901141395e-03 -7.207467271636444073e-01 -8.337376700231228233e-01 3.589997273572025360e-01 -4.195243656116635078e-01
-2.839000904636778538e-02 -3.876087423606459220e-02 -8.948000578367106828e-01 4.413426836095233341e-01 7.452811089213715601e-01 -4.997726526224449128e-01
-9.280311652414001411e-02 5.965390246720338879e-02 -7.696501867932453722e-01 -2.890884993832750771e-01 1.623349226908715748e-01 -9.434379748554089229e-01
-1.091639519951830561e-01 9.756591806292137792e-02 -6.571631397978807687e-01 4.962404416966852971e-01 -5.650097024400074774e-01 6.591733157321623127e-01
8.963420075143921362e-02 -1.043465479211188804e-02 -7.523429529646082914e-01 -1.529314312305373180e-01 -9.296049447668579546e-01 3.353306189520820491e-01
6.233481301457161755e-02 -1.015691215906449896e-01 -9.170656910318273347e-01 -4.711852014591589866e-01 -6.607447978214269213e-01 5.842951463753686125e-01
-6.051708927923919734e-02 8.204808442332907348e-02 -6.500633007304134070e-01 -5.100755234612939226e-01 -5.384084773375559241e-01 -6.707751276670458340e-01
3.688725592829732169e-02 -1.014967740961975617e-01 -9.346595743184109573e-01 -3.405661340231318501e-01 -6.023295494974996167e-01 7.219513987511052555e-01
6.009783697955754789e-02 -1.177224021087991124e-01 -9.408605369668739948e-01 -5.470857789318820386e-01 -6.069864157832584040e-01 5.764240119435427578e-01
7.631625059002050682e-02 -1.002076949506319758e-01 -8.923113922712492263e-01 2.939608946810947088e-01 7.920736679766831045e-01 -5.349825201782331119e-01
2.130541993702125131e-02 -7.473668264586008636e-02 -9.041760669720612098e-01 3.143414336568007283e-01 6.285416791118699775e-01 -7.114245010581364825e-01
-7.115887949175890570e-02 8.973717989393742434e-02 -6.009710817191660226e-01 1.911071141354367398e-01 9.310869732693979328e-01 -3.107331960619212352e-01
-2.105667784252929567e-02 5.259489091805746169e-02 -6.839445941462899414e-01 -8.022722115351172967e-01 3.661281947211316723e-01 -4.714970239872118829e-01
3.310783010971788537e-02 -3.131148036994967077e-02 -8.297991805285516165e-01 4.000937314990378746e-01 7.913663542784531435e-01 -4.622383577021769163e-01
6.660569846870088850e-02 -2.919747195768794268e-01 -1.058763648273998825e+00 7.793781057399064016e-01 -2.652361242488562310e-01 5.676438731165170948e-01
5.738296229566488410e-02 -4.947190430423129004e-02 -8.377048022406184957e-01 4.330145909490258904e-01 7.549449127201074417e-01 -4.925002972418159874e-01
2.836779257888422459e-02 -8.268529954296939544e-02 -9.211185331691548184e-01 -4.407665731817555499e-01 -6.878960203084294456e-01 5.766488474014639376e-01
1.273422553370041595e-03 5.308205999579850010e-02 -6.701731721656708496e-01 9.270649542659289422e-01 1.349701750435048087e-01 -3.497622369848363277e-01
-4.602476647331477794e-03 6.905510516652837993e-02 -5.926101746888555732e-01 3.134913262620956376e-01 9.361134185965097609e-01 -1.594203747392031467e-01
5.555995013345150363e-02 -9.764017073648674494e-02 -9.175542020738096660e-01 -4.561115253224134469e-01 -6.742232533088671209e-01 5.808487592873627925e-01
2.600762814630165273e-02 6.300917545375851747e-02 -6.012696918550481939e-01 7.691007972003648385e-01 -5.968786410821628197e-01 -2.285166330175421034e-01
-1.113149833383709486e-01 9.123021829344943323e-02 -6.960508462579128031e-01 -9.430665500246131205e-02 -9.217625487162631748e-01 3.761117634511655927e-01
-9.070932554555823091e-02 8.581601514713894929e-02 -6.950217426140206101e-01 -3.141458440767465610e-01 -9.190164737960492269e-01 2.381619397401360250e-01
-9.097738554155622437e-02 1.004942660322596243e-01 -5.256452878921300531e-01 9.003407851543386575e-02 9.937667431373666815e-01 6.573830648889303352e-02
3.885365808279223759e-02 -8.363351815424709124e-02 -9.003497618066127473e-01 9.415679196225408276e-01 -7.844208161433516291e-02 3.275617385618942445e-01
1.671951511546310859e-02 -1.098431187452304520e-03 -8.112255901729054086e-01 2.064737369643017406e-01 -7.738264542836708060e-01 5.987998117858406300e-01
-8.467872594872961206e-03 2.866717127366758336e-02 -7.505230528737982798e-01 9.309097091838772764e-01 -5.705669380954594971e-02 3.607653628588990413e-01
-1.104384709265462394e-01 8.891229925137472678e-02 -6.993000676108661606e-01 5.681613833816906434e-01 -3.821976906989422718e-01 7.287781333562356467e-01
7.829582137048710089e-02 -2.548441275157616870e-01 -1.035448754097124002e+00 -9.193144613274346622e-01 -2.173321595640642090e-01 3.280665383934616708e-01
-2.946253526385562635e-02 5.258613955474443491e-02 -6.818346613125282341e-01 4.157245585907975438e-01 8.819147336931401071e-01 -2.222599691339948447e-01
5.648952687565551162e-02 -3.602866082012244793e-03 -7.739723957738565696e-01 -4.099433619778741211e-01 -8.209235813233757284e-01 3.975310221825218426e-01
5.454829976093362315e-02 -5.067571214553925896e-02 -8.571242881083527276e-01 -4.027185363534869778e-01 -7.678786681326263963e-01 4.981768074731793838e-01
6.226933852926504892e-02 -1.290677204864439098e-01 -9.397835559089730006e-01 -7.796937266459823546e-01 3.204328032465839637e-01 -5.379595814115001318e-01
8.095941820942186007e-02 -2.390843457134485608e-02 -7.725369504131557319e-01 4.141093403457334343e-01 7.991158396344874015e-01 -4.358065271237797078e-01
-3.421269050849750411e-03 5.838517541701263719e-02 -6.585804036680240614e-01 -2.563607139063719953e-01 9.665809725371133920e-01 6.386662849754050093e-04
6.476303543685638098e-02 -2.410939390028147278e-01 -1.030528955473733799e+00 7.799124997744116827e-01 -2.898377319223591209e-01 5.547346950117065800e-01
-6.992424784763710821e-02 2.330638909682212004e-02 -8.426978185526803333e-01 -3.939287279446246348e-01 -8.189999143223345435e-01 4.172041438432013138e-01
-8.023404731198634232e-02 9.571131535276249103e-02 -5.432673737565908434e-01 -8.182791469644353777e-01 3.807596522550816265e-01 -4.306289874796466188e-01
-8.762763833029774130e-02 7.345831645457354120e-02 -7.095636715706201691e-01 4.008594065995229605e-01 9.081861246478705185e-01 -1.204562125328571959e-01
-1.519738705143755010e-02 6.908953732857746333e-02 -6.133067556728748482e-01 3.305156136463607286e-01 9.270472767836799299e-01 -1.770389102540254611e-01
-5.653518391947717076e-02 1.474765876363712085e-02 -8.466287967871612974e-01 -3.988639594757452111e-01 -8.054341898763925922e-01 4.383871663375768502e-01
5.921688588760431506e-03 9.630619241553501145e-03 -7.954475569332764007e-01 -2.803745058740238494e-01 -7.783939819943053173e-01 5.616875868763223645e-01
-7.396168600545718896e-02 6.675256191362664848e-02 -7.346908061808495871e-01 -5.568350139289381939e-01 -5.303358389142569518e-01 -6.392798019849136315e-01
-9.342380723192855729e-02 9.403680652613255475e-02 -6.196481819155691406e-01 3.391128089643177246e-01 9.407388837326465802e-01 -3.585446943489385089e-03
1.869111550357012907e-03 4.193606177956519382e-02 -6.975287269379599753e-01 3.774128349017497608e-01 8.810695559121487497e-01 -2.850894415726297204e-01
-3.546229531696241943e-02 8.933023299877687617e-02 -5.721684093076372379e-01 -3.010789511627102732e-01 -9.465238123309910323e-01 1.159488588006330617e-01
-6.525031424712564310e-03 4.658310850833861927e-02 -7.197214648533776238e-01 -8.142441739572143788e-01 -5.768640697938993700e-01 -6.507126983202825288e-02
-1.526258213749531051e-02 1.211337714105375357e-02 -8.120950719752126901e-01 -4.102393507620427648e-01 -8.324394163516712908e-01 3.724893195655770151e-01
-3.637506825335915656e-02 2.583909677617241343e-02 -7.932848751822877409e-01 -1.746150949617267523e-01 3.139339557890162835e-01 -9.332497200718397057e-01
6.656466233407093425e-02 7.229667416998623516e-04 -7.546250624985391120e-01 -4.114887608353177129e-01 -8.203870461859604779e-01 3.970416781101064330e-01
3.680076186907025454e-02 -1.183620170568562280e-01 -9.544878809721455415e-01 -4.674079098358776552e-01 -6.515838187438094398e-01 5.974683029032507031e-01
-2.800564046432746715e-02 1.925011099984413193e-02 -7.970672870294465140e-01 -1.746150949617267523e-01 3.139339557890162835e-01 -9.332497200718397057e-01
3.441617709660408503e-02 -7.896408267260818237e-02 -9.105054229975617641e-01 -5.736182376779688230e-01 -7.333184480565013708e-01 3.649742061341121890e-01
5.124554614729391611e-02 -6.627954861198397107e-02 -8.677504390034899151e-01 4.132995490185478737e-01 7.473638944373868220e-01 -5.202217720092535691e-01
3.699651907473250172e-03 3.979306440874666798e-03 -7.919488325349395286e-01 4.797755336421119510e-01 8.432867242860088153e-01 -2.422456149477214271e-01
2.246262861534695232e-02 -1.074061704259758887e-01 -9.538565053083449818e-01 -5.035150076068196645e-01 -6.630797096020702996e-01 5.538934336393046554e-01
-9.029165618113307867e-02 1.007109286920926799e-01 -5.297273914515158166e-01 -4.775799179361504554e-01 8.014788743492508027e-01 3.599292096453940437e-01
-6.386942216142548791e-03 -7.671293057392862547e-02 -9.410919675623062863e-01 -4.799585353565639645e-01 -6.989849614592144045e-01 5.301507596827929047e-01
-1.072555202801063617e-01 1.018500993762376100e-01 -6.421772048112059927e-01 -2.854188328908764949e-01 -9.417115005609190126e-01 1.780885721839335634e-01
1.038643708653055816e-04 -2.170900266244361193e-02 -8.505695233717955883e-01 -1.529975135910419393e-01 2.735571972541075425e-01 -9.496095095698212640e-01
4.278159195603090104e-02 -9.207913265586048501e-02 -9.210770589226612293e-01 -4.602838796485748118e-01 -6.825933395801407899e-01 5.676311151588565584e-01
-3.511263590173383659e-02 8.772553977596182773e-02 -5.839306904843301060e-01 -3.039449068247447872e-01 -9.437616456779215346e-01 1.301209044027854256e-01
9.396111593158491815e-02 -1.322134483851168663e-01 -9.254620252676842851e-01 -6.457002148972550426e-01 -4.666010609485259919e-01 6.044457646500209780e-01
-4.488026770804584564e-02 6.805132641539730909e-02 -6.664811568985986590e-01 2.884564295507977549e-01 9.199800671026965304e-01 -2.653856898638728423e-01
-2.021114864691653593e-02 -6.771470343856178520e-02 -9.279572816313598205e-01 1.050808037533589173e-01 5.083462123867547033e-01 -8.547175867118850245e-01
4.213589313853643298e-02 -1.861262861537902463e-02 -8.159331617298005712e-01 -4.320112146906156525e-01 -7.803733872585731923e-01 4.520881405656643204e-01
-1.056650974438963220e-01 6.213491380815753390e-02 -7.882178162215194295e-01 1.856594990986819571e-01 -7.703148245185782450e-01 6.100373935434930672e-01
-1.938347557382293432e-02 2.638408507408232864e-02 -7.652714906778632642e-01 3.702021136191581130e-01 8.569623483476126458e-01 -3.585609133556714734e-01
7.426774110348670355e-02 -2.113008440148203826e-01 -1.004424741645234764e+00 -9.475239147823538710e-01 1.161022530687979559e-01 -2.978568410291619895e-01
7.108036484121314780e-02 -1.186836329562139351e-02 -7.637408217641104002e-01 -2.297869626502946627e-01 9.603900444868325170e-01 -1.576353838658445528e-01
7.127871422585015104e-02 -2.713087622527887155e-01 -1.034780937871142781e+00 -1.573186088318810905e-01 4.759356780835263256e-01 -8.652953747954368335e-01
-1.046428827738832418e-01 1.032022291633516858e-01 -5.221253201162705526e-01 2.338599993177614134e-01 9.721821890968056490e-01 1.308785398908453475e-02
-9.373469408059503793e-02 9.678730841227574377e-02 -5.243864778720355169e-01 1.812093739236370904e-01 9.820379790197880654e-01 -5.257918376063083765e-02
-5.676903751657994684e-02 9.552733355285991657e-02 -5.579359266462226019e-01 -3.617784616092424854e-01 -9.263518212790347039e-01 1.048267519704068479e-01
6.744140359389159955e-02 -5.514984474155113642e-02 -8.383362902927382621e-01 2.677783634473901997e-01 8.434341530037496870e-01 -4.657398175121864048e-01
-9.257947324896228722e-03 -1.964382062006460317e-02 -8.496641443785146741e-01 2.960359866373865056e-01 7.164942436948658067e-01 -6.316634336161556229e-01
9.894663287547386665e-02 -2.954020486664120024e-02 -7.666053203193808896e-01 2.999181729941494123e-01 8.645843121970806511e-01 -4.031662890304106850e-01
-5.888533328450247517e-02 2.200347081945316571e-02 -8.279043424310591481e-01 -6.033242128051236053e-01 -5.422669171401223176e-01 -5.847619043836780328e-01
-8.445281936419690716e-02 3.942918913418579085e-02 -8.232833799751648751e-01 -3.838298283960874246e-01 -8.405207320365006840e-01 3.823605129328278007e-01
5.193014717621703691e-02 -4.131167071801420537e-02 -8.317691658647172748e-01 5.684367068528872746e-01 6.510740536077878060e-01 -5.029734456419824307e-01
-1.568099828248838146e-02 1.586667847592462821e-02 -7.883676583071699273e-01 4.712570759115818908e-01 8.542884275221889201e-01 -2.193354759379602392e-01
-8.060131712072948762e-02 7.983079251170743795e-02 -7.041037548533056745e-01 -3.337033623399754956e-01 -9.079136383721392312e-01 2.536432361031126792e-01
1.058029706595135372e-01 -2.238757205619780824e-02 -7.622770904271111148e-01 -5.117845625795490738e-01 -7.447403912487190469e-01 4.282969894220184925e-01
2.457798302821902203e-02 4.706645687307887960e-02 -6.500251123834973610e-01 3.203633233038507000e-01 9.175385911994009547e-01 -2.355637381719249135e-01
-3.919872933594659159e-02 7.323416477795183233e-02 -6.705189002883592542e-01 -3.125690924258530679e-01 -9.237497192074556329e-01 2.213301125563932326e-01
5.582008547672462351e-02 2.371973193360187374e-02 -6.891730708286846196e-01 2.395031930405392973e-01 9.338888431750104191e-01 -2.654992450396556070e-01
1.172190641658408389e-02 5.938721037473680686e-02 -6.458529210736501103e-01 6.488490476569164223e-01 -7.496908154342268871e-01 -1.302251688740561630e-01
-3.907767830885959526e-02 5.824415262049243563e-02 -7.238951658418329993e-01 -3.406601390604588886e-01 -8.917012350191709791e-01 2.980261349623450351e-01
-4.769994968380680822e-02 8.472763608001798730e-02 -6.380383688766066985e-01 3.108770019070918877e-01 -8.793719627167729813e-01 3.606389342166321788e-01
-5.221687947174537964e-02 -4.637976889609601513e-03 -8.751359297960955574e-01 -5.500183365445080463e-01 -8.137282487761861027e-01 1.879525647828560186e-01
-1.003836869863609649e-01 1.090161813295981025e-01 -5.267933293228971303e-01 -1.926415191492616974e-01 -9.627962622413294147e-01 1.895062070592671566e-01
-1.011542351540447165e-01 8.031604954880024183e-02 -7.304856934368090249e-01 -3.801637498881130228e-01 -9.026711969525111900e-01 2.016438282301968865e-01
-1.083851667997225710e-01 1.114225657989664497e-01 -5.028767272429807145e-01 -1.174509892089915797e-01 -9.848243923176919212e-01 -1.277739466006991564e-01
9.405871816251696119e-03 -5.877459156812020469e-02 -9.057337392717051960e-01 -4.511573133483272047e-01 -7.306154012447400037e-01 5.125019161684245539e-01
-1.078952946781673028e-01 1.033442613993804243e-01 -5.466873201190372011e-01 2.544993973145292521e-01 9.661903768785686797e-01 -4.130632389587202830e-02
2.350958002355286666e-02 -8.820370393593812697e-02 -9.184552236374281531e-01 4.570510743073795679e-01 6.990585279131203977e-01 -5.499286226651706189e-01
-5.701540307189000012e-02 9.180479607131457331e-02 -5.929993328309677292e-01 -7.644285975770652719e-01 -6.220144436482741845e-01 -1.695492586220570808e-01
-7.879548300085241486e-02 8.856210381031486001e-02 -6.197765448507789321e-01 3.587560622905784924e-01 9.333352581001594928e-01 -1.339342214922093453e-02
-9.101421732782474794e-02 5.528479402889582145e-02 -7.721864604852543001e-01 1.964122384440356583e-01 7.792479570826210677e-01 -5.951427173140617644e-01
-7.340437729430054556e-03 5.801116908204372730e-02 -6.571566646322996030e-01 2.110690962065270015e-01 9.592018152937171749e-01 -1.881002768838941075e-01
-1.022994780297079159e-01 6.350109370542653120e-02 -7.833841603289360966e-01 -2.862649074304361441e-01 -8.802465682704697647e-01 3.784420455260028016e-01
2.779284775729158607e-02 4.553174626176931250e-02 -6.764411866995867495e-01 -4.408790476721927143e-01 -8.484421661697215677e-01 2.928678131664373407e-01
7.184638122480896394e-02 -1.515556651843356362e-01 -9.499765727751117161e-01 4.500670285102368884e-01 6.169621912464758884e-01 -6.455984234958389578e-01
1.996025759717117570e-02 6.068126223679797676e-02 -6.344351221196895541e-01 -3.120049044580421871e-01 -9.263600443641581972e-01 2.109739505241405855e-01
8.804787773813223251e-02 -4.314722536008849113e-02 -8.025160290279798048e-01 2.986744575470409724e-01 8.515799052882495612e-01 -4.308192582954447070e-01
-6.610294579911128732e-02 -1.427771963225736790e-03 -8.692119216151956707e-01 1.632525341066650704e-01 6.368529415047157194e-01 -7.535031128034862524e-01
-1.038985575732344901e-01 1.001331720291989413e-01 -6.458759814502817997e-01 -2.854188328908764949e-01 -9.417115005609190126e-01 1.780885721839335634e-01
7.853765841503884682e-02 -3.064761189715342615e-02 -8.041345160035966444e-01 -4.324134070229713189e-01 -7.823893761129522284e-01 4.482025318674264791e-01
-3.071937727134640972e-02 2.449412458684782981e-02 -7.994300276381641757e-01 -4.931719166914979025e-01 -8.533852780780235570e-01 1.688639326396515483e-01
-6.357296691053178350e-02 8.185511477322165996e-02 -6.120130557162517526e-01 9.139069482655587384e-01 -3.800841791038481882e-02 4.041403841239859518e-01
6.259064738221910285e-02 -1.026421461406996916e-02 -7.632281039837152115e-01 2.541346817132061342e-01 8.973321151241192561e-01 -3.608471126632468717e-01
-8.561698303280617164e-03 -1.041738255119442104e-02 -8.336602863008789610e-01 4.943763673241956536e-01 8.164719489306274669e-01 -2.982709574208572412e-01
5.368550754715876311e-02 -4.183116107550102769e-02 -8.304577952914712347e-01 5.684367068528872746e-01 6.510740536077878060e-01 -5.029734456419824307e-01
-4.628953885250573080e-02 -4.356842250195739653e-03 -8.563140317193738138e-01 4.755774298929421606e-01 8.135579629772922150e-01 -3.345886266038680112e-01
-7.255928927234177317e-02 8.764987868295186224e-02 -5.689410495832564196e-01 2.190482915056803370e-01 9.637677602224669071e-01 -1.522154734059983083e-01
8.934829960808721161e-02 1.946021784181828362e-02 -6.675303350746167874e-01 -7.415888681252408299e-01 3.193034953134356591e-01 -5.899925665238054950e-01
3.669887793263422460e-02 4.727783784188641092e-02 -6.351494321035943136e-01 9.927283009475947051e-02 9.726612242095873384e-01 -2.099405823657817527e-01
-3.102000624042281288e-02 6.214952094699803531e-02 -6.947413817927693414e-01 8.050278892152321064e-02 -5.345622610626551419e-01 8.412862117159881636e-01
6.543406546664728984e-02 -9.236561702279706687e-02 -8.905800216125208113e-01 4.541638488433768495e-01 6.948444991702532603e-01 -5.576076760380996866e-01
-4.420736747929161770e-02 9.011296442266730766e-02 -5.549038086275681625e-01 7.587952030572336914e-01 -6.158225194044719686e-01 -2.121142720602751663e-01
-4.186383327889415390e-02 4.670640795682214769e-02 -7.603385174771788435e-01 -3.832166928686179808e-01 -8.751642325650499377e-01 2.953515402798277956e-01
-3.250222546687226571e-02 8.572845573269080588e-02 -5.918310015762792142e-01 -4.133435299592651546e-01 -8.973054416158644520e-01 1.548872838143030561e-01
-2.829629465210388092e-02 5.170487598114115180e-02 -7.304703471979590024e-01 -3.438871228091622267e-01 -8.804869339146745855e-01 3.263194845110720110e-01
-1.953834867267171052e-02 5.062613235416769941e-02 -7.231791439669803534e-01 -3.750029845567871556e-01 -8.824975281736979760e-01 2.838500913172570250e-01
7.240980886403824979e-02 -1.046374397245753152e-01 -9.116695607278760827e-01 -5.775833279626330086e-01 -5.609173529130411229e-01 5.931013593481614388e-01
6.263237387023738723e-02 2.658473480348306356e-02 -6.725462794163470370e-01 2.430373297296026802e-01 9.346627464551588993e-01 -2.594964484281119810e-01
-5.286222405213048675e-02 -1.720024169987506221e-02 -8.826102204552777053e-01 4.368429499622175083e-01 7.721881380227038072e-01 -4.614040708157410853e-01
-6.584231971866136290e-02 9.739012272417178762e-02 -5.757736044936059283e-01 -4.955412190607667577e-01 -8.598428664883412953e-01 1.229192627739110477e-01
8.456487611550757288e-02 -7.961536941065092132e-04 -7.218047290778930591e-01 2.699142529084256892e-01 9.041018726534565397e-01 -3.312794891649640250e-01
6.357363827528962619e-02 -1.198280858906132160e-02 -7.813389326880509911e-01 -5.255194533739147023e-01 -7.312927063460951116e-01 4.347876283550232146e-01
7.568914141225098480e-02 -7.803216817709258957e-02 -8.776447103487521328e-01 -4.148562264208720540e-01 -7.393034966806992792e-01 5.304004630423370115e-01
5.092686887865528061e-02 -1.013286026582374266e-01 -9.254071920588256006e-01 -4.927080044476908616e-01 -6.744088324667927292e-01 5.499195841611314028e-01
9.043643098222108045e-02 -1.897454080474151802e-02 -7.715720805828215623e-01 -3.924917950881572914e-01 -8.156048714689982937e-01 4.251339605636260122e-01
-4.600510442326071620e-02 6.580886391360200871e-02 -7.071691953540258924e-01 -4.322615226775838315e-01 -8.986321679948103824e-01 7.490128608644451569e-02
4.367878499332476100e-02 -9.092986667690047820e-02 -9.189549228489297672e-01 -4.582496583332107409e-01 -6.921075068925446327e-01 5.576687632820059859e-01
4.151457922415803525e-02 -7.970232456302765375e-03 -7.793991277984406718e-01 5.763598548924242504e-01 6.944589815335756589e-01 -4.307389472008920084e-01
1.228508105800988071e-01 -4.625949806211404614e-02 -7.841268847236181339e-01 -9.307391922349106395e-01 3.081724280842420005e-01 -1.968611454974520114e-01
1.698699857193922136e-02 -9.415922629523492326e-04 -8.043480569955179238e-01 -2.815608243501095398e-01 -7.721184494699545597e-01 5.696986942054546033e-01
-9.291310475394637391e-02 6.808565486082548968e-02 -7.333983766078678856e-01 3.326509911495121874e-01 8.983922018413644794e-01 -2.867660540542974479e-01
-2.043123338123393681e-02 -8.773828437568695696e-03 -8.433025536242955145e-01 -1.726380216367437159e-01 2.608855958148560972e-01 -9.498077802280201487e-01
1.783667582394297957e-02 6.079248639501468043e-02 -6.348351028002447993e-01 1.198189722017140718e-02 -9.919479498871207612e-01 1.260781458213257600e-01
6.662969205978029608e-02 -2.668748356721092341e-01 -1.046352037197649576e+00 7.767648902917708709e-01 -2.856940545105897122e-01 5.612621601598610788e-01
-1.973378786949666827e-02 3.984847247134454262e-02 -7.190151269649506238e-01 8.144932877041739516e-01 5.765001095585964297e-01 6.517904543465032063e-02
9.725558406765387465e-02 -2.281262405713965422e-02 -7.721847754431367949e-01 -4.143277217993693862e-01 -8.017331810571489692e-01 4.307626322471914126e-01
-1.876628069922313749e-02 2.780220573062052239e-02 -7.818033933011385717e-01 -3.721500301521427634e-01 -8.501287343651838802e-01 3.725392463411208444e-01
-5.737936505526160247e-02 7.770968006521282445e-02 -6.100334476996442934e-01 2.189601954839280606e-01 9.637817666695795982e-01 -1.522535353576534023e-01
1.197196033583930175e-01 -5.414316824500026853e-02 -8.055825014927739947e-01 -5.435793307449892087e-01 -6.716533477515930217e-01 5.033917874190118047e-01
6.514007138649997863e-02 -1.051722084442101024e-01 -9.188780022756205534e-01 -4.711852014591589866e-01 -6.607447978214269213e-01 5.842951463753686125e-01
1.007245340648147275e-01 -3.426596588482149625e-02 -7.754199249123842064e-01 2.875989256249120718e-01 8.676513349088711413e-01 -4.055465682387787152e-01
1.073302370179571447e-01 -9.352709415695531492e-02 -8.665114609678274959e-01 5.505794246617924381e-01 -8.328622862983571240e-01 5.659248360836332398e-02
8.570001285580773620e-02 -1.486312333832252308e-01 -9.426575616282762970e-01 -4.066508993419167273e-01 8.525189039611675845e-01 -3.284000067802375633e-01
3.015653508350189284e-03 3.491274867074681265e-02 -7.462526948822854056e-01 -8.455066313781736120e-01 -5.335939235461794050e-01 1.990128262517819324e-02
-7.183645123031177915e-02 1.013141150493482023e-01 -5.514088025034458163e-01 -2.623182355978542768e-01 -9.637195059809603448e-01 4.933413690987620281e-02
-4.407270835986813740e-02 -2.154477449303419251e-02 -8.970119879270915808e-01 -3.389322039376904128e-01 -7.094275865804779979e-01 6.179299802829913979e-01
-9.487218367551226994e-02 1.017583341469216890e-01 -5.310852216127199821e-01 2.675128823221208929e-01 9.512899768517220078e-01 1.532456776981376834e-01
1.108220294470184039e-02 4.887784811393662554e-02 -6.619723959465685370e-01 3.515647249208209701e-01 9.034310084746917102e-01 -2.453867500859588935e-01
-1.228884402470035997e-02 1.765016972229616760e-02 -7.924890240347166603e-01 1.174164835269636414e-01 -4.200752715721691732e-01 8.998611757430868829e-01
4.399496196450480845e-02 -7.742058871037429957e-02 -8.892277637374671473e-01 2.737081807712928305e-01 8.107587927574608777e-01 -5.174495257948683591e-01
-2.665279920390691004e-02 6.357685558065775955e-02 -6.579261386213369756e-01 3.846999740052413630e-01 8.969456852125283763e-01 -2.179320255928319794e-01
-9.826190746596213943e-02 6.528406565568302400e-02 -7.527484048438839448e-01 4.100742937719024650e-01 8.946850706397604380e-01 -1.771375114474692258e-01
1.049575702341002947e-01 -5.456800410426191489e-02 -8.042341235652661346e-01 4.686730982680508140e-01 7.419220234955226090e-01 -4.794760035832191791e-01
2.745674200595368125e-02 -1.191396427930416918e-01 -9.620491549818682708e-01 -4.581324780189245383e-01 -6.315197037694536553e-01 6.255377657145738679e-01
1.051418998840718093e-02 -4.510622773078575010e-02 -8.840391419722440913e-01 -3.264479874166579254e-01 -6.881141568432510569e-01 6.480205387667241634e-01
-1.102933060137033100e-01 9.452493227502035966e-02 -6.442364463860086321e-01 3.306158663759583560e-01 9.357625617637910231e-01 -1.226441066735030200e-01
2.974400828442149564e-02 -4.327642226628048566e-02 -8.451474808333385713e-01 3.520637243214639334e-01 7.782542032933854603e-01 -5.199726233880762605e-01
3.398130079316464408e-02 -6.937517220431010934e-03 -7.881877347130233913e-01 9.053543430887897037e-01 1.004770036898243041e-01 -4.125989398674958508e-01
-2.864389550536983534e-02 9.008091862838223107e-02 -5.420937619538465091e-01 -2.891229548742113575e-01 -9.538962041763248134e-01 8.056021737063417953e-02
5.342970793715772632e-02 -8.116980017520099289e-02 -9.004884341049136376e-01 -8.916684856368746193e-01 -4.130856922150801802e-01 1.851689029217135352e-01
-8.771018002634144162e-02 5.629416240714709557e-02 -7.718221247353445058e-01 -2.631928705746794939e-01 2.298236983159434588e-01 -9.369688258266880565e-01
-1.009835875573265873e-01 8.230526882477683104e-02 -6.906286808179598058e-01 3.451284925074488696e-01 9.165440785515764910e-01 -2.020724516889362832e-01
4.880628163300879119e-02 -1.396583480227823505e-02 -7.835886386032278050e-01 3.817264012236011861e-01 8.281077863312221732e-01 -4.105148582286407000e-01
4.714421231108120725e-02 -1.195495053175617967e-01 -9.342993482592456544e-01 9.441612620066407446e-01 -8.702532070705511213e-02 3.177831098121197684e-01
-2.610906403320922484e-02 -3.951404245468165960e-02 -8.939097710257299934e-01 4.409209285677181400e-01 7.453252866403616839e-01 -5.000789456130341204e-01
-9.239974799229867808e-02 9.540245248005004008e-02 -5.972928512222492881e-01 2.497165849243834224e-01 9.580015495740447085e-01 -1.409775096511229064e-01
-5.299082318226745747e-02 7.197319053193863836e-02 -6.620485614902377192e-01 2.992672535065636352e-01 9.247332576618567668e-01 -2.351754943711790724e-01
7.380635374904938317e-02 -1.219377294381602111e-01 -9.243981785036458065e-01 8.785035915542903640e-01 -1.064007112231494939e-01 -4.657363291363696423e-01
4.369506043049607713e-02 -1.054639188453867088e-01 -9.346564947688190683e-01 -3.674280834338467527e-01 -5.995193447153930322e-01 7.110366789527498010e-01
-8.414164557019813973e-02 9.727538108760654112e-02 -6.200715802789851239e-01 -2.351202609090601581e-01 -9.338138521426929683e-01 2.696482012854531929e-01
8.662702880107497894e-02 -3.941467091646726900e-02 -8.098879841841953864e-01 -5.273810720548544051e-01 -6.968606543519516583e-01 4.860601127992735804e-01
-9.657880333184187815e-02 9.670359531860271696e-02 -6.521411755460120308e-01 -2.932042766309043147e-01 -9.399329753117641184e-01 1.748063330858544429e-01
-5.812565654216121820e-03 -5.807931138657732029e-02 -9.161374654890300784e-01 -3.581205007476702118e-01 -6.587580902862670840e-01 6.616551106328949494e-01
7.068087166949360567e-02 -2.731551042045207711e-01 -1.052512824340917641e+00 1.688988884846294170e-01 -4.559060882670565307e-01 8.738551391104179000e-01
2.597937718219922587e-03 6.651958918910440277e-02 -5.949120610781879481e-01 2.595830158761435191e-01 9.527631597200981739e-01 -1.576674327463366276e-01
5.069553640182843796e-02 2.080432361241797354e-02 -7.209987064867001694e-01 -4.965436799110268251e-01 -7.851456385665122051e-01 3.701225475168992696e-01
-4.494608682160171342e-02 3.358644120822087964e-02 -7.936321777308429359e-01 -5.172730985702215234e-01 -8.495936965143052744e-01 1.030489802895707546e-01
-2.461297631311716236e-02 2.371614831598040183e-03 -8.304156697203252113e-01 6.430670999467069660e-01 7.139248988323677603e-01 2.770847231323393944e-01
-6.780304693659519599e-02 6.565492917626254699e-02 -7.085603187695372895e-01 3.521092570128713795e-01 9.046691129727992831e-01 -2.399851394542008853e-01
-3.273231711721933529e-02 8.311709009677882565e-02 -5.460276789832174682e-01 2.824994838853230883e-01 9.558544580694712245e-01 -8.084736602539176198e-02
-2.417826098698003245e-02 5.441286180620834301e-02 -7.146078818784248332e-01 -4.152483459636627239e-01 -9.000059991309542484e-01 1.325066515414800028e-01
-1.167733967492005920e-02 6.995645655687734998e-02 -6.016758429108853834e-01 3.219569947886082306e-01 9.320558751028865663e-01 -1.661792381523045647e-01
-2.667738703481268084e-02 7.272535875280974893e-02 -6.335583765391508138e-01 9.264721705041483180e-01 1.903486502765359689e-01 -3.246793935857859026e-01
-4.737130511247802239e-02 8.183845886038457196e-02 -6.400098072231158453e-01 -1.977574984584508366e-01 -9.164728788780065472e-01 3.478066044291203696e-01
-8.354419347308419952e-02 6.562967770685605717e-02 -7.319598159644267188e-01 2.221955871498143276e-01 8.358655686299362175e-01 -5.019540539034452742e-01
-2.595803528688013853e-02 5.466975917295965187e-02 -6.757342464371063340e-01 -2.751160436419782251e-01 8.374816686812697197e-01 -4.721605840745509153e-01
6.992723302014086650e-02 1.753760270949865363e-02 -7.090861186005243955e-01 -7.035898248586016854e-03 -9.712850264602443939e-01 2.378148302986126672e-01
-9.414697993113542440e-02 1.094957443470498809e-01 -5.324399121150048542e-01 3.352271974301281876e-01 -9.029959945447256775e-01 2.687395764291585221e-01
-9.900531268957364628e-02 1.017700299287468135e-01 -5.069193792683636124e-01 2.346690421818385386e-01 9.720201703058235498e-01 -1.035515137968272270e-02
7.025281062417471079e-02 -1.727679019315543352e-01 -9.849304342868344664e-01 -9.095110582274372746e-01 -3.192731653585684781e-01 2.661846743220343536e-01
