6.671602230809967060e-02 -9.509778224546207304e-02 -9.250704202487982641e-01 -8.985815342592647914e-01 1.471132109360275830e-01 -4.134113320366987754e-01
3.913999642314679867e-02 2.046322155882791122e-02 -7.012912471031857997e-01 4.138614547794117748e-01 8.831135174144360001e-01 -2.209733278198333373e-01
6.725256814386075532e-02 -3.565568346833656449e-02 -8.138644429878260089e-01 6.627081766902669369e-01 6.329408516144622299e-01 -4.002546076004883657e-01
-1.362566685512689169e-01 1.059915518520197358e-01 -5.152124509900296578e-01 8.462509446276857972e-01 -4.596512602614780674e-01 -2.694068626757392115e-01
-1.072646135540439652e-02 -1.795645253789335261e-02 -8.894390170596988554e-01 -1.143922125445515220e-01 -4.560038006655577347e-01 8.825955786699413164e-01
-3.760649537581758906e-02 6.823128193503257000e-02 -6.520802378608767658e-01 9.636760968010575912e-01 1.513045338131609463e-01 -2.200802546841964247e-01
5.051383030347057074e-02 -1.097616228108212882e-01 -9.594725799476506722e-01 -7.284884130843902739e-01 -5.893911287817591438e-01 -3.491743537477383086e-01
8.932435559889184695e-02 1.852099757547667671e-03 -6.937990995177660825e-01 -9.942715136816678845e-01 -7.851994385245886568e-03 -1.065950433432013844e-01
5.059207597293171113e-03 2.984927929224194879e-02 -7.505462952704259338e-01 -9.415916432343993669e-01 -2.054802678535365412e-01 2.668014934628040180e-01
2.352783956828602419e-02 -6.230682762950443682e-03 -8.083083501847219132e-01 -7.191374664555760798e-01 4.092554560828899346e-01 -5.615614623585214460e-01
1.052815180844345923e-02 9.230736863441649578e-03 -8.043080750382683997e-01 7.216042953986471220e-01 -4.168501336253001566e-01 5.527415372113728687e-01
4.872692432526536804e-03 -7.912920531948133829e-02 -9.583481248521746876e-01 6.709834688347111609e-01 6.836278402602010695e-01 -2.871134977177339231e-01
3.457207881437242281e-02 -1.421132324737403411e-02 -8.108343523432318678e-01 6.117089571963286732e-01 6.962685000898934939e-01 -3.755293962772420224e-01
-9.891501707008410610e-03 3.184482998700235989e-02 -7.376596724546515826e-01 -1.828279031674806543e-01 8.681186205225864816e-01 -4.614585772583966738e-01
8.876643923747482012e-02 -2.786229896736154912e-02 -7.868318304245371930e-01 -4.990328212285880527e-01 -7.923565845371290939e-01 3.509092279739750020e-01
-1.469056562591788788e-02 6.311855475003994020e-02 -6.533065206713866147e-01 -4.966480442906530679e-01 -8.528610742939689571e-01 1.611480935549865767e-01
-1.755855676886054761e-03 -2.242446601046664198e-04 -8.280573378398143891e-01 4.731620605684320746e-01 8.041545405524144208e-01 -3.597959690540886157e-01
9.348173872442226695e-02 -1.467996594071196981e-01 -9.512059384249849092e-01 -3.271432596125112835e-01 8.850336627890813546e-01 -3.311988880117859857e-01
-3.419358488225673377e-03 3.667881050848103425e-02 -7.520609096841702756e-01 -4.595468831041509272e-01 -8.540386805643689350e-01 2.437921129346307392e-01
-1.020022399347623454e-01 8.256405949743554629e-02 -7.266577385045246418e-01 5.082769082581019005e-01 8.594514299985661632e-01 5.475238812147250472e-02
-1.083606168581659479e-01 7.748231277905825998e-02 -7.674022822149167977e-01 5.241566509871462554e-01 8.514954454377451354e-01 -1.467350076549251044e-02
4.073415065384163730e-02 -8.143323776992028584e-02 -9.375596507416141812e-01 -5.319146247099669766e-01 -6.840318449660411915e-01 4.991665724905951507e-01
-4.245173807484267647e-02 6.887627878178492757e-02 -6.739276051072001783e-01 2.336227212859755542e-01 -9.517683791033825225e-01 -1.988903633609618582e-01
-7.919811537290978587e-02 4.035470080212152921e-02 -8.580767451883544172e-01 -1.387269933783615572e-01 -7.979379593169743101e-01 5.865576138703362252e-01
9.583192195932186200e-03 2.918839510242221200e-03 -7.922020435656947912e-01 3.927430562483934517e-01 8.584663148361452167e-01 -3.298309840817253424e-01
-8.726780811659400061e-02 9.156133587946833907e-02 -6.677874700522107299e-01 -3.832030416240095327e-01 -9.202922876384845852e-01 7.885134243138999799e-02
7.796214453601317540e-02 -1.248648528945059538e-01 -9.470673502776171260e-01 2.226548502311926636e-01 -9.282022420232041160e-01 2.981030284509408324e-01
-1.279169398664709578e-01 9.828173235954640319e-02 -5.329937553022278118e-01 7.334106318623012655e-01 5.835461319068743213e-01 3.486871907711335816e-01
-1.187802858656774735e-01 1.005250601948037836e-01 -7.007277694195616080e-01 -3.712068353267494736e-01 -9.236864599894201167e-01 9.491474616155767818e-02
7.291099598576597507e-02 -1.905883301209272684e-01 -1.010960345449441355e+00 9.045684779002233222e-01 -1.719473142740836902e-01 3.901153546109188408e-01
8.130626349120051444e-02 -2.946285124487879048e-01 -1.074298763071517948e+00 5.232482375668725538e-01 8.390517510791910549e-01 -1.490081906946879309e-01
6.275651082430291905e-03 9.716821372859060085e-03 -7.784470452444468558e-01 3.927430562483934517e-01 8.584663148361452167e-01 -3.298309840817253424e-01
-4.829479950148612977e-02 -7.813762363532148966e-03 -9.084144482152729516e-01 7.505327280527734901e-01 6.597201805086749804e-01 3.833937338119619564e-02
1.006649171796582948e-01 -5.413350438823127248e-02 -8.218219925807203063e-01 4.530066694494343515e-01 -8.848968277547983874e-01 1.083631010253291033e-01
2.836733252245954295e-02 1.273593170165085615e-02 -7.732905570028062447e-01 -4.839889585632168312e-01 -8.212525935881007655e-01 3.021570212881221074e-01
2.184735833332089941e-02 -2.261156816574375061e-02 -8.449306474555875468e-01 5.025255535917904082e-01 7.884329935368789011e-01 -3.547414307488487295e-01
-1.011648751935409901e-01 6.489452825289958315e-02 -7.982641128745920911e-01 4.603669061413916408e-01 8.607274729140641512e-01 -2.172798405300679914e-01
-7.840066385755414813e-02 4.710209562384701232e-02 -8.234929300134812280e-01 6.055910539393404290e-01 7.168850211295811903e-01 3.454494780263515086e-01
9.321601629625211882e-02 -7.405756327159269958e-02 -8.511252616036150132e-01 5.371280661363735387e-01 7.211244461130692507e-01 -4.375762491117614617e-01
-7.335414647639022789e-02 7.648263066432149648e-02 -6.221892556194997814e-01 4.057471322138688219e-01 9.139255831286166032e-01 -1.045433896712054563e-02
-3.327143147564540736e-03 -1.209386557615908450e-02 -8.760431071633106859e-01 -4.896044195211826655e-01 -7.698258252447187644e-01 4.094578258766262691e-01
7.026492651201243778e-02 -6.305674855320803074e-02 -8.740396636912105555e-01 -9.376973323309728547e-01 -1.065322894280094738e-02 3.472898237099231733e-01
-8.973394004780133049e-02 8.696846432165386553e-02 -7.102687622534836764e-01 -3.978310733239490138e-01 -9.087261656556049338e-01 1.262821956998552708e-01
-6.638908350060843122e-02 5.321635242618603240e-02 -7.798621242280165955e-01 4.916520278209862704e-01 8.634827525117166891e-01 -1.125869426456785199e-01
8.204643600988005547e-02 -2.556464595824671782e-01 -1.046980357220455460e+00 5.213002296355584431e-01 4.613519611064660353e-01 -7.179139492760479024e-01
2.851158119005151731e-02 -3.759874708177990171e-04 -7.924812263053269135e-01 -3.162076315867131671e-01 9.407272438820317717e-01 -1.226580056271801972e-01
-1.088235497696019155e-01 1.051278691510039859e-01 -5.468957243074469288e-01 -3.452537608622970877e-01 -9.340779206315873440e-01 -9.109488898401343904e-02
-2.014716009720445358e-02 3.120063956661584675e-02 -7.733664307328846910e-01 3.631522983747427769e-01 8.155628971149342377e-01 -4.505303197728614539e-01
-1.139528696406035130e-01 1.041476417156758649e-01 -5.424772469267764574e-01 -2.736999101100942577e-01 -9.615070195881471049e-01 -2.434359234879746384e-02
5.658094982188289351e-02 2.114259392642372365e-02 -6.663463668225786396e-01 3.173378573061197416e-01 9.324987086254886703e-01 -1.724611339756192130e-01
-1.704847537921749812e-02 2.678017306944949910e-02 -8.014141391982972928e-01 -3.805411100398017887e-01 -8.050350801609247320e-01 4.550900825990045750e-01
-2.439616476849291310e-02 -2.368405537157300400e-02 -9.054345935391313605e-01 4.935189986328643030e-01 7.446549289388737503e-01 -4.493640337137095320e-01
-9.468407897327900391e-02 9.955986558619049631e-02 -5.630333795725196433e-01 -7.280191014992488663e-01 -5.867142458416002571e-01 -3.546189244509501681e-01
5.529116700264324891e-02 7.331413400569790177e-03 -7.394546117985144607e-01 5.251672234192461541e-01 -8.509891523339884190e-01 -4.104881971406097382e-03
1.484399603456292059e-03 -4.600111496465616318e-02 -9.129208112138362807e-01 5.108741104806800992e-01 7.305820760470036479e-01 -4.530534994892148615e-01
-9.401739747850844375e-02 9.871255660283385913e-02 -5.899713832795099311e-01 -2.892057098707751517e-01 -9.560255405836545206e-01 4.873626093446342677e-02
2.045830007726141125e-02 1.252530860275147609e-02 -7.606243344059731015e-01 4.848555433406989135e-01 8.260231903172953194e-01 -2.874035336418685471e-01
-3.562146558494065640e-02 7.732889670405866667e-02 -5.772410788324772168e-01 -4.854961618212844110e-01 -8.740139099169390580e-01 1.982831633058834003e-02
-1.290114519827407873e-02 -5.032117656298259328e-02 -9.469584093442947603e-01 6.947019145554536035e-01 -5.674301862904118643e-02 7.170561203628706970e-01
1.066198973118688137e-01 -3.462305184723447199e-02 -7.624144201567825130e-01 -3.617141648336775761e-01 8.998524021030851472e-01 -2.437796492490342248e-01
3.728236841568893789e-02 -1.086925011244577050e-01 -9.752916027989627645e-01 -3.895438890815473010e-01 -5.661979195694525346e-01 7.264127437995887560e-01
-7.305487600048567176e-02 8.555765350789125423e-02 -5.571150491762985046e-01 -5.035960703297780450e-01 8.629621523995389953e-01 -4.107701881052224641e-02
-3.959344365876994731e-02 6.329858348830452730e-02 -6.743834940711163073e-01 5.429987299399335887e-01 8.213323304015378579e-01 -1.748301527791996657e-01
-1.024514334430353529e-01 9.144886633870089043e-02 -6.568947411948267145e-01 2.446829686856274444e-01 8.947986502455970159e-01 -3.734509611098169035e-01
9.209845503318213333e-02 -7.785440000536678062e-02 -8.753382709630753711e-01 -5.444449159705665453e-01 -7.037071600859242659e-01 4.564821642929827727e-01
8.890292814165572793e-03 2.084134775818267601e-02 -7.700370447971157661e-01 3.850118030011243642e-01 -9.205228341187218222e-01 6.635980271112464079e-02
5.620083088653671927e-02 -8.458989029812453986e-02 -9.056333608941249391e-01 -8.691348978119362023e-02 7.263457573517342336e-01 -6.818122073351207124e-01
-4.055955947117130360e-03 4.348609489657401933e-02 -6.921239802458633017e-01 4.317371620316421410e-01 8.810100387209094386e-01 -1.934537014219296081e-01
-7.993867329211675268e-03 2.904153890612935426e-02 -7.596738806930213306e-01 5.225009569424289291e-01 8.493353459688575136e-01 -7.498146492438817479e-02
-5.079702947376578404e-02 6.524518517839706863e-03 -9.001296582309037397e-01 -4.224283920208148913e-01 -7.768283262388202548e-01 4.670032175132221020e-01
-7.028455505188742347e-02 8.489039048372917784e-02 -6.177112586890068924e-01 9.442795020693657282e-01 3.057746359727031571e-01 -1.218117152304792200e-01
1.629456826391791416e-02 2.549200326447790405e-02 -7.415983359708460121e-01 4.437086740713630517e-01 -8.960530090542208059e-01 1.454707938760659534e-02
3.879977776776787762e-02 9.425528394022037945e-03 -7.592160539545649289e-01 -9.345715827566611900e-01 -2.059117345369710916e-01 2.901315465158606499e-01
1.190714571304109237e-01 -7.145476851080835579e-02 -8.226173793152186109e-01 -3.942170233915111566e-01 8.796433384170571079e-01 -2.661212799586518130e-01
-8.514377476231900499e-02 8.556431303015597789e-02 -6.376011920711576186e-01 3.651759888747887484e-01 9.297168824278299049e-01 -4.767615418630824498e-02
7.705068760573838271e-02 1.062511567773737238e-03 -7.289552524554488988e-01 -5.589606745265338628e-01 -7.740425840726052886e-01 2.973567594238377132e-01
3.124464423828964693e-02 6.911281687247758723e-03 -7.618042065000674157e-01 3.008356015098859193e-01 9.185390975934557556e-01 -2.564836584587503743e-01
-6.537110567435693020e-02 7.322627573148970948e-02 -6.312589724571723293e-01 2.816510165552292833e-01 9.554770126725053991e-01 -8.795671167017901637e-02
6.193784798490938742e-02 2.336307896060568767e-02 -6.727854775121572262e-01 -9.589525166864770744e-01 -2.573276461759117506e-01 1.191325029294547089e-01
-2.595751579165692449e-02 4.198772230084072549e-02 -7.187953230657595505e-01 4.640836492069977393e-01 8.725481318293188959e-01 -1.525979166957443789e-01
5.795437186391739354e-02 -9.491167824303629874e-02 -9.162242568776189922e-01 -6.844830340152850690e-02 7.079881596959197720e-01 -7.028994206085511509e-01
-1.290530763820459115e-01 1.031819922141119089e-01 -5.592126938581031270e-01 -1.673103989594681984e-01 5.248326753050973625e-01 -8.346004393313714020e-01
3.485888300579482318e-02 -6.602912179463091280e-02 -9.140578579235131285e-01 -3.710980245417607598e-02 2.635197379942294527e-01 -9.639399412044635795e-01
7.164473303875174004e-02 -4.960413267144483072e-03 -7.536970443853479029e-01 -5.795377672385340073e-01 -7.513336906125634984e-01 3.156480028365131751e-01
1.564776997475725989e-02 -4.955609071865046261e-02 -9.186193094685192184e-01 -5.377521762518590043e-01 -7.236982472348877371e-01 4.325314368754490935e-01
-1.158408900365998778e-01 9.924422196560175879e-02 -7.017416679947692248e-01 -3.563944105634812565e-01 -9.277552238511533877e-01 1.106944837650226110e-01
-6.638773525702016363e-03 1.300160005774962137e-02 -8.251874907367036105e-01 -4.877470129212140293e-01 -8.222903262460281582e-01 2.931577574423601673e-01
7.478791091168827954e-02 -4.095519035540005903e-02 -8.325103209580628771e-01 -5.283202867290731630e-01 -7.455207239967425181e-01 4.062961047338292664e-01
1.524270023655983387e-02 -2.786546638668984914e-05 -7.953108136582589527e-01 -1.162617581039275122e-01 8.352507705869098853e-01 -5.374377674080571543e-01
-9.780929521414485905e-02 8.343517092281207970e-02 -7.315503756390621115e-01 9.319046891308249703e-02 -6.472626405914575498e-01 7.565491461883580016e-01
-3.453391566270155866e-02 7.485364131657018527e-02 -5.864626438811187947e-01 -8.413662412539772983e-01 -5.293971113402590190e-01 1.088188705268694906e-01
-9.593549028065002926e-02 6.743427751230361700e-02 -8.090509095480956647e-01 -3.419026583051826274e-01 -8.483587721572096729e-01 4.042152470500845474e-01
7.863827768422629316e-02 -4.407718352293928804e-02 -8.144532580381476095e-01 4.823191977387161211e-01 7.874128747865232203e-01 -3.838608551455910955e-01
3.867629880353808114e-02 -5.793999486409211197e-02 -8.885588409954284783e-01 5.094600868097811652e-01 7.234801641075432332e-01 -4.658614301385040624e-01
3.842114327570399224e-02 -6.393829413140798834e-02 -8.998961494654654780e-01 6.073288409258285059e-01 7.390907141695105542e-01 -2.913702030203030868e-01
8.531030860642714597e-02 -4.036597900630960190e-02 -7.981500973231123730e-01 4.806810045346643911e-01 7.951337415338657344e-01 -3.697405914339151889e-01
7.580251468297174999e-02 -1.884648692659988134e-01 -1.001196549234339095e+00 5.072786770380229848e-01 5.558495454093562715e-01 -6.585587496121855233e-01
1.180456048571114774e-01 -4.638052624879598212e-02 -7.748544158033097151e-01 -7.026535961927956597e-01 1.971261547074055764e-01 -6.836806293055288641e-01
-8.035545349512474012e-02 9.417999730865457553e-02 -5.742434493185016864e-01 -2.932487941613894922e-01 -9.560015693006452819e-01 8.132909540545381691e-03
5.203453880706407353e-02 -9.340774045255988145e-02 -9.252305222452980038e-01 8.970450899765377573e-01 -1.505221427375687260e-01 4.155155726259565085e-01
4.329321640357128992e-02 -6.262628432944973393e-03 -7.795561382027073050e-01 6.518671069589271339e-01 6.777731068073801213e-01 -3.401365763243792695e-01
6.457138706163807751e-02 8.536667840481756628e-03 -7.013550630459016721e-01 7.014069285820058175e-01 6.533034307118380513e-01 -2.849963999023487626e-01
-5.183461275036369692e-02 7.653659019133156327e-02 -5.725921126110283810e-01 3.244717076126308331e-01 9.457000154463164332e-01 -1.922476901760217932e-02
-5.745364057694413162e-02 8.254716619836351132e-02 -5.485796136688684266e-01 9.689461792218221348e-01 5.770890453534423432e-03 -2.472043660512609486e-01
-3.870178687064720208e-02 7.407083461417827974e-02 -5.678258249001639779e-01 -7.034558328299729268e-01 6.342897319271666445e-01 -3.206656003210386352e-01
8.169515019855039945e-03 -4.853953285928549327e-03 -8.456326005669416723e-01 -4.830242131341355161e-01 -7.828300990284130512e-01 3.922558419976868160e-01
-1.083352801613844951e-01 8.109935445636198836e-02 -7.441097723906167083e-01 4.005477674886014916e-01 8.949867176727044349e-01 -1.963676682891969116e-01
-6.102607412757693472e-02 7.152914686150263490e-02 -6.766611544543714718e-01 3.679520231583867651e-01 9.152744327916774170e-01 -1.639634756021086659e-01
-1.140491630011695456e-01 1.016698072037532236e-01 -5.555898820798795823e-01 7.538571251925356709e-01 -4.354572513278842649e-01 4.920126188040400694e-01
-1.938428161537699215e-02 6.429185444404557359e-02 -5.859038427459439813e-01 3.296657277193195679e-01 9.359617947520544323e-01 -1.236771067409178637e-01
2.019068895022663526e-02 6.413363662877331201e-03 -7.960082866709264904e-01 -8.845831000617015993e-01 1.207896992005197817e-01 -4.504692971249846800e-01
-1.094559910042902512e-01 1.035305765014178925e-01 -6.138469000421798993e-01 -3.199265427230246206e-01 -9.466160779451949780e-01 3.956018499639420843e-02
-5.328801732482550506e-03 9.964854179963629488e-03 -8.308782180354763458e-01 -4.896975312487371057e-01 -8.107764048029012516e-01 3.206835656901894649e-01
6.075872169176757542e-02 -1.487021605670804381e-01 -9.877354142076073540e-01 7.919452490047570459e-01 5.244863515430460144e-01 3.126288368398820738e-01
-1.302424616525943990e-01 1.054370274388733847e-01 -6.253922081515753684e-01 7.740533048057787191e-01 7.466570345730115521e-02 6.287022459371993666e-01
-5.300451207805097903e-02 7.308730744285345249e-02 -6.393648604958953596e-01 2.243030671445998270e-01 9.720357179561078809e-01 -6.953198607172690615e-02
7.756074407658600234e-02 8.096434428158503019e-03 -7.066136004786792713e-01 -4.641311006566335995e-01 -8.456600774190908831e-01 2.635172762131527957e-01
4.983028779741286579e-02 -5.596371434550651003e-02 -8.724824558915020845e-01 5.333168854408927295e-01 7.307637900120886876e-01 -4.260955091417808482e-01
-1.080462852293404344e-02 4.956105326858042254e-02 -7.083914565546921560e-01 4.158826808424106458e-01 -9.094153548778718399e-01 -2.303928749762022658e-03
8.855609700364393266e-02 -2.683382455158998120e-02 -7.848086553684365807e-01 -4.990328212285880527e-01 -7.923565845371290939e-01 3.509092279739750020e-01
-6.677333667721656318e-02 5.570565612259519711e-02 -7.681202884107757312e-01 4.401926540043123448e-01 8.742985783829145818e-01 -2.045297611553245631e-01
-8.906934420139503081e-03 4.969484796604751314e-02 -6.921283605780810255e-01 9.551047574288191733e-01 1.485123952822226534e-01 -2.563571157279886936e-01
-1.847897533321000638e-02 -1.435062824408339091e-03 -8.570098132845194172e-01 3.548748541362941045e-01 7.215824138225374051e-01 -5.944599717085957691e-01
-7.141867438720407579e-02 9.023057174051272999e-02 -6.201424536604082105e-01 -2.720096705171187179e-01 -9.576250073240026861e-01 9.468413010041393241e-02
-6.482216716910728371e-02 8.506200985632765554e-02 -6.436931271382649866e-01 -3.708125419451792082e-01 -9.237532714847486170e-01 9.580162920002308069e-02
1.180944900381926954e-01 -1.087862198154138371e-01 -8.866150696494630168e-01 -9.100950820395589114e-01 4.140349878917258253e-01 -1.737729693902276967e-02
7.746071183748742817e-02 -1.423866221452058101e-01 -9.599465270885815249e-01 5.464598692810175296e-01 6.109467278324611783e-01 -5.728225790034657816e-01
-3.377194137559179354e-02 4.937609170306821865e-02 -7.001122653911298066e-01 4.801576622428465613e-01 8.657481850696356895e-01 -1.411690456088592893e-01
1.568209754945616360e-02 6.742782590778953651e-03 -7.884855436107522930e-01 -7.229912810312020266e-01 4.150462436765177121e-01 -5.522863597472549291e-01
5.191370563244619013e-02 -2.493772583642050924e-03 -7.783933920236424386e-01 -4.486094470297602443e-01 -8.353924737869977690e-01 3.175987701104851513e-01
9.226528150561284780e-02 -2.418418690265939919e-01 -1.046464470108611433e+00 -9.549744391216414829e-01 -2.074256010852463528e-01 2.121283588743630710e-01
-8.864448223168389096e-02 8.926937428358554250e-02 -5.287471411003533683e-01 -6.670056919550700070e-02 8.317243108863957568e-01 -5.511675831809643711e-01
-9.018413022335790286e-02 9.452661588225198808e-02 -5.269344450135262647e-01 -4.055615431901726103e-02 1.793453126777428894e-02 -9.990162916264465620e-01
2.621188969473107339e-02 -4.106032069029453418e-02 -8.923510996728236666e-01 -5.041067524474380779e-01 -7.278552428299589483e-01 4.648689359613515926e-01
-5.612736532430939729e-02 4.711705707722241981e-02 -7.818315665419244276e-01 4.916118258066242697e-01 8.635003593262374766e-01 -1.126274485662178138e-01
-1.168775420872446152e-01 1.055691925458296238e-01 -5.659891010228229602e-01 -3.602284541335614154e-01 -8.980017089291092436e-01 -2.526428142515513842e-01
8.357032141857219376e-02 -6.955766619925254912e-02 -8.695881505540155043e-01 -3.205689511493692856e-01 -8.537997312731209210e-01 4.101969849193673467e-01
-1.132283517747044964e-02 -1.408588419374075425e-02 -8.872146001420651018e-01 -4.377581323595793883e-01 -7.276591956595126476e-01 5.280908184443315889e-01
-1.150168975625245477e-01 9.468350347998555350e-02 -6.766184188918400455e-01 5.142464789186632634e-01 8.506666306561090352e-01 1.091642909010993728e-01
3.040519162400569242e-02 -2.750919671766801841e-02 -8.359625957765707271e-01 -1.058237996362703937e-01 7.833014490436270849e-01 -6.125684968692860499e-01
2.627833437440475067e-02 4.203868281312074517e-02 -6.648814975435834995e-01 -5.164600619900220346e-01 -8.355700235296105172e-01 1.873278947407151507e-01
-1.061070936552131923e-02 5.189032479269560126e-04 -8.391823173744571429e-01 5.602067209691732330e-01 8.084097635011924243e-01 -1.806712042825671383e-01
2.078226432580370514e-02 -5.926645663498934097e-02 -9.278048005843141377e-01 -5.202347798437904070e-01 -6.986003023406681667e-01 4.912365941279309700e-01
9.831458878476438679e-02 -1.427514646748714866e-01 -9.477654544785468760e-01 -9.368676186764833824e-01 2.187560909183199342e-01 2.728091599664336231e-01
-1.730679334240036935e-02 -2.994943187244757457e-02 -9.237726530170984329e-01 -4.424352018292170841e-01 -7.005559000412605597e-01 5.598861697699981654e-01
5.632146081506871765e-02 -9.694422680369944867e-02 -9.200402295422542842e-01 4.652032590858678485e-01 7.025429831353733334e-01 -5.385343857017275138e-01
-2.832480261043790123e-02 5.339074321788429833e-02 -6.993445707903785946e-01 2.258409702910285644e-01 9.617595734520701933e-01 -1.549657349587273969e-01
-1.207744228583492764e-02 1.179471325172294638e-02 -8.359683232118325646e-01 -4.735024575911661038e-01 -8.066579236143724962e-01 3.536925457587067334e-01
-5.221790950883164334e-02 7.535697498489188351e-02 -6.044559439087062724e-01 3.286475544802253124e-01 9.429721777004146377e-01 -5.286073227931127605e-02
5.290032575860965230e-02 -4.734592543706730994e-02 -8.549076693223679468e-01 6.625396775373161296e-01 6.182593337323510907e-01 -4.228434366779011411e-01
8.212121705583025344e-02 -4.209982481663959025e-02 -8.060176090492191525e-01 4.796553150350185146e-01 7.955683612493203993e-01 -3.701374897760668636e-01
-5.936733002898445834e-03 2.771506196452099696e-02 -7.603417771166700589e-01 5.276752625344590664e-01 8.467035954041126633e-01 -6.820439017349690103e-02
-3.561182309030228033e-02 3.870220195777145794e-02 -7.725802000440842310e-01 4.348348143598975146e-01 8.600449432651499082e-01 -2.669108086695604620e-01
3.620601106562824911e-02 3.333439239803167448e-02 -6.882026008179188414e-01 -8.756490400200976632e-02 -9.849008454399397205e-01 1.493409262017969252e-01
-1.094753670166754428e-01 1.001807770812241649e-01 -5.969307482826030631e-01 -2.617043023475202138e-02 -7.728879169730383802e-01 6.340026627534033343e-01
-4.438583399502501331e-02 5.616019267519208741e-02 -7.490506681793236421e-01 -4.525031966566293862e-02 -5.767260354620615814e-01 8.156834487657379507e-01
-9.032790405248555810e-02 8.954178834788230346e-02 -5.932740393537512258e-01 3.245533509970660035e-01 9.458489568626156085e-01 -5.905349987700342362e-03
7.518470363832231718e-02 1.437400565799506168e-02 -6.888450050384641310e-01 -4.012772668558523548e-01 -8.879849492845530712e-01 2.246314424759069117e-01
5.516793274380485217e-03 2.753195780146090385e-02 -7.743054647381706346e-01 -3.933269206138521601e-01 -8.576933269120452508e-01 3.311436100711775410e-01
-2.037019086015514485e-02 5.898871927142410043e-02 -6.897294637113776661e-01 -5.349431505799890907e-01 -8.210700020064458649e-01 1.991980859664317927e-01
-5.930777864293993590e-02 8.014257869259838740e-02 -5.636033951196987024e-01 6.027382038449180524e-01 7.952197831158440700e-01 -6.581910183975335504e-02
1.017109500463252575e-01 -1.159286185697187277e-01 -9.035110588457736513e-01 5.883399441228795990e-01 6.350828833113109084e-01 -5.005255652556407364e-01
-7.232252727326229924e-02 6.574550821821158186e-02 -7.729930157807937130e-01 -4.334390559848129709e-01 -8.702380899115756963e-01 2.341287073685037468e-01
5.971733492349474981e-02 -8.195051696515916195e-03 -7.577047354228422238e-01 4.496054933115574692e-01 8.421142008151899505e-01 -2.978230568130424416e-01
-8.967826803764494814e-02 9.269577177433865889e-02 -6.662615983587183432e-01 -3.832030416240095327e-01 -9.202922876384845852e-01 7.885134243138999799e-02
1.049659450326287380e-01 -1.481557001470164454e-02 -7.304744790119294118e-01 -5.578352494816541940e-01 -7.790132950049757365e-01 2.862832873942019463e-01
7.156767223255461330e-02 -3.496377601309236249e-02 -8.246623041052181247e-01 -4.772428984407063868e-01 -7.880881225223540509e-01 3.887882804652226243e-01
8.464916936610510090e-02 -2.551478996592509985e-01 -1.062066692933208545e+00 5.163545125586548740e-02 -5.172449123090046008e-01 8.542783392220905103e-01
-6.182245247364229201e-02 3.655454746232118107e-02 -8.448528950393255910e-01 -5.658077972932852306e-01 -8.241327718292484894e-01 2.582074590635377587e-02
-2.279148522879153801e-02 2.058249335187992829e-02 -8.301510254877245698e-01 -4.644733028250500606e-01 -8.201167401775583121e-01 3.341752286500667690e-01
7.901995016908605618e-02 -2.110790242257605184e-02 -7.740315684072420765e-01 5.341668913909343175e-01 -8.451049320847791035e-01 2.152640025008243502e-02
4.483980667658175184e-02 -1.149677900184480489e-01 -9.751886569114339709e-01 -5.215482373376523206e-01 -6.260132616996573196e-01 5.797368647120383356e-01
8.262227754346668229e-02 -2.434787770487244485e-01 -1.038523131102411456e+00 4.910851831941839829e-01 4.989485583817382386e-01 -7.140627976137113864e-01
-1.314265399251803579e-01 9.740007294925860648e-02 -5.239055223072567324e-01 3.967536462399778863e-01 9.178072727909764028e-01 -1.470898389666869081e-02
-1.010868505110446569e-01 6.571469957105509352e-02 -8.115893439269864507e-01 4.711470342835026859e-01 -4.168072527655562465e-01 7.773623261567861320e-01
-1.013514244130727521e-01 8.825135485044449668e-02 -6.844249913131237317e-01 4.136647845595792239e-01 9.104263083234934717e-01 2.320156833482481685e-03
-4.233991427776948729e-02 -8.274687021008217489e-04 -9.039115515859095229e-01 -4.956164632494687861e-01 -7.591317990458971154e-01 4.219990912708551090e-01
8.538751644280601072e-02 -2.043521173463768437e-01 -1.027391515452127146e+00 -4.848990126577698567e-01 -5.322096640101621201e-01 6.939926664293437630e-01
-5.973490244615646538e-02 5.585123909567343142e-02 -7.584062648958818098e-01 3.195703433226836920e-01 8.324384445223280693e-01 -4.526820426633564320e-01
4.985749047979802506e-02 -2.473866598518935020e-02 -8.307479576132484889e-01 -6.194059799038845737e-01 -6.873444871658266342e-01 3.793333468363352390e-01
-4.724531424776703958e-02 7.205348311281353779e-02 -6.364198296324231618e-01 2.015023488490399750e-01 9.767893632271105187e-01 -7.265908955316929818e-02
2.897063474019646173e-02 2.690238641801336386e-02 -6.989669319986274720e-01 6.358078666912611032e-01 7.293531757023072881e-01 -2.525713795077879631e-01
-8.846802362991231655e-03 4.493893965645730237e-02 -7.386614453465505381e-01 -4.796967683308740460e-01 -8.659911712483731039e-01 1.412455371783004343e-01
7.823052516575437765e-02 -1.182210306063330961e-02 -7.515617934433963532e-01 -8.772499510402471667e-01 -3.245674248607031132e-01 3.536785406540465249e-01
-3.675780511691068009e-02 3.789825261874667922e-02 -7.768012497058613963e-01 4.369673521438078856e-01 8.511471707682104482e-01 -2.908745895634413103e-01
3.082912001914954805e-02 8.954347405557042464e-03 -7.782269633467304715e-01 -6.008691645982477958e-01 -7.353602039425949366e-01 3.133713731222251275e-01
-1.275904126216780288e-01 1.080136925600487657e-01 -5.383477049846382423e-01 -2.747874073051080335e-01 -9.604935530144523836e-01 -4.409099005703707996e-02
1.004639240955786383e-01 -1.398942730903688370e-01 -9.395445821010641740e-01 -3.833426142117707380e-01 8.716301644248029001e-01 -3.054657044482677608e-01
2.929008909392897750e-02 3.940990643692447032e-02 -6.578184120941458213e-01 -9.507972235239858794e-01 -2.914543129077922790e-01 1.050667560483642404e-01
-3.815035068239071292e-02 7.257500171514652543e-02 -5.796572895997198493e-01 1.851282430869811702e-01 9.821888520116570653e-01 -3.213397883161189794e-02
9.360814207773897333e-03 -7.788108937185104011e-03 -8.301848317159369328e-01 4.831897511569199222e-01 7.875507106820983649e-01 -3.824807740018254520e-01
-9.812631323190780519e-02 1.027858168864868998e-01 -5.694401329392072553e-01 -2.863467101928165448e-01 -9.543077183035436617e-01 8.545373220658920854e-02
-6.624595551199222165e-02 4.759444274035938560e-02 -8.217928204414375326e-01 -4.069868376799799514e-01 -8.249191163090058287e-01 3.922628780591128073e-01
3.793607213126064942e-02 -2.798784328141203093e-02 -8.349135432864072115e-01 4.798259011344406799e-01 7.960321936621446159e-01 -3.689171333158107191e-01
1.209622130185272620e-01 -5.048293854898438376e-02 -7.914950095168715727e-01 -5.257808349145814963e-01 -7.609785655557383954e-01 3.800870116187295977e-01
-6.101322879726933830e-03 3.321706905538413142e-03 -8.258466881809167770e-01 4.731620605684320746e-01 8.041545405524144208e-01 -3.597959690540886157e-01
-1.337354298242666439e-01 1.097627118034875948e-01 -5.566154903118585295e-01 -4.192050428560192277e-01 -8.160056749471654713e-01 -3.979973247373707612e-01
-5.081669391249005185e-02 7.414687538901659769e-02 -6.853142519620889495e-01 -4.333630799492809715e-01 -8.978105777683728084e-01 7.831096592491779140e-02
-6.846858338869835081e-02 7.416247787545221515e-02 -6.353880593518412834e-01 4.056722897765079328e-01 9.139582063044544569e-01 -1.050668531122781087e-02
1.075845801704885391e-01 -1.270450910052870197e-01 -9.135621859950131540e-01 3.210309403160813146e-01 8.007820259268092489e-01 -5.056552998954204625e-01
-7.058612075070486158e-02 8.771880115240011933e-02 -5.635137683493015581e-01 -8.774394307596380393e-01 -4.785121196010694300e-01 3.355885491333046589e-02
-2.910512396856580752e-02 1.055682480215345762e-02 -8.627530542091347288e-01 -5.005216883067689082e-01 -8.006851227824316464e-01 3.292132647531442191e-01
4.240575213233051255e-02 -5.396157074643592733e-02 -8.704938553735376283e-01 4.536974938597123086e-01 7.528274092909655879e-01 -4.768746962103034281e-01
-3.798243755226293761e-02 6.764945651377272939e-02 -6.907236921890810288e-01 1.656287939345476024e-01 -8.748135229460525242e-01 4.552673969114234276e-01
-6.994981316217363521e-02 8.909022316035175582e-02 -6.109923397918145538e-01 -7.664709130397042713e-01 -5.843792617668852607e-01 -2.665018159053937352e-01
1.021030862535788619e-01 -9.122885477180980862e-02 -8.755173884082612101e-01 -1.523548417563014845e-01 9.473640535215581693e-01 -2.815836506060222511e-01
7.795437467853205508e-03 3.092062746167714010e-03 -8.084580604183451147e-01 5.469391310724580624e-01 8.233931262929485850e-01 -1.512658139674293856e-01
-6.183955073852240823e-03 -6.144918166471873694e-03 -8.607387565989808031e-01 -6.245133713574961831e-01 -5.529942801609507574e-01 -5.515254981457938799e-01
1.564715622801624018e-02 2.463095862452224435e-02 -7.545542020740516609e-01 -2.427333882961530409e-01 -9.453347974999766201e-01 2.177673594502788357e-01
4.117736467583435478e-02 -1.247266322972564873e-01 -9.785759117151753284e-01 6.894135122111904046e-01 6.512229308523832527e-01 -3.172029374275444069e-01
-1.902666468900466451e-02 4.829476882233269160e-03 -8.586366294235081575e-01 -5.611365401675721953e-01 -8.081289594357723427e-01 1.790345447393394684e-01
-1.063498409682216012e-01 7.649509220598846304e-02 -7.693440969477439717e-01 6.527154761339255540e-01 5.347840099968306227e-01 5.366270305034707144e-01
-4.436832744353270963e-02 7.315027210208459307e-02 -6.364273477991326811e-01 -3.323440082316838073e-01 9.415629593900946004e-01 5.483296177542719418e-02
-2.980238335063604277e-02 5.307372842560543341e-02 -7.065108732554687965e-01 5.061868450746390691e-01 8.618406997319426610e-01 3.170940174362484737e-02
6.374750609886709052e-02 1.037796898604069831e-02 -7.209830141744346665e-01 -8.026069445283352810e-02 -9.776782599905526894e-01 1.941737388726751390e-01
-1.029444166150786377e-01 7.455675739060417528e-02 -7.650081505621041389e-01 4.538657292236085161e-01 8.867930475662720857e-01 -8.720086366800236521e-02
1.186113744376939699e-01 -1.020690695650238178e-01 -8.688171030503040182e-01 -8.497350644606077585e-01 4.618858121573520825e-01 -2.541885456779475194e-01
4.065595879964244153e-02 -1.112312811370294169e-01 -9.750806990116569484e-01 -5.513890937130523362e-01 -6.286622515457366278e-01 5.484102851111963828e-01
6.941851671660453915e-02 -9.429435730763244261e-02 -9.240477944790507214e-01 -5.257195011483534186e-01 -6.855086035076410900e-01 5.036833932435433869e-01
-6.395461578552646964e-02 3.756580176354847034e-02 -8.262118310478536731e-01 5.081269717713439160e-01 8.415056093047357244e-01 -1.835082833747547493e-01
-7.994478998361182961e-03 -3.622899611367033645e-02 -9.242267104891277452e-01 -4.457728147150340492e-01 -7.004016827150554292e-01 5.574263005195887466e-01
-7.068345881845347622e-02 6.817730126584851946e-02 -7.538536561248730949e-01 -5.228195945509653830e-01 -4.570330888422430848e-01 -7.195696125163170143e-01
2.629218939246508527e-02 -3.551629114804501219e-02 -8.826141414959942644e-01 -5.282187009860109805e-01 -7.501863837176135918e-01 3.977504162327682447e-01
-9.939925125360069003e-02 7.451428495001347074e-02 -7.889716484969889754e-01 -5.493765407597778205e-01 -8.185814362565769775e-01 -1.676599197152965348e-01
1.847044491219920412e-02 3.618976414987147561e-02 -6.996147644735263293e-01 -8.821266160145133650e-01 -3.727534335330269788e-01 2.879366442607167453e-01
1.921134867408061386e-02 4.853602724165891058e-02 -6.538671750782028003e-01 -4.160027083588004881e-01 -8.977437090379942752e-01 1.449067959788218340e-01
-2.363716981235906844e-02 3.529893287913496436e-02 -7.907315253363931262e-01 -4.508018225469621609e-01 -8.420095671047549413e-01 2.963066075746552119e-01
4.110054490790045895e-02 -1.194262342082796219e-01 -9.704964916448967083e-01 5.473034514097147030e-01 6.396490933917285959e-01 -5.397295335611659306e-01
-1.427172311880704411e-02 4.751838053630592223e-02 -7.269761770262196388e-01 -2.633186532758016174e-01 -9.451274549064423436e-01 1.933840242085389238e-01
7.664691593862144048e-02 -1.021792431479391361e-01 -9.265955981787068474e-01 -5.545033426266333665e-01 -6.583887504467612617e-01 5.089698383018806949e-01
9.118305823350407457e-02 -2.351852192625502602e-01 -1.039429444805316294e+00 -9.056923651630098826e-01 1.840647735634738380e-01 -3.818919988929597720e-01
-4.623326133287962436e-02 7.595522522909231578e-02 -6.715728741742943431e-01 -3.444410596128351099e-01 -9.112709481332491590e-01 2.257113544798230731e-01
1.158842526438334380e-01 -9.919964508817454008e-02 -8.646777974294832525e-01 5.256408930754721265e-01 6.917991569015916609e-01 -4.950914845127788455e-01
1.177401927459541427e-02 -3.316888245658072918e-03 -8.106965086780099083e-01 8.749789579343238977e-01 4.833317210002596176e-01 2.832438255446836917e-02
-1.325647983391745055e-01 1.082079484749780690e-01 -5.247798751348070612e-01 -2.435855017475956896e-01 -9.250122239919030820e-01 -2.915793010553481279e-01
-4.254664539936500040e-03 5.862852795438860259e-02 -6.412851503241063789e-01 -8.485660795983431814e-01 -4.879715992225355237e-01 2.044977430371775207e-01
5.190846516385742154e-02 -2.315190084190670017e-02 -8.069096617370017377e-01 3.248675734300506823e-01 8.871946384158819754e-01 -3.276381133198378315e-01
6.589474694200615768e-02 -1.353092456306490832e-01 -9.574821930224040045e-01 4.912121442388388548e-01 6.461969197436577828e-01 -5.840720591383317117e-01
8.303284882613388984e-02 -2.591594524307095151e-02 -7.688178760758352936e-01 4.975844366189114409e-01 7.997808354512621065e-01 -3.357980697971944539e-01
-4.712144201986679520e-02 1.065541418949944976e-03 -9.059145759991477087e-01 -4.809539817171815113e-01 -7.759853251998778401e-01 4.080809264653625368e-01
1.140153740774626639e-01 -1.161225660101419116e-01 -9.035307192703196932e-01 -8.087237573688785819e-01 -3.857752491608616996e-01 4.440082672676698428e-01
-6.705569660038375457e-02 5.417878364347553100e-02 -7.753917916787463893e-01 4.916520278209862704e-01 8.634827525117166891e-01 -1.125869426456785199e-01
-1.253738576613978029e-01 1.011926045319823664e-01 -5.754165096371205435e-01 3.215703837717195923e-01 9.455557015502115137e-01 5.016875069997400044e-02
-8.076195954395687382e-02 5.238995470673077359e-02 -8.241109342453404318e-01 -1.237380150157976477e-01 -6.124501419517481837e-01 7.807648348018971785e-01
-5.589902230031370406e-02 8.333703811681887619e-02 -6.392507852654789602e-01 -4.154198387969082473e-01 -9.096153485504253622e-01 5.125935567174444429e-03
3.085275499992113507e-02 -9.517826503366839594e-03 -8.186709254606463482e-01 3.301770490837588334e-01 -9.345503297779566010e-01 1.326604589553863345e-01
4.877307952168212501e-02 -8.126414294897127411e-02 -9.065355139552531138e-01 5.900426507095317685e-01 6.864620710370431533e-01 -4.249935239167802470e-01
1.017989050742792029e-01 -8.162299430118236110e-02 -8.543730385414696205e-01 4.047611462318596587e-01 8.015200319501012416e-01 -4.401523064619560777e-01
1.133318934686382978e-01 -9.755423874228678904e-02 -8.794309354024980596e-01 -1.588551233418883379e-01 -8.876364100588330919e-01 4.322807575244361211e-01
-7.876604835077077871e-02 5.620647967539642298e-02 -8.165736672318848477e-01 -3.913767544883151039e-01 -8.366686351755242557e-01 3.831577102965807446e-01
6.074913839734918247e-02 -4.820337295175168568e-02 -8.631679304875408132e-01 -4.900225223633997707e-01 -7.629733814885700793e-01 4.216035421062164223e-01
-5.572894753753188796e-02 7.774704369421023276e-02 -5.793774424507872611e-01 3.235232063486621068e-01 9.454181936598300418e-01 -3.895091848550945313e-02
-5.139389398511039209e-02 6.432421146981701088e-02 -7.023426400545910164e-01 4.482814060524941135e-01 8.930842727441978823e-01 -3.800345727122893952e-02
-1.126622064783324578e-01 9.746857199358133217e-02 -5.863222223534720889e-01 3.573692413909209664e-01 9.258384716770927669e-01 1.229241622721206212e-01
9.670802448049606315e-02 -1.124368976850502744e-01 -9.172025554141619574e-01 -3.410372100003650209e-01 -7.993164373068920581e-01 4.947593904578105328e-01
7.425438068511415468e-02 -1.478226392735668415e-01 -9.820968138741533737e-01 -5.072293016503665042e-01 -5.908847656261869696e-01 6.273544686205460019e-01
-5.999501983024992102e-02 3.051852105733035558e-02 -8.593792360206687908e-01 -4.754895548110801284e-01 -8.114354202964577656e-01 3.398267822786660286e-01
-1.445649817526476269e-02 -3.855873728821247737e-02 -9.198261469530195633e-01 5.799592210108711621e-01 7.528562110970412613e-01 -3.112150821812318946e-01
-6.091076049507740398e-02 4.301964397016207198e-02 -8.256899805619963839e-01 -4.173491160263606004e-01 -8.084904709968185887e-01 4.149251422357505548e-01
3.565230032445890901e-02 4.864104507815606576e-03 -7.722049656534786255e-01 -9.435538431298251538e-01 -1.545127618061627184e-01 2.929709056441772153e-01
-1.213464388253094328e-01 1.077175567115585680e-01 -5.709396937037706232e-01 -3.195465771116866582e-01 -9.457933215940345084e-01 -5.800842942476693714e-02
-4.889002404459481810e-02 3.298938870330089118e-02 -8.121980815250839925e-01 4.534066344599876341e-01 8.293773184534986020e-01 -3.264286866415866406e-01
5.624947727437997619e-02 -2.346962817643502563e-02 -8.034657153918377537e-01 3.248675734300506823e-01 8.871946384158819754e-01 -3.276381133198378315e-01
2.030778629722789289e-02 -3.731369738687457388e-02 -8.926678547500419558e-01 -4.288650255606816231e-01 -7.093788479889403531e-01 5.593357130353108220e-01
-3.226435373650869513e-03 -9.069244129242119354e-03 -8.610370539710594517e-01 -6.310966925522837334e-01 -5.988370265846438834e-01 -4.930630590916650347e-01
3.330861496224932911e-02 -5.975932789284847668e-02 -9.031971937276153106e-01 7.005756698326988108e-01 6.149616534719787309e-01 3.619611796829534933e-01
-5.556855652589619970e-02 7.677421994509563141e-02 -6.000057479271126981e-01 3.286475544802253124e-01 9.429721777004146377e-01 -5.286073227931127605e-02
-5.487453499800620110e-02 1.347925193826012176e-02 -8.895144100822707234e-01 -6.395544763692168067e-01 -7.683990103034723518e-01 -2.308750139666401399e-02
-7.543018129441746156e-02 9.119348800294393986e-02 -5.882065597790266942e-01 -4.529457931671670989e-01 -8.907698526418060814e-01 3.700240636311398490e-02
4.086655928833746176e-02 -7.146168197177515946e-02 -9.161488809861475513e-01 -7.040811810288918338e-01 -5.907094697866321908e-01 -3.941218248528707835e-01
3.747947570137952211e-02 -3.143828205432018519e-02 -8.601933136635014909e-01 -3.787113054710554150e-01 -7.156576017220468433e-01 5.868662063927835293e-01
1.108624507338093999e-02 1.535939427392404334e-02 -7.696320600312822613e-01 6.221145405140828810e-01 7.232615749376268832e-01 -2.997769048804376779e-01
7.690184090812801632e-02 -2.052055318216240709e-01 -1.014566202372169768e+00 6.283745941432096194e-01 4.887234728398382466e-01 -6.052228816979116077e-01
4.666693161960341896e-02 -5.755519129448859877e-02 -8.789288281426660410e-01 5.334014127736584898e-01 7.174442983822340025e-01 -4.480587144224397189e-01
6.176261619792006163e-02 -1.214475856638499718e-01 -9.635812170256270459e-01 -6.437563946964972583e-01 -6.593530948539255698e-01 3.883699275097360903e-01
4.646403202878471306e-02 3.057325040298947139e-02 -6.400043732667697327e-01 4.088076992173853563e-01 8.957991718732626341e-01 -1.744136139519062711e-01
2.366980933267742032e-02 9.142234092036917101e-03 -7.655306769486786012e-01 4.388023344724192865e-01 8.534633010015616472e-01 -2.811634846580775560e-01
-1.198671487460760271e-01 9.410300832696348594e-02 -5.333158928095221851e-01 2.220473598096244505e-01 9.750347836457003980e-01 1.463107158422442648e-03
4.462502976816889316e-02 2.085939636629055571e-02 -7.196892430009772523e-01 -5.616041380565436336e-01 -7.857377123107660566e-01 2.592624916381283118e-01
-1.283976145573925177e-02 3.793135916803285629e-02 -7.600941710226714054e-01 -3.665298737823842190e-01 -8.297602483466837153e-01 4.208964027985024892e-01
3.212192930449158518e-02 -1.120049340099303486e-01 -9.716109172695438501e-01 6.554393590515579238e-01 6.675312727724133088e-01 -3.532721988452034445e-01
8.022493789981970103e-02 -2.552571226490872869e-01 -1.048380768868192980e+00 6.520057579499832778e-01 4.127811555990770764e-01 -6.360033090970188541e-01
-2.546610997148862632e-02 3.441303507962348296e-02 -7.947041961685801237e-01 -3.812283347812985834e-01 -8.182968466435132093e-01 4.301804592646679137e-01
-1.137163111771620494e-02 4.448823629896686560e-02 -7.252800539422470383e-01 -8.768966899441580365e-01 1.089119351784563483e-01 -4.681777285824937906e-01
-9.343521565144995503e-03 -3.447247124453180905e-02 -9.230984779831916676e-01 -4.457728147150340492e-01 -7.004016827150554292e-01 5.574263005195887466e-01
8.227354158609660739e-02 -1.625755507032088376e-01 -9.850054418785154642e-01 -9.290786807213046172e-01 1.803751482189074884e-01 3.229204405641851738e-01
1.242122840667587123e-02 -2.376113705047564612e-02 -8.783606059279707168e-01 -5.169481525539323385e-01 -7.634691198658679623e-01 3.871427522017082401e-01
9.107408405331431089e-02 -8.636224330111914871e-02 -8.734118299622375403e-01 5.204190751365441736e-01 7.110564704208585107e-01 -4.728241555871003921e-01
-7.784166163748315603e-02 3.560523581394797049e-02 -8.496690611634271084e-01 4.777691674581071579e-01 8.245156807228969376e-01 -3.031674700037012560e-01
3.117082047049595742e-03 5.409134202410102038e-02 -6.495896465697197364e-01 6.204170308159919767e-01 -7.783997758997882599e-01 -9.579403296984566329e-02
-3.748386262936161811e-02 5.464617637631463687e-02 -7.467796117486591445e-01 -3.607000641450979206e-01 -8.558276357737220064e-01 3.707485961830246923e-01
-7.862719031626665481e-03 2.420862036048954807e-02 -7.977665465534973244e-01 -4.576750890531819937e-01 -8.283852071893388347e-01 3.229728492768983994e-01
2.297872510880147670e-02 -2.471585519969614689e-02 -8.478532574820947243e-01 5.095195233419168579e-01 7.769613208010304195e-01 -3.697579766719631400e-01
-2.907539355932527506e-02 3.134344037133262456e-02 -7.994357866453336570e-01 -5.655738596476584529e-02 -5.402626360308890874e-01 8.395936792292970630e-01
3.703607403375579199e-02 -1.904371414974111512e-02 -8.439138466259985538e-01 -5.694563335636874113e-01 -7.524946122600192355e-01 3.308645382688293890e-01
-4.862456150085076728e-02 7.917307340189433384e-02 -6.333860601878676944e-01 -4.786585351149070799e-01 -8.697734705539380551e-01 1.199171242242285940e-01
-6.212158170740258306e-02 2.877226404723233141e-02 -8.654273098035842882e-01 -4.148761995116880819e-01 -7.899799900901176564e-01 4.514524939968274087e-01
-3.250898664798038129e-02 4.576688533098876438e-02 -7.676387779396955935e-01 -5.175719908052541784e-01 -8.543084755230034855e-01 4.771019789780467368e-02
1.630507233352728597e-02 -1.916904819882388742e-04 -8.186788809103114906e-01 7.175884515174532075e-01 -4.104403092152866250e-01 5.626771426138116317e-01
6.384198702506294065e-02 -9.676005442553402280e-02 -9.185371074669900215e-01 5.448299900034194732e-01 6.778203210202892182e-01 -4.936799513903978309e-01
-5.007769706094291479e-02 3.702720013853877390e-02 -8.052022441111997830e-01 3.126848119684119687e-01 7.826521378627467884e-01 -5.382228529737015377e-01
-1.041864909074498718e-01 9.902044095801161572e-02 -6.593390532076355282e-01 -3.624657967036821193e-01 -9.295742433922493664e-01 6.715856044981916018e-02
4.241788158814884663e-02 -6.519859505627688401e-02 -8.893370086603991087e-01 5.816966576495113950e-01 7.099769179306711919e-01 -3.969405175653549778e-01
4.250222068287932975e-02 3.510660200461036135e-02 -6.683424172921008655e-01 -3.972199935608731192e-01 -8.989095155427726525e-01 1.848728200200274729e-01
-1.535346572207503361e-02 -1.530647104780587069e-02 -8.793581602693054666e-01 5.632472443980715004e-01 7.890606416968096726e-01 -2.452261107692203235e-01
8.370671091263751085e-02 -1.734136939151122991e-01 -9.939413547327318188e-01 -9.029364556668522113e-01 1.682685882180701142e-01 -3.954635751202379979e-01
-1.167515443592038044e-01 1.045500028885455041e-01 -5.323622321815315583e-01 -2.709494016911521697e-01 -9.589380346672687905e-01 -8.381090258243606428e-02
8.920022528701239406e-02 -3.430142184298796276e-02 -8.000022772358014178e-01 -5.021943815621238150e-01 -7.798910181696384614e-01 3.735917596866406565e-01
1.995669834863102177e-02 -3.191808251436673016e-02 -8.842130751162521340e-01 -5.022768758551389157e-01 -7.409115598067840258e-01 4.458340504334314947e-01
1.498996538456397534e-02 -7.415215949921516447e-02 -9.551497509435454836e-01 -6.771423541518826195e-01 -7.108780885548579009e-01 1.900804446181612872e-01
-2.122072881208566381e-02 3.557695364676178446e-02 -7.862650972535751848e-01 -4.508018225469621609e-01 -8.420095671047549413e-01 2.963066075746552119e-01
-7.243608693433606360e-02 8.811177648878877611e-02 -5.799216347380362624e-01 -8.729719823848443028e-01 -4.743268199468244628e-01 1.137276828666083095e-01
