3.787193956014048984e-02 8.030298575932739991e-02 -4.264944926930336333e-01 -5.365391820604475254e-02 -9.980909588093559437e-01 -3.058913212497964620e-02
4.942475796429346424e-02 -1.277671966854336885e-02 -7.701145266626533425e-01 5.367538413403612207e-02 -8.685942687130189244e-01 4.926083124521543066e-01
-1.043025625069764206e-02 -2.466314392335217792e-02 -7.822235290397994145e-01 6.289180831305020147e-01 -2.803328188908342233e-01 7.251727762155539825e-01
1.044844496280630808e-01 4.562179378084774833e-02 -6.245228145464692959e-01 -2.156434109924748044e-01 9.596391804800928904e-01 -1.805285644517965471e-01
5.322744574488613017e-02 -1.979884323731296095e-02 -7.673146316542018841e-01 -5.398005159577221046e-02 8.702343809770426430e-01 -4.896716003560151464e-01
-2.991660001401776417e-03 5.056190979131608421e-02 -5.809402729521416786e-01 9.777832222544702301e-01 1.911703167305347784e-01 -8.598767515645776294e-02
7.214215377809217455e-02 6.646959658843473728e-02 -5.451849139081150764e-01 -7.216263275008952816e-01 -5.549841725219836208e-01 4.138212315815364972e-01
-2.203301340535938381e-03 2.065444745102870683e-02 -7.048037415425788543e-01 1.227502350825172145e-01 -9.126924466557277960e-01 3.897754194465935518e-01
-4.799410992136735749e-02 3.550588116622317714e-02 -6.587325161659552952e-01 1.238176267436421653e-02 -9.448290169418694928e-01 3.273298347198678737e-01
2.441105399217164199e-02 2.613787443642708042e-02 -6.894124038817689426e-01 4.797581749844913312e-02 -9.240856246809235897e-01 3.791623388384223747e-01
8.022682297720100386e-02 3.044377021093711434e-03 -7.275959765085321385e-01 2.073399154536251787e-01 7.625101436287972101e-01 -6.128527068740698969e-01
1.050813074043399353e-01 5.065828298404304042e-02 -6.252427795956835288e-01 -6.249459667386524364e-01 -5.133092128284791889e-01 5.881804065782014757e-01
5.026260272373803286e-05 -2.493973271445904527e-01 -1.004626303215187866e+00 -9.913565846224398070e-01 6.981099937475207518e-02 -1.110790101325625640e-01
-9.030566560793733266e-02 3.433698437701657863e-02 -6.565168525572563363e-01 -2.512603042602192249e-01 -9.620224333163087671e-01 1.066822257886958780e-01
3.255665769665938569e-02 1.627307022252479085e-02 -7.020796344843582837e-01 -5.861928939882908862e-01 7.891520044561854963e-01 1.833494065995762701e-01
7.323897609546473064e-02 -4.439284643854294471e-02 -8.086689136919760212e-01 -1.462129589008728248e-01 8.671164486917347647e-01 -4.761626140906969340e-01
4.388437760517272662e-02 9.078152704084763505e-03 -7.285758521652747621e-01 2.043545944637459658e-02 -8.883243333977638434e-01 4.587616709040043261e-01
-1.188211476562435346e-03 -1.383226279949802302e-02 -7.458520997534598962e-01 -1.177485958310332675e-01 8.841999333042460663e-01 -4.520240548074701548e-01
-7.399818185787632174e-02 5.071857201427032447e-02 -5.917027186965887475e-01 6.146816432012764952e-01 7.721065219039381367e-01 1.613009496090524186e-01
-5.116267864901852258e-02 4.754796751772843305e-02 -5.954696685782907561e-01 -2.121007393551708683e-02 9.700237043714582397e-01 -2.420829314948158839e-01
-6.922312326779883618e-02 6.449940349316459799e-03 -7.088885024584630212e-01 7.108314660092426851e-02 9.390694989200252252e-01 -3.362969855163796540e-01
-1.105658910567952069e-01 3.303779216901473609e-02 -6.370711368784354178e-01 -1.516299569828646367e-02 9.411018304546129309e-01 -3.377831083349647767e-01
1.904449050857552617e-02 -6.203952245285536231e-03 -7.559163685409069355e-01 1.836927935690937583e-02 -8.664522307790749611e-01 4.989219391386516822e-01
1.739111904377368956e-02 7.229050634105871342e-02 -4.077984832561100115e-01 -3.223744963864768470e-02 9.992174671876776770e-01 2.291724476978101305e-02
-1.390173323477463842e-02 1.697349379770328112e-02 -7.069779557460887931e-01 4.934745841508447056e-02 -9.058977326144525000e-01 4.206116099110498996e-01
2.721387536305460916e-02 7.239024664602013159e-02 -4.885971026461440880e-01 6.167220726100159922e-01 4.658673435025035281e-01 -6.345246279014916668e-01
6.863646711961507441e-02 5.947490560763481898e-02 -5.939256013775703336e-01 2.354559037118015424e-02 -9.642039735694071245e-01 2.641141846380810621e-01
-3.951535033727178112e-03 -1.562031208127261442e-02 -7.492236248859247549e-01 4.242223353413296372e-02 8.665717253828327804e-01 -4.972462155401443096e-01
3.084630591714261280e-02 4.516129270695262710e-02 -6.136971141692539877e-01 -1.897913921136186802e-02 9.561599969780852915e-01 -2.922291095248103487e-01
3.235880899092329066e-02 6.809982903896026618e-02 -5.001140944642414876e-01 -3.390310057858877263e-02 9.923090893454339367e-01 -1.190514635508244934e-01
-7.474092277581541321e-02 -5.265656772533692381e-02 -8.204093852728701064e-01 5.819293349499921053e-01 -2.988470468986948458e-01 7.563390057934267219e-01
9.846623859156532210e-02 7.205865264497800932e-03 -7.196161956657072256e-01 -5.307666002125927679e-02 9.027906628727631055e-01 -4.267925575625055590e-01
-2.274066279107592528e-02 2.565064907497979080e-02 -6.690606382855006640e-01 -1.846638274630049148e-01 8.649690959481501906e-01 -4.666130451255655065e-01
7.988028387158697952e-02 4.615472905357305422e-02 -6.169013064734272245e-01 1.932674805283988717e-01 8.681733931035131580e-01 -4.570805623490653558e-01
1.004039917148873747e-03 7.733847683265407391e-02 -4.593303766929680010e-01 9.882202884399569065e-01 -1.521373141910436766e-01 -1.658008282198722427e-02
-6.479504961360661730e-02 -1.715173249617344547e-02 -7.684230340248265900e-01 1.505144136865604887e-01 -8.046551105647516966e-01 5.743479470796581943e-01
-5.693066305358294998e-02 -8.886906085096020480e-02 -8.702554581964498936e-01 1.078012686905296530e-01 -7.295225818679507146e-01 6.754077946051787462e-01
3.310109720131041572e-02 7.282137643552637207e-02 -4.638266628582712325e-01 -5.779428839523838013e-01 7.310582155538343230e-01 3.626787950239784841e-01
-1.046455108931208522e-01 1.530491608143435753e-02 -6.935967622180081449e-01 -7.064044708538925743e-01 -5.747437141856980292e-01 -4.131130433206635089e-01
-4.372837288167968212e-02 -1.146507419050079163e-01 -8.941233421927917702e-01 6.630770155847965919e-01 7.465892310863724290e-01 -5.416079235958925348e-02
-2.601026646886066621e-02 2.911666831881674217e-02 -6.638378460749293497e-01 -6.386587248352875168e-01 3.512685711149886592e-01 -6.846352489746628800e-01
4.725071423963552592e-02 4.314137842648954613e-02 -6.259170763399573012e-01 -1.283483518313643379e-01 9.711228546567468589e-01 -2.011146482618886011e-01
6.801962922092011365e-02 4.196011344433116935e-02 -6.519223567433112265e-01 1.551130508606929186e-02 -9.431442244414418585e-01 3.320216428446767787e-01
-7.499937331429253062e-02 -2.933313247416259942e-02 -7.841166670614714285e-01 -6.869203730823417731e-01 -6.817152235696775087e-01 -2.518030083175356038e-01
-8.231624517341017350e-04 -1.160026270239178786e-01 -9.029588662895960960e-01 1.869327480264967312e-01 -7.910141743207682596e-01 5.825398902555048997e-01
2.366715671787743627e-02 7.453945400869203819e-02 -5.079560015799245987e-01 1.493563321634726326e-02 -9.932530889793602658e-01 1.150009917060951237e-01
1.880317005517924064e-02 5.224233706071473166e-02 -5.862645738548096785e-01 -4.145614899865445596e-02 9.739054521593104585e-01 -2.231357388778643369e-01
2.174021321146774911e-03 4.110347129842042979e-02 -6.535672556400335953e-01 -5.147612853526720156e-02 -9.598685361043061137e-01 2.756856934771860779e-01
5.173605207130937272e-02 3.688096896793375407e-02 -6.443910283620960522e-01 1.541755943308540933e-01 8.703353800097268778e-01 -4.677031242316564974e-01
9.804285809450463945e-04 -1.196662140629850130e-01 -8.959750197423014262e-01 -9.905806629433259181e-01 1.081153892821191675e-01 -8.402983281630872769e-02
-1.002840753894026354e-01 3.022911040373615216e-02 -6.462897092473501859e-01 -6.525629927597391411e-02 9.300462009672008090e-01 -3.616015479381709530e-01
1.221800397961375281e-02 8.769874038633669600e-03 -7.222396460836479903e-01 -5.418414391614551073e-01 -4.054203331021499213e-01 7.362351582984780762e-01
-1.060990319946058663e-01 5.136436609928717034e-02 -5.986514465408514507e-01 3.966433294153198230e-01 -8.657549055698536833e-01 3.051925829899273523e-01
-2.142102656829902169e-02 5.314583198947229331e-02 -5.775439838577288709e-01 7.098884099663976821e-02 9.879425411848827832e-01 -1.375867717882431618e-01
-7.922371885851708928e-03 -9.841126624163261394e-02 -8.882109168076085526e-01 1.447899622038229250e-01 -7.243548677564769500e-01 6.740518469691425540e-01
-2.347005438564176826e-03 6.427062787290750701e-02 -5.382682190471969053e-01 9.876080938615929838e-01 -1.560965040346723176e-01 -1.625221114878208986e-02
1.001310573929159176e-01 3.391323213502966949e-02 -6.768030718035307203e-01 2.103141588705563156e-02 -9.278911530672081520e-01 3.722575554711985424e-01
-2.893973864267600227e-02 6.355876278595565254e-02 -5.637889568100843407e-01 4.982879017812282679e-02 -9.766912003073919823e-01 2.087855141323037012e-01
-9.948689555364800818e-02 3.690583108404240330e-03 -7.104125772513071313e-01 -5.321295182614495939e-02 8.992438853332942461e-01 -4.341990516440926706e-01
5.290578258037301890e-02 7.198408851298507272e-03 -7.313302858983011800e-01 -7.634836038905752631e-02 -8.437907447461679977e-01 5.312138053049916264e-01
9.282228774419758188e-02 5.673854777751689143e-02 -6.006372969119113669e-01 6.739882130956574846e-01 -5.270415778345614033e-01 -5.176553523743171459e-01
3.860111129065425806e-02 1.148384638140165399e-02 -7.231039105320840044e-01 5.955322571504126361e-02 -9.099062582729152693e-01 4.105167651420781327e-01
-1.091362364555885922e-01 8.561696508686102505e-03 -6.990509791967363107e-01 -1.983450613547464714e-02 9.113532490376594630e-01 -4.111469905457943441e-01
7.648523115691326091e-02 5.615033881659890758e-02 -5.768927501251976953e-01 -5.262017573123717318e-02 9.740200608408831062e-01 -2.202635652701914193e-01
-1.005278581989867553e-01 5.605845293927977369e-02 -5.860959874300681882e-01 5.949723360512988724e-02 -9.716658250568093180e-01 2.287479040559856902e-01
-1.059535806326618451e-01 -1.785900621472528635e-02 -7.522390028931847938e-01 -3.562875957898247736e-01 6.593664550405405889e-01 -6.620385389488870898e-01
3.671261043711921551e-02 -3.023406051954565660e-02 -7.835433766643435938e-01 -5.040510975731404830e-02 8.559687657798291660e-01 -5.145646673837110940e-01
7.056986937639155022e-02 7.192426809006537136e-02 -5.334381448424666550e-01 -1.560086047883313121e-01 -9.552739810749747429e-01 2.512228817468006303e-01
5.134719306888206602e-02 -4.997669852214958047e-02 -8.148657317087626417e-01 -2.612388411670815355e-02 8.210788166803055788e-01 -5.702167302679971295e-01
2.647622014128517276e-02 7.872876121776452296e-02 -4.613270385581754729e-01 -1.457526306929824989e-01 -9.738386122748090568e-01 1.743402646801625600e-01
-7.870137961053845499e-02 3.020515141417848617e-02 -6.667897720656571492e-01 -1.331415001358839667e-01 -9.685416220773245266e-01 2.102390716431932205e-01
5.557845916725522029e-02 1.556405351937697502e-02 -6.984221236918803921e-01 1.414247723373325827e-01 8.304347912709330037e-01 -5.388664873752453399e-01
-3.854369469412048665e-02 6.763000885876625790e-02 -4.894936268661205236e-01 7.374639507799049531e-02 9.965934301063870127e-01 -3.691888787310409342e-02
1.709695002846055994e-02 -1.706104669540719002e-02 -7.708263337333284282e-01 -5.458141710792521195e-01 -3.408760252203505980e-01 7.654347954457282333e-01
7.941369110279861143e-02 -1.228504552007115593e-02 -7.579833290417502534e-01 -1.312824541354892238e-01 9.050957025955901347e-01 -4.044337849131275364e-01
8.741710480069369432e-03 5.041454462679171439e-02 -6.113743258794475111e-01 -4.668964967776219610e-01 -5.397032583136962547e-01 7.005198457305572557e-01
-2.220003040784872782e-03 5.223696816362515677e-02 -5.720469743201918034e-01 5.961883833540874145e-01 7.665679460771539500e-01 -2.386063611907555670e-01
1.540523887613514352e-02 -2.666198718855468386e-02 -7.862317917995965688e-01 6.021503886742497480e-01 -7.864768548198770581e-01 -1.373647198231189304e-01
-8.620157415659532307e-02 -3.030388848454731304e-02 -7.748029583710336343e-01 -6.330286714237531864e-02 8.405083425864093849e-01 -5.380877930730280090e-01
-1.089203043109913949e-02 1.491822188451646762e-02 -7.117075403309679471e-01 4.880764885786574581e-02 -8.984941589778930870e-01 4.362637501507267146e-01
-8.504859911521210625e-02 6.368389549810071944e-03 -7.232171927118772325e-01 1.583239777377643681e-02 -9.039751315165845957e-01 4.272918168890044721e-01
1.729885674657303076e-04 -2.387068724763366512e-01 -9.985649148217947690e-01 -9.909327010708954830e-01 7.675652835720142564e-02 -1.102760957909268980e-01
-1.790317291724361284e-02 7.771878739049609131e-02 -4.544635982417350450e-01 1.706610817687669590e-01 -9.767990323551649645e-01 1.293771446567265615e-01
-1.917673797931927077e-03 6.092154130175669521e-03 -7.047036378734647943e-01 4.707167484550815045e-02 9.176157653883756371e-01 -3.946714640532604235e-01
2.429422557055245166e-02 -7.616363586550536913e-02 -8.595292475617426486e-01 -1.017691700976818131e-01 -6.905818174719288161e-01 7.160585097565675960e-01
-1.104021593029055372e-02 5.427865313397882419e-02 -6.004035676514710707e-01 1.443971825286304578e-01 -9.254158192887309564e-01 3.503641178659139821e-01
-1.257905612785884236e-03 -1.044983988921123347e-01 -8.756403175161107111e-01 -1.257328543450670633e-01 7.515140238722933796e-01 -6.476248306400211874e-01
-2.746437420030192755e-02 -1.214806147816389487e-01 -8.968744428958758119e-01 -5.465581213374001018e-02 7.232857799212724093e-01 -6.883824683732713279e-01
-5.720764638905728727e-02 -1.556537693698342370e-02 -7.667933568254335919e-01 5.783910288568813035e-02 -8.541288320745394902e-01 5.168351539866090638e-01
-8.353955433748581905e-03 -1.848715272716872082e-02 -7.752557010422690409e-01 5.102631950244802816e-02 -8.557101302272054344e-01 5.149334789509935062e-01
-5.712283007866335305e-02 5.118010138914284857e-02 -5.803277459325244525e-01 -5.580389983216726274e-02 9.671616158550572218e-01 -2.479603467898769953e-01
2.875351216240181265e-02 -5.861949920090249455e-02 -8.381182080886628860e-01 4.997914316989308242e-02 -8.034958556155751275e-01 5.932086439496629948e-01
5.716491815284797245e-02 6.703927422776259637e-02 -5.562741707150111736e-01 -6.006511047256369445e-02 -9.572292301822959981e-01 2.830271778266670313e-01
-2.428019559314649814e-02 6.526127544216722698e-02 -5.180966575551427811e-01 8.321461444736708013e-02 9.947621504052491792e-01 -5.935985228671387254e-02
-1.161812858853680450e-02 7.816148295859987050e-02 -4.575462087998922178e-01 3.159380143179426476e-02 -9.982277455001116184e-01 5.043014797571587077e-02
-3.798262697613767613e-02 4.942197599521480633e-02 -6.179131092252769797e-01 4.605258606935790089e-02 -9.504136892820047589e-01 3.075597154077445716e-01
1.010323840490485181e-01 3.737907835511407317e-02 -6.491904971134588864e-01 2.207661921181862663e-01 8.157228699493466184e-01 -5.346573555645122156e-01
-3.636160471908886360e-02 1.047896229795500754e-02 -7.108265274376700527e-01 -5.866402821879873608e-01 -7.822381634957499275e-01 -2.096583766158532092e-01
-1.698667368747469901e-03 1.106970343760013166e-02 -6.931098673158303525e-01 2.949511023508727056e-02 9.180401194388543296e-01 -3.953888940940477048e-01
4.206705639091211368e-02 1.573338201762556482e-02 -7.133428956390668318e-01 2.108184964250315596e-01 -9.441448980720492656e-01 2.532705529855550641e-01
-8.348799271458844096e-02 5.700373554287142125e-02 -5.564519571288385480e-01 3.193031304976429730e-01 9.243706582728177246e-01 -2.087687643750441857e-01
2.409708622843874729e-02 -7.719180966061128801e-02 -8.496796599412604900e-01 -5.678096243520634745e-02 7.938660170214089096e-01 -6.054359332939331928e-01
3.466699247732117628e-02 7.975539519379570841e-02 -4.459444385159138657e-01 1.084230207995866280e-02 -9.987250108179394070e-01 4.930311605074792769e-02
-1.328265890439983034e-02 -6.011274578197910168e-02 -8.325357550411535135e-01 6.124805766453454980e-01 -2.303402921393704061e-01 7.561817857164602197e-01
1.355188399934002981e-02 7.980924082405796427e-02 -4.114647870870015711e-01 -1.056476307565198947e-02 -9.999366604931662073e-01 3.880822455307356405e-03
-6.973935246447723023e-03 -1.505062594285182243e-01 -9.220192761995341657e-01 3.386411556812994605e-02 6.756775862492065965e-01 -7.364190526576795959e-01
8.053871535933719572e-02 4.804429234081662031e-02 -6.351738820076447967e-01 1.996154588747606901e-02 -9.505979780223396958e-01 3.097822152184039335e-01
-6.545381195880101144e-02 -3.072949974673802771e-03 -7.374513108135245520e-01 -6.610257984829918110e-01 -7.042305716839192264e-01 -2.590447753683974286e-01
3.423862933854231877e-02 6.473250657316328982e-02 -5.425600693644311301e-01 6.278982869150528945e-01 3.709239785329780936e-01 -6.842215601969939831e-01
-6.813678651261655117e-02 2.058895437394785491e-02 -6.943030538164213228e-01 5.574785068462807802e-02 -9.068365445720262263e-01 4.177794377093152489e-01
-7.819310588732638484e-03 3.354704675717514080e-03 -7.363383588427714344e-01 9.898817878015722105e-01 -1.351561526256249146e-01 4.320718211364875383e-02
-8.868087460507291520e-02 4.993034656191924076e-02 -5.915854301230357715e-01 -7.136686950569440802e-01 1.682860168303070558e-01 -6.799682420783399461e-01
-4.656139073004341572e-02 -6.538914959411322447e-02 -8.295240580901267480e-01 -2.592730991684868286e-02 8.043998231323642445e-01 -5.935222819280643325e-01
9.542086807152018457e-02 -1.717556733708423822e-02 -7.810554356622554373e-01 1.029103798713592796e-02 -8.534360535237264234e-01 5.210959576536691173e-01
-8.403410626794090288e-02 3.475524106911138944e-02 -6.380644598566859171e-01 6.510049843012051529e-02 9.692852219486560728e-01 -2.371667843862085012e-01
6.006878215576609559e-02 7.931508187912100771e-02 -4.672961919899865646e-01 -6.164006986156598394e-02 -9.935387297594654443e-01 9.529582496315892881e-02
2.599120793134309174e-02 -7.348171794520547140e-02 -8.567008247811450650e-01 -8.998325059475432985e-02 -7.153832837371114639e-01 6.929139715447432124e-01
-1.323008956990462566e-02 -2.607244851227424332e-01 -1.012113922583417924e+00 9.751343643881859036e-01 1.148133497076759407e-01 -1.895543882851350725e-01
7.617019916093017984e-02 -6.104833570520048353e-02 -8.416972164714545679e-01 -9.422049775473178013e-01 1.598990401951224383e-01 2.944182012541635141e-01
-5.569936755532271799e-02 -2.307596098582549715e-02 -7.646767265995615404e-01 -2.149076427109971460e-02 8.709437541199872568e-01 -4.909125423234031449e-01
-1.896395850856665444e-03 -2.331794266260834303e-01 -9.891090485248141828e-01 -6.459743522237172408e-01 4.217038895668533960e-01 -6.363041456672553497e-01
2.983871244069148665e-02 6.676090043780144589e-02 -5.562408855943571373e-01 4.827460300769404605e-02 -9.832278723785844443e-01 1.758764159355415690e-01
-3.223006833501254609e-02 -1.211192413151728903e-01 -8.966666036438543097e-01 1.658974425566243915e-01 7.933617762353695202e-01 -5.857090835575546883e-01
-2.080064641525595018e-02 7.261942667532909901e-02 -5.127433359332950191e-01 4.712880586749131073e-02 -9.896390726382487957e-01 1.356222015940284908e-01
-8.056932968750098178e-02 3.918082080248090626e-02 -6.421445384170769710e-01 1.224897021787693385e-01 -9.077714770542074652e-01 4.011822756640409660e-01
-2.748054456998695952e-02 2.224255882653002406e-02 -6.743296492472621306e-01 -4.491835955535812552e-02 9.243064513794730930e-01 -3.789985816769524951e-01
8.745405138541134660e-02 6.154377796702614062e-02 -5.819844669435400020e-01 -2.425677428898840027e-01 -9.278734837272888392e-01 2.832166808383498879e-01
6.765446214599584243e-03 8.176155912899646383e-02 -4.257377161111479125e-01 9.797503431108288419e-02 -9.951808989492845203e-01 -3.983844655101927840e-03
8.588565351811924820e-02 4.899456578237525867e-02 -6.326000547888299685e-01 1.976018466628741074e-02 -9.505872060436572069e-01 3.098281762655996086e-01
-2.114512514758568398e-02 -5.356150325623952602e-02 -8.160270151459199095e-01 9.711359786767331803e-02 8.692348843618655785e-01 -4.847676401304135685e-01
2.113462978922935054e-02 -3.421722813870151786e-02 -8.028053956609075836e-01 1.970050792563348557e-02 -8.290139893973587082e-01 5.588807523711547542e-01
6.772099540954504282e-02 7.456901039081484384e-02 -5.098318261849299482e-01 3.134121823167908549e-01 -9.391196202353007116e-01 -1.408088877327394184e-01
2.079012954492850257e-02 -1.117218253504761311e-01 -8.895248099007254661e-01 -2.168559659301818460e-02 7.195334495136508357e-01 -6.941191179699572888e-01
-1.054222381740355964e-02 4.881704706110606001e-02 -6.026773046658854271e-01 4.764784100262801081e-01 8.422040344743566553e-01 2.523106995233150851e-01
7.632460244967442797e-02 -3.494190330278812429e-02 -7.938344002626941398e-01 -4.659552146821779872e-02 8.458954610819990894e-01 -5.313094449564933486e-01
1.001402692388425886e-01 2.891428704883345410e-03 -7.289506719271029445e-01 -5.307666002125927679e-02 9.027906628727631055e-01 -4.267925575625055590e-01
8.929576840074113231e-02 3.301269121297461390e-02 -6.784660498244771132e-01 1.935324084457537216e-02 -9.277981368446636123e-01 3.725802857591669626e-01
-7.760312621192939908e-02 2.685716060434657076e-02 -6.782886570228516820e-01 1.454219295086451279e-02 -9.309424352007976688e-01 3.648762899485089028e-01
-1.106548843072316657e-01 3.420908468422619031e-02 -6.557033254236580566e-01 2.851778370537741761e-02 -9.426225157384290343e-01 3.326402393509965694e-01
5.206893295269288124e-02 6.441694094375742530e-02 -5.662246814976480414e-01 -6.006511047256369445e-02 -9.572292301822959981e-01 2.830271778266670313e-01
2.575935421893878544e-02 -8.008963738564547907e-02 -8.626759319960835004e-01 -5.196583275602209007e-01 -2.651227479338713056e-01 8.121977290815993733e-01
-3.376097177748731745e-03 4.162646661071621457e-02 -6.486611919817552030e-01 6.451503907098073975e-01 -7.397598713067803367e-01 1.911447257215294626e-01
8.067860694785773668e-02 2.524442075158993964e-02 -6.962882041101535746e-01 2.347765687616425873e-02 -9.189916340608175194e-01 3.935774080836366706e-01
-1.723726177335373200e-02 -6.674230154175286867e-02 -8.403464873324082429e-01 -5.551182701479294712e-01 -8.313990671892711459e-01 2.488568312866059479e-02
-7.657488565375093759e-02 -1.777337801180860558e-02 -7.549441003156519558e-01 6.619046915481664739e-02 9.094285684335565723e-01 -4.105587664512316826e-01
-7.810781788533386304e-03 -1.444899883628034294e-02 -7.708127707681814433e-01 6.454862416595500418e-01 -6.706365355774672743e-01 3.655053337187867957e-01
1.626449197380113940e-02 7.274995589987659494e-02 -5.008153190230720808e-01 6.050921372359767680e-01 -6.369998376133639839e-01 -4.775926217350365821e-01
-6.552498103252135664e-02 6.555533405240632217e-02 -5.285197690672394089e-01 9.913855210028562626e-01 -1.168180501675551292e-01 5.923083572722896012e-02
1.826551592896232586e-03 -1.995888926567697050e-02 -7.813949821315334665e-01 -5.867295190282308948e-01 -6.804203432598158185e-01 4.390633530358635794e-01
-3.798168000886456563e-02 7.570352801046616176e-02 -4.826024731222633424e-01 4.745720514520786193e-02 -9.935693333547309658e-01 1.027997738170726705e-01
6.703544819958444541e-04 -3.722073436453275652e-02 -7.862580613647210948e-01 -1.179179149641537833e-01 8.440003508708683322e-01 -5.232196222050140566e-01
-4.255969100442705266e-02 6.770778725283567445e-02 -4.968924611132477520e-01 1.111166802728889569e-01 9.935101701219105630e-01 -2.430278233998540982e-02
3.079681537477435213e-02 -6.517771826909173061e-02 -8.468413946469888209e-01 2.072929628085429937e-02 -7.792222028003447098e-01 6.264048650343315705e-01
5.796844180290969262e-02 -1.638309260466514145e-03 -7.478556901479190833e-01 6.356098667439680217e-01 -7.335710699989823613e-01 -2.405692884768612372e-01
5.394824425912472798e-02 3.611022008174076536e-02 -6.451465106353881929e-01 1.348255323381572501e-01 8.791206464821527122e-01 -4.571312336283032685e-01
-7.589694329566330083e-03 6.042806965871972552e-02 -5.805078154049427841e-01 -3.968857603147850355e-02 -9.800767649620677480e-01 1.946133389931979096e-01
1.142024051926098134e-03 7.393780703591629200e-02 -4.454420517006837388e-01 9.786734018488481013e-01 2.013151291221630113e-01 -4.087286753005726914e-02
5.391276953692029916e-02 7.903945301402448553e-02 -4.694771346919939248e-01 3.697363570941875760e-02 -9.979308785651311853e-01 5.260144359855861013e-02
-6.580686941718681682e-02 5.935895664769941932e-02 -5.773564585813409922e-01 5.071753994614872085e-02 -9.695269488546737202e-01 2.396773384914761551e-01
1.293121357755385586e-03 4.769042312726088501e-02 -6.013323693465689734e-01 -4.597654161395294675e-02 9.672432740953693653e-01 -2.496529718198651493e-01
6.720480702260887493e-03 2.377072991303503732e-02 -6.798906706526328669e-01 -9.898656763251963975e-01 1.385612937490830199e-01 -3.109197175867004642e-02
-5.936557227305272987e-03 -1.322827076900612991e-02 -7.459963271552830788e-01 5.835579190672843808e-01 7.155018701389016522e-01 -3.840797168838719355e-01
-6.952998180283806277e-03 -1.183685283381745168e-01 -9.047312274897996165e-01 -8.195350887775305904e-02 -7.857596642762892936e-01 6.130786021213244785e-01
-2.679783039868562696e-03 5.599535056014566525e-02 -5.984948886218522945e-01 3.112742205648361127e-02 -9.644570279731471407e-01 2.623999329064726216e-01
-1.196078450298460466e-01 2.052745301593893873e-02 -6.848373262519373839e-01 9.732288140962330747e-01 -2.129268481839023952e-01 -8.653226412910577925e-02
-3.136754158772787904e-02 7.364158465137568554e-02 -5.012038007859603850e-01 1.207768482180524988e-01 -9.710751511050467188e-01 2.059757360487494693e-01
9.292786124696698902e-02 -1.922882746171791432e-02 -7.696176339785493203e-01 8.904419868833357912e-03 8.388053479944677093e-01 -5.443586129406600138e-01
-2.820196704427945303e-02 -1.135899654502046385e-01 -8.996234792813626591e-01 6.567336218270282411e-02 -7.031542412026734468e-01 7.079979679196206632e-01
3.734642892347362492e-02 5.397289300516068533e-02 -6.107778980609734898e-01 4.962450954842220069e-02 -9.645278665526536566e-01 2.592747629358952977e-01
2.688729074666571656e-02 7.273108025283839262e-02 -4.365479997249921973e-01 2.031171287098189338e-01 9.573190208288075986e-01 -2.056300668288850997e-01
-5.843823530150915081e-03 -1.288070271365235053e-01 -9.009952899875331989e-01 2.927667423734769611e-02 7.012822911423840511e-01 -7.122822646084124854e-01
7.521320243542853334e-02 -1.130328664729907291e-02 -7.669569730170969768e-01 -5.680190416606115816e-02 -8.237275311993714766e-01 5.641334044597058339e-01
-4.911902082922366131e-02 8.608641362108248761e-04 -7.206100313586913941e-01 -2.255926919121606020e-02 9.000372749976042197e-01 -4.352286559826284984e-01
-6.220891245762610877e-02 2.079118743836536054e-02 -6.822693445887051400e-01 -6.797876736249179874e-01 2.265869074993503984e-01 -6.975292769034879825e-01
3.312659422740788645e-02 2.691195168782942529e-02 -6.880966647620159193e-01 1.940062317465766212e-02 -9.165162288476277341e-01 3.995267426335288863e-01
-6.404301584036641015e-02 -8.328295095881325938e-02 -8.514579478242662036e-01 -3.608194857928416488e-02 7.693412106075394608e-01 -6.378183084920401313e-01
-8.768631877188456936e-02 4.285846425173924119e-03 -7.275147595293027791e-01 2.229327797591993537e-02 -9.033956098643185495e-01 4.282281889775175210e-01
1.161126257108385379e-01 1.306314322425292974e-02 -7.118180176494944833e-01 -5.252583111229925938e-01 8.232907515480659688e-01 -2.151651575224069468e-01
1.117337691920699955e-01 3.130018219166686572e-02 -6.769523568718790463e-01 -5.860601240478063856e-01 -5.099642700687588848e-01 6.296586172318358043e-01
2.525865540411063523e-02 3.782606473154163235e-02 -6.523054875565773569e-01 -5.088312980158390397e-01 -5.274200973052020069e-01 6.803813277259214143e-01
9.118733986402203368e-03 5.989809496306269798e-02 -5.792807749574296894e-01 -9.772086608222765314e-01 -1.937754459153707698e-01 8.668511852810907581e-02
3.889421763000384946e-02 5.099703151714284066e-02 -6.212766804441308688e-01 1.899731197231261173e-02 -9.510044158383511581e-01 3.085931029588687702e-01
6.286651737895892047e-05 -1.959873767311785808e-01 -9.723714795360067775e-01 -9.759692453201798124e-01 -1.296965654880300745e-01 1.751080611787133867e-01
-7.568373286328225480e-02 4.952627741042631149e-02 -6.083637693038429495e-01 -7.009295976188201216e-01 -5.462813666817880609e-01 -4.585568313722921951e-01
-5.155148752842707294e-02 5.175123720443781244e-02 -5.791496440711199067e-01 -4.609250221206577514e-02 9.679766261559962226e-01 -2.467726331169760867e-01
-3.875885724758218204e-03 2.069776586526927281e-02 -6.980555723646234556e-01 -1.247617877768704558e-01 -9.498255732714654398e-01 2.868202863645654688e-01
4.027387277082787598e-02 5.705987606057273676e-02 -5.698080988412931314e-01 -1.125600859097011935e-01 9.849501196420188398e-01 -1.311620710311213744e-01
-2.990401218566560160e-02 2.937170575227420269e-02 -6.600755348887332730e-01 -6.347326476728396560e-01 3.621904465858558075e-01 -6.825925185498044057e-01
8.449699136157629020e-02 -3.804676617817701750e-02 -8.087781734019330315e-01 -6.282241480820933699e-01 -2.951996987171332520e-01 7.198552338101333881e-01
-1.133312622317510579e-02 -4.873273320749943113e-03 -7.509643199116929901e-01 2.038023856406512985e-02 -8.871335949313970959e-01 4.610625018586606005e-01
-3.365082724490390392e-02 -1.220473167291550171e-01 -8.982482290222045807e-01 1.069204599967540359e-01 7.966599323624439233e-01 -5.948957617955844546e-01
5.911590758804110418e-02 -3.279578538116179748e-02 -7.973354563026044950e-01 6.612091920277466395e-01 -7.077618940726723151e-01 -2.487478757229450443e-01
1.299832089884031885e-02 6.880450136760553337e-02 -4.795325053941959514e-01 -9.874987348447743507e-01 1.568063779550772363e-01 1.606264338705541694e-02
-2.489445811270776104e-02 6.561974958892549670e-02 -5.541505663974601870e-01 8.174081703630892842e-03 -9.841034296829632710e-01 1.774080721797387239e-01
2.593532097158072688e-02 -1.203985032171046854e-02 -7.523659656535230944e-01 -1.676063582283772724e-01 9.111781491691924861e-01 -3.763807768178730750e-01
-6.322943597695412921e-02 -9.103217530906931865e-02 -8.609361060969076274e-01 -5.388146156275347431e-02 7.727929464194371878e-01 -6.323668635090127221e-01
8.851228186776238793e-02 -2.910660987605773534e-02 -7.856197784457387145e-01 -5.971685062242346187e-02 8.588722496921087357e-01 -5.086967234615878963e-01
4.141221606476749167e-02 -3.331750571388759907e-02 -7.898206707617426714e-01 -1.670711832293183541e-01 8.862179590746802615e-01 -4.320936805229435018e-01
3.136967061154352643e-02 3.733359184534657677e-02 -6.424886666627759313e-01 -1.485259961830993625e-01 9.672949813348865611e-01 -2.056220988662444127e-01
9.909587285652651789e-02 -2.437237742594381470e-03 -7.433432464021462183e-01 -5.381309941024305932e-01 8.420864202186363334e-01 3.613162146502831018e-02
-5.802665641344809111e-02 6.187437730802026331e-02 -5.280925049865851095e-01 1.347490062504945463e-02 9.896488668589547011e-01 -1.428759860086077083e-01
8.914163582884938875e-02 4.121870315852993460e-02 -6.472375110195137671e-01 -4.415270631690098591e-01 -6.218836932693533326e-01 6.467723900531143766e-01
1.230637769147403110e-02 7.140310406331093485e-02 -4.988895877782244526e-01 -9.790451016480676838e-01 -1.950935174824282581e-01 5.838842672361346797e-02
-2.097561900797301204e-02 -1.843826628297163400e-02 -7.600854877102916074e-01 1.062944976889616810e-01 9.164498909101721491e-01 -3.857733495354296882e-01
-8.058817024763938186e-02 3.343500969210910778e-02 -6.435952816685711619e-01 4.101123346794640634e-01 9.053611800634087103e-01 1.101317691583642427e-01
-6.406720174318716876e-02 -2.094090625917877438e-02 -7.605308740818640389e-01 -2.061187178840212172e-02 8.710294229956707657e-01 -4.907982223044490278e-01
4.577748205435700976e-03 7.278845715625803514e-02 -5.241615483291477418e-01 9.665219611690288593e-02 -9.885474932685403004e-01 1.158973965983058352e-01
-2.468038816783014577e-03 5.740020018055115580e-02 -5.597794456756959303e-01 9.777270002525623172e-01 1.914303060711723958e-01 -8.604853801560770343e-02
9.547495410272470451e-02 -1.312836197087086966e-02 -7.634347565615536846e-01 6.808842034606351623e-01 3.269986818169538095e-03 -7.323837850908396785e-01
1.236009430067862465e-02 6.945907568816066247e-02 -5.386837251346099364e-01 -8.597017059387217219e-02 -9.557577018270009273e-01 2.813118290552851786e-01
9.591032345521152691e-02 8.472007600469781685e-03 -7.339321194593312336e-01 2.974651682471882511e-02 -8.941813422406509337e-01 4.467156499670730807e-01
-5.911289225610318748e-02 5.860582413316325900e-02 -5.818194767778044341e-01 5.071753994614872085e-02 -9.695269488546737202e-01 2.396773384914761551e-01
-1.604227123656866316e-05 4.835438329543283870e-02 -6.163201086992676769e-01 5.706749129417434396e-01 -4.675653821420522327e-01 6.750650021748202390e-01
-8.181581361206714809e-02 5.432548167527002925e-02 -5.693507130939211569e-01 5.131577295309853737e-01 8.541207007603376367e-01 -8.453977262374205714e-02
-1.596685388872909686e-02 -9.973089634786229396e-02 -8.785478707091741724e-01 5.587069144878799021e-01 8.233957537106867397e-01 -9.932782326540089135e-02
4.058231685103274450e-02 -8.301722266438561759e-02 -8.614072789349541681e-01 5.989257452641972845e-01 8.404028059885988722e-02 -7.963825606431814697e-01
9.307684603752236496e-02 2.716087481209610022e-02 -6.728703174402609344e-01 -5.327439687868935209e-02 9.372253706994296829e-01 -3.446308795719387752e-01
-4.580960590322834952e-02 -1.124973274615278657e-01 -8.881804853250234721e-01 6.788041413193671714e-01 7.342554377117606057e-01 -9.689681026103433986e-03
1.833123707604913943e-02 5.481243176021687036e-02 -5.749351316507709253e-01 3.257291930075665188e-03 9.726673361802578022e-01 -2.321801954889421149e-01
-2.947849024204666352e-02 4.818636294989391694e-02 -6.230136483326356167e-01 4.979651183200205916e-02 -9.501128584965402579e-01 3.079056081478518947e-01
1.226646996280301646e-02 7.159124654356831263e-02 -4.550564819899485247e-01 1.310648091439136353e-01 9.740963063139972400e-01 -1.842780557459213209e-01
-5.590024381521616764e-02 -1.705805440807022953e-03 -7.301097873052926346e-01 5.052824672042354193e-01 8.601205241455308625e-01 6.987354491950358015e-02
-5.335704326553619356e-03 -1.341848731598715705e-01 -9.062545936059435148e-01 3.665788333422883433e-02 7.003616028714726438e-01 -7.128462841403857553e-01
6.329683031420023365e-02 3.557409670869247920e-02 -6.471221240728187718e-01 -4.858464887781412805e-02 9.509349639620368055e-01 -3.055523297373777258e-01
3.244009075896611694e-02 6.529042712371906088e-02 -5.439081022771670160e-01 6.278982869150528945e-01 3.709239785329780936e-01 -6.842215601969939831e-01
-1.153911408402063105e-01 4.985289912978540378e-03 -7.155940816836064977e-01 9.295634396434464541e-01 -4.842981107274009489e-02 3.654673242270823352e-01
-7.958001933520035542e-02 -3.328883395710418441e-02 -7.941152946334276708e-01 2.747859125926765955e-02 -8.461476952036520727e-01 5.322396123213243291e-01
-5.011389675551538095e-03 1.316314853322632893e-02 -7.212077338749864897e-01 6.477854163283451872e-01 -7.062266163380322981e-01 2.856886780536572745e-01
-5.719063037605195271e-02 6.775206999902411154e-02 -5.364194315872891083e-01 1.657525918325099823e-01 -9.539349644305804565e-01 2.500683145415116826e-01
7.959133270574188235e-02 4.599756437789980640e-02 -6.413656168099064470e-01 2.981527228851822697e-02 -9.439534865985373946e-01 3.287291661487104499e-01
2.302029289835048551e-02 7.371554100095467632e-02 -4.196281227126992808e-01 -2.176482442568102582e-01 9.638555188233626225e-01 1.536612527792035610e-01
7.152336096841043454e-03 6.269294172661990516e-02 -5.333979405148309150e-01 -3.342929682229597854e-02 9.868860783978464779e-01 -1.579188094512065932e-01
-7.102107551264552968e-03 -2.499823028353309606e-01 -9.988964896593828247e-01 1.847230369172842002e-02 5.233149210450991351e-01 -8.519391218906913199e-01
-3.185624858844585128e-02 -4.260373078114695206e-02 -7.981563735278914828e-01 -3.157425014523335127e-02 8.426178499264255217e-01 -5.375855519944096050e-01
-2.908230521509742525e-02 4.008227860186756170e-02 -6.429903120711902842e-01 5.724250872853116068e-01 -5.090377020369981631e-01 6.428142323807833902e-01
5.936741703877079085e-02 4.105024982329399767e-03 -7.283489441965530498e-01 -5.225428073972251397e-01 8.478448310077014716e-01 9.004530510220000450e-02
5.776219383768677745e-02 7.067167619316629124e-02 -5.400998173608884123e-01 1.235548189916862993e-02 -9.848699115554070405e-01 1.728542720903476215e-01
-3.324670511089220654e-02 -1.182253615116348050e-01 -8.933291452582424741e-01 1.893926260390490016e-02 7.450008353123455107e-01 -6.667946158420353653e-01
-6.934823912585934280e-02 -3.766912867168108886e-02 -8.015209168272648954e-01 2.278534391109896320e-02 -8.375635796679666845e-01 5.458645235922869876e-01
9.915174702274472118e-02 -1.362748982065158446e-02 -7.615176213817771433e-01 2.287429675263351891e-01 7.033409517799896760e-01 -6.730439512813884972e-01
-9.119506814132755101e-02 -2.835268346498829445e-02 -7.854858741800454514e-01 4.801835192216727388e-02 -8.463500093838789429e-01 5.304581976881751482e-01
-4.448307220608815893e-02 3.846409637686958038e-02 -6.482308054102230432e-01 -1.535705123389174698e-01 -9.711838055439039330e-01 1.822583704229326640e-01
3.613051990838424266e-02 7.540049661010940485e-02 -4.205171663980822871e-01 -4.068035109344893957e-02 1.301497270213933799e-01 -9.906594559136708833e-01
8.568323854409537477e-02 3.291635935530901752e-02 -6.784684995635595905e-01 4.795980358200849225e-02 -9.361043240215541905e-01 3.484372996516362231e-01
-4.665413152359229815e-04 6.833051847805091117e-02 -4.922013194579693551e-01 9.780778811415653529e-01 1.997316566206498167e-01 -5.891454629543237814e-02
2.961101946316539377e-02 4.910638431248982860e-02 -6.265733799005064331e-01 1.528111247065614374e-02 -9.508664698971310836e-01 3.092239383149814058e-01
2.089039864565277183e-02 -1.056478255048236836e-01 -8.941018973862457919e-01 8.194173493592228630e-02 -7.521540981432289774e-01 6.538728964577421587e-01
-9.630267306548119521e-02 -5.239133757809162628e-03 -7.292979951110978298e-01 5.781390306102005688e-02 9.177418670023796965e-01 -3.929470933393419685e-01
-1.837027334285210381e-02 -1.694561673137725752e-02 -7.704237077432978253e-01 1.783810254733187162e-01 -7.890370721308241908e-01 5.878781409053270846e-01
-6.447494721183026634e-02 6.757356727656853301e-02 -5.154756939736016008e-01 9.779761359605021465e-01 -5.875024104167587968e-02 -2.002775241241779858e-01
2.632292719835021763e-02 1.855232476895833649e-02 -6.880430216920524478e-01 -5.283669607286403669e-02 9.264530687676543197e-01 -3.726835050268522131e-01
2.416615286403310872e-02 -2.336205124933528332e-02 -7.851602755977602488e-01 1.769242952580736550e-01 -8.904648007033010293e-01 4.192496063872501733e-01
-9.588338595167925082e-02 3.635781635140846596e-02 -6.513697569185085134e-01 6.299869050882655336e-03 -9.476346356583912334e-01 3.192943922942110824e-01
-1.053293471058854291e-01 -1.531020493468810729e-02 -7.626855140768632468e-01 -1.058390603855456635e-02 -8.821818163968059290e-01 4.707899996301951329e-01
5.602552751211311265e-03 -2.021724487223140049e-02 -7.779506257115872403e-01 -1.211686433027183568e-01 -7.811382436818801178e-01 6.124877175403328211e-01
6.017328498392138930e-03 2.816151313397404279e-02 -6.561130824103037495e-01 -6.454869020662934442e-01 7.394571297969089185e-01 -1.911800524463174167e-01
6.363562399035264938e-02 1.760428888567493536e-02 -6.939151037562607538e-01 -1.298922585708998240e-02 9.060787156669115605e-01 -4.229097315350325847e-01
-6.843321959276710276e-02 4.117366359536171055e-02 -6.403773041839692093e-01 3.650435679069368583e-02 -9.438074367067895709e-01 3.284736737582740762e-01
3.015668165699434897e-02 2.362973586452466260e-02 -6.760333493348957834e-01 -1.932473522432516522e-02 9.245408191127346686e-01 -3.805927329874587151e-01
-5.410291559613711332e-02 5.932123636699377506e-02 -5.789459881343864689e-01 7.214517020467656368e-03 -9.769463317539215375e-01 2.133631074406201755e-01
-1.010044021513427370e-02 2.246561788110872093e-02 -6.946593424476540379e-01 1.733102937227177717e-02 -9.266487086658563577e-01 3.755287021637604417e-01
-5.452125257457570567e-02 -2.093845874685665645e-02 -7.759634352991348072e-01 5.928899844159332688e-02 -8.421320029624328463e-01 5.360023360492690570e-01
4.474222258665860180e-02 -4.754988759957049643e-02 -8.121734616879489055e-01 1.179710137775423356e-01 7.272792206152183248e-01 -6.761270407028691087e-01
9.643133725880911888e-02 4.910692363064374233e-02 -6.312981040610110561e-01 -6.070424777698523594e-02 -9.273425023911318066e-01 3.692571970331572917e-01
-3.104654418536321667e-02 1.614773984114765927e-04 -7.239841534953046498e-01 -1.937956940275123718e-01 8.118185662644671341e-01 -5.508119864751489514e-01
7.138399798534908469e-02 -1.360672071472830008e-02 -7.705780063111340450e-01 -4.196736552553608224e-01 -4.822774737728087735e-01 7.689489328791102585e-01
-2.399340086896558765e-03 3.918718657034101632e-02 -6.328888919117974243e-01 -2.053966463484087623e-01 8.852802411318115849e-01 -4.172422705460562820e-01
-6.384783493660380581e-03 3.077406529559133588e-02 -6.633014541216060156e-01 9.771547270389374651e-01 1.835661641827096568e-01 -1.071079025688873726e-01
-7.094594036165510764e-02 6.275388819320612543e-02 -5.613640427449074766e-01 5.101594269076784038e-02 -9.772046549069757226e-01 2.060787131644380155e-01
-4.149875716697162473e-04 -2.435667063809745514e-01 -1.006970684546295569e+00 -9.750407251043289314e-01 -1.158014177859310323e-01 1.894349915585634148e-01
2.425738479560479721e-02 -1.444098576148417816e-03 -7.314541185148987212e-01 -2.011945375705048375e-02 8.857004746882196633e-01 -4.638209532972613625e-01
7.960975895964270133e-02 3.985537742235962383e-02 -6.541540202520672587e-01 -3.730822354803082774e-01 -6.547016133935709137e-01 6.574005194619723103e-01
4.251609749033063816e-03 -8.231060885236804112e-03 -7.547949094433092920e-01 -9.765059421750870161e-01 -1.751707361859026757e-01 1.255044145870358729e-01
6.027832855874761669e-02 -7.172080004837858014e-02 -8.571389762628807141e-01 8.520525876026853462e-02 -7.983903975406023701e-01 5.960812335534099171e-01
1.149834242670171452e-01 2.539280979720822187e-02 -6.910937599822083444e-01 6.912925103186360332e-01 -4.858934305208134075e-01 -5.348104704977961754e-01
2.739834637905096820e-03 3.785532822860258884e-02 -6.370621263804991941e-01 1.342072871351324692e-01 8.926951747757579936e-01 -4.302135853409408961e-01
-6.145927673858239855e-03 -7.387787735209577766e-02 -8.596405957013907306e-01 1.225088242741526612e-01 -7.757573104749129200e-01 6.190251878717811795e-01
-2.217430048898932221e-02 2.769773531882139053e-02 -6.809455858629593905e-01 1.373744367503904051e-02 -9.345142816666318630e-01 3.556604279398734025e-01
6.552289350738355056e-02 -7.878737057946583189e-02 -8.571985151998250396e-01 -8.629028828380282956e-01 4.304453676090736480e-01 2.647931273536178187e-01
6.250906851438221834e-02 7.240068820780917735e-02 -4.815898442172911742e-01 -4.939577045451626902e-01 8.688443792641965535e-01 -3.339507061658382459e-02
5.551577043629105090e-02 -7.988200076882123746e-02 -8.550724733432673030e-01 -4.621759751614130246e-02 7.691199082111441765e-01 -6.374311731262574110e-01
-1.110805577131931815e-01 5.587122076867086402e-03 -7.206895264235120280e-01 1.787443937083045831e-01 -8.467208000812631585e-01 5.011130894594513219e-01
-1.371454207477103282e-02 -1.338745851795662689e-01 -9.204440369641435638e-01 2.051447274777855601e-01 -5.845818634317837548e-01 7.849711368800055267e-01
-7.558322955689348427e-05 -2.355852539632163622e-01 -1.000051474711501243e+00 -9.749921601849752539e-01 -1.204843707347840048e-01 1.867452917384506139e-01
-1.062805511479866377e-01 5.201673982947856850e-02 -5.900004486129186709e-01 9.735320492203611842e-01 -1.980238108665961227e-01 -1.141136252630463310e-01
7.182753419856181820e-02 -1.000298623080714787e-02 -7.514856306955232101e-01 -5.074781153588631133e-02 8.780347985449166170e-01 -4.758986784689633875e-01
5.447554118441119003e-02 6.898335512230761857e-02 -5.486235778975243615e-01 1.886878299832122491e-02 -9.814761646427575537e-01 1.906528448943383691e-01
7.624325222145660313e-04 -6.273739839000733176e-02 -8.436944565711791411e-01 -5.807224743897972941e-01 -6.491619452634584952e-01 4.912740340791009741e-01
-7.807861967441286077e-02 -2.750981514124924143e-02 -7.832653904355182384e-01 -2.283185814306585848e-01 -9.110388411225374128e-01 3.433349025945306443e-01
9.977044120633639813e-04 -1.043835022668225532e-01 -8.902308176647879545e-01 -9.759594003805397433e-01 -1.503052082192556371e-01 1.578340685372578434e-01
-1.305922440537147199e-02 4.937202085103363502e-02 -5.974041829050800168e-01 7.463260250372982796e-02 9.827369522273877722e-01 -1.692869084434623639e-01
1.106885481571957645e-02 6.867582612270396736e-02 -4.366484455489494931e-01 -9.204805867647244955e-02 9.957227046920030800e-01 -7.965566818183264508e-03
2.386104314803817392e-02 -1.004756129872073495e-01 -8.781598628949731644e-01 1.118128051191054351e-01 6.472468637060746488e-01 -7.540354063530750883e-01
5.927416192933931960e-02 6.320506850884013983e-02 -5.397463431932929545e-01 -3.972848118104740922e-02 9.880072872724656730e-01 -1.492087399569827499e-01
-3.360357061068814516e-02 -2.063268537272349920e-03 -7.439861250970659645e-01 5.641789475478534155e-02 -8.754354114380946683e-01 4.800311047751509297e-01
-5.060303652513131571e-03 -4.723163699160291135e-02 -8.072915739828495640e-01 -2.181844206332299030e-01 7.359170551408340533e-01 -6.409537007817210919e-01
2.512664652308113644e-02 5.810253008061795621e-03 -7.333534363187457217e-01 5.732483405679711375e-02 -8.983103819607931584e-01 4.356056944781768747e-01
-9.520782485331849565e-02 1.818591785595177063e-02 -6.798198196552124317e-01 6.379485439373151767e-02 9.481712383009521794e-01 -3.112900888427408974e-01
7.094563394244181309e-02 1.337404609336032696e-02 -7.041997618983401042e-01 -1.359098428268532277e-01 9.379970505254613400e-01 -3.188887703076344615e-01
9.672031149859530372e-03 9.028261462035622534e-03 -7.085394688280411968e-01 -4.813898451145503382e-02 9.081963831961599176e-01 -4.157667227179440705e-01
8.470286480626995282e-03 -4.508431942808909659e-02 -8.179699512845217679e-01 2.688783784759784037e-02 -8.164499208934653529e-01 5.767898844890880783e-01
3.775335921071387561e-04 -1.793897198124046466e-01 -9.583711240625345518e-01 -9.753534553918115080e-01 -1.363028990062735424e-01 1.735141399936592776e-01
-7.265581738633448972e-02 5.155916959473881567e-02 -5.950179368001659030e-01 6.766474049500861287e-01 -5.297329989671774042e-01 5.114012506628770049e-01
1.460969563238645181e-04 6.057615693342859736e-02 -5.845547991609818528e-01 1.141310980277794596e-01 -9.562526575032341825e-01 2.693602559416954367e-01
2.965082788399858033e-02 5.847218509873280262e-02 -5.598763620045412726e-01 -1.376001253979921082e-02 9.763321513516463046e-01 -2.158383475936807572e-01
9.576170848653335621e-02 -2.000703498483718396e-02 -7.855683289734021191e-01 2.081852483284873587e-02 -8.457692416912780953e-01 5.331425501990478821e-01
-9.561438703525616464e-03 -3.493132330272367275e-02 -8.012780662154960210e-01 9.898862526653988692e-01 -1.270278844191368162e-01 6.315950731325233047e-02
-5.095319572854965784e-02 2.642642502373508326e-02 -6.615592343587980428e-01 -1.081486744242848679e-02 9.357806616137482880e-01 -3.524167873299143272e-01
-8.723578927400980898e-02 -1.259571789317306262e-02 -7.548010307436712196e-01 5.106893650570482057e-01 -4.552072526511328210e-01 7.293714619804073651e-01
-1.586527964641792215e-02 2.411111376601507081e-02 -6.903328895586681169e-01 1.733102937227177717e-02 -9.266487086658563577e-01 3.755287021637604417e-01
-8.032248921132305319e-02 5.266188496342516512e-02 -5.776951647444302784e-01 8.499002310371760460e-01 5.035313541995058984e-01 1.553247328050699760e-01
5.264275785019191523e-02 -6.176670132187549178e-02 -8.328536272058649770e-01 -1.542673325617228697e-01 8.517358198028024407e-01 -5.007471251731144823e-01
4.381707152825262824e-02 6.207528749382794364e-02 -5.434607782947838972e-01 -1.001914077976687710e-02 9.813425326575687668e-01 -1.920063811837090240e-01
