6.987656980257517247e-02 1.915459544871530029e-01 -7.294450036510797819e-01 1.878230800325014493e-01 -4.295795421673942460e-01 -8.832801976487169027e-01
4.692270469908818575e-02 -1.024308287451286409e-01 -6.621276354386325114e-01 6.725818899934804529e-01 -6.798941180772570814e-01 -2.921944377580564800e-01
4.703595999258718824e-02 1.437349770548393690e-01 -7.190422413341631680e-01 3.558954629107237144e-01 -4.109960983074273932e-01 8.392976984691625786e-01
6.564510635147115247e-02 2.864484322342897848e-01 -7.916190794910745732e-01 9.320816171403251138e-01 -3.164918798282946311e-01 1.762292512377802156e-01
-5.359907248600927730e-03 5.012878232926001182e-02 -7.026121081312811656e-01 -7.969678627399562343e-02 3.235609537533035707e-01 9.428450198541908911e-01
-1.729903036926179125e-02 -1.448659272651209862e-01 -6.805372527492391521e-01 -2.858833464988588258e-01 5.947784589297681057e-01 -7.513383372274727856e-01
-6.652203801860462340e-02 -8.276402763128463957e-02 -6.934101477154199777e-01 3.084584968700913588e-01 -2.400664667028263102e-02 -9.509348224901073010e-01
-4.671811962292700404e-02 -2.522075383802344639e-01 -7.015421794460678928e-01 3.448379824473291055e-01 2.170439395500384228e-01 -9.132243394512953305e-01
-1.152683124872240644e-01 2.747008644675666064e-02 -7.266486072864548618e-01 4.546097476271673821e-01 1.344575593228012622e-01 8.804834706587729709e-01
-3.829274904411012620e-02 -1.827563596509381993e-01 -6.851002704546697020e-01 3.802080942503067162e-01 7.249778549412604078e-02 -9.220552457228348153e-01
7.468345933828247907e-02 1.261479977918270740e-02 -6.646454477822831830e-01 2.730390522898449857e-01 -2.141123060486326279e-01 -9.378729105391624410e-01
8.783494885308872069e-02 1.860918098369611084e-01 -7.265869088478362769e-01 -1.972663562323962172e-01 4.442525684034662192e-02 -9.793428313177477973e-01
3.764332606524211505e-02 2.362317399526426068e-02 -6.851514775907356913e-01 -2.645982938187079192e-01 2.247449344738997323e-01 9.378045944313512239e-01
1.345486960356589816e-02 1.714240423907459066e-01 -7.354600636604707864e-01 7.426610445145851447e-01 -5.422271728879672322e-04 -6.696672897418526338e-01
-4.926276107558134193e-02 4.053046295005709176e-02 -7.050602444556438586e-01 3.891907842967054498e-01 -1.315081899204197102e-01 -9.117215196551905487e-01
-1.105936625243365556e-01 -9.749390205178815050e-02 -7.090085768733715987e-01 8.680140137300973446e-01 3.162220369015122934e-01 -3.828254110505535102e-01
-1.986126859650964860e-02 -9.525857069421335421e-03 -6.942642540789913941e-01 -1.008244672253972990e-01 2.297284767893473245e-01 9.680182094158978900e-01
8.833315233526477239e-02 6.778201968156140345e-02 -6.833393184149879618e-01 -2.448275729791555277e-01 2.823508886299029852e-01 9.275437645734244674e-01
-6.982442391530011006e-02 -4.084877020005370923e-02 -7.042831599975908352e-01 -4.695479510753274854e-01 -4.210136272448160299e-02 8.819026005731605000e-01
-5.964934003730473777e-02 6.802216196724625297e-02 -7.215730812976688391e-01 -1.276534312024252826e-01 3.241508494765397153e-01 9.373530969095292820e-01
9.728523996708852983e-02 6.906002555895995876e-02 -6.813106933381734009e-01 -2.400169423327630502e-01 3.044355101348391046e-01 9.217976391606627073e-01
8.949781679418011837e-03 -8.725758816253298411e-02 -6.710438193097368886e-01 4.140573125733393312e-01 -2.124002514116037910e-01 -8.851229717416848608e-01
-9.949109654308445350e-04 1.594878714984970802e-01 -7.389528212196619927e-01 -2.230022003929165442e-01 3.827674804359204597e-01 8.965261148124212820e-01
9.988199193982062740e-02 1.367336563060846943e-01 -7.024299221405425619e-01 4.375755959776455595e-01 -5.691933746183616138e-01 6.960937437553723628e-01
-4.038653266832251121e-02 -1.626277963135327742e-01 -6.925492574314799921e-01 -8.177108552673177932e-01 -4.536803173384946208e-01 3.542924312451999902e-01
-3.623066681601274514e-02 -4.216539662974985031e-02 -6.871874040537289119e-01 2.628635065399941850e-01 -1.057072114047605815e-01 -9.590249018594501074e-01
7.648667575200893132e-02 6.155966871542470353e-02 -6.844818716183762586e-01 -2.265833202901176568e-01 2.557656724748367805e-01 9.398105765258233379e-01
-5.278166050206897081e-02 -1.456625218083902329e-01 -6.964852126520887365e-01 -4.574797740352020137e-01 -1.569889866459235062e-01 8.752523718451649115e-01
1.471757398100497459e-02 1.820757965304653225e-01 -7.378327764214830387e-01 3.368258330538699274e-01 -3.544404327527130305e-01 -8.723074789417066821e-01
-5.101530825124326457e-02 8.221615496548466406e-02 -7.155151952667019311e-01 2.215187760820086227e-01 -2.843106876652670145e-01 -9.327898288051985620e-01
-9.460754153971379088e-02 -2.405017995240677289e-02 -7.138288055481385452e-01 -2.593797611316995266e-01 1.141208089057190733e-01 9.590091660093593706e-01
-9.538271476356786557e-03 -1.248132348683564236e-01 -6.754731052676273828e-01 2.731027723268693586e-01 3.046759469225564926e-02 -9.615022628267948512e-01
-3.127293497817899143e-02 -2.421399513863611852e-01 -6.942938308667190306e-01 3.655461590504372471e-01 1.493361426940263692e-01 -9.187353928573459561e-01
2.117091037864411024e-02 1.736123099593664953e-01 -7.320087642001921191e-01 3.858598441536444934e-01 -3.143235573908246261e-01 -8.673597188819077708e-01
-5.855104816977410587e-02 8.859111979182505980e-02 -7.273532265191872126e-01 -2.674723198211731434e-01 2.609483651418297856e-01 9.275583587350644255e-01
-9.801746693074286920e-02 -1.496584399614360071e-03 -7.178440204706185712e-01 -2.855304049429794322e-01 1.385925581959365493e-01 9.482955713625388361e-01
-4.194572696544270757e-02 -1.980911055710243007e-01 -6.962989193614541605e-01 8.770052638248549970e-01 -1.718980531010858293e-01 4.486789794090568217e-01
-1.446898388296720579e-02 1.977880852008509494e-01 -7.555064196816256850e-01 -7.681061521662784219e-01 -5.968774083201684455e-01 -2.318411060215872788e-01
5.643489472551672936e-02 2.387313905060997610e-01 -7.711701084059719991e-01 -9.878494077477399660e-02 5.277167005075492634e-01 8.436566952745353509e-01
1.868622524294737478e-02 1.222301965500073445e-01 -7.100356925739527147e-01 3.106670317053402131e-01 -3.141247845799463589e-01 -8.971129333166451003e-01
4.039339206205410683e-03 2.084582815650458110e-01 -7.530225137394785939e-01 3.067745138908540836e-01 -3.940314897114927106e-01 -8.663882401918738818e-01
5.312293957043844744e-02 2.072353679838152551e-01 -7.546728147342872672e-01 -7.482158125592694997e-01 4.428494957101713481e-01 4.940216816957725410e-01
-4.303811542925723571e-02 -3.255005365838506970e-01 -7.191161146254989589e-01 -3.296011569643432781e-01 3.353699959232890881e-01 -8.825474736025135103e-01
5.554577147054618608e-02 -6.137333510081174198e-02 -6.665234935745059097e-01 -2.904821496290578287e-01 9.219044655009282774e-02 9.524290221910376442e-01
1.281817368011119000e-02 -1.930179558076025037e-01 -6.724493627555681030e-01 3.115714831354506331e-01 1.079766527256595526e-01 -9.440679283626458584e-01
-2.373753055022370315e-02 2.585913100407095586e-02 -7.021898885760633480e-01 -2.724436801006511200e-01 1.969347844325945729e-01 9.418020661761692391e-01
-6.255463408856880292e-02 -5.486522793915989821e-02 -7.010482350817864861e-01 -4.965018515368599950e-01 -5.567620345130162157e-02 8.662482737585798231e-01
-1.697618994853188415e-02 -1.072027432817331261e-01 -6.851048874633615116e-01 -9.808318072709204527e-01 1.553355439529194026e-01 -1.176428265153080382e-01
-6.617184449207626738e-03 -1.749346446773551722e-02 -6.933935771080529387e-01 -3.213779151306247472e-01 1.896596875192686771e-01 9.277636760492330437e-01
3.473355709035699096e-02 -1.334502165475897062e-01 -6.619430195656538229e-01 2.748143709298559445e-01 2.191078863674736366e-02 -9.612476157950889943e-01
4.465990656937598481e-03 -4.845148042028520063e-02 -6.748004158327793878e-01 2.866059732779293046e-01 -1.095385097334485858e-01 -9.517659013469572660e-01
-1.023866759217385569e-01 -1.451356991066993229e-01 -7.051694646376134301e-01 3.120081334027413611e-01 6.364020572432188549e-02 -9.479455938533092318e-01
-1.013548648150563170e-01 -9.663163436042569721e-02 -7.035813577719562950e-01 2.934016335648545470e-01 -8.033754904288622004e-03 -9.559555116236386763e-01
-3.194132496458752715e-03 1.468071176359167507e-01 -7.258430442955529083e-01 2.374860198073522333e-01 -3.669019639403812705e-01 -8.994350111335186471e-01
-3.103717752534696644e-02 -1.942617315285657953e-01 -6.981023772916321590e-01 -3.869443651732107914e-01 -1.089610915174413913e-01 9.156426916630900914e-01
7.157131296153831229e-03 3.158223439202463567e-02 -6.899473200842232146e-01 -8.832534374215174067e-01 1.177318852432107377e-01 -4.538750582265488331e-01
4.065786060355069953e-03 7.167816922198806673e-02 -7.056119980691265559e-01 -4.241889120987223372e-01 1.648396661621757964e-01 8.904446368596112826e-01
-3.615747642445197446e-02 -7.254513687356752005e-02 -6.901476402875628136e-01 4.373868297396942273e-01 4.235905032095932943e-01 7.932615248207259828e-01
-9.888282808504185450e-02 -6.617849993900951078e-02 -7.093592392837909655e-01 -8.666839673992059456e-01 -4.755454176630061758e-01 1.507164768460612370e-01
-5.250130637255125132e-02 -1.774467821445572802e-01 -6.996948890103001917e-01 -2.950575083877011728e-01 -9.312747830872225574e-02 9.509302495598193072e-01
6.560181982467401529e-02 2.641057731601370584e-01 -7.859807163308705213e-01 -8.463632078611332821e-02 5.257331321197799001e-01 8.464285953317715050e-01
-3.934546223307353041e-02 7.427536633177932168e-02 -7.146761285270939457e-01 -8.560379576006499347e-01 -3.003492888624610946e-01 4.207009862440566628e-01
6.227904849281910848e-02 1.100570600124131243e-01 -7.007566623505404602e-01 3.780847041420921095e-01 -5.034820970446561850e-01 7.768897826907638082e-01
-1.332582953569827824e-02 -3.552925830035066901e-02 -6.859320741637894292e-01 4.750039815034430846e-01 4.685517407155856406e-01 7.448694407936676809e-01
-9.267846669997013842e-02 4.020291115220482603e-02 -7.233930772226007111e-01 -1.498901832744117535e-01 2.514223652242705831e-01 9.562006730927335996e-01
-8.085406729572036655e-02 -1.267459078965513519e-01 -7.053469280252477880e-01 -2.777678696985828588e-01 -2.037119342898934676e-02 9.604322074156977918e-01
6.313697038415316820e-02 -1.202200852876347953e-01 -6.601941593051043888e-01 -4.726918534455228360e-01 1.923520967363743783e-01 8.599785361085222624e-01
8.085398947030283945e-02 2.444099923597242707e-01 -7.569036149416032977e-01 1.569945813269498780e-01 -5.033382011681847290e-01 -8.497078066481158487e-01
8.806293656491834265e-02 1.616665620187027197e-01 -7.193038842159746871e-01 -1.984615237038614144e-01 4.016608927744461099e-01 8.940254754898075973e-01
-1.565954261344362775e-02 1.557058257346166097e-01 -7.407340448071968453e-01 -1.071912392878240639e-01 4.372645143045599259e-01 8.929220474094800020e-01
-4.488469871862099669e-02 -2.846239526302983547e-02 -6.911968001512066584e-01 2.875894303344745384e-01 -1.129668405520575930e-01 -9.510682480745419332e-01
1.050596690297436742e-01 6.235865263483722498e-02 -6.762675795125366873e-01 -2.969946301383615817e-01 3.732932624671553290e-01 8.788892591593125969e-01
-1.991549695456307570e-02 1.983895744226757685e-01 -7.530229529913489150e-01 1.808200246035405745e-01 -4.451453420214347978e-01 -8.770118261340577037e-01
-2.647760834924308901e-02 3.767783964732972918e-02 -7.054538777184312659e-01 -2.724436801006511200e-01 1.969347844325945729e-01 9.418020661761692391e-01
1.360779868578813542e-02 -8.104355694020042022e-02 -6.703695436017245157e-01 4.096370456909612656e-01 -2.109866466360865722e-01 -8.875145777613122622e-01
5.105442900027770681e-02 -1.080251623972794811e-01 -6.648936253766658533e-01 -2.665177377677569459e-01 1.449391887630382958e-02 9.637210290176116967e-01
5.975550453479541030e-02 2.701002320789925304e-01 -7.814169369259235109e-01 9.587514754374457659e-01 -2.461448918393777940e-01 1.421559023322714332e-01
-4.041982990311231150e-02 -3.003909074065105878e-01 -7.233817523969137131e-01 -3.900325645242562200e-01 -2.635469421539785584e-01 8.822797786937651709e-01
6.273947347680644548e-02 -1.151407353169347225e-01 -6.609878591316982188e-01 -3.871944916866004727e-01 1.203878823869458797e-01 9.141045801121127079e-01
-2.921204429458810342e-02 5.696019963930399471e-02 -7.068520278053916917e-01 -5.912199479572963767e-01 -5.737406635048030168e-01 -5.668162172860268244e-01
2.886980172768473935e-02 2.336218905439271104e-02 -6.794713198571358248e-01 2.660692398361727551e-01 -2.220896358934193460e-01 -9.380209769731856495e-01
-1.039422273605007316e-02 -1.768480928609499625e-01 -6.861741617115522107e-01 -3.164030692403599909e-01 -6.011246530351058853e-02 9.467183262673298794e-01
-2.913342466232377373e-02 -1.921198901288815875e-01 -6.889676345740276542e-01 -8.752144774859985654e-01 1.722638267957289637e-01 -4.520229998314265751e-01
-1.425422886427492146e-03 1.528237607029213352e-01 -7.362462460641144846e-01 -2.344446643015801746e-01 3.608898176343210418e-01 9.026595365409850746e-01
3.038336787726352364e-02 -1.763626019565530390e-01 -6.727892331626701417e-01 -4.428060011841582905e-02 -3.256565633453569752e-01 9.444506504859024876e-01
-8.701014417241437551e-03 -7.388281795412542270e-03 -6.918872403747835520e-01 -2.487692708097153926e-01 1.517884988722276451e-01 9.565950561815161901e-01
-5.794387945528001183e-02 1.074134911063920894e-01 -7.287230689315699061e-01 -6.999064230670205555e-01 -5.932282582194785547e-01 -3.977577561775668680e-01
9.807977955653197910e-02 1.582826308790364067e-01 -7.150951433215806397e-01 -2.850299411368873437e-01 4.793656731849951780e-01 8.300400496526649796e-01
1.000053679524677414e-01 2.246254340504128255e-01 -7.410203005141664523e-01 1.533261026460571996e-01 -5.139898673502412141e-01 -8.439819444210000521e-01
7.670617979718735713e-02 1.755917839128787877e-02 -6.652253492451293271e-01 2.740445262291473227e-01 -2.324781808683041018e-01 -9.331953134601598254e-01
6.242508176336006298e-02 6.333983690222423635e-02 -6.845585751427526455e-01 5.922672443071351767e-01 -7.627966131318156817e-01 -2.595396661696696139e-01
1.082626060190163518e-02 9.589229173931522465e-02 -7.048965855428125371e-01 3.594654266974606771e-01 -2.188080700734113815e-01 -9.071425662375024457e-01
9.891071352983180076e-02 4.097589203128766677e-02 -6.654717169088897322e-01 4.433881741033791068e-01 -4.875427299533289793e-01 -7.521362998386176280e-01
-1.089650503597359293e-01 -2.548978891651123777e-02 -7.119750404689596524e-01 7.620965000213645313e-01 2.484848932338060978e-01 -5.978830842980676907e-01
3.166783323704903952e-02 2.361407331245702068e-01 -7.702614672228478288e-01 -5.712316181533545062e-02 5.523101919051368602e-01 8.316792628783826746e-01
-7.064766515724887896e-02 -2.211879355947391768e-01 -7.038039879430183499e-01 3.133917470521478954e-01 1.604741386029328587e-01 -9.359667001123753716e-01
-8.723000846245705653e-02 1.124695291241638584e-01 -7.381906402618796381e-01 8.515921967437790618e-01 3.927065991760490989e-03 5.241901454604058763e-01
7.395807388203011479e-02 1.866171734089773493e-02 -6.663070302376599141e-01 2.740445262291473227e-01 -2.324781808683041018e-01 -9.331953134601598254e-01
-1.137269874279796394e-01 -7.626891799358838375e-02 -7.150961460289769756e-01 -4.250170587590235832e-02 1.229327389420109551e-01 9.915044864718736140e-01
-2.935554609290589451e-02 1.751362453003081354e-01 -7.516288092835506918e-01 5.088602165529609866e-02 4.304253259648070373e-01 9.011906854646168918e-01
-4.090041067834685601e-02 -2.717926335622559142e-01 -7.115492917236688752e-01 -4.503089654915451989e-01 -8.355905372883003224e-02 8.889542846164120160e-01
7.854159242511429828e-02 1.556572333546831222e-01 -7.102293290477378340e-01 2.040007739472473602e-01 -3.803982768090555799e-01 -9.020425905851814363e-01
-4.581276513073227752e-02 -2.429405075604483544e-01 -6.968117902178017076e-01 8.311668218822344523e-01 6.163849919027049318e-02 -5.525960637027350630e-01
-5.055225547851168073e-03 7.773677538159456946e-02 -7.102915990557342463e-01 -2.536018684757467834e-01 2.652893520457082488e-01 9.302191419212885171e-01
-5.519586997954889496e-02 -4.171931765714266271e-01 -7.623475944149480377e-01 8.436915018338257966e-01 2.583878241404686804e-01 -4.705532722969185122e-01
-5.630305221160793877e-02 1.415701310943542901e-01 -7.432641675205917675e-01 1.584910627463566868e-01 3.501389780660481565e-01 9.231918972068557938e-01
6.385479202854152381e-02 8.504384996577225853e-02 -6.875363504559129924e-01 1.516362657576014461e-01 -2.017587653103727896e-01 -9.676258799388965937e-01
-8.842555362550859333e-02 1.572236887650847043e-02 -7.130488687188810681e-01 6.938639906906975963e-01 1.813313399958350058e-01 -6.969015049188046484e-01
-1.215240617128652244e-02 -1.385079165199586959e-01 -6.777386753979870448e-01 1.711558624405151163e-01 1.601676322933048568e-01 -9.721378504707036683e-01
-6.724840695932732260e-02 -1.750626410288594059e-01 -7.002914810004253754e-01 8.047636004866874915e-01 4.556498108389226420e-01 -3.804455246341550412e-01
6.764728571851758021e-02 2.023085879167371426e-01 -7.429814239270997600e-01 -5.024668615639892033e-02 2.828164836684231576e-01 9.578570389654861295e-01
4.775812172697892904e-02 7.276301707072568847e-02 -6.950004023074755066e-01 -3.281442551194897472e-01 3.867556055092555289e-01 8.618244887674313404e-01
9.584790833682574340e-02 1.725773303542717796e-01 -7.225799959272004580e-01 -1.661422140559514482e-01 3.993148982094100741e-01 9.016342810566791988e-01
-3.194862722656363705e-03 -1.064841649668959445e-01 -6.813524610190508923e-01 -2.781066931550362220e-01 -6.098129205462203550e-03 9.605308324268221343e-01
3.205957972262604705e-02 7.957304518802602034e-02 -6.932241692543106293e-01 2.454961688223265270e-01 -2.883478138363285148e-01 -9.255199454087251754e-01
1.034293253703533755e-01 6.960884630596532452e-02 -6.798808272321985591e-01 -2.432061017963983440e-01 3.055398720163282622e-01 9.205955565052688083e-01
3.665711662299893370e-02 -6.493443207809285189e-02 -6.713138762049249975e-01 -1.245382804420483019e-01 -9.777523136958142513e-02 9.873855482207355427e-01
1.009237188528042950e-01 8.717352257631240386e-02 -6.782759496967303292e-01 2.245747691004430224e-01 -3.051317710922827886e-01 -9.254516601927781361e-01
1.038118985581974602e-01 2.167454132198700367e-01 -7.391977120378060429e-01 -9.516216428773975888e-01 -6.168457881257175673e-02 -3.010170452715903444e-01
3.163559247271544028e-02 -1.779810265313621354e-01 -6.728380982049525505e-01 -2.518059991417433419e-01 -1.269048181346121018e-01 9.594211306462087085e-01
2.780250488620991493e-04 -2.580926745135347922e-02 -6.839891516535649973e-01 -6.389051598837210966e-01 6.576976849478810561e-01 3.990412909564052812e-01
3.947271085291596815e-02 -1.367231147398746127e-01 -6.681671102019410835e-01 -3.805131512483438949e-01 9.870803338841634134e-02 9.194925045217315906e-01
3.137502951115040545e-02 2.317014909832831593e-01 -7.673476478973119130e-01 -4.357247211569161699e-02 5.486229360709017344e-01 8.349337181421472298e-01
-1.131804628604892032e-01 -6.065159553130307357e-02 -7.160858315804135010e-01 -2.680632858607438496e-01 6.738313570971186939e-02 9.610419282192985690e-01
6.009431857260537357e-02 2.680522454224966156e-01 -7.764360068151593408e-01 3.216836758088567061e-01 -4.428971958327638236e-01 -8.368761477312975927e-01
7.170514906431901814e-02 1.981845370874279338e-02 -6.729481796002523275e-01 4.034331348074108869e-01 -5.861926750391119878e-01 7.025808519095546600e-01
9.287824330102325762e-03 -1.837176718490848154e-02 -6.818461034666460918e-01 -6.375563351012796254e-01 6.581892147479767585e-01 4.003859102936397907e-01
-2.249740213256914978e-02 -2.214332061710910966e-03 -6.963827722416862098e-01 -1.050976770936419558e-01 2.525726187006469003e-01 9.618531855497585159e-01
1.920250756654802438e-02 1.706562920099030101e-01 -7.385109992644157684e-01 -7.302271224609237221e-02 4.726163737787977825e-01 8.782376937551724660e-01
-1.396123030938881647e-03 -1.988591107179569217e-01 -6.824272781089986140e-01 3.477023921713401355e-01 -6.884868609490548685e-01 6.364659368566742970e-01
-9.094992018264585684e-03 -3.177754739481699481e-02 -6.821199289919852582e-01 -3.212261553273849102e-01 5.100867665519545069e-01 -7.978879919651370445e-01
-7.361106850043130359e-04 2.047046530476053297e-02 -6.848073359737982813e-01 1.770442052101315333e-01 -1.651357154316868692e-01 -9.702502485907321672e-01
1.097297129882227572e-02 4.056251733277314864e-02 -6.957370719706003070e-01 -3.594757235829160735e-01 3.512063942230962965e-01 8.645410764164707107e-01
5.516880753297982026e-02 9.989630793844807288e-02 -6.940494603306116561e-01 2.514844881737616222e-01 -3.433950768215242033e-01 -9.048952278704537333e-01
5.249381569340798304e-02 1.435006202207851078e-01 -7.190229383920003770e-01 -7.365744162732415501e-02 1.893407823150826674e-01 9.791448562113931331e-01
-7.421390586539246270e-02 -2.892907190461879025e-02 -7.025438195532792696e-01 -5.942567592022124368e-01 -5.130222502409941265e-01 -6.194086493585237996e-01
-1.059939863543893877e-02 -5.317958760778179056e-02 -6.791479891219170950e-01 4.135411999051322174e-01 -2.380650027877976027e-01 -8.788109753688044812e-01
4.320836344346958013e-02 1.617426663008787735e-01 -7.221536976414085762e-01 1.413210860565550786e-01 -3.057781408762387243e-01 -9.415562007644932008e-01
-3.528533818050873933e-02 -1.506644663542991251e-02 -6.935115919459445832e-01 -5.194689480688952088e-01 -5.131734011743529500e-01 -6.832313461188253001e-01
7.953878271958891855e-02 1.395674689203066920e-01 -7.108264663368204506e-01 -2.838789665597489242e-01 4.513047062030359213e-01 8.460122898066907426e-01
1.016149238731788862e-01 -1.099496182897173255e-02 -6.526867254441410804e-01 2.348851433025319901e-01 -1.863196532004713357e-01 -9.539989288709945781e-01
1.516769137164775301e-02 -1.856653599026455992e-01 -6.720014882593752237e-01 4.170879678321409156e-01 -4.649558537704218120e-02 -9.076760367169010024e-01
-6.783652093989864240e-02 -4.686947729904527432e-02 -6.967409592089218728e-01 1.119792957739567246e-01 -1.954835412045391740e-01 -9.742929859319021668e-01
5.834738321809562756e-02 2.410492217358283784e-01 -7.569077474488304924e-01 -4.127696479774699001e-01 -2.647749796631586605e-01 -8.715018232068877380e-01
3.474250146604787592e-02 -2.032333166038846617e-02 -6.697641944034867789e-01 2.793893022098864476e-01 -1.618942392012904241e-01 -9.464311243424466946e-01
-8.416175344664393598e-02 -2.190718322381079650e-02 -7.110319426000555332e-01 -2.891628358025133405e-01 1.161260128749236342e-01 9.502102943687894543e-01
-1.644388147717297868e-02 -8.061248690962480312e-02 -6.770923164483673151e-01 -3.576289834657015443e-01 6.994735596785263410e-02 -9.312405046916697460e-01
7.792773666390699627e-02 8.807280473233156451e-03 -6.630859541775627752e-01 2.497725200504803678e-01 -1.790234635928344142e-01 -9.516114163411751870e-01
8.593969145763026563e-02 -6.971101354703021502e-02 -6.542045239012127533e-01 4.712834753992518610e-01 -7.202541889167312084e-01 5.090439953122954941e-01
7.867954727353559247e-03 1.647539867922907699e-04 -6.886115939253157903e-01 -2.537295070775136829e-01 1.518375781982292394e-01 9.552835637050910433e-01
-4.945777727723878886e-02 -1.931463167814410076e-01 -6.929331529519237032e-01 4.209490212397486997e-01 2.073256825126096048e-01 -8.830730337225670690e-01
1.303770853532582388e-03 2.227075837966556171e-01 -7.696661437223221158e-01 -1.167947983737480655e-01 4.774585746555849997e-01 8.708572124985202167e-01
-2.084648379920113828e-02 1.462123535958752829e-01 -7.368914229470501231e-01 -1.087202571694645958e-01 4.230395188512144355e-01 8.995651567124742787e-01
-5.988814490438660459e-03 2.920915919406091160e-02 -6.941812153132091989e-01 9.765454394464075927e-01 -1.822169302826351645e-01 1.146995859399506934e-01
-9.751320268438024019e-02 -1.609569200796816812e-01 -7.126588922742311816e-01 -3.124477915827239549e-01 -7.249296896098703091e-02 9.471647939964301655e-01
1.062362592606195394e-02 -1.933007573641070398e-01 -6.804580049885903259e-01 -1.297439110724824818e-01 -2.865222516770113415e-01 9.492478690171239908e-01
-4.743520886809260428e-02 4.164680212658462832e-02 -7.115614669158508709e-01 -1.036238329250184637e-01 2.912352276321361066e-01 9.510226829240120416e-01
3.136408063230108900e-02 1.487526452882572681e-01 -7.160975743533656290e-01 -4.252926746848232908e-01 -2.586927103409796813e-01 -8.672970785583604680e-01
8.672023635680679854e-02 -7.687994102164485977e-02 -6.559584533880948864e-01 -2.711644973592706176e-01 4.795292243539614474e-02 9.613377827807449982e-01
6.747833602316888335e-02 1.903056885272001453e-01 -7.293517725015811193e-01 1.878230800325014493e-01 -4.295795421673942460e-01 -8.832801976487169027e-01
1.161194364608350432e-01 3.580506085103755953e-02 -6.605114863746113230e-01 -3.011534418046112396e-02 -1.182757870909990350e-01 -9.925240068798824034e-01
1.085982502539788314e-01 8.872848858466539368e-02 -6.848672995170331790e-01 -1.970255038747945053e-01 2.905382985566418164e-01 9.363591447167559645e-01
-2.883791679393682764e-02 -1.604738785437867798e-01 -6.809616623812637659e-01 -3.433772612046732120e-01 1.294033485077505097e-01 -9.302402001002533227e-01
3.159990397550314217e-02 1.829658519735598843e-01 -7.422780369930477296e-01 -1.888928465904340659e-01 4.169728499753611040e-01 8.890743134802554515e-01
-1.837193001475734234e-03 4.408973434056283336e-02 -6.901206871287375311e-01 7.702789839483780154e-01 -3.313583843589850697e-01 -5.448595305236547670e-01
9.002652478627366783e-02 -3.252128951211852304e-02 -6.523952358158709997e-01 2.654162486636030827e-01 -1.223538223131176716e-01 -9.563387250920619698e-01
-1.940207358619104941e-02 -5.316193733951711520e-02 -6.819736222005335913e-01 1.476777427329970527e-01 -1.778066375302924940e-01 -9.729214171511786358e-01
1.747330138093524526e-02 1.866792885182243789e-01 -7.388783872548562170e-01 2.195808402034315210e-01 -4.160322452118896952e-01 -8.824406073835843189e-01
6.944673899608094780e-02 8.327738503948896309e-02 -6.919256384105454405e-01 -3.013791534954873286e-01 3.923641338772098086e-01 8.690345173151240443e-01
-5.467069304404419128e-02 -7.858204502429791058e-03 -6.967483569083655626e-01 2.505321785283654012e-01 -1.572375937502472620e-01 -9.552538754872776927e-01
5.790093508550411133e-02 2.733993732406357902e-01 -7.803685520330997383e-01 1.616978454394560893e-01 -5.446757078256488915e-01 -8.229107971614335604e-01
8.031251392006175105e-02 -1.067597415551920816e-02 -6.623112523010274977e-01 -9.378127188642772227e-02 3.074377209677690570e-01 -9.469356476390081712e-01
-8.030956617273521392e-02 9.390871482571524695e-03 -7.078236010655606369e-01 3.648646124080615616e-01 -9.521694968698549144e-02 -9.261790038133130842e-01
9.829335849350730181e-02 1.053538020784320628e-01 -6.919871268835586786e-01 -3.878545027507941945e-01 4.660432685484940385e-01 7.952185589739276805e-01
-3.637837680007745267e-02 -2.729459567785548768e-01 -7.072479350497564710e-01 -8.745696371226348020e-01 1.916116903543718109e-01 -4.454356406291747894e-01
-2.266846164635554980e-02 2.558037186252197157e-02 -6.939644360415557767e-01 2.345491607901313835e-01 -2.130635051406329916e-01 -9.484675186582998130e-01
-6.601033389301956544e-02 -1.070083927743668492e-02 -7.001847196448917066e-01 3.947746444049820558e-01 -4.590000304610894477e-02 -9.176307372005838570e-01
-9.535220478534387964e-03 -2.860384052888765433e-02 -6.885876618763636658e-01 -3.830528643331875815e-01 2.626962461495873091e-01 8.855852219775666168e-01
5.034274993725832564e-02 2.306011133557774040e-01 -7.637400982462980714e-01 -2.069414213849398443e-01 4.864818865877050258e-01 8.488289710755918538e-01
-2.330911544232165320e-04 1.735747247622934988e-02 -6.982157369530237467e-01 -1.993082816055926632e-01 1.699614317284859066e-01 9.650851364559651646e-01
-1.038148932084682757e-01 -1.477296629691464240e-02 -7.175092339800996921e-01 -1.614212643973075012e-01 1.921035127988938995e-01 9.680079626587273500e-01
-2.228745124245234618e-02 1.682166262420824454e-01 -7.395700916410525849e-01 3.192889515294850544e-01 -3.297464669867363196e-01 -8.884378610465492043e-01
3.568058578638007988e-02 -5.968219879850507337e-02 -6.668808297894226467e-01 6.424714350768846449e-01 -6.875715648141800251e-01 -3.383427232396584161e-01
3.398013765058182506e-02 1.748001022258390547e-01 -7.419368869190549054e-01 4.249957877634895076e-01 2.591644453260144587e-01 8.673017760054166914e-01
-5.285033840535052069e-02 -3.352778639973955088e-01 -7.254564400109650979e-01 8.224228145140096702e-01 1.588630651271720207e-01 -5.462446711000985555e-01
5.727708414620993199e-02 2.199912934395839015e-01 -7.561487450405778299e-01 -2.294652131713487420e-01 5.075166081575671617e-01 8.305255013474696080e-01
-8.280197976611282373e-02 -3.213668533290937185e-02 -7.017011608195063976e-01 2.520226662540318019e-01 -1.149167848953322052e-01 -9.608739294223404004e-01
2.251882180303894573e-02 -2.184344252225655161e-02 -6.796380466650415730e-01 -1.485848706480840387e-01 -2.190798857932520910e-02 9.886569557995837920e-01
1.090586009712742749e-01 5.070451902909620806e-02 -6.664405571946020457e-01 6.029716654986865265e-01 -7.925522876470914024e-01 9.102769881252020800e-02
6.418241216470753352e-02 3.436746667098233149e-02 -6.734155397948072830e-01 1.594609226839997784e-01 -1.275523608569529288e-01 -9.789293178654855376e-01
1.121393785147277306e-01 1.365019940025493927e-01 -6.972329056883123100e-01 -9.092370768663172731e-01 -3.337243646890336590e-02 -4.149388130022592103e-01
6.432498255904602058e-02 1.533828886313637896e-01 -7.127298852840368015e-01 2.283376836991111158e-01 -4.086226133787915771e-01 -8.836795018774686872e-01
1.017726330914324046e-01 6.277566029461820185e-02 -6.775583586885052245e-01 -3.120119179939349618e-01 3.581880902587818438e-01 8.799715080765472264e-01
-5.699116258292813431e-02 6.878045595618458366e-03 -6.998796759730948613e-01 2.377008192278668441e-01 -1.834552357983852411e-01 -9.538566438393977220e-01
-6.223470126876084335e-03 -4.378905685099281769e-02 -6.803851129350785287e-01 6.390358093585278842e-01 -6.492514152576767117e-01 -4.124388853435078661e-01
-1.498204785477575893e-02 -6.271796941915128154e-02 -6.869101288453632881e-01 -2.719763849554420188e-01 5.385337746535503317e-02 9.607958470779019988e-01
-3.448435734546475423e-02 -2.295183029036056421e-01 -6.955618478871332666e-01 7.027888673398587915e-01 -4.602091923113832417e-01 -5.424899144272292695e-01
-4.782048881512065974e-02 -3.036677516040144770e-02 -6.996555211383154171e-01 -2.537290111517177538e-01 1.340776521128035637e-01 9.579377704756657508e-01
-1.204405791859256836e-01 -5.300086958591353897e-02 -7.175619586347886658e-01 6.846921681832897066e-01 1.603525252707272697e-01 7.109737705905658789e-01
8.727995277088157478e-02 5.430511538773731550e-02 -6.722717802987012714e-01 1.625581501413096430e-01 -1.767935351606758632e-01 -9.707311130009310673e-01
-4.415249966338799514e-02 -2.257026155026762571e-01 -6.932083771508422698e-01 8.299592122983311393e-01 3.109186907524438825e-02 -5.569569117970811778e-01
1.812126394599614804e-02 -1.390743087409107570e-01 -6.749245954051511509e-01 -2.787982273566460001e-01 -4.831507854350088060e-02 9.591335681791808287e-01
-5.749386042602455671e-02 7.216787902254270110e-03 -7.079248398196203995e-01 -2.863348064984067576e-01 1.534769469793831886e-01 9.457574770169188128e-01
-5.793083314612371831e-02 6.142362777565894133e-02 -7.120049119261918635e-01 3.713564535188680904e-01 -1.619996612724045049e-01 -9.142485953926946518e-01
7.170998723278708235e-03 9.842203373272374878e-02 -7.112691916711536555e-01 4.114271447116672475e-01 5.993461830827003789e-01 6.866672100942369239e-01
-3.882785683981405944e-02 9.933582455831956037e-02 -7.186596569688968872e-01 3.283054019673615209e-01 -2.356751464870808777e-01 -9.146981952356428858e-01
5.528595389976292962e-02 8.070216381971724584e-02 -6.879893837880223240e-01 1.655114877722854150e-01 -1.747486355842405858e-01 -9.706023190662851352e-01
-5.766430561584408310e-02 8.723999281742607359e-02 -7.186254441815075333e-01 2.215187760820086227e-01 -2.843106876652670145e-01 -9.327898288051985620e-01
7.344266372834154510e-02 -8.836154189188004382e-02 -6.591200597884269152e-01 -2.975703289662379181e-01 4.784513011989932618e-02 9.535002584387352043e-01
1.531562199244454296e-02 -4.602431417304905618e-03 -6.782856005756924267e-01 1.571934080366016728e-01 -4.015615910551251222e-02 -9.867510908814497439e-01
-5.004180755294060368e-02 -3.255859494094159312e-01 -7.330872108716339763e-01 3.362922107465508570e-01 -3.391482137145053199e-01 8.785704514297402179e-01
7.200119676209081054e-02 5.047016961391499051e-02 -6.746222492543032523e-01 2.433381680035711092e-01 -2.471403221957285401e-01 -9.379276076210025792e-01
-2.694324454799893256e-02 -2.079655394949135871e-01 -6.887941038228441171e-01 -3.075029231324621359e-01 6.536482343290520580e-01 -6.915098972708226821e-01
5.029783050677166800e-02 -3.050209336421251180e-02 -6.654248513434309897e-01 -1.719501275007591090e-01 4.079422909902445937e-01 -8.966695271247391297e-01
-6.287504618138384238e-02 -2.431003444341192643e-01 -7.061414184395915505e-01 4.639586933671653868e-01 2.748909899262857448e-01 -8.421266380458340972e-01
-1.723179840101948454e-02 -1.447029105230188961e-01 -6.849749715230505354e-01 -4.135033178069660309e-01 1.034481986332879827e-01 9.046068076032587335e-01
-9.712602747403506487e-02 -1.220289093116875591e-02 -7.081882153986446271e-01 2.844655943080383609e-01 -1.240397547811590423e-01 -9.506279318896559971e-01
3.245467913274799332e-02 -8.368789987744292003e-02 -6.716138931292205960e-01 -2.958839930921839390e-01 7.696840437641662425e-02 9.521179167306814684e-01
2.534917837493911100e-02 1.403167468351413372e-01 -7.281407530982807463e-01 4.037969622483717491e-01 1.417476595580372811e-01 9.038006496395128986e-01
2.510602892750151902e-02 6.854705057959323278e-02 -6.916436517414760177e-01 2.616183563310046645e-01 -2.919794515411976987e-01 -9.199477352047586987e-01
-2.576328662922349952e-02 -1.347091639839732014e-01 -6.920034112570926377e-01 -3.819226061377875570e-01 -3.246920830488642801e-02 9.236237726655665004e-01
-6.759611454954025933e-02 -5.847380379559672520e-02 -7.027964904870407370e-01 -3.105847503693499045e-01 4.484099407257508690e-02 9.494874396686834306e-01
-8.631156605079516597e-02 -1.793238648605524621e-01 -7.030056896709727665e-01 3.204051103865095951e-01 9.834084879677718050e-02 -9.421622167631951150e-01
-2.184983850630177818e-02 -4.291117448393584610e-02 -6.842133242704486751e-01 1.255743057225881254e-01 -1.917881152212045359e-01 -9.733696176695613156e-01
6.706025417116514946e-03 1.085852885722940753e-01 -7.165299078434458346e-01 -1.092677666110684759e-01 3.863299175277334907e-01 9.158655741989889520e-01
-8.677876954477471705e-02 -2.838933809298761768e-02 -7.111684979900176895e-01 -2.660382386074199856e-01 1.136911887363140500e-01 9.572345424201872399e-01
-3.998916694946010042e-02 -2.703267146680077837e-01 -7.041742821724743528e-01 1.667595046009215654e-01 3.526216628664433639e-01 -9.207872884127796809e-01
5.179458313467549119e-02 2.649853729516961076e-01 -7.808201701201800127e-01 5.716528354291262604e-01 7.140518528415416011e-01 4.041571318180615657e-01
2.922818236742601855e-03 2.394368192963477748e-01 -7.750086098800329504e-01 7.443261050771766696e-01 -4.493548047037891902e-01 4.940231864905323955e-01
-6.466848574607270139e-02 3.279585172015676842e-02 -7.080281994395789535e-01 5.726515211127069377e-02 -3.102867618697449092e-01 -9.489166600719269873e-01
1.815374163117808651e-02 -7.593946221457580081e-02 -6.743874917112223644e-01 3.263209169110052321e-01 -5.834453044670856459e-01 7.437111239464355705e-01
-8.205237639857931864e-02 8.526264052770178570e-02 -7.286262596941067704e-01 3.634854109476521322e-01 5.174935161968089448e-01 7.746475435464048598e-01
-4.484040002968111421e-02 -3.582450754631948953e-01 -7.315149210959457360e-01 -3.056821601089340090e-01 3.707493459845831452e-01 -8.769853701420223802e-01
-7.027076333225072691e-02 -1.530476392449927892e-01 -6.955501282454737977e-01 3.174285861543442167e-01 6.553473839387731481e-02 -9.460149527125349955e-01
7.144192926757023110e-02 6.100609556184963256e-02 -6.775868412128432938e-01 2.539055598049622664e-01 -2.699743754836559373e-01 -9.287872755816256598e-01
3.779519985842147434e-02 2.606755523430936416e-01 -7.849338949903874596e-01 -1.940638101617858380e-01 5.291218599474916129e-01 8.260564719867508066e-01
-2.764987111701842915e-02 -1.909963704756426350e-01 -6.852012313985532677e-01 2.865927676336637586e-01 1.181762025533228261e-01 -9.507360152482668969e-01
5.804537642235889361e-02 6.929041221083469607e-03 -6.686583033157054157e-01 3.838081438657053313e-01 -3.629806808446663369e-01 -8.490796982827374384e-01
5.554436799126855062e-02 2.249669394531645661e-01 -7.594001660685579802e-01 -1.693061949152900869e-01 4.806293727453980758e-01 8.604247895183347872e-01
5.677322457959092794e-02 2.670008903663509403e-01 -7.848395260605915968e-01 6.789371040312736430e-03 6.260091566552212772e-01 7.797861503160309349e-01
-6.346184238779166431e-02 1.123731627428699031e-01 -7.353537343293871098e-01 -4.842613965710651502e-01 1.399207120823391937e-01 8.636626043319305390e-01
-1.232749880802741678e-02 -8.896475142707398198e-02 -6.802281048007772224e-01 -2.809187499193141480e-01 5.339426235361668382e-01 -7.974897684077739690e-01
-1.127368927446433661e-02 1.398816230994890109e-01 -7.327039232254610734e-01 -1.171001145335791027e-01 4.177514329507743818e-01 9.009835200733677940e-01
-2.500387351526560734e-02 -1.746971854135657976e-01 -6.829836070591034369e-01 4.567163233477305462e-01 -9.912776780596427306e-02 -8.840723305462838688e-01
-2.624566801934040752e-02 1.700332521706195144e-01 -7.490188686759734482e-01 -5.643519309137096096e-02 4.389777147464813400e-01 8.967238342637583459e-01
1.625438885593973731e-02 -7.603156993928129881e-02 -6.736263645726837668e-01 3.263209169110052321e-01 -5.834453044670856459e-01 7.437111239464355705e-01
2.794387130716031314e-02 2.383562339319503509e-01 -7.654776368020658195e-01 3.109844886840925082e-01 -4.510485726744735135e-01 -8.365666936271212162e-01
-1.696750561150396630e-02 -1.724728405977907775e-01 -6.878683076840133026e-01 -2.968767220113511796e-01 -9.000311273835973069e-02 9.506648471597131111e-01
-3.426350512448850250e-02 9.094877294807544865e-02 -7.149098446880026714e-01 3.495920168879055878e-01 -2.044535281436057339e-01 -9.143217029896414383e-01
1.594758255116406065e-02 1.914904863740904753e-02 -6.893790274131832430e-01 -1.584352545773272392e-01 5.642719432651021466e-02 9.857556704617305154e-01
2.914548291722835957e-02 1.595886241583059362e-01 -7.319330168221167554e-01 -1.492425048523347841e-01 4.158984497354381027e-01 8.970814646692126804e-01
9.824391355706166284e-02 8.619710258679935677e-02 -6.786043081706156777e-01 2.245747691004430224e-01 -3.051317710922827886e-01 -9.254516601927781361e-01
-3.382414714289339736e-03 -6.010389367692548640e-02 -6.759356680187457167e-01 2.687395284243834781e-01 -6.369888286291207347e-02 -9.611043222170302380e-01
5.701415645606456445e-02 -1.210006090298744799e-02 -6.727801977437825043e-01 -2.750900758163893345e-01 1.818458940921236222e-01 9.440643627365506996e-01
4.775070615315172434e-02 -5.084818945335550094e-02 -6.630848873628090168e-01 4.025283084541583234e-01 -2.841281069148824390e-01 -8.701966328100785297e-01
6.415123295577744578e-02 5.957572437071653043e-02 -6.792439395853573370e-01 4.194021068471786018e-01 -4.665530552153892563e-01 -7.787362322643872625e-01
-1.063146752037383014e-01 -6.105217489492558575e-02 -7.139994728587240047e-01 -3.353512538757267292e-01 2.084005670118874859e-02 9.418626378409269417e-01
2.179276753064932765e-02 1.229194967866370086e-01 -7.093564229023606726e-01 1.551096220467007847e-01 -2.890226395409089544e-01 -9.446729164008754731e-01
5.191465545464411108e-02 2.050955748304879311e-01 -7.545846626571879323e-01 -7.482158125592694997e-01 4.428494957101713481e-01 4.940216816957725410e-01
6.427935518630384371e-02 7.087760869315925041e-03 -6.742550818283142844e-01 -2.456071911559696563e-01 1.727353786426874815e-01 9.538551234949897983e-01
9.391516949122748203e-02 1.622551565067024970e-01 -7.182037170013138017e-01 -2.066320837939686905e-01 4.201832368268261786e-01 8.836001524652956629e-01
8.336268590433548731e-02 1.098307135261374634e-01 -6.905282554128849837e-01 2.064527381039697185e-01 -3.313375679400120677e-01 -9.206479690962076079e-01
1.843444988390764011e-02 -2.823191151840342972e-02 -6.803934496131609500e-01 -1.485848706480840387e-01 -2.190798857932520910e-02 9.886569557995837920e-01
8.660458670834997319e-02 -7.393785529926590050e-02 -6.486654037571001341e-01 3.120320428656037648e-01 -1.248816902489599256e-01 -9.418283111404543995e-01
8.020188926549554065e-02 -9.645152837799084167e-02 -6.515953608954401233e-01 -8.243439818542658282e-01 4.636260940984812118e-01 -3.248197106883140561e-01
5.931234357122612544e-02 1.533061407728247005e-01 -7.146861637327343031e-01 3.310044284830307992e-01 -5.480955887189751241e-01 -7.681323414304478403e-01
-1.178503233428803906e-02 -3.510031402377408998e-03 -6.854906747628942698e-01 2.152910647558474166e-01 -1.712834571214504609e-01 -9.614113244354977050e-01
-8.918803176372408492e-02 5.379631198659647062e-02 -7.261127382470354830e-01 -2.357236842783130004e-01 2.274064946843775969e-01 9.448389443950868660e-01
-1.012707614314301147e-01 -1.693479684077332445e-02 -7.088110560915192870e-01 2.844655943080383609e-01 -1.240397547811590423e-01 -9.506279318896559971e-01
-3.098926754328432467e-02 -1.425268826178796022e-01 -6.825545128246141013e-01 2.638888591736368583e-01 5.598256282829600777e-02 -9.629271118123179374e-01
-1.508890575496752394e-02 -1.431105795917503032e-01 -6.800129978117250840e-01 -3.103490902334124502e-01 5.896903540009464928e-01 -7.456196943412450873e-01
7.306904043196446596e-02 -2.839440059261091887e-02 -6.589636340840711037e-01 4.214418534823391460e-01 -3.353346693083276153e-01 -8.425778442928849588e-01
6.827146091521965436e-03 1.466806513462554640e-01 -7.316793990153135363e-01 -2.548192363588691611e-01 3.484581587179905182e-01 9.020222105937028001e-01
5.044890641528224778e-02 2.184864226377974394e-01 -7.568093706720727676e-01 -1.548483447890718623e-01 4.766609302317186825e-01 8.653417519724316831e-01
2.854791730560778812e-02 -1.793782459956283770e-01 -6.738332910165204526e-01 -2.518059991417433419e-01 -1.269048181346121018e-01 9.594211306462087085e-01
-1.812399410039637615e-02 -2.340612079521242617e-01 -6.964726088594087594e-01 -3.011637780757510097e-01 -1.713686996004615548e-01 9.380475188242792806e-01
-5.066893520681925445e-02 -2.215036806696570881e-01 -7.043695444598507827e-01 -4.641509276289693675e-01 -2.523104693870526494e-01 8.490602707810867011e-01
-9.731725072359448392e-02 4.872049067730378769e-02 -7.195572518213735336e-01 3.680481585835411185e-01 -1.443012573281876598e-01 -9.185410715350559308e-01
-1.335661183005289708e-02 2.642923324134584598e-02 -6.976344507796720107e-01 -8.288460063811913248e-01 -2.826144275592257782e-01 4.828492342764162393e-01
8.404972247310198152e-02 9.018799933269586178e-02 -6.872671527600564545e-01 -1.636257525626599596e-01 1.903803423700804742e-01 -9.679782736907652785e-01
-2.125688553301818828e-02 1.606906178397790042e-01 -7.364064230838519576e-01 3.192889515294850544e-01 -3.297464669867363196e-01 -8.884378610465492043e-01
2.916922824653589083e-02 -4.639460850851066798e-02 -6.750005740495605977e-01 -3.679812189809694156e-01 2.336242404432752606e-01 9.000052981813955189e-01
-4.655832851110992127e-02 -2.424143365501866820e-01 -7.047744758633296414e-01 8.737696799437492112e-01 -1.854092831757031545e-01 4.496108807883438252e-01
-4.161431702162556728e-02 -2.182426766234915605e-01 -6.907513116018971777e-01 4.079080530580646013e-01 1.431127814099897033e-01 -9.017370747881422455e-01
-7.899887336288163864e-02 8.363375127904018602e-02 -7.289701691634232761e-01 3.418889305532472611e-01 5.159097405421976257e-01 7.854610740061145346e-01
-1.588674109414255770e-02 1.516827511147400553e-01 -7.388586134322444599e-01 -1.151903897937854998e-01 4.244214853174064772e-01 8.981077757708828546e-01
8.719537651889926189e-02 3.368812776265203007e-02 -6.681864279901136294e-01 6.061775387089020084e-01 -7.890894982797449497e-01 -9.943115844360990441e-02
-4.659559488877020039e-02 2.890600648485407848e-02 -7.024138492680231938e-01 7.809824600531719563e-01 2.111520815937150963e-01 -5.877764843271096051e-01
-1.870051299686825708e-02 -1.046118827879416457e-01 -6.893534675651238341e-01 -3.617606959908756248e-01 4.339809590754298285e-02 9.312603310072844476e-01
7.385037872158373151e-02 2.309919772208361699e-02 -6.694822228698426025e-01 6.230814652296926548e-01 -7.749811174221772347e-01 -1.057059852907732689e-01
2.608029077786699207e-02 1.095673265185285461e-01 -7.172472992875794651e-01 -7.703716505706940110e-01 3.312220850061629029e-01 5.448113897498426672e-01
-1.167496259996906802e-02 1.464238859371493062e-01 -7.279914763933534871e-01 3.209483111249132326e-01 -3.081937214342413967e-01 -8.955494467948595938e-01
8.052735742090817717e-02 2.439834887824366416e-01 -7.656759129561993005e-01 -1.738983543755294181e-01 5.215752636405552867e-01 8.352955205816490203e-01
-8.323338242153587030e-02 -1.436436024704972614e-01 -7.001189233715390259e-01 4.134557490580231809e-01 1.320879242273117760e-01 -9.008924041439072550e-01
7.721498385547913290e-03 4.798283533918261401e-02 -7.029737449383678394e-01 -2.925598231785546677e-01 3.107171639611022718e-01 9.043581115253526148e-01
7.699494505450685256e-02 -1.035267067048989964e-01 -6.537385662845940359e-01 -8.708944499252371241e-01 4.690741829551471342e-01 -1.466706104656963217e-01
5.870335011581517826e-02 1.654742460789821179e-01 -7.234908577013416942e-01 -1.929694077521968143e-01 1.510744747096939011e-01 -9.695046728938218061e-01
-1.109984593552625250e-02 -6.148680739205247825e-02 -6.889708361615488608e-01 -8.014283936648294304e-01 1.474318254976910991e-01 5.796347010473317241e-01
3.312793650421611696e-02 8.747683093992639214e-02 -6.964290217842740160e-01 3.490214843019005531e-01 -4.406035832232071958e-01 -8.270746556064744182e-01
7.649129445911648228e-02 2.364869277705209383e-01 -7.618642717940778963e-01 -1.678104004100056668e-01 5.157855546956384707e-01 8.401219739308966039e-01
4.437919657928464379e-02 -7.071086418227973125e-02 -6.690315313114116869e-01 -2.915307014165229860e-01 9.260172941061241281e-02 9.520686791622514633e-01
-1.099253145369506468e-01 -6.642400301328141299e-02 -7.147972847863366397e-01 -2.598690699368145229e-01 4.953407630869730016e-02 9.643725637814564156e-01
9.691024292407465768e-02 5.477424402295607425e-02 -6.760254814087527375e-01 -3.120119179939349618e-01 3.581880902587818438e-01 8.799715080765472264e-01
3.340602041495382285e-02 -1.365598549900564895e-01 -6.701520034447435714e-01 -3.046343111881098520e-01 8.550818178240427586e-03 9.524310053517937025e-01
7.054063873423448150e-02 2.884315946854809631e-01 -7.988959409394749134e-01 4.416578671633339948e-01 2.484784189067825999e-01 8.620886286863552739e-01
-3.513730436631544787e-03 6.093010296855629537e-04 -6.839118167645601432e-01 2.493952069074998612e-01 -1.609562013020208182e-01 -9.549320038798513322e-01
-6.488456901153860645e-02 -1.649122389705003772e-02 -6.994107676905192417e-01 3.947746444049820558e-01 -4.590000304610894477e-02 -9.176307372005838570e-01
-1.618749201976956570e-02 -8.433798372636226726e-02 -6.774706085772481678e-01 -3.576289834657015443e-01 6.994735596785263410e-02 -9.312405046916697460e-01
-4.983878525697453543e-02 -1.195210718608889257e-02 -6.948286817366835511e-01 2.419244232217065138e-01 -1.575323189542741087e-01 -9.574216113780456006e-01
-6.610521369617108900e-02 4.168418733165446012e-03 -7.097634539298607326e-01 -2.476290999343188637e-01 1.590267319888097608e-01 9.557145637577562081e-01
-5.173062672423035108e-02 -3.942521768090554574e-02 -6.928147873414184366e-01 4.036842175795352650e-01 -2.166791776664565156e-02 -9.146417625589028377e-01
-4.451808155932400479e-02 -9.581304034502458739e-03 -7.014218974133884510e-01 -4.523423828675786629e-01 2.318283065687483033e-02 8.915430023416793803e-01
