9.362307274943544588e-02 -6.394661129550874290e-02 -7.983428553047444698e-01 5.649553301137033579e-01 -6.654365894210544363e-01 4.878725452777513127e-01
4.606929589534668884e-02 2.348788162429157056e-01 -9.081333033225863494e-01 1.217024806503167883e-01 -5.212116380024756079e-01 -8.447052353420899662e-01
2.947145121840752044e-02 1.252981846848841285e-01 -8.532924726037315333e-01 1.249996068570076724e-01 -3.567150718555754940e-01 -9.258128621901215993e-01
-6.784806376730526112e-02 -3.886792344936901983e-02 -8.313959013177698587e-01 -7.943161087410955945e-01 -4.437063782537895573e-01 4.149536953580596488e-01
-4.228328374482182017e-02 2.941874360881420805e-02 -8.338770587071806517e-01 3.033446998074360024e-01 -1.301471304364113235e-01 -9.439511203118010618e-01
-1.338117016602999657e-02 -6.017063915077421055e-02 -8.127250478350726004e-01 1.956802909295979609e-01 -1.118897924773668007e-01 -9.742637723332833177e-01
-1.255370588487258673e-02 -1.873810311170116122e-02 -8.201832608988345319e-01 9.921134055376048533e-01 -1.244496811747075882e-01 1.494213532564175190e-02
-2.107631552713110784e-02 -1.477764936888238678e-02 -8.224606356263107765e-01 7.355819257046114501e-01 2.993365273551035766e-01 -6.077144674661636436e-01
-3.746987469580985441e-02 -4.031644174841077510e-01 -8.722039538139259029e-01 9.270308174818499003e-01 -1.540129428011050017e-01 3.418974654610310582e-01
-6.585159374959230483e-02 -1.634913039596477546e-01 -8.226114602229338546e-01 7.092618985654323138e-01 4.463469486125408725e-01 -5.456390388412768466e-01
7.253264699155707873e-03 2.414349694288789039e-01 -9.184873067868727370e-01 2.431687422651568620e-01 -4.759116829767495171e-01 -8.452082777584585260e-01
1.680872277896919634e-02 -2.798718944488628752e-03 -8.240654279095019907e-01 -1.772656858664601320e-01 2.117711693548493535e-01 9.611086558992031348e-01
4.850933977994757729e-02 2.852803658686918209e-01 -9.408121925710369871e-01 -5.043755038576940297e-01 -4.121606127870122704e-01 -7.587680675775251293e-01
-4.955076208630332379e-02 1.349949597783400290e-01 -8.778697137640106840e-01 -1.692076391162453397e-01 3.620938292085555954e-01 9.166552425605778431e-01
-5.968039570130916766e-02 1.601701508921387629e-01 -8.894457027998579068e-01 -4.124946675351691683e-01 1.670289551305108866e-01 8.955163188926597018e-01
-9.824811043698804258e-03 1.560671673050421648e-01 -8.809744249324940046e-01 -3.526670542153126919e-01 2.729796557649023514e-01 8.950463990260891789e-01
6.228288626849474985e-02 1.166713184041583140e-01 -8.514337794640643997e-01 4.891685598106961241e-01 -4.429860379630414235e-01 7.513171702167709132e-01
-1.270520993692285903e-02 -1.336547302867919229e-01 -8.186227526262243037e-01 -7.526639465716062904e-01 4.359073274541210713e-02 6.569602967835821428e-01
-5.705278283610835379e-04 2.150526927711494674e-01 -9.108381225268948889e-01 -3.883801563821307479e-01 3.371272935145468996e-01 8.576164889367207111e-01
-4.526615326260455957e-02 1.019123433242675597e-01 -8.567819350005828616e-01 2.393879432554524567e-01 -2.641595878950718235e-01 -9.342981990494417799e-01
5.093584390777112364e-02 1.583216693889598903e-01 -8.695871779360823117e-01 5.053511181874634772e-01 -4.084396823490916151e-01 7.601297739394593522e-01
-8.956099618177522370e-02 8.793541359831348603e-02 -8.652353540817149247e-01 5.041670061498354505e-02 3.906651021563383175e-01 9.191512031522761639e-01
-3.775937672668316925e-02 -2.431843943284518195e-01 -8.213061085440344078e-01 1.737171785107490818e-01 1.304949808495441677e-01 -9.761113675515420418e-01
-5.711099793930779489e-02 -9.677156365557197659e-02 -8.245478879319803056e-01 -4.213699317895512608e-02 1.503225884702501791e-01 9.877386259539717717e-01
2.725635965723538501e-02 -1.542240683878375596e-01 -8.082233465373586112e-01 -2.000660615771455708e-01 -1.335515706188135365e-02 9.796913854805819888e-01
4.428918131582434969e-02 2.560635557994616618e-01 -9.288808584495843457e-01 -4.081896251361591399e-01 9.044952371585786022e-01 1.235702063146639079e-01
1.662055605945773548e-02 1.628869081323585932e-01 -8.704234443192251369e-01 2.092721741808402924e-01 -4.849981386252932847e-01 -8.491065673068516340e-01
1.634939858076138756e-03 -1.666416329406406327e-01 -8.059253084097915965e-01 2.001426802643569425e-01 4.023394325383743836e-02 -9.789403134751609725e-01
1.019573854569909843e-01 4.211294908362493705e-02 -8.127085700451385231e-01 1.790729805709102562e-01 -2.937244071571269988e-01 -9.389669005186735973e-01
-8.862916711529831779e-03 1.302052347117318432e-01 -8.614384081373804847e-01 1.668520792145699871e-01 -3.730313127261173922e-01 -9.126927321873471444e-01
-2.422804653220460985e-02 -1.473789200726174087e-01 -8.112385660353285122e-01 3.314915774569512363e-01 1.165379616150687692e-01 -9.362330038925710252e-01
5.608160458081349470e-02 8.017641868534353122e-02 -8.333995760083006132e-01 6.821549317598905871e-02 -2.147585938165025576e-01 -9.742819883753958132e-01
-6.992826776955932133e-02 1.402051116391254404e-01 -8.774658584061733047e-01 9.879353845790547206e-01 -1.104351541240664036e-01 -1.085714171880850093e-01
9.800959587039320686e-02 1.339210697524099714e-01 -8.467381679301160258e-01 1.122195919091061173e-01 -3.892394755112244531e-01 -9.142753381205798169e-01
-2.060986643507097330e-02 3.034007309148091525e-02 -8.309052350465300218e-01 6.064608953399628320e-04 -3.351578368663856167e-01 -9.421617995823368119e-01
-9.226339706609902602e-02 -3.494207921106871201e-02 -8.377552478035164008e-01 -1.591329253859819770e-01 1.487849647144174337e-01 9.759814272479929720e-01
9.191511113747213857e-02 1.379021002501500948e-01 -8.571033149228789449e-01 1.067438146391067183e-01 1.310359172226434887e-01 9.856141975610499539e-01
5.087567688071225475e-02 9.612438098850120682e-02 -8.467430265890011354e-01 -1.275236240979367164e-01 3.147598050051477747e-01 9.405657820961005333e-01
-7.720232488932639303e-02 2.042075463423826884e-02 -8.375360363075285974e-01 1.867778274563213770e-01 -2.146146750894211419e-01 -9.586733460397022233e-01
-1.033300439234679513e-01 1.208563582867606956e-02 -8.421128812928190266e-01 -7.133014629687025598e-01 -6.139007070671927968e-01 -3.381226771293363575e-01
-5.584835034647236268e-02 -2.347371512085009992e-01 -8.298983870054046363e-01 5.817762232082441809e-01 3.432899831656555101e-01 7.373522994930410412e-01
2.511446677260684678e-03 1.132843375768819057e-02 -8.284084192765135413e-01 -1.329610665317265206e-03 6.527072358520707995e-02 9.978667069193871697e-01
-1.133126162104891449e-01 2.633954317326476363e-02 -8.506416988275882218e-01 -8.198894099937891200e-01 -5.132892081195018497e-01 2.536050949963172263e-01
8.583372754173682062e-02 1.532227758040073939e-01 -8.603431330170263625e-01 -6.280548082744080718e-01 8.453599328930609669e-02 -7.735637166012809818e-01
7.725606237745891169e-02 1.005315255896892662e-01 -8.370941489003221880e-01 6.108787385593517083e-02 -2.648742730947495350e-01 -9.623460350208178360e-01
5.488971480006235755e-03 7.673240170285140771e-02 -8.526802630787077009e-01 -8.696026523670977171e-02 3.293477063643545644e-01 9.401957246140294489e-01
9.999948601884013633e-02 7.647207554526751216e-02 -8.241169834222517032e-01 6.832734608331995918e-02 -2.323774826220434131e-01 -9.702226957495131421e-01
-4.412338499362558619e-02 -1.503087516040114147e-01 -8.149049611691701056e-01 2.507798055313228622e-02 -8.715744322348406570e-02 -9.958788455339945278e-01
-4.157415168785955073e-02 6.003529801123726195e-02 -8.423268658494273975e-01 -3.776240363591199661e-02 -4.012254892319276345e-01 -9.152005832943066466e-01
-4.775654461894460016e-03 7.832089540442535580e-02 -8.489633292078261340e-01 -3.166641282263576440e-01 1.951785340699676297e-01 9.282398233931462572e-01
2.902750694333770115e-02 -8.651964800197491090e-02 -8.022936271945292352e-01 1.647568994708820678e-01 -5.262708690134487027e-02 -9.849292125838384759e-01
-7.644631176262951799e-02 3.397687566096308648e-02 -8.406363439944432026e-01 1.422212972981041768e-01 -2.432593019644682386e-01 -9.594779906817060278e-01
-2.771655946664842041e-03 7.518830001874217406e-02 -8.476163582799517426e-01 -3.331002447898260277e-01 1.872587220691333265e-01 9.241095161992398666e-01
-1.827712653736679113e-02 -7.014776365094252397e-02 -8.159034654738083203e-01 9.944596927245445972e-01 -1.044954873400540246e-01 1.142859010416549283e-02
5.118910789333392525e-02 2.372891081335072316e-01 -9.090663746016925950e-01 1.382508109372050098e-01 -5.362788719672068050e-01 -8.326413902495991559e-01
-8.714005704062739721e-02 -1.779597146350775927e-01 -8.289768240842656510e-01 8.395274013068722008e-01 3.725935429424323542e-01 3.954336786523570124e-01
2.005780386754164521e-02 6.452741606156224552e-02 -8.409941821059224720e-01 -1.414206375056841769e-01 2.744523850579870250e-01 9.511446218233419181e-01
3.237843941468833420e-02 2.444320037240952093e-01 -9.213978685548596115e-01 -7.045933166403622883e-01 -2.838788933656647556e-02 7.090432891472489008e-01
2.301717447743393402e-02 -6.929561406894044380e-03 -8.187249823598276022e-01 -6.142667987124021955e-01 6.499141010527840212e-01 4.475354301643263422e-01
6.770798475240366598e-02 4.939226538732317123e-02 -8.283931909038599883e-01 -1.689740227453116195e-01 3.054036247975275287e-01 9.371106688101452642e-01
-2.731120539115208801e-02 -1.158555539596515666e-01 -8.112281070027168584e-01 1.680236266498302822e-01 -2.932266996033419670e-02 -9.853467622689160432e-01
4.123139996953420483e-02 -1.554698481755155959e-01 -8.016157944349342479e-01 -3.073692359293174192e-01 4.980515713940306677e-01 -8.108444888116119742e-01
6.329854940006067465e-02 3.021818769428333273e-02 -8.199551527418507124e-01 -5.202910068406015887e-01 6.665526151082444839e-01 5.338584826460598398e-01
4.883317635094745757e-02 2.390858691061876762e-01 -9.104947605031361579e-01 1.468861612910082326e-01 -5.662945638045333574e-01 -8.110085835714843094e-01
2.771710097415501853e-02 6.687998819922369442e-02 -8.404066068266621281e-01 -1.656706665819665525e-01 3.011070003635217818e-01 9.390888161225054986e-01
-9.624736487717858169e-02 1.029193131668350858e-01 -8.689915956090589200e-01 8.670684222431561672e-01 2.932098686104361307e-01 4.027658427650172568e-01
-4.067598651823761159e-03 -1.827967870636921788e-01 -8.079223352422212345e-01 1.820709577694392955e-01 8.348582617631815361e-02 -9.797348024667577038e-01
-1.939610621931607201e-02 -5.959665091965118261e-02 -8.215833623218172788e-01 -1.943995708468844730e-01 1.030839573151086236e-01 9.754909044162348719e-01
1.358319873031812140e-02 -1.782438866792870058e-01 -8.052223568082832461e-01 5.796409288711251717e-02 1.892929939512576487e-01 -9.802083076452389188e-01
-5.833896714913175408e-03 -2.421511021761541815e-01 -8.224123176223044895e-01 -2.358145802946317038e-01 -1.302197684192799298e-01 9.630339016012343656e-01
-9.250074542953756751e-02 4.143305783003126130e-02 -8.530652839313730418e-01 -1.396500131282774892e-01 2.625903524077038420e-01 9.547482289356025165e-01
9.708072122149297156e-02 -2.875653427389326597e-02 -8.050978559907906451e-01 -1.867650469930332569e-01 1.793397541412026230e-01 9.658965109193962117e-01
2.779500516932781676e-02 2.744373889461832472e-01 -9.468351193517965392e-01 2.123446795079465127e-02 5.728781202592849731e-01 8.193654597913159199e-01
-1.057517663277963114e-02 2.325317446868752080e-01 -9.147101896372026308e-01 -1.751381600971670949e-01 -6.706816378010903579e-01 -7.207723396428487028e-01
-1.089034840884561817e-02 -6.194255655017721560e-03 -8.252007959389886516e-01 9.344249069187899881e-01 -4.934755010564456645e-02 3.527249815768395136e-01
7.195208288164142707e-02 -9.788858395308271121e-02 -8.013217936724409407e-01 -1.938086586249416488e-01 8.040486441317987176e-02 9.777388514428068111e-01
-9.069797873514812148e-02 -1.581656994379497250e-01 -8.236857863774171840e-01 2.023101732426368926e-01 3.182201992788250694e-02 -9.788043486061163145e-01
3.679486633218498337e-02 -1.935288906608245429e-01 -8.082216145798480911e-01 -1.811447009746649517e-01 -6.513473619866549935e-02 9.812971331096048688e-01
2.255903962675534849e-02 -1.098631494868931441e-01 -8.090978251378126984e-01 -3.103314138909448738e-01 1.758689107711181310e-01 9.342186787774195977e-01
-8.659319346261987183e-02 -1.338466622334195076e-02 -8.391965429898783357e-01 -4.136848772266679131e-01 -1.882134191186997027e-02 9.102255651444828288e-01
1.002709139193125321e-02 -6.726531714120442818e-02 -8.147027538039355310e-01 -3.005008263435027249e-01 2.342607243319183019e-01 9.245653932536935793e-01
9.172593265853042424e-03 -1.466774309335911741e-01 -8.050668888508347720e-01 3.420614041842625630e-01 -1.490928082884994954e-01 -9.277743962214841655e-01
1.601219567242826228e-02 6.857505737084566844e-02 -8.349005469588253181e-01 1.743603744035352177e-01 -3.007810410499118792e-01 -9.376189125560502324e-01
1.434310244442852690e-02 -5.020655711529063009e-02 -8.166471677409545826e-01 -1.966231312996967462e-01 1.504495348910733776e-01 9.688675253557432754e-01
-1.324148254642294482e-03 -1.857836382099854466e-01 -8.151627208947066494e-01 -2.032603528036106000e-01 -5.841156683618907441e-02 9.773808458517555531e-01
-6.652911557928173347e-02 -7.950728885120610101e-02 -8.277290788305852187e-01 -5.245661068893819196e-02 1.630939975559120569e-01 9.852150282838063600e-01
-1.082321892214395814e-01 -7.242166894599978699e-02 -8.364676614474692018e-01 -1.553054204536460647e-01 8.461593138985254448e-02 9.842359323519661585e-01
9.047201152158318438e-02 1.240946590286373143e-02 -8.144803315436531799e-01 -2.416282973524102318e-01 3.068401835054598292e-01 9.205785505348855757e-01
8.051963018464866617e-02 5.736262643778108211e-02 -8.286842440856164727e-01 -2.400653265242224110e-01 3.817874000820448699e-01 8.925284422019340580e-01
-1.246490633939799191e-02 9.220703881980270300e-02 -8.480989864560636304e-01 -2.792203228920822275e-02 -4.352191323100234044e-01 -8.998914751147222280e-01
-5.749278826233624601e-02 -1.340264162696915839e-01 -8.169692649624417102e-01 1.959126554213087498e-02 -1.177763371013129251e-01 -9.928468747664241922e-01
-7.670614643143797151e-02 -1.948127423485114251e-01 -8.302891427914587119e-01 3.185062247173450767e-02 4.810628785086375897e-02 9.983342741373617546e-01
-1.445127454463961993e-02 -2.432677301694888827e-01 -8.243897436786152833e-01 -2.124082135108599223e-01 -1.559089851699745899e-01 9.646632257821345924e-01
-2.815437475110537865e-02 -2.285681649578950869e-01 -8.147002124485165364e-01 2.979405842158722728e-01 1.184496360393034603e-01 -9.472069953285086052e-01
-4.337484493553392384e-02 -7.336828754501129035e-02 -8.191834253496984575e-01 -5.495981080491286752e-01 -5.309805905785858204e-01 -6.449818075400534090e-01
-2.180188821709086802e-02 -1.934166311599138655e-01 -8.122235442337455424e-01 1.868826325632789720e-01 6.912304897232775247e-02 -9.799473892750505399e-01
6.134332899665789068e-02 -1.200668129122333672e-01 -8.019421960766571766e-01 -1.991568852797604705e-01 4.094394164313217011e-02 9.791119081537044133e-01
6.914560807154146449e-02 9.911745918081009410e-02 -8.372587674805783697e-01 6.770920190783517867e-02 -2.670426399765669645e-01 -9.613031220230949803e-01
-4.698929995228699058e-02 -4.538407601839814474e-03 -8.345185010633502376e-01 -3.413394533277244181e-01 6.118386401284744286e-02 9.379466468762429621e-01
3.523048642069271427e-03 -1.671102341647009715e-01 -8.132853281614130792e-01 -1.762584836118112064e-01 -5.873845315442894482e-02 9.825898132363727333e-01
2.554313155117746495e-02 1.003399012192052325e-01 -8.493540057823174561e-01 -5.110931740692628011e-01 7.444836181513614370e-01 4.295671189977930404e-01
1.437736615852340180e-02 7.769669590287087146e-02 -8.449487372932188434e-01 -9.890905534548397604e-01 1.458924607728323275e-01 -2.037809991256691461e-02
9.415158866129910709e-02 6.625154932598667501e-02 -8.289363248269052686e-01 -2.318345962588824472e-01 3.849091107745999940e-01 8.933631380464426286e-01
-1.445300221468538661e-03 -1.176486394820451253e-01 -8.061904138372464335e-01 1.752784947234331536e-01 -5.668657523784321160e-03 -9.845025726778805497e-01
9.255621059453263133e-02 -2.140073336332406345e-02 -7.994522005848424540e-01 1.560636912606656324e-01 -1.717401030887748536e-01 -9.727021441639533972e-01
4.109186619897257919e-02 -1.926213862135921773e-01 -8.008413470279027724e-01 -2.744248970913366059e-01 3.508365681534899028e-01 -8.953237840595383856e-01
-2.076412171401702603e-02 -2.805109015977317322e-01 -8.303121342034484043e-01 -9.986152234012188877e-01 5.017184168841456321e-02 -1.582472410270217497e-02
5.887088039354135272e-02 2.037437966699035263e-01 -8.875441866143132241e-01 1.751727383187978715e-01 -5.312371009787305587e-01 -8.289159512843313760e-01
2.302758960344941392e-03 -1.249368923585820884e-01 -8.130375187010995264e-01 -1.961344361701573002e-01 3.225936818516523391e-02 9.800462316199721746e-01
-7.432118752461723543e-02 -1.011013430890218834e-01 -8.271444449408514865e-01 -3.771301175708735021e-01 -1.120250148733395595e-01 9.193602506436784338e-01
-3.667629496978856880e-03 1.960424191168477770e-01 -8.922220793742827727e-01 1.384774480582842970e-01 -4.654663914682851122e-01 -8.741653360736505451e-01
-4.542996032866892381e-02 1.689914277705301393e-01 -8.909352872854476857e-01 7.989221206188161784e-01 3.521731147374554949e-01 4.875423493831618771e-01
-1.632728386219431047e-02 -2.570782002111245829e-03 -8.298832290418601820e-01 -1.554314148265761308e-01 2.097690853949728818e-01 9.653175674862473077e-01
1.057157195143682005e-01 3.949744767164593828e-02 -8.113960446564814077e-01 1.402220859943726083e-01 -2.542421498268256919e-01 -9.569214679642319421e-01
4.828985935911223049e-02 5.030824268961694296e-02 -8.242402225299272356e-01 2.933222411198270763e-01 -4.000634680018284040e-01 -8.682806484281404558e-01
1.874109025651893648e-02 1.775977011885574719e-01 -8.787771858011758086e-01 6.873610824942864017e-01 -4.356366568782287785e-01 -5.811673127905968572e-01
1.058605587735672454e-01 -8.508229998756446436e-03 -8.074795691531452269e-01 -1.832619429103944930e-01 1.974640873662968921e-01 9.630280341097567920e-01
-2.655610733700612333e-02 -3.714865989051848727e-01 -8.508755584796717786e-01 -4.383610488180611497e-01 3.046802513611643892e-01 -8.455823645923719045e-01
-8.135306138398795683e-02 -1.408824940380799806e-01 -8.243495305269886719e-01 6.898809583335727691e-01 4.051053518436096290e-01 -5.999615964679879676e-01
8.887524580169373078e-02 1.066098689015781836e-01 -8.435255478591925371e-01 -3.248347014706173264e-01 4.847436732340557608e-01 8.120997401674560079e-01
6.173880873062734947e-02 2.273568134002049712e-01 -9.075255757436979653e-01 -5.807901495765162014e-01 7.581815659325598089e-01 2.963840671070891442e-01
-3.402779919286461757e-02 -4.242348230655123564e-01 -8.733611520777423420e-01 2.525594874739695017e-01 9.028118700356373427e-01 -3.480580879819360485e-01
-2.267707241458059506e-02 -1.657675915310707904e-01 -8.079703353416556322e-01 2.721632844219356584e-01 4.557481123120483979e-02 -9.611712038934087099e-01
8.351487627539427860e-03 1.179147089040156748e-01 -8.638846227157076507e-01 9.365882045011354462e-01 -2.722141377938116710e-02 3.493730525114830399e-01
4.506746084352193649e-02 2.713316888401961502e-01 -9.426183172151824108e-01 -6.409852798699174070e-02 5.789220985719589763e-01 8.128595096909058126e-01
-6.757769788458410642e-02 1.480172000195135729e-01 -8.850933979946874475e-01 2.098819215499388990e-01 3.430610665750629673e-01 9.155646801875252372e-01
9.494837613724411984e-02 7.913263250610744204e-02 -8.256117456061663473e-01 1.326789248802470733e-01 -3.091907760422305529e-01 -9.416991913042216389e-01
-6.704560570280664045e-02 1.582960071860721185e-01 -8.841523048340232949e-01 9.754397414063653571e-01 -2.144019773202469059e-01 5.048864234906261933e-02
-2.558428101986085987e-02 -1.906791286379603267e-01 -8.101063897235248890e-01 2.762780132059740601e-01 8.414913391020019395e-02 -9.573867466604720766e-01
3.341517813120865182e-02 1.164992768347058311e-01 -8.572147093134531159e-01 -2.256438741357708333e-01 4.599877852678195267e-01 8.587759192416885012e-01
1.416836164624435271e-03 -6.074234402503798924e-03 -8.290737618400897402e-01 -7.168802561252430872e-01 2.232366755714234874e-01 6.604907910467978649e-01
-2.575477200263782962e-02 -4.003852934785828710e-01 -8.632721918672794370e-01 -9.267935918011599439e-01 1.534356576088847790e-01 -3.427989748678285653e-01
-7.717608462098655975e-02 7.937826593895736665e-03 -8.353151368620995720e-01 2.811176678970114251e-01 -1.207809481912197475e-01 -9.520424461914371861e-01
4.055779580789033167e-02 2.274140657727445058e-01 -9.145975446322521796e-01 -9.845672181975021475e-01 1.726315497425675027e-01 -2.873570747887627466e-02
-1.292703982454521464e-02 1.879404918572638861e-01 -8.947610010456461538e-01 4.202535256359328231e-01 6.882458815623418991e-01 5.913582507271231137e-01
1.915372946159967296e-02 2.594387907908747293e-01 -9.355324180576477522e-01 -8.475928936337649988e-01 -2.014361693693854927e-01 4.909274450785263699e-01
-2.581544492366114746e-03 3.626678724254678993e-02 -8.357704309920727104e-01 1.098749339433682283e-02 3.486584215676376552e-01 9.371854565980379803e-01
-2.213521782080731665e-02 -3.139422353092630735e-01 -8.410680665603279538e-01 -9.989590155792635873e-01 4.313397985452713246e-02 -1.484402151770403307e-02
5.222376135392898383e-02 1.950949646502970203e-01 -8.923335890055857922e-01 -1.312769240392544501e-01 4.798687828684208290e-01 8.674631522106122095e-01
8.145091146439513430e-02 -7.857966412928084343e-02 -8.004898610018157390e-01 6.163786500841053617e-02 -1.555319859530208404e-01 9.859059665823683982e-01
-3.370226903352998779e-03 -1.886403092396964076e-01 -8.083234357494017974e-01 6.971023602882453485e-02 1.875052935155036571e-01 -9.797868379889937973e-01
6.073887569115192508e-02 7.981446828897366397e-02 -8.366089082803559451e-01 -4.813238922091345739e-01 6.877914832835054781e-01 5.433876942950814914e-01
1.130275064162520292e-02 6.199842882039966613e-02 -8.415735127093921797e-01 -1.531785631732796304e-01 2.757313720798843515e-01 9.489512833834590211e-01
-1.109523799516814180e-01 -9.681066662033928003e-03 -8.449709718131017677e-01 -1.851820923315672385e-02 2.374497527447870238e-01 9.712232960798646841e-01
-1.052692277634970086e-01 -3.454363277095326423e-02 -8.344176614351677124e-01 6.765507574110851685e-01 2.574924732965848673e-01 -6.899106455491857970e-01
-4.831603560183472812e-02 -2.174177051020090845e-01 -8.200603103513326442e-01 2.038118306221220755e-01 1.145747902559367815e-01 -9.722825490238252710e-01
1.535220907600634219e-02 5.159057896013485162e-02 -8.377662525590935383e-01 -1.713560071559337150e-01 2.853062433518540608e-01 9.429938845591883112e-01
-3.125012349551063023e-02 -2.462819035731840800e-01 -8.188049661596160655e-01 7.648279742800494496e-01 7.523014289598363435e-02 -6.398270042429642368e-01
1.205676043809980440e-02 1.289339200498430260e-01 -8.563143537468100863e-01 2.283339591297077475e-01 -3.424346098194173682e-01 -9.113737658644647244e-01
-3.335948699388303906e-02 -2.614496410262058257e-01 -8.257862443598339430e-01 9.982305336109414950e-01 -5.745616015232678925e-02 1.531637774950427890e-02
-1.986530825363768196e-02 -1.727546432543767552e-01 -8.142318508060203408e-01 4.561873679673608128e-01 -5.659783631514428981e-01 6.867034132370578581e-01
3.603203928090786129e-02 2.620611331496499607e-01 -9.252783901550850620e-01 1.771740873152642948e-01 -5.859657827440207800e-01 -7.907296910052070693e-01
4.305538913527357653e-02 -8.041953397978304774e-02 -8.079537825132466766e-01 -1.939668195919580507e-01 1.094690800269380454e-01 9.748812201573259228e-01
7.893459756801567140e-02 1.679776598874460070e-01 -8.739896797563785347e-01 -1.223775072488079846e-01 4.354626821508471024e-01 8.918497621088196103e-01
3.237100395428682553e-02 2.086143411688905491e-01 -8.951972200883618891e-01 2.246338362194679611e-02 -3.929371021610983949e-01 -9.192909387900500828e-01
-3.398494052750371253e-02 3.248703053230141136e-02 -8.410121613803850371e-01 -1.413709676484835864e-01 2.557298971055657066e-01 9.563558277296729804e-01
1.214708824230291764e-02 1.694158781417255955e-01 -8.761378039921322580e-01 1.854787602161181714e-01 -4.313305701168636541e-01 -8.829221759540039072e-01
4.828774383608612497e-02 -5.400887000440007107e-02 -8.090156797475925865e-01 1.696870211046524329e-02 -7.469911874136656027e-02 9.970617357054425423e-01
-2.517869703775485121e-02 1.427115563553442712e-01 -8.769674489401995121e-01 -4.061207330214442607e-02 4.627340046301630094e-01 8.855664291632975305e-01
6.222642636193673714e-03 1.601007654182559359e-01 -8.769845903208528526e-01 5.191197167726308015e-01 6.659697408392081242e-01 5.357228984694059060e-01
6.103474810845150797e-03 -5.843204464239643708e-02 -8.170931027018203396e-01 -1.945956820988538061e-01 1.270904562201001509e-01 9.726153075323502595e-01
1.763302808163840288e-02 1.031323703283091031e-01 -8.512971695679317774e-01 -9.357948177319749261e-01 2.635214904284497589e-02 -3.515588476298148746e-01
3.865523313464750560e-02 1.388912563664867761e-01 -8.577308883779379833e-01 1.613514146498525037e-01 -4.308234546779455276e-01 -8.878946288213774851e-01
-5.630949019190121391e-02 -2.014152470993756106e-01 -8.203447756046129413e-01 4.071842809053707879e-02 -2.986915547062539422e-02 -9.987241076319863797e-01
9.220924515348191686e-02 3.728884681896180164e-02 -8.130709949520618096e-01 1.809196382460061536e-01 -2.940548418893750848e-01 -9.385093683380837382e-01
2.137792638211698237e-03 7.427474739752344679e-02 -8.402079390205859921e-01 -2.784230532534183802e-03 -3.872296996214152354e-01 -9.219790712328832516e-01
-4.023428109190624324e-02 -2.424404534193327077e-01 -8.295343535647017319e-01 -1.870059301986046751e-01 -1.370211820431183058e-01 9.727558674930011362e-01
1.175627710866766484e-01 1.026669065870914610e-01 -8.384845558774919327e-01 -5.872452362709835727e-01 2.024705592430326162e-01 7.836764033176260025e-01
-1.793512769326859740e-02 8.734705913271210986e-03 -8.247268460379396648e-01 1.451909090298239835e-01 -2.275345852576495242e-01 -9.628850463304136076e-01
2.216373921903475042e-02 -1.063986477064465946e-01 -8.027526984915049901e-01 6.551657731224244663e-02 6.754950824016428546e-02 -9.955624752037417480e-01
-3.557273122387465819e-02 -3.273546631619838054e-01 -8.456737208993246879e-01 9.255466379348518124e-01 -1.367494538457582343e-01 3.530764901269685119e-01
9.841678062485260947e-02 -6.217096356994750161e-02 -7.934142583244846447e-01 -3.436672662527802680e-01 -1.510706170237431090e-01 -9.268605498015364264e-01
6.800181962174448036e-02 1.474576225530110085e-01 -8.654838060616124595e-01 -1.511260720755426279e-01 4.346336632685913748e-01 8.878369721366318190e-01
-8.632131495484069925e-03 -2.175014395553331314e-01 -8.160777566026833352e-01 4.203161620615474270e-01 -6.317481633898014426e-01 6.513283211740940049e-01
-3.140299046292445440e-02 -2.909604976390617326e-01 -8.395456358697998001e-01 4.382800859733242960e-01 -2.148589038102165227e-01 8.727807386123318523e-01
-3.099439754386480034e-02 2.270131691005561683e-02 -8.380137809377947722e-01 -1.485590333230646376e-01 2.336916747363809166e-01 9.608945908771793221e-01
-1.916348164388996522e-02 2.028479492443961696e-01 -9.056595520384983500e-01 2.518337673189570761e-02 5.474568932678151034e-01 8.364548688063996318e-01
2.568093708303765058e-02 2.744780878215997699e-01 -9.455861800017085761e-01 5.034581767257476637e-01 3.804484964568267680e-01 7.757504791050572335e-01
-2.003808840182790332e-02 -1.929510516003196119e-01 -8.094093249122488176e-01 -4.417443941386272610e-01 1.263608823023699146e-01 -8.881975105070177845e-01
7.714605491448509045e-02 5.980875404770048809e-02 -8.300982001020335010e-01 -1.651088153569081618e-01 3.042549182683831344e-01 9.381727046769895439e-01
3.223014235860358762e-02 1.119449494429735209e-01 -8.550866350782075909e-01 -2.256438741357708333e-01 4.599877852678195267e-01 8.587759192416885012e-01
-8.744147846056596340e-02 -1.601969973119019841e-01 -8.231949533658404761e-01 1.888678631646089068e-01 4.195579839811070660e-02 -9.811058257111775482e-01
7.560645452604533578e-02 5.357004264582973518e-02 -8.209062618579444637e-01 6.340737167644440453e-02 -1.867626984498026999e-01 -9.803566696283722015e-01
4.155466963494489768e-02 1.774676758833870771e-01 -8.842747933291449369e-01 -1.445154194171184570e-01 4.729842386439557234e-01 8.691381958843437117e-01
9.783852869275961109e-03 -1.619549858430894274e-01 -8.118923110402349597e-01 -1.805979093700720850e-01 -3.876545977052029551e-02 9.827927727959436810e-01
-8.578033422035274969e-02 -4.689710239176857892e-02 -8.349156859252504503e-01 -6.734348265507908438e-02 1.880685464267156382e-01 9.798444147867696463e-01
1.855735842665643537e-02 1.850699755491969911e-01 -8.849967002833386553e-01 9.846360968475200703e-01 -1.721406963772830756e-01 2.931445779176307734e-02
7.607084559909219057e-02 -1.150438075523845666e-01 -7.972652352297403544e-01 -7.266636600973975790e-01 5.273199841333104931e-01 4.403334638969641501e-01
9.153229992755656033e-03 1.583500766226032253e-01 -8.733902867072202980e-01 7.072579974573631745e-01 6.340211506410625697e-02 -7.041067368219100508e-01
7.084560872270269372e-02 2.405457734087978749e-01 -9.125532724777005722e-01 -9.081396206812130112e-01 3.893312321135091944e-03 -4.186493418938488920e-01
-8.951668888172066574e-02 1.197225047187501223e-01 -8.778010199900260213e-01 -1.335078774173037164e-01 3.434742801741819673e-01 9.296241528307844781e-01
-3.711799452537108135e-02 4.729866791554780681e-02 -8.453159113697141791e-01 -1.708305242285972081e-01 2.528604589728338237e-01 9.523016960395640496e-01
7.919182420926139387e-02 -1.239216288157042080e-03 -8.129675070077839738e-01 -2.448286221239817650e-01 2.900501928319942913e-01 9.251647590710507796e-01
2.964444266898683469e-02 1.365994572842227084e-01 -8.654810331276732160e-01 1.499237384851154903e-02 2.372375785067461218e-01 9.713359666308264417e-01
7.572958723393577452e-02 -7.973673663191054028e-02 -7.980121697713770113e-01 6.859301209089085916e-01 -7.007839702351288391e-01 -1.959635075502067503e-01
-1.579631465737715845e-02 -9.484095972604580926e-02 -8.209828252654852720e-01 -1.042785041949570307e-01 5.750952285343120807e-02 9.928840054830337936e-01
4.154115250480506887e-03 1.898082195593150988e-03 -8.195032907586966564e-01 1.822627476995408446e-01 -2.087032629442697740e-01 -9.608450649493021078e-01
-9.158596733922357014e-02 9.170711595057801091e-02 -8.612123239286549881e-01 2.812829990497729971e-01 -2.608962976240482012e-01 -9.234787470925517328e-01
-2.525909420598503041e-02 -1.955869145995617897e-01 -8.130419601755712877e-01 1.410459927332138874e-01 5.793896756227497058e-02 -9.883061792641589793e-01
3.745640589662072722e-02 2.191549593368516680e-01 -9.019165106671370724e-01 -9.415010664741323421e-01 2.847770486591638846e-03 -3.369979703667767557e-01
-2.407092054550676388e-02 -2.149555741497890249e-01 -8.154471586941042238e-01 -2.171905746385097841e-02 2.537038789458628263e-01 -9.670380676843620682e-01
8.251754744375236483e-02 -1.064248027382231065e-01 -7.950855127086984275e-01 -8.503407520117548524e-01 4.849075752439854226e-01 2.044144049206949032e-01
-6.581303010944321297e-02 -7.364489449667650789e-02 -8.285317006166109666e-01 -1.621532218088886923e-01 1.066092890805832444e-01 9.809897003224498091e-01
2.631238214089341373e-02 -2.838150721638508719e-03 -8.201437054200033661e-01 -6.142667987124021955e-01 6.499141010527840212e-01 4.475354301643263422e-01
-4.456998980566442142e-02 1.692579299378277613e-01 -8.855133490073936464e-01 3.156298263636233004e-01 -3.714315279645487577e-01 -8.731646080456934023e-01
-3.313038889975433721e-02 -2.432877715275484631e-01 -8.282833051665673407e-01 -1.872017489948977764e-01 -1.581748470666357875e-01 9.695030804121756995e-01
2.398239485051608874e-02 -5.226579552987703492e-02 -8.140456644101268235e-01 -2.998316843893010786e-01 2.631552304443174894e-01 9.169788905564145720e-01
-2.082591712216407334e-02 -2.000971519589529735e-01 -8.237616730821918365e-01 -2.777352254086145056e-01 -8.259116082651611623e-02 9.571007495141536925e-01
-9.262161613103701840e-02 1.260097046648076258e-01 -8.738119569733256986e-01 5.286977954318964334e-01 -5.197571336650899099e-01 -6.710671822624783012e-01
2.930408761217302704e-02 2.207047894056207438e-01 -9.105277480108207033e-01 -1.120500366483202642e-01 5.213192729641870082e-01 8.459734067470451313e-01
5.391233288641442134e-02 -1.579672761964935890e-01 -8.012897359574390199e-01 5.689776342482780747e-01 -6.815541034687381261e-01 4.601613366746031275e-01
-2.806283747252788421e-03 5.694675424578500567e-02 -8.424520311714205345e-01 -1.371488491774995877e-01 2.989206979751208304e-01 9.443710126276400052e-01
8.656463486372287588e-03 1.654476896089821236e-01 -8.822929512746768843e-01 2.329536822913094718e-02 5.101442294256807175e-01 8.597733369922258007e-01
-1.057257708926425954e-01 7.141316837190257207e-03 -8.397437622362409204e-01 1.726044606167936313e-01 -1.989080789498862689e-01 -9.646985416717761552e-01
-2.808012659406091197e-02 -1.788482524000430118e-01 -8.160762015471382247e-01 9.968640880053980524e-01 -7.802869537355948404e-02 1.317242359881323419e-02
-1.088498888796273073e-01 -2.787421318433642298e-02 -8.354397845896501806e-01 6.765507574110851685e-01 2.574924732965848673e-01 -6.899106455491857970e-01
-9.176408457060993007e-02 -5.728811000622552330e-02 -8.316001639462544670e-01 3.563486479801124540e-01 4.583422595499662133e-01 8.142100553256372830e-01
7.491671456048443201e-02 1.006925226121274664e-01 -8.443145697266681848e-01 -2.176079751194393008e-01 4.330229657927555098e-01 8.747216015741600126e-01
5.493346734114865071e-02 2.029660941643776084e-01 -8.876674297252697965e-01 1.026423613140099583e-01 -4.972266323725377801e-01 -8.615278415253619926e-01
-8.554795954741926944e-02 -1.542195570123374923e-02 -8.387636250878376387e-01 -4.136848772266679131e-01 -1.882134191186997027e-02 9.102255651444828288e-01
-2.885153393438474878e-02 6.711650148579885455e-02 -8.455378247225698862e-01 6.803215704294037769e-01 1.895562890782236665e-01 -7.079766762255396140e-01
-7.605666086746694365e-02 -1.475730950539623498e-01 -8.229566840635612612e-01 6.758212611745304521e-01 4.082916718544301049e-01 -6.136477276408522918e-01
2.916534219583702750e-02 -9.327273951167246169e-02 -8.095042704655410759e-01 -1.956265969125335069e-01 8.142812564480159110e-02 9.772920213193165839e-01
-2.157115927307457978e-02 -2.392561804194308916e-01 -8.247207574577947176e-01 -5.630369897904807797e-02 -2.752753895321136679e-01 9.597152459970715865e-01
-7.029341908701798591e-02 1.086981472728824200e-01 -8.664712129009910502e-01 -7.037926514853550808e-01 -6.484770890520866748e-01 -2.900920003890935517e-01
5.798921808117508264e-02 -4.467269497281244756e-02 -8.085419043685069251e-01 2.940551820427148369e-02 -6.791128916000475912e-02 9.972579266688054167e-01
-2.106381627190510863e-02 1.290650973105851029e-01 -8.697407641949319590e-01 -4.180789572016201106e-02 4.561272170923607039e-01 8.889319780967664952e-01
3.727896289598832402e-02 2.366639720162168684e-02 -8.188097329934324042e-01 1.538287564856317957e-01 -2.348316487953492626e-01 -9.597868567563018205e-01
-2.115717528136453612e-02 2.243431987839749064e-01 -9.109805064599028057e-01 1.358628983096597798e-01 -5.114407492673631594e-01 -8.485102432214575163e-01
-8.582447996177940130e-02 -9.677489352871906925e-02 -8.231214169908710465e-01 1.629838887476037224e-01 -6.031261069822163590e-02 -9.847835503294486426e-01
-5.556783064836431918e-02 1.079987615230703496e-01 -8.614439892592474779e-01 6.389293393011219457e-01 5.160948630577517904e-02 -7.675322535916558886e-01
1.996805189907180020e-02 5.338173857941735934e-02 -8.374667127562959168e-01 -2.838010338639576080e-01 3.922571362818079721e-01 8.749807496246669869e-01
-2.963483605903639850e-02 1.577643322870585785e-01 -8.767330874287673215e-01 1.450100780188861294e-01 -4.161016969666158638e-01 -8.976811544498742856e-01
5.676992394525625513e-02 -1.463776778241043103e-02 -8.072290674132375221e-01 6.617821010852491248e-02 -7.839556582627278669e-02 -9.947233684626145545e-01
-9.364737175335058686e-03 1.255752670582054309e-01 -8.598352748798584466e-01 2.440484505793616699e-01 -2.905899707784518893e-01 -9.252015038102733291e-01
-5.012472731251799152e-02 -1.843385257550301526e-01 -8.192191594563902335e-01 7.307080402636372263e-01 4.773535016201441161e-01 -4.880567532419380350e-01
7.220528716537620573e-02 7.419686486030890871e-02 -8.343864345811508043e-01 3.762205901409635539e-02 1.115799032735942664e-01 9.930430533773423329e-01
9.105775815649208571e-02 -1.408970735955795972e-02 -8.081146420639500061e-01 8.231547217845863740e-02 -7.780286688334431267e-02 9.935647321361452677e-01
1.752096454401734851e-02 1.641405416671814499e-01 -8.844720959208492994e-01 5.015985776706103350e-01 3.246695293537398275e-01 8.018656767738855384e-01
4.700529397320010044e-02 9.512221064454992603e-02 -8.469324044255748252e-01 -1.275236240979367164e-01 3.147598050051477747e-01 9.405657820961005333e-01
-6.156713870705895347e-02 -5.514562855020896381e-02 -8.295446311870878775e-01 -3.671045371864088969e-01 -2.194198205180649189e-02 9.299208612569086485e-01
-2.064589984714547063e-02 1.527078960785049622e-01 -8.812552254450785050e-01 -1.262027207438033705e-01 4.326224398568884744e-01 8.926985481164034786e-01
8.683386794669199771e-02 2.196129098918863654e-01 -8.992779669765240680e-01 -9.995750283769364586e-01 1.862073666099541697e-02 -2.242834838878626780e-02
7.605818415884386952e-02 1.191013349847292180e-01 -8.435634833734171334e-01 1.233392421816877221e-01 -3.662556357271349872e-01 -9.223037680917058889e-01
3.292645463562121622e-02 -9.207239989426091453e-02 -8.088514131740673907e-01 -1.956265969125335069e-01 8.142812564480159110e-02 9.772920213193165839e-01
3.482972816709892228e-02 6.750309612001935411e-02 -8.393458095436326927e-01 -2.749034984170832252e-01 4.069657402011414016e-01 8.710952604971431423e-01
-5.327073966631007407e-02 1.343126032642439072e-01 -8.699506900563384049e-01 1.632022938058891870e-01 -3.698390089408881143e-01 -9.146497246280228532e-01
8.790065684415279451e-05 -1.885716756370254821e-01 -8.146902496947210359e-01 -3.148328701320643463e-01 5.372389039434800895e-02 9.476254573856184305e-01
-1.355425945711347287e-02 4.714699003486313988e-02 -8.390856460944220441e-01 4.974466552967410360e-01 5.842063535872062952e-01 6.412875810137176336e-01
2.723479224993423028e-02 8.257698055427926953e-02 -8.451499573245623287e-01 -1.812438634573937737e-02 1.683421713052491164e-01 9.855619818052158143e-01
1.737382437502064600e-02 9.995839073285330001e-02 -8.463901819058977649e-01 6.632128232367334730e-02 -2.447920623083931768e-01 -9.673046747234025355e-01
3.059602473104994225e-02 -7.882878720128824734e-02 -8.027500352080414459e-01 2.016722395864493644e-01 -1.083757377648875975e-01 -9.734387537200798191e-01
-7.041297873511816012e-03 1.929610506888822241e-01 -8.915084760558709132e-01 2.426562946271088594e-01 -4.036393516636748724e-01 -8.821525925067441598e-01
5.520059425170156797e-02 -6.438080135004174698e-02 -8.074527499057246871e-01 -1.905543577202339633e-01 1.252865103157585203e-01 9.736489752917776297e-01
5.482676551790834074e-02 1.952348102663925833e-01 -8.920170258943764807e-01 -1.312769240392544501e-01 4.798687828684208290e-01 8.674631522106122095e-01
-6.293217131781977947e-02 1.166528121585127115e-01 -8.695524070125577598e-01 5.422709306960046272e-01 5.463494951119853837e-01 6.383137683874349211e-01
-6.201507193695555281e-02 -8.695082173592380559e-02 -8.263049408244813598e-01 -3.727421877093756164e-02 1.639221186536015673e-01 9.857688226106214868e-01
7.661335454799657330e-02 -3.189792922155716692e-02 -8.005240262718371635e-01 1.897274855874249155e-01 -1.805802642599138030e-01 -9.650876899911703388e-01
-2.005438688541893305e-02 5.048196436874013981e-03 -8.321326373549688959e-01 -1.529744046974317595e-01 2.096890135788922194e-01 9.657273678900156755e-01
5.804794938600955911e-02 -8.118990596421669925e-02 -8.002472867521340794e-01 -2.391120920256976090e-01 3.714696861605885636e-01 -8.971263454557826256e-01
-1.451463710645066636e-02 -1.149806021191972921e-01 -8.199990492411628473e-01 -2.748536731242047226e-01 3.176569573875712843e-02 9.609611849311946452e-01
2.001488952203465607e-02 1.195669208071536982e-01 -8.645582883769363791e-01 -7.240140608916660891e-01 3.175517279847605567e-01 6.123434817853879997e-01
7.607574069566053199e-02 -2.801128981719189920e-02 -8.016166659240503423e-01 4.039521425985193037e-01 -3.988888155029312599e-01 -8.232316680963713829e-01
2.026587284746995347e-03 -1.627361113847396179e-01 -8.133485963094917448e-01 -1.805979093700720850e-01 -3.876545977052029551e-02 9.827927727959436810e-01
1.026191900905203472e-02 -4.212447799796342459e-04 -8.179614589807401304e-01 1.560660732942182327e-01 -1.835281246362567287e-01 -9.705466543314763550e-01
6.261178276206844084e-02 -1.032153112522168383e-02 -8.071636201619465378e-01 7.679647454053815936e-02 -8.157603337553819001e-02 -9.937040063705376847e-01
-1.357311073294960833e-02 1.977336290767992000e-01 -9.022973454054512565e-01 -1.372940107120175501e-02 5.415915242429707455e-01 8.405296689673730226e-01
-2.697311805350816050e-02 -1.136427288996793988e-01 -8.188898507012463135e-01 -2.039527376403805770e-01 3.075954980798501284e-02 9.784973842093825924e-01
-7.983225344237296350e-02 -1.881485367208653725e-01 -8.234366328439751692e-01 1.450489252841452859e-01 4.952361809659350245e-02 -9.881843049373620902e-01
1.680714320543246626e-02 2.615575912498529498e-01 -9.378561716682676241e-01 -4.451795254848828765e-01 3.706175672164384594e-01 8.151428150696191643e-01
-3.074555580025279539e-02 -3.389565062621918146e-01 -8.392713766682229348e-01 1.030999604840133338e-01 2.896164124333346357e-01 -9.515738183648390081e-01
-1.349186982796312349e-02 1.231039952267782567e-01 -8.664592575921001849e-01 -3.256384587791202184e-02 4.425553253435571821e-01 8.961497530835446090e-01
3.777259985036434536e-02 1.208465743366162332e-01 -8.507652799760225815e-01 6.696081988881007196e-02 -2.746711927008029797e-01 -9.592038284432234940e-01
-6.615457323507173415e-02 1.333105765719273528e-01 -8.788547069944279144e-01 8.184454252785347550e-02 4.481864240983986503e-01 8.901855986884401606e-01
-8.686257625512294744e-02 -4.139520025833426375e-02 -8.358837628123486629e-01 -1.659095514554141393e-01 1.479176286145063579e-01 9.749843054536437847e-01
-8.886558504868485864e-02 2.035109530115707457e-02 -8.402740275644398071e-01 2.643628193997390463e-01 -1.522908880607522220e-01 -9.523233616438738780e-01
4.075259377789122728e-02 -1.786201409792852468e-01 -7.988870811567646557e-01 1.951538377277619030e-01 4.139073897706396776e-02 -9.798988653667576321e-01
-2.661748999939040836e-02 -1.988712670804383131e-01 -8.213093665005518629e-01 -1.695317565147811123e-01 -7.852179405550101243e-02 9.823916283190317067e-01
-1.073182010471353948e-01 -9.449657297798405575e-02 -8.335460990292218320e-01 5.287375951702503185e-01 3.840248701729872538e-01 7.569421738430227586e-01
1.178507143898277071e-01 1.074052114576993511e-01 -8.335838675624714922e-01 -3.260228982250925056e-01 -4.429245000833829105e-01 -8.351807930375293454e-01
-4.211372795547588255e-02 -1.087375956243343406e-01 -8.219184467099298619e-01 -1.683788352415648837e-01 5.318440509860579424e-02 9.842865369885952509e-01
3.100219804862363801e-02 2.797277550462193285e-01 -9.505624003355899188e-01 -5.757312662107431922e-02 5.492113584542772653e-01 8.336979182149137912e-01
6.259653676207518891e-02 2.481865551061487873e-01 -9.146944869103790232e-01 9.194045459499637640e-02 -5.367988611049173686e-01 -8.386858383955991814e-01
9.925854932560346233e-02 -1.922727144575480870e-02 -8.065501130430139387e-01 -1.783394029773047451e-01 1.924600588428712344e-01 9.649633066059544184e-01
-2.140190409221487747e-02 -2.032557749184226714e-01 -8.130859175555051888e-01 1.721393526243068239e-01 1.120591449717350807e-01 -9.786780835935218192e-01
-2.849319418902509712e-02 1.522465242123056672e-01 -8.742297344741186693e-01 2.383650798200806498e-01 -3.359012681914454457e-01 -9.112367566937503716e-01
-2.395759022310906677e-02 -3.818346590434616994e-01 -8.607227727236844705e-01 -9.994577273178532062e-01 2.380240680858065894e-02 -2.275295002303542174e-02
-6.070689803478559327e-02 -1.624718599003358854e-01 -8.186934406920245433e-01 3.264569562580700302e-01 1.321082470588327007e-01 -9.359344350806626522e-01
-1.925591020676692281e-03 -1.146173036951003976e-01 -8.141481535424522908e-01 -1.678973599417699913e-01 2.751845637954037152e-02 9.854203220367798721e-01
3.682937286966921769e-02 1.849252739172142501e-01 -8.803705656901800181e-01 1.275337409550640622e-01 -4.746806750102869343e-01 -8.708693367490814019e-01
-2.229187277842588702e-02 -2.407695140391770960e-01 -8.288998201986895742e-01 -2.701372790595255591e-01 -1.623705337295404671e-01 9.490319595454623780e-01
1.178321108647989723e-01 1.082781331555343896e-01 -8.397324429844297278e-01 -5.872452362709835727e-01 2.024705592430326162e-01 7.836764033176260025e-01
2.933297414155381852e-02 2.125492401980406676e-01 -9.111174997060678127e-01 -4.893643010270352922e-02 4.717891223575313431e-01 8.803523441406364558e-01
2.782775717215794919e-02 -1.865914722652789459e-01 -8.087795060698297345e-01 -8.441032660924658107e-03 -2.444923091181235575e-01 9.696144902742043215e-01
-2.124753213532680138e-02 -9.938988823685250551e-02 -8.139389492058702880e-01 9.951460187929841439e-01 -9.803102440830428754e-02 8.620877793601499500e-03
3.109413694830878011e-02 2.727229123521408560e-01 -9.360697453555212322e-01 2.634923588703254049e-01 -4.727485603472571518e-01 -8.408808331187882512e-01
1.252733911377203711e-02 1.253488404176097970e-01 -8.635821001540805453e-01 -3.096208473672638628e-01 2.792229311634633615e-01 9.089386588698168401e-01
4.681704010912639963e-02 -8.611059993047394390e-02 -8.060039054422815097e-01 -2.836962624386815679e-01 2.009877010951224285e-01 9.376141928782970592e-01
-1.568647099290273322e-02 -6.731084759272332185e-02 -8.216187537460926116e-01 4.578198841205272096e-01 2.667345517886782549e-02 8.886447436927132904e-01
2.481463451511849551e-04 5.806649421421124224e-02 -8.451727015461731884e-01 4.916147724775591921e-01 2.082190232171570177e-01 8.455529278834831297e-01
-7.260696786858224228e-02 -1.486449398365942811e-03 -8.393078399672849743e-01 -5.434634980693502093e-02 2.652236029552118568e-01 9.626540991956136217e-01
-7.168916029427641751e-04 1.488268553894859514e-01 -8.692823342551496690e-01 -3.318756273037816451e-02 -5.129962587028696896e-01 -8.577490450224212193e-01
-2.395136597284346774e-02 1.591171360839936932e-01 -8.764417707130796042e-01 1.450641663920635427e-01 -4.161070047392605442e-01 -8.976699550702900154e-01
9.082260451592259753e-02 9.199793837791755968e-02 -8.317708038870292864e-01 3.753336979643762672e-01 -5.469961066968227481e-01 -7.482779392918813555e-01
-4.335713790684631030e-02 -2.469534636519059995e-02 -8.229027155628181323e-01 1.569956595700650603e-01 -1.659267282166901059e-01 -9.735608269335124243e-01
-7.220318324564543866e-02 9.353704099379819836e-02 -8.573739678029420608e-01 1.392978890630220956e-01 -3.185792539717686722e-01 -9.376051178621933602e-01
5.248977919420394489e-02 -8.000613392069240437e-02 -7.994642093497739133e-01 8.369101089358846335e-02 8.660623774365196204e-03 -9.964541175043878374e-01
-2.565326674487250144e-02 -2.511421296657892488e-01 -8.279634465680619781e-01 -3.482265298468746884e-01 -1.691134627008453739e-01 9.220297829485408769e-01
5.327778734397982385e-02 1.001332924286863352e-01 -8.396671893320825086e-01 1.645104112630216830e-01 -3.509457598263209799e-01 -9.218315454821437438e-01
-4.681857458624241741e-02 1.429640599816184576e-01 -8.797187849007489513e-01 -3.960826754073416556e-01 2.049521144112049220e-01 8.950492416848018218e-01
7.810441848000941600e-03 -9.608695952604283386e-02 -8.127637122666985237e-01 -3.908313812520682745e-02 -8.504002054978465619e-02 9.956107187144874748e-01
3.354212316098643953e-02 -8.941563929452228665e-02 -8.013897663450189057e-01 1.635872998120042610e-01 -5.233969750902613127e-02 -9.851394578458834150e-01
2.535431852848587728e-02 1.792331966245158115e-01 -8.934843661212001908e-01 -4.884043958058280344e-02 4.717798648192574884e-01 8.803626358567807619e-01
