8.533668520540285685e-02 2.068365826492410131e-01 -9.266839352364075744e-01 -1.818587424245755868e-01 5.053024248182063083e-01 8.435620055909303083e-01
7.219996810095589967e-02 2.834974208867195311e-01 -9.711515504184415892e-01 -9.357307174796239968e-01 -3.523726955076736389e-01 -1.554052205443199643e-02
-2.908159256960846702e-03 4.885142991779002630e-02 -8.718057579947535718e-01 7.471997823064142619e-01 -3.192825897862948681e-01 -5.828817317266029585e-01
-1.245403381025307621e-02 1.386355410539764077e-01 -9.116630066241965258e-01 -6.583131258149738096e-02 4.304533623479721571e-01 9.002089430388496849e-01
2.430968270284568356e-02 -2.022342052090239373e-01 -8.552468685032074136e-01 -3.138359227982142063e-01 -5.682972194972978758e-02 9.477749713220485761e-01
2.417186371820062921e-02 5.227115185148546034e-02 -8.745414308647708745e-01 -3.085341860344010811e-01 3.729823062629715191e-01 8.750376307695826306e-01
5.602276879122619624e-02 2.543755397791395700e-01 -9.633318995448605371e-01 -7.069173073978212152e-01 5.048705599882122863e-01 4.953520345760206167e-01
-1.063475895853139841e-01 -1.169674118484930608e-02 -8.827326850921557444e-01 2.263828951381046395e-01 -1.350825103562915130e-01 -9.646260934604311554e-01
-1.603970800364582991e-02 -3.177510543956327260e-02 -8.614112181462947326e-01 9.884398555174779277e-01 -1.385326412373569238e-01 6.160648777839135976e-02
9.494435376730177290e-02 8.626024529918481509e-02 -8.705866361223136840e-01 5.137952968956572414e-03 8.819157776656562364e-02 9.960902805721640885e-01
1.175876527347258400e-02 -1.999290284034049570e-01 -8.507044682264753854e-01 3.650479716935254859e-01 -5.221318179181030916e-02 -9.295234058428105683e-01
-3.318388295732781906e-02 -3.460036838194219255e-01 -8.960000148807449882e-01 -9.037388998994057010e-01 1.758808186984942290e-01 -3.902844327187022788e-01
-2.245348823512149233e-02 -1.747692199695076443e-01 -8.679842934558621437e-01 -3.183428979668919134e-01 -6.613270425655945473e-02 9.456660429251732003e-01
3.549397755117474074e-02 -1.379227820573415142e-01 -8.407604010828909624e-01 2.253673825070211245e-01 3.691919741115488873e-02 -9.735740936181745964e-01
-5.937546046017559698e-03 -5.257536937530931515e-02 -8.575340756929377140e-01 -9.099247742311821208e-01 9.527189489668698441e-02 -4.036832561342208470e-01
5.895813199885703570e-02 1.601456453635351773e-01 -9.009267360553810944e-01 6.098144669092472325e-01 -7.925202239153812389e-01 6.165276417541830020e-03
-4.042029162737163957e-03 8.881231476612654052e-02 -8.897736939719772531e-01 -8.010130143671195802e-01 -2.610848769424611304e-01 5.387140594475333666e-01
-9.749714869747774923e-04 5.842763863862851514e-02 -8.780651042371749870e-01 9.827486392427805528e-01 -1.730585364213772237e-01 6.523691468910801372e-02
-3.118502681477544961e-02 -1.505943806823037689e-01 -8.601860719804458322e-01 7.697426999713504747e-01 4.353231367291660603e-01 -4.668939306406704182e-01
-1.780354625422807605e-02 1.766180713662511004e-01 -9.212445710473259330e-01 1.368706732370035539e-01 -4.321186104913850023e-01 -8.913696905743678789e-01
1.875455785015646762e-02 4.651744997375525242e-02 -8.740157058130917367e-01 -3.198632604153486270e-01 3.748622348173110130e-01 8.701527449501232914e-01
-9.279700794921233106e-03 2.222585982144879013e-01 -9.432953600600543220e-01 1.593074521892932083e-01 -4.798904303584004549e-01 -8.627434789828232198e-01
1.149322136846365333e-01 4.098975904965172778e-02 -8.451938684779034539e-01 2.045826625724113668e-01 -2.554886071399541381e-01 -9.449187826456139083e-01
-1.027982560816874044e-02 -1.620044016230015871e-01 -8.539280285027205375e-01 4.075669943586196498e-01 -1.031757200979750710e-01 -9.073278987729546108e-01
-4.468788347025595686e-02 -9.965767074386525093e-02 -8.683365715524842265e-01 -2.188076420642670605e-01 2.994140468901229299e-02 9.753085296763913670e-01
1.131072888636383729e-02 6.280591111050166930e-02 -8.857237026202253727e-01 -2.490555393148461694e-01 3.198705266563700023e-01 9.141412278817575565e-01
3.105422322289125292e-02 2.106451140545262390e-01 -9.368851187826907623e-01 2.626447760855016647e-02 5.577345083037094087e-01 8.296037581057413846e-01
7.427728383088405550e-02 1.433580159336851623e-01 -8.967250109994573393e-01 -2.422631764373866514e-01 4.729664639726519071e-01 8.471193996714240226e-01
4.669127254820214235e-02 1.578764252594308179e-02 -8.594336835591819268e-01 -5.978201946104159115e-01 6.578255407767338303e-01 4.581228796052016494e-01
3.065840907558991732e-02 1.088697375294892938e-01 -8.844710659343066883e-01 9.636974836349317119e-02 -2.153923059122214989e-01 -9.717607864871750101e-01
-7.306969199613475019e-02 -7.388357042792979140e-03 -8.770434276731896572e-01 3.284654662051394447e-01 -8.044332434219901573e-02 -9.410841137111051191e-01
4.844783917907001525e-02 1.764406637956129620e-01 -9.089896868569561361e-01 6.429718267740978932e-02 -3.330260179309836310e-01 -9.407228835745307105e-01
-3.896198283995246092e-02 -1.562692403800794161e-01 -8.650856969018483333e-01 -7.815703708635759472e-01 -4.704439637826383636e-01 4.096708829397716078e-01
1.295393498474982190e-02 2.137758475700441974e-01 -9.355939931438832513e-01 -2.789408571119230199e-02 -5.662320846547537201e-01 -8.237737227478602042e-01
4.066044628992812604e-02 2.333470989462307077e-01 -9.497437941870569000e-01 -1.722092272703163451e-01 4.969432514976523940e-01 8.505241835679344664e-01
-8.769673165407680659e-02 3.082262126480855152e-02 -8.938212008161897648e-01 -1.078279003230698530e-01 2.656264847106938332e-01 9.580269905029595856e-01
6.006787461194160876e-02 1.534012321881439989e-01 -8.959385935206934937e-01 1.875719921963114878e-01 -4.189563063978823942e-01 -8.884212745499460162e-01
9.694436516880748644e-02 2.726249424654534487e-02 -8.532891915079720002e-01 -2.212468050490825899e-01 2.439322950154333702e-01 9.442176055889218711e-01
9.565267384448571109e-02 5.804332800111375312e-02 -8.556165339156280858e-01 -2.481212560260351030e-01 2.324494553119575146e-01 -9.404270801254273060e-01
7.235850874010146816e-02 -9.700495035881595562e-02 -8.326153833124197989e-01 2.239861932037425230e-01 -3.739305529868006822e-02 -9.738747068640430937e-01
-1.069835225457007183e-01 4.617530321939346954e-02 -8.987128791795622185e-01 5.480967036700009620e-01 4.443208560294304443e-01 7.086388221960135958e-01
-7.649719222972764521e-02 1.089103751475544446e-01 -9.051818459160302366e-01 1.268659283871065580e-01 -3.415751101915224242e-01 -9.312526404322980511e-01
-8.685831141194819138e-02 4.544900105637191684e-02 -8.891733774736775286e-01 2.216736312000597564e-01 -2.158561901240077241e-01 -9.509294960278222852e-01
-2.428849968129114661e-02 4.178453435637965313e-02 -8.761524375215394844e-01 9.647213785702459660e-03 -3.449104851077410272e-01 -9.385860048652524545e-01
-7.793948151137056191e-02 1.126210941337391080e-01 -9.149574648342931882e-01 -1.867792116364453414e-01 3.247015041957055370e-01 9.271906272571537322e-01
-1.544252453114364730e-02 9.055932553990052314e-02 -8.867460964244746613e-01 1.649412649664918629e-01 -3.246909989973244537e-01 -9.313270823300336954e-01
9.560027415040488197e-02 6.826240742509910586e-02 -8.572541136787868998e-01 1.113955121372854906e-01 -1.911800027632875043e-01 -9.752134363405281503e-01
6.512177203619956556e-02 -9.988498082009139578e-02 -8.419808720855762596e-01 -2.105770357352132749e-01 2.578099394465944647e-02 9.772372549039440859e-01
-1.134524207131495759e-02 1.527783899198520146e-01 -9.175104292405809048e-01 -1.643164459242598685e-01 3.883542558813682377e-01 9.067420126682388393e-01
-3.270939071366982254e-02 -2.387824809747913224e-01 -8.648456937140993617e-01 1.873174624099401830e-01 1.623909291891678375e-01 -9.687834404000612576e-01
6.544289505648009583e-03 2.266107342152459680e-01 -9.441945015864225965e-01 -1.005870347187165087e-01 -5.942109331519096482e-01 -7.979947464546571778e-01
-8.871486169615364070e-02 -1.779153701565955037e-01 -8.813588700959404942e-01 2.027735187723391508e-01 9.579513622763548286e-02 9.745287024812622212e-01
4.262121512419206337e-02 2.837871083321209520e-01 -9.815978031453514996e-01 7.042944528351788858e-01 -4.351308304362558887e-01 5.609193204993476733e-01
-3.638692067078123926e-02 1.617666388187377624e-01 -9.246203794307402690e-01 4.775638838526229391e-01 5.479690463585616955e-01 6.867770097145701191e-01
5.486046504705841681e-02 -1.546660242307122679e-01 -8.429166963224846709e-01 1.369906670179779351e-01 -4.081915877492763300e-01 9.025592417346873786e-01
2.302227420413987397e-02 -1.501061540918275650e-01 -8.441065564117525843e-01 2.240859697771634684e-01 6.105589714052741396e-02 -9.726549519605570682e-01
9.028178675941071762e-03 4.558642192952173933e-02 -8.687657833797652884e-01 1.894557819423108580e-01 -2.382774806147695268e-01 -9.525388962769477663e-01
8.826073721777459580e-02 -8.834518668199087266e-02 -8.318968661614946081e-01 -8.905716261106771947e-01 3.617569120018538920e-01 -2.757065747955007029e-01
1.871926589452239942e-02 -1.927524806590444895e-01 -8.482195162813086498e-01 4.316354705487930876e-01 -1.076109478594843988e-01 -8.956063334216129990e-01
-4.298076777060749754e-02 -3.469376095510825486e-01 -8.962123300284491334e-01 3.644961294110177219e-01 3.233450028021589429e-01 -8.732643247077360726e-01
-8.518042401413000730e-02 6.187469573165368941e-02 -8.998300669084031700e-01 -4.675787487243734386e-01 4.936931155622686918e-02 8.825716882031813260e-01
5.174423418887594966e-02 2.764202458148528052e-01 -9.784487236510944763e-01 4.895987011108470233e-01 3.603847195468501408e-01 7.939873838970677999e-01
5.607811051238747319e-02 2.904005118424408116e-01 -9.834455069028980034e-01 1.115111306012687986e-01 -1.508023451132309845e-01 9.822545090048591110e-01
-1.050314129673385680e-02 4.714756706493865995e-02 -8.743385041447143680e-01 3.123233286988792989e-01 -1.611015521543213980e-01 -9.362160158018661971e-01
1.653661941149486836e-02 1.761027066292842613e-01 -9.229869208897089061e-01 -1.121530986779600003e-01 4.459252718782218960e-01 8.880159538866774227e-01
3.446406313278457811e-02 5.555728628707194694e-02 -8.695061247614467304e-01 -2.280776150225884424e-01 2.577489159222932091e-01 -9.389068632545459758e-01
6.696102118277669213e-02 1.529119573054815440e-01 -8.943382274118560904e-01 1.628968130177192719e-01 -3.920643943243515284e-01 -9.054005406513460086e-01
-4.221877653172384504e-02 -1.623279742932685066e-01 -8.614037680349870829e-01 3.854162774102682515e-02 -5.770880037926603284e-02 -9.975892126972193408e-01
-8.397106401714322932e-02 1.260473888891912031e-01 -9.128782082459258040e-01 2.088169957989852721e-01 -3.592548924378743402e-01 -9.095775857643688678e-01
-1.985249317266283772e-02 -1.515175602810117927e-01 -8.615180369485088141e-01 -3.845625491273674257e-01 1.042420083030035360e-01 9.171942267118876613e-01
-2.839466138351277869e-02 -1.051762321125561256e-01 -8.575191062414198040e-01 8.432488963548434580e-02 -1.255638587565253983e-01 -9.884953365404081094e-01
-1.352879221071037405e-02 5.945626604250663777e-02 -8.775462614732106870e-01 3.468306764915078944e-01 -1.615265481861410390e-01 -9.239143120850078494e-01
6.870042520788764706e-02 1.254510108288500042e-02 -8.481056384003973214e-01 2.246828824852625528e-01 -2.245676399571615300e-01 -9.482019707858575508e-01
4.418193759437985535e-02 -5.340640716302574864e-02 -8.472584531587452616e-01 4.370452327459249942e-01 -5.925388444969408308e-01 6.766750935983164572e-01
1.027288254243801172e-02 7.262382082191126687e-02 -8.777975389216348123e-01 6.402368741282069564e-01 -7.147596546822811980e-01 -2.814522713445542501e-01
6.134412808790953159e-02 1.121909313808800435e-01 -8.851666322997646663e-01 4.196793632407433416e-01 -4.370834629011764449e-01 7.955044176672811940e-01
-3.714429809637025126e-02 -6.816355644047869533e-02 -8.635249681608637706e-01 7.796319012445870333e-01 3.672043874563330479e-01 -5.072820087432329261e-01
3.827848413995978832e-02 -7.900028118963976775e-02 -8.418801654172345383e-01 2.121973987291330410e-01 -5.152092385891252069e-02 -9.758677463556799658e-01
6.913265115944368377e-02 -5.892934359609225924e-03 -8.447090847074237852e-01 1.219616515287764297e-01 -7.597060962198698419e-02 -9.896230706840037916e-01
-1.135026690171940175e-02 -2.606081522282935759e-03 -8.674502066778724263e-01 9.866616482886494399e-01 -1.510543181209125507e-01 6.067441613523275046e-02
6.946580013402328668e-02 9.504139488801707780e-02 -8.789699939709472165e-01 -1.955790984809781807e-01 3.470265075341388283e-01 9.172357490340343755e-01
-6.250590961340883600e-02 1.279831323356946660e-01 -9.128435735749561575e-01 8.127473183961800851e-01 5.461096066388194253e-02 -5.800512386118886754e-01
-8.093895137034139153e-02 1.184247807013485976e-01 -9.094486147108212792e-01 1.518384054009796758e-01 -3.509240805165061983e-01 -9.240115737148170139e-01
2.444329666117633568e-02 1.339879499455582934e-01 -9.070768250347537309e-01 -2.687045568061490752e-01 3.224831576577482095e-01 9.076356505661834495e-01
-8.981442602442120393e-02 1.164553695920110127e-01 -9.173963156308597711e-01 1.586164985318988252e-01 2.526809327500578739e-01 9.544596128794767820e-01
6.461106989260162470e-02 1.419498212446839158e-01 -8.901230618978985820e-01 1.692242212476514351e-01 -3.747010457235863123e-01 -9.115713297799448167e-01
5.108799753084258821e-03 2.109687881242035268e-01 -9.343394886345923744e-01 8.521405671650546243e-02 -4.973541156448074707e-01 -8.633524472595694998e-01
-9.729049749677132208e-02 6.139574873407475236e-02 -9.033851747320998937e-01 -1.901645359218546993e-01 2.554102608694480137e-01 9.479467537368470031e-01
2.378433025521003823e-03 5.098391642190697876e-02 -8.833257662862421533e-01 4.509390794992124141e-01 1.715110367519855350e-01 8.759211784473885931e-01
-3.615670299990474817e-02 -1.456340056011704368e-02 -8.681570993115308443e-01 -5.062215993826989502e-01 -5.205807139364451164e-01 -6.875575703865409727e-01
-9.340876535569159200e-02 -8.900077628779801131e-02 -8.726558938665338605e-01 2.221566298528990235e-01 -3.596841464250292997e-02 -9.743473225500787205e-01
1.413586776483618211e-02 -3.327628254709381894e-02 -8.525607477070047402e-01 3.353363973775784213e-01 -2.562416575734023927e-01 -9.065813330958574223e-01
5.430218925757073628e-02 1.994977986060024466e-01 -9.196057954847637328e-01 3.554763699659914122e-01 -6.452945925714763664e-01 -6.761889079198311059e-01
1.151517946017236067e-02 5.090185554426716191e-02 -8.696007849266182976e-01 1.894557819423108580e-01 -2.382774806147695268e-01 -9.525388962769477663e-01
-1.955280765963139308e-02 -1.480678664343874559e-02 -8.693982350288796956e-01 -5.156947078422718239e-02 2.458462627489220453e-01 9.679360540735234553e-01
1.201960805682286693e-01 9.235237960686805414e-02 -8.648904184056042110e-01 -9.636624655502281644e-01 2.661393143655381155e-01 2.290235443564954051e-02
-5.956169191704380195e-02 -5.353886479674763166e-02 -8.684890310385185996e-01 -5.602182131135805543e-01 -5.199736486754785725e-01 -6.448123435379757851e-01
7.570256345935799658e-02 1.029570906767607319e-01 -8.806349701968200216e-01 -1.955790984809781807e-01 3.470265075341388283e-01 9.172357490340343755e-01
-3.696181961816628891e-02 -1.851583546827781646e-01 -8.692972418785734900e-01 -2.322621043871500868e-01 -8.312139896435617736e-02 9.690950148978483281e-01
3.331439445718369086e-02 1.673251586967298976e-01 -9.157357644063049973e-01 -1.672709762852586379e-01 4.221158076953290816e-01 8.909762428854635097e-01
9.748948757055582448e-02 -1.533671946576455926e-02 -8.362817138052694999e-01 2.623870462089814004e-01 -2.135497679988843100e-01 -9.410364151133303601e-01
7.652546135294920060e-02 2.397643087396644224e-01 -9.474484151273734334e-01 -2.588139501089585792e-01 6.033923167132502208e-01 7.542765085566527361e-01
6.819948270358468234e-02 1.487487438700734466e-01 -9.006158389642908713e-01 -1.743852187257075026e-01 4.120300009817237652e-01 8.943271626094043691e-01
3.548961474852469627e-02 -1.453150834516336865e-01 -8.412558717392227825e-01 1.405065023722268103e-01 1.234284736853971526e-01 -9.823560121843895043e-01
3.568578389659087663e-02 1.368595430123503709e-02 -8.561295688721147767e-01 9.627789650135060162e-02 -8.020631164697007709e-02 -9.921176917166956155e-01
-3.103223072925582332e-02 -3.369628230779700973e-01 -9.017683479617110143e-01 -8.057572549975741127e-01 -1.634041530189324631e-01 5.692576998117279130e-01
-4.517905831782566967e-02 -3.507323091947848748e-01 -9.025697544595505661e-01 9.955428696032847524e-01 -5.812610751553035776e-02 7.426809817916303624e-02
9.769979958148430205e-03 -1.013223652268711722e-01 -8.551316171794210996e-01 -2.259318550780143597e-01 2.916931408042381518e-02 9.737062945144621118e-01
-1.747534466743909734e-02 -7.276771937451713412e-02 -8.659279040302843011e-01 4.107232291379797617e-01 -1.030886565743706698e-02 9.117017913415149666e-01
-8.038683720508518760e-02 7.771304694165771798e-02 -9.024217558421435692e-01 3.708738133675415494e-01 5.412618098451092985e-01 7.546444644741089336e-01
-3.228608152641468387e-02 -3.815435037932563556e-01 -9.191577872567389118e-01 -7.986438165590227234e-01 -2.248430271486664966e-01 5.582236714925850052e-01
6.088267814006737694e-02 6.047962439473782148e-02 -8.688386292850345249e-01 -2.927004959155963398e-02 8.012360980345482886e-02 9.963550930009699158e-01
7.496691850368093768e-02 -8.274862354728187985e-02 -8.397735928137770589e-01 1.824982701956436720e-03 -1.818479442874724461e-01 9.833249689683253303e-01
-2.371469620570812453e-02 -2.664912109472031276e-01 -8.723127486224945271e-01 -4.449710683292388835e-01 6.540770699835289914e-01 -6.117057584097909118e-01
-2.168399981931769943e-02 -2.591688203233684651e-01 -8.692122513238629278e-01 7.553540004727429813e-02 3.391194734718545045e-01 -9.377059166134500412e-01
-1.024223709966685658e-01 -1.354857412787039417e-01 -8.812877249659580858e-01 1.240438213820817537e-01 -6.400136860515091008e-01 7.582846510669266626e-01
2.821898848330937210e-02 1.489528476779376220e-01 -8.992731310681650880e-01 -4.667000562569241229e-01 -2.882902173995017803e-01 -8.361099258121097444e-01
1.017383365181709770e-01 -2.122399901042089018e-02 -8.344891181510040168e-01 1.881834087962320212e-01 -1.542885388343254727e-01 -9.699391998667747927e-01
4.359228750710381073e-02 1.171028958812677656e-01 -8.916211359244112789e-01 -2.571068648266623957e-01 4.411170308388751016e-01 8.598324401666287420e-01
-7.723878818917506717e-03 1.384285531547312532e-03 -8.704191737618099944e-01 -2.416219129188973969e-01 1.577640603100167460e-01 9.574598437908036219e-01
-3.260972457300756466e-02 7.949454624356565302e-02 -8.890817223504616784e-01 6.818522576879387787e-01 1.455730525757370775e-01 -7.168584135306234062e-01
9.489945177886364991e-02 2.152822803810922891e-01 -9.270903326713030301e-01 -9.923295652797067268e-01 9.466523648899199950e-02 7.950174131596940419e-02
2.410969215050098868e-02 9.725825339236024436e-02 -8.867677145975668695e-01 -5.324335986712808166e-01 7.403155354167001434e-01 4.104234045795074892e-01
-4.853373471592555173e-03 -1.963394226486494393e-02 -8.564034637534641003e-01 -4.111016032252006736e-01 -8.189611770290136650e-02 -9.079033526377474628e-01
-3.497083040043107161e-02 -3.869719011377127371e-01 -9.243582913245134147e-01 -3.270780725860775728e-01 -3.638319806726890704e-01 8.721503449940065655e-01
-3.914703237639197142e-02 -2.492838143476016066e-01 -8.770878376900489437e-01 9.035996778425180453e-01 -1.506181876970416889e-01 4.010259140476539197e-01
3.261255736691071744e-02 1.605122899800504599e-01 -9.162921719838021950e-01 -7.156006413278015454e-01 4.343837982599833558e-01 5.470159393842826123e-01
1.756575612903996456e-02 -2.757383040143319627e-02 -8.529934339345529581e-01 3.486034985238786743e-01 -2.941851463505628095e-01 -8.899048828294011670e-01
-5.595454223190213239e-02 -2.947870701575116409e-02 -8.694799341431548312e-01 3.549289197335100399e-01 -2.785823564868935426e-02 -9.344781327796525261e-01
2.313495694981588385e-02 4.766401585498750842e-02 -8.729432607126667021e-01 -3.085341860344010811e-01 3.729823062629715191e-01 8.750376307695826306e-01
1.941607861494508078e-02 2.255346478987172720e-01 -9.441023966338629725e-01 7.093561910941850179e-01 -5.391429238779638783e-02 -7.027852041930543470e-01
-2.845691731605623498e-02 -2.234473517615158389e-01 -8.753648140294978397e-01 -3.224814590624035526e-01 -1.426561852003055686e-01 9.357643514181759326e-01
-1.936768324172227773e-02 1.965312474250828501e-02 -8.689005393023767621e-01 1.956125195477112777e-01 -2.044583896651915311e-01 -9.591311219492947293e-01
-9.585260246997967526e-02 -1.122546269690656295e-01 -8.798009019186193713e-01 -1.043501921353229833e-01 8.122994908921346568e-02 9.912178028931305507e-01
1.013501755951496351e-02 2.148920317834649152e-01 -9.437834934757413086e-01 -4.029510577258341719e-01 3.331897335103368163e-01 8.524171787106019638e-01
-1.177508706694628676e-01 2.862585776606850138e-02 -8.937080009442186501e-01 9.434876116724500994e-01 -2.596066095633796644e-01 2.059988710930789890e-01
1.137347926928763825e-01 9.170544424488198676e-02 -8.610690523483476300e-01 1.671680562357245325e-01 -3.167665574280454366e-01 -9.336561407014654090e-01
-3.117759963879746660e-02 -6.150637762983191675e-02 -8.672092954259943420e-01 -2.061713134904065714e-01 1.003286893648657335e-01 9.733588976240823420e-01
-3.244509809025401814e-03 -1.052212597756239931e-02 -8.674437958474248145e-01 -2.137917660802913788e-01 1.649329766081399085e-01 9.628552300234176631e-01
4.899070269598154032e-02 -1.719674922400228345e-01 -8.413276537891319906e-01 -8.600127428253783179e-01 4.751028092861972474e-01 -1.861596164218561889e-01
2.089789651226666919e-02 -1.369113253332438218e-01 -8.444181180690124577e-01 2.579391186577318917e-01 1.316671829963281205e-03 -9.661602752345826994e-01
-2.397436604664162241e-03 -1.177021634212147144e-01 -8.577307162707131782e-01 -2.486823414703912272e-01 3.362221008179266946e-02 9.680013636509091635e-01
7.436199282336992955e-02 1.933200803520185307e-01 -9.210170674814680547e-01 -2.315024495992318854e-01 5.409726979263029811e-01 8.085512698202210746e-01
6.553334722917067423e-02 5.677457277776321032e-02 -8.676991007010128598e-01 -1.793531438978130388e-01 2.495222719778478204e-01 9.516149880918139958e-01
-1.082052081720010980e-02 -5.082883839359041318e-03 -8.609854481699841244e-01 7.481080213480278962e-01 -2.247201501555073089e-01 -6.243678743407806708e-01
-3.750215044314383905e-02 -2.957548511212295117e-01 -8.929238073825005451e-01 -1.882864852663471700e-01 -2.748068397841312294e-01 9.428835560523389780e-01
2.322854567426516081e-02 1.865220209316606481e-01 -9.185043893400881565e-01 1.641092423219692731e-01 -4.400646344308953295e-01 -8.828427233135648367e-01
7.613051270117342229e-02 7.127228307680599784e-02 -8.693376282667295563e-01 -2.676147153091235423e-02 9.528711339323624185e-02 9.950900409825659265e-01
4.452869150502606829e-03 5.225174061381514939e-02 -8.692697443653568667e-01 1.083293062314314992e-01 -3.029375486844241294e-01 -9.468334610735348322e-01
-1.848199218352751874e-02 -8.785537118212076446e-02 -8.550260578742083784e-01 3.423658019366032645e-01 5.863331669933076473e-02 -9.377354594112042863e-01
-5.092577208739264977e-02 1.621577406241704877e-01 -9.245748870066791136e-01 -7.623011555423543362e-01 -6.228492359078801055e-01 -1.759425405857296953e-01
1.899433393132230396e-03 1.890512032848097046e-01 -9.313760085942177636e-01 -3.620512661148240358e-02 5.131482684545534134e-01 8.575360303737331602e-01
-7.005224128182453713e-02 -1.552982207904677892e-01 -8.683747392845785340e-01 3.766509105478882957e-01 1.497267216492458308e-01 -9.141750381669888625e-01
-9.032121563275451182e-02 -1.118453091258655857e-01 -8.791057996314100009e-01 -2.215598574233917373e-01 1.521324504146311790e-02 9.750280953664025585e-01
1.012208607989199122e-01 -2.577586758240333828e-02 -8.340411318160734222e-01 8.602400410680744250e-03 2.927096027487267795e-03 -9.999587145557661261e-01
3.769242041799216597e-02 -1.327563498374496609e-01 -8.401166274871549877e-01 2.178863458662166630e-01 1.089428204758022614e-02 -9.759133439520820685e-01
2.943576558541262725e-02 -1.630599105424825335e-01 -8.469379378843467920e-01 -6.285518560594420823e-01 4.701742089733483843e-01 6.195633764680710254e-01
-1.057415738576033583e-02 3.885140705978140565e-03 -8.715140753472562229e-01 -2.334107801451061337e-01 1.669005660831074933e-01 9.579476023004552809e-01
-2.723287838366972649e-02 2.786310283893840903e-02 -8.723057398374637339e-01 1.856299852001419282e-01 -2.248638971386241470e-01 -9.565446860226787251e-01
2.127485102636116066e-02 2.336505622565774043e-01 -9.525512227845347457e-01 -1.189506531590019643e-02 5.635817616835328003e-01 8.259746396341816066e-01
2.184670806014231154e-03 4.745370319652288810e-02 -8.823918116928262112e-01 -1.283624599655180110e-01 3.050001598854423235e-01 9.436620058799948252e-01
9.882261711833574547e-02 8.198899026092826281e-02 -8.686921853735404264e-01 -1.740903485273723461e-01 2.911115384910527015e-01 9.407160159724029524e-01
-2.170602157996662576e-02 1.777965262068112173e-01 -9.309219716864659544e-01 -1.768803094411076082e-01 4.155836194570940445e-01 8.921903448093120303e-01
7.839417679509796955e-02 1.070456764386395060e-01 -8.816079199853285031e-01 -1.955790984809781807e-01 3.470265075341388283e-01 9.172357490340343755e-01
2.311419914537359357e-02 1.780931667352172176e-01 -9.142873019765456188e-01 1.055355683734224975e-01 -4.486447949560207760e-01 -8.874570929160287003e-01
9.700530746417200534e-02 1.283188610855664769e-01 -8.780830776434793705e-01 1.691549567325498493e-01 -3.636688657751187548e-01 -9.160412418000882795e-01
-2.136641328889556449e-02 -7.592373319831167977e-02 -8.561973078726980990e-01 2.345760686739339906e-01 -5.709603436098614759e-02 -9.704195540413079746e-01
-1.627452932475147857e-02 1.754499053518021878e-01 -9.204434849670318775e-01 1.368706732370035539e-01 -4.321186104913850023e-01 -8.913696905743678789e-01
7.339878416973522057e-02 2.453824616217376298e-01 -9.519521775441343037e-01 -1.319664657663442153e-01 5.365979595706731331e-01 8.334551467821952331e-01
2.193166363827950271e-02 1.675749905214495294e-01 -9.092665834350756038e-01 7.159676593713361070e-01 -4.340044770268113306e-01 -5.468367440607976304e-01
-8.414621242746406216e-02 -6.687323461546409997e-02 -8.736880997657593406e-01 6.772772550006199710e-01 2.974446874931556128e-01 -6.729206325718688486e-01
8.193688330596049507e-02 1.651808092402038408e-01 -8.971497101220071713e-01 1.535494958261753862e-01 -4.079815104871284959e-01 -8.999853551209421321e-01
8.514664769132614108e-02 1.797617748254488890e-01 -9.048768580969023256e-01 3.679569206151326877e-01 -6.362497622887994808e-01 -6.780810752106823935e-01
-1.144649743992789438e-02 -9.968950321314122565e-02 -8.609728778290105522e-01 -9.902876023426737673e-01 1.240051551963583798e-01 -6.287436783877210777e-02
1.641853622493216021e-03 1.814142676310241398e-01 -9.215504154640425938e-01 6.627487536673466462e-01 -3.575875278160548648e-02 -7.479875674848363021e-01
7.314826751157640916e-02 2.803615124200827813e-01 -9.726830767801294408e-01 -9.928992676074311907e-01 -1.071909447154950207e-01 5.158629426142197910e-02
-3.923269340448163472e-02 -2.644764862697265295e-01 -8.719164539882052756e-01 7.954964269849118530e-01 7.510612830478577417e-02 -6.012857092475287768e-01
-1.931638339854635164e-02 -1.267341060206378656e-01 -8.541237485968838916e-01 2.457863771404539266e-01 -5.119007224396968092e-03 -9.693105036969356103e-01
-8.821309524857919027e-02 -2.863727587278879980e-02 -8.761975833355469812e-01 2.350675080635934444e-01 -1.098231754636631030e-01 -9.657546980387150537e-01
-4.637579373172467066e-03 -1.048969552973389452e-01 -8.511278969212047185e-01 3.676841976873475026e-01 -1.717608925528854025e-01 -9.139510526064553719e-01
-1.162192267944019558e-01 5.813813224338151495e-03 -8.878779866181032432e-01 2.440865170325920153e-01 -1.611762554092210920e-01 -9.562656466145587064e-01
-3.596809645092607227e-02 9.279074605846134027e-02 -8.989203482756163988e-01 -8.006781647913892297e-02 3.783403704854003680e-01 9.221972179665437475e-01
-4.497692989435605679e-03 -3.204272928531727571e-02 -8.677061813760783560e-01 -2.989420760407042188e-01 1.322870855478978924e-01 9.450575443695041766e-01
6.138295158407406325e-03 3.987002882117725300e-02 -8.791303125509942751e-01 -2.727560180252979194e-01 1.985055648310474485e-01 9.413818010574084294e-01
5.377365678018310169e-03 1.195686188983670524e-02 -8.623911809819464480e-01 3.039468918772848527e-01 -3.175311043677765954e-01 -8.982150548043149607e-01
-2.469882096058385532e-02 -1.859814173400923809e-01 -8.661518874654636768e-01 -2.046141731046192402e-01 -1.190519728962912555e-01 9.715758683264079654e-01
4.205372789041370019e-02 2.052449518037013643e-01 -9.264511402969999310e-01 -9.220107378390430819e-01 3.702655357281978837e-02 -3.853897165727469543e-01
-4.625676565562780035e-02 9.902193727614544416e-02 -8.982623881199532923e-01 6.377667510466408229e-01 7.587738959568303410e-02 -7.664830024257268670e-01
1.122352344188749934e-01 1.054572619142990636e-01 -8.703573890617485320e-01 4.765202812215977302e-01 -6.031900359579248638e-01 6.396015963907271118e-01
6.122223210295333479e-02 -2.214040362659875499e-02 -8.498462373571290529e-01 -2.998291180400833866e-01 2.642324443710751258e-01 9.166699053186988522e-01
-6.268334238696957050e-02 -5.626409523958219444e-02 -8.750561561030714142e-01 -2.455460875708622148e-01 8.040135227337666390e-02 9.660448961778405064e-01
-9.396317513770895136e-02 -4.627379400305170476e-02 -8.765293188176195294e-01 3.292845644272133776e-01 -1.165790763257987944e-02 -9.441587625074558954e-01
1.184515394165099392e-02 -2.233810351783456494e-01 -8.543914516762922684e-01 9.909901843189584947e-02 2.806147756621275580e-01 -9.546909092611748360e-01
-1.150656761916126619e-02 -2.454536840765172145e-01 -8.634892369017761471e-01 7.370063326855645636e-02 3.267053052443979477e-01 -9.422483007047443015e-01
-5.377426036412329136e-02 -2.592188828451779878e-02 -8.688460096832635315e-01 3.464191904246469722e-01 -5.224246350427671354e-02 -9.366239744489441854e-01
-6.881151323569453804e-02 -6.005269193278455625e-02 -8.683949593356886654e-01 2.119177782022781120e-01 -7.998129522582424211e-02 -9.740091620184121446e-01
3.130114678732839190e-02 -7.451770186493952841e-02 -8.514608406581809508e-01 -2.160826797404744870e-01 5.166699091434130003e-02 9.750070756492144053e-01
-3.530669277531916367e-02 -3.892161141209181108e-01 -9.123027393256458728e-01 -3.896772626001822615e-01 3.669753337722611031e-01 -8.446778885558481331e-01
-7.781903375306135733e-03 9.078102052574350822e-02 -8.923601115850167131e-01 -3.832293010522204169e-01 1.780778231087128960e-01 9.063242199852592496e-01
-3.288765012124485188e-02 -2.549841726511712925e-01 -8.680748443803525394e-01 1.870988205722573239e-01 1.962756190806654866e-01 -9.625330709617055946e-01
9.963094802538846606e-03 1.994913388066580362e-01 -9.273732524648051756e-01 1.808237142131528252e-01 -4.447883546356638518e-01 -8.771921704841301182e-01
-9.593641670697898582e-02 7.400284028630112199e-02 -9.063309111007168406e-01 -2.255065727916772123e-01 2.477030906918611941e-01 9.422260686743132441e-01
-5.674558757739193125e-03 -3.310836928560557946e-02 -8.555904652396223442e-01 -4.041430932348979432e-01 -2.612632361065254927e-02 -9.143225773243924825e-01
1.502461947813883356e-02 2.030628541607708004e-01 -9.284468322695822451e-01 1.673369739422232716e-01 -4.632352238820364176e-01 -8.702938954783143721e-01
4.322684893430378539e-03 -4.031436346696221085e-02 -8.542449991187079927e-01 3.636596591072548401e-01 -2.609738894211550697e-01 -8.942283161354208643e-01
-8.858509566776155697e-02 -1.590067569621826937e-01 -8.732463663827620959e-01 2.577082285355486793e-02 -9.221582266970668185e-02 -9.954054986480634915e-01
2.691652751539321334e-02 1.789512890083077845e-01 -9.140646870555534376e-01 1.879193762340862772e-01 -4.337100793675465749e-01 -8.812388297679514260e-01
8.884806947193017723e-02 2.241934603091806089e-01 -9.273127961878530057e-01 1.717406820620584196e-01 -5.230079011200104988e-01 -8.348460178325702863e-01
4.803520920802473865e-02 6.982821189258756056e-02 -8.689052426074859170e-01 -2.423566265775083661e-01 2.604564925186973467e-01 -9.345724589665737048e-01
-3.767291703059250790e-02 -1.363922369378480770e-01 -8.653287389107484628e-01 -9.406836068511742477e-02 7.554838388928405979e-02 9.926951119098613718e-01
-4.319936154381999460e-02 1.034575136119806754e-01 -9.039324968969102425e-01 -8.191684435769659711e-02 3.782676403727893710e-01 9.220646522111555221e-01
-1.097537140195141425e-01 5.991052405119774021e-02 -9.026487588600435874e-01 8.457067119521057830e-01 2.472190118412902482e-01 4.729301402357158346e-01
9.449928635461952997e-02 2.190294120454939764e-01 -9.315203902083055709e-01 -8.286814742832155911e-01 3.679523653464290556e-01 4.217796474650762906e-01
-5.363068445917271165e-02 -1.122414087299623137e-01 -8.684760048252941900e-01 4.392599925989630893e-01 4.003052398011311963e-01 8.042427331904949961e-01
6.681835442258332591e-02 -6.924354983432863542e-02 -8.427011439288655259e-01 -3.052852654877983296e-01 1.845062708509687677e-01 9.342153620513383716e-01
4.280818353415242854e-03 2.884268054802326814e-02 -8.693277104153644963e-01 -3.571450450287085854e-01 3.983842453667075789e-01 -8.448298111779914965e-01
-2.263984402901207324e-02 -1.440589544934086641e-01 -8.629465140129680689e-01 -2.964476780815710200e-01 -4.249648572343606504e-03 9.550396403537690926e-01
-5.241268864353206686e-02 4.010693270950758949e-02 -8.814639039388298958e-01 3.262709762193545249e-01 -1.389186418237862430e-01 -9.350127598224013958e-01
1.900500663042412053e-02 2.421849416715151082e-01 -9.584432989753892684e-01 3.027297137735929580e-02 5.657681141546909709e-01 8.240084879476851087e-01
3.830317951355622502e-03 -1.081863924055682241e-01 -8.485487264055713297e-01 2.551859600250627746e-01 -4.334416445892646380e-02 -9.659199807507061752e-01
-8.487546531433888541e-02 5.259156755533584554e-02 -8.984079866351197818e-01 -2.198255566810404793e-01 2.268218534010505161e-01 9.488037581342008142e-01
9.027008650475612517e-02 8.870034307007440555e-02 -8.665205777266810072e-01 6.283470400719007865e-01 -7.777678325413486249e-01 -1.603732823177426298e-02
-8.863569331474734081e-02 -1.299517553491560118e-01 -8.776623505282794557e-01 3.757673368009386006e-01 3.571744800175180035e-01 8.551171261398907708e-01
8.415900806060269690e-02 1.417093719477315050e-01 -8.902067332929963772e-01 -3.650444706662347438e-01 9.955861168894622470e-02 -9.256514556109002312e-01
7.514680862393662009e-02 2.157014044710246492e-01 -9.322181155520897766e-01 5.462272189622365687e-02 2.639488448227246820e-01 9.629887671044750075e-01
-2.453840084136571856e-02 1.714170575103624028e-02 -8.694209939588709579e-01 2.236167342819302684e-01 -1.875116870456394469e-01 -9.564700326567388000e-01
-2.137195212492353641e-02 -4.929777439806887901e-02 -8.586770552679215962e-01 3.418986059651200893e-02 -2.203805366770592855e-01 -9.748145836446655554e-01
-9.033625146347860901e-02 1.142824134526157082e-01 -9.106808932155737724e-01 7.170561757978263229e-01 -2.257601190407201586e-01 -6.594412857873828138e-01
-4.425844653356474784e-03 -8.080655805174469242e-02 -8.528667255268491676e-01 1.268207991012327562e-01 5.627476824355469309e-02 -9.903280443239294017e-01
-8.386046982984221576e-02 -1.277615918430404507e-01 -8.772823765779663718e-01 -1.147111379746849902e-01 5.904136349806969608e-02 9.916428148385090235e-01
-9.521686524234382332e-02 -1.468302822595308477e-01 -8.807311679184305353e-01 -5.219744335219826947e-01 -2.412495194780573671e-01 8.181328499094823181e-01
-9.856977294678911927e-02 4.222392726723783740e-02 -8.915668231174765923e-01 3.184737552545681694e-01 -1.516176532094275220e-01 -9.357278207092697420e-01
4.879170807584146813e-02 2.697172072751774508e-01 -9.606381047434167098e-01 2.041703377456671742e-01 -5.679924622435394976e-01 -7.973073660887259884e-01
1.106069867063503714e-01 3.440460375765071188e-02 -8.520933715589634749e-01 -2.279723650125147216e-01 2.621072705712516604e-01 9.377251087095244131e-01
8.981840068688193290e-02 1.171812057752497777e-01 -8.750800015424843314e-01 1.867464451272626835e-01 -3.509292819103256855e-01 -9.175916326614108609e-01
-1.113621460942542662e-01 -1.792916300825190754e-02 -8.838802045963145559e-01 4.483057249870102123e-01 -5.124792164623912655e-02 -8.924100108530899078e-01
6.506279934804126697e-02 3.323961231405146710e-02 -8.603782217451769743e-01 -2.884360808686665667e-01 3.420772547482083259e-01 8.943085480062534787e-01
4.303828288678433756e-02 9.980094719777903023e-02 -8.803166638416395351e-01 6.150520698547111698e-01 -7.760909571580005828e-01 -1.392615438124041594e-01
-5.108263870747346835e-02 -3.577699102683758181e-02 -8.738169145989669317e-01 -8.427107764865687800e-02 2.112018300505600910e-01 9.738029433387580536e-01
7.777209136603401018e-02 8.627131455745353688e-04 -8.513118073297063493e-01 -2.822868046906966133e-01 2.871212374205164286e-01 9.153554254603114559e-01
-1.796566098853576848e-02 5.452447921038285766e-02 -8.798934653482072266e-01 7.678269737865126565e-01 2.373049213626432785e-01 -5.950866429545494940e-01
4.229720786940543292e-02 8.782602710939324542e-02 -8.820946074911863999e-01 -1.798081039451857877e-01 2.942569719637608827e-01 9.386596189281584124e-01
5.663709178883145900e-02 1.359951082330604633e-01 -8.972824834203662059e-01 -1.826930458475789776e-01 3.906321217486441455e-01 9.022359982050632832e-01
7.212555375701959481e-02 -9.979235259532795443e-02 -8.403119059315342643e-01 -2.504656342082661191e-01 6.567780531134882749e-02 9.658951247263523054e-01
-1.608354428652656806e-02 -1.073377473022957551e-01 -8.644440827345848399e-01 -3.121805219396494024e-01 1.213876889077159481e-02 9.499452468491562662e-01
-6.184134386587232524e-02 -2.008594333872205651e-01 -8.773696222422305846e-01 -2.877460652103534522e-01 -1.447567258817245850e-01 9.467035926138456237e-01
4.167016572105983890e-02 -3.818054829146387552e-02 -8.520751095677245868e-01 -3.226226115605689837e-01 2.502655100385849929e-01 9.128427164604892008e-01
-2.492991725101985009e-02 -1.211450753066814143e-02 -8.670044321255496733e-01 7.738614493400061134e-01 2.968560772325858910e-01 -5.594773691897340084e-01
-2.417261467682831760e-02 -1.944721541490777306e-01 -8.669709043901978607e-01 -2.548938267271997349e-01 -1.023999003314157719e-01 9.615317974505475096e-01
1.867373301621967976e-02 -1.701138159212880752e-01 -8.478863690854977486e-01 -3.289182934440453288e-01 5.720989028285559108e-01 -7.513425328172360640e-01
-2.448458693269941686e-02 -9.409158455486876793e-02 -8.591600137055633857e-01 9.902723977071700157e-01 -1.248846527244426713e-01 6.135472152318680733e-02
5.907565858851844542e-02 -1.043759633519134589e-01 -8.431652217900774682e-01 -2.105770357352132749e-01 2.578099394465944647e-02 9.772372549039440859e-01
-1.496970450359546081e-02 2.098782554492935326e-01 -9.392165571279258440e-01 8.278876174324552029e-01 -8.257831851410189772e-02 -5.547818618280485614e-01
6.107707414689780151e-02 2.295763283128663956e-01 -9.357701366552442224e-01 -1.558188827079901376e-03 -3.848506248179416334e-01 -9.229775558619067732e-01
1.732678295595530688e-02 -5.336673144170935024e-02 -8.493180184663053911e-01 1.179950167482753109e-01 7.133577157048210044e-04 -9.930139309915766432e-01
8.255397346767076594e-02 7.048327238435380879e-03 -8.441687579234173899e-01 1.308439746113168878e-01 -1.102588608117222035e-01 -9.852526771952534457e-01
-5.446186703191541016e-03 -2.643494122922471906e-02 -8.650125518704117056e-01 -3.331606263510865085e-01 2.694486152843105220e-01 9.035493571303779836e-01
-7.566375955797915998e-02 -1.070703658168268707e-01 -8.688627178246367544e-01 7.272679686132403620e-02 -1.234278001595729563e-01 -9.896849959285328735e-01
1.111075388647921325e-01 3.941120553456863018e-02 -8.455951301801964970e-01 2.045826625724113668e-01 -2.554886071399541381e-01 -9.449187826456139083e-01
3.588233975183031249e-02 3.724632097391122887e-02 -8.681366179523208881e-01 -5.392942069848913333e-02 7.331152196654243391e-02 9.958499075312878812e-01
-1.455187449159590050e-02 -2.712096865720904637e-02 -8.582096805404476614e-01 7.578253684244403710e-01 -1.692902671795613878e-01 -6.301123046018335394e-01
-2.244390703341907038e-03 -1.752646525729928961e-01 -8.595635382002483338e-01 -2.590595248151311703e-01 -5.058569558714803849e-02 9.645357691680092049e-01
-1.120824567733278050e-02 7.083097345768990527e-02 -8.797842713678094562e-01 2.241805343205623968e-01 -2.533359499429941319e-01 -9.410440927492335073e-01
8.810958670617885513e-02 3.722311479881190710e-02 -8.536825347952954335e-01 4.748113998804633917e-01 -5.660766426364768344e-01 6.738778592630634279e-01
6.939155993292195346e-02 -2.910729612657170576e-03 -8.525803277732663110e-01 -2.268137721611833135e-01 1.928737107953038543e-01 9.546492782389061071e-01
2.435453071687551652e-02 -1.893019675223739373e-02 -8.572484781458090675e-01 3.649367277755539707e-01 -4.972770053080403097e-01 7.871065777341327285e-01
-3.751277485533421191e-02 9.441960559140899489e-02 -8.933273003296193782e-01 3.049834146561025139e-01 -2.414677255193756200e-01 -9.212374581600571988e-01
-7.939625598770454207e-02 4.069605148633702318e-02 -8.865023016735116279e-01 1.786713425929245536e-01 -2.369042045812547181e-01 -9.549622763165906969e-01
-5.393132823630011896e-02 -2.358754225303827390e-01 -8.805614183691461427e-01 -2.304130459132082143e-01 -1.596514792320068987e-01 9.599068879073792138e-01
-5.826725925747915438e-03 -1.160477891294004957e-02 -8.677995334737418354e-01 -2.427782595803147647e-01 1.579024347781086968e-01 9.571444706867916485e-01
7.439768959810245420e-03 6.238156573990510240e-02 -8.865018035245744166e-01 -1.283624599655180110e-01 3.050001598854423235e-01 9.436620058799948252e-01
-7.928681509851806530e-02 -4.006191008467120673e-02 -8.727849826465644556e-01 1.993475149704325433e-01 -1.265108927862574895e-01 -9.717281318771918697e-01
-7.983740496654975760e-02 4.742163369202444939e-02 -8.960336794342323996e-01 -2.343729893014909471e-01 2.095901105374242956e-01 9.492846187792117751e-01
2.907327688107785076e-03 1.755614698039853743e-03 -8.660452459198310082e-01 -9.865759604252396509e-01 1.506602519126559181e-01 -6.300287933603518353e-02
1.765298263078110205e-02 1.454664938265210206e-01 -9.088594540533040389e-01 9.158488565129769832e-01 -6.160050255720845441e-02 3.967697696505771421e-01
4.377498696319060204e-03 -1.678541697581095171e-01 -8.574010529723918861e-01 -2.542369724172852674e-01 -5.176017445083098967e-02 9.657558936899698354e-01
-5.248311512418114139e-02 -2.384027066632653236e-01 -8.728637260388396601e-01 3.093374506904104648e-01 1.834300967748854760e-01 -9.330936401013104620e-01
-8.110475832444280497e-02 1.254610468804086276e-01 -9.200916408477893826e-01 -1.867792116364453414e-01 3.247015041957055370e-01 9.271906272571537322e-01
3.916227131082105663e-03 1.160136071178942269e-01 -8.996244340560263231e-01 -1.679035401889386880e-01 3.605603153221958457e-01 9.174991336272642073e-01
1.997585991957750648e-02 -1.452434256203463392e-01 -8.524250278495261179e-01 -2.344970687126384790e-01 -3.302274908906583512e-02 9.715557744194517342e-01
-1.065945330932857871e-01 -7.283210010895285746e-02 -8.842868941491947021e-01 -2.089668637717673194e-01 6.056482004110681772e-02 9.760454663686420895e-01
-8.059374703318339384e-02 1.910756417597514727e-03 -8.843516734979924854e-01 3.341986692768388889e-01 4.939457154810862893e-01 8.027009901647483847e-01
3.444849760467585259e-02 2.120256308040088800e-01 -9.419284087906797387e-01 4.663896594202274204e-01 2.887530016429757374e-01 8.361234296609895145e-01
7.079191791847130877e-02 1.406566230144030150e-01 -8.890123566176465486e-01 1.010752877051308424e-01 -2.945599200355377700e-01 -9.502727186044976904e-01
-1.171297459956086202e-02 -2.434345672473484101e-01 -8.629518206305921701e-01 2.326221557171586352e-01 1.903304218851736840e-01 -9.537616385525861107e-01
-1.886412938637578585e-02 1.764182127275980283e-02 -8.761107382731506688e-01 -2.354507918702511693e-01 1.822379308885201943e-01 9.546477157324279039e-01
-1.040841997721578677e-01 4.538610357416450469e-02 -8.996504326086599557e-01 -3.257927863346750386e-02 2.902185344182251492e-01 9.564056633478601466e-01
6.892760566920802523e-02 2.254495935042409582e-01 -9.368833513392530454e-01 -5.771269266454558400e-01 7.625761697495150315e-01 2.922363698633856921e-01
-2.851342145776024004e-02 -2.862222943515593254e-01 -8.848756789822402880e-01 -9.949593490398913609e-01 7.666694286151680415e-02 -6.463802000668264491e-02
1.920734075333513629e-03 1.211670025118372074e-01 -9.020148016719957695e-01 -1.679035401889386880e-01 3.605603153221958457e-01 9.174991336272642073e-01
4.085545145105983628e-02 -1.423373710668997538e-01 -8.401119240676117039e-01 1.440760817944468364e-01 1.223289406566624438e-01 -9.819764319639135985e-01
-1.173904569150631683e-01 -7.399092193091153218e-04 -8.879891000903179510e-01 8.237601811699581944e-01 -6.651955322558775890e-03 -5.668993873777109505e-01
5.728880065863967835e-02 1.965301776552273172e-01 -9.173727767947755796e-01 1.890983122150798335e-01 -4.839887165731844298e-01 -8.543984729312487092e-01
3.605212757859492523e-02 2.051651010572357603e-01 -9.270107876798110436e-01 2.089872759331732055e-01 -3.612039175338259689e-01 -9.087662232148865371e-01
1.937622373563289285e-02 1.955241006259610947e-01 -9.237542798504329022e-01 1.559639392898587440e-01 -4.525418300831863805e-01 -8.779983722457290751e-01
-3.561993335883176237e-02 -3.683336194824355925e-01 -9.167773364785617440e-01 -3.542055305664523757e-01 -3.631965512045511879e-01 8.617579168822631086e-01
-3.608569344823892716e-02 -9.976918767574544100e-02 -8.587777058908082628e-01 7.841014966644438422e-02 -1.350966467493703305e-01 -9.877250348484448716e-01
-5.569274271395323328e-02 -2.296028194344175433e-01 -8.799509624053607482e-01 -2.308462463817167742e-01 -1.364041488518150658e-01 9.633815021617778696e-01
-8.430351905722402450e-02 -4.070588081545891551e-02 -8.738951916811565912e-01 2.332144201300076491e-01 -8.399239887837474383e-02 -9.687911597315905787e-01
2.126297127008549073e-02 9.528796835112070263e-02 -8.869067349772695730e-01 -5.324335986712808166e-01 7.403155354167001434e-01 4.104234045795074892e-01
3.154376305633814492e-02 2.407700186775123263e-02 -8.586943703287235330e-01 2.179632925168272783e-01 -2.327482016864557135e-01 -9.477975932270270576e-01
-4.406953845985752544e-02 1.428476194782131725e-01 -9.195897027390089740e-01 -1.982194539739813854e-01 3.621810706665232749e-01 9.107875274272850818e-01
-6.203071408067310083e-03 -2.237285561309075022e-01 -8.660796426528579728e-01 -2.067236223761483860e-01 -1.744237253765049400e-01 9.627261853598172436e-01
-3.913629152382383514e-02 -4.002310776534247494e-01 -9.316442979993204698e-01 -2.031759474900650952e-01 -4.121349849567447210e-01 8.881803243352208721e-01
-1.881922894387076661e-02 -1.626510100878636733e-01 -8.598269656846769804e-01 -9.928430089939351832e-01 1.041203768154644882e-01 -5.849535557353598841e-02
-2.677340313600976192e-04 2.177000620265692465e-01 -9.389367115878706205e-01 1.752643390479195484e-01 -4.740611751933494489e-01 -8.628721884684872334e-01
7.205507005334665926e-02 9.158763741539686920e-02 -8.702751830961978907e-01 1.238113163551248092e-01 -2.245588837518422698e-01 -9.665630169164024510e-01
-2.942070435496036557e-02 -1.418598971523648555e-01 -8.555340819814215569e-01 7.879963811208258173e-01 -4.728792914232956418e-02 -6.138611855280573515e-01
-5.144760682887163789e-02 -2.469151354622265704e-01 -8.744639644772003173e-01 4.052471658725293469e-01 2.853402417041842054e-01 -8.685365168008080117e-01
4.836198976332223981e-02 -1.086092342172543523e-01 -8.383155750715841625e-01 4.471186366236646337e-01 -2.643854778287618723e-01 -8.545087734465063312e-01
2.642759276099474613e-02 -1.597157573290678700e-01 -8.446641655137755444e-01 1.435974731375993241e-01 1.524991224190071770e-01 -9.778158228265326768e-01
5.945559328332343518e-02 7.478220586699831779e-03 -8.561305374776658761e-01 -5.056535217432609267e-03 -1.602599723758752967e-02 9.998587894618597982e-01
