-3.448653397538530702e-02 -6.839730985671522989e-02 -7.424876756192544391e-01 4.782381327210005750e-01 3.407640804651473898e-01 8.094245671316587787e-01
1.708201888871318033e-02 -1.389697629769069340e-02 -6.978025686478853684e-01 -9.152200506070921060e-01 -9.274064659497013863e-02 -3.921370059505972505e-01
6.321064924246412586e-02 2.301048333589135741e-01 -6.918432523173014825e-01 -3.557280232404645970e-01 -1.943551061742855302e-01 -9.141573530773647871e-01
-1.960125872784586332e-02 4.464745265280051917e-02 -7.998535785635595419e-01 7.529778692923809746e-01 -6.580440984862292453e-01 -1.514200565235714838e-03
-2.076947331598067922e-02 -1.236742853541894921e-01 -9.184379905361554908e-01 8.079125932434156887e-01 -2.355001118350731268e-02 5.888315876818732697e-01
-3.016722524603913935e-02 -6.268332656780206333e-03 -8.105510898763532701e-01 5.298366805453943451e-01 8.392970741411439617e-01 1.218749904071900758e-01
1.318026224145219666e-02 1.626824788107280872e-01 -7.186178629573519716e-01 1.676950033766534953e-01 -9.154603676995046180e-02 9.815791914024151188e-01
6.773940672444035693e-02 2.338948383197337055e-01 -6.945380150756278459e-01 -4.313904307481709055e-01 -1.366732881907606889e-01 -8.917526050166786344e-01
4.990936947589832626e-03 -1.767682104364800555e-01 -9.262263774198635780e-01 3.811237253808004433e-02 1.057357286069515873e-01 9.936636265635747645e-01
-2.990879549277880578e-02 -9.981786844072618181e-02 -7.335733917099742651e-01 3.734987661351580335e-01 2.770283154816722826e-01 8.852988106379120481e-01
2.463399283522415759e-02 2.367587563897752614e-02 -8.636194635034893929e-01 -9.836380073799299018e-01 1.451418446861819367e-01 1.067244834081341048e-01
2.617331671570573282e-02 4.386969869378783138e-02 -7.683186728359699957e-01 -9.937105761067153153e-01 -5.920684503603225804e-03 1.118223431549738023e-01
-3.391715601774292210e-02 -8.255643901936653151e-02 -7.372036686962046836e-01 4.317380360562876329e-01 3.063547056817484959e-01 8.483802582149757576e-01
2.238500085349444044e-02 -1.538580624194708230e-02 -7.672114406447810842e-01 -9.798693259599416949e-01 5.885031915583061046e-02 -1.907688233912103182e-01
2.416802321538303114e-02 -1.589789619043311397e-01 -8.998852788134968916e-01 -9.796697142845961492e-01 -1.389025789889979934e-01 -1.447526319751846202e-01
-1.106955633976564740e-02 -2.099807079000117760e-01 -8.962992817875449214e-01 3.255431474804923453e-01 4.916781952848666704e-01 -8.076349493489685116e-01
1.336939815450644171e-02 -7.863375909033680500e-02 -7.709568367076832240e-01 -9.951419761900561767e-01 6.268129634004521167e-02 -7.591773385501819627e-02
2.376970797150597045e-02 2.673422993358058608e-02 -7.767461918418084865e-01 -9.863782207932364487e-01 -1.188192548657687059e-02 1.640634797616485063e-01
5.127490722819694202e-02 1.762604668891248061e-01 -7.017914356754886285e-01 -8.601107791298192584e-01 4.230346493724861934e-01 2.850458437777914633e-01
2.129574338075792758e-02 1.864822219551781277e-02 -8.001506822631416771e-01 -9.991860154816977202e-01 3.591566785707296650e-02 1.836766910059292254e-02
1.521657244712915774e-02 3.719733401439211801e-02 -7.072670623657363320e-01 -9.573977681344997270e-01 -7.995592540680943050e-02 -2.774825464122374075e-01
-5.931346883844618688e-03 -3.340600693057930309e-02 -9.081173783587518367e-01 7.977026442175668697e-01 -2.581472287645437125e-01 5.450050455633308477e-01
-3.930398408430379326e-02 -1.138687257365136180e-01 -7.783170237800512981e-01 9.730049743515352123e-01 1.874054834049804219e-01 -1.346866907935376223e-01
-2.498414321655964207e-02 -1.219323257999240656e-01 -7.400921033981906483e-01 6.132802388852657272e-01 4.221367258582198190e-02 -7.887365557901119262e-01
-2.683135107761953561e-03 8.653758656651716619e-02 -8.229871653113036700e-01 4.760616527703567247e-01 -7.961352794686050727e-01 3.735423932393784341e-01
-1.613311565970738590e-02 -1.698383858723950118e-02 -8.975169827756985796e-01 7.930010282871405858e-01 -1.477214750366999119e-01 5.910395375510163474e-01
4.128986532983291990e-02 1.639205897451525007e-01 -7.071431517013685442e-01 -6.430874269334774240e-01 3.955950838813135917e-01 6.557004582345627997e-01
-4.472985152498414746e-02 -1.163109946205140854e-01 -8.345273403802659917e-01 9.105772291945924968e-01 -1.629295057837457927e-01 3.798724599353882625e-01
1.540776624683215350e-02 -6.646627385589841397e-02 -7.440948330815875256e-01 -9.880761072956563140e-01 4.562544833056285387e-02 -1.470507553741158546e-01
2.590744407306037195e-02 -1.715766712309379494e-01 -8.773571356976386237e-01 -9.580411719269318338e-01 -2.586670515333630016e-01 1.234846927514002268e-01
7.508686599282338170e-02 2.214192552354516674e-01 -7.018227480452062794e-01 -7.971987358391328105e-01 3.715760598429457828e-01 -4.758207722746876089e-01
1.427693370573621806e-02 -4.408270071363407094e-02 -8.408363191645509271e-01 -9.954331830211684551e-01 9.393288963487207710e-02 1.701147804243393138e-02
2.006086306159689941e-02 8.112349275855010311e-02 -7.477975172555444416e-01 -9.385873186464916973e-01 -2.693047525381317420e-01 2.157053442461838999e-01
1.964436943293255966e-02 -5.623857520484763090e-02 -8.015386179957219026e-01 -9.465906171750224640e-01 1.969141190958931809e-01 -2.553253476975970160e-01
6.993525501078668577e-03 5.269647820423006140e-02 -8.729816121858385847e-01 2.152890781734527192e-01 -6.459459686536364043e-01 7.323963533492913180e-01
-3.456795346199377506e-02 -1.365793437367096297e-01 -7.785766329613073022e-01 9.737960848014821647e-01 2.204618644382568549e-01 -5.583682972476543271e-02
2.320869477609551271e-02 6.969750683366557342e-02 -7.476927945302915823e-01 -9.400527329160209833e-01 -2.362252717809003588e-01 2.459643882946474791e-01
2.948636993290144545e-02 4.251347841920772447e-02 -8.425598446259314755e-01 -9.733480221131651788e-01 2.244390096008454794e-01 -4.712492777481258610e-02
-3.317830112613957827e-02 -7.743936397923380233e-02 -7.119063244860180939e-01 8.939088877003442679e-01 2.309624640808566054e-01 -3.841656422378666447e-01
-2.321748590013607283e-02 3.172112379554620221e-02 -8.464429002722856366e-01 8.876544939703737702e-01 -4.056665289109874228e-01 2.179545059307349542e-01
-4.377488126730440243e-02 -5.263137338797925502e-02 -8.326211190157850606e-01 9.958850687708352689e-01 -6.274030694946372555e-02 6.539559375979096811e-02
1.767396522094816236e-02 4.201416041708692928e-02 -7.156897911148589753e-01 -9.389899648584616454e-01 1.776745763212285445e-02 -3.434853175091995836e-01
-2.998142878661382363e-02 2.158514887303369587e-02 -8.309769763036060075e-01 9.327773595959939490e-01 -3.520762297615400716e-01 7.725752948434858047e-02
-1.752977853336838004e-02 9.736448299085144475e-02 -7.044157935180143104e-01 7.714722458852586451e-01 1.059711471416781847e-01 -6.273760354063835365e-01
2.410203644683938176e-02 1.747158289531654946e-02 -7.463015278569604671e-01 -9.550408710416251612e-01 2.518439161393037917e-01 -1.564339366751124893e-01
-1.196915527550256909e-02 4.502204928638302295e-02 -6.860426436173900910e-01 5.541422224125940321e-01 -4.712815470372182514e-01 -6.861633193065899139e-01
-1.105341823729372695e-02 -5.441042575255736896e-02 -9.190275109131197384e-01 6.448458319953624951e-01 -3.269719385822935087e-01 6.908423874791886909e-01
-4.733994205394662265e-03 9.499852249994988895e-02 -7.431423562097273505e-01 6.011330674972731325e-01 -7.602308412086392631e-01 2.463495549752905134e-01
3.177685380163169232e-02 1.319917801918284173e-01 -7.060784959307222497e-01 -8.658109855714595238e-01 2.015507904640936598e-01 4.579832050709688462e-01
2.616897180520928040e-03 -2.028421029553338084e-01 -8.006906985959946210e-01 -4.479752697373596826e-01 7.447880641098320043e-01 -4.945795156122705927e-01
-9.372369209665325218e-03 -2.247422044320631640e-01 -8.890157838319691086e-01 6.281702394861893302e-01 2.567249416181183741e-01 7.345028621966271931e-01
2.308002565381138751e-02 -1.465142002160105261e-01 -8.600455565805729119e-01 -9.695338013027595681e-01 -1.542874636841879976e-01 1.902618897239320983e-01
1.215669452107570299e-03 -4.567549510543388730e-02 -6.751218270156323920e-01 -5.136959787322229465e-01 2.868136242349593190e-01 -8.086126306134174824e-01
-2.278759248516719349e-02 -1.209002287786336283e-01 -7.232893578018970704e-01 8.180628556035804966e-01 4.522762649161143345e-01 -3.552736191659102150e-01
1.488782103185634295e-02 -4.895410617154746097e-02 -7.387808854564681393e-01 -9.832841656871142977e-01 7.867441776925944430e-02 -1.642028790784854086e-01
2.483743939234298731e-02 6.095340518494258425e-02 -8.199833219473696699e-01 -9.663654383828139682e-01 -2.461923980766710929e-01 -7.434475521817097976e-02
2.310918778826600781e-02 -1.398906941931625861e-02 -7.698230582116013521e-01 -9.596515754214476335e-01 1.310785251438751353e-01 -2.487715297963974115e-01
2.808348816697063197e-02 1.170683483934158442e-01 -7.109068435349936710e-01 -9.662863870893839691e-01 5.817317303640883591e-02 2.508116824723710114e-01
-2.777700184673037934e-02 3.048977042057895298e-02 -7.858072351687753754e-01 9.728680217893005411e-01 -2.193921758097946151e-01 -7.344988341187004555e-02
2.596034735791039050e-02 -1.692644323379620397e-01 -8.707662718665252211e-01 -9.758059028528406342e-01 -2.176283571234713943e-01 2.099376415251603262e-02
-1.519331769690592839e-02 -1.525026477220990939e-01 -7.413078788700003807e-01 5.997019627062553093e-01 4.575516164659850782e-01 -6.565090054185312995e-01
2.417717145805240928e-02 -2.124385428755777294e-01 -8.706053262628197231e-01 -8.819403483151974088e-01 2.271504404303285041e-01 -4.130180376520813379e-01
-3.277875055305096846e-02 -1.231621440213213382e-02 -7.926811685939755270e-01 5.393005056598837443e-01 -3.766177409453400626e-01 7.532025237611875701e-01
-1.277669554932203168e-02 7.260598807215325190e-02 -8.349032698497385052e-01 7.248441795416772360e-01 -6.147261330499289578e-01 3.109866504048587887e-01
8.676034919085046093e-02 2.359307110022658416e-01 -7.199840505202430574e-01 -7.532321713161915788e-01 5.661585198913036132e-01 3.348220817819275719e-01
4.975659260546778928e-02 2.153672812078694654e-01 -6.840700238672854372e-01 -1.571356477395412232e-01 -2.947522766764085200e-01 -9.425653736497796586e-01
-3.050695182164563785e-03 9.584209745073712927e-02 -7.909242912794933744e-01 4.641365877971240783e-01 -8.776959628578263617e-01 1.192770918957841014e-01
-2.897627073869087425e-02 -3.192378904849241944e-02 -7.720609539409345468e-01 9.422775902747703158e-01 -6.676184806146198691e-02 -3.281094306925516069e-01
-3.208296434738453634e-02 -5.775120271742881922e-02 -7.552578187344333172e-01 8.400223991099646792e-01 -2.194390469575759894e-01 -4.961943910040599870e-01
6.619450496149858858e-03 -1.544991392446103950e-01 -7.528407945422816994e-01 -9.408826860396721781e-01 1.946325162318087443e-01 -2.772326725623200372e-01
3.607716217244825389e-03 1.677160601693734598e-01 -7.111591166602128089e-01 7.286650912129080115e-01 -3.617138896299925688e-01 5.815584638679295315e-01
2.580754710437395752e-02 1.496331139161699020e-01 -7.149924757391630248e-01 -5.452698749618800633e-01 6.813639169793103689e-02 8.354868015626828459e-01
1.159805040997798249e-02 -1.702009082618273217e-01 -8.054649784020998515e-01 -9.875309831184384546e-01 9.355096748909032256e-02 1.266126923455377640e-01
9.776123877166597448e-03 -6.712648135518352321e-02 -7.172287083296774446e-01 -9.600068055784358734e-01 2.021445746419111567e-01 -1.937124265139647528e-01
-3.031345959227810596e-02 -7.872783466039202926e-02 -8.192881588682584537e-01 8.723452593063888427e-01 -2.851392881768756715e-01 3.971263462723849114e-01
-1.857983367962600177e-02 7.738618143636294411e-02 -7.929018103858600508e-01 9.011083756625586361e-01 -4.319418719241826521e-01 3.781421147423293799e-02
2.554803801426012641e-02 4.965723970243040436e-02 -7.731531755940795891e-01 -9.809154585932272630e-01 -1.941855659414002122e-01 9.840176464711462845e-03
4.626136599151025458e-02 2.067509663928795149e-01 -7.235540308377943486e-01 1.706109747721496405e-03 3.354048420372152117e-01 9.420725455757211764e-01
-1.366126004422647637e-02 4.357354230735309419e-02 -8.523598462182802038e-01 9.490975044116244375e-01 -8.848573711605964287e-02 3.022981995425283452e-01
-2.616004213295581096e-02 -1.611474129892122020e-01 -8.924335140283224943e-01 6.544340079652446462e-01 -4.914162462574341861e-01 5.746531146115880784e-01
-4.013189424972722630e-02 -4.721155018887993049e-02 -8.004406929816347827e-01 9.400101008054120300e-01 2.738022147346216850e-01 -2.035027213336849938e-01
-3.268506732874525145e-02 -7.874808669997690469e-02 -8.752345055731270973e-01 5.014221259381643758e-01 8.506351585868630050e-01 -1.581002169370868959e-01
1.129893825276333079e-02 -5.495963968222662005e-02 -6.951144239776553269e-01 -9.498875662325465541e-01 3.118218134735068481e-01 -2.192642604035312942e-02
1.199301646401149113e-02 -8.137179779338370167e-02 -7.314612931813421204e-01 -9.467039604190816693e-01 1.429470362746003247e-02 -3.217876206056238253e-01
-7.514166889532759158e-03 -3.265038742149239254e-02 -6.704576315592450930e-01 2.167848217681589973e-01 2.286670025436770004e-01 -9.490604527629613596e-01
-2.333921922394232087e-02 -1.569400060615431802e-01 -7.578020012051863707e-01 8.568261059342928698e-01 4.030586549708913280e-01 -3.215474223851467195e-01
-1.766450862066470950e-02 -1.282671116344954731e-01 -7.227251382494030985e-01 6.391809120485161255e-01 5.600182636941171133e-01 -5.270932611994327832e-01
2.158411801817455150e-02 1.349682116400377149e-02 -8.172743132800811550e-01 -9.972147881322083185e-01 3.420395987932867143e-02 -6.627786552845664481e-02
2.472791627830564151e-02 6.257986130854735485e-02 -8.247888857325792467e-01 -9.724806084529939998e-01 -2.261314532890776607e-01 -5.608950005361586916e-02
1.794789380785894936e-02 -1.159909776306753265e-01 -9.223834885690925800e-01 -9.479303892875969861e-01 3.174764388416363436e-01 2.523267416462149360e-02
-2.784904000204275684e-02 -8.941818653329236533e-02 -7.087537211550568594e-01 8.121413264595522818e-01 3.154150572363464966e-01 -4.908561984177353121e-01
-2.704478940129259601e-02 -1.486577560685328064e-02 -7.077194234162618169e-01 9.690285867883433601e-01 -2.369212771988754573e-01 6.965562717713116858e-02
-3.283757758762977791e-02 -9.788471544144282388e-02 -7.325682024381868773e-01 6.062120884809719668e-01 3.510562100041785261e-01 7.136290641482033736e-01
-1.545526832611174295e-02 -2.047903267127778870e-01 -8.165189399421743932e-01 6.896259288214710015e-01 6.205609494772591495e-01 -3.732561938950324509e-01
-4.282947615559518886e-04 -1.283051308823393855e-01 -9.331122265814391081e-01 5.947007577006809681e-02 -3.767817293379947807e-02 9.975187543962634740e-01
1.117887033117729439e-02 -1.704724348200395700e-01 -8.157628290777910740e-01 -9.985776138260944457e-01 2.702433814868060447e-02 -4.596122619131667170e-02
-3.251916192845218101e-02 -1.513302398157262141e-01 -7.989316820481210391e-01 8.288326266380677820e-01 6.597722583033301114e-02 -5.555929109446725578e-01
-2.498339365773851600e-02 -7.353323031400409160e-02 -6.961938674322367682e-01 5.108883682848500696e-01 5.275757260001319449e-02 -8.580266392627898808e-01
-1.289025507781432246e-02 -1.520712030783309965e-01 -9.262987307051810948e-01 5.902000232346067410e-01 1.109742643014107188e-01 7.995927996403109361e-01
-4.471870520718020103e-03 -1.280608946062752884e-01 -7.178954577000384862e-01 -1.443126271366828028e-01 5.550893375094583249e-01 -8.191762283124550681e-01
3.745915120771312491e-03 -1.312657340111820503e-01 -7.259281805511902386e-01 -7.194723322333672622e-01 2.432518406144945078e-01 -6.505290963426154649e-01
4.648441517959795571e-02 2.176513957948850997e-01 -7.267196939059553662e-01 2.312633193957556177e-01 1.915967698389090257e-01 9.538385371169235682e-01
-2.148643340185594011e-02 4.211320595224345154e-02 -8.252764924297536497e-01 8.214323328595890539e-01 -5.678189233291282001e-01 5.320331608276759883e-02
1.521429795968519752e-02 -1.389771903348567539e-01 -9.007884127241827521e-01 -9.674931157330259879e-01 -2.428072605439280940e-01 -7.072273493265719690e-02
1.337617601072631918e-02 -1.166748108949222651e-01 -7.742649601260147563e-01 -9.877205787166766227e-01 -2.361843146227317336e-02 -1.544351905326477870e-01
5.079529521718123726e-03 1.668183330678043308e-01 -6.872265324464701397e-01 7.115675091290670773e-01 -2.448525895382909767e-01 -6.585733743086249481e-01
-1.233267857379958914e-02 -2.146769058216011494e-01 -8.415965455704633724e-01 7.134140271145061885e-01 4.989350667568005493e-01 -4.920408774448009614e-01
-3.680745663181906463e-02 -1.382645140930015559e-01 -8.040786896130975858e-01 8.721080339992748343e-01 9.619857706199883007e-02 -4.797639115285418088e-01
2.040468097977352069e-02 8.567818781815514373e-02 -7.417747631458507795e-01 -9.255554586573757625e-01 -2.304468378884484969e-01 3.004019771185765242e-01
-1.868570538251022178e-02 -1.563712276210203200e-01 -8.683640711117861510e-01 8.352025892787497963e-01 2.861947597689060707e-01 -4.696053602152451822e-01
-2.847866341229480722e-02 2.695844305430870197e-02 -7.170307333169920749e-01 9.912463267317426219e-01 -1.311401265369956659e-01 1.526391013758982181e-02
-3.130668476605863448e-02 -3.129687708354832176e-02 -7.772101311667422019e-01 8.593257478276723482e-01 -2.092317746250041965e-01 -4.666704657546725810e-01
1.443121727929323923e-02 -1.578167845101502154e-01 -7.965040950006754272e-01 -9.743038435274981035e-01 1.103201556162145824e-01 1.963707813101502053e-01
-2.637087407187943544e-02 1.392164814083136741e-02 -7.182460976813775932e-01 6.607556383209172157e-01 4.180166196499265352e-01 6.234293000201113211e-01
6.935481246689961278e-03 3.490463836529442837e-02 -6.815816495323364643e-01 -7.645126780969807578e-01 -3.207791321372114313e-01 -5.591253110120125713e-01
2.716166604552583061e-02 6.407069590325011055e-02 -7.365315165608279369e-01 -9.900756441374367611e-01 -1.333954284449117567e-01 -4.422531577997028396e-02
1.916109054308099899e-02 -1.944040892620982341e-01 -9.158834792816884507e-01 -8.012763911426146191e-01 1.085947505417980269e-01 5.883564609590283823e-01
-2.082596514811649660e-02 -1.059441024977079981e-02 -8.893254852922347631e-01 8.030761105842019187e-01 -1.830441133414731913e-01 5.670657926378426250e-01
1.407469680095432482e-02 -4.601099470200474550e-02 -8.420227592497585567e-01 -9.954331830211684551e-01 9.393288963487207710e-02 1.701147804243393138e-02
1.680555256963775848e-02 -1.164734227447224296e-01 -8.006536122648748588e-01 -9.705549154629391495e-01 1.003384717681552740e-01 2.189870935784986594e-01
-2.734451310469785193e-02 -1.942241887242509568e-01 -8.716743359334431229e-01 9.548858865467270141e-01 6.779990529625234789e-03 2.968955631232800818e-01
2.328051816973812638e-02 3.662112159081585411e-02 -7.944644222376628928e-01 -9.801866685276062752e-01 1.980690178556222814e-01 1.661025725828322360e-03
-3.601956981097457350e-02 -7.987934893258709368e-02 -7.203509878958379575e-01 9.195694162451991671e-01 1.887676743078605945e-01 -3.446140650682514295e-01
1.763532724350142661e-02 -1.349909252403212745e-01 -7.825045543891719912e-01 -8.439313562318088158e-01 -6.439456908714198680e-02 -5.325722537279060642e-01
2.267703463077549650e-02 -8.832055220528935505e-03 -7.649512067336506904e-01 -9.591191921915183105e-01 1.561571297399899361e-01 -2.360197576501964489e-01
1.299051821635836129e-02 -4.873126607504336266e-02 -7.040288144193639353e-01 -9.719237076503089989e-01 2.343570461718035014e-01 2.100193840825307495e-02
2.202175716329284397e-02 1.755836613787854217e-01 -6.784739194169384646e-01 2.476408562421987813e-01 -1.330042376570612639e-01 -9.596790500395925294e-01
-2.556130282589353167e-02 -1.666639775470331042e-01 -7.943604968946595957e-01 6.273482589481025329e-01 1.387304680834491599e-01 -7.662819449916142833e-01
2.746850635452533981e-02 3.382241548225900507e-02 -8.515872971185310947e-01 -9.670079073714706874e-01 2.535115062121796048e-01 -2.505241104327445012e-02
-4.243015099607389679e-02 -1.237440648638969409e-01 -8.406637771973222151e-01 6.565564641264726164e-01 -2.457284541788347654e-01 7.131277138217418932e-01
4.152491955540388302e-02 1.603027683054606689e-01 -7.043277136488867995e-01 -7.513370658859195306e-01 3.964624154121486055e-01 5.275511032985356064e-01
-3.099183467305000744e-02 1.006063811036582434e-02 -7.047875195268669124e-01 9.885891825636707875e-01 -1.505122008512840004e-01 -6.124174474649618678e-03
-1.414126888927220820e-02 7.881130822465946817e-02 -8.156250244686732431e-01 7.885586999943672293e-01 -5.788453907867430193e-01 2.076371600367729886e-01
2.294036338250525150e-02 3.439653381938580917e-02 -7.913486272062038029e-01 -9.836317852437436171e-01 1.770066563847736418e-01 3.372172376508357494e-02
2.335427710250311331e-02 -1.557926908071095573e-01 -8.582351883771811574e-01 -9.699723160939728306e-01 3.474324467486376855e-02 -2.407210272509586468e-01
1.307781514582441636e-02 -7.609720202911565701e-02 -7.615290905939344768e-01 -9.948598204114539323e-01 1.003405272652646979e-01 -1.362777747904850983e-02
1.031398352284997565e-02 1.855785396719838165e-01 -7.079474222472514899e-01 7.922121602106049210e-01 -3.980268396036787948e-01 4.625738083479805085e-01
-4.057615744765313143e-02 -8.583025136766438135e-02 -8.356655175320609752e-01 7.867624070531941127e-01 1.780070699840875792e-01 -5.910316386485110485e-01
3.328463827181950968e-02 2.132519736950532485e-01 -6.854940308930302928e-01 3.898065529404589058e-01 -4.608189487826442887e-01 -7.973059310751022810e-01
1.571646076995602409e-02 1.000919325441508440e-01 -6.967679349713364889e-01 -5.026900194744021722e-01 4.195138738522510846e-01 -7.558510792254665711e-01
3.565404619915238382e-02 1.731910161752029942e-01 -6.767863643426780262e-01 -1.734164376827398990e-01 2.081023956445771442e-02 -9.846286980738975236e-01
-3.998626388586914299e-02 -4.298961983113447349e-02 -7.873130495983239330e-01 6.526586143952363139e-01 -6.591500622002264276e-01 3.735745287852584307e-01
2.048208038102225167e-02 8.198864473904803052e-02 -7.985570725472084241e-01 -9.856734826396351679e-01 -1.573157780863028155e-01 -6.082377484301780546e-02
-1.397165465913790747e-02 -1.814378240846765689e-01 -7.737645613970736136e-01 6.571916027662532134e-01 6.374527513525271027e-01 -4.021855132232097230e-01
-1.870302136672553905e-02 4.244892949758538592e-02 -8.385017225471613767e-01 6.993271934502939269e-01 -6.849980259382077996e-01 2.042527379539708643e-01
-6.723063485759604892e-03 1.437192296047516693e-01 -6.928641896322078608e-01 8.530077234550416110e-01 -2.049098144334655647e-01 -4.799893662102213132e-01
1.690833730941081192e-02 1.904959594181182270e-01 -6.857844189232062959e-01 6.728229423727642988e-01 -3.365963930885921829e-01 -6.587959899518256446e-01
-1.740093316876008614e-02 2.227837950192847541e-02 -8.725832502095974830e-01 7.782726060774497467e-01 -4.219641362877188939e-01 4.650139979789578160e-01
1.450223641906830778e-02 9.016785535243997118e-02 -8.207642407867534740e-01 -3.437710471972081905e-01 -8.747471735114704661e-01 3.415243030043805250e-01
-2.402995338422458937e-02 -2.000872691093977512e-03 -7.156245878604774457e-01 9.261639410425294150e-01 -3.125947208074405514e-01 -2.109618326519953901e-01
-1.281875025429142848e-02 8.041250347829699552e-02 -8.159233645799227608e-01 7.399440302305499984e-01 -6.310656724660056449e-01 2.328925699999870313e-01
2.371902675170704800e-02 2.876253804605827247e-02 -8.233438960694053899e-01 -9.823371047414745094e-01 1.477031463321957783e-01 -1.148807782516619719e-01
1.452771399201596009e-02 -1.380742288608863277e-01 -8.036929603631912666e-01 -9.826140253553579118e-01 5.904398155325312619e-02 1.760212641054466343e-01
-3.611296501922359875e-02 -1.164565827299696293e-01 -7.615806076629488830e-01 9.621238234031216363e-01 1.615335430076369760e-01 -2.196011450870849757e-01
2.137554739010986797e-03 3.074490938965816766e-02 -6.754414357726779006e-01 -4.057920622263810340e-01 -3.871634935805444155e-01 -8.279113669183245650e-01
3.935682165218758882e-02 1.635168933552222092e-01 -7.087217982429628860e-01 -6.150667972312641174e-01 3.838969224453816498e-01 6.887060242807809818e-01
-1.157430660626214067e-02 5.779553329271911594e-02 -8.558184159229453858e-01 7.098271669241390525e-01 -4.414232947489409864e-01 5.488996884217003380e-01
9.353509499624060308e-03 -1.400641781716767120e-01 -9.324642643762699468e-01 -3.640860130182935750e-01 4.766830345931134805e-02 9.301446704517281061e-01
-1.033006572573182992e-02 -2.003817586464221867e-01 -9.155227201552937899e-01 6.277619765322641765e-01 3.659982798936759485e-01 6.869935661526791471e-01
-1.227800167545558228e-02 -6.247785845187903662e-03 -6.696896502156723940e-01 4.178618737493241531e-01 -4.522787399337412084e-02 -9.073840939099293568e-01
2.377193616230132908e-02 6.722962130951565252e-02 -7.479103070110341145e-01 -9.400527329160209833e-01 -2.362252717809003588e-01 2.459643882946474791e-01
1.739193354123322668e-02 -5.480318720168588648e-02 -7.554122102544897910e-01 -9.790542143742932968e-01 2.020967649925936027e-01 2.469297259270483713e-02
2.360361939177344631e-02 1.432107494897414714e-02 -8.377884870662960504e-01 -9.921319795128296093e-01 8.468380547955717264e-02 -9.221056510755627766e-02
-4.083992390785020493e-02 -1.132942081920503968e-01 -8.374030478530004595e-01 5.299666213654682378e-01 -3.943348065316687467e-01 7.507565787897577669e-01
1.606459356710905964e-02 8.986489954373222400e-02 -8.195851449129964994e-01 -4.718918892196323767e-01 -8.264844124496192324e-01 3.069878839083616251e-01
1.125249643465152730e-02 -1.091514839797912556e-01 -7.501515803721455766e-01 -9.980375655412081493e-01 6.224761111892218590e-02 -6.800932183630695703e-03
-3.005089332637782273e-02 6.042742911707630477e-02 -7.301432979268362988e-01 8.704496074367603642e-01 9.487755868177986940e-02 -4.830276697786319851e-01
1.520727492335627491e-02 -1.586373782846678682e-01 -7.928290218933249367e-01 -9.668142342431205183e-01 1.131275622508367135e-01 2.290685293183498672e-01
2.213860127689259993e-03 1.341167267530202212e-01 -6.843091193444102993e-01 4.182997142782969857e-01 1.687716501393471402e-02 -9.081522506363057801e-01
2.232009747276404721e-02 -3.541410905484035018e-03 -8.048835706016130853e-01 -9.945653230353640462e-01 -1.033499036837634000e-01 -1.259426949524776636e-02
-6.950661937711627436e-03 9.405243981700261990e-02 -7.754481598657518848e-01 6.265217977462631538e-01 -7.794012921013688810e-01 -2.015643695498977542e-03
2.079242105471170929e-02 1.162600566445835121e-01 -7.236066633315955121e-01 -6.779853054564638493e-01 -2.986796106484682634e-01 6.716594492508719538e-01
-4.088400507677296403e-02 -1.310383689256385160e-02 -7.886059240862268727e-01 7.088624567846153468e-01 -3.252952753044978662e-01 6.258570134031017362e-01
-1.507728851282100040e-02 -9.669297923537914508e-02 -6.991121556011312688e-01 5.166998918205364388e-01 4.530126083696390249e-01 -7.264990009977866370e-01
-3.839818781612126114e-02 -3.791659529243952137e-02 -7.126533387582709711e-01 9.685661114669817939e-01 -8.917920260683898093e-02 -2.322213546169664411e-01
-2.852344028929431133e-02 -9.864303920988554131e-02 -7.433430070537171419e-01 6.294448429936817524e-01 -5.149803240743004717e-02 -7.753367928112420149e-01
-3.673791899462272581e-02 2.788846091806043356e-02 -7.568769743249136317e-01 9.033719972999497694e-01 1.631477386091588766e-01 -3.966129724063717221e-01
-2.964292742143916776e-02 -3.481793019155845353e-02 -7.646023052406896170e-01 8.405401280542960096e-01 2.992607027824011889e-01 4.515919894115166255e-01
-1.106942149117740373e-02 -4.239356936290072930e-03 -6.692908539617798969e-01 3.013883029344992526e-01 -2.966156074378444030e-02 -9.530400215460550495e-01
-1.359302834214144717e-02 -1.951229798941119808e-01 -9.151617184066543897e-01 6.829408200223960890e-01 3.321943904962583183e-01 6.505680004964560226e-01
-3.879080093367241744e-02 -8.083976829427430566e-02 -7.574246649990167279e-01 9.053663115090672120e-01 -8.535054271095566386e-03 -4.245456333929914505e-01
1.606995069922404970e-02 -8.618239004207027543e-02 -8.396783176891178258e-01 -9.586702039306556067e-01 -9.096856938427715089e-02 2.695851618315320275e-01
1.541794488487276994e-02 -3.541145677198700298e-02 -7.148394255493411009e-01 -9.812216267886223475e-01 1.907999689279035183e-01 2.827527151771819583e-02
2.259847047104663470e-02 -3.388509632186346987e-02 -9.103382799684200943e-01 -8.950394278721267582e-01 -2.664643534635865452e-01 3.576327318459101567e-01
2.457897031909337879e-02 2.186843616905037244e-02 -8.406632080887449510e-01 -9.890840757177379317e-01 1.186893789651472658e-01 -8.732423765745483957e-02
-3.917354758422253447e-02 -7.220265578335813283e-02 -8.475542297178447759e-01 5.725127245028621692e-01 8.158702808109715710e-01 -8.114718215524500955e-02
2.524366775833632864e-02 4.354299652202209964e-02 -7.844104293565151709e-01 -9.807846841571469243e-01 1.948347700055064191e-01 1.004070314604701974e-02
-1.237410257277486540e-02 -1.522210714362392803e-01 -7.390937960033706622e-01 4.892914190126474439e-01 4.586979128164528907e-01 -7.417480246407263111e-01
3.148277631964144230e-02 1.936962885666149992e-01 -6.791645924055239592e-01 2.061719142692849671e-01 -2.042548381802078150e-01 -9.569603454932267272e-01
-2.191199064851611072e-03 9.541760965743543987e-02 -7.968464758434441464e-01 4.646534100882369622e-01 -8.696259197172002686e-01 1.668771052283271883e-01
-5.657991838922956512e-03 -1.836421311484860708e-02 -9.091353549701601811e-01 5.418724914425175898e-01 -3.629512813346588707e-01 7.580505064937348436e-01
5.725782305855844218e-02 2.047049162421144541e-01 -6.870177846938729793e-01 -6.712820409222112206e-01 9.713612132658366871e-02 -7.348094960388970032e-01
1.937792136045018987e-02 7.817185382897190449e-02 -7.714039932341224537e-01 -9.727820616361588790e-01 -2.277967421699191308e-01 -4.247004609929003888e-02
1.899997160584080205e-02 -3.173323618322904105e-02 -7.529335806077660509e-01 -9.666418606926229229e-01 4.632001321038600045e-02 -2.519086531520769445e-01
-1.761561065881049951e-02 5.878924770516731624e-02 -7.106022649409178271e-01 8.723240047373372885e-01 -4.457620755055297646e-01 -2.008656336958019317e-01
-1.382512862842509918e-02 -1.205282251428301393e-01 -7.148866771104168683e-01 4.333007032578753970e-01 5.094250945317380097e-01 -7.434625569708002146e-01
2.406863652987881533e-02 -3.468082754331394679e-02 -8.955748794360639531e-01 -9.141043390389875789e-01 3.808874622052804138e-01 -1.390611321862309513e-01
2.537406931318462663e-02 -1.982329500796918831e-01 -9.012297782370409793e-01 -9.560552948873661805e-01 -1.017150652728633226e-01 2.749769419685372251e-01
-2.807974256635712221e-02 -8.682523051125591584e-02 -8.934627742813017193e-01 8.062535846165946873e-01 5.892806020774490339e-01 -5.199547391966593407e-02
-2.631461471146916489e-02 -1.615843464140290786e-01 -8.590461041018631061e-01 8.771202090542019603e-01 -4.465908146533543177e-01 1.766827188379397617e-01
-1.779787368872599168e-02 -1.915063811255313109e-01 -7.993085810136223435e-01 6.610631909370616732e-01 5.675507463842972555e-01 -4.907969110199624785e-01
6.526380188305576455e-04 2.824519012247971375e-02 -8.865166246087204938e-01 5.208333758056957752e-01 -5.715741239846303667e-01 6.340627850915439012e-01
1.244712766623259394e-02 8.988476867665175229e-02 -6.999652782953299512e-01 -4.381303398626889001e-01 3.728691798922695311e-01 -8.179305471604976230e-01
-2.272825569746867325e-03 -2.198969579188305434e-01 -8.348430649016744809e-01 3.481658848137236251e-01 9.155309293789654079e-01 -2.014538011613690172e-01
5.000105318801761206e-02 2.141965229517492353e-01 -7.263619428527150479e-01 8.769590197897558781e-02 3.048696882846717582e-01 9.483479856789389650e-01
2.637574324087614552e-02 -1.712488515408114031e-01 -8.720295106144189123e-01 -9.758059028528406342e-01 -2.176283571234713943e-01 2.099376415251603262e-02
7.664217138577700608e-03 -2.208680574351133130e-01 -8.317477049658681398e-01 -9.841482950919634709e-02 9.476296866561898513e-01 -3.038297192517002143e-01
1.831660827520061735e-02 -2.255061198943910175e-02 -8.226908720423049548e-01 -9.672509988251952739e-01 2.478823167479561607e-01 5.458811514723733299e-02
-1.643108246887819979e-02 -1.315407256028693073e-01 -7.326463437815222690e-01 9.000718684532452718e-01 3.216417696038852969e-01 -2.939680317061109105e-01
1.660381726356222054e-02 -7.404186134586453194e-02 -8.530688862669548733e-01 -9.975813345822096556e-01 5.996491171148652516e-02 -3.515238621503347788e-02
-2.658320421570330508e-02 -1.370754640683663761e-01 -9.089489110819820583e-01 8.840496460836387849e-01 5.257704853245062648e-02 4.644263959197514890e-01
-3.310700946596933231e-02 5.587992220765061052e-02 -7.372022036262073641e-01 9.539182736863245360e-01 -2.588610999058309908e-02 -2.989478824759565501e-01
-1.705958783541526580e-02 -9.653421266818099089e-02 -7.004233238700859898e-01 5.220265767330782847e-01 4.631470854446400609e-01 -7.162283367952421154e-01
8.760368096471748273e-03 -1.986881107190094919e-01 -8.105541065659915834e-01 -9.360309504446121531e-01 2.103678171702745014e-01 -2.821195514472014665e-01
6.519758453218018300e-03 -4.243130174377297663e-03 -6.712298031160125467e-01 -7.042668309520875303e-01 1.542999536574482349e-02 -7.097676704836007877e-01
-4.447554947482919990e-02 -4.952150918688530412e-02 -7.873649552199990520e-01 9.296405952243369519e-01 -3.680138376308191295e-01 1.828056408259024282e-02
-4.620166977451635459e-03 -2.152766588882386867e-01 -8.889058272076398870e-01 3.283644265505863968e-01 -5.230936554155176006e-03 9.445366274945989904e-01
-1.651996015407465254e-02 -2.023946779006260965e-01 -8.833501812468205205e-01 1.430611134673915041e-01 -3.264568561389880608e-01 9.343229842475876401e-01
2.818123082308271465e-02 2.119784696040211136e-01 -6.883371574730526854e-01 5.813213725181256564e-01 -4.899289068690213522e-01 -6.496423077877305774e-01
-3.719508394952684982e-02 -3.890323024262887924e-02 -7.854092593797201705e-01 7.528038287742382373e-01 -5.998867382042939456e-01 2.709654898865543893e-01
-2.383017090072313965e-02 -1.840006732232192244e-01 -8.890943261885416726e-01 9.021265324316797285e-01 2.946157910317208084e-01 -3.152288932784353404e-01
1.628829228011249852e-02 -2.988783935946391287e-02 -8.452268430818687950e-01 -9.711458889200392797e-01 2.322753990115666023e-01 -5.407218737691511790e-02
-2.626318587805516816e-02 2.017453629532751924e-02 -6.915679411707634783e-01 9.235129330458297092e-01 -2.067550621025801560e-01 -3.230730672650496405e-01
1.092926547530741026e-02 -1.765666779479665993e-01 -8.058358015267770291e-01 -9.933318200885847826e-01 1.036440444391951154e-01 5.049561616403621528e-02
-4.336933252844587562e-03 -1.203979175273306862e-01 -9.309609058776909807e-01 2.602584684882235377e-01 -2.719041238376056491e-01 9.264629927958635269e-01
2.029400576457648583e-02 7.384017124210254246e-02 -8.453161848003630796e-01 -7.599478596634616778e-01 -5.479271552750105689e-01 3.496499436653150994e-01
-3.207276808014056235e-02 -1.654857688265707061e-01 -8.054637408807908683e-01 9.430105852884609341e-01 2.696531075194659732e-01 -1.949826598418687162e-01
8.927346768504845764e-02 2.539442494501329972e-01 -7.168882217652465805e-01 -9.097779049549070685e-01 -4.050611991382945254e-01 -9.071708002634996937e-02
-3.992915640271856720e-02 -6.822357914952043023e-02 -8.672175057710075352e-01 9.535969247573046204e-01 -8.201576099803895015e-02 2.897003970334251499e-01
-4.080121162067031765e-02 -5.985575523542581433e-02 -8.596302459893415682e-01 9.592943940552428606e-01 -1.684376332575370783e-01 2.266782504714203172e-01
3.608605626980771613e-02 1.973612645577499380e-01 -6.790038036324195225e-01 8.874379179042857224e-02 -1.925974421733800401e-01 -9.772567547410089261e-01
1.162794768250624902e-02 -1.363660125075810137e-01 -9.314134897965212767e-01 -5.758756970576379697e-01 4.326308549314337309e-02 8.163917484712791550e-01
-3.427274809059716737e-02 -2.848504613399655688e-03 -7.527902892479810815e-01 9.787439615997892695e-01 -1.944639614426278140e-01 6.514618432410790305e-02
-6.063545515135735330e-03 -4.477640945827447705e-02 -9.178118868607223479e-01 4.709566641693891387e-01 -5.751441202583376100e-01 6.688864338635549522e-01
1.670726333015217988e-02 -1.053180792145016476e-01 -8.246112237841886072e-01 -9.788692156273396394e-01 1.443336386838111052e-01 -1.448546148433260961e-01
1.583626150279819969e-02 3.635179508115025937e-02 -7.093241815340907142e-01 -9.624906452844439464e-01 -3.620946868642613281e-02 -2.688877686273244971e-01
-7.741764101475388793e-03 -3.544112815530103822e-02 -9.076231317503861140e-01 5.827967737158377126e-01 -5.985128541596315133e-01 5.496637917419179287e-01
3.645553891573723171e-02 2.344715386037480309e-01 -7.087073964592527364e-01 7.948391790675765067e-01 -5.959521218701038237e-01 -1.143317447505366319e-01
4.659218109274421843e-02 2.291789806731863444e-01 -6.900604037590416517e-01 2.224315057821372732e-01 -5.001752996148242092e-01 -8.368685051372837247e-01
1.854642283098151267e-02 -1.307035826673374201e-01 -7.848754313869370502e-01 -9.370348208466926510e-01 -3.783096378816983019e-02 -3.471808789372834991e-01
-4.378344732383275539e-02 -5.485534945396289275e-02 -7.745851277642294974e-01 9.265500123786688524e-01 -2.562980895477507404e-01 -2.753477144544000943e-01
-1.483827988690527427e-02 1.237818692401290721e-01 -7.071835729081353827e-01 9.655211293311908305e-01 -2.598251411740287176e-01 1.611970312746656073e-02
-1.439216492774858698e-02 -2.094254471966529307e-01 -8.855800457280845750e-01 1.597977239618609824e-01 -2.753506735684989604e-01 9.479697748251167955e-01
-3.843666845581988900e-02 -2.418544007036074750e-02 -7.458338288644950076e-01 9.839635099404335783e-01 -1.725395456464093036e-01 4.523180621899914461e-02
-3.357788518364353963e-02 -5.606017740816040401e-02 -8.813896869712319893e-01 9.454145131799279733e-01 -1.407180707845711864e-01 2.939214568952532858e-01
1.190663267145891831e-02 -6.586639720419076860e-02 -7.278105708149631425e-01 -9.894324160623105824e-01 7.640343662189691409e-02 -1.232315256639409939e-01
5.024961539096407370e-04 -2.005185361182753312e-01 -9.206958124001783927e-01 1.673502217074465948e-01 3.588519500904421844e-01 9.182696669338236140e-01
-8.612901103323638771e-03 -1.193256441751814056e-01 -7.119553699965938121e-01 2.470200201825004660e-01 5.619633439573812339e-01 -7.894164361585555012e-01
-9.380450134605849283e-03 1.033678193500131987e-01 -6.963008314677185950e-01 4.412265999861350596e-01 2.994608221421961036e-01 -8.459564430079098418e-01
1.604834652172751688e-02 -1.546227451820078869e-01 -7.799817094790463257e-01 -8.999914665958390625e-01 6.863601576204381161e-02 -4.304700423896921091e-01
2.288322178081281244e-02 4.839558967865630404e-03 -8.733367349922632750e-01 -9.883073287053784073e-01 -1.013308147845108781e-01 1.139328310994964372e-01
1.450128077227569312e-02 -1.068469814531758100e-01 -7.824909045695961352e-01 -9.789698569899690783e-01 -6.132353159943047805e-02 -1.945698938099456043e-01
-3.068077555810628382e-02 -1.280409866772551641e-01 -7.502510101021360178e-01 9.256456181045928933e-01 2.116768939015506168e-01 -3.136448346011106447e-01
2.485475583605441588e-02 -1.660581605304152497e-01 -8.737793111311240590e-01 -9.584254699898028251e-01 -2.596353206661082824e-01 1.183643474084686842e-01
1.606852514968494516e-02 9.234704694400412694e-02 -7.837794963525404057e-01 -8.908753430420021102e-01 -4.454807988580499201e-01 -8.881430632836634365e-02
-4.087944942324368836e-02 -9.906812342539800254e-02 -7.717484417630129379e-01 9.701496195359686769e-01 1.558723618016795709e-01 -1.857781540994035696e-01
4.406797754171707347e-03 -2.384920914819948223e-01 -8.847474027049456735e-01 3.989187087394541753e-01 9.163272427122011177e-01 -3.475986307656376423e-02
8.366131248988462055e-02 2.316676643378259848e-01 -7.084771207360190948e-01 -8.337818382287565111e-01 4.664392616074138909e-01 -2.953680102363937521e-01
1.966920114636010533e-02 1.833246416906492982e-01 -7.172145513205904210e-01 3.676616523994671870e-01 -1.556836907111980028e-01 9.168355892969214382e-01
-1.092989445274917051e-02 -1.950630616918755389e-01 -9.178238872350777955e-01 6.347298305475238545e-01 3.454723241757473029e-01 6.912068543075358118e-01
-1.483587349702148762e-02 4.488327518722029508e-02 -8.471220332272174636e-01 9.861217987567115761e-01 1.000123113874006216e-02 1.657219761906582045e-01
-1.316403334603153188e-02 -1.680324204155643764e-01 -9.154511154262477968e-01 8.108902081421472952e-01 -2.611673891432853556e-01 5.236875644764394933e-01
-2.726117972160590694e-02 1.694752861911937025e-02 -6.922236952934777143e-01 9.125995863129312546e-01 -2.261424909687397011e-01 -3.406193899940523351e-01
-1.979258209847789204e-02 -1.934338287432034176e-01 -8.904846801096312214e-01 5.019760308846582531e-01 4.297607364959951659e-01 -7.505503139588337591e-01
-1.634181356903403881e-02 -7.645365193695703721e-02 -9.207676304134061462e-01 7.627013172107307559e-01 -1.438790403142934105e-01 6.305438307391914021e-01
-2.845231590535461999e-02 -1.333161559795242868e-01 -8.571285035310535205e-01 6.784547848810615900e-01 7.259255570377197708e-01 -1.128325773501103191e-01
-4.110817912777269684e-02 -8.502935505149891715e-02 -8.393236234383312233e-01 9.500901589377368506e-01 -2.981339457683895300e-01 9.189581203861869885e-02
-2.104339809693479835e-02 -1.259839483279965866e-01 -9.181545229118588392e-01 8.079125932434156887e-01 -2.355001118350731268e-02 5.888315876818732697e-01
-3.558245919231815824e-02 -1.128633444895190130e-01 -7.572101552075970465e-01 9.562933157259643213e-01 1.441393443902670435e-01 -2.544149046274314374e-01
6.706984423281624197e-02 2.127091817038439525e-01 -6.952973968175119035e-01 -7.485951363564012917e-01 2.464308932303478084e-01 -6.155299640839865249e-01
-4.027233472659400015e-02 -8.631670833106352969e-02 -8.184881859524133496e-01 5.090772320161980335e-01 -7.595196549438363309e-01 4.049324210244489852e-01
1.807941664316828345e-02 -1.431345326831321568e-02 -7.000319274344685150e-01 -9.152200506070921060e-01 -9.274064659497013863e-02 -3.921370059505972505e-01
1.572990548023150276e-02 -9.435518747095703387e-03 -9.096513831876984479e-01 -6.483320421969276381e-01 -3.042761451262792627e-01 6.979123086519196661e-01
-2.616256168749250127e-02 -3.603139825323060930e-02 -8.862223327087758173e-01 8.410245776506167781e-01 -3.685796827884261773e-01 3.960134811129345511e-01
-2.239619954968413360e-02 9.838318923207269029e-02 -7.183615051658698292e-01 9.567821009859585057e-01 -2.834425002886628020e-01 -6.502584303956963907e-02
1.492732477171444978e-02 4.889145379382976025e-02 -8.770707920868509033e-01 -2.215027965251215036e-01 -6.710863030656424311e-01 7.075165616218741516e-01
1.928411510692574007e-02 -8.865007481373557430e-02 -8.045038910314032954e-01 -9.925699288725258196e-01 4.716222681651208171e-02 1.121635442543485461e-01
6.959992347059190329e-03 -1.211027500390539496e-01 -7.269808536502214702e-01 -8.704347864638581900e-01 1.413467504258441032e-01 -4.715552763543969794e-01
1.593772403649890840e-02 -3.218237581577884643e-02 -7.240704559804889140e-01 -9.880502424205457324e-01 1.536473403490375145e-01 -1.221528781354813860e-02
-2.982603950330466741e-02 3.968639354310898870e-02 -7.373872706490894879e-01 8.120945673336187332e-01 2.906487301872290874e-01 -5.059898510323840304e-01
2.628460033894757658e-02 5.252796223246337937e-02 -8.055058840635018758e-01 -9.672642930938867289e-01 -2.446761393235551418e-01 -6.733033604033047959e-02
8.704071874619618773e-03 -1.310141668710681218e-01 -7.375716607261640911e-01 -9.878505058355270263e-01 1.553470372465006188e-01 4.321589895860463749e-03
-2.585547819042841380e-02 7.389014077995682828e-02 -7.210184229113628662e-01 8.488832195802613612e-01 9.991075778035297950e-02 -5.190521361046553928e-01
2.074314267347847004e-02 -1.598557013566022922e-01 -9.247319779013896124e-01 -7.865960238308590258e-01 -2.581549081849298655e-01 5.609124162233469768e-01
1.067971935164748441e-02 -1.955549674722802111e-01 -9.218513550404467960e-01 -3.163477424833626706e-01 2.539545473235091944e-01 9.140192523789592016e-01
-2.883526675150470051e-02 -8.504310993410695019e-02 -9.020552166467783461e-01 9.437738017767133281e-01 1.917917329594826248e-01 2.692711314796435995e-01
-4.490365096094414699e-02 -1.212456968811072427e-01 -8.294163491956764167e-01 9.942165010572774353e-01 9.097156346957083195e-02 -5.707647208199270045e-02
2.287884680506661883e-02 7.516867751604715091e-03 -8.718228205625315752e-01 -9.926439908112710819e-01 -4.021290117005734549e-02 1.141964539106210264e-01
1.946546149198151790e-02 -5.372944863757377065e-02 -8.965282082493158944e-01 -9.890158278816539861e-01 1.383156369125369822e-01 -5.211983101513203986e-02
-3.725787345124623867e-02 -1.609653880172500773e-01 -8.396983242157033400e-01 9.264001449544376765e-01 2.954348058519679632e-01 2.334545928432486539e-01
-2.315932163554502293e-02 5.892073863552477891e-02 -7.227482179434816523e-01 6.664651826546837965e-01 1.733958046949302945e-01 -7.250917564165633156e-01
-3.362872716055460842e-02 -9.229254827103415548e-02 -7.221955288109501714e-01 8.875277945254773648e-01 2.739050345122588381e-01 -3.705002645256552651e-01
-8.607360160498848251e-03 9.133791565043122840e-02 -7.571432608409671694e-01 7.410293068494877566e-01 -6.657436427269630697e-01 -8.752695904006629890e-02
2.024859882385159418e-02 9.737058374544564632e-02 -7.023477830640011410e-01 -7.226247821560809470e-01 3.619125421234311024e-01 -5.889250682961562067e-01
-3.372607293311855048e-02 2.939245349664713469e-03 -8.490323612969099543e-01 9.930533468776869821e-01 -5.751372138218172753e-02 1.026509722691274218e-01
1.812612755281280477e-02 -2.434913035526889771e-02 -7.103547452488125913e-01 -9.726164701418562597e-01 2.069656694932801577e-01 1.057469321540535356e-01
1.529466411139776549e-02 5.057088982951626205e-02 -8.753628275288658500e-01 -2.215027965251215036e-01 -6.710863030656424311e-01 7.075165616218741516e-01
-3.919050492540476771e-02 -6.326813321901092468e-02 -8.058797715244192528e-01 3.737667317942218737e-01 -4.737990323490631206e-01 7.973787726977422663e-01
-2.759840692682517804e-02 -1.346750261830040596e-01 -7.472368945926453065e-01 8.678677146912787688e-01 2.816288859252225607e-01 -4.092563993501567854e-01
-4.130246117784160120e-02 -8.817679459824681598e-02 -8.376824743557245156e-01 9.520755765614408173e-01 -1.286839294851624405e-02 -3.055920499262417822e-01
3.066171631430848928e-03 3.542330356156342397e-02 -6.781370352096107723e-01 -4.003816241595367087e-01 -4.405094022766947726e-01 -8.035210149966213189e-01
2.332523795584625845e-02 7.758335607422003205e-03 -8.374540306489748342e-01 -9.968568469309116997e-01 2.029388268613517565e-02 -7.658057882049704168e-02
-4.164909541467259890e-02 -1.219081898282992626e-01 -8.658903455158991624e-01 9.900153409337999477e-01 1.234084480940870615e-01 6.811739612419732970e-02
2.357159807507916427e-02 -2.550044428087277354e-02 -7.883216172731392080e-01 -9.606122560557667223e-01 2.293880666818730596e-01 -1.568604742419275611e-01
-3.830696180080276486e-02 -7.131866837018034644e-02 -8.342583798273398576e-01 6.200321224577686197e-01 7.613114964727650813e-01 -1.896443314705545946e-01
2.260667210600718000e-02 1.292964745996699749e-02 -7.323395528441594138e-01 -9.813777458011005983e-01 1.823816684302098368e-01 6.028803419388754914e-02
-1.687425806397165398e-02 -1.778881165951670673e-01 -7.730191721058816690e-01 7.032409743280726433e-01 5.872643328801198104e-01 -4.007152796599735556e-01
2.355018522510572698e-02 -2.710321355846223579e-02 -9.021994200434391153e-01 -9.283537499947009941e-01 -2.390021136326931084e-01 2.846705192848071886e-01
-3.496658139258177617e-02 -8.156585985925582372e-02 -8.585500624459152519e-01 8.675382750234164053e-01 -3.566658596549607263e-01 3.466508415192197101e-01
2.810758986216632324e-02 3.139416100169677842e-02 -7.590517902317301946e-01 -9.715325154134147878e-01 -7.586789174226647031e-03 2.367847379467458713e-01
2.400269499914818236e-02 -7.947600869799150217e-03 -7.908173073577620116e-01 -9.691908417241477114e-01 -8.778544772067047031e-02 2.301365409632278036e-01
4.418908404866179335e-02 1.838744358167766768e-01 -6.795416897978032722e-01 -5.253841361843641922e-01 9.930226487460355744e-02 -8.450506314041682510e-01
