-3.346113984239330874e-02 -1.325129419880197446e-01 -8.507706345695104089e-01 1.687713058801734722e-01 -2.685217631023415485e-01 9.483735071436310005e-01
8.442596570620933272e-02 4.294590668233386199e-02 -7.182975699316146434e-01 -7.424679025663885046e-01 -6.449537770883531085e-01 1.810415396480450911e-01
4.625768074574856947e-02 1.905205627436322158e-01 -6.004985080671312314e-01 -2.543287764654889593e-01 -8.386599577440559949e-01 4.816288495701908090e-01
9.524488115353599293e-03 9.143291771974455806e-02 -6.687890510941540967e-01 -7.622897275115949611e-01 2.494489304675254482e-01 -5.972349641631055084e-01
-1.130383665079786187e-01 -2.542629785511928836e-02 -7.517454098782065941e-01 3.771168913630488229e-01 5.953950646207776254e-01 -7.094276335708177283e-01
1.068752884388634028e-01 -4.784094481112089597e-02 -7.661563173379468683e-01 -8.525047842257862385e-01 -2.294382933400070934e-01 4.696739958964842310e-01
7.960303047969821688e-02 -2.425552663498537972e-02 -7.204379517374351893e-01 8.536877910336251873e-02 6.454716058837391968e-01 -7.589984041829522798e-01
-1.156970614180319878e-01 -5.383047575282853001e-04 -7.401947478343524622e-01 8.787032272632760987e-01 7.053001015647408778e-02 -4.721293848771022650e-01
-6.451964118696433548e-02 -1.911568130247665309e-01 -8.306496500182489751e-01 8.384212999311129177e-01 4.556539945888495313e-01 -2.990470883273194103e-01
4.247513247985720136e-02 1.560777426346885988e-01 -6.027827062950573689e-01 -6.185463670920704482e-01 7.484218363861565582e-01 2.393013718673059897e-01
-7.622076803988034333e-03 1.349336121789302401e-01 -6.204685161065210952e-01 4.211348185559724011e-01 5.618140735044908629e-01 -7.120466357003020219e-01
-7.818772125265474604e-02 -9.043367984750003141e-02 -8.238421950748953115e-01 2.723723156777064225e-01 -3.218109799721790565e-01 9.067805769984871311e-01
-7.873573017220407422e-02 1.211563572388272766e-02 -7.127510634150380220e-01 3.107972711234577856e-01 2.609557244877791504e-01 -9.139514024931907343e-01
2.179969960906667434e-02 -2.656593711758046400e-02 -7.267301482980383920e-01 -2.741583285052268809e-03 4.349909028641129605e-01 -9.004306737037309771e-01
-2.037318827256869372e-02 1.413660027761049487e-01 -6.541712036392616225e-01 8.801270759843700109e-01 -4.702087823972083691e-01 6.542194643800820775e-02
3.404022691060015066e-02 7.832998767438956178e-02 -6.865683353024468749e-01 -4.885379071174599797e-01 -6.219087393558497823e-01 -6.120132622926643950e-01
-5.787541677624549741e-02 5.518432037600808082e-02 -6.958368871091000774e-01 1.820601491060789001e-01 2.818240470086795235e-01 -9.420346642428408801e-01
-1.823435754821689297e-03 -2.966663650821204506e-02 -7.993207576450456209e-01 -8.582905647024180462e-02 -2.218353740905845140e-01 9.712993564640710620e-01
-4.127988345714114771e-02 -1.681993200834213664e-01 -8.531893541568540407e-01 -2.244924310771884424e-01 1.433992620998353514e-02 9.743703171306820066e-01
3.341825945302109163e-02 -1.495067999504886939e-02 -7.748810623505991702e-01 8.623324869195966857e-02 -4.127738598486487276e-01 9.067422828156181946e-01
-8.366905881442554538e-02 -2.492336114503504105e-02 -7.965616607391486914e-01 2.742636801712196593e-01 -4.095834062391466857e-01 8.700694610618607827e-01
-7.411336674617045872e-02 -1.445049907571163139e-01 -8.021654669790321268e-01 -1.688012353044197195e-02 6.744875136692023432e-01 -7.380932565292371850e-01
-9.837608234607779500e-02 -4.854745228469904000e-02 -7.988687705084949187e-01 2.226823281648878661e-01 -1.425705165367666116e-01 9.644097824770883065e-01
-1.613507235698533049e-02 -3.736076232774003525e-02 -8.123539808935671402e-01 -1.296985029486478758e-01 -4.732369895660251680e-01 8.713352110636670700e-01
1.292200104321717530e-02 1.247542008408672326e-01 -6.758189139225272424e-01 -9.490981924722546870e-01 -9.020737548588127208e-02 3.017867632184163540e-01
4.023077914382377769e-04 6.469130225638576592e-02 -7.439190178990524593e-01 -2.557232504938035111e-01 -5.294588744951317372e-01 8.088750950395441341e-01
1.352622132460531458e-02 -1.896153780262326283e-01 -8.117814545124526493e-01 -8.479597535072211367e-02 3.406866353036183126e-01 -9.363451602319622369e-01
2.780402984714300599e-02 -2.104129560687906242e-01 -8.264509252459754096e-01 -1.889385094425012623e-01 6.289692332498645344e-01 -7.541219684339682816e-01
-4.153775449766409361e-02 -1.752717248862011024e-01 -8.540759838123861414e-01 3.851334245933358824e-01 -2.852432780836086645e-01 8.776722153339060473e-01
-1.068839222326325028e-01 -1.152360092658581275e-01 -8.063844571232009484e-01 9.414019750302878853e-01 3.363779374069275074e-01 -2.474276934650493018e-02
3.233442555019682557e-02 -7.606163772194816930e-02 -8.183938706069153746e-01 -5.047897413473408090e-02 -6.304928153488517650e-02 9.967329939699193231e-01
4.448646354977409123e-02 -3.582428739207290519e-02 -7.994100629118258139e-01 -3.500625249166800512e-01 -5.780936703110034491e-01 7.370644049167696110e-01
-4.905025479082794626e-03 -1.807501725090090161e-01 -8.548454035844879062e-01 -9.856823465293251818e-01 5.099489093644155036e-02 1.607166227831579586e-01
1.629436187486259582e-02 4.413866514061250135e-02 -7.411311315969617564e-01 -4.007577643106098320e-01 -5.809709376096736655e-01 7.084250023804201657e-01
-2.228783754759239288e-03 -8.352181424830915080e-02 -7.602591989347874391e-01 7.575465399151780355e-02 5.399945707779367776e-01 -8.382524058593432414e-01
-1.161932157470776383e-01 -6.326925870187662115e-02 -7.835776630784672125e-01 9.751242630156621294e-01 -1.799921920681569337e-02 2.209269105068617789e-01
6.897356189081101097e-02 -5.071210530635264502e-02 -7.362552248211866601e-01 2.570897162618730920e-03 4.026143955174344424e-01 -9.153660683081441540e-01
8.431779078629966784e-02 1.815716808434117702e-01 -5.639404504735999746e-01 -9.477606750232762112e-01 6.662026572785559320e-02 3.119478210755347036e-01
-2.184225981555093163e-02 3.212006017821065346e-02 -6.925242251321672704e-01 3.301029064487376319e-01 3.888859429675731727e-01 -8.601161517587709859e-01
-9.142021797002641836e-02 -1.095821763494423950e-01 -7.888964860904558174e-01 2.848535851048994982e-01 4.360383140987854622e-01 -8.536562678799790582e-01
-1.151239444500696124e-01 -6.831881472916846720e-02 -7.794427696104663239e-01 8.966249535842931717e-01 2.829570032553679892e-01 -3.405862987830046706e-01
-7.317533900650322054e-02 -1.473526302477611571e-01 -8.401595236388715859e-01 5.784784960244829799e-01 -7.469428413597867245e-02 8.122705174722680832e-01
-1.682458053164385958e-02 -4.934396812868072774e-02 -8.180065167199672693e-01 -2.553160558746813136e-01 -3.169467760978301185e-01 9.134322376256427400e-01
7.142433761569563777e-02 1.340812882147587870e-02 -7.009854313042038765e-01 -6.599433844336195787e-02 2.488848195188645140e-01 -9.662820985128954820e-01
2.074464381176751096e-02 1.875214800499191703e-01 -5.896274202830338318e-01 5.659948817729656412e-01 -7.910824984847096841e-01 -2.320307617493764796e-01
7.784651967696379349e-02 5.001991606728902612e-02 -6.996214233557733753e-01 -7.598170356309374984e-01 -5.576598985771611394e-01 -3.342057897223283391e-01
-6.259138085591221812e-02 1.430447905899077596e-02 -7.082869591521049335e-01 8.568843356934664757e-02 5.246939205562132225e-01 -8.469674032002539876e-01
-3.947003818542549856e-03 -1.344581042369976942e-01 -7.864776340242229935e-01 2.959335313860805838e-01 3.440119913852899836e-01 -8.911111573673010655e-01
-7.835649966426822335e-03 -2.275424604420413499e-01 -8.261998376517788456e-01 -1.057474395416596186e-01 5.371352327004449423e-01 -8.368412160154528046e-01
-2.822879007208899116e-02 1.569015018753429011e-02 -7.719245852176609413e-01 -1.422005147111014833e-01 -5.699153897145495806e-01 8.093055431556185342e-01
1.407523301847114772e-02 -5.027591503657118099e-02 -7.449109225840843118e-01 -1.399928854509324416e-01 5.596354864106588556e-01 -8.168293055302481287e-01
1.730114556710636922e-02 1.869478678275026118e-01 -6.032400611153250214e-01 5.459775869778582535e-01 -8.376877699152095458e-01 1.369943985417229615e-02
8.524303289824064489e-02 -3.344709022767131806e-02 -7.275320856054088292e-01 -2.908036403940052195e-02 6.182700223691051100e-01 -7.854275981063068013e-01
2.848376301205108718e-03 -1.842200367313796133e-02 -7.927402221185488873e-01 -7.272570947388000695e-01 -3.233685752841106154e-01 6.054171146166951178e-01
-3.687487071440704450e-02 -5.262033007911441629e-02 -8.187530370434205063e-01 2.477886453249606713e-01 -4.363245238994108988e-01 8.649980908025018955e-01
-1.106795844774169091e-01 -5.652801158561885503e-02 -7.679777009219439510e-01 4.824479282612768039e-01 3.446038517053121586e-01 -8.052901228167803627e-01
2.328583701531745584e-02 1.411964273624146116e-01 -6.258475182196283626e-01 -6.520094287494342389e-01 7.517657104093790066e-01 -9.865100848201294181e-02
-9.843084783288984230e-02 4.714460513985388457e-02 -7.343379171797979055e-01 7.233115607577108586e-01 -6.450896731393921391e-01 2.463324982278156106e-01
5.671128480936978716e-02 -8.112169178723256657e-02 -8.206321167330495880e-01 -3.650833010542722246e-01 -4.057360781610203637e-01 8.379095524994505384e-01
7.982677591668869976e-02 -5.923088194402216511e-02 -7.908668914613719014e-01 -7.212818825220360663e-01 -6.407248972103051221e-01 2.631046408566593553e-01
-4.188301507800795687e-02 -1.868815363349093372e-01 -8.162816487170291291e-01 -6.783022374442447544e-02 5.488328817817027527e-01 -8.331755689060815762e-01
-1.560633948743169602e-02 1.431920325234841140e-01 -6.673526326021174127e-01 6.355729049513048068e-01 -6.585274206860672885e-01 4.029748363065799865e-01
-6.350524111907891733e-02 3.468610367633897379e-02 -7.499785697821249597e-01 -1.017146309791851222e-01 -6.751659929291338180e-01 7.306196109035023589e-01
-1.424414120622082567e-03 1.151986545390791400e-01 -7.000437816544206049e-01 -2.592124934726722230e-01 -6.824821527772481078e-01 6.833937330472182881e-01
5.510483521955329006e-02 1.904788749492296596e-01 -5.463429714536160997e-01 5.724862535515259365e-01 -4.499814836984269983e-01 -6.854021839935295901e-01
-2.580043146433802850e-02 -1.611156666608549171e-01 -8.049874086727449862e-01 3.404607202210295780e-01 1.223852057309796487e-01 -9.322598132520586445e-01
-5.025857866024140141e-02 1.261785951049060849e-02 -7.093205044038884965e-01 1.754065422929530424e-02 6.323421595085805258e-01 -7.744906188955634763e-01
7.883721104784658599e-04 1.710568833167659328e-02 -6.989246655457950208e-01 -2.490576698194892635e-01 5.437887544045945099e-01 -8.014137930477525096e-01
9.233114852303199449e-02 -1.405224642194072004e-01 -8.018285226674390920e-01 -8.445141136693946615e-01 5.288773680615606043e-01 -8.417031166316026047e-02
-1.748398219293195721e-02 1.442948528434492839e-01 -6.287782386744995566e-01 9.390226249900707201e-01 -1.927885476038211920e-01 -2.847263346962591868e-01
2.101811790242753830e-02 -1.758896001283801191e-01 -8.610009929496407199e-01 -2.368613368234342431e-01 -3.278803953985018338e-01 9.145442326271253641e-01
-2.000947286165546436e-03 -7.824892784419763825e-02 -7.569546724754874223e-01 8.677527866348114238e-02 4.975787782612051680e-01 -8.630674425773237068e-01
-9.326855873989023382e-02 -1.184442451927771173e-01 -8.244259860524286720e-01 5.668813245872219575e-01 -1.058316999582745860e-01 8.169732034272473298e-01
-2.362864478511517196e-04 -3.747606596198729129e-02 -8.004289208760796415e-01 -2.100284157677408114e-01 -1.361582812787359154e-01 9.681678506381594662e-01
2.890114479521234403e-02 -3.062075350376012792e-02 -8.012356626927090719e-01 -1.835028141649647504e-01 -6.049356291001397601e-01 7.748416624309488743e-01
-9.153846644056726212e-02 -1.193077115730551419e-01 -7.938947692107308773e-01 3.091386833632571163e-01 4.299244034613516896e-01 -8.482913896514762131e-01
-4.162880684982371571e-02 4.483222224384262461e-02 -6.953529877231167111e-01 2.524261322600284685e-01 2.921031538749855883e-01 -9.224731948672161286e-01
-9.116984861127917783e-02 -5.498874589580313166e-02 -7.955882736225807772e-01 3.539794645498874764e-02 -2.161554824844173772e-01 9.757170659462189866e-01
6.661085821568620002e-02 -1.500777237842115530e-01 -7.936041650420833093e-01 2.603028673499363510e-01 6.280381411844897510e-01 -7.333556507363480081e-01
2.564187045197172457e-02 -1.321498260748143472e-01 -8.493741581420223286e-01 7.070358475071414350e-02 -6.369742619228725700e-02 9.954615216068760652e-01
-2.307057375705361471e-02 1.046720301255177898e-01 -6.969605951655241105e-01 9.070752286379456519e-01 -2.326108544995220684e-01 3.508656722456913735e-01
7.460710284288045446e-02 1.958183545558083161e-01 -5.693526055472604153e-01 -5.321596531640506722e-01 -7.549649926402157707e-01 3.831892005681739599e-01
-7.328076542406468386e-02 -6.355311546654099364e-02 -8.141380519153045281e-01 2.638789479294275098e-01 -4.424940324014536297e-01 8.570688024474812927e-01
3.819838734054158136e-02 -1.620370143994336321e-01 -8.081289655316064025e-01 -1.617675544965991100e-02 2.931243415593627888e-01 -9.559374628962459264e-01
-6.584651525760458479e-02 4.460778539304311591e-02 -7.509217006511512693e-01 -4.414591157290260193e-01 1.485558141324957449e-01 8.848983101052786404e-01
-6.015600483499631418e-02 -5.514016690684571398e-02 -8.136012193809568638e-01 2.190474710790202562e-01 -4.249134852123293005e-01 8.783317912375693259e-01
1.035642532902631696e-01 -6.954441358495869717e-03 -7.428853121296147277e-01 -6.530323259645858247e-01 -1.936782278466561147e-01 7.321458360896837547e-01
6.593991643900118382e-02 3.753673184330157814e-04 -7.703349927296601063e-01 -3.215239999473341048e-01 -6.534318736072064482e-01 6.853094950546375630e-01
8.677947038305018623e-02 -5.801912016815691242e-02 -7.416111923413417628e-01 -1.838165335524771515e-01 4.012311677211933825e-01 -8.973433189375393804e-01
3.020579729798551771e-02 -1.874858085551139308e-01 -8.100923593205655582e-01 7.599213583826769369e-02 2.924479186677609865e-01 -9.532572633647398153e-01
-8.383598612944252737e-02 -8.316396524059989359e-02 -7.724178578679344875e-01 7.612891510903226078e-02 5.184343305875714902e-01 -8.517219224327492455e-01
5.140008833484052686e-02 7.025310985020254140e-02 -7.123615698509574434e-01 -4.112398846603822489e-01 -8.333485702364108461e-01 3.693398404578704941e-01
4.375435165713921493e-02 -1.298615239559889889e-01 -7.891653978698967009e-01 3.511898247007135265e-01 5.371350284152383026e-01 -7.669104695308592845e-01
8.317086648197044574e-02 -1.208258286062755676e-01 -8.207058212565403466e-01 -6.325007265073719909e-01 -1.718995815933192228e-01 7.552439108100695853e-01
1.355402458796340671e-02 -2.263104719115486829e-01 -8.550090999168111772e-01 -5.489569271487800828e-01 6.288223362042457687e-01 5.506621120306021133e-01
9.123603233829268022e-02 -7.764747695327398058e-02 -7.956773414473514716e-01 -8.282145873953508097e-01 -4.448096030303122506e-01 3.408885657770949207e-01
3.961717937954176844e-02 -7.914499589769834198e-02 -7.640581283443290683e-01 1.452890845959548538e-01 4.981030202481140923e-01 -8.548593235831122294e-01
3.644645983037780174e-02 -5.532994550819411717e-02 -8.148331644916240180e-01 -2.194010898836901424e-01 -5.217373397568561000e-01 8.244108866707714478e-01
-2.909908369711032214e-02 -1.199310428449811700e-02 -7.846930894535332213e-01 3.079136765410926957e-01 -9.458615026786478808e-01 1.026410519696558943e-01
5.032238280695844335e-02 -8.672097206100963518e-02 -7.656835334274812999e-01 2.269591659132433048e-01 4.698091769451751554e-01 -8.530937077871703078e-01
-5.064131931506318796e-02 5.984659390945450130e-02 -6.930279089213835508e-01 2.313752907432771733e-01 2.673085075463415561e-01 -9.354205667114721123e-01
2.370858262816552889e-02 -1.605683311589474471e-02 -7.224031104165763439e-01 -4.637928337783001065e-02 4.090728325124305953e-01 -9.113223248519789488e-01
-2.338607745404510871e-02 -1.918544756124750672e-01 -8.673623913676348218e-01 1.392247232438384996e-01 -7.788699899724751963e-02 9.871930367587077315e-01
1.361843404297806946e-02 1.197795981446320296e-01 -6.605390287663192028e-01 -9.549420078584932581e-01 2.792606889262456149e-01 -1.004949215016773117e-01
7.354844540776511730e-02 4.358028826804784955e-02 -7.334167246225660186e-01 -3.936438708984701940e-01 -7.102470860328359281e-01 5.836039579080438688e-01
9.955152373670530380e-03 -1.818007726551574554e-01 -8.086262671370578747e-01 -1.255838571066884291e-01 3.129965602115136747e-01 -9.414148119346575916e-01
-5.919836223391276159e-02 7.966455566664587540e-02 -7.148076642491593136e-01 3.004352284529473449e-01 -9.144467985537148014e-01 2.711562761937977850e-01
-6.412419366641782838e-03 -1.411268919947615275e-01 -8.398151464359667751e-01 -3.129206077914732376e-01 -7.045182359125015115e-01 6.369731144139066936e-01
3.461016120330867585e-02 7.697466569873351316e-02 -7.112838640374428145e-01 -2.655183851888733848e-01 -8.453539500811714236e-01 4.635479330218756910e-01
-2.293422938074033551e-02 -1.828351412340657733e-01 -8.662309304214989014e-01 1.353512924250805383e-01 -1.807678133297827561e-01 9.741678630004324546e-01
-2.770987068926303656e-02 9.372260480680559558e-02 -6.956740446415060619e-01 5.718324763994280246e-01 -7.780759250171026542e-01 2.600105264093698354e-01
8.421692761465288113e-02 -8.414281369553727741e-02 -7.528931665000034856e-01 2.362511844701768726e-01 6.356286872222459694e-01 -7.349568353424320577e-01
4.552163405596858226e-02 -5.480953439976555402e-02 -8.114622819942624021e-01 -3.128626580173997085e-01 -4.775697186459784693e-01 8.210019007594858698e-01
1.069164825937700958e-01 -6.873881422036735855e-02 -7.752595737486878136e-01 -8.964076914247405270e-01 -1.336229738227329433e-01 4.226087453204634969e-01
1.912777242257179128e-02 1.455650147383241166e-01 -6.012049297841648432e-01 -6.167067657896069255e-02 8.715595024349063191e-01 -4.863956839505381158e-01
-6.827926025618565042e-02 -1.392284618185113398e-01 -7.978501106650222052e-01 -1.004620002060180595e-01 6.572722974506565174e-01 -7.469273816901756957e-01
-2.734861198027688234e-02 -6.898756842098514863e-02 -8.189508148550224131e-01 2.142824816779555219e-01 -4.349971690954279602e-01 8.745630228433513009e-01
1.005535356229778632e-01 -1.221615499665874849e-01 -7.916104924189869552e-01 -8.733838599311968265e-01 4.264046216031189829e-01 -2.353289865001428893e-01
7.844403897171325912e-02 1.945332287950243821e-01 -5.652323366382663306e-01 -7.029137561704538184e-01 -6.506373114884768105e-01 2.873731725220543542e-01
-9.460474409693719888e-02 -1.020000433573673149e-01 -7.857947914777163589e-01 2.698330811647257077e-01 4.696425867506232588e-01 -8.406104621162727719e-01
2.583325476315598626e-02 -2.114745984650309441e-01 -8.569520109821424647e-01 -5.545556347041575851e-01 4.761047129185237425e-01 6.824898170336601844e-01
7.202540368927556891e-02 -1.053747151738877036e-01 -7.718895436127823917e-01 6.787615436798707935e-02 4.852945818948472545e-01 -8.717121064042407941e-01
-1.191695743936719599e-02 -1.794226223878145343e-01 -8.067939367353923474e-01 3.208982715414830933e-01 2.414966673043423551e-01 -9.158076539331739818e-01
5.386424296473513174e-03 1.614052501736980838e-01 -5.957086203963692927e-01 7.447971236421069285e-01 1.256684446163558733e-01 -6.553508118879155520e-01
-1.112986917689299110e-01 -7.515139815198461359e-02 -7.778734124528629001e-01 6.914836016929832851e-01 2.905219684955274717e-01 -6.613980756028726704e-01
4.703145687482380294e-02 -4.716832894804546400e-02 -8.062887657201603941e-01 -3.078868810214389629e-01 -5.146877291032008195e-01 8.001888589611081404e-01
7.908335081954570578e-02 -8.563489997518063113e-02 -8.115004547891512265e-01 -5.451842188736930606e-01 -3.511378463482828227e-01 7.612334598222615378e-01
4.403137394098530916e-02 2.855766155068341708e-02 -7.498567459911910094e-01 -2.819888977727677548e-01 -7.726439125739362757e-01 5.687738090799705493e-01
1.277368607926956945e-02 1.056678383264641197e-01 -6.806586322707115499e-01 -9.986772439492880293e-01 1.434335405202898442e-02 4.937641757350257760e-02
3.047100760765198216e-02 1.630959689772217280e-01 -6.355352730623721191e-01 -7.996825685866101319e-01 -1.675248922037854971e-01 5.765788757757533967e-01
6.924168605237075724e-02 4.327374772492219995e-02 -6.911254260033538044e-01 -1.459031794691274531e-01 2.074313378923949014e-01 -9.673078632374341179e-01
-9.519329161679950663e-03 -1.276648397116407208e-01 -7.864947974365203986e-01 4.262491805454297067e-01 3.590654784230755681e-01 -8.302912852060759796e-01
9.953989175878480422e-02 -1.121512981534772690e-01 -8.010509483508686523e-01 -8.611593610877847915e-01 -9.310016498809536856e-02 4.997368448394293727e-01
7.443371725642358543e-03 6.755039282151520386e-02 -7.364287858890907756e-01 -6.997593335897436262e-01 -4.369934286283670422e-01 5.651315053946843747e-01
2.668067792835277993e-02 8.539718012353882115e-02 -6.951900365105309065e-01 -3.951555472539507452e-01 -9.145918487485524828e-01 8.587108755067399124e-02
9.417547288739419598e-02 -1.257596435416872271e-01 -8.103349412675268093e-01 -7.887618549514291422e-01 2.746347458526246163e-02 6.140850867243767830e-01
-1.004159391209445973e-01 -7.391832922313501530e-02 -8.031845170247390309e-01 7.085365747873312303e-01 -5.544445512961038158e-01 4.365399886914124727e-01
-7.909040786367360631e-02 -1.259337594146512085e-01 -7.915036962149274435e-01 4.155396060108273448e-01 2.814958026385324663e-01 -8.649201980143916835e-01
3.518627895042813342e-02 2.525241396888774567e-02 -6.960209408159669930e-01 -8.025350636025727069e-02 1.964388614149514267e-01 -9.772262524323021005e-01
6.832533516774162707e-02 -4.868550548219626600e-02 -7.949052267146147210e-01 -5.877607934333634043e-01 -6.301208497370797135e-01 5.074297630502210277e-01
-5.098140380610661354e-02 -8.089494663017395004e-02 -7.673569339204870943e-01 1.006727160323493547e-01 4.282445624231389636e-01 -8.980376378536057969e-01
3.802408134449908328e-02 3.269417080971567802e-02 -7.468294442282252810e-01 -3.042664779820301590e-01 -8.457224426607364842e-01 4.383782161061017257e-01
7.075178499986800595e-02 -4.463224207018718498e-02 -7.335076961425387454e-01 -8.424210143247847296e-03 4.295869280494012399e-01 -9.029862146968471448e-01
-2.099662275100557321e-02 9.063503134022052668e-03 -7.077589140598661288e-01 3.084775842487228470e-01 5.292004011707429623e-01 -7.904356491307796828e-01
-4.992154853627957939e-02 4.254258236064316356e-02 -7.426372801230081144e-01 -1.853244184397632999e-01 -3.063073876888550706e-01 9.337187179109095458e-01
2.353108143726759596e-02 6.868513694744715625e-02 -7.248702278272133315e-01 -1.094455874878177970e-01 -6.969715298217248334e-01 7.086976435669944951e-01
5.521661685535995262e-02 3.389825393239450507e-02 -6.941881692059342912e-01 1.344490296625656771e-02 3.565196242613873356e-01 -9.341910897138480108e-01
6.115165343208869148e-02 3.024860321186283868e-02 -7.405545044620237549e-01 2.542879029634312893e-01 -5.969370210012498595e-02 9.652845820461662951e-01
-7.912982137457316711e-02 -1.619850380155237468e-01 -8.332218028409523747e-01 8.385364729998869837e-01 1.202900651444560737e-01 5.314008690964406867e-01
-7.957748701322940599e-02 -3.482642012616716382e-02 -7.455370203783165950e-01 2.258838772264062655e-01 4.353382186380418406e-01 -8.714683639709603913e-01
-3.364386925902471126e-02 6.399611103704455628e-02 -6.869860707032167113e-01 3.270021076152154205e-01 2.648662155668641272e-01 -9.071469062210898437e-01
1.154242961941570091e-02 1.255202384612709721e-01 -6.412527804204988247e-01 -7.311255334838043796e-01 6.123698903782495151e-01 -3.007633149939545891e-01
-2.096110416095759831e-04 1.338982737414023128e-01 -6.827386527594740961e-01 -2.322219297073937760e-01 -6.298248071998030495e-01 7.412109602526832930e-01
7.204116698459547830e-02 3.066037656048350990e-02 -7.437172178861553018e-01 4.168595363133801440e-02 -1.909147214788582958e-01 9.807210869520933683e-01
-4.969905380130571620e-02 7.419398585432468440e-02 -6.903842813612814933e-01 3.477786945664094742e-01 -4.677864060643524557e-02 -9.364089589429919203e-01
-1.090162649164724828e-01 6.676362685701318564e-03 -7.300170045945323372e-01 6.067473312194847646e-01 2.740947232593106686e-01 -7.461432561776826233e-01
3.756683957267439866e-02 -1.253318812194843812e-01 -7.885857091151496912e-01 2.821305163819651796e-01 5.375433471341848346e-01 -7.946379815222922582e-01
-2.199905269411202811e-03 5.436033614175217465e-02 -7.510943894160949652e-01 -7.991179213905874601e-02 -5.342498177270278426e-01 8.415409899320183129e-01
-5.862594572898318680e-03 -2.479911127163855200e-01 -8.406250790346415647e-01 -4.795178879279803907e-01 6.967929096727023541e-01 -5.334250052134211773e-01
-4.483607492892937446e-02 8.240399536707694594e-03 -7.799423749727613098e-01 -1.268710129459505453e-01 -5.565179240224694679e-01 8.210916796045306665e-01
1.990960226834153149e-02 -1.252513449475112506e-01 -7.909177472408878140e-01 -1.192853834143104835e-01 4.961236045177109255e-01 -8.600188174360227089e-01
-4.861363899064412991e-02 -1.050373285464170497e-01 -7.740468488173908312e-01 5.356578264341613910e-02 4.114354365608987041e-01 -9.098634999117950484e-01
4.657975918014002452e-03 9.777724282570379732e-02 -6.604383499346013764e-01 -5.990874859411445819e-01 4.100404793906344270e-01 -6.877215929791776761e-01
-5.614370113674571616e-02 3.502638145662110430e-02 -7.017885768546223701e-01 2.172595765829295755e-01 2.616861441971464197e-01 -9.403821767336068005e-01
-2.501464562349730095e-02 -1.100269433523006976e-02 -7.839277411989176159e-01 2.203400014005268970e-01 -9.754127391011772064e-01 4.502463987055155444e-03
-8.382627264443399950e-02 -1.381269534128587162e-01 -7.985670794649831761e-01 4.605305764861042372e-01 3.839892811201732759e-01 -8.002898350636404867e-01
6.514079746123506431e-02 1.684020493155192755e-01 -5.457248312395538425e-01 -1.039712919358465326e-02 8.079570723097279084e-01 -5.891496151311863549e-01
6.044463650508277372e-03 3.037447127692614532e-02 -6.914599816921922493e-01 -1.445832371933716554e-01 4.209828737986537339e-01 -8.954714442632505378e-01
8.118598958109941865e-02 2.935297918310785827e-03 -7.045947206860213585e-01 -1.875030950219077897e-01 2.018467552903143725e-01 -9.613014494610819805e-01
1.254705107830303597e-02 1.177268522317557325e-01 -6.585327476978506400e-01 -8.925297650608587929e-01 3.783022707804608031e-01 -2.455158047921871811e-01
-4.523135420902948955e-02 -5.365778903996071963e-02 -7.521672642834728029e-01 7.438079656379288640e-02 5.639390982704782784e-01 -8.224598412958626925e-01
-3.984978692543551804e-02 -1.745068124646227403e-01 -8.107797171483214216e-01 3.654043953125082345e-01 3.911030749757879454e-02 -9.300268876402151275e-01
3.264394066293872798e-02 1.494765814861790665e-01 -6.166006634080000159e-01 -6.679864349009946300e-01 7.420673371455149825e-01 5.594810032542690131e-02
6.548091281474872905e-02 2.010544175053513849e-01 -5.524934655991624588e-01 1.020064046821896608e-01 -9.304556920203009840e-01 -3.519188806967252225e-01
1.132699038714033400e-02 -1.718814191375747924e-01 -8.055637894536956667e-01 -1.613358701352274327e-01 2.964328872973318041e-01 -9.413279345351843741e-01
5.127010564033103457e-02 -1.975786581440564238e-01 -8.236450879959842375e-01 -7.402850003532933654e-01 6.144726247523272233e-01 -2.727664049730283424e-01
5.080308508220825886e-02 -1.892738363559081927e-01 -8.425741518213634151e-01 -4.737173344577151890e-01 6.356107188177266831e-01 6.095825630366162873e-01
-7.562899842600177835e-02 -1.447163235080404231e-01 -8.376593651350079384e-01 7.420088660489990717e-01 -1.919171505919950171e-01 6.423321959962213779e-01
6.118208427097422686e-02 -1.626207746766615836e-01 -8.056926032859627052e-01 1.332479449789080450e-01 5.276829034321158796e-01 -8.389253474441870084e-01
-7.938967413788099170e-02 -3.312863264118720043e-03 -7.234639573611247876e-01 4.089368312270604683e-02 6.704889512825471520e-01 -7.407916528206089923e-01
-4.004431490429306156e-02 -7.465046234158850824e-02 -8.189866581552661673e-01 -3.083767806155431890e-01 2.870004787334468621e-01 9.069368701204981731e-01
-2.574821905579416717e-02 7.672096529721120217e-02 -7.227044645333319250e-01 1.169577050324748096e-01 -7.434621553237993341e-01 6.584716537823229743e-01
2.923766606254033645e-02 -1.669861226051685965e-02 -7.811306734770451232e-01 -3.868944294988439503e-01 -9.139730188996515459e-01 1.223356904023571584e-01
-8.133202472015875484e-02 2.681216720985169985e-02 -7.577127398082058596e-01 1.088898434111487817e-01 -5.357053858693822113e-01 8.373546092023567144e-01
5.336960759728875264e-02 2.725315139756004021e-02 -7.465480086437922269e-01 -3.029100315694078227e-01 -8.356897840739444527e-01 4.581136295386380453e-01
1.033803510546695698e-01 -1.835102917104862105e-02 -7.495229468121389349e-01 -8.026230888896275228e-01 -5.495492969485130663e-01 2.319304796801573976e-01
-8.894433874176858879e-02 6.111015412735094909e-02 -7.202185045948904518e-01 6.576756474760786508e-01 -7.420080867837011152e-01 1.299489971662423082e-01
-3.273873875246050696e-02 2.511691180975103924e-02 -7.656935811645807499e-01 -1.169512144345407345e-01 -5.984578220788288050e-01 7.925721725085675962e-01
6.123397878585009474e-02 1.672870494660510243e-01 -5.475434991807893725e-01 7.159937544335880089e-02 8.688772239945559139e-01 -4.898223137624858614e-01
-5.517919176778580959e-02 -1.266274498004919258e-01 -8.433859982996686488e-01 2.932229456351655439e-01 -3.099546830282040033e-01 9.044049970129103277e-01
6.944816170995380539e-03 -1.621222610861983993e-01 -8.011875311465380678e-01 -3.072237990552391107e-01 3.357434243126886098e-01 -8.904436480344256610e-01
-1.942825980857161572e-02 1.080700468731981834e-01 -7.019361186869700342e-01 7.090378764803890732e-01 -4.376551465950251907e-01 5.529224741092255702e-01
-1.130226147401615019e-02 9.616188057266630840e-02 -7.181172511205456965e-01 3.100319036400140393e-01 -6.148903376759463635e-01 7.251138471702976984e-01
-1.052144365473560439e-01 1.668336638179965248e-02 -7.233147054495580042e-01 5.101542195067656493e-01 3.291576514451038937e-01 -7.946055076669090722e-01
2.184993364882850675e-02 -8.604872897295630374e-02 -7.656635234462307871e-01 -2.745331710566855654e-01 2.035060741492151770e-01 -9.397961565009373963e-01
-6.747810659224422192e-02 -1.158754316564193365e-01 -8.289229514327748349e-01 2.788805913972380868e-01 -3.212303636602404922e-01 9.050064470514208592e-01
4.193103449623539203e-02 -3.284239214568152043e-02 -7.981709089804938095e-01 -3.638659076849775076e-01 -6.121757433278560701e-01 7.020273929880331831e-01
-7.428764925507341799e-02 -5.613585678755758993e-03 -7.888415401765613844e-01 1.842884501317164081e-01 -5.055447875259190260e-01 8.428892186719576518e-01
-1.119975034142261933e-01 1.188060211800047233e-03 -7.347224637234717193e-01 6.840001995640919707e-01 2.387431175296409469e-01 -6.893079506494252939e-01
-1.930535218698298944e-02 -1.579147762397860033e-01 -8.018791696293747773e-01 3.078507709929484970e-01 2.801909882813458097e-01 -9.092419440858247048e-01
-2.149729990275041358e-02 1.147569703811123915e-01 -6.928024107721976188e-01 8.198374979061254786e-01 -4.001070244084157790e-01 4.096106029463435494e-01
-1.058294200052842769e-02 -1.996268582010335413e-01 -8.661093155561326862e-01 -5.299102731014827539e-01 4.270032996003410991e-02 8.469780305786074326e-01
-1.170520493042217364e-01 -2.710780907920485108e-02 -7.722144023497009568e-01 8.560334106580894664e-01 -2.465555511367125141e-01 4.543315529882893111e-01
-1.554987200474586793e-02 -6.127750340970329612e-02 -7.514618803028426663e-01 2.204829512115531187e-01 4.905161659060827128e-01 -8.430783826014282001e-01
-3.215701639328928663e-02 -8.153525882182462159e-02 -7.641787037776016644e-01 3.107364410710365399e-01 1.965015989227912874e-01 -9.299623572012432060e-01
-8.434489499996196404e-02 -1.541703147044574673e-01 -8.259641588023074465e-01 8.304193506635220157e-01 1.276757181858016177e-01 5.423122836791679502e-01
-7.623489210347334823e-03 -1.202308050553687752e-01 -8.434300107423748916e-01 -7.602435463568026908e-01 2.546415502985286405e-01 5.976515967387637795e-01
-5.573406083661965743e-02 -1.894208708251896023e-01 -8.200446077982243009e-01 4.938729897101304389e-01 2.520110806138788906e-01 -8.322138458849397402e-01
-3.227620265981737124e-02 -1.531302231525269453e-02 -7.929313406881183246e-01 1.739816299981498393e-01 -8.528622131235816806e-01 4.922971032304915839e-01
2.398120572706945869e-02 6.570109144617699085e-03 -7.720352533581247290e-01 6.089783786243591068e-02 -5.127388647513162478e-01 8.563821050893181130e-01
-6.426471328337526878e-03 7.891452322704915756e-02 -6.666855405810110380e-01 -1.560808357084856601e-01 5.138363609544572830e-01 -8.435703686626394582e-01
-2.182660168936850428e-02 -2.109770820747174647e-01 -8.232469363422108000e-01 4.752541880723895051e-01 4.032697574252870898e-01 -7.819891044418738613e-01
6.029795834040303781e-02 -7.361666209698733421e-02 -7.552481643725157401e-01 2.240358061392171696e-01 5.083937709212307254e-01 -8.314708240558065233e-01
8.824508814757978103e-02 -1.779855277879572109e-02 -7.138322480432151007e-01 -1.078823741260529490e-01 5.946380062825202817e-01 -7.967226837722618527e-01
-1.695002581395083432e-02 1.465842832066275858e-01 -6.550741035251087530e-01 7.957836874270591832e-01 -5.780403235367032044e-01 1.805483513925729699e-01
6.306846597233078944e-02 -1.796313859736815288e-01 -8.321491793801747416e-01 -8.242521392424049242e-01 4.171264587644976651e-01 3.829019826964978890e-01
-1.018236967809012933e-01 -2.211479358143014079e-02 -7.443417207310832895e-01 2.650621433725200982e-01 6.410788123504018721e-01 -7.202499680709217866e-01
-2.238404301091578147e-02 -7.403142369295394321e-02 -7.594725030005773370e-01 1.646285625253359752e-01 3.848417878740122422e-01 -9.081818290996440668e-01
2.730544793688292199e-02 1.496599238950185595e-01 -5.942752582878459977e-01 -6.287834773225681184e-02 8.819692473140270383e-01 -4.670937381070204841e-01
1.814020276378360691e-02 4.208913205414333697e-02 -6.893875690239167353e-01 -1.565246310721049583e-01 3.261512137387126420e-01 -9.322689663635198576e-01
1.531366976675633228e-02 -8.433046755121401117e-02 -8.314182686978867087e-01 -1.074402039564671951e-01 -5.302405986668674576e-01 8.410121937874591724e-01
3.208422357827919041e-02 1.485061913274097478e-01 -6.086699395193437834e-01 -5.881453996991073963e-01 8.086227146084036255e-01 1.463879203053920774e-02
4.816111387153942935e-02 5.944025852855429337e-02 -6.864455091146555166e-01 -8.169654275899049245e-02 1.115576837337168697e-01 -9.903941428043666617e-01
-3.946204131742070409e-02 -1.456588424734479165e-02 -7.832873532982915776e-01 2.495444790359297449e-01 -8.740990033552815675e-01 4.167475078701611269e-01
-7.155070650531329679e-02 2.225971703223315543e-02 -7.705828589247857296e-01 1.106390717194004614e-01 -7.133102218761525615e-01 6.920603464843680941e-01
5.691502524115221034e-02 -6.442442350252554004e-03 -7.124371881392118633e-01 2.160872033674548498e-01 5.530791428576773416e-01 -8.046177864530767998e-01
1.205726980809697889e-02 1.317420769289648352e-01 -6.292295371879310650e-01 -4.796275924303664562e-01 7.970944614063718570e-01 -3.668757176139302301e-01
-7.496469844439665464e-02 6.705959807212800994e-02 -7.288176824352051719e-01 3.777324273504628627e-01 -7.857869799347733109e-01 4.897520142816315092e-01
1.055525224063138534e-01 -8.688543755054990714e-02 -7.630809498486660347e-01 -7.703917414351537651e-01 3.498945084281433471e-01 -5.329825491517889979e-01
4.719824495995240260e-02 -1.784447776812092823e-01 -8.493648971094344136e-01 -1.123981843924402729e-01 1.864832266600961186e-01 9.760075073070503260e-01
2.206464727668960499e-02 -1.757179083759712046e-02 -7.229994784501594385e-01 -4.637928337783001065e-02 4.090728325124305953e-01 -9.113223248519789488e-01
1.031976229142679974e-01 -1.122558697000090866e-01 -7.837209388713322067e-01 -9.065695477351536358e-01 3.825343287499148870e-01 -1.783231405262115377e-01
6.306694901088440164e-02 4.798583992190708775e-02 -7.344535433676167013e-01 -3.142851143490424382e-01 -6.822209783947109640e-01 6.601510460014228254e-01
2.522759809642518246e-03 -1.503587468310804975e-01 -7.943509831768068574e-01 -3.957179441177909873e-01 3.720195491019367973e-01 -8.396479999316264209e-01
-6.958428136874557357e-02 6.176588548736931111e-02 -7.381533944031278827e-01 1.652941728910173325e-01 -7.214040150593724610e-01 6.724983891910011335e-01
-3.476851749006094894e-02 -1.766970682415223981e-02 -7.957682198120403783e-01 1.627813940229930756e-01 -7.839458068489710829e-01 5.991086626680063310e-01
-1.283044383146967823e-02 -4.887248123100718100e-02 -8.162361675166611708e-01 -6.211874159302417375e-01 -1.157443930973367507e-01 7.750673711081108586e-01
-2.612537697918932908e-02 6.344252098780456262e-02 -6.838448441661343358e-01 4.494475411754402794e-01 2.728321411108272643e-01 -8.506230249107018526e-01
-1.172414485127158540e-01 -3.977194499553166757e-02 -7.765801239063191419e-01 8.978995553736822677e-01 -1.225099359648461061e-01 4.228092998618090403e-01
-3.993608550086220899e-02 -2.343928968802297744e-02 -7.302410850641509743e-01 2.591399123322389864e-01 3.820774657716048406e-01 -8.870531641260219757e-01
-1.180392255862557638e-01 -1.643602833156243906e-02 -7.488955267810549765e-01 8.070223825206285229e-01 2.885260566796050141e-01 -5.152354692057272700e-01
4.694779242225891047e-02 3.637271539906202639e-02 -6.933596263245250801e-01 2.540786169940024899e-03 3.484274709918439017e-01 -9.373323006617590991e-01
-5.228632092360410710e-02 3.151590783874765739e-02 -7.015476091468076936e-01 2.678160924251023478e-01 1.753638393024388731e-01 -9.473764112026736850e-01
-6.371627717614083107e-03 1.215204842280279418e-01 -6.951186717096037304e-01 -1.952629750910195305e-02 -6.840215062019617820e-01 7.292004544422510115e-01
-8.438172363529063136e-02 -5.931067817519521113e-02 -8.068948821586544584e-01 4.704125322183344560e-01 -5.541674846591457815e-01 6.867389958918089787e-01
-1.065790011990472436e-01 -6.106973472073357057e-02 -7.676753683009012175e-01 4.296820248322788527e-01 3.575523812741129848e-01 -8.291740783341241539e-01
3.325688369264170191e-02 -2.882757228714284692e-02 -7.983926649536392528e-01 -2.517545612239309727e-01 -6.145092849058727547e-01 7.476616746011652825e-01
-8.959795418777835585e-02 -5.295719279194460900e-03 -7.260814396468523446e-01 7.533973992337424097e-02 6.646702932519419349e-01 -7.433285443575108342e-01
1.438683540114794185e-02 6.650880347879656318e-02 -6.807990537900082684e-01 -2.566560044196085077e-01 3.122072146998730036e-01 -9.146881165100534394e-01
-3.740839444017091120e-02 -1.518831785478607366e-01 -8.061583388315713972e-01 1.571337440595461654e-01 3.886885881335021553e-01 -9.078712287172745476e-01
4.389237641115217164e-02 1.905736280913626346e-01 -6.015887693510567624e-01 -1.961047087484847906e-01 -8.662937552623612980e-01 4.594323375646384711e-01
8.808492455591737658e-02 1.173124493811090107e-03 -7.525438099688190885e-01 -6.783986171356785055e-01 -6.044813396475163803e-01 4.175854718334237603e-01
1.683176380140534098e-02 -1.542540315730935863e-01 -8.522913791316635290e-01 -2.922100161364968307e-01 -6.315311940651933131e-01 7.181794047395813063e-01
-4.626618287418066827e-02 7.306215905503769814e-02 -6.891339936168073832e-01 3.417440068115120133e-01 5.944227348794481336e-02 -9.379113230636452192e-01
3.499624807690365075e-02 1.904328663577575104e-02 -7.620040911910389569e-01 -1.143431118225874538e-01 -6.372663168817163104e-01 7.621137015870655951e-01
6.667701145426679910e-02 2.264842621935102621e-02 -7.443746864363267601e-01 -3.531265196275045204e-01 -7.142153147170184901e-01 6.043162626964758699e-01
-1.275992816406313311e-02 1.458505825712354820e-01 -6.206167258668916498e-01 7.929836038643772733e-01 1.072400202335036384e-01 -5.997304244930233841e-01
6.376785073286278353e-03 3.392593869056743927e-02 -7.592588163264301082e-01 -7.554383953034657928e-01 -3.310918453664100647e-01 5.654122574132873780e-01
3.416375054598239092e-02 -1.619981359971759127e-01 -8.477913073704989033e-01 5.922926268692784157e-01 2.081776570860971731e-01 7.783646364310450316e-01
-7.074303513091707851e-02 -1.011109825953397240e-01 -7.794611011998443528e-01 1.707913582465765967e-01 4.108201189825000377e-01 -8.955764298972442861e-01
2.707735364464549169e-02 -1.727104961502650693e-01 -8.564501272818829669e-01 -5.093567774333067621e-01 -5.752213796624671138e-01 6.400594016667235930e-01
1.388914454370113009e-02 8.975665857195280761e-02 -6.989040545456217668e-01 -7.162615038584178029e-01 -6.385928306403959587e-01 2.813692498215900062e-01
-6.424892800483787692e-02 -6.591048875318259240e-03 -7.247301149931374420e-01 9.859856290802111733e-02 5.893402129787835841e-01 -8.018456439730747842e-01
-4.979269657927871268e-02 -1.181410898566357948e-01 -7.838818357199177633e-01 -1.576623821828244121e-01 6.065690330323370016e-01 -7.792410290857717525e-01
-1.132767702302590190e-01 -8.627084632584539059e-02 -7.867688651971448399e-01 9.621531118793235082e-01 1.813741048075604989e-01 -2.033834393607069635e-01
6.020044024982676954e-03 -7.185105309529479789e-02 -8.201619954947539926e-01 7.260195281234345099e-01 -4.201217947977805012e-01 5.444201707498695919e-01
4.412073327093118946e-02 1.661803960378809564e-01 -5.588832650435038296e-01 4.543762024081628992e-01 6.813571934567203003e-01 -5.738420005628008802e-01
4.121580289859926027e-02 -1.515388610545109239e-02 -7.209991883544645264e-01 1.249026977218286177e-01 4.585749493244642427e-01 -8.798342639121724540e-01
9.167886512816973699e-02 -1.363871588023610470e-01 -7.930485944019430855e-01 -5.695090694093478678e-01 5.726171233456206489e-01 -5.897194671298248148e-01
3.687425256446325017e-02 -2.083005827845082203e-01 -8.276749877671798483e-01 -3.017025200977389021e-01 8.715269360428130607e-01 -3.865441619252579786e-01
3.629223423104275398e-02 -6.306617845103987263e-02 -8.196004346444004662e-01 -2.171324422406172294e-01 -4.507513933462304889e-01 8.658387170386044884e-01
-8.143774933924220749e-02 -1.286098051753494786e-01 -8.309286352905810302e-01 -2.999419098818697504e-01 2.317291671937671271e-01 9.253844842918532709e-01
-1.389601913220103908e-02 1.412618158706585303e-01 -6.725958843826471689e-01 5.013697486400142678e-01 -6.939484740187596978e-01 5.167822467497154015e-01
4.130327174181839568e-03 -3.894306156184774298e-02 -7.335862915118105398e-01 -2.890117489591916278e-01 5.327382450086738386e-01 -7.954006356979022030e-01
1.023317774665389451e-02 4.759326304669818375e-02 -7.452804923806121140e-01 -7.981649105491466223e-01 -2.609427437066486055e-01 5.429932412792255469e-01
-8.305133857293162114e-02 3.959163514842264225e-02 -7.062047905729427200e-01 2.178937467160601271e-01 3.357223380963267334e-01 -9.164130219749024864e-01
3.062107312534851494e-02 -6.307488032367646047e-02 -7.547534443259645842e-01 1.978197053355557067e-02 5.583886802888888834e-01 -8.293435689550154866e-01
-8.565263958336441497e-02 -1.250057553971140323e-01 -7.941047005634241929e-01 3.662652142614672979e-01 3.731892143705400899e-01 -8.523963884833747340e-01
9.979178991854818770e-03 -3.920772163319379000e-02 -8.076797107270912157e-01 4.431470972459958801e-01 -3.527291008585425880e-01 8.241376290462484322e-01
7.156294865215766243e-02 2.017585044616766569e-03 -7.033561256351171798e-01 -5.548993943481185520e-02 2.535909503193317649e-01 -9.657186425339727709e-01
-4.623373722046805051e-02 -1.653750135766443585e-01 -8.126013273508140289e-01 2.467005306955687982e-01 2.333356383802503986e-01 -9.405813776681980487e-01
9.832641785271004076e-02 -6.394955244726840959e-02 -7.468078449312642864e-01 -1.954890880584621293e-01 4.129173560291637957e-01 -8.895410465739933548e-01
9.827565202559934709e-02 -1.053155286438659244e-01 -8.010153089168984275e-01 -7.988938481264367120e-01 -1.759811780302881490e-01 5.751514969160784752e-01
3.713056840891219151e-02 -7.548850959604139210e-02 -8.204324830079324782e-01 4.395172650355615995e-01 3.883013824663627545e-01 8.099670426075196161e-01
-5.962372853308361108e-03 6.353442254806541956e-02 -6.749981784844012456e-01 -3.908380386649332183e-02 4.102169003851174334e-01 -9.111501253436514736e-01
-7.160074338022243134e-02 -1.255850615909042400e-01 -8.310292212793235489e-01 6.148794985841986582e-01 -4.221333729891842412e-01 6.661280789980397188e-01
-6.661243965910894349e-02 6.506745074861960965e-02 -6.958017816275174905e-01 3.026568690417951180e-01 -2.253977229880510871e-02 -9.528330274956550161e-01
7.879456462081695090e-02 -7.704826448823980274e-03 -7.071423423049373325e-01 4.156603776109120407e-02 5.146254261548466324e-01 -8.564069915990795145e-01
-1.226155360380573427e-02 1.326906992781210493e-01 -6.256237523834264902e-01 6.162332474119043280e-01 4.056605172373453083e-01 -6.750526864911421399e-01
-5.978727894574177582e-02 2.117711662700031902e-02 -7.721816806858833315e-01 -4.436449328838899808e-02 -6.141609230782354434e-01 7.879328348907376212e-01
-5.573209216323500755e-03 4.060050831508921904e-02 -7.590107952577833661e-01 4.107420658426005899e-01 -4.726010723850089246e-01 7.797045477152820814e-01
8.994566073272844409e-02 -1.346233304272434483e-01 -8.150324775087517404e-01 -8.079774567787570971e-01 1.197692659107462282e-01 5.769122570032055863e-01
-1.038995919912735488e-01 -8.383264289875673458e-02 -8.065686167187566813e-01 7.091819400573067256e-01 -3.350277767446431243e-01 6.203364931277993710e-01
-6.553602956300044746e-02 -1.092063182004178040e-01 -7.806986939132370962e-01 3.513172725347095127e-01 2.292112269773279309e-01 -9.077656015989592486e-01
-6.482033379376864191e-02 -2.025135645347248339e-02 -7.895420014472953607e-01 -5.515032408007399800e-01 3.871835835323627628e-01 7.388728226354783768e-01
-7.842696860935043091e-02 1.666374883234933088e-02 -7.115772961100915728e-01 3.137083549528382198e-01 1.902416502148054911e-01 -9.302661890858613392e-01
3.361602564008388944e-02 1.848734034328345655e-01 -5.671746415501930372e-01 7.119082360993129743e-01 -3.779261241118638259e-01 -5.919108953953703400e-01
3.981161848578248369e-02 3.466538633207445763e-02 -7.412942813494598493e-01 -3.297012024707742239e-01 -8.609844027940730671e-01 3.873021756131233562e-01
6.217251673035448928e-02 -1.454610921611339813e-01 -8.385068162883024812e-01 -5.402706857763234227e-01 -1.436623624121175502e-01 8.291373298295947603e-01
2.472015230432419650e-02 -4.090915235883175495e-03 -7.742895890114542823e-01 2.904277442932566289e-01 4.475591996114492988e-01 8.457792195294758786e-01
2.527322933639339006e-02 1.450762637762940954e-01 -6.453557052178837683e-01 -9.060386824740188638e-01 2.762632275177269725e-01 3.205815574580558880e-01
3.773110021347094584e-02 1.844801834761138903e-01 -5.621699370056308931e-01 7.214825609373423099e-01 -2.882439373981600106e-01 -6.295858534119865846e-01
4.286915880244655808e-02 -2.017552296507471588e-01 -8.397610271355157030e-01 -8.189930165626835290e-01 4.940934000158394568e-01 2.917570065694112258e-01
-8.789758311178266781e-02 -4.267270258108810804e-02 -7.967804716379868202e-01 -6.469623521963449031e-01 4.205207343826764532e-01 6.360833489369354110e-01
8.471864534387187062e-02 -2.994421105607798783e-02 -7.248136421150476183e-01 -6.588454909346933355e-03 6.214857750058798702e-01 -7.833977429934605441e-01
1.106899729099257608e-02 2.616094744105145961e-02 -6.944765156668925021e-01 -8.395575585034366350e-02 5.124413249230703737e-01 -8.546082842862485762e-01
-7.630313767448536344e-02 -2.910165115182581502e-02 -7.938482013794194714e-01 -6.014525180661415282e-01 3.995748553591996766e-01 6.918054664980410884e-01
-1.850077085849979527e-02 -1.707632227169560146e-02 -7.224579288684878087e-01 2.119244322730893526e-01 4.244470541347653558e-01 -8.803026373026769935e-01
2.810165267314046131e-02 -1.857140137792072654e-01 -8.097165329155286972e-01 7.599213583826769369e-02 2.924479186677609865e-01 -9.532572633647398153e-01
8.859596139281643475e-04 -2.067109942745228579e-01 -8.614287881706376160e-01 9.390752327572072788e-01 -1.261143469579520393e-01 3.197387663599245977e-01
-4.566746270075468933e-02 -6.301914701009507513e-02 -7.577685552097297439e-01 1.135354141298835495e-01 4.843904013600438541e-01 -8.674535427379447272e-01
1.019472348181807778e-02 1.048122781504942473e-02 -7.056033633326761478e-01 -1.326764666701654438e-01 5.270590621721586988e-01 -8.394079462181215368e-01
