4.239078787814191257e-02 -1.100731794808099406e-01 -8.330805004546537607e-01 -9.844359503302353431e-01 -5.809236115852141336e-02 -1.658648162584047681e-01
-2.907167684289135856e-02 -1.997945738348165801e-01 -9.101082828549672543e-01 9.249931860427413888e-01 -2.108584011962249816e-01 3.161112785388557334e-01
-2.046289274647232134e-02 -8.577624575897281611e-02 -7.629286422433884107e-01 8.970494815974138225e-01 3.220352330247162886e-02 4.407552162512866079e-01
8.364078060123680824e-03 3.468016632492617463e-02 -9.102518186079118223e-01 -6.939997225999255948e-01 -2.380202431004493357e-01 6.794930087246148220e-01
2.241969799471776881e-02 -2.088094899686999406e-01 -8.903187351563015550e-01 -9.288441161790831346e-01 1.620562296457378759e-01 3.331461935434742450e-01
-1.319390696680397893e-02 -1.465700480262809302e-01 -9.403471839935781951e-01 9.466838349875079661e-01 -2.053832302580391456e-01 2.482084714551825444e-01
-1.987991872939988761e-02 -2.541147378268384174e-02 -7.675477137879039846e-01 9.992685943333464715e-01 -3.689192760423821993e-02 1.006290498324395599e-02
-1.243092797930882461e-02 -1.490955686971098815e-01 -7.562973095335947527e-01 6.342261991280835343e-01 5.953662823482109845e-01 -4.932505632864648271e-01
-1.120338557977941692e-02 -6.266921762582866595e-02 -9.355557844499552411e-01 9.689757474689363326e-01 -9.301356114035548572e-02 2.289857599524594556e-01
-6.522841347965891053e-03 -2.260072400907579826e-01 -8.657744171111739773e-01 1.541681666889028191e-01 8.948135099826064476e-01 -4.189760837236302660e-01
6.743068548399556300e-03 -8.652298411338091300e-03 -6.993826963369421668e-01 -4.522410764533071892e-01 -1.651832971107491249e-02 -8.917427619845927911e-01
-2.132248591254213080e-02 6.314785970182835995e-02 -8.135035720676199178e-01 9.379461951705010403e-01 -3.372497644269392136e-01 8.074361497452421654e-02
-2.876902990502386293e-02 -2.289396967139580019e-01 -9.146495364436579845e-01 9.879669582000942807e-01 1.333747688542877563e-01 -7.831002833557459963e-02
-2.126642584626618412e-02 -5.170944534545116739e-02 -7.485248696598293394e-01 9.997691394050302049e-01 1.673035711832319625e-02 1.348195252992019817e-02
1.920974183300695401e-02 -1.981487394145694247e-01 -8.298331615686803664e-01 -7.475682956296190174e-01 5.709804565665115295e-01 -3.392977476914994517e-01
2.528834696061946219e-02 5.869204964425819154e-02 -8.111093686440473682e-01 -8.640574541292809219e-01 4.994275950659406438e-01 6.306182086077283255e-02
2.535718493945419635e-02 -1.411411207117144184e-01 -8.678434987670976541e-01 -8.414929802530478620e-01 4.880060633426101524e-01 2.318181320037149551e-01
4.303238541811287010e-02 -2.843835923228183946e-02 -8.510296487833368673e-01 -9.382045608753911692e-01 -3.438802527678943566e-01 3.896888128883999741e-02
-2.092870460110403744e-02 -3.421840130862428830e-02 -7.745419100864211481e-01 9.897299002124075873e-01 -9.662905611585502486e-02 -1.053449103644625434e-01
2.399532532909532528e-02 -1.749095259396598878e-01 -8.109531319586380516e-01 -7.301732829775778866e-01 3.693790854819380409e-01 -5.748095928516443465e-01
-1.436812883757882311e-02 -4.508865621483391928e-02 -9.064840188854509373e-01 9.992656742745037457e-01 7.817593163464381205e-04 3.830797657268002199e-02
1.389094284690315685e-02 -1.529016294895635675e-01 -7.662725887141967895e-01 -6.868845805835910312e-01 4.162300295257663763e-01 -5.957702035831298204e-01
1.454581772647405014e-02 -4.107256708809157303e-02 -7.162790607755586958e-01 -8.975092745512427417e-01 3.480795529399615673e-01 -2.707724633702963679e-01
3.031564398600918378e-02 2.479101180712250940e-02 -8.029581380295924831e-01 -8.689660449615067561e-01 -2.145321063048163113e-01 4.459528989348267025e-01
1.724531366136171015e-02 8.090760140881962659e-02 -8.649131596356617324e-01 -6.360726118362072246e-01 -6.633555606843537511e-01 3.941713238948417186e-01
-1.359293798965663033e-02 -1.155716816203195552e-01 -7.349594002290211758e-01 8.036679493615467296e-01 3.216914941502938552e-01 -5.006320103233090624e-01
-2.298995937981966262e-02 -2.085384076674672571e-01 -9.295966467301209901e-01 8.734316928840237804e-01 -2.053304841768479605e-01 4.415387526972568977e-01
1.450854263307683849e-02 -1.770255021218842262e-01 -7.892655480024675096e-01 -6.748871586699198843e-01 5.865306124316129743e-01 -4.477824960212710703e-01
9.226507921533554438e-03 -2.173296133936270247e-01 -9.040941866134019067e-01 -2.854000170960166449e-01 -3.850569262052215280e-01 8.776548261264105477e-01
-5.250656683568475508e-03 1.280324141406798677e-01 -7.641956515220514889e-01 -1.265262332802891652e-02 -5.039566886939238488e-01 8.636362469486644766e-01
4.226263587944262268e-02 -6.659046102929336297e-02 -8.443024640586758167e-01 -5.835535358635193237e-01 5.745293168515900328e-01 -5.739175331519588141e-01
1.540321595427307511e-02 -1.796503322649167234e-01 -7.938236994200225105e-01 -6.986951543989406987e-01 5.503121941911447434e-01 -4.571450209112730700e-01
2.711043813697775265e-02 5.632888452007846214e-02 -8.616752035201749038e-01 -8.971830263108088177e-01 4.415845400414103450e-01 8.106250439911907857e-03
-1.804471656854733305e-02 6.081130713386145165e-02 -8.639987273821062574e-01 9.168197500091689323e-01 -3.488176205300901334e-01 1.943394288374106216e-01
-2.223771475924483237e-02 -1.568138350933458158e-02 -8.223461363154016546e-01 9.803237112702489764e-01 1.750982697959808376e-01 9.113735258267918748e-02
-2.530173348402350864e-02 9.644396364059121263e-02 -7.509569041959769375e-01 9.344942861342184770e-01 2.134921070069789595e-01 -2.848535578647702349e-01
-1.389278415788991645e-02 -5.204636369300055278e-03 -8.959652684409287193e-01 9.550844471600012930e-01 -2.132887854457025389e-01 2.057221251984625854e-01
-1.822596490090909807e-02 -3.164606497717531441e-02 -8.368115313981355774e-01 9.907849172950119465e-01 6.369958746347136047e-02 1.195307919228340843e-01
9.501364305425915452e-03 1.013149193903231521e-01 -8.287269955953129319e-01 -4.758780347161338797e-01 -8.654036954722718056e-01 1.568965899490669391e-01
-2.115510290661775511e-02 -5.620219511180719885e-02 -7.475517967564037081e-01 9.984916997192275767e-01 3.211596612187436750e-02 -4.452965654332400464e-02
1.316667738457221034e-03 4.140082908251582761e-02 -9.103948958862271290e-01 1.789729561962580609e-02 -5.765443053917531646e-01 8.168698493210804212e-01
-4.518343409747793693e-02 1.988652861344747669e-01 -6.816505091936154725e-01 1.821505030729923813e-01 -9.088247519386252193e-01 3.753115565686088728e-01
-1.601682190188351285e-02 -2.234884117407934592e-02 -8.864722501619755057e-01 9.761957982584257287e-01 2.137129923687467736e-01 -3.699351774826614009e-02
-1.283027762036622992e-02 -6.408188533699457623e-02 -9.280844037139819314e-01 9.792910204882094849e-01 -9.570295733921538317e-02 1.784097563130718211e-01
3.324474912797913129e-02 5.929974951789676596e-02 -7.824561221929292598e-01 -8.951371152493545758e-01 -2.652905115334615038e-01 3.582603653676722510e-01
-1.482292656910420142e-02 -6.721446872636248349e-02 -7.841372046997316936e-01 9.770185338066461611e-01 1.070336186215213176e-01 1.843328215025587524e-01
3.434797704887412179e-02 -3.993981279542814511e-02 -8.946574468543055936e-01 -9.393257267628650764e-01 -1.811805469155368109e-01 2.912744212264478105e-01
1.508391492669956466e-02 -5.684520986742663123e-02 -9.412016282108682796e-01 -6.968717648384135099e-01 -2.481619380844746203e-01 6.728933019856508935e-01
-1.522721936334846607e-02 -1.225101928930078521e-01 -7.893593984116834550e-01 9.949865282747520911e-01 -6.426908635686051641e-02 7.662436355762033968e-02
-3.683242919144656680e-02 1.859233746583809077e-01 -6.371149126728219425e-01 -8.489644163345058114e-01 -5.427865378449828193e-02 -5.256550651721664247e-01
1.187506489554953498e-02 9.813018000598652812e-02 -8.362380650385126124e-01 -5.711317477295196898e-01 -7.985953249318011871e-01 1.898789976076747932e-01
-1.445815397627862701e-02 1.676253969375607888e-01 -7.314577840762034322e-01 -2.746186769751334245e-01 -7.762217467582823716e-01 5.675071648146375880e-01
-1.942466919100387102e-02 1.062237099306308774e-01 -7.695010250490104120e-01 7.834090109004737679e-01 -2.787675552542147606e-01 5.554808473543706437e-01
1.197293710413124910e-03 -1.155059908468650393e-01 -7.322291827005393827e-01 -3.867941817907986080e-01 4.857141878662851187e-01 -7.838826370306857250e-01
-1.879830790536957466e-02 -2.001015808560115128e-01 -8.434193803946319345e-01 8.720520504250685034e-01 -1.710943818657839344e-01 -4.585323694608691714e-01
-3.911203624205173562e-02 1.849396331114767367e-01 -7.086740779356180964e-01 3.300223388082644260e-01 -7.360064507326384842e-01 5.910835477049477538e-01
2.876917244622708217e-02 -1.378226376649115126e-01 -8.739213355390764715e-01 -4.551313736173194235e-01 8.470004518723515119e-01 -2.746737469749231941e-01
2.074628341712055415e-02 5.489823854729713321e-02 -7.486797669390641286e-01 -9.393672210900576580e-01 -2.845987392541970418e-01 -1.912923980624013087e-01
-2.146967833513903790e-03 -2.100651048278905642e-01 -9.382895386141211214e-01 -3.339666864877632313e-01 4.328710423690888542e-01 8.373105236378451943e-01
-1.574334471969008123e-02 -5.565495052503608570e-02 -8.745254673195207440e-01 9.985343018059867903e-01 -4.896356280850140685e-02 2.306117156452492864e-02
-2.347316798280576350e-02 4.733027447535382431e-02 -8.285124165436449362e-01 9.753061952754665809e-01 2.152561538104738603e-01 4.942280550530402800e-02
6.207942161682738526e-03 9.410902924448091844e-02 -8.543936684642036150e-01 -3.546380111854633421e-01 -8.322673382254597296e-01 4.261020520315850213e-01
2.742499169193689940e-02 -1.081312001250083469e-04 -7.543843257405713487e-01 -9.200964290194302286e-01 -2.132472826082385253e-01 -3.285546495880019569e-01
-8.748737641267111120e-02 1.901374825455905415e-01 -6.325377767203431700e-01 9.740727408496915318e-01 3.456654573545848985e-02 2.235787321045722698e-01
3.223657573818441285e-02 -1.470136370868076713e-02 -8.566149049308220409e-01 -5.992601220342134161e-01 -7.969614157631750295e-01 7.576152007645504949e-02
2.836301924957854159e-02 -3.424704909067356057e-02 -7.928340139666820718e-01 -7.928104976557577288e-01 -3.602588987664442355e-01 -4.915943863251681090e-01
-9.428747441069721888e-03 -2.330130678668032862e-01 -9.264127558364801951e-01 -5.604056212170520634e-01 8.193468171785102117e-01 1.208980268150594561e-01
2.992124576397767188e-02 -8.280204234223291146e-03 -9.075363768662118025e-01 -8.664483781636485027e-01 -1.446666087301728409e-01 4.778480723996845758e-01
-1.953876689259866420e-02 -1.368539894498828173e-02 -8.507414356918455711e-01 9.625291944631003682e-01 2.455930810006324849e-01 1.149851658729594411e-01
-2.383400071042416496e-02 -1.553602756161670262e-01 -8.773587891207025313e-01 9.946188928418397968e-01 -9.853869363656475588e-02 3.199037134001728178e-02
-2.730472253566209456e-02 1.777425853768434261e-01 -6.539173434846667909e-01 -7.847926842987410501e-01 2.683606728510245509e-01 -5.586438865127959508e-01
-1.323055303862359124e-02 -1.293827016331613733e-01 -9.242718423454742149e-01 9.997060388537645226e-01 2.410031436846478761e-02 2.647777682654359720e-03
1.721106194998535399e-02 -1.857952733229969455e-01 -8.862685120150981533e-01 -5.351087005255634743e-01 -3.467023999716413174e-01 7.703610351489401653e-01
2.606412482789665676e-03 1.605106277327931208e-01 -7.123221314176181318e-01 -9.070913049183660926e-01 -3.897582549056091694e-01 -1.589775684630693742e-01
-2.278945440510271592e-02 -1.322654529206783100e-02 -8.209485606737808583e-01 9.822679485516724318e-01 1.515553732842623291e-01 1.103659643040228039e-01
2.421926350669805980e-02 -1.946069335227772479e-01 -9.137120630177817393e-01 -9.382092541265408814e-01 3.262284602685304735e-01 1.154919355718997537e-01
-2.068221977197438888e-02 -4.387214434350379839e-03 -7.581139795373168511e-01 9.909442097080529699e-01 6.868068141714757380e-02 1.153799689987773658e-01
-2.106799589906702130e-02 3.339191127783062291e-02 -8.322168372965396133e-01 9.947723457132154889e-01 7.777890711683912994e-02 6.616964418777708523e-02
-1.500931676097666014e-02 -1.449605152405276653e-01 -7.639956910779742705e-01 9.861912552409302091e-01 1.424134799415262276e-01 8.452933702131348870e-02
-1.538977615622693328e-02 -1.621743774864917720e-01 -8.545875104338155337e-01 8.894461406438526341e-01 -8.700286433225748461e-02 -4.486825876850347727e-01
-4.195246649622639407e-02 1.538617977535020054e-01 -7.105146011360956582e-01 7.996312869256615441e-01 5.993128735240703664e-01 3.760165685088494997e-02
-6.969027043933376242e-02 1.720878207539351945e-01 -6.458108819158796532e-01 5.749939773963964607e-01 8.047174246732057279e-01 1.476881592586076486e-01
2.215717856851695533e-02 8.057780585288853992e-02 -7.993840365595897834e-01 -9.508358743488706244e-01 -2.794534453229525761e-01 -1.334800057999344647e-01
3.639055303028775751e-02 -7.811647902276311339e-02 -8.700440517560243947e-01 -8.596162296125763325e-01 -3.341156044649949419e-01 3.865574997845074856e-01
1.551457784814846454e-02 -6.333770415373231322e-02 -9.427165101468641950e-01 -7.165496645643862905e-01 -1.592952383891001467e-01 6.791035305748491790e-01
1.910043370289172052e-02 -2.029180044440809239e-01 -8.615421792883019014e-01 -5.766185309822431382e-01 4.027160402189042948e-02 -8.160203843271222057e-01
-1.629180271792878693e-02 -1.410845585374125577e-01 -7.597924347262974276e-01 9.599493362559010645e-01 1.801979563690431496e-01 2.145366363637584706e-01
-2.809546736455000027e-02 -1.941780143449348128e-01 -9.092158663885674397e-01 9.241192781603980722e-01 -2.118660839256796269e-01 3.179879277807595717e-01
2.785621049993993251e-02 -4.475604269320211659e-02 -7.782450684171057231e-01 -9.500128073178226717e-01 1.263518551998636108e-01 2.855010939027419758e-01
-5.107026964831057683e-03 9.369479103032643183e-03 -9.177608076466933218e-01 8.932101662005481613e-01 -1.414552535279627321e-01 4.268091028145125088e-01
2.249143428187691529e-02 2.870519012823522995e-02 -7.635471863066407572e-01 -9.278918867480022703e-01 1.552262464958426291e-01 -3.390006768518968316e-01
1.882644945060092320e-02 -1.741706025198286878e-01 -8.801204116039169634e-01 -5.727365444144504325e-01 -3.087355411370551472e-01 7.593781774129436668e-01
-1.398612077690833747e-02 -1.049526267152809528e-01 -8.302015972054169746e-01 9.868650922771089462e-01 1.435249017773483071e-01 -7.414777282356961596e-02
-4.563244805228722917e-02 1.971609216591444502e-01 -6.283187835174491864e-01 -7.986700125519734517e-01 -3.830032682186347293e-01 -4.641494453126871478e-01
3.663649187091221060e-02 -8.140764595760716094e-02 -7.785663410083215608e-01 -9.095017988754287019e-01 -1.418207066806886560e-02 -4.154579963292619471e-01
-1.913149889803385587e-02 1.869736004672922502e-01 -6.974980469445751785e-01 -5.249364697242246969e-01 -8.208552128512283108e-01 2.250298253308500862e-01
-1.261105250208825225e-02 -1.413727726071679625e-01 -7.497146183596868907e-01 5.287514882648723935e-01 4.904403217128991965e-01 -6.927410443274097940e-01
3.603422903389139065e-02 -1.690304026210405486e-02 -8.449749966981220384e-01 -6.604514331987466624e-01 -7.507752782219747623e-01 -1.184845966519260801e-02
-2.246271434610937201e-02 2.492612675331636746e-02 -8.132169277419900588e-01 9.885868643261005451e-01 -4.518641787585306324e-03 1.505841743287911483e-01
4.781692010465863132e-03 5.046114065242098684e-02 -7.150771131000417391e-01 -4.333349852866244523e-01 -4.845719043733692222e-01 -7.598755556132906763e-01
2.457431626663554580e-02 -1.714576459572244582e-01 -9.140407303203635925e-01 -8.464476157482013763e-01 -3.915807370234942186e-01 3.608198445018266365e-01
7.281546341064236601e-03 -3.299174714491215354e-02 -9.390998662726496304e-01 -5.844739380896430969e-01 3.274554125511439095e-02 8.107514694540450817e-01
-1.590862132124625655e-02 -1.869089171054618692e-01 -8.438896659725829696e-01 9.187963958924951768e-01 -2.215359735818314968e-01 -3.267032220595799674e-01
-1.334468635804656432e-02 2.360497689423738527e-02 -8.901031590987853459e-01 9.580794438128149570e-01 1.173314436253739684e-01 2.613754228693145332e-01
-2.047840690985582024e-02 -2.574565188928315193e-02 -7.563528263988460454e-01 9.959267573604180246e-01 -2.025143221016752551e-02 8.786224141803031240e-02
-2.320027254787709534e-02 -2.011634692365797950e-01 -8.711669859910895486e-01 9.892467737380936654e-01 1.357902451410943068e-01 -5.433074611391125464e-02
-1.255795731523598642e-02 -8.140994935571488345e-02 -7.958209027840904559e-01 9.962592674906521895e-01 4.422852096560658808e-02 7.423819685434311644e-02
3.426091507570265537e-02 3.685063263635294378e-02 -8.657541670248782850e-01 -9.125366465664542792e-01 -4.026191183858734424e-01 7.193548625978848921e-02
-1.485901130372856670e-02 1.136350240983905052e-01 -7.698858914447329616e-01 4.644356022011770779e-01 -4.613296865531853475e-01 7.559593188213038495e-01
3.722322536206822824e-02 -7.339234492523877273e-02 -8.684202592722937153e-01 -8.234701535276547357e-01 5.457710569280614932e-01 1.550189010049006777e-01
-1.158558668872109896e-03 -2.103621551704457360e-01 -8.301989967406685489e-01 -2.648785082125339543e-02 8.677404525452921957e-01 -4.963112942250684223e-01
-1.276594091316287510e-02 1.265884964064289131e-01 -7.183194352377608727e-01 2.253905173894677760e-01 6.554995213279807276e-01 -7.207770058830235138e-01
4.354598808455787014e-03 -2.293604700149604603e-01 -8.790142911048642871e-01 -3.387008740972785592e-01 9.239191655096847811e-01 -1.779187834086868591e-01
2.494103614032364136e-02 -1.704696452288871344e-01 -9.117761097105164803e-01 -8.605507989128110546e-01 -4.662631980873577775e-01 2.050632892544934083e-01
1.565607822059536525e-02 1.151807430526895493e-01 -7.378400142371789316e-01 -8.848316835964278315e-01 2.867608997535801146e-02 -4.650274976467909660e-01
-1.194984254949999283e-02 1.393865604767700883e-01 -7.030380521673537109e-01 -1.560877646484926939e-01 7.595174598569539581e-01 -6.314822546196188213e-01
3.400905697112407977e-02 -5.793887223990407120e-03 -8.616454152361957552e-01 -4.125641246979232513e-01 9.068033610652702636e-01 -8.659392226343326504e-02
4.204947821772226507e-02 -4.976925007069668561e-02 -8.726650170556771169e-01 -9.514719995654551399e-01 -1.102748072990166750e-01 2.872986267250144388e-01
2.907922893607537557e-02 -6.114151506450191120e-02 -7.657711705153699144e-01 -5.587184830917109046e-01 4.434830924169517741e-01 7.008255156542139153e-01
3.761005780573369039e-02 -5.829872352643014014e-04 -7.951644115299674187e-01 -6.592528449186320083e-01 2.936218658033237783e-01 -6.922224255171636198e-01
4.472077025398155797e-02 -7.574880226596557298e-02 -8.151551167515814766e-01 -9.999040038296046484e-01 -1.284249981343239810e-02 -5.201281002586582297e-03
1.497248192251710193e-02 -5.231388924746957492e-02 -9.394427651485943720e-01 -6.619276063343974004e-01 -3.318573261142786501e-01 6.721030866442263552e-01
-2.086363797126266142e-02 -8.846493613338611561e-02 -9.144222542925584118e-01 9.952551418562564089e-01 -3.267412539740632144e-02 9.164935427048827299e-02
3.371311045185459293e-02 -1.121540840517596012e-02 -8.974865175511208548e-01 -9.072482188953253646e-01 4.068725868143118207e-01 1.065615662905257249e-01
-1.182379316782823826e-02 -1.319903472192156535e-01 -8.412406009460308143e-01 9.654730149751908908e-01 1.344393571233360729e-01 -2.231320609212829875e-01
-1.368838670651515224e-02 -9.591564260267053388e-02 -7.889279787261120891e-01 9.856449325776019954e-01 -5.226436239828972236e-02 1.605381677583078981e-01
3.179097895421123532e-02 -6.224624844308968702e-02 -7.768017713485356746e-01 -6.315081347203596041e-01 -3.234371366955791638e-01 -7.046885087669428893e-01
3.638044063792475469e-02 -2.398822410835827618e-02 -8.280377821469565580e-01 -7.058125870745365349e-01 -1.957661890875463662e-01 -6.808114211272374705e-01
4.405378550710727786e-02 -9.072640032496112616e-02 -8.622075803294958485e-01 -9.887500385342324893e-01 -1.033285083179583813e-01 1.081507312381171371e-01
2.169692927227647589e-02 -9.724407153244962743e-02 -9.223375627474649230e-01 -9.487188771686532185e-01 2.246903662455961848e-01 2.223662101585349160e-01
-4.413496879599902029e-02 1.717619915556252985e-01 -6.389533179994100198e-01 -5.160807367136227564e-01 7.286957316696293097e-01 -4.501813010772304779e-01
4.391253099705572094e-02 -3.114009903188760114e-02 -8.512571802847832547e-01 -9.501464909829551164e-01 -3.053999434039635918e-01 6.286907221864500295e-02
3.132858740068525383e-02 -1.904118437231137537e-02 -7.922366809862213533e-01 -8.497201517427765971e-01 1.188351457003324757e-01 5.136670827185768617e-01
-1.476317244173140295e-02 1.405273226669424003e-01 -7.013243049702930776e-01 -2.407898236642204426e-02 8.047323619000955608e-01 -5.931492462432124135e-01
-1.346812458696701117e-02 1.781549925445032323e-01 -6.801632769622192320e-01 -8.902852771117649722e-01 -3.227972506262545838e-01 -3.212383232837561775e-01
-7.736908964236208913e-03 -7.610117043882219656e-02 -7.082709022100152074e-01 -2.186912657254154457e-01 3.908287994359640471e-01 -8.941068056037034806e-01
2.063614253660404387e-03 -1.874489520148491795e-01 -7.930979517468429441e-01 -5.848745030014323304e-02 8.201496840396391708e-01 -5.691517494720266246e-01
2.366077761380896288e-02 -1.678398207575307333e-01 -8.633088338173497966e-01 -8.336738292965789610e-01 -9.516220519699475355e-02 -5.439964163926299667e-01
3.870656000312253098e-02 -4.338107385153469608e-02 -8.291192423565213465e-01 -9.996227031912948702e-01 1.800148811519663300e-02 2.074602829861836237e-02
-1.018179416135043917e-02 -1.706896714249850067e-01 -7.766745363223094278e-01 7.550556479545106336e-01 4.740187966404285080e-01 -4.529869191528095862e-01
1.390151628735390894e-02 9.270652624623483551e-02 -7.842068598954049508e-01 -8.675539381392957106e-01 -4.914517001687787046e-01 -7.632424791778694151e-02
-3.986529414937024784e-02 2.016905479825582825e-01 -6.535727558499427881e-01 -4.837854185873675106e-01 -8.684441451804125744e-01 -1.084270974623416511e-01
-1.618701608466016281e-02 8.423222917307467139e-02 -8.056488778308440457e-01 9.576044427026910721e-01 -2.783045461849663615e-01 7.443326466606572933e-02
3.563733042489342084e-02 -6.820838515909863342e-02 -8.404976708988519674e-01 -5.138902086008608761e-01 5.560229932731248770e-01 -6.532650950844978155e-01
3.438138589184171201e-02 -1.158463702593064831e-01 -7.804351409935508244e-01 -9.414324216975591408e-01 1.563654000332758698e-01 -2.987555138388292009e-01
-8.314807124621895196e-02 1.865320592067484518e-01 -6.149574951184909599e-01 8.033055990675279645e-01 1.619356627626954981e-01 -5.731290915948751286e-01
-1.719901192758022460e-02 -1.762504035035144523e-01 -7.992877543384047101e-01 9.323140322109758626e-01 1.680569380338333141e-01 -3.202302467306987199e-01
-2.233164173887210516e-02 3.141367382854125083e-03 -7.513482551770825912e-01 9.653578776037505804e-01 1.575029089923568049e-01 2.080312519967323359e-01
-2.308570742217651642e-02 1.707604252893851204e-01 -7.301236547098923779e-01 -1.332526475930821963e-01 -7.746026678938943144e-01 6.182511130609431582e-01
-2.254765067955934524e-02 -4.289859177894743240e-03 -8.346735504010566187e-01 9.850487888731568331e-01 -1.444425310240352867e-01 9.388950298567816377e-02
2.670312134140715235e-02 -1.642899505608521465e-02 -8.798883798933764266e-01 -9.116018455704955059e-01 -3.531105957870320777e-01 2.104637315439250589e-01
2.789682788427653298e-02 -4.970864516219809098e-02 -7.783322995338544104e-01 -9.814838116935857837e-01 -1.483221041508938354e-01 -1.212026435507135985e-01
2.317880298525536870e-02 4.178572759326430741e-02 -7.448877972709061490e-01 -9.695258420368394470e-01 -1.928844859825532831e-01 -1.510470677967754860e-01
3.221882471064139303e-02 -7.406640157766411492e-02 -8.318580386545472161e-01 -7.477750551475846885e-01 -5.068343309456652818e-02 6.620148461392504347e-01
5.689530376935607661e-03 -1.064472017404801824e-01 -9.521378824860431411e-01 -3.697483274918927920e-01 3.723904068203075235e-02 9.283853877383195785e-01
-1.320260292182291739e-02 -1.844699498669658266e-01 -8.323496460295035648e-01 9.872899181059829887e-01 -1.380116749137887122e-01 -7.881240507542094931e-02
3.260388799870457543e-02 -9.404443421655268170e-03 -8.836857386659976443e-01 -4.583380179241544061e-01 8.625135005634864127e-01 -2.144684654467371721e-01
7.800555677162660830e-03 8.102806718733923663e-02 -8.738460420808578100e-01 -3.324626241403051408e-01 -7.486055082419997841e-01 5.736361186148232205e-01
-1.108372992349303081e-02 -8.307642509156673571e-02 -7.127272775492220491e-01 4.832966787197616187e-01 4.778153413497517876e-01 -7.335644619999440730e-01
-6.477908990141273415e-02 1.855778718188902110e-01 -6.083584607654409782e-01 -3.221027905947447256e-01 1.550415083210531231e-01 -9.339228677940222267e-01
-2.758220450255138498e-02 4.048899415952296466e-02 -7.737341429407325055e-01 9.693037843248725194e-01 1.361518587778673961e-01 -2.047262685754146216e-01
-1.522697750684193045e-02 -1.260461372111303102e-01 -8.141861004474508778e-01 9.147132429246506158e-01 1.146767745952819622e-03 4.041019279117656904e-01
-1.269762043554672516e-02 -9.865607181110408463e-02 -7.962385463725176749e-01 9.896217419776565105e-01 -6.650507480486410328e-02 1.273808573935189536e-01
-1.596700820234528764e-02 1.541775186751953575e-01 -6.853958796170273038e-01 -4.296718763790890461e-01 6.201360805961745326e-01 -6.563637102945955037e-01
-1.903979410516275575e-02 -9.927874255874721832e-02 -8.424966751866302950e-01 9.823480974009284328e-01 8.297787480148878514e-02 -1.676510895467269724e-01
-1.848603879030403727e-02 -1.039219848952260827e-01 -7.662813951463516293e-01 9.211763166493927013e-01 1.886962642360489120e-02 3.886877034881494608e-01
4.174731093728700076e-02 -1.130833203929171304e-01 -8.285319098362139423e-01 -9.564688406736754356e-01 -6.093669443018544934e-02 -2.854016049223931373e-01
2.557913287741122796e-02 -1.504109771815254071e-01 -9.257358614667176022e-01 -9.006319700980753851e-01 1.280780062194254165e-01 4.152807228371142578e-01
3.517773620844352744e-02 -6.302803774971424411e-02 -7.517466521630731258e-01 -9.666874695141881579e-01 8.974570606166658304e-02 -2.397103346285855419e-01
1.716591679675120649e-02 -1.215847632146018209e-01 -9.406547298041042504e-01 -7.091716827974160475e-01 -1.532115228591612033e-01 6.881872954228798189e-01
1.142686903868165432e-02 -1.524509101416854639e-01 -9.451794116980754001e-01 -6.672703537006747787e-01 1.228213289637867522e-01 7.346190823983174134e-01
2.882081350282418401e-03 -1.778447961000155508e-01 -7.797493446500548542e-01 -1.909560360784424426e-01 7.642427913183047483e-01 -6.160103474806366552e-01
4.220970958104926923e-02 -1.388624211103205996e-01 -8.408195266830362780e-01 -9.902196081153640250e-01 1.203844435721483641e-01 -7.051746910999470708e-02
-2.458716476772078094e-02 -1.938537280353441195e-01 -8.759922698307832656e-01 9.813487925929544886e-01 1.631999934562220617e-02 -1.915416531663788613e-01
-8.678953925003571324e-02 1.957115774756146842e-01 -6.254784102594197481e-01 9.357498910736580244e-01 -3.496031573694023398e-01 -4.636565229760335194e-02
-1.796154600385608396e-02 -5.228503039660004764e-02 -8.398138050050992787e-01 9.841651216545608261e-01 -5.081865229801581230e-02 1.698130675103563247e-01
3.740319433061044946e-02 -1.250028184709800483e-01 -7.975256512737949333e-01 -9.546193654894589153e-01 1.742621494931691217e-01 -2.415255064926329909e-01
-1.236901059080352215e-02 7.756055006205994640e-02 -8.686694741490729177e-01 9.123997163599805171e-01 -3.110382151234056813e-01 2.660488419803274107e-01
3.130268863403740109e-02 -2.011530528437196694e-02 -7.535251938651799097e-01 -9.477665092952133330e-01 -1.751540127115847612e-01 -2.665702828324950646e-01
-1.640969597837427935e-02 -9.804019730874290184e-02 -8.622666628031322444e-01 9.916175595373755147e-01 5.476523886953150316e-03 1.290915307185386274e-01
-1.526885931057092062e-02 -1.047592889663272742e-01 -9.441802267498344836e-01 8.893460933537751245e-01 -3.033424971015205238e-02 4.562273112505437211e-01
-9.939024091490687718e-03 -1.394344640843359073e-01 -9.465370284048859606e-01 9.054062303084123853e-01 -6.738178846508011133e-02 4.191649468907883702e-01
-2.262487619107776335e-02 3.603675368116000810e-02 -8.147266654989449020e-01 9.935399466268627355e-01 6.928774110030702649e-02 8.987537699452366469e-02
3.556234011182116822e-02 -1.369394376657665641e-02 -8.004475001346644802e-01 -4.286169781602494622e-01 4.596696297914854012e-01 -7.778118779500187152e-01
1.727298851037921065e-02 -1.580301699578197383e-01 -7.744937121460312435e-01 -7.435678324400906147e-01 4.288551534290072076e-01 -5.130205999155665886e-01
4.024804077574613281e-03 -1.648887741428702591e-01 -7.665535355124383221e-01 -3.347832165205166244e-01 6.031327571076120497e-01 -7.239827865632904036e-01
-1.992433728179613880e-02 -1.031514963807419333e-02 -7.686361167135655759e-01 9.988233448275100068e-01 4.656862391124295258e-02 1.353843028561266953e-02
-2.309740740791816141e-02 -3.569459499786666046e-02 -7.355858282686359439e-01 9.858169908215050903e-01 6.735242594208812328e-02 1.537156834137235473e-01
3.839526069329438768e-02 -1.150651750661975947e-01 -8.099061515595747940e-01 -4.663267708277861190e-01 3.954909517504958671e-01 7.912813974135980422e-01
-1.873754663530798710e-03 -1.758521809154500737e-01 -7.769245288518377146e-01 -1.027968743119714659e-02 7.759098274343151358e-01 -6.307600714353818194e-01
2.625764950784278268e-02 -1.777890699320777701e-01 -9.144164611542849874e-01 -9.241206572687509224e-01 -7.028581627442137547e-02 3.755807700612615596e-01
2.413331343904998386e-02 -1.783443809294355531e-01 -8.632920467609499493e-01 -4.399775111390747395e-01 7.874562898766095109e-02 -8.945495601738358005e-01
1.811388474087489986e-02 -1.990059951391915660e-01 -9.033637232068252310e-01 -1.840921677410008728e-01 5.749179667400046156e-01 -7.972323408492395513e-01
8.192209584754878409e-04 -4.190623633961042260e-02 -9.434770973580944853e-01 -3.426181960872752841e-01 -2.921078846720577271e-01 8.929085929826844348e-01
-1.551098921097575876e-02 -1.376983607433354684e-01 -7.697757660850206296e-01 9.920251606155150448e-01 1.072526663642098532e-01 6.620382363224308619e-02
1.580927922594627805e-02 -1.802595243944638825e-01 -8.893893963463843644e-01 -7.481768235354206986e-01 4.108424357640199087e-01 -5.209989766783953424e-01
-1.918377235129641728e-02 -1.927884881786529059e-02 -8.430753851507231111e-01 9.664522863254522145e-01 2.147403915019749365e-01 1.409132446361404944e-01
-1.640672441031841566e-02 -1.005594419341025447e-01 -8.985517035677036413e-01 9.692623709727458126e-01 2.274995112546129572e-01 -9.367191999315345463e-02
2.390324625755221172e-02 -1.815442398408531333e-01 -8.802408185934231799e-01 -6.859122539064821389e-01 -3.344599534185425105e-01 6.462669104172020784e-01
-5.141417664295032733e-03 -2.215073502180856801e-01 -8.572736822710479432e-01 1.580055524349434359e-02 8.888022329532626609e-01 -4.580184855999719362e-01
2.954377449713038034e-02 -2.075234202341944348e-02 -7.943979930224680519e-01 -9.249697619108101510e-01 3.263315577768170495e-01 1.947784740406783566e-01
3.030929404169140085e-02 4.327879575141744400e-02 -8.552090508655257883e-01 -7.297058265790823395e-01 -6.837190488361314378e-01 7.594005211610593657e-03
-3.446112354912424930e-02 1.986497221089620346e-01 -6.800193740189649505e-01 -3.170173010225095234e-01 -9.220599146017005587e-01 2.220485188806908816e-01
2.079571098027322568e-02 9.654804781376667699e-02 -7.462055166540700890e-01 -8.053698660795698405e-01 4.746107770488720151e-02 -5.908695498281042457e-01
3.364098280107092470e-02 -1.949070374160391875e-02 -8.693416392043374907e-01 -7.089557978566601859e-01 -6.550517227224775807e-01 2.613214825530820740e-01
-2.214202172869677090e-02 -5.028787763340330369e-02 -7.287386288191531891e-01 9.770240052532663810e-01 1.776562771543702957e-01 1.177384403944404245e-01
-1.375986290171238476e-02 -1.197612826538310693e-01 -9.065787741102816488e-01 9.949420403512277966e-01 9.985041714230277754e-02 -1.096496868412705390e-02
2.744801435151844257e-02 5.699020204950350221e-02 -8.570911886790016920e-01 -8.511259684144600879e-01 5.231242655813272968e-01 -4.388152971974008942e-02
3.729587463028527505e-02 -8.802081559041652348e-02 -8.468247593679814056e-01 -5.280329262830169013e-01 1.838846376997434195e-01 -8.290763950198004606e-01
3.996931367744597369e-02 -1.245457022656187573e-01 -8.887900981778323883e-01 -9.633910552114870463e-01 5.109728564783200255e-02 2.631857559556015080e-01
2.993027266863645258e-02 3.246065683554468688e-04 -7.882449610250721328e-01 -8.154095879838654248e-01 2.307764402327685538e-01 -5.308949410735369634e-01
3.422935635359870832e-02 -1.835137394539669564e-02 -7.801982358274218710e-01 -9.960227666197959406e-01 -8.909639377008475580e-02 6.935360216658120703e-04
-1.231061469939302537e-02 -8.302802950758093881e-02 -7.988061343184797991e-01 9.974863389554543547e-01 4.248217432700217289e-02 5.671215444412802675e-02
3.990326639752942578e-02 -1.026555078061395510e-01 -8.874104410068119897e-01 -9.343066223028068107e-01 -1.461523533965193022e-01 3.251317042642556387e-01
2.957031299781858955e-02 -5.067182022035677386e-02 -7.809480287828315381e-01 -6.587334720963121670e-01 -4.013714343047556921e-01 -6.363734630420098126e-01
-1.868591129448557431e-02 2.342585711865477829e-02 -8.513344473173752869e-01 9.907544613572526471e-01 9.176835232305732837e-02 9.992080270199812930e-02
1.713017757382798850e-02 -6.537272698997756426e-02 -9.412586466016321651e-01 -7.740985010752639006e-01 -1.102743497832635589e-01 6.233867807492455837e-01
-1.107400654270498767e-02 -1.681779575947901090e-02 -9.191762638658571571e-01 9.232579559456477458e-01 -2.333558880236009658e-01 3.051880998790433286e-01
-1.336856367344546950e-02 -1.427353459157042481e-01 -9.361708038384046748e-01 9.570437521263428504e-01 -1.969679692523109427e-01 2.127695363640013382e-01
8.069540024569769876e-03 -2.290903698276315070e-01 -8.928087748706646787e-01 -6.142923434784451908e-01 7.890775710824639022e-01 1.226196704834944676e-03
-7.044651171954131354e-03 2.642963154651772201e-02 -9.113036558462064285e-01 9.301977319331791172e-01 3.536461062700073377e-02 3.653512335021877888e-01
1.084250155839774389e-02 -4.232449713210685582e-02 -7.067421090135118655e-01 -6.791213611413998708e-01 3.216093783106959703e-01 -6.598193575699792257e-01
2.223474803217502863e-02 -1.151263542231490966e-01 -9.328940054793857239e-01 -7.234246649698324871e-01 -2.908993608372189010e-01 6.261264376927259123e-01
-1.734997743125059333e-02 -1.199232343862584316e-01 -7.679590661253891115e-01 9.780742900316345967e-01 7.432704620279660668e-02 1.945409298370946449e-01
-1.865954476936711876e-02 4.253444825734414153e-02 -8.795314319777054468e-01 9.766441291789317303e-01 1.138588487955256856e-01 1.822152778756049030e-01
5.839811707950639391e-03 -1.983324947476481637e-01 -8.137495176492717253e-01 -1.956355971044768383e-01 7.688901518722555117e-01 -6.087155719212666849e-01
1.454061673639489398e-02 -7.308249743149046462e-02 -9.454492808179760788e-01 -7.225894553874823156e-01 -5.282604704902693626e-02 6.892560393032446386e-01
-1.963208902136190023e-02 -7.849811145259241729e-02 -8.397913683370168414e-01 9.934193654613842073e-01 4.312197364834913921e-02 1.061058891625341616e-01
-1.384980199053518699e-02 7.216443520621176888e-02 -7.345145243844972693e-01 8.605867239522663192e-01 -1.849065716955910765e-01 -4.745524737064267251e-01
-1.529330089993435719e-02 2.052909632074088886e-02 -8.784913043753386219e-01 9.894296642498915384e-01 7.040422440533923576e-02 1.267761203390827540e-01
2.573774210609341626e-03 -1.394864042967254580e-01 -7.510206782642452339e-01 -4.376600059055116843e-01 4.023416094855579161e-01 -8.040988424984568672e-01
2.486624590186948744e-02 7.083368837674137997e-02 -8.008189688480561452e-01 -9.711203832998606122e-01 -2.070503092134663436e-01 -1.185553482308568107e-01
3.129924320762325629e-02 -1.474712941776624986e-01 -9.078643505033594518e-01 -9.053665799198722386e-01 3.801484086919630911e-01 1.892050298833561073e-01
6.656451207950673632e-05 1.505171179208125154e-01 -7.034203508566222451e-01 -7.924539332937756697e-01 1.944650444098401376e-01 -5.781004325460268323e-01
2.584179163710920071e-03 7.238270770391440345e-02 -8.854649463474200122e-01 -1.771563907183678899e-01 -6.940922383486499703e-01 6.977475029635016313e-01
-1.794047652974609108e-02 -1.418553237274366163e-01 -8.578862712358983345e-01 8.197744388950708450e-01 1.433114956257471595e-01 -5.544652239372488411e-01
3.248864615768855268e-02 -1.244961388388770990e-01 -8.093848915760361029e-01 -7.431472800835168258e-01 3.035670343181042230e-01 5.963045998311450324e-01
4.232683302505575035e-02 -7.633985890492114845e-02 -7.960608865063231177e-01 -9.734783369305509693e-01 2.907734524621636771e-02 -2.269238540135455340e-01
-1.077352880380893010e-02 -2.339726805403425369e-01 -9.253566528810677205e-01 -5.392019879963531048e-01 8.419816459724537294e-01 1.811419295188723688e-02
-1.473024506011099376e-02 -3.284954444753013236e-02 -8.833903018686474207e-01 9.993866406424407600e-01 3.015075977876879518e-02 1.781219217783598652e-02
-8.072875683491869195e-03 -1.262446033518591637e-01 -7.375277477610790999e-01 7.972341588149800540e-02 5.590609248434806888e-01 -8.252848352377122332e-01
-1.042776342212589288e-02 1.791406214207988679e-01 -6.961572778918940774e-01 -7.928205986873008149e-01 -6.093529620454453122e-01 -1.115643059191472573e-02
-1.030284733269166866e-04 -2.245578007891312899e-01 -9.136582983786177836e-01 -9.602858011448455189e-01 8.620803095196517829e-02 2.653664551502077362e-01
2.180801702421268640e-02 -2.257041579523895794e-02 -9.239715853931025347e-01 -8.896838865328843271e-01 1.500312650449313057e-01 4.312229139931683108e-01
8.021704334841995437e-03 -1.566399149170238647e-01 -9.470803004094053845e-01 -5.392736400200849323e-01 1.842987359818304416e-01 8.217164456763582647e-01
-3.167775412587505671e-03 9.975684520626956764e-02 -7.342678207026941406e-01 -1.347491052799950351e-01 4.287657104051940116e-01 -8.933099373716660851e-01
-1.149621524293940183e-02 -4.749772387769639337e-02 -9.347801994017725935e-01 9.876757274594828440e-01 1.010075569135024803e-01 1.195580646955578530e-01
3.331539362905536206e-02 -1.436291002911367111e-02 -7.855184185388335294e-01 -9.796326750003616635e-01 -1.448471712736000283e-01 1.390651611499882645e-01
2.698414275324240164e-02 -2.958543058396891426e-02 -9.022880176690390996e-01 -6.218205222480954752e-01 -6.659528664965084221e-01 4.121237893111598938e-01
3.241722592285069260e-02 -1.725054576005697476e-02 -7.607198965813262159e-01 -9.675602140838511778e-01 -1.694979369141213221e-01 -1.873437522413505529e-01
-2.780988890424654705e-02 -2.389710350637797576e-01 -9.234162831761547618e-01 9.419028142032258577e-01 3.312723103560473170e-01 5.547742772885450729e-02
1.614538425190724380e-02 1.264744535993851948e-01 -7.500671812781332104e-01 -9.296380288733815389e-01 -3.516498440042423734e-01 1.100705341324642317e-01
4.133251844631549016e-02 -6.957888393648023473e-02 -8.492177490752075286e-01 -6.058315523993519358e-01 7.766492182382314091e-01 -1.725807692859639697e-01
3.160713154129956431e-02 -7.307211870740099036e-02 -9.122308190301129383e-01 -9.602594461191984454e-01 5.532160444758819559e-03 2.790541010980916448e-01
-2.180691374473610333e-02 -1.289818318917924228e-02 -7.126757410434706452e-01 9.625972675980278837e-01 -9.399057088447078379e-02 -2.541107494727881111e-01
-1.574079137106155005e-02 -1.037525586647595754e-01 -8.667196021740520839e-01 9.813910055132791799e-01 -3.941331107677994994e-02 1.879315971506645422e-01
-8.418070085582235462e-03 -2.253554492667976250e-01 -8.652943622032979176e-01 2.189089533045230906e-01 8.955747402322278283e-01 -3.873302916389265715e-01
7.554989101105065094e-03 -2.155617117799007998e-01 -9.038758470278966950e-01 -3.626003001143032756e-01 -2.010714624439458587e-01 9.099952139147052810e-01
3.379210434698208532e-02 -1.370732814725962312e-01 -8.029926752667272405e-01 -8.327042988046498007e-01 3.142706427044495987e-01 4.558919980504032576e-01
2.526483253472553911e-02 1.898884847380001920e-02 -7.637133507962178269e-01 -8.450984715886885601e-01 -3.440154019467317470e-01 -4.092211829095496189e-01
-2.471842718590262777e-02 8.768896756349944810e-02 -7.552093986291683603e-01 9.117073286535133381e-01 2.222779309317815255e-01 -3.455173921818706639e-01
2.814863638183644212e-02 -8.734363085452871711e-02 -9.202327483195895663e-01 -9.547574983759357092e-01 2.746393288815715539e-01 1.140673411910938934e-01
-1.718987284251348099e-02 -2.774602417642254432e-02 -7.003811919874117775e-01 7.320263825297163018e-01 9.078597929108501996e-02 -6.752001786467594080e-01
2.111930447532938196e-02 5.177328846081644120e-02 -8.317360367688859668e-01 -9.179782574268096074e-01 -3.917650850940662122e-01 -6.193574890866467703e-02
-1.637145098445904820e-02 -5.077322681194079701e-02 -8.586664895235878170e-01 9.956765367592800287e-01 -4.872424028752855851e-02 7.908338988339509712e-02
-5.729646365734618330e-02 1.681955527779612769e-01 -6.754912221716814491e-01 7.753027238612878458e-01 6.139100125690750698e-01 1.483919904870396600e-01
2.811620782629998747e-02 -1.437810735727148848e-01 -8.083712335830819384e-01 -9.836085677087396117e-01 1.536248862683018968e-01 9.441175694272951890e-02
2.838034648051487863e-02 -1.417035828832584055e-01 -8.089998123688615372e-01 -9.836085677087396117e-01 1.536248862683018968e-01 9.441175694272951890e-02
3.193433440638901444e-02 -7.985740096682708566e-03 -7.677050435297119169e-01 -9.752249806870488813e-01 -1.697486510112490021e-01 -1.418507403005242196e-01
9.742124968380406688e-03 -1.657398880327183299e-01 -7.715891764092848160e-01 -6.477326459006260695e-01 4.953637782667288936e-01 -5.788412101914350849e-01
3.355229548930318412e-02 -7.682830974117740852e-02 -8.309545133925485549e-01 -6.750766909519531067e-01 -7.474619412644196992e-02 7.339512707237269007e-01
2.455934370951753584e-02 5.831522193344140619e-03 -7.309623901447944716e-01 -9.816589470535045381e-01 1.017804977022398333e-01 1.612031077780118338e-01
-1.659650595696110856e-02 -3.798881285075856457e-02 -7.014258767048660026e-01 7.120087301794293388e-01 1.353742192402130617e-01 -6.889973794677156649e-01
-3.279474670621509297e-02 1.425955016936190090e-01 -7.144227584607064641e-01 6.934416654518279488e-01 6.674935206560569378e-01 -2.712767157305935317e-01
-1.752706232752340026e-02 -1.084310587465432685e-01 -7.695080597855102900e-01 9.741783170231294031e-01 2.068547788770094473e-02 2.248304197535124505e-01
-1.125025297221752228e-02 -1.562577249823264847e-01 -9.478888738160624605e-01 6.389209972129167303e-01 -1.590760034090141495e-01 7.526451916141279064e-01
1.735255100249799218e-02 -1.136828234658568554e-01 -7.565253736242089078e-01 -5.912462900650947706e-01 3.063360393913481736e-02 -8.059090561558182042e-01
1.995970993153288117e-02 -9.002424222483224048e-02 -9.392962588630372478e-01 -8.289070816747813319e-01 -1.794826279661734109e-02 5.590983006699100644e-01
-1.722552992505365504e-02 -1.274523590224388991e-01 -7.646665055177058745e-01 9.787635846684973329e-01 1.186323648191722757e-01 1.671771735144609305e-01
2.842165200009105774e-02 -1.566961817413780600e-01 -7.950730108866600476e-01 -9.028899646681866065e-01 3.404760709927205364e-01 -2.624228587277420144e-01
-1.446282681718949817e-02 -1.156382984330856789e-01 -8.167240314923690514e-01 9.544339354224566918e-01 4.967336591247303174e-02 2.942591028888102422e-01
-2.121467943483519580e-02 2.951829618964811261e-02 -8.268953427711149828e-01 9.952432392367187575e-01 5.253697601668882305e-02 8.204121467058685113e-02
2.448157444519720796e-02 1.445655231879516486e-02 -7.295512311210085032e-01 -9.762705193462600795e-01 -1.085074215096325789e-01 -1.874086778479450710e-01
1.805287556741242555e-02 -1.025258577185747116e-01 -9.403780308338018923e-01 -7.901035663051425573e-01 5.610150825689895759e-01 2.469786056362071880e-01
-2.766161830722592072e-02 1.439933967516132673e-01 -7.027643110141132965e-01 4.618422522363605509e-01 8.048856130302595169e-01 -3.726404218360497844e-01
-1.638099224822121489e-02 1.160153990344876679e-01 -7.673110911482908802e-01 5.404157706468681877e-01 -4.179043480023451607e-01 7.302785432674891997e-01
1.109467695099526294e-02 -4.694440874876764508e-02 -7.105255019961574936e-01 -8.175498690713383088e-01 4.405829319035179936e-01 -3.708084299159576935e-01
1.531303146995816218e-02 -2.604270718265640910e-02 -9.333949920792093957e-01 -7.511100793777172324e-01 -2.001913192515812970e-02 6.598733840777051274e-01
2.169575247010196994e-03 7.217680499764454749e-02 -7.288934067510596249e-01 -4.100319736745156596e-01 -5.413809480729980805e-01 -7.340166548711024586e-01
4.689330616285451725e-03 -1.499713546248077345e-01 -7.566463001516405829e-01 -3.418565011039694790e-01 4.771594395552091195e-01 -8.096005199456769441e-01
-6.881321088211050929e-02 2.085399411136098224e-01 -6.291363378389474015e-01 1.053812830785202936e-01 -9.923260536819743516e-01 6.468221054265566039e-02
-1.656344135330757930e-02 -9.139501574206801426e-02 -8.752584393587888867e-01 9.833043061583164324e-01 1.795948664811768403e-01 -2.929719140327562490e-02
-3.099524944525437059e-02 1.834273105815968363e-01 -7.129331747909694039e-01 -5.406629680876925970e-02 -8.457546218848005504e-01 5.308257295100567985e-01
-2.170087631961930066e-02 -1.778970705585339318e-02 -8.240700359226249549e-01 9.803237112702489764e-01 1.750982697959808376e-01 9.113735258267918748e-02
3.385741493946965632e-03 -9.619348438010419389e-02 -9.534738634124269030e-01 -2.733433605956161472e-01 5.589373179307611378e-02 9.602912568406205551e-01
5.689380939497512731e-03 -2.099573952199384752e-01 -8.321514938105561976e-01 -2.603793747683046944e-01 8.439834933667229588e-01 -4.689290395355881769e-01
3.329738618703178415e-02 -1.069096761980836132e-04 -8.107512333023493278e-01 -5.041475845071481388e-01 -3.201854976022206478e-01 8.020701092553109701e-01
6.676054773484070472e-04 -1.161065374254965643e-01 -9.515887352599204929e-01 -5.082357793781359101e-01 2.757268186327592741e-01 8.158867041731689973e-01
-2.362654239729150216e-03 -7.479384777657280964e-04 -9.276056986212517508e-01 5.889049182116359304e-01 -3.564847849320159079e-01 7.253341267430623018e-01
1.614107320791495492e-02 -1.904244364581667293e-01 -9.341596271006283869e-01 -7.610752314325993639e-01 1.869719259383827992e-01 6.211328287980817375e-01
-1.349771566831086365e-02 -1.511741992412166391e-01 -7.630525792977588262e-01 9.348137003601412198e-01 3.342366182149573706e-01 -1.200384466044484427e-01
3.013638417269948189e-02 3.001785957072123506e-02 -7.743395903277811021e-01 -6.443308620532797182e-01 3.113859077655511953e-01 -6.984816079544982070e-01
3.057455159936929567e-02 -6.243046970731629987e-03 -7.922145001146568832e-01 -9.338047226728259931e-01 9.780246718312042564e-02 -3.441560944205713235e-01
3.689486276209475585e-02 -1.601973167675880827e-01 -8.361428631433432956e-01 -9.498389016022003029e-01 2.671682283801173341e-01 -1.625644449052595641e-01
-1.455940894723822994e-02 -7.438387503735680029e-02 -7.103109701943516319e-01 7.211828345114204009e-01 3.966428378648919617e-01 -5.679522676920644164e-01
-1.854765392004952690e-02 -1.854045294516136755e-01 -8.500138608104301774e-01 8.188011607694029026e-01 -2.674766523053183076e-01 -5.079575765693610245e-01
-1.956562774671359584e-02 -2.335782121985697790e-01 -8.962436890550541380e-01 5.591318179254852749e-01 7.390407719763801841e-01 -3.757530406262838407e-01
-1.534418464717918033e-02 -4.099491340900954239e-02 -8.664600208445737417e-01 9.980494646150728233e-01 -4.659636574857468905e-02 4.154569629445974133e-02
-6.342035952689754896e-02 2.081445711689911826e-01 -6.228290485613959815e-01 -2.098819942236900826e-01 -9.598742496739361973e-01 -1.859864869112398400e-01
-1.539506441878287640e-02 -1.425842179546677468e-01 -7.808442843938705469e-01 9.977076266103648283e-01 3.921305043375709898e-02 -5.515277399362886190e-02
-2.200953095887058300e-02 -1.950490530156187216e-02 -8.195927539614137336e-01 9.784119326023031915e-01 1.207523400527250185e-01 1.677169118282862414e-01
4.450392416502141346e-02 -8.828513724765196802e-02 -8.105051845073503181e-01 -9.952583686362970194e-01 -2.148367071430285630e-02 -9.486427964231808341e-02
