-5.076177028972950894e-02 7.184152841391604205e-02 -9.018015255727168666e-01 5.147366624067855057e-01 -8.339920855309412850e-01 -1.987545462274363517e-01
-7.958958295815743433e-02 -1.239279355717922138e-01 -1.016209741564422675e+00 3.772697580224639302e-01 -5.167147060640958633e-01 7.685528233106468932e-01
3.828388988712704694e-02 -1.926723275532060409e-01 -1.038330823729169072e+00 -6.028658733099494516e-01 3.227362498655802492e-01 -7.296533778589210373e-01
-5.364051354530677967e-02 -1.856779195398744198e-01 -1.020761754708644053e+00 4.970149169368630604e-01 7.548699264496863126e-01 -4.279574353648831764e-01
2.834141486730930651e-02 -2.152910106697853987e-01 -1.082800371998965172e+00 -5.925015943147529107e-01 7.599005173044318662e-01 2.673818702435395989e-01
2.056113617290953460e-02 -5.756383029778802674e-02 -9.374871232477856031e-01 4.604874618880051562e-01 1.926063115596242103e-01 -8.665183819119705033e-01
4.784131812306820913e-02 -1.218631396704246139e-01 -1.043552924749175936e+00 3.072569158563580594e-01 -3.411262025628933325e-01 8.883839831871458426e-01
-9.914766779766465143e-03 1.297652656625543077e-01 -8.980613924385418834e-01 7.461717363863361596e-01 -1.725398154565745135e-01 6.430068054853007586e-01
5.069367363483330557e-02 -1.416687276765703496e-01 -9.964505293273566711e-01 -5.029995770733309834e-01 5.049602611670233054e-01 -7.014317929108873084e-01
-8.155978019179069066e-04 3.042003313084847265e-03 -9.735980227227908346e-01 9.995407916025421391e-02 -4.159209907146910190e-01 9.038909843239589792e-01
-3.684288680800177490e-02 -1.171442065742027694e-01 -9.564228361449990112e-01 2.395094616795130985e-02 6.025709296221611888e-01 -7.977058523992062167e-01
3.635524446589106368e-02 -1.336579004628539458e-01 -9.812134109181140929e-01 -4.481190078495432827e-01 4.951381223208971005e-01 -7.443302994158422781e-01
4.067559202835025790e-03 -1.704397719370424891e-01 -1.023843149088625504e+00 -3.654516646285147496e-01 5.253768508878420285e-01 -7.683906853752339172e-01
9.357244112777156342e-02 5.637305807041163852e-02 -9.289571814484988144e-01 -8.372467760771820089e-01 -4.214485504351901946e-01 -3.484235286033969814e-01
-6.049240570330451094e-02 -7.024730582424323910e-02 -9.424542460084290862e-01 3.095605361488143470e-01 1.578374487314316010e-01 -9.376884419876418963e-01
4.809440251941827366e-02 8.804010347630283895e-02 -9.135512483568012376e-01 -3.526497152345072772e-01 -9.284307919989879254e-01 1.168522263936510736e-01
7.856426400439912860e-02 -1.536667767317639044e-01 -1.039743848234255363e+00 -8.851294989113339673e-01 4.269706375022489508e-01 -1.850455210695305386e-01
-2.026424811760048350e-02 -1.402844059921878606e-01 -1.039557617815588531e+00 5.808994955342816624e-01 -5.764562936652284364e-01 5.746772290440652631e-01
5.096415108010377698e-02 -8.662346508277327800e-03 -9.838723446293162755e-01 2.166932106791724655e-02 -5.580060580272246940e-01 8.295539040528788766e-01
-1.165693220951540508e-02 2.693449785626903306e-02 -8.995345545080605243e-01 6.036648867282979475e-02 7.425228243956014662e-01 -6.670950024523433219e-01
-1.055903626196457758e-02 9.311465258666620781e-02 -8.842761951808995047e-01 9.208804503324744539e-01 1.713225163207429680e-01 -3.501825118377384638e-01
-4.284996037017279463e-02 -1.558807980239212687e-01 -9.860589721100674332e-01 1.629725746021155330e-01 6.139789404553908092e-01 -7.723145736063987687e-01
8.613387619077910590e-03 -1.689008531861342366e-01 -1.020579127209567893e+00 7.912029443341050960e-01 3.317066598391381071e-01 -5.137787390457155823e-01
-3.813299957036345167e-02 1.733763343481096453e-01 -8.748551744397961016e-01 7.386022604236586186e-01 5.101778838390904625e-01 4.406645297031856479e-01
-1.062358457577728121e-01 -4.703692522143086349e-03 -9.438621474055474136e-01 7.613993656705426716e-01 -4.481506101598413117e-01 4.684357336602934518e-01
-9.411400769450429041e-03 -2.052383996688297851e-01 -1.092556511248642614e+00 5.347119084923862564e-01 -3.496258631546657059e-01 7.693145850234383021e-01
-4.453991855795207122e-02 -1.715862214234898375e-01 -1.000164558672262061e+00 2.021590193525360513e-01 6.682705111851190427e-01 -7.159233581709713023e-01
2.183617351403878068e-02 -5.568972215142645177e-02 -9.364949001929329109e-01 5.359140424885809884e-01 9.952223895483326699e-02 -8.383862254456262431e-01
4.980797484824456972e-02 -1.780854122380585436e-01 -1.031378247342025212e+00 -1.755074032264620776e-01 8.564902583791207391e-01 -4.854086821580051447e-01
-7.017039700436039640e-02 -1.213204825642266553e-02 -9.611896295690807168e-01 1.574640425274727862e-01 -4.557691919401188341e-01 8.760590841884795532e-01
1.131500722455495433e-01 1.693644516917679893e-02 -9.551793371908080532e-01 -9.741476577350404176e-01 -1.257887166247761701e-01 -1.876527103434069144e-01
3.410780794025604357e-02 -1.182210010656612326e-01 -9.707878056758413310e-01 -4.235490188958683233e-01 4.216127925780642216e-01 -8.017785740008730455e-01
-1.043436726202608654e-02 3.541859742382155729e-02 -9.523984851612496971e-01 4.950574192321449685e-01 -3.780644233399075294e-01 7.822949849435769654e-01
6.749883440478236796e-02 -7.548569641677600750e-02 -9.610988336978049107e-01 -5.112392613235442473e-01 3.982759588879266621e-01 -7.615843211708466232e-01
7.126028175513920981e-02 -5.694085566528989117e-02 -9.597096403651973473e-01 -7.027365227483611809e-01 -1.976563552093616172e-01 -6.834422761586325112e-01
-2.399062696642102754e-02 -2.013471901474216674e-01 -1.028039310972820752e+00 3.070718553222365754e-01 5.753820652351646636e-01 -7.580516833796202558e-01
8.632000263824041175e-02 -1.685941303613726350e-02 -9.340869064526715615e-01 -4.607496552826383929e-01 3.838736034912431649e-01 -8.002192272743623436e-01
9.064120592411242794e-02 -1.325129079898456075e-01 -1.025869438943669776e+00 -7.498245906260896376e-01 5.752288109359022794e-01 -3.269172653159899689e-01
2.042222113398686062e-02 -3.002171131680835686e-02 -9.318069551140838458e-01 -4.873962660726858243e-01 3.728427393003937995e-01 -7.895778438946866595e-01
5.780479809471242465e-03 1.087026939306217355e-01 -9.152463287901320133e-01 -1.530117086617008570e-01 -4.508977822420970338e-01 8.793626140458694618e-01
-9.542488310917043859e-02 -1.153043374416548722e-01 -9.769888625110881852e-01 6.516446257378686324e-01 4.229980541027826280e-01 -6.296284046739094586e-01
6.843596852257358143e-02 -1.727551411262623071e-01 -1.060225926707659028e+00 -8.180130954617300665e-01 5.135611306012307642e-01 2.590550921883303936e-01
4.068642570694551430e-02 3.029015224561469252e-02 -9.120091169864993352e-01 -7.610105200608351106e-02 9.148561493091647012e-01 -3.965436368859986405e-01
-6.525217849286173112e-04 -7.256115553239709734e-03 -9.780457115575186267e-01 3.580282744015127194e-02 -3.778846412685412659e-01 9.251601782613845248e-01
-5.155448978587923864e-02 -1.415704608551006938e-01 -1.029259126400890123e+00 -1.470736785291480546e-02 -4.268053511921721110e-01 9.042239133779671478e-01
3.478013384760934856e-02 -7.419469541026704751e-02 -9.415438103014992510e-01 -2.390050068000199035e-01 4.533324223670101016e-01 -8.587003677391671363e-01
1.659236602569892638e-02 -1.332784240479619742e-01 -9.750011573203318793e-01 4.972001090645327137e-01 4.843441266337464302e-01 -7.198630554081869581e-01
-4.667414397675907073e-02 -1.913708294662267440e-01 -1.059720582262575483e+00 6.970026028714834121e-01 5.977595411574403439e-01 3.960693153295568036e-01
2.238249368985047866e-02 1.191201738419506717e-01 -8.972172101578067549e-01 -8.917984324304408794e-01 -2.586319759855595368e-01 3.712210351157563260e-01
-3.981978153917148378e-02 -4.777440869013257346e-02 -9.217631810251217805e-01 -4.442036277161739433e-01 6.964017654627031595e-01 -5.636556734250273148e-01
1.093706500704925005e-01 2.647644918243348411e-02 -9.449375418887397959e-01 -9.551998489148172400e-01 -1.381815824684511917e-01 -2.617233250966088387e-01
1.559135472737997090e-03 -1.181343371659662883e-01 -9.637510275410914318e-01 -5.351358260697501867e-01 3.840602135569096132e-01 -7.524143805239683624e-01
-2.548901258513225354e-02 2.146770571954280948e-01 -8.789584885768438882e-01 -5.241300124891360435e-01 -6.310250398998847876e-01 5.719223103075166126e-01
1.100691528482585918e-01 -7.715562972179319801e-02 -1.019202580630927946e+00 -9.456708716948113436e-01 -2.065930317747934064e-02 3.244684817053835046e-01
4.038104510237942174e-02 4.471611848130826322e-02 -9.578863379310896820e-01 2.364484910339680057e-01 -3.368542866436246563e-01 9.113842771617107763e-01
-8.766056856296276442e-03 -1.516764923045254010e-01 -9.807550990799654977e-01 -9.830914125696210704e-02 5.928982858508001774e-01 -7.992539867779838714e-01
1.081239725474076180e-01 -2.745124304522117420e-02 -9.579812004538824644e-01 -7.289463609277226919e-01 3.708689522102614489e-01 -5.754071803311922029e-01
2.605044955946136942e-02 -2.065862882037427517e-01 -1.092360835425395083e+00 -5.780410088283212122e-01 -2.862718049758828515e-02 8.155054117843089090e-01
2.131233873685376562e-02 6.284770585849719371e-02 -9.425359173919278799e-01 -7.079892369150155018e-02 -6.637627100236127564e-01 7.445848354527739854e-01
2.935260390403706190e-03 -1.827464846568149504e-01 -1.032242079077281716e+00 -7.066736848021651918e-01 4.400162566243677742e-01 -5.540739996736977480e-01
-2.997989823853826341e-02 -4.452370077698936807e-02 -9.809762824765088096e-01 2.543436749180910672e-01 -3.688068075493202702e-01 8.940306671107199898e-01
2.315604267500738500e-02 -5.785747340336485495e-02 -1.004645178778377446e+00 5.932777322952491328e-02 -5.991463383721136182e-01 7.984384012175984591e-01
-1.109442535791601292e-01 -6.421161291566358786e-02 -9.668868541325584820e-01 9.944154726928678967e-01 4.197675490917656890e-03 1.054525826591893312e-01
7.696229373821267261e-02 -4.807060710271900822e-02 -1.009462983632339883e+00 2.648286193268312716e-01 -3.716140286403154525e-01 8.898139221787659814e-01
9.100502559084423793e-02 5.509746375154030845e-02 -9.237465814078795745e-01 -7.747245445616782744e-01 -2.938695235095451497e-01 -5.598594316486713574e-01
-9.066420059883789628e-02 2.536159481005357264e-01 -8.577888861233293749e-01 4.704281629396124820e-01 -6.279867776094767429e-01 -6.199435060236755390e-01
-7.977678455975305283e-02 -2.924586435014331007e-02 -9.179648255805533674e-01 3.351116217516930118e-01 2.530423015213444371e-01 -9.075625568564026358e-01
6.313070705293344353e-02 4.873427729035736955e-02 -9.045142670290045039e-01 -3.011324027309462137e-01 1.541897651277123193e-01 -9.410338954338192119e-01
1.116384653748173361e-01 -7.120000272582530099e-02 -9.984341726438448195e-01 -5.403441182894334061e-01 8.182186368211785688e-01 -1.963326162116401652e-01
1.029405214996345075e-01 -2.478472923160799854e-02 -9.505437459451935300e-01 -6.495948320895780226e-01 3.921278486742784120e-01 -6.513542081053866895e-01
-5.364006975394920024e-02 2.332544264769532971e-01 -8.520708174261891754e-01 -4.136247442575771704e-01 -5.601458132773980969e-01 -7.177403700542810405e-01
-4.692035162814468807e-02 -2.087908271063387312e-03 -9.068151178277470414e-01 3.398084851104042625e-02 9.362917022331816719e-02 -9.950270752184398049e-01
3.589290862307933580e-03 -2.054466086539536718e-01 -1.052725879818682264e+00 -8.051321128628290413e-01 4.692826553843431059e-01 -3.626790181309873518e-01
9.676679440738943094e-02 -8.721464498986750136e-02 -9.901943852814986124e-01 -7.136306472753241037e-01 3.354390871118582140e-01 -6.149893642226387236e-01
-7.744514704491846889e-03 -2.496114546577456877e-02 -9.195183564991179503e-01 -5.164688579841503202e-01 3.961783939823771417e-01 -7.591459667772013642e-01
3.618736285202868268e-03 6.066342089710817509e-02 -9.468305086684214444e-01 -2.704753309939656944e-02 -4.644050012398458493e-01 8.852098201989491155e-01
2.959983611424812575e-02 -9.454480112909781353e-02 -1.025727051306929205e+00 3.235434961823189792e-01 -3.481647683364157975e-01 8.798300405006477254e-01
-5.987052382804190082e-02 -1.161496120764716755e-01 -1.020112162748413320e+00 -2.408556825502223761e-02 -4.109189854786330920e-01 9.113536485772379958e-01
1.070152068513384597e-01 -7.937294592112172087e-02 -1.024805519556397648e+00 -7.061559910420002195e-01 -2.031108724773063035e-01 6.782991152854306316e-01
-2.506016128602580814e-02 1.993246183159829710e-01 -8.487438620910451315e-01 -3.722353328081012824e-01 -2.084561597933555777e-01 -9.044262747473943431e-01
-2.416440894776667944e-02 -1.991266546239176261e-01 -1.026944930907273124e+00 5.151442987427887754e-01 2.830491810427620547e-01 -8.090176219241593802e-01
1.033195608675683830e-01 5.590631372087464775e-04 -9.827152290079128605e-01 -3.343378960892190443e-02 -2.475246978492100236e-01 9.683045521255405630e-01
9.382066618430583149e-02 -1.092745320188157759e-01 -1.003747169219224578e+00 -6.253758762469999732e-01 5.345329193946859458e-01 -5.684888490477989498e-01
-3.280914995535091916e-02 -6.143101116397669398e-02 -9.876488067020668948e-01 2.682037004989499818e-01 -4.121309095803905032e-01 8.707553550837972001e-01
3.588092840416154394e-03 -1.116436406568907004e-02 -9.794693070093646314e-01 -8.160870294656567131e-03 -3.335703006616116961e-01 9.426899037926286251e-01
-2.070504403390178647e-02 -7.279197470632871314e-02 -1.001295564796653492e+00 2.888721879984333385e-01 -4.628305216815655765e-01 8.380577350045567142e-01
-1.671170480306307347e-03 1.226487387538235801e-01 -9.073543660128895461e-01 3.673448121798531529e-01 -4.061456911040077222e-01 8.367218573469898946e-01
8.056142653882633620e-02 -4.899230773813598866e-02 -9.507632063636368702e-01 1.668277815778659023e-01 8.948081460458678915e-01 -4.141097355336681995e-01
-1.904285744454769363e-02 -7.083656432911705769e-02 -1.000869883222429868e+00 3.261751886025731628e-01 -4.199197300705758140e-01 8.469221727157285606e-01
-3.146767535359003276e-02 2.028105440339807719e-01 -8.472948221305980354e-01 -2.845967921715546467e-01 -1.880096160188777787e-01 -9.400303453453484614e-01
-5.764162304690551714e-02 5.080959396885806334e-02 -9.255864758703745698e-01 2.412832336327158655e-01 -5.827400010549148579e-01 7.760132037138660621e-01
-1.146588004712374362e-02 1.656399932947959786e-01 -8.949160809041000197e-01 3.736472156731427408e-01 -3.806599657614672533e-02 9.267894788593430411e-01
-8.681764707465151887e-02 -8.937107119258981547e-02 -9.605987482432960523e-01 3.755961380944922157e-01 4.484400851440119573e-01 -8.110666008932524429e-01
-1.275882579020951035e-02 1.478090067670190027e-03 -9.072699496493613625e-01 -2.652963040918800974e-01 3.108511191848689625e-01 -9.126825585803109986e-01
-5.382044414618288725e-02 6.659355849795742244e-02 -9.132149151392074948e-01 2.910800745662879829e-01 -7.178284539756484284e-01 6.324513426765845381e-01
1.128293000339172375e-01 1.446147549472242590e-02 -9.523758589554258691e-01 -9.696295346914602931e-01 -8.843681119822950631e-02 -2.280295943054568286e-01
-5.599871658951450018e-03 9.648803994377340085e-03 -9.066462607915165561e-01 -1.272581887273351552e-02 3.136492407430062634e-01 -9.494536362115605366e-01
1.642940638837982192e-02 -1.178493028357764094e-01 -9.658584735404578403e-01 5.673719370701012510e-01 3.964757947017847894e-01 -7.217312721788556873e-01
2.450434493767584751e-02 -1.811459601079142556e-01 -1.080644711280821957e+00 -1.522263211600842492e-01 -4.548085828078909931e-01 8.774829343926551228e-01
-7.547140420726299037e-02 2.562893614555356026e-01 -8.654416941171818589e-01 -4.249490095514490973e-01 -8.999801275903606124e-01 -9.723224374496934608e-02
-8.036029237581720011e-03 -1.491606401559101291e-01 -1.056945054002386142e+00 4.611986917333019687e-01 -5.556859288767862504e-01 6.917433882530672484e-01
7.765140729196969016e-02 3.759151553000151386e-02 -9.658529425972901539e-01 -1.230945927598698503e-01 -6.791232539206500940e-01 7.236292747101308320e-01
3.337496904112510071e-02 -1.711701533578313950e-01 -1.075539680012194133e+00 2.092163192175168843e-02 -3.731993279057577717e-01 9.275152543049743903e-01
3.951763702242680476e-02 -8.691144596871308928e-03 -9.838584806087711243e-01 -4.096415610668250468e-02 -5.985501136247534104e-01 8.000373112513330387e-01
-9.426353125459818044e-03 1.133654683863055956e-01 -8.699371265678284004e-01 7.463155653824540270e-01 3.353339227014564550e-01 -5.749471603143385678e-01
-2.536863679142841452e-04 1.859924474367420366e-01 -8.677857025975672656e-01 -8.454841639192826053e-01 -4.493723572265312938e-01 -2.884805246847399474e-01
-4.654182119896070613e-02 7.262092461781961827e-02 -9.091089260089192381e-01 3.502866413617543029e-01 -7.881407015289606521e-01 5.060963381382438397e-01
8.517305278809650382e-02 -6.527961931230689963e-02 -9.739470174337591102e-01 -7.870691802119985647e-01 -1.404988019501858532e-01 -6.006514731614126523e-01
-4.443057269904926443e-02 -1.944939413203348733e-01 -1.027533829245478980e+00 1.406091810317259827e-01 9.387978552377151953e-01 -3.144640602845630850e-01
-6.706800853764018078e-02 -6.006985497585489581e-02 -9.249140472003432034e-01 1.584169717340107864e-01 4.847748384316543646e-01 -8.601729006950807888e-01
-1.840487442953490753e-03 1.205651422353445773e-01 -8.621117802227551419e-01 2.048993256874070135e-01 3.106280969939050340e-01 -9.281844922701470990e-01
-1.089459804545825500e-01 -7.885285151950850724e-02 -9.699493468268481910e-01 9.372217210601523352e-01 2.818337790355736061e-01 -2.053902786588836515e-01
1.800028451040210087e-02 -2.204562633791722071e-01 -1.091272998322047494e+00 -6.499722223114736686e-01 6.719129631660977209e-01 3.550620792943658399e-01
-2.133608252374852646e-02 -1.137993189871985000e-01 -9.638203260741835532e-01 3.775283305377124393e-02 5.364739141905398023e-01 -8.430720390272086195e-01
-4.377350457423405394e-02 2.121268217265844802e-01 -8.465700989831719259e-01 -1.140233473333028269e-01 -1.441193050103390105e-01 -9.829691257543371474e-01
2.521731995830723758e-02 7.295116218913218209e-02 -8.872091953931500186e-01 -9.273615408809855465e-01 1.021118843422759159e-01 -3.599635197779267326e-01
9.168292080236208064e-02 6.218804628379256960e-02 -9.369124939489019699e-01 -7.523453369131445356e-01 -6.570601481566915592e-01 4.741788406660470134e-02
1.495905246869942695e-02 7.609187362885758144e-02 -9.336198861235310842e-01 -2.276187791077889655e-01 -6.174964696308711254e-01 7.529195185349427666e-01
3.546514449207919389e-02 -6.817304150144883057e-02 -1.014196187686383199e+00 -1.380326767804911925e-01 -7.767398368623903426e-01 6.145097281343883111e-01
4.819062533930948411e-02 -1.029572425911769867e-01 -1.036742488277858198e+00 4.064670282954165326e-01 -2.833954342103431334e-01 8.686032366837139751e-01
-8.689091328762470201e-02 -7.947269885874613804e-02 -9.924164948870725089e-01 -2.216356185479083363e-02 -2.775350459754944432e-01 9.604598246575901666e-01
-5.316797424328291444e-02 -1.782263316913785256e-01 -1.010193968637444373e+00 3.401675568231978253e-01 7.028136537913124426e-01 -6.247711591690526811e-01
3.903544099611416796e-02 8.441672611972315943e-02 -8.988415016181684480e-01 -3.864724557145157169e-01 -3.320133692291559746e-01 -8.604685721321236880e-01
-1.034436533079165638e-01 -1.084946017382284467e-01 -9.870934069811466705e-01 9.560570939209354080e-01 2.252083744302982860e-01 -1.877126027999143076e-01
-7.083636536894821756e-02 9.701402660359200944e-03 -8.976470066955987148e-01 1.974675087829234899e-01 2.195750061584630097e-01 -9.554022187778176134e-01
8.504743416097937381e-02 -3.560070589582312039e-02 -1.003146728601963966e+00 -1.456144594804077430e-01 -6.266556257147314346e-01 7.655711305622143747e-01
1.051110002957618833e-01 3.985847218625623162e-02 -9.415798676366889941e-01 -9.137324489809072192e-01 -3.221152005917239936e-01 -2.476586546581959480e-01
-3.380245635776656099e-02 1.885157972517435276e-01 -8.887260681450036559e-01 2.504463048827521021e-01 1.048299799168610352e-01 9.624382181112748347e-01
4.074809701018788227e-02 -1.197601227623702191e-01 -9.762421051665794991e-01 -6.380942009467815978e-01 3.058815159884489265e-01 -7.065920243639157716e-01
7.759403654128463335e-02 -5.934799941823763053e-02 -1.014845820845693414e+00 1.855765054721945639e-01 -4.322305940195150242e-01 8.824613726448684581e-01
-1.090041354773397045e-02 7.920314956153071129e-02 -9.246116518693084929e-01 5.461061043338775178e-01 -4.926921326896870901e-01 6.775120553871818441e-01
-2.757607708515102257e-02 -2.825708324565735785e-02 -9.756504135372469078e-01 1.651989504330504122e-01 -2.633217692312817548e-01 9.504582855784496909e-01
9.944611305175045379e-02 -9.690087246514966779e-02 -1.034021219761398713e+00 -3.102062069074326689e-01 -3.883129573037932269e-01 8.677471730787058579e-01
5.298493520155560244e-02 -3.376738559288862407e-02 -9.327096467850864991e-01 -1.118555113141028257e-03 5.975670888251243262e-01 -8.018181359806754172e-01
-5.796680350378678737e-02 2.122900619737080607e-01 -8.465411354491760854e-01 1.640673633261889863e-01 1.265801062197856874e-01 -9.782941157957456557e-01
8.006516788395453069e-03 -1.327223993447128603e-01 -1.047775998407160847e+00 -7.424186473383523333e-02 -6.027420678663315545e-01 7.944747605462751938e-01
-7.538675081407360257e-02 -4.427755233812765562e-02 -9.793000081523353106e-01 1.400571227670982521e-01 -5.120699962333316035e-01 8.474481230847100699e-01
6.078644690787884247e-02 5.322264685789793864e-02 -9.511640388374243971e-01 8.935044505533281528e-03 -7.026658129020598720e-01 7.114639276578761384e-01
5.385302328583654874e-02 -1.083275537486968060e-01 -9.865281840462257756e-01 -1.754999195281393976e-01 7.010743931120715366e-01 -6.911544498649756507e-01
-2.017207735474057378e-02 -9.607542256678280879e-02 -9.440134677868073920e-01 -6.034767317859327657e-02 4.329306826292747545e-01 -8.994049045786218777e-01
-9.762785573790801197e-02 2.481867351781693321e-01 -8.605271996716707950e-01 7.730382178793503423e-01 -4.372873224474523868e-01 -4.595559936772186660e-01
-7.946636679260735137e-02 2.199551109896077661e-01 -8.526876801178705501e-01 4.989850737513629175e-01 4.799867245321525200e-01 -7.215446212440658202e-01
1.021804129705479068e-03 6.550556530880259631e-02 -8.789028377874664733e-01 4.317613311300487200e-01 2.596580010964347207e-01 -8.638054615522017254e-01
6.284066591575934724e-02 -9.167622932520154422e-02 -1.035098935002864318e+00 -2.141572349051017177e-01 -7.022078187276642458e-01 6.789998954753507787e-01
-4.482693932746632803e-02 1.669633725481540695e-02 -8.965050149992983552e-01 -3.710728024324140284e-01 6.685551610036668535e-01 -6.444679759230210747e-01
-9.339693260977048606e-02 -2.959713150700723355e-02 -9.266589225181015577e-01 6.448395575662201340e-01 1.788221677674829702e-02 -7.641087431255783047e-01
-2.512475928491094464e-04 2.012189141614768167e-02 -8.973285411794834632e-01 5.493994249935784113e-01 3.961611358709443698e-01 -7.356742663993137699e-01
1.075815164803404084e-01 2.256289295771838482e-02 -9.392730001764200143e-01 -9.006727407422521203e-01 -3.230956389925047217e-02 -4.332951720992057054e-01
1.189579507857458154e-02 -1.061402106504968773e-01 -1.027558452415510359e+00 -5.689055325164209947e-02 -4.909224123258251749e-01 8.693438042724608295e-01
8.774650055583770166e-04 1.788438432850318338e-01 -8.881796702908555385e-01 -5.489505315702450927e-01 -5.266779283057967387e-01 6.490482830454600283e-01
8.285990757597443135e-02 -4.161453915589470587e-02 -9.451145979076481796e-01 -4.186573317255852800e-01 4.631891386642802977e-01 -7.811413831156658327e-01
-6.622164542405478693e-02 -1.115951685451162662e-01 -9.573552731533658822e-01 2.592030386187743618e-01 4.929516486353236471e-01 -8.305494909266458725e-01
9.332159088086716713e-05 -1.591367472732876376e-01 -1.011507369482246288e+00 -4.528505821888258454e-01 4.165179595757381725e-01 -7.883141122434035308e-01
-8.058840475855241769e-02 -1.546809252258503076e-01 -1.024445790386006250e+00 8.387126472582927539e-01 3.569358340850996014e-01 4.112881054382208634e-01
-4.926687389919208460e-02 2.306165749108635421e-01 -8.525323777898548006e-01 -4.136247442575771704e-01 -5.601458132773980969e-01 -7.177403700542810405e-01
7.639390379153619681e-02 -4.732737484438506032e-02 -9.507549511399556730e-01 4.877819946447725097e-01 8.723337162872074613e-01 -3.320561893591248565e-02
1.063479650109791369e-01 -1.035686436389698928e-01 -1.027618451135648092e+00 -9.560754332645275966e-01 1.557596984757272096e-01 2.483116635174363040e-01
-9.790225878095441814e-02 -1.938370026181569783e-02 -9.566362313409346729e-01 2.863907884643703827e-01 -2.366104926337967151e-01 9.284372843969312949e-01
-1.507699353576005645e-02 -1.050714840665463029e-01 -1.018710541531659297e+00 5.701510232191770999e-01 -3.846617783648046407e-01 7.259222596031557062e-01
-7.351634791870755026e-02 -1.406431172866960122e-01 -9.810412095610386851e-01 3.742405616634957854e-01 6.153278825868623292e-01 -6.937691250819396638e-01
-7.214518160433645855e-02 -1.337026457583390671e-01 -9.746719045305133333e-01 3.265381799205164248e-01 5.773553168559623083e-01 -7.483539638114757864e-01
-4.462929173232460522e-03 6.408977646069390077e-02 -9.419752666262678487e-01 5.225662331455652732e-01 -5.141278840598129118e-01 6.801448748672845879e-01
-1.343585385583973522e-02 -8.577148611900597963e-02 -1.010218765334106816e+00 5.638762908012756592e-01 -3.608313899750664744e-01 7.428621922542945066e-01
9.887107354304650042e-02 -8.211241845862576882e-02 -9.909605418165533530e-01 -8.106686754928550398e-01 7.313819045498548554e-02 -5.809191885896268781e-01
6.495470824486922201e-02 4.247368906090794038e-02 -9.623090293835049325e-01 -3.660927217744393281e-02 -7.263931320878697084e-01 6.863037074402359439e-01
-4.446514896465413730e-02 9.903658734968019683e-03 -9.532163426715114518e-01 1.290952404831247347e-01 -4.301627639571134476e-01 8.934732314901104866e-01
2.297172259181398668e-03 7.242799915231219743e-02 -8.760646615927448755e-01 3.434739854549559435e-01 2.861124454658269811e-01 -8.945195860713464064e-01
-1.239182954328414167e-03 -8.089852019781426651e-02 -1.014039984201388078e+00 4.358731558219937352e-02 -4.865165199308265631e-01 8.725834182212812706e-01
4.824306719172861274e-02 -5.754570128549877511e-02 -1.007997147855820508e+00 1.498044402052496615e-01 -5.276387159961938300e-01 8.361554969481928001e-01
-2.705264421041034609e-02 -2.140617023135984731e-01 -1.059898370227239983e+00 5.704223895161203428e-01 8.149122950926245279e-01 1.026462315216252058e-01
-4.487612696840802967e-02 -1.121742856365861851e-01 -1.015731204291763667e+00 -1.347808154820847315e-01 -3.626295299886376777e-01 9.221355408822522470e-01
1.117433824988759289e-01 1.022249610323799733e-02 -9.491056940928084273e-01 -9.318305360428628115e-01 3.914291346868658400e-02 -3.607765020386638488e-01
-2.327100269622292290e-03 -1.976066654952763901e-01 -1.092922370776208352e+00 3.954910491586531851e-01 -3.886255439860974992e-01 8.322001061024308921e-01
1.075767712146606138e-02 1.671950166000184257e-01 -8.872685735686677289e-01 -7.743082518705320938e-01 -4.940286732149831161e-01 3.954521477077146963e-01
1.923626959183984131e-02 -2.193054151638674232e-01 -1.062247982069716157e+00 -1.556048172197465884e-01 9.186513192315945986e-01 -3.631348159183587221e-01
-1.231971228800698287e-02 9.639787637573470069e-02 -9.113033006539889014e-01 6.563240938446398554e-01 -3.411439103844819964e-01 6.729483756177714326e-01
-3.058015012212256592e-02 2.455664007282747779e-02 -9.492078202472051807e-01 2.078840795051152546e-01 -3.878414061379980016e-01 8.979773121706424721e-01
3.835086789399853174e-02 -1.084049703950496490e-01 -9.719727829980885359e-01 -7.249632541182118306e-01 -4.589069304037528101e-03 -6.887722559897834218e-01
1.641513872811214969e-02 -2.228995563151519588e-01 -1.088155653704835579e+00 -5.659347473538440809e-01 8.043768248352127781e-01 1.808197594444870826e-01
-4.706393947965846480e-02 2.137055490069597330e-01 -8.464225844291805023e-01 -7.882269205242585508e-02 -1.491779723685632553e-01 -9.856636930401831975e-01
-6.980550465391709147e-02 5.044893611832652197e-02 -9.219171724770056642e-01 2.731751305934801421e-01 -6.033491452758283913e-01 7.492297090480078969e-01
1.201533800659987730e-02 1.056409233549672998e-02 -8.985341243795831323e-01 -2.953018394785441592e-01 3.960192706579586663e-01 -8.694628001634840953e-01
-5.159198218786409385e-02 2.174409279887035973e-01 -8.466225500109938462e-01 -7.620752432860364300e-02 -1.431542808860212235e-01 -9.867620103650684982e-01
9.236219006629935169e-02 -7.517855485346541800e-02 -9.818448811375576346e-01 -7.975471496387074311e-01 -2.060055828942575218e-02 -6.029047695128454398e-01
3.225490413537038942e-02 4.987709299732871054e-02 -9.535841172549138767e-01 1.164457887906502620e-01 -5.620822718221698544e-01 8.188430240138528937e-01
-4.165915826028192270e-02 -8.202139844792226409e-02 -9.379050249686937679e-01 1.426009914619301433e-01 3.570071449863334578e-01 -9.231526719144463877e-01
-1.749075203240399792e-02 -2.007908558321084558e-01 -1.026432764315079904e+00 9.136495367587596506e-02 6.092006578524133964e-01 -7.877353640100155374e-01
-2.561804291195243083e-02 -1.256479316328947826e-01 -1.024212162940866255e+00 2.680010810563448476e-01 -5.045553272194354122e-01 8.207309804845429602e-01
-5.825511364102114314e-02 -3.860813291311177009e-02 -9.154754219399257043e-01 1.053433904816983568e-01 2.597621837170055459e-01 -9.599095676116542464e-01
2.072370923438223225e-02 -1.008438426592408316e-01 -1.025654532784238127e+00 2.197555220072334725e-01 -4.011600634300356849e-01 8.892570573552609492e-01
-9.482280263793470276e-02 -8.770152471943802597e-02 -9.949227657001404879e-01 1.527758757786424476e-02 -2.448751291986444867e-01 9.694342506935412773e-01
-4.768006174829876598e-02 -1.282554900618020632e-01 -1.022959817723443798e+00 -4.331314606619349888e-02 -4.188098343614546915e-01 9.070404037417404419e-01
-5.427904694421904069e-02 -1.805860316262184184e-01 -1.056185769783904771e+00 8.724953942854073441e-01 1.396355373366900930e-02 4.884227739549812375e-01
-3.856306529896886409e-02 -1.470933463165699506e-01 -9.790801149705316009e-01 2.084195858128878032e-01 4.872073223842902645e-01 -8.480508836530474825e-01
-3.831601079520610686e-02 -2.007544822501670587e-02 -9.723108534404762970e-01 8.682845386077667205e-02 -2.779734512176142980e-01 9.566564587239848594e-01
-5.387590077277295414e-02 1.890188674284056791e-01 -8.628106018409754663e-01 7.064540546228875728e-01 6.981323801216203773e-01 -1.163350700889622669e-01
6.096669422696816831e-02 -1.244516657471637444e-03 -9.206999918424072504e-01 -2.193957409118134361e-01 2.084760076024618491e-01 -9.531019164412035671e-01
-4.832115918117969346e-03 1.163178274837537163e-01 -9.085348329437874515e-01 5.792906322286253129e-01 -3.588285971153153397e-01 7.318909763785956812e-01
1.774255835273350762e-02 -1.732869737612921235e-01 -1.077604706378500588e+00 -1.519970287843865620e-01 -5.171992945471562964e-01 8.422599319453837330e-01
6.572969265781811177e-02 -1.739419428562814229e-01 -1.044525384507169141e+00 -7.577982918156475067e-01 5.991913577854605100e-01 -2.582856280874005761e-01
7.025715913993713091e-02 -1.314968507795690744e-01 -1.053615312980667573e+00 2.058667381861498114e-01 -2.784121520342660583e-01 9.381394137910654685e-01
4.259704296710563332e-02 -1.012180985828443902e-01 -9.730420446663233802e-01 -2.617076192026456249e-01 8.265568365929374384e-01 -4.983100620424590343e-01
7.817580997915596352e-02 -9.338579289534585173e-03 -9.274405683325546157e-01 -3.346145396518663273e-01 2.615839176127390808e-01 -9.053214699210117011e-01
-8.655802609940652093e-02 -8.489691392194964603e-02 -9.942330540186981036e-01 5.924619488695043873e-02 -3.350915196942194085e-01 9.403209887163190839e-01
7.718411832766791658e-02 -1.969316993967911572e-02 -9.312594774372991990e-01 -3.093394088570954881e-01 3.941625786213430183e-01 -8.654160801270776027e-01
-1.470220848599846850e-02 1.490706617850505178e-01 -8.918583190790189130e-01 7.195466520796689469e-01 1.291265899514527915e-01 6.823334516557496565e-01
3.011250929146540647e-02 -6.038410696877399148e-02 -9.355199587627702762e-01 -1.673653732530005211e-01 2.317371844042154239e-01 -9.582727739011946966e-01
-5.187989595830077433e-02 -1.572610631559239955e-02 -9.092100398350519974e-01 4.676977583691354495e-02 2.040285345492218738e-01 -9.778470970237942428e-01
1.058458479408999758e-01 3.135984879419651677e-02 -9.627285204353593917e-01 -4.948114050664952357e-01 -5.280039844895136891e-01 6.901981351607074933e-01
-7.928830893914998179e-02 2.702990868392516049e-03 -9.537843106332754006e-01 2.052284863968002401e-02 -2.905783001246211028e-01 9.566311014076418484e-01
-8.684107022401409137e-02 -1.228264718214645002e-01 -1.012088402984224977e+00 3.938951110479538276e-01 -4.315734641402991789e-01 8.115361892993202542e-01
1.490859682813541753e-02 -2.107518477829317949e-01 -1.047095738364933970e+00 4.724061051780695797e-01 7.077410231048912870e-01 -5.252952655458915654e-01
-6.325214059934292088e-02 -5.291752248618206145e-02 -9.812046122421977934e-01 -9.311533511552255726e-02 -3.316946466433663976e-01 9.387801636988586385e-01
-4.878029456729264524e-02 2.324175435525942246e-01 -8.803067907977856210e-01 -5.303814748014549219e-01 -6.423579897511207948e-01 5.532374754030431330e-01
5.509461603707691002e-02 -1.467070714257098507e-01 -1.003625744745449522e+00 -5.102144005728661558e-01 5.474616725989582822e-01 -6.633000697144707525e-01
5.776547234010249304e-02 -1.293043186827630697e-01 -9.952800650797494209e-01 -6.636227940207454212e-01 2.351040165886737754e-01 -7.101625790197426680e-01
1.105538701105503729e-01 -1.487148410477704026e-02 -9.868710136661141830e-01 -2.438073194427294033e-01 -3.296734709063470214e-01 9.120709366966545106e-01
3.123748492971055099e-02 -9.405195151999988512e-02 -9.544387744176910937e-01 1.860764149826772407e-01 9.146559851721397516e-01 -3.588592991354370154e-01
7.528584110270242213e-02 7.422697515109272226e-02 -9.187740079006401217e-01 -6.293138593143197124e-01 -6.495364047215149705e-01 -4.266925420210259667e-01
8.595475258030933763e-02 -2.867127562643163180e-02 -9.399500350126762660e-01 -4.530444813222518352e-01 4.140244708674759022e-01 -7.895153168028838930e-01
8.951874248661007005e-03 -1.398214069226214329e-01 -1.052815355381139684e+00 -1.099881868012631513e-02 -5.928413170318218572e-01 8.052441858266451424e-01
4.487128176257505069e-02 -1.198984994588732228e-01 -9.802431963708005958e-01 -6.755571062500075330e-01 2.255043035605909518e-01 -7.019760717223691993e-01
2.362464682127994164e-03 4.223376827784221937e-02 -8.856928182215205725e-01 4.060383454942433912e-01 3.019495129777386433e-01 -8.625307841467479975e-01
4.213983576793909475e-02 -6.512398092391845361e-02 -9.404587071003110976e-01 -3.580279530905730589e-01 2.904016728538673098e-01 -8.874023062903599879e-01
-1.002535469013876718e-01 -6.225730582032368982e-02 -9.445373847423053082e-01 6.398904620043287528e-01 3.646631280855752166e-01 -6.764325536598089217e-01
-3.772542334402650271e-02 -1.954364957415150317e-01 -1.032576864757633439e+00 -2.000260372745179260e-01 9.410122946594842164e-01 -2.729202185840126638e-01
-9.158948149928689345e-03 -2.116244445059355939e-01 -1.094632545287810066e+00 6.669891584850885513e-01 -7.098972358598516774e-02 7.416777747839953250e-01
3.232262141632562084e-03 -2.257961846245832016e-01 -1.092024051676490970e+00 -3.736293675100777478e-01 9.182527026128934899e-01 -1.311985894670229524e-01
-5.016910949723211999e-02 2.210133499529323142e-01 -8.870730505338637606e-01 -1.837584140153514511e-01 -1.406088244275660315e-01 9.728627877412417968e-01
-6.516279090453143061e-03 1.966055391170946631e-01 -8.683574669172817728e-01 -8.152631939126715466e-01 -5.243364617435208874e-01 -2.457991040211401357e-01
7.169556295220788633e-02 -3.418705404569676726e-02 -9.360192665881075236e-01 -2.904281718476767193e-01 4.083713092029524483e-01 -8.653810437125847299e-01
7.781494850592411694e-02 -5.488483379277551283e-02 -1.012701680748824273e+00 2.437013319158676528e-01 -4.067514482346077376e-01 8.804333706655383951e-01
-9.277766539019909053e-02 2.423656532959401200e-01 -8.848079618316661010e-01 5.734393023416111124e-01 -1.063798079594436563e-01 8.123119493079479225e-01
-3.379599098055601630e-02 -1.130101198429573905e-01 -1.015768317963250844e+00 7.749784450460017737e-02 -4.227407885132014043e-01 9.029309551811687262e-01
6.862316085129088750e-02 3.978580498722127101e-02 -9.081036025941334744e-01 -2.990468992202213738e-01 2.352443386811768344e-01 -9.247870312592118003e-01
-1.056200341452070805e-02 6.010393462447872343e-02 -8.883671458420496769e-01 8.610060495985047413e-02 1.127237266991135134e-01 -9.898889065266927023e-01
-4.846026088821834416e-02 1.038228968934927672e-02 -9.524480513166794227e-01 1.069200440773773325e-01 -4.404420997839022522e-01 8.913915306488159329e-01
1.086731365266211530e-02 -1.089267075412806013e-01 -1.029247876247875837e+00 -1.389319884090891022e-01 -5.181149440921571925e-01 8.439518986915530707e-01
-6.040542125132537798e-02 -8.155291316498677889e-02 -9.954335923362871430e-01 6.528650916028819196e-02 -4.890620974356058581e-01 8.698022399221270184e-01
7.997241442230001301e-03 1.259115322894643896e-01 -8.607664578807816547e-01 -2.320071102952087627e-01 2.243616398002885037e-01 -9.464853698597734954e-01
6.697750821086814743e-02 4.057439064651144345e-02 -9.073810659080300267e-01 -2.915634961571830774e-01 2.061271443283578531e-01 -9.340783308050971678e-01
-9.293360242323962794e-02 -8.780968357121493595e-02 -9.556306285950139090e-01 1.170976018574855920e-01 7.939232185862568070e-01 -5.966356297011304877e-01
-4.042842281022529950e-04 -6.281445051111209099e-02 -9.335966518773908263e-01 -5.905767933526023805e-01 8.357952428098211484e-02 -8.026415851887579445e-01
6.673464996553390982e-02 -4.626988682764453936e-02 -1.005406148827075574e+00 2.558419184244640765e-01 -4.197131149198430333e-01 8.708534974042263510e-01
-4.695516173565828649e-02 -1.883588314990908563e-01 -1.062085453780156730e+00 6.415087036149492716e-01 4.061751621556500824e-01 6.507598027184059442e-01
3.119070514328948704e-02 -1.715059449922869961e-01 -1.075584502176257562e+00 5.271282643635039067e-02 -4.316092547531327761e-01 9.005191886575967253e-01
-5.963826922157370626e-03 -2.075236508022740289e-01 -1.034484882376460302e+00 -3.140531754295279310e-01 6.650808035509532257e-01 -6.775235256067854150e-01
1.405730811882268359e-02 -1.033122317879953678e-01 -1.026009542066280256e+00 1.594922148756590385e-02 -4.549889594132294213e-01 8.903542380120438304e-01
2.880964168939407349e-02 1.968762685534377471e-02 -9.097461287880227454e-01 -1.516949377838625046e-01 -2.210738029802181842e-02 -9.881800997728645841e-01
3.517298665040086841e-02 -1.288955073020320308e-01 -1.043665246642387245e+00 1.582061249717889306e-01 -5.088128580194425377e-01 8.462152784814850337e-01
-3.147771829358365914e-02 2.959029785413443830e-02 -8.924906491661421803e-01 -1.645514049852360716e-01 3.927683847519077842e-01 -9.047960162692815222e-01
-6.618176225827628045e-02 2.392871841781753772e-01 -8.870148296420797829e-01 -3.534336209999547340e-01 -3.414275127546398392e-01 8.709259033241809611e-01
-1.035915185982213271e-01 -4.621945225731163495e-03 -9.243421320010077880e-01 8.571116128670749346e-01 5.454428491682803727e-03 -5.151018659432625713e-01
8.173284104851769039e-02 -1.035149302337592947e-01 -9.886046064408527956e-01 -4.960749091990561688e-01 5.350648406111802036e-01 -6.838240276598069878e-01
-4.206866600027177328e-02 -1.447002022932154450e-02 -9.088048403857863500e-01 -1.201962137921801406e-02 2.256245603785407283e-01 -9.741401780318325043e-01
-4.897041027517393119e-02 -4.220103265740513671e-02 -9.769874683833558171e-01 2.884662299837461794e-02 -2.852388822213413055e-01 9.580222609160546909e-01
9.014914767719529182e-03 1.541279503680070551e-01 -8.972835285169523667e-01 -3.705877043630274037e-01 -2.795676108084630962e-01 8.857238307518823239e-01
-6.260737772411452406e-02 2.482389932354235051e-01 -8.664002794032693577e-01 -5.889310782516051779e-01 -8.077561280003041633e-01 -2.627209065449758602e-02
-8.161734814734236676e-02 -6.973264388974015175e-03 -9.068792126708807855e-01 -6.392886459909223086e-03 6.525769659765963127e-01 -7.576954760848786385e-01
-9.441199652215363780e-02 -2.902978748104074330e-02 -9.612603090961451269e-01 3.734663245116886521e-01 -3.674805618708374966e-01 8.517516898150677696e-01
-3.538151049686224375e-02 -1.557031717907308155e-01 -1.045869903883344998e+00 4.716584582468764664e-01 -7.601098809034286807e-01 4.469577918743058431e-01
-7.995680092311834020e-02 2.262565943683682024e-01 -8.850652803424082782e-01 3.265950970716001711e-01 3.860188372641648047e-01 8.627427773363358643e-01
-7.430974392641946646e-02 -1.170396380029628536e-01 -9.637731405568913390e-01 3.654758430530949953e-01 5.206829145664503278e-01 -7.715676967209138537e-01
7.324170882350738987e-02 1.880050244620123240e-02 -9.232944334159782773e-01 2.873358254810645662e-01 8.362378901212721427e-01 -4.670592195007378655e-01
-2.046679155371567208e-02 1.406725367117675762e-01 -8.660342016912554453e-01 7.886458718495804598e-01 4.903928841712119069e-01 -3.708807193274620273e-01
1.002795924025022684e-01 -4.725060943611304048e-02 -1.008583822694346654e+00 -1.823903424165957410e-01 -5.523660158924665886e-01 8.134036805180071550e-01
2.494466997674218284e-03 -2.069674784598363459e-01 -1.050293829129304246e+00 -9.743747897284690263e-01 1.607671632105524828e-01 -1.573139802269128973e-01
5.575200464284901097e-02 -1.566658909846519454e-01 -1.065999365824471301e+00 -1.816005096622156367e-01 -5.838881023422641814e-01 7.912622440339063257e-01
7.327634822209821985e-02 -1.333478671146717809e-01 -1.016046672528549077e+00 -7.978904630646982410e-01 2.474247029093043504e-01 -5.496833864513680501e-01
4.780832794764960231e-02 7.020367695088863824e-02 -9.357980827679781566e-01 5.549727149998331249e-02 -6.463884606546986822e-01 7.609875234118533838e-01
-4.918971135473097778e-02 6.504382049947073086e-02 -9.167540805801155379e-01 2.518986217883083523e-01 -6.445997789554388513e-01 7.218297647726575894e-01
-3.709352679663237284e-02 -4.013694090287825422e-02 -9.175686627334884715e-01 -2.618946562218297802e-01 4.389190333239756381e-01 -8.595122286671645906e-01
-6.273907148600538219e-02 -1.497819935619660037e-01 -9.906075925930293291e-01 -4.994037639210761603e-01 8.119342365203968681e-01 -3.022559778523865037e-01
-4.887587957442288307e-03 -1.167644133750604662e-01 -1.037047743687585788e+00 4.081977573206754251e-01 -5.336040050277534030e-01 7.407032852206829610e-01
-9.751768463365835526e-02 -6.312029427890014643e-02 -9.425114161402079471e-01 5.812363144254973912e-01 4.020855461263536101e-01 -7.074542814835006466e-01
2.005466975237114608e-03 1.613060507741818084e-01 -8.971895110248228056e-01 -2.495425170367833734e-01 -3.316761167829868628e-01 9.097909022114395450e-01
6.495596196753641860e-02 -1.713712943966493873e-01 -1.038410450419205766e+00 -6.728127211199065316e-01 6.151975052909952613e-01 -4.109197875291029090e-01
-1.080159420394860709e-01 -1.244602235929644779e-02 -9.325221094115830889e-01 9.119310074852358117e-01 -1.588130501277515080e-02 -4.100361224795372461e-01
6.481706238162809885e-02 8.117346808034389682e-02 -9.218539169984169002e-01 -3.042533586187027295e-01 -9.329979332914943857e-01 1.922101720592323537e-01
-6.801349693851010958e-02 -1.740023428645137982e-01 -1.023719869545185235e+00 7.922198122922394781e-01 6.082378619799496677e-01 -4.934037156030561533e-02
-2.186147175247895886e-03 -1.367213557022724513e-01 -1.051124539284868931e+00 1.653483962680266095e-01 -5.341727751235164634e-01 8.290472568969954326e-01
1.093559960434721118e-01 -8.424564557897736006e-02 -1.013477414639648355e+00 -9.753519743719166746e-01 1.085692059637255735e-01 -1.920969900992995083e-01
-8.986460183192965245e-02 2.410034878915282563e-01 -8.865596556532883143e-01 4.443892139628188853e-01 1.924994276844149976e-01 8.749069646852062343e-01
5.014455067839885746e-03 -9.517439621234638492e-02 -9.640767988849189285e-01 -6.105834619372475514e-01 2.347561207163119737e-02 -7.916038982007276292e-01
-9.302917167057932549e-03 1.182727860824360488e-01 -8.670762131341659407e-01 6.390516844768504567e-01 3.447799723353702772e-01 -6.875606993158651647e-01
6.456084006297221900e-02 6.503979727642611453e-02 -9.417283968061159749e-01 8.063402116628035077e-02 -6.217874104841332183e-01 7.790241143854225170e-01
-8.676490216840383740e-02 2.250080684381290663e-01 -8.807430822991406671e-01 4.989400405585541209e-01 5.619799323568195337e-01 6.597252394411274867e-01
9.794222688589017400e-02 4.799664554209786410e-02 -9.536156713041534783e-01 -4.180747903631143458e-01 -6.341418604505715262e-01 6.504441332559821598e-01
1.069151917254362351e-02 3.380561299321534208e-02 -9.581576981273235427e-01 -9.730262128382057008e-02 -4.113479301854283676e-01 9.062698716295611856e-01
4.857131487278044078e-03 -2.079480546502729954e-01 -1.059343980975510302e+00 -6.008979248109881377e-01 7.180679016103306278e-01 -3.511412431412527235e-01
3.282360984675258136e-02 -2.045797312926425915e-01 -1.044132421959536927e+00 -4.550042942095596787e-01 7.170880066319003099e-01 -5.279733733774349957e-01
7.616284469526502171e-04 -1.496262945193143346e-01 -9.915234083467479032e-01 -7.851434276663945555e-01 6.032819493788447174e-01 -1.400024554996308346e-01
-7.396060848240970653e-02 2.075454144126405998e-01 -8.629871405513412919e-01 6.200626720476380971e-01 7.436439022955891875e-01 -2.500320565682159768e-01
-9.692112423954160616e-02 1.647438987123453491e-02 -9.361474527557283043e-01 5.982908250653551363e-01 -5.242244878002491060e-01 6.060006394659853690e-01
8.028559189080126945e-02 -5.697182488673872142e-02 -9.683295129848517035e-01 -6.488141148547413861e-01 2.152135290548036761e-01 -7.298790182468842813e-01
2.061732681928415273e-02 1.296858665373611386e-01 -8.707238465409704586e-01 -9.095363722470124479e-01 -1.021805562658466698e-01 -4.028681192163836022e-01
-6.022678497721735413e-02 -1.357188508303329155e-01 -1.027116380928110306e+00 -5.220639125825566468e-02 -3.391813411345320217e-01 9.392712656831199158e-01
-4.754459837221180346e-03 -8.344058945722174214e-02 -1.015049172588818438e+00 3.172089823068205416e-01 -4.722607323692470938e-01 8.224039531799040015e-01
-4.753629897140059651e-02 -8.238774538598214736e-02 -9.390251723474127843e-01 2.000346308714814614e-01 3.331707371507808824e-01 -9.214029554752444229e-01
3.865988443815807085e-02 9.201013747656531377e-03 -9.133722211756409859e-01 -2.410907327159853841e-01 2.322215451117146112e-01 -9.423101467056358427e-01
7.877002486372004786e-02 -7.184576958980350148e-02 -1.021646405387936385e+00 6.729985967102429523e-02 -4.936416135158844254e-01 8.670574873061731580e-01
1.317809244389259692e-02 1.150125848336982191e-02 -9.690448916929172984e-01 -2.582111869954323638e-03 -4.786923978457906514e-01 8.779788841099417374e-01
1.164019677112827778e-02 1.058043419892472775e-01 -9.148578946812897517e-01 -3.718209663127274300e-01 -4.380335306500474091e-01 8.184594034138306107e-01
6.224129632637167425e-02 5.135963945263141706e-02 -9.037994847373737040e-01 -3.011324027309462137e-01 1.541897651277123193e-01 -9.410338954338192119e-01
3.712297532824176266e-02 -3.525388411575525877e-02 -9.410913159288868401e-01 -2.664823078238264809e-01 -2.281435485992291609e-02 -9.635697612675550028e-01
-4.426571192419958417e-02 -1.479131152719858622e-01 -1.033842135267959206e+00 1.768501805564748341e-01 -5.603872750069643915e-01 8.091292329704885544e-01
-4.650476482857236575e-03 3.981808755155210461e-02 -8.908561353841494279e-01 4.399487396760551894e-01 2.464759943465152647e-01 -8.635361548124936837e-01
-3.662221373570691274e-02 -1.596183626108956533e-01 -1.051552613676362880e+00 4.972832152939757333e-01 -7.664215658667776765e-01 4.065801116154132977e-01
2.428743170561685136e-02 -1.042321805788484212e-01 -9.610094837130784828e-01 -5.270309477037063983e-01 3.216705602972234901e-02 -8.492371050942804089e-01
-5.386109112304018204e-02 -1.642218774835593406e-02 -9.669575104154390921e-01 1.918418191382413596e-01 -5.322544324138790417e-01 8.245616627066223447e-01
2.224528600389354821e-02 -4.281897283724098863e-02 -9.953348737253442380e-01 1.032755390752351371e-01 -4.914763430715856085e-01 8.647457240308855653e-01
-8.547134774982638461e-02 3.258454181484952972e-02 -9.059369213085390893e-01 7.338744151178178132e-01 -2.207480133490469509e-01 -6.424162649232424416e-01
