-1.605316942244454023e-02 1.031510156049636612e-01 -8.545567273076865034e-01 6.066616111088972696e-01 4.129122426859246353e-01 -6.793122768262305211e-01
-4.876647036813308578e-02 -1.990086003936519521e-01 -1.043608116198700309e+00 7.975467658117165737e-01 -3.689430461864668526e-02 6.021278656813495722e-01
9.829815390405535758e-02 -5.294274427317212373e-02 -9.476787890606805931e-01 -3.020718243669977543e-01 3.770814245023218492e-01 -8.755353860461001503e-01
-8.774290970256974631e-02 4.413678227068350279e-02 -9.346188525454869334e-01 4.236443440430099905e-01 -6.575563235471347800e-01 6.230129622435988113e-01
-1.174148248128739358e-01 -9.659487163885907904e-03 -9.283901880295062359e-01 8.861072264333189619e-01 3.080980685214632434e-02 -4.624551211354288038e-01
-2.601737369169883352e-02 -1.898222904933152266e-01 -1.003500818535233652e+00 1.114249075364719815e-01 3.950902214970824500e-01 -9.118597517479731795e-01
-4.892409499439011322e-02 -2.115214473056887534e-01 -1.026384053751226766e+00 6.627134961076229791e-01 7.199233513087530678e-01 -2.062066689444967960e-01
-1.146727720672220396e-01 -7.292152287789513410e-02 -9.745092765074647723e-01 9.621851387688910018e-01 -1.436594241480879455e-02 2.720172392162388264e-01
4.040526255484260670e-02 -2.048931017886909123e-01 -1.038935030799797543e+00 -8.561659609507403790e-01 4.192969862819155846e-01 3.019435122737338939e-01
5.306225035331111478e-02 -1.879122577561637975e-01 -1.037500083994036704e+00 -6.190965715248817336e-01 5.283325479022652482e-01 5.810199256077521746e-01
3.938141038021639173e-02 -2.513414903486700311e-02 -9.885870997971786256e-01 -3.899713631842858796e-01 -7.886860471168042341e-01 4.752858665892136236e-01
8.200259125190934029e-02 -1.300120323699203440e-01 -1.023024709602539106e+00 -6.223494567637835040e-01 -2.617007528504710495e-02 7.823019115567843018e-01
6.715012105638304418e-02 -1.741848808133255877e-01 -1.025435871197902138e+00 -8.514737108817836964e-01 3.995908672845444598e-01 3.395874827787240813e-01
-3.392470288923556815e-03 -2.333012004529274042e-01 -1.018561596722673546e+00 -2.171211949001671526e-01 5.103001517390191033e-01 -8.321370931885309075e-01
6.158922825539606821e-02 -5.534821125198257676e-03 -9.152113306213528476e-01 1.050129304582723827e-01 5.434543395097675145e-01 -8.328443223703747567e-01
1.271266209585544121e-02 1.652124994448440909e-01 -8.522159927218930786e-01 -1.663511689431003138e-01 -7.290042515127429512e-01 6.639880193705377520e-01
3.164204682982127426e-02 7.608550280757707396e-02 -8.834488292168212187e-01 -3.933999639979893770e-01 -8.538779341156450819e-02 -9.153935727667551481e-01
-7.209938972507103083e-02 -8.871291663563289631e-02 -9.580911316768309094e-01 2.640046066884741728e-03 4.349663757215084248e-01 -9.004428255855341234e-01
-9.888027463287862862e-02 3.226921452537727386e-02 -9.002745212453167056e-01 6.009146449968558734e-01 2.188248859329274335e-02 -7.990136082203278534e-01
-5.158511197399855142e-02 8.281335107952857155e-02 -8.966934195123139606e-01 3.932155684434580634e-01 -9.119934726627398902e-01 1.168307431896441900e-01
-8.306679566387230318e-02 -7.251740300779459941e-03 -9.108278039623669553e-01 -5.220426250852529954e-02 6.491821908048827083e-01 -7.588393757032604325e-01
-1.143766992786333231e-01 -6.710229585942956154e-02 -9.739777693911977341e-01 9.382204121658683782e-01 -1.003449114177231427e-01 3.311696799948289915e-01
-6.601304471612465252e-02 -9.707517287130125461e-02 -1.013954098818560690e+00 -1.045100946280043963e-01 -5.082126542777425093e-02 9.932244656174983310e-01
3.432336783811910930e-02 -1.360035323760737103e-01 -9.927269054810845539e-01 5.679846779825959563e-02 4.629026510893377022e-01 -8.845875138561660744e-01
6.522244943257148563e-03 1.248658860979430796e-01 -8.343583962817774369e-01 -4.543520244726155233e-01 7.407249859178910434e-01 -4.948643582786864115e-01
-4.469459443312961966e-02 -2.170497426364742521e-01 -1.031324302789196290e+00 7.184451020122976095e-01 6.803306580797300329e-01 -1.448683232157420286e-01
7.867997706621675247e-02 -8.772709082948858261e-02 -1.013290015706463043e+00 -4.828231562436219315e-01 -3.247190223868848258e-01 8.132892205698123433e-01
-1.515317690259374017e-02 1.212079014046119896e-01 -8.385188106602742275e-01 5.764960951454812799e-01 6.080752067806373118e-01 -5.457992260719114475e-01
1.073272085994246700e-01 -5.190093772277162149e-02 -9.734356124386633891e-01 -8.320999607922585639e-01 -2.092359666974691890e-01 5.136438118868926761e-01
-7.142553300303637609e-02 5.117052534022693833e-02 -8.885822355861993094e-01 8.791465517356873705e-02 2.308645233411355246e-01 -9.690059779321192890e-01
6.987050532544893111e-02 -9.171928418175412379e-02 -9.665194087008969204e-01 4.704564649680778587e-02 4.926722088895819085e-01 -8.689423466108426863e-01
1.853719970635980124e-02 1.744270333063614731e-01 -8.402936944891944426e-01 -2.025468759949126257e-02 -7.979037110148738954e-01 6.024445331969906503e-01
7.002810637239931246e-02 -1.152425909681096677e-01 -1.026874730861235374e+00 -1.838623083317610929e-01 -1.487885869517205639e-01 9.716257550970057721e-01
-7.054969130265906219e-02 -9.588154587510012983e-02 -1.013215609257007488e+00 2.272424104957784796e-01 -2.709648570014026592e-01 9.353817045154763088e-01
-7.370390155883450346e-03 -6.101251138152907760e-02 -9.423533475866238129e-01 2.261152095446621879e-01 4.832702785991059846e-01 -8.457669595315936428e-01
1.074823163216529071e-01 -5.472276043520076655e-02 -9.743338256806459707e-01 -8.320999607922585639e-01 -2.092359666974691890e-01 5.136438118868926761e-01
7.323511274193963971e-02 -5.132922169443118222e-03 -9.128407315346457329e-01 1.486998709262880858e-01 6.237095069829283744e-01 -7.673817819609857205e-01
6.598520907242959310e-02 1.680312384009019222e-01 -7.732804475245468323e-01 -2.516021259817057265e-01 9.568476982319431556e-01 -1.453920650851285579e-01
3.745280726310208641e-02 -1.803159056499998858e-01 -1.044343848245749218e+00 -1.789396417134485606e-01 -8.691756419143291390e-02 9.800132354506702059e-01
-6.164002711505206511e-02 -1.421917966600108607e-01 -1.031757144857889497e+00 4.231243726402816319e-01 -2.104968043581655623e-01 8.812813742686090857e-01
1.237745178882395693e-02 -6.920199345016629644e-02 -1.011083429357540586e+00 4.721431501801629654e-02 -4.483801222937994213e-01 8.925951346434602973e-01
-1.051686416889188735e-01 2.481428234262703092e-02 -9.059878481436060005e-01 7.603343470409251736e-01 1.568773035358364543e-02 -6.493424180093296805e-01
7.265010889372285063e-02 -5.121448186998343866e-02 -9.924022527480054201e-01 -6.755534523515931422e-01 -6.463587665079639777e-01 3.547504446426349434e-01
8.965994602348964504e-02 4.069938156860747336e-02 -9.096895866375089845e-01 -8.517487159362000515e-01 -4.594749454037355130e-01 -2.518072664703475128e-01
-3.527046382433060567e-02 -1.929109483154709814e-01 -1.053030402136252430e+00 4.136707631270729046e-01 -1.065280189629126822e-01 9.041727052448014224e-01
6.153856396706159498e-02 -1.618029468138164895e-01 -1.037616641104402992e+00 -6.272517350249479096e-01 1.000108047394227540e-01 7.723685000332196626e-01
-4.320350820198588793e-02 4.109594949859089741e-02 -8.890896199329467731e-01 1.287549928350223416e-01 2.508830616018418724e-01 -9.594164065833665767e-01
5.459094519019776784e-05 9.331253276020531895e-02 -9.164949696211367458e-01 -4.435828524775330406e-01 -5.764775764430308813e-01 6.862272632636104985e-01
2.152003611468810557e-02 -1.608873018922134940e-02 -9.199788093132722500e-01 -1.932133419062563029e-01 3.605118420321379302e-01 -9.125238716132366701e-01
-2.492959918760709326e-02 5.639157981145332191e-03 -9.686231944946650518e-01 -1.833949963530877025e-01 -4.022182945889958838e-01 8.969875800759846696e-01
8.805802548960675255e-03 -3.707537984190718838e-02 -9.289885591428559408e-01 -4.089543445605981487e-01 5.000380750215481784e-01 -7.633598545861292051e-01
-9.158058806433601318e-02 -6.840774751161235456e-02 -9.465921366393368341e-01 3.062306957277914354e-01 2.908155526889046882e-01 -9.064486059939195206e-01
7.226396104694794709e-02 2.145009124450232042e-03 -9.691927770513643070e-01 -3.377913890660002028e-01 -6.276973220820666333e-01 7.013508746154556439e-01
3.664433804906348097e-02 1.973951837189736325e-01 -8.022510759785775880e-01 1.495614778313575643e-01 -9.497025616420528005e-01 2.751298034736029408e-01
5.175189011992936683e-02 -1.732614676383563979e-01 -1.043524163429619067e+00 -5.379967910832301747e-01 5.530349104339801758e-02 8.411307726284660280e-01
6.771625573776199163e-03 -1.111212150725679887e-01 -1.036862644341047357e+00 7.196733141337374740e-01 -1.032919497546555959e-01 6.865865524751009197e-01
9.750734190421836423e-02 -9.867521030834751350e-02 -1.002612104818290550e+00 -7.053076006393527164e-01 -2.228687935846327961e-01 6.729566771542503378e-01
3.373018646601860099e-02 -2.133113899423966509e-01 -1.039855562293991342e+00 -6.967256797794574297e-01 6.334337524412367859e-01 3.366526524536337384e-01
-5.307573689503710529e-02 6.480805326616537188e-02 -8.840385645344153165e-01 1.552383272617933740e-01 1.324611482705836951e-01 -9.789561307575528337e-01
5.236580704275400899e-02 -3.213237089009173680e-02 -9.296157431588255582e-01 -5.888655067160350476e-02 3.760610869801891964e-01 -9.247218138495917339e-01
3.218359493101902169e-02 -2.488648720752948199e-02 -9.249813374167823454e-01 -1.375179721762080642e-01 3.178964006371702844e-01 -9.380995074033859904e-01
3.185270398809930681e-02 -2.077582873291147492e-01 -1.048453056833971164e+00 -5.829438606439915072e-01 4.375630535473510885e-01 6.846276575685477095e-01
1.028140571556688948e-01 -4.772342062512816008e-02 -9.468235996663753040e-01 -3.152168168118439917e-01 4.426965973382923636e-01 -8.394391467546093999e-01
5.664557975772309406e-02 -1.179261486407640058e-01 -1.028013024433586775e+00 -7.154500400693712958e-01 -5.524740113691586352e-01 4.276724294672333837e-01
4.059730461515064642e-02 1.825396908819346686e-01 -8.224558445945462370e-01 -4.873498363086886109e-01 -4.491876094445719780e-01 7.488128127719004823e-01
1.421374073256185394e-02 2.465842492258706400e-02 -9.564403777678515128e-01 2.524485212390124023e-01 -5.735219924636376643e-01 7.793216718947160171e-01
8.792079207947565977e-02 1.856973168271610630e-01 -7.774203724855314190e-01 -7.860537169837318316e-01 3.268067124404351320e-01 5.247065148441878435e-01
2.106359382243203765e-02 -4.013338397600606927e-02 -9.352122944376063396e-01 -6.643590164921053809e-02 6.374380003973229014e-01 -7.676321167209714247e-01
7.219757026080314555e-02 -1.156664831326166265e-01 -9.792868479049077202e-01 -9.622275816088919631e-02 4.221396688227208593e-01 -9.014096076801902946e-01
-2.223869252121257745e-03 -4.983462177143671394e-03 -9.814142088736299563e-01 -7.206611015352548666e-01 -2.535493690115486753e-01 6.452598656416176359e-01
-1.658026154954906056e-03 -1.552006046627828206e-01 -1.032084581005486612e+00 2.234746878058931907e-01 -3.728023126538143606e-01 9.005984119406531541e-01
9.043414198383688263e-02 -5.692135360004463296e-02 -9.466268358691671825e-01 -3.231186986708390330e-01 3.333177386960995969e-01 -8.857164284576540814e-01
-6.110468420576082443e-02 -5.055073323462432044e-02 -9.360042393864550503e-01 -8.953319629114853129e-02 6.027258202599987680e-01 -7.929094477642466554e-01
-8.652209905808089241e-02 5.707145368010915765e-02 -9.175283315466132850e-01 5.770334004945231188e-01 -7.340834457667080315e-01 3.579859625250744748e-01
-6.434525517244736592e-02 -1.229191400231522818e-01 -1.023362897511803649e+00 6.324684114699861137e-01 -4.551868206354598434e-01 6.267285431607642066e-01
8.155605989205723383e-02 5.195423591381237438e-02 -9.161455379879750449e-01 -7.024746865335985690e-01 -6.878136464603483713e-01 1.828707262588558091e-01
-3.826302280813259214e-04 4.283032424016359335e-02 -9.528184294972104063e-01 -4.021579347931663051e-01 -4.816349626236612891e-01 7.786506008868161466e-01
1.413989738605393731e-02 1.174451216459696384e-01 -8.667487064559566967e-01 -9.915955367019089195e-01 1.249565022586079932e-01 3.352855702454028697e-02
-1.542685472075502710e-02 -9.135207111753103348e-02 -1.029492803553457847e+00 8.152269905324187327e-02 -4.342227345663514093e-01 8.971090604406994906e-01
5.982978091031797979e-02 5.694567093709048539e-02 -9.317137467628926473e-01 -2.665598586368764233e-01 -7.082884977933819881e-01 6.536614151509042570e-01
9.928670930301186637e-02 -4.146282820687743897e-02 -9.786065234467360430e-01 -6.627442691428718780e-01 -3.055523880619002153e-01 6.836722693425193453e-01
2.994869403854739931e-02 -8.634878505407905802e-02 -1.020496077913426891e+00 -5.766895706545417388e-01 -6.728832230835759542e-01 4.633112422453603552e-01
2.519268305075381478e-02 1.607408439164007552e-01 -8.473861142439439442e-01 -6.726405372963709661e-01 -3.121895726895356771e-01 6.708892444282992251e-01
1.677791322510259822e-02 1.373874935984032153e-01 -8.245556922278540757e-01 -4.972551486566907375e-01 7.984601320781741229e-01 -3.394093908779152180e-01
-7.245081578043872927e-02 -1.792895568762338521e-01 -1.024402212215859143e+00 7.986933501636676036e-01 2.500799641536459728e-01 5.473106466470830656e-01
8.256065643698877465e-02 -6.269423280165571655e-02 -9.942530033527348099e-01 -7.413993749860665616e-01 -5.839464928277930955e-01 3.306561057721301156e-01
1.126166500826009456e-02 -7.096806254750716303e-02 -1.013804096762040752e+00 -3.870677246477490230e-01 -7.945311548760861653e-01 4.678662420684859269e-01
-9.992054515379598933e-02 -5.562072419058057549e-02 -9.449045110734703989e-01 2.718229569643316745e-01 3.397937243008082864e-01 -9.003624297986635439e-01
-5.828363671243704663e-02 -1.926580981675931822e-02 -9.202463882963494157e-01 3.996913728979311492e-02 5.166447483558606057e-01 -8.552664333765350735e-01
5.174653240368820573e-02 -1.540625212548688561e-01 -1.000865773050995555e+00 8.992614758596451097e-02 4.813773232156524085e-01 -8.718882730453947350e-01
6.811363898952803655e-03 -1.797048653071000451e-02 -9.843806374325423381e-01 1.913480910044827454e-01 -7.633274716004678773e-01 6.170227541744125466e-01
-6.054717554639045540e-02 -4.852964203441469115e-02 -9.345869850058345918e-01 1.169639433517590844e-02 4.961246720272727284e-01 -8.681725082985449760e-01
2.589452716096372897e-02 -8.914725812827074825e-02 -1.026594719667629940e+00 -3.323608465635001230e-01 -5.508586250287037522e-01 7.655658318545045526e-01
9.752749359824314235e-02 -1.194609595383484546e-01 -9.877966778053152153e-01 -5.755816168110703401e-01 5.279404762929436057e-01 -6.244875145915519399e-01
-1.138285888172179544e-01 -6.119625098278061101e-03 -9.223471859008933738e-01 7.441171491779040581e-01 1.695013264821798316e-01 -6.461880288430995600e-01
6.718088667186454532e-02 1.819319103932457576e-02 -9.029310065933116025e-01 -1.811931239034928753e-01 1.458318401973461298e-01 -9.725749977429757331e-01
9.080952437182553127e-02 -1.405190812146070445e-01 -1.002376694663226431e+00 -8.108582588027256621e-01 5.513978354601025700e-01 -1.961359507620305254e-01
-9.681361753144597515e-02 -1.135009240825200910e-01 -1.005051680797623970e+00 6.122251528519229158e-01 -1.099480134837819145e-01 7.830017857874972398e-01
-1.053638283683384740e-02 8.704463821386122790e-02 -9.235026555389380665e-01 1.869099440675390245e-01 -6.353226830696205862e-01 7.492861677529405462e-01
2.570415012793416526e-02 -2.154931895198522185e-01 -1.047856897658262065e+00 -5.737813200768876465e-01 5.299018645187796306e-01 6.244829947327189545e-01
-4.880264090553193546e-02 1.500732894644783016e-02 -8.966566676570149053e-01 -9.136843535989895571e-02 5.870803322606882313e-01 -8.043559488762197507e-01
-1.171263735777202802e-01 -3.534203492731818538e-03 -9.349070209139423993e-01 9.484536623154754542e-01 -2.635538409839758844e-01 1.759972253842521372e-01
-4.097551745691019320e-02 -1.209269452616986429e-01 -1.034178445229894550e+00 3.155912887514840115e-01 -2.878730863110932625e-01 9.041743331028057051e-01
-1.051731886902346202e-01 -1.210875366632916394e-01 -9.969422508100327374e-01 8.510126338034745830e-01 5.737933357314430050e-02 5.220010624372093400e-01
-1.107705033948947967e-02 -3.285685533656176188e-02 -9.248781990481126369e-01 -1.709259665319531538e-02 6.271295604636113463e-01 -7.787273961614351592e-01
1.056517332225861625e-02 2.188223561503538014e-02 -9.564430433984834057e-01 3.266942647694622837e-01 -5.119185203256222394e-01 7.944874359701138422e-01
-1.892096166955150108e-02 1.335512877402250109e-01 -8.350418770708126770e-01 8.666018720438810607e-01 1.061907565249830265e-01 -4.875702191466296798e-01
-5.876218121570993269e-02 -2.921592742262038925e-03 -9.759230500021947030e-01 4.362594360198574633e-02 -5.307648245904753592e-01 8.463955801055902395e-01
-2.155075174627600620e-02 -1.108388899987841208e-01 -1.036563081794663388e+00 2.256266990777418269e-01 -3.387245872276314906e-01 9.134321248296191076e-01
-1.454209909484644424e-02 -9.465949557382832835e-02 -1.031083215487173188e+00 1.901512028313291983e-02 -4.165903103893359716e-01 9.088954497027338375e-01
4.312142128022641852e-02 -5.298062517916887065e-02 -1.008951351398207352e+00 -2.095718977431540175e-01 -4.765566705110947932e-01 8.537993672214293506e-01
1.012374216182510139e-01 -3.036624474249598714e-03 -9.197024844093745211e-01 -5.307701331116452259e-01 2.348048945317584568e-01 -8.143400563036159445e-01
-8.427439663344651888e-03 1.293180300419588813e-01 -8.862092956090708018e-01 3.330526094702486450e-02 -6.475919713344441275e-01 7.612590874705005284e-01
-6.842817413878099497e-02 -7.172125155168954103e-02 -1.005213571483848156e+00 3.033786937124469674e-01 -3.586254340571938815e-01 8.828075476844422509e-01
-6.149465167043290104e-02 3.501003437701707272e-02 -8.927950972396083706e-01 7.331906576683468180e-02 2.963655011899963276e-01 -9.522561652724969017e-01
2.886451310753227265e-02 1.618303251564278192e-02 -9.021110942892491824e-01 -1.709475996449788537e-02 6.392029811344104306e-01 -7.688480461642852593e-01
4.793893838237832383e-02 -1.204500655456335612e-01 -1.035295523473847235e+00 -3.159045730592806578e-01 -3.152512046162162518e-01 8.948860143662197286e-01
8.067622052195756732e-02 -1.236664991505509875e-01 -1.023129488351798733e+00 -5.314987617071021964e-01 -1.502583025816432161e-01 8.336255207280426349e-01
2.676689088117293822e-02 -4.872982240475379895e-02 -1.009481394285715039e+00 -8.287239852639020909e-02 -4.843564547449163982e-01 8.709368463381366166e-01
6.309786598583569384e-03 5.772633916757715505e-02 -8.784788111184553827e-01 -4.162601842628824156e-01 3.274834668339856592e-01 -8.482228704461022284e-01
7.499153456243415339e-02 -5.296839226898134023e-02 -9.911391032900471743e-01 -6.755534523515931422e-01 -6.463587665079639777e-01 3.547504446426349434e-01
7.829246159502700753e-02 -1.033856071244165370e-01 -9.733691216869663210e-01 -5.830544689345874831e-02 5.033754094976997662e-01 -8.620984120015401375e-01
-4.506985278735454667e-03 -2.232027843299769776e-01 -1.047059159280195662e+00 6.958514513590635664e-01 -3.611540280488655386e-01 6.207725232849503616e-01
-6.196668489808238034e-03 -6.319391191823662580e-03 -9.073677359836674894e-01 1.499665788813160927e-01 5.004083628577882248e-01 -8.527024660458194516e-01
4.085553954766896895e-02 -5.103724439805056717e-02 -1.008422812777594491e+00 -2.095718977431540175e-01 -4.765566705110947932e-01 8.537993672214293506e-01
-4.845645474630632527e-02 -1.023962563266492681e-01 -9.615031622870473527e-01 2.744148373588711221e-01 6.307874846179828410e-02 -9.595402902066163531e-01
8.431700718882607914e-02 -1.158786941491086742e-01 -1.018925073205443121e+00 -5.734590937612664696e-01 -1.933658625288525168e-01 7.960868740225403029e-01
5.352701188777373581e-02 1.743329037341985188e-01 -8.123648312622514522e-01 -7.518973406342065458e-01 1.477510080611122156e-01 6.425107226841690888e-01
-1.204224988428644408e-02 -1.340373797976397545e-02 -9.814306033697893783e-01 7.236034396033617089e-01 -4.260406495992443143e-01 5.430353829017389167e-01
9.815625928360834085e-02 -5.931585626438405645e-02 -9.503708490558948618e-01 -3.269877106028543645e-01 3.664258514343038398e-01 -8.710976595740281825e-01
-1.748828663198170527e-02 -3.585609366410588000e-02 -9.269509376585818305e-01 -8.557302311278400242e-02 6.585263788882018687e-01 -7.476765784908145918e-01
-5.338558743940952089e-02 -2.407947800658063672e-02 -9.770355170521256571e-01 5.005957284950413033e-01 -7.830849420974804742e-01 3.690283052459588098e-01
-1.303038086696895782e-02 7.033911636449370619e-02 -9.352561827720906606e-01 4.722512276166815348e-01 -4.918002075517142746e-01 7.315130442217883111e-01
-6.902141495094372969e-02 -1.605853690866317351e-01 -1.030060334296861058e+00 6.238272197536881558e-01 -2.556771715904867029e-02 7.811439635135499771e-01
-3.125889247345738781e-02 -4.709691291858018880e-02 -1.007902547307122365e+00 1.378344805781528126e-01 -4.353682598032590501e-01 8.896382041704552490e-01
8.120999797374835183e-02 -1.527241242152631642e-02 -9.788036683913893254e-01 -4.937285114261578678e-01 -5.135636949434420062e-01 7.017723906231632114e-01
-8.424344092906818626e-02 5.954136360673369099e-02 -8.950680866900526667e-01 7.028431192029360730e-01 -5.334526027668680115e-01 -4.705739797208740582e-01
3.395120529185306074e-02 1.695737334967301335e-01 -7.774985260334912329e-01 4.799320892799241456e-01 4.657822679614557759e-01 -7.434460764117931664e-01
-2.810652139610830130e-02 -1.557070993766700995e-01 -1.036178381274437177e+00 -2.362485836154017138e-01 2.337912942021976720e-02 9.714113562478406960e-01
2.508423574039860687e-02 1.545085772158371062e-01 -7.955678794704437173e-01 2.811809526374933407e-02 7.733017107853238370e-01 -6.334144273816554316e-01
8.954075036181917413e-02 -1.121557801041855595e-01 -1.014058600175030911e+00 -6.420564179452271647e-01 -1.916439117889250088e-01 7.423181038137103283e-01
-8.515311046479891177e-02 -5.786516632115935171e-02 -9.870886990212736078e-01 7.177801603663593877e-01 -6.082654901010048354e-01 3.388284742116987602e-01
-8.129222856978907119e-02 1.160806278956362861e-02 -9.012627645833330980e-01 2.487668050809250797e-01 2.027366031192577855e-01 -9.471076741561613721e-01
-1.219240263785885577e-02 -1.080897637757211871e-01 -1.035910719058941165e+00 -3.825419361934003226e-01 -2.605331772124981349e-01 8.864446573954662956e-01
-9.678497620123675815e-02 4.510901604044663393e-02 -9.228132004800296828e-01 7.061747372055164895e-01 -6.423070190351382047e-01 2.979243760267268337e-01
2.142353026768687926e-02 8.458557646404504804e-02 -8.789356067387813498e-01 -5.817541957743893599e-01 -2.076850500305796321e-01 -7.864025532083992465e-01
-1.038291734616814260e-01 -7.574429694183769379e-02 -9.540183238864270443e-01 3.995274120437589116e-01 3.464068908694593607e-01 -8.487520915931643373e-01
3.587626061944686889e-02 1.967746853519460881e-01 -7.839629304550775890e-01 5.620945465348795578e-01 -7.711220085787345857e-01 -2.990327216898620577e-01
-6.086464344240044566e-02 -1.158717788973096519e-01 -1.021288472656018964e+00 6.685533878780621775e-01 -4.947370429564810212e-01 5.552221410241512389e-01
-4.741849968328979564e-02 -1.889841089729002443e-01 -1.042043408305262098e+00 7.713638208978965682e-01 -3.417650944743471642e-01 5.368374763452512521e-01
-5.843575127432948380e-02 -4.695704946658792872e-02 -9.336598673936702397e-01 1.169639433517590844e-02 4.961246720272727284e-01 -8.681725082985449760e-01
4.987758494408563864e-02 -1.207828193750526691e-01 -9.783324506100250506e-01 3.208506832501777928e-01 5.625247099105726845e-01 -7.619847700564100768e-01
-1.050545168813483421e-01 -1.185927125970804991e-01 -9.804941561181985676e-01 6.189160370063577776e-01 4.964642008570607223e-01 -6.086593763376235700e-01
-1.052192405255113483e-01 -2.767978553336086084e-02 -9.303594997573404468e-01 1.733649018766987016e-01 6.425398729210176629e-01 -7.463826917231705105e-01
-7.078637786625492645e-02 -2.314683822670841537e-02 -9.230824734102323070e-01 1.279844877576344180e-02 5.404068628688577514e-01 -8.413064972251038665e-01
-3.790792866365155778e-02 5.158410559649965338e-02 -8.851591747968120538e-01 1.556775454724066976e-01 3.035746151274722471e-01 -9.400036994001107482e-01
7.164596965942243711e-02 -1.687686643666561070e-01 -1.014300581644800081e+00 -8.012269944518363163e-01 5.832190134078236721e-01 -1.337568157563637505e-01
-7.802872357996638863e-02 5.105466004400471131e-02 -9.327616245559072761e-01 2.892984866686959533e-01 -6.743100980618588203e-01 6.794205452170318793e-01
3.295397545382235810e-02 1.957838862191945417e-01 -7.868926730692892280e-01 5.628995104979002129e-01 -7.696126566603525010e-01 -3.013975776104029225e-01
8.362785011618538433e-02 -3.447231937446780525e-02 -9.340254239392501434e-01 -1.987404118685734411e-01 4.932999899442120362e-01 -8.468514442399860398e-01
-2.193279179492524378e-03 6.782513614967496107e-02 -9.380921167417380913e-01 -2.271423619214295031e-01 -5.537780849264477556e-01 8.010843776256972859e-01
4.450321267455707719e-02 7.677749720049896649e-04 -9.128576948899990162e-01 3.552840325717813996e-02 5.394309534734377243e-01 -8.412799646947104470e-01
-5.690217837428119402e-02 -1.303136369645460924e-01 -1.030653258893926338e+00 3.904902025700242585e-01 -2.847962965378168509e-01 8.754475833396111462e-01
-8.965842646105638409e-05 -1.812951831003067338e-01 -9.969175749510307272e-01 -1.907885268406294965e-01 2.689929892817810586e-01 -9.440564123733464763e-01
3.730855807028287535e-02 -2.070223199210087517e-02 -9.798636219866421193e-01 -2.880686343872060351e-01 -8.654773739502712449e-01 4.098357928029623953e-01
4.249573994587633324e-02 -1.294273811373625460e-01 -1.039887661024606391e+00 -2.907738404036023239e-01 -2.615969624718593178e-01 9.203355925761195211e-01
-2.460969195522052025e-02 1.165388386085908917e-01 -8.807450036190106468e-01 9.598650402796066183e-01 -2.195795130766217129e-01 1.744819242387672942e-01
8.734859250292338617e-02 1.984268208442129255e-01 -7.535633027499674119e-01 -6.810587353909951513e-01 -3.464184300978725428e-01 -6.450994266282864542e-01
-3.418254166306805911e-03 3.406159363807041707e-02 -9.595707416581383820e-01 -1.494519316106945328e-01 -5.281873789831672550e-01 8.358721270749039922e-01
-5.418578455608969585e-02 -7.515248033826499308e-02 -1.011539303495824882e+00 2.912858196118566778e-01 -2.771547764544983750e-01 9.156078861507834787e-01
-6.517775669443634512e-02 -1.576415366754948741e-02 -9.180757500151139894e-01 8.376977089726275749e-03 5.710200505546410010e-01 -8.208933719548560104e-01
6.652806662686119865e-02 -4.529369460282601373e-02 -9.366008691147916787e-01 -7.466473888510727352e-02 4.055027065458065572e-01 -9.110393689359664871e-01
-7.698890059416559073e-02 -8.289627843971639209e-02 -1.006503117141540837e+00 3.441436179874476364e-01 -3.356701848408747968e-01 8.768641269931177762e-01
-6.185987594587051552e-02 -5.769715689773006334e-02 -9.414657241466453108e-01 -1.211987314458134873e-01 5.934860294608873543e-01 -7.956665132646192351e-01
8.621448114015213549e-02 1.831909231645705849e-01 -7.528149599086763066e-01 -6.508049099433405038e-01 4.376359617124008228e-01 -6.204254461332984194e-01
-4.854632692530533138e-03 7.114474438746815066e-02 -9.364056169698333765e-01 -1.122186631698899040e-01 -5.877340101507758652e-01 8.012338640799266942e-01
-2.559589535603558688e-02 -1.778826183547171924e-01 -1.052754145889619242e+00 2.741483978035479940e-01 -3.192113230527084955e-01 9.071641456851604612e-01
1.605670905436699242e-02 4.543456382516607855e-02 -8.861047970651834138e-01 -2.833430883050230276e-01 2.719866131954540855e-01 -9.196412216469195267e-01
1.350459495686231158e-02 -2.006334455554099894e-01 -1.008072670010841110e+00 -3.297951986679796277e-01 4.060781288689932489e-01 -8.522532957928676822e-01
-4.722483539896013549e-02 7.105599981926140341e-02 -8.823114911762589552e-01 2.428890643513104686e-01 5.375582002231180795e-02 -9.685634797122354422e-01
-7.198380832477011687e-03 -2.337064806435723285e-01 -1.018352220707962719e+00 -9.605969864922491927e-03 5.269649386011978631e-01 -8.498327357945151261e-01
3.524764699169687099e-02 -1.384214030375627569e-01 -1.044206041454552203e+00 -1.772460293728684855e-01 -2.145866263357646686e-01 9.604875974573472419e-01
-7.948553597775684376e-02 -6.267396840040898769e-04 -9.056245284467752121e-01 1.791972694148298573e-02 5.591609083355862930e-01 -8.288654667529977704e-01
-8.064208278080170489e-02 -1.455873203848065678e-01 -1.015028396099241892e+00 6.698451413038696289e-01 -1.471666631152884763e-01 7.277701972045227397e-01
-3.286177174265465101e-02 -2.822989013971754016e-02 -9.967823230781494015e-01 1.914899247673285398e-01 -5.991310467697454900e-01 7.774146882515097223e-01
-1.765485390392358342e-02 -1.160110403530624223e-01 -9.740505130125667321e-01 3.226161177891174320e-02 5.224565898815001219e-01 -8.520553386340706803e-01
3.965568990830708324e-02 5.575888234681894776e-03 -9.098941437765273310e-01 2.134960102316637784e-02 5.428090489327274115e-01 -8.395847371962521510e-01
8.343564106573479744e-02 -7.132744469647348678e-03 -9.707530555166533626e-01 -4.611661010150194806e-01 -5.676246954910907361e-01 6.820029562569734916e-01
-1.905243591526051619e-02 -4.651117599005288178e-02 -1.007838537115352207e+00 -1.920351919879010327e-01 -3.816817051870566302e-01 9.041247485627583735e-01
-5.536778546319609355e-03 9.658422018110890406e-02 -9.156540879855538106e-01 -7.578978778879005840e-02 -6.502292114926184752e-01 7.559483319570312609e-01
-4.167935330639265662e-02 -1.152556542802668227e-01 -9.691653500132381138e-01 -2.933522804885614343e-01 5.917998567061536486e-01 -7.508111407902366974e-01
3.698111415870658503e-02 -1.891880532000018988e-01 -1.047380305410837487e+00 -8.077555218878066379e-01 -2.373830503145125670e-01 5.396112529248575651e-01
-1.018008881517547537e-01 -1.168084532326012642e-01 -9.769403721640140814e-01 3.711667603824483908e-01 4.936196780435190834e-01 -7.864952952404805631e-01
-7.992543174849721377e-02 -8.321290056442204319e-02 -1.005404319554654480e+00 3.752587145065638952e-01 -3.439221909852894221e-01 8.607545664907967353e-01
3.726091527003889264e-02 -1.348096468469572526e-02 -9.756549838759072113e-01 4.637620666295083627e-01 3.131298256595816398e-01 8.287788956277346575e-01
-1.949107834456968377e-02 8.793169857907182085e-02 -9.163509426612536091e-01 7.209267436087176684e-01 -4.481159515205026533e-01 5.286366657190976204e-01
-4.435376771341140861e-02 5.410615109056485933e-02 -8.854095088929962998e-01 1.110436242340149399e-01 2.574413792306581850e-01 -9.598923115520778815e-01
-3.174165732051835442e-02 -1.939567310102086883e-01 -1.006002516510007716e+00 4.715928604394677148e-02 4.924693056151617787e-01 -8.690511980123758473e-01
5.674470777515065734e-02 1.642248253646313993e-01 -7.825630033358020876e-01 -2.921112597494358032e-01 9.510547899324138799e-01 -1.008255844228538589e-01
6.489499300395366876e-02 6.739314503453631977e-02 -9.104269137749761986e-01 -5.410858812710592769e-01 -8.197239480019113955e-01 1.878262978426637753e-01
-1.257936246082975475e-02 -4.019984716972600097e-02 -9.305584386179371892e-01 6.219166546309673471e-02 5.881911446448142566e-01 -8.063270887849109947e-01
5.813467940177752605e-03 1.697391734415405751e-01 -8.444777284314697319e-01 3.101404187556503489e-01 -8.214903375451836354e-01 4.785044889799572321e-01
-4.108477528036755949e-02 8.464332794310107377e-02 -9.023615479365586500e-01 2.034706591541075860e-01 -8.894522685020143093e-01 4.092363044990187659e-01
-6.763354542708528705e-02 -1.398606028806849595e-02 -9.168633987465520940e-01 5.440943195820910870e-03 5.728744581991014329e-01 -8.196250675035664512e-01
-2.561434251901376514e-03 -9.847850450767549335e-02 -1.025401733637598456e+00 9.691127423928774798e-02 -3.285637714394501474e-01 9.394967019754791870e-01
-9.573184112306072635e-02 -6.540146640459487681e-02 -9.470819495318970604e-01 3.165668382132624803e-01 2.896200888639418602e-01 -9.032749531953713218e-01
3.178676250466899028e-02 -1.800310747161803504e-01 -1.047712638737752444e+00 -7.096245986284408502e-01 -5.408132663290148301e-01 4.516125994521920650e-01
8.975454022962535416e-02 1.943244182301420986e-01 -7.547598805139903444e-01 -8.262070577021535245e-01 -1.544474383667752138e-01 -5.417821394113058187e-01
-1.406813965156900048e-02 -2.517370712186057374e-02 -9.193666298895499800e-01 -5.162778938856939920e-03 5.319856978756458687e-01 -8.467375998320793018e-01
1.279643205735909832e-02 9.566767467303068095e-02 -8.690853069908422990e-01 -9.421973242546571869e-01 6.022170403938155447e-02 -3.296021063797341943e-01
-2.374170361751909084e-02 5.303515022078799518e-02 -9.349030312690461697e-01 4.611244088730340196e-01 -2.772550531045013256e-01 8.429080110365039236e-01
-1.195956188446895552e-01 -3.321323038167972586e-02 -9.509361434076650799e-01 9.641874581654339416e-01 -1.019057146764378169e-01 2.448627591790230595e-01
-9.305827457788053148e-02 -9.990558717438595415e-02 -1.004362608309229632e+00 5.117350328830170270e-01 -2.504723567904267312e-01 8.218216683709834713e-01
4.072073304272161298e-02 1.937718568110406991e-01 -7.726771399689165154e-01 6.494547405628487979e-01 -5.045286344458326244e-01 -5.689107109069632129e-01
-5.377839614831857185e-02 -1.222524154139545682e-01 -9.698181289768368352e-01 -3.200423945880468413e-01 6.139859227777735295e-01 -7.215221079752685007e-01
-6.957267302103518902e-02 -1.645595854718111539e-01 -9.991984516900499491e-01 5.703718047765755916e-02 5.542122788904754183e-01 -8.304188762125924717e-01
4.300563680124173255e-02 5.261970331190978650e-02 -9.376179681856999792e-01 7.849717358805749501e-02 -4.579720291173753344e-01 8.854941074252276056e-01
4.794312332467949578e-02 -6.594085061210194776e-02 -1.014490837435355397e+00 -2.550772225449927655e-01 -4.294808263800394266e-01 8.663035439790434111e-01
-1.429902405147421771e-02 -1.535256853307804259e-01 -1.042889842414289614e+00 -1.755359928475637710e-01 -6.222895082558231872e-01 7.628518094163152519e-01
1.341832416316363595e-02 1.266093086254559408e-01 -8.731110888180348972e-01 -9.276638209702231519e-01 -1.020861936741542519e-01 3.591910972227022047e-01
-1.049314159980695854e-02 1.441095364346836050e-01 -8.212132170288742872e-01 7.193528860397651048e-01 1.720697674523797294e-01 -6.729958547235969091e-01
-2.771836093844830262e-02 9.556862251852309142e-02 -8.809381521750553334e-01 9.442649053225127265e-01 -3.291852938224689717e-01 -9.115411570761055736e-04
1.808456924959808351e-02 -1.055374408325780444e-01 -9.732269430438029723e-01 -2.215068436419345976e-01 5.135593149088630849e-01 -8.289701733416749985e-01
-9.296986400850534848e-02 -4.928977630897654616e-02 -9.834179193718222134e-01 -3.839512211782326601e-01 3.140436140852398417e-01 8.683075884777380349e-01
3.406978789875481084e-02 -1.401561460837391915e-01 -9.948429922192326691e-01 2.702747704255848912e-02 4.466784022121855768e-01 -8.942862631629109327e-01
-9.937274988212663890e-03 -1.059726073332422774e-01 -9.675263181929051326e-01 1.037664268498278697e-01 4.909421756014705207e-01 -8.649903518967795302e-01
8.250220557047367731e-02 1.757992151078275889e-01 -7.597543035041735004e-01 -4.700676630981517889e-01 8.586288951826004379e-01 -2.044329045602731043e-01
4.028173548806901483e-02 1.567823293474140678e-01 -8.147430855936579341e-01 -7.335175322413431953e-01 6.501660659993067082e-01 1.980810857137924874e-01
9.515897205281956261e-02 -2.123340159010095665e-02 -9.719257369702061222e-01 -6.269345611497211257e-01 -4.302297867964554046e-01 6.495039542520764098e-01
-3.433529567832044327e-02 -1.399032930049351198e-01 -1.041339106122620706e+00 2.335566165784628834e-01 -1.838608162266854029e-01 9.548018156187586536e-01
6.288558273831576419e-04 3.163363182507009097e-02 -9.588748702788240097e-01 -6.058625669828674454e-01 -3.989760097508428527e-01 6.882940458642846648e-01
2.051302924273381775e-02 -1.296446577516383314e-01 -1.043964146919738045e+00 3.209150906674457238e-02 -1.233786806413171289e-01 9.918406304487767944e-01
-1.019512899200677586e-01 -1.161470620093196446e-02 -9.163192245894035137e-01 3.452346280126269429e-01 4.599136740344960117e-01 -8.181029666594996641e-01
4.653186054786543485e-02 1.973946732783821711e-01 -8.033744402942731844e-01 -8.272977980280452059e-02 -8.842633404367240546e-01 4.596021413064410588e-01
6.451870095642672776e-02 -1.798833530719352869e-01 -1.023454963052177646e+00 -8.383460153892233757e-01 5.353369295991231569e-01 1.029093304243862694e-01
-6.839370959998861133e-02 6.590836190189718058e-02 -8.873872915341221024e-01 3.404625066943581801e-01 -2.450724919910960142e-01 -9.077580928885560230e-01
1.763995254653928993e-02 -8.946189832754097848e-02 -9.623598331522565941e-01 -6.929740779082058100e-02 5.557144827444356894e-01 -8.284801041313890613e-01
3.971943383425326907e-02 -1.979576395650821385e-01 -1.044980292694923651e+00 -8.639504475666953676e-01 7.034658517422230639e-02 4.986391301368482964e-01
-8.083064820515352411e-02 1.854865251786162392e-02 -9.544411317045766729e-01 5.270130467706026778e-01 -8.076788152693910039e-01 2.644091146284479610e-01
-2.038309310106129618e-02 -1.773055216163266501e-01 -1.053524529808129495e+00 6.722816170629376809e-02 -3.160790454758728441e-01 9.463479335237403589e-01
-7.318320112421354898e-03 4.087249395724482093e-02 -8.795878384839015407e-01 1.403021350591403538e-01 3.576440355223782230e-01 -9.232583900258447551e-01
-8.165496928259560749e-03 1.025321755300876436e-01 -9.105718574634040774e-01 2.756455572163964488e-02 -6.588802814354767223e-01 7.517426221808737319e-01
-6.230443102236774000e-02 -8.959292149782566161e-02 -9.584406608332832755e-01 2.948273798461978454e-04 4.096928318282252457e-01 -9.122234905029498186e-01
5.296019245770977601e-02 1.655933095093078122e-01 -7.755040866107878461e-01 -7.160064411883138545e-03 9.347361132932413552e-01 -3.552705053660693557e-01
-3.141102052637137487e-02 4.406148684751239747e-02 -9.363890567632292550e-01 3.077790605203517549e-01 -7.775409455106554457e-01 5.483631351208847482e-01
5.545627768567532034e-02 -1.685257123483292208e-01 -1.041466166172397179e+00 -5.379967910832301747e-01 5.530349104339801758e-02 8.411307726284660280e-01
3.915485065541958812e-03 -1.624902917257392276e-01 -1.042857021296810016e+00 8.379174094107734172e-01 -2.323407102891302256e-01 4.938746899251679756e-01
-2.546816997661240436e-02 -1.997085389163524016e-01 -1.056279220720706791e+00 2.660280501077258442e-01 2.662259551678741037e-02 9.635975892268676679e-01
4.361211633052210213e-02 1.590721002599431999e-01 -8.103079841095106595e-01 -7.103492746418857973e-01 6.725671615453702179e-01 2.075025812527412084e-01
-8.798859938810514592e-02 -1.217957005221759065e-01 -9.755278766782118360e-01 1.996788359623595799e-01 4.241787077738600198e-01 -8.832897521991385226e-01
-2.187781070586476955e-03 -2.469929941260176898e-01 -1.042077304978392016e+00 -3.357494036492841283e-01 5.783953185822007237e-01 7.434589386047790738e-01
9.323511998036998483e-02 -1.362993210905338592e-01 -1.001444071281796022e+00 -8.683318767609657929e-01 4.828844085051356427e-01 -1.132360358870990041e-01
-7.806806747565786520e-02 -1.345485620994145426e-01 -1.014743637189829517e+00 2.161001956997157802e-01 -8.258307833057468295e-02 9.728724174278922110e-01
-7.146008134320452898e-02 -1.191529698737191917e-01 -9.709520561038516018e-01 2.444030376550489492e-01 2.901194548686197305e-01 -9.252555631238971179e-01
-3.466202181035094726e-02 -1.086959140277218849e-01 -1.032150624048155940e+00 3.273978147390835813e-01 -3.401070453876388067e-01 8.815542346230111903e-01
1.253215464350080841e-02 1.841048565403843318e-01 -8.060584979818855578e-01 7.266599801580605478e-01 -6.789223271710841390e-01 -1.050226018782929038e-01
8.825314843442254309e-02 1.581649922496401175e-03 -9.114066961448097359e-01 -3.957506897350394071e-01 1.807410216854304086e-01 -9.003966207479607853e-01
-1.115786472200867990e-01 -1.029916117229575379e-01 -9.773017309339663283e-01 9.834684060510359149e-01 1.810786936282233195e-01 -6.332561335184485858e-04
-8.864214318950605631e-02 -4.098265619550745670e-02 -9.353994934823344209e-01 2.006991480807365225e-01 4.432053219404389344e-01 -8.736640627628782241e-01
1.030168517878255266e-02 -2.270369667781776679e-01 -1.020749619865237490e+00 -3.883803241248335869e-01 4.249199194755916564e-01 -8.176819588724859589e-01
-7.830089620743451578e-03 1.212402004330242478e-01 -8.342564385992335962e-01 1.540184273837464368e-01 7.365725242107988846e-01 -6.585888251435563223e-01
1.024925880877568668e-01 -7.429414634427955466e-02 -9.858811463454371093e-01 -6.525769592192364188e-01 6.807427457504054702e-02 7.546583368897856747e-01
-5.105076477598093770e-02 7.980800501101137367e-02 -9.072867163854061445e-01 2.398868746995744261e-01 -8.870671772986217229e-01 3.944186992351229604e-01
-7.016056644153141619e-02 2.359218497858490624e-02 -8.966394009389029307e-01 1.346059766790254075e-01 2.018934771746171697e-01 -9.701135268187059957e-01
9.141171940776656249e-03 -2.347065858289317797e-01 -1.024690793238127062e+00 -5.010007856681493177e-01 5.263590621254478075e-01 -6.869820597936426854e-01
-1.635720652823981908e-02 1.343072190173728309e-01 -8.308543808363740846e-01 7.242740224566129870e-01 2.452374581244229912e-01 -6.444266672998483214e-01
1.785985450763466834e-02 -8.529729008296781448e-03 -9.693675708324993590e-01 4.637753785072030316e-02 -3.038287057019359305e-01 9.515972055309912525e-01
-2.022824433546192846e-02 8.474545586613837361e-03 -9.654926245597107437e-01 -5.345989881713830716e-01 -4.349826426395022594e-01 7.245647123953031787e-01
-2.072685961316781539e-02 -1.183620518307605118e-01 -1.039212704432223466e+00 2.017419948128363894e-01 -2.711517377350052271e-01 9.411572146311286691e-01
1.368607200589991649e-02 -1.327140398545801070e-01 -9.863483786879223558e-01 -5.222282557192517993e-01 3.678484616255457418e-01 -7.693927204023620625e-01
-6.340638906990682389e-02 -2.930793469306965798e-02 -9.755783199026942798e-01 7.226977748616150721e-02 -2.261067610183311871e-01 9.714179388316339647e-01
-9.810968774912566526e-02 -2.932254356510525031e-02 -9.302829830591931026e-01 8.683237380823542739e-02 6.524983989570326548e-01 -7.527987634270767447e-01
-7.917286772327673805e-02 -1.393067244383287551e-01 -9.797792517908165966e-01 3.528678196219878771e-01 3.080891779009734543e-01 -8.834961009169914892e-01
-2.416771117567761973e-02 -1.437830769507640050e-01 -9.892119897343952806e-01 1.313357349356273629e-01 3.552293702729767411e-01 -9.255068985287916439e-01
1.890148339470726011e-02 8.188562777368341150e-02 -8.769976553252830653e-01 -5.043915999770411940e-01 8.070425973555284127e-02 -8.596952578286894964e-01
-7.294368665227765614e-02 7.041436668121942022e-02 -9.087522608203784102e-01 4.852402914752455554e-01 -8.353151349712973905e-01 2.584385513364866327e-01
-6.636834271783224881e-02 4.788850979452283912e-03 -9.022157661766416759e-01 -8.448635611506519205e-02 5.936745562094619677e-01 -8.002578190432738658e-01
2.580877590761051707e-02 1.541672338301654059e-02 -9.025680384790737421e-01 -8.383335573138019081e-02 5.830204082202198324e-01 -8.081207657680529177e-01
1.482453008319841760e-02 1.297029675569780771e-01 -8.385932785074666773e-01 -6.904492298494410152e-01 6.619822715634680055e-01 -2.916493324799235842e-01
6.092307963989417735e-02 -1.204828259207359198e-01 -1.025752999227457885e+00 -5.889345382199704382e-01 -3.700930949438487327e-01 7.184616974943852652e-01
1.124647316136880154e-01 -5.123111963326045654e-02 -9.607194852884213265e-01 -9.964582920973809044e-01 2.111625376011532981e-02 8.139395516565856026e-02
1.025524517669003793e-01 -9.873500761111908205e-03 -9.226191000304595491e-01 -5.544530213101434013e-01 2.427285373907455412e-01 -7.960305925630014601e-01
6.621032888479028156e-02 -5.831683497836090413e-02 -1.004385793176581831e+00 -3.643021925706527164e-01 -4.915495039521264875e-01 7.909886204318199443e-01
-3.957346997869050365e-02 8.242395383360580363e-02 -9.070955567819850573e-01 1.468851263600638446e-01 -8.457945743930593840e-01 5.128901418251787803e-01
4.021894142062786004e-02 -1.191034205292316878e-01 -1.037287888732593144e+00 -2.702002971399961595e-01 -3.172268799141818030e-01 9.090428516221724653e-01
2.357790991324076879e-02 1.418564228499676338e-01 -8.269458370918825185e-01 -6.773269806845528818e-01 7.289747772486361299e-01 -9.911576752489398290e-02
-2.096868146099157507e-03 -1.475716488049054476e-02 -9.859637760960611175e-01 -6.450079481703346884e-01 -3.451271601790738552e-01 6.818005500905839344e-01
-8.645994716340406339e-02 3.520505585199821402e-02 -8.953350971935080116e-01 1.516795164254053363e-01 3.196377067147339046e-01 -9.353208330530765613e-01
8.255472387883450169e-02 -1.051771540317657655e-01 -9.748183145979357755e-01 -4.143809571743070630e-02 5.333272624332605627e-01 -8.448934343269316471e-01
2.084022161538309770e-02 -2.235743356630763568e-01 -1.025439431825156067e+00 -5.520689157270145531e-01 5.669498737705369606e-01 -6.113818388859543207e-01
4.657786973170493366e-02 -1.180750488766794393e-01 -1.034910697094016285e+00 -3.007037539761255318e-01 -3.198454155248152686e-01 8.984854826386590165e-01
-3.934104726188408785e-02 -1.454603143736558080e-01 -9.899443193206340919e-01 -8.595311407109489099e-02 4.899802652800708813e-01 -8.674856781627883207e-01
-2.796056477383155117e-02 -1.144076042386041603e-01 -9.721995864463500725e-01 -1.427480451455713228e-01 5.702853522108802808e-01 -8.089484610658643771e-01
-3.699113510397272070e-02 -2.248875655578492228e-01 -1.029228655733426923e+00 7.337219840170904339e-01 5.630831741461895801e-01 -3.802491146123505028e-01
1.135113806876398290e-01 -2.498308655689395266e-02 -9.399799044606375054e-01 -9.252548098417323619e-01 1.331183297555530443e-01 -3.552225318695755307e-01
-9.731744951700467550e-02 -4.516096306823423265e-03 -9.110703901360832635e-01 3.822073689529336127e-01 2.942055008149167539e-01 -8.759912387737222028e-01
5.985707869209534043e-02 3.946758601979045988e-02 -8.958309297083445477e-01 -9.546852544181720635e-02 3.391080160352570871e-01 -9.358907597100193376e-01
-1.604391017354842019e-02 -5.987060864530217852e-02 -9.431259397901546881e-01 6.479337787215225242e-02 4.795195594627390534e-01 -8.751358810359550766e-01
-4.239233056803385150e-03 -9.581656155986923926e-03 -9.089939222472737113e-01 4.742428873117150723e-02 4.974632616924638540e-01 -8.661877626153797749e-01
4.418101071260725765e-02 -5.424527649540388657e-03 -9.165738264430699500e-01 4.178667292640329128e-02 5.045477801576790933e-01 -8.623719681806107928e-01
-5.555496312612728110e-02 -2.044586681625157609e-01 -1.017760697795105918e+00 4.370903212503761681e-01 8.588978606519162007e-01 -2.669204301600094364e-01
8.171931520193573273e-02 -1.076037498795661684e-01 -9.761493479564691267e-01 -9.717072134292503716e-02 4.993028555977960248e-01 -8.609613866519115755e-01
5.707550590416896052e-02 -1.531420494795280307e-01 -1.039720373472523773e+00 -4.464972618198103649e-01 -1.506574748476484649e-01 8.820104990644622722e-01
-8.084839599121254605e-02 -6.624455486132417581e-02 -9.438352350189838091e-01 -7.027668013305515826e-02 5.199444529678174387e-01 -8.513042664391348158e-01
7.278204817649286396e-02 4.342028099946240727e-02 -9.407696212213463305e-01 -2.999033432380027731e-01 -6.908976278656461245e-01 6.578133873100272533e-01
9.697289799799738153e-02 -1.149040323561777988e-01 -9.836939007337979213e-01 -4.094456952377976133e-01 5.596855220909862094e-01 -7.204903462316318841e-01
8.480152526492652776e-02 4.228569223319205567e-02 -9.022274191633444795e-01 -7.184722149679736436e-01 -2.326941628499931969e-01 -6.554777668956855985e-01
-1.118794078509913470e-01 -2.474384661173381281e-02 -9.618541369674783459e-01 7.281032319492702909e-01 -2.897955371851004824e-01 6.211958066927255606e-01
1.807380328745746001e-02 -1.662159510971670529e-01 -1.050177157535122419e+00 -4.338190764078294626e-01 -3.893190556862527463e-01 8.125464182581955130e-01
6.416971435858333239e-02 -8.036995552198110057e-03 -9.814422726762838112e-01 -2.177524148593690256e-01 -5.542219622044867178e-01 8.033815422531946915e-01
-3.161150562989972768e-02 -6.677730799789512173e-02 -9.475185483649396501e-01 3.835256361108042855e-02 4.435839227935802209e-01 -8.954118517774470876e-01
5.181390863580216666e-02 -1.239344800537790503e-01 -1.035144161750099379e+00 -3.061247188299029420e-01 -2.916191839733686120e-01 9.062261903410314678e-01
