-5.044166258962588106e-02 5.532503127715291541e-02 -7.766344923059249616e-01 9.378855951237773103e-02 2.561166217740825091e-01 -9.620852260354196828e-01
-1.183845293100072582e-01 -1.303670726726273085e-02 -8.283090465385239964e-01 8.500313317570186156e-01 -2.958187526985309734e-01 4.358187703429887150e-01
-2.230851672962705368e-02 1.223760009184521325e-01 -7.424246027769250134e-01 9.366600920791854357e-01 2.038146919349930475e-01 -2.848287963982141235e-01
-8.312041126344531239e-02 1.245809957759715612e-02 -8.504939598865550732e-01 3.414484779631781208e-01 -5.960990320369898843e-01 7.266903610900536936e-01
-5.014473789803685494e-02 -1.353134549478225424e-01 -8.694093383532091046e-01 -2.267152990958756220e-01 5.558200227370191371e-01 -7.997901446507622580e-01
-5.487157727378887129e-02 3.672533788635788665e-02 -7.822676449918453123e-01 8.671166705380983775e-02 2.544694564566264972e-01 -9.631855389941328394e-01
-1.154236133804995880e-02 1.040449492465886777e-01 -7.434398491226457129e-01 4.147964945500410838e-01 4.635027018437501978e-01 -7.830128437596292068e-01
-5.539741489399067909e-02 -1.377958089866334057e-01 -8.696123744374147924e-01 -2.403941725789110195e-01 5.691985391109004588e-01 -7.862720043751508792e-01
2.051986816683162157e-02 8.062761490681656651e-02 -7.699166682077897006e-01 -4.745603397071806451e-01 6.961633147242055064e-02 -8.774656975456802677e-01
1.023005493482459782e-01 -8.704665092579880192e-02 -8.785473567121915295e-01 -8.053368295661280651e-01 -1.822799813913085765e-01 5.640980405287374655e-01
-6.470578691865029597e-02 -1.960013331695253103e-01 -9.052023231260364344e-01 8.112585319686550500e-01 5.329644968342188704e-01 -2.404338566473335215e-01
-1.543225613818486122e-02 3.363238423928422566e-02 -8.435582375825261270e-01 7.849127219883145212e-01 -2.528986222031991971e-01 5.656450351135579035e-01
-1.497270570396748608e-02 -8.835171671598742935e-03 -8.640191048767066340e-01 5.496272370188539647e-01 -5.444605210970646647e-01 6.336186876140359470e-01
-7.689891557366671827e-03 -1.739276703396038237e-01 -8.833223194263970512e-01 2.169582044491839834e-01 2.931677451482536112e-01 -9.311185803789303606e-01
-2.560390938451036213e-02 -1.630547947671671660e-01 -9.303666703434447793e-01 7.925207113531633762e-01 -5.176944707449323557e-01 3.223404365517922310e-01
6.496959842220785541e-02 -2.917142155176415813e-02 -8.200738012144502820e-01 -6.823834436080457311e-02 4.319115667674173764e-01 -8.993308216954487566e-01
-8.334595428212891732e-02 -9.349943049956914790e-03 -8.632777632013398650e-01 3.270873149523659817e-01 -4.465248030814248925e-01 8.328442163035931767e-01
-8.168865273782718872e-02 -2.621873141584621716e-02 -8.147835106284453399e-01 1.716592556421796603e-02 5.453016873428084832e-01 -8.380640791613787055e-01
-2.634679323888751423e-02 1.008395076084591391e-01 -7.756488373933806413e-01 9.888451330549840046e-01 -8.514823801947049575e-02 1.222091665778401309e-01
5.779377572530892959e-02 1.874381406296056207e-01 -6.477570578345608343e-01 6.471927410657857260e-01 -3.078999762924215441e-02 -7.617043599440310730e-01
7.281344222411395561e-02 -1.646102952847487699e-01 -9.114795281806358229e-01 -8.795351966272801914e-01 3.345930591266912946e-01 3.383272419981192547e-01
-7.789978160004418228e-02 -1.535239447417156011e-01 -8.769900933034965318e-01 -7.020930742980416306e-02 6.948801521242005119e-01 -7.156900357934816714e-01
-7.734792980064196521e-02 -6.272864908984375487e-02 -8.308535120681848074e-01 -5.125623444624598235e-02 4.677732317608939705e-01 -8.823610383954859637e-01
3.450468926908943634e-02 -2.028360918171253913e-01 -9.022656829546774615e-01 -1.541749719089441882e-02 6.417561851582608279e-01 -7.667537411656267787e-01
-8.321330028029818963e-04 1.053913224705809448e-01 -7.416830348616582080e-01 -3.465544221224489130e-01 5.054413048630199690e-01 -7.902082762447778519e-01
-1.124068703140199306e-02 2.361458433562783205e-02 -8.536360337480702887e-01 7.021855346431512546e-01 -3.377069642758672163e-01 6.268089670844619876e-01
6.295277121555283018e-02 -1.272528634809563242e-01 -9.169727769081424951e-01 -7.025228204354337924e-01 -3.639390662993952086e-01 6.115636048593534602e-01
7.472953306934664031e-02 4.598539925299714726e-02 -7.882413404247460287e-01 -3.026814455649406432e-01 1.332633723817443772e-01 -9.437292069720858434e-01
-1.862362724971617679e-03 5.900855263968655257e-02 -8.347516749430341498e-01 -2.937770477312454664e-01 -4.899972961725911902e-01 8.207299775016527743e-01
1.024480068981506193e-03 -1.816201955373925869e-01 -9.339280490722708938e-01 9.575919936619862183e-01 -1.365047349501552210e-01 2.537400855415837819e-01
4.114410526188243961e-02 2.686763658072417044e-02 -7.882006134758352545e-01 -1.990237255088955493e-01 1.559326005645468860e-01 -9.675094732175686385e-01
-2.386282704067920618e-02 -2.267470388291205619e-01 -9.081171875986291386e-01 3.598039869054893702e-01 3.804870374015951184e-01 -8.519217718642195791e-01
1.567978127003944941e-02 1.379129844634054136e-01 -7.577676246678384242e-01 -8.770594471822426019e-01 -4.059916385259536298e-02 4.786631738528137059e-01
-4.519994370709969761e-02 8.404033515682202138e-02 -7.769554318565407014e-01 4.810853169682033914e-01 -6.607921188215720720e-01 -5.761169095773015503e-01
1.071948880969959966e-01 -1.718054676480257337e-02 -8.437761738103385367e-01 -6.596168606669952084e-01 -4.564131105913102893e-01 5.971538073262045998e-01
2.005063350026414781e-02 1.719740905686975019e-01 -6.803585562325943359e-01 6.117779335165899335e-01 1.446165482325831031e-01 -7.776977652272530905e-01
-2.730147336746858652e-02 1.551563948598559152e-02 -7.888057463181210593e-01 -1.345067941793269030e-02 5.880707696374504190e-01 -8.086976252723960812e-01
9.916142033171600201e-04 -4.130761207126863732e-02 -8.886315697236920608e-01 8.573937022133689689e-01 -2.311172698025398264e-01 4.598487218682602018e-01
-7.471335710394963470e-02 -5.792524338838032916e-02 -8.847783852586429409e-01 4.028004584647865705e-01 -4.353404192956147889e-01 8.051276358367510655e-01
-1.429716277331477374e-02 -2.519431022332823122e-01 -9.233258568306735858e-01 7.636748087148291786e-01 6.404804396259574650e-01 8.115166659354217105e-02
-8.695124265050151180e-02 -7.552215705939133161e-02 -8.873125513788372443e-01 4.626009645783091262e-01 -3.676511050631230959e-01 8.067422218509964216e-01
5.204537434007260044e-02 -3.455789313023611975e-02 -8.216672613302691275e-01 -7.172962381226989648e-02 3.950381053741817139e-01 -9.158601183423847880e-01
-7.259016541106473944e-03 1.594960715193929901e-02 -7.851418858764059872e-01 1.504539799386086507e-01 5.285916503565559754e-01 -8.354366924512982573e-01
-9.325038899776537382e-02 -3.350593095078461398e-03 -8.553797168581130927e-01 4.241848777149722083e-01 -4.128791094778227477e-01 8.059764453597474398e-01
-5.960289823740187731e-02 -1.252440831443489833e-01 -8.582151274124713014e-01 -2.036513468626960921e-01 5.653193808801918463e-01 -7.993373045981568836e-01
-1.178485035610731119e-01 -5.295950552112625720e-02 -8.499754948729368875e-01 9.722985894924308647e-01 8.565505110443608419e-03 2.335852841966553906e-01
3.454629373788974805e-02 -7.660583637081612440e-02 -9.093332804831480987e-01 5.158917884771402340e-01 3.612654499337590308e-01 7.767515286538007047e-01
-3.521015696393010874e-02 4.278436488979561053e-02 -8.265820705485958930e-01 3.419485139152390607e-01 -8.341913679140552373e-01 4.326615022495495788e-01
1.982084437679210165e-02 -2.267475298862874356e-01 -9.145424138649670409e-01 -5.845750292722330377e-01 5.197182621079072806e-01 -6.230288622390656172e-01
-2.531664895381690802e-02 1.012829071020522886e-01 -7.600889930664430638e-01 9.169419508549880860e-01 1.202967808652194021e-01 -3.804551790628086794e-01
-8.810938697746291404e-02 3.023519435687227475e-02 -8.341104848843724495e-01 8.435748583429142355e-02 -2.646061838373635622e-01 9.606598680379777599e-01
-6.418412998356681776e-02 -1.419820468032480520e-01 -9.186576128903176652e-01 4.410803555147111421e-01 -1.910885630766170074e-01 8.768884085448558352e-01
9.427348880927685637e-02 -1.058382798687776544e-01 -8.983357073597724174e-01 -6.731244785289275390e-01 -1.856625628922186910e-01 7.158441514362272606e-01
9.099850485229295802e-04 -8.817273631705339898e-02 -8.460201450480653307e-01 -9.844201972993503469e-02 5.121798425228490936e-01 -8.532180129748554442e-01
-2.091358287410430977e-02 -1.385606152607630204e-01 -9.261707514956294407e-01 -7.052722674475430109e-01 4.094213141322962102e-01 5.787617958224134940e-01
-3.987731243392397124e-02 -1.747195216277444285e-01 -8.877077229290831761e-01 3.239987821379460842e-01 -3.175035731159206454e-02 -9.455245655104439484e-01
4.706252873579645779e-02 6.395761763673581124e-02 -8.203756205656735911e-01 -1.070082324278002900e-01 -6.939666848379664188e-01 7.120108696696142436e-01
-6.895450660192976866e-02 -8.120436019460404442e-02 -8.432097332995720507e-01 -5.570215572809706500e-02 4.382600247752893030e-01 -8.971206276366660015e-01
8.879126849487989706e-03 1.425310772475643917e-01 -7.635803623648470539e-01 -5.363994358595933765e-01 -4.258538101914492446e-01 7.286454402210550407e-01
-1.074824486463889783e-01 -1.215351504881084788e-01 -8.771897118852504116e-01 9.477152899048987278e-01 3.191086869250962521e-01 -2.318449786875561875e-03
5.141642358281764413e-02 -1.481494028941165442e-01 -9.305682667170214195e-01 -3.640982554507887214e-01 -1.710090806415839326e-01 9.155262719965017171e-01
-3.081853037042825080e-02 -7.523743166671544025e-02 -8.410014733578373702e-01 3.239043804353656381e-02 4.273336873631843891e-01 -9.035135744237229316e-01
-4.868880191867352297e-02 -1.225762511973251395e-01 -9.201632652444032834e-01 3.908610657573730607e-01 -2.995317325540661213e-01 8.703495668225326165e-01
-9.287593650962079617e-02 8.551742981728017653e-03 -8.420720985933055625e-01 6.971774147138117828e-01 -6.720080235450984762e-01 2.496975544613444509e-01
-2.723176840529681689e-02 -5.583847343920905759e-02 -9.014289346896610100e-01 -8.842903752112979410e-02 -1.895320148367625746e-01 9.778844106922882640e-01
-3.800954458035083611e-02 -5.242837409681487711e-03 -8.013914579890207834e-01 -2.880496353083349310e-04 5.050138895498843539e-01 -8.631111680363687810e-01
3.732284887975823723e-02 6.352921252863974466e-02 -7.779541076878728756e-01 -1.711283456707269890e-01 1.786711740921211877e-01 -9.689126384027320071e-01
-3.316286626157174955e-02 -5.105488831918843923e-02 -8.283073452264755332e-01 1.324097065839596570e-03 5.691073407890173685e-01 -8.222621731704635728e-01
-8.935291952206676769e-02 -2.084333749487793028e-02 -8.113668264094027194e-01 4.676123648304866300e-03 6.321480114263037242e-01 -7.748335469747007487e-01
2.184329375217029801e-02 1.917597240845897444e-01 -6.891095352971861043e-01 6.344979867354915148e-01 -7.361869111329724102e-01 -2.354594162591532591e-01
-1.186216757228902990e-01 -4.843465141327907980e-02 -8.410560888264712043e-01 8.896215536474350039e-01 2.449236814625596059e-01 -3.854683924068877388e-01
4.775581034099559558e-02 1.705150905210384427e-01 -6.643218207026182487e-01 2.509543082189412688e-01 7.682316720751897199e-01 -5.889329615558216435e-01
2.547198562425104923e-02 -4.667152297201840327e-02 -8.313088940196272647e-01 -9.261709043195583135e-02 6.016127727977172990e-01 -7.934003694015783203e-01
-9.309432874161047144e-02 2.653240507195986364e-02 -8.344163886750568526e-01 1.439730678218506810e-01 -2.604053583012499451e-01 9.547045643077038957e-01
-7.161214264128212825e-02 -6.926361890221502393e-02 -8.918024784333888899e-01 3.425440405734453408e-01 -3.688689829900160810e-01 8.640597512067835773e-01
-4.080641044924827182e-02 7.882796548848372553e-02 -8.034114983729991888e-01 1.064669122696659809e-01 -7.956175588749437866e-01 5.963702680396120170e-01
-3.783139257227660646e-02 -3.263529088606418466e-02 -8.880618806685451894e-01 2.450188413218832018e-01 -5.381449755347380570e-01 8.064525731275201670e-01
-2.894256101087934463e-02 -1.896537855596665267e-01 -8.915647840257043821e-01 5.282101536144861303e-02 3.814343017345002140e-01 -9.228855908488872162e-01
-1.079209143730299192e-01 -1.092599373049207567e-01 -8.807655907171137999e-01 8.818849538722666193e-01 -8.529904527116068114e-02 4.636841608353025057e-01
-7.047302511412507908e-02 1.673004540996365572e-02 -8.510570663720899987e-01 1.588649600720536126e-01 -6.615246669293924908e-01 7.329031583403505801e-01
-5.573138538677407244e-02 -7.513877827731739456e-02 -8.409271636049510112e-01 -2.569927190561980060e-02 4.237041480767632651e-01 -9.054359957092854572e-01
8.555841836311518789e-02 -1.336209447865484845e-01 -9.099734192438361235e-01 -6.918664974870194495e-01 3.557065505062032701e-02 7.211487212457037277e-01
-7.305750510404353248e-02 6.403589278402914420e-02 -8.109127088946606055e-01 3.718765215968596327e-01 -7.372310964583536075e-01 5.640905628530176186e-01
6.495060314366830900e-02 -7.853657461740519430e-02 -9.058349702185762853e-01 -2.694274904773631962e-01 -3.863665733971674010e-01 8.821166013268323391e-01
5.247974697986254600e-02 5.426880272927003812e-02 -7.822734730055173058e-01 -1.202135154159694463e-01 2.490743834367587228e-01 -9.609946213309068508e-01
-9.528373869868524138e-02 -9.381084708048649523e-02 -8.893954592457442576e-01 5.585920832327918584e-01 -2.520543624747630385e-01 7.902173643416666726e-01
-1.365983959342225405e-02 -2.374779345026558075e-01 -9.092139863961374857e-01 2.772177284158299226e-01 4.624726934690319147e-01 -8.421812980869770593e-01
1.115095789063641346e-01 -1.189335495503202923e-02 -8.255735431244760614e-01 -9.309394666022545728e-01 -7.368659682053821380e-02 -3.576618444443255274e-01
1.021167778490116897e-02 3.512548054933601477e-02 -8.388692655948009058e-01 9.726683497336020834e-02 -5.528292546497425297e-01 8.275983192453180148e-01
-1.343392798811703266e-02 1.000278612306289006e-01 -8.035080277847878039e-01 2.972817324043164344e-01 -6.070674656120118584e-01 7.369482096959711903e-01
8.443415400575417229e-02 -7.583802920484353227e-02 -8.945140089532572780e-01 -5.752303484644363252e-01 -3.948527217880621332e-01 7.163807467415927999e-01
1.029260946544721667e-02 -1.703068863168062108e-01 -9.401793587955942222e-01 3.462037575598706507e-01 -3.230112211252826326e-01 8.807989039948790344e-01
4.822764420546377107e-02 -1.881552107799107088e-01 -8.992750635584418895e-01 -4.680097602051509487e-01 9.955970834463297170e-02 -8.780972206009131087e-01
3.826447563403859772e-03 -1.024953062516671259e-01 -9.215882838742268657e-01 7.634462521490283926e-01 -1.899457291185765451e-01 6.173090312551846592e-01
2.504836662293866839e-02 1.691750740708314604e-01 -7.362200987134576158e-01 -5.671666440423661637e-01 -4.165141752521620000e-01 7.105194857987576773e-01
1.801182861717454814e-02 8.101449333091237381e-02 -7.683617324050767694e-01 -5.186292683320093966e-01 1.399943675359795747e-01 -8.434602889808183734e-01
-1.720780788692945207e-02 -1.053813250085779418e-01 -9.243465458293772530e-01 7.448512701761295096e-02 -3.653056298170558880e-01 9.279028842918497499e-01
8.789166903096455586e-05 2.397070059486324650e-02 -8.541342842815611291e-01 -6.574506248930054308e-01 -3.570648983211514027e-01 6.635234240135777783e-01
-2.881203037082438398e-02 -1.717741869659547005e-01 -8.849340840059073399e-01 1.605726868798642848e-01 6.784497398689869063e-02 -9.846895306302885231e-01
-5.481333196922344442e-02 -8.719944857837563443e-03 -8.680866239749827074e-01 -1.689656107186604250e-01 -2.087328628243844963e-01 9.632659105208730699e-01
1.277508990244356768e-02 -1.097403940107031378e-02 -8.634269889633293671e-01 -2.821168248384650634e-01 -7.395349100812972365e-01 6.111450023636865181e-01
7.846637195534852949e-02 -1.691551929042916375e-02 -8.726573383342657309e-01 -4.160710869793591837e-01 -4.873426801494964433e-01 7.677121613498902875e-01
9.282024949636111244e-02 -7.087062206307512269e-02 -8.439550100469193072e-01 -3.756251648236148544e-01 3.328046030866739780e-01 -8.649548148403783943e-01
9.795287797394811383e-03 1.155810666998334929e-01 -7.433686232514403747e-01 -7.699873545620105064e-01 4.549963442688812476e-01 -4.473229264374346537e-01
-8.501453860534910478e-02 -1.629159132264775267e-01 -8.943713313208245808e-01 9.099339401766735058e-01 3.460883756807916489e-01 2.285674096042243642e-01
9.870800549122739354e-03 1.278330283920026400e-01 -7.270709333761569138e-01 -5.661564855774584570e-01 7.034358664705787634e-01 -4.297031715048972300e-01
4.385839242751947767e-03 1.690371299527532456e-01 -6.952399526867996116e-01 7.843786344673048250e-01 -1.036510095648686125e-01 -6.115608113731535456e-01
-5.520580060129411104e-02 -1.025116495593755006e-01 -8.518659671493122865e-01 1.131664794210792135e-01 2.442529441865047002e-01 -9.630855866389355091e-01
-5.352213878740399999e-02 -9.642071522554868102e-02 -8.499543483136490218e-01 1.453441368983466979e-02 3.402761302976968771e-01 -9.402132236723316216e-01
-8.349676430763236512e-02 -5.384412311074541352e-02 -8.712845400269326746e-01 6.151732713278339482e-01 -5.745873401065305641e-01 5.398251891428497151e-01
-7.419897459027482989e-02 -2.221639620315054436e-02 -8.120533294325785745e-01 2.196002383400167887e-02 5.318917173501931384e-01 -8.465275886629286539e-01
3.466033012166438998e-02 1.533464051150719432e-01 -7.136783231881513867e-01 -7.020640952055718920e-01 7.037905299006511628e-01 1.085582619856387959e-01
-6.257179283615108001e-02 -3.376971484240628985e-02 -8.708755498616497226e-01 6.147487529834493314e-01 -7.432926038613706377e-01 2.638182627307620876e-01
-5.450479076429671013e-03 -7.377902768030075720e-02 -8.385510751358165038e-01 1.668469840892003175e-01 4.086176396078025630e-01 -8.973258652806603841e-01
-1.682322850654118657e-02 -6.887954146180320925e-02 -9.051588029482858788e-01 3.385758077017701484e-01 -7.357612909717373695e-01 5.865336692353613213e-01
-5.685665133605463661e-02 5.259350539879349001e-03 -8.603461386285642387e-01 3.012348051138636490e-02 -5.450033317264695309e-01 8.378925613280787665e-01
2.624523095506115997e-02 -1.561542435990233013e-01 -9.307257721188934019e-01 6.952757145441896824e-01 3.276471180733512845e-01 6.397179431462696186e-01
6.163730012383898671e-02 -3.914679294380775387e-02 -8.244879634087649567e-01 -6.303438408810718707e-02 4.170361505026559112e-01 -9.067014478848917092e-01
-1.112033648301830442e-04 -1.821760803484039071e-01 -9.313817955840658636e-01 8.642456234392215109e-01 -1.763602916727327052e-01 4.711438738721537289e-01
-2.657647458282240416e-02 -1.443609148577278956e-01 -9.282613877550576209e-01 -5.977025910221159810e-01 3.829977568697801593e-01 7.043183448684025016e-01
-5.436644364984665606e-02 7.251300714615087351e-02 -7.752414759159814706e-01 2.914031292890321700e-01 -1.769607836945824297e-01 -9.400899410560452640e-01
-1.544277225876598825e-02 1.195480074631875694e-01 -7.339825132423980492e-01 5.572508693725971574e-01 6.075648940170578216e-01 -5.659826571031357778e-01
-4.409085710611570217e-04 1.710271969938164660e-01 -7.082283816405687826e-01 8.297162459648897981e-01 -5.366520200392119744e-01 -1.535433507833003364e-01
4.372368730746904048e-02 1.597020383684150113e-01 -7.005886224168338394e-01 -6.544571173019970711e-01 7.349135377305112682e-01 1.777300584402776717e-01
-4.001995094828789817e-02 -2.047983168986811098e-01 -9.011142086799515116e-01 1.028251960958075084e-01 6.336076004236703696e-01 -7.667909674306401246e-01
5.399799391929043652e-02 -8.333308422918647707e-02 -8.538538370744686024e-01 1.033435929110561868e-01 4.502105349931684319e-01 -8.869219672470621818e-01
6.610687720271225809e-02 6.546956925391700377e-02 -8.074612301850777607e-01 -4.745673858351892593e-01 -8.036950726403354617e-01 3.589707878298741273e-01
1.703590121622655315e-02 1.308396391975335249e-01 -7.388178345052960339e-01 -8.481864168560442341e-01 5.109234653238631241e-01 -1.397748719990825617e-01
5.943416337931787564e-03 1.066022039548706751e-01 -7.454019315881569296e-01 -6.009320995456567394e-01 4.444409695473421906e-01 -6.643439141916386292e-01
1.725506860796435088e-02 -3.888648201958731787e-02 -8.945494669707600988e-01 -9.186248502475275954e-03 -4.922281700178045005e-01 8.704177396396365340e-01
-5.495390097680166730e-02 -1.924708720759131242e-01 -9.234452148036372821e-01 5.381295137795224504e-01 3.239926016748695958e-01 7.781037337395086961e-01
6.368972091590332845e-05 -3.607762791416802700e-02 -8.849088195271186397e-01 5.690402161268373060e-01 -3.507307881691096862e-01 7.437614850613046835e-01
-5.938509309326907293e-02 -3.127238621745836999e-02 -8.713006130128324589e-01 6.183743423965616381e-01 -7.418252292372898848e-01 2.594388211749785733e-01
-1.707229590109881137e-02 9.786562094299358638e-02 -7.507571485272764855e-01 6.175810186153276593e-01 3.622257762298529693e-01 -6.981304838500713705e-01
-1.160397872431070433e-02 -2.198857838648072549e-01 -9.402743819307211037e-01 -8.192233133687644164e-01 1.487352223114593586e-01 5.538510598320309786e-01
3.499938438534740126e-02 -6.132069912401538064e-02 -8.424072500483021919e-01 -8.628427053921743084e-02 5.421078806478766277e-01 -8.358672564450546627e-01
2.598749890772216256e-02 8.751768615840178900e-02 -7.775157465911117782e-01 -5.437666908745522054e-01 -7.466685502650656225e-01 -3.831499209714189225e-01
5.010247142171918126e-03 -2.017912344623650489e-01 -9.461771275611530196e-01 3.342631449520593878e-01 -6.879398101682920874e-02 9.399657111313233226e-01
-6.784732658187848930e-02 -4.222808241950160718e-02 -8.219251749014765407e-01 1.119378592698131586e-01 3.502065774044988977e-01 -9.299598210700923406e-01
6.544969806793789202e-02 2.098562906584137966e-01 -6.701551610239547818e-01 1.029228583537371705e-01 -9.755778379106607723e-01 1.940483635742828450e-01
1.044249641104149223e-01 -1.006653963739456703e-01 -8.804504788422257144e-01 -9.644026263176080915e-01 -6.447443504281587245e-02 2.564578358670480673e-01
5.612011929557702422e-02 -4.650491566365543700e-02 -8.913139231347061431e-01 -3.212424374713853670e-01 -5.619172884299509230e-01 7.622678383160174098e-01
-2.965618361782247289e-02 7.687148531260823425e-02 -8.069677219175422911e-01 3.933198822152809970e-02 -7.645023939007139502e-01 6.434198352729103565e-01
8.347101869947287645e-02 1.960340493436364337e-02 -8.425009798175154829e-01 6.620128870024749590e-02 -6.657652774357784853e-02 9.955827214892970511e-01
4.393533820025713466e-02 1.763818704526535219e-01 -7.164497008145527257e-01 -6.631318413779372367e-01 -1.935040997671473306e-01 7.230576217176694076e-01
-6.333702590608557281e-02 -1.893996146804301506e-01 -8.980816828737009372e-01 5.256447741478186275e-01 3.150288816689977844e-01 -7.902242562244399249e-01
6.379752866029814173e-02 6.172296601430849426e-03 -8.602400528049969353e-01 -2.370315712318668555e-01 -6.507520135034923214e-01 7.213444746863336698e-01
-6.857220614085828003e-02 -1.168274754870538834e-01 -8.579832368106831142e-01 2.151355981346519675e-01 2.904800661275405704e-01 -9.323829715292880627e-01
-1.837661446993107614e-02 -2.043306460933685606e-02 -8.077122994318945981e-01 5.434217057052037614e-02 3.642288800323440490e-01 -9.297226744831326162e-01
4.567701344758377802e-02 -1.792388226095443515e-01 -8.975695997489954170e-01 -3.087473345136210190e-01 9.576711037028752538e-02 -9.463105959472603024e-01
8.504077907038722073e-02 -1.417237983666419232e-01 -8.851990671119940313e-01 -4.579684170763595463e-01 4.727361969432087863e-01 -7.528515239144073501e-01
9.140557777354169078e-02 -9.341668293259564049e-02 -8.567413966236728795e-01 2.051305829297899452e-01 6.548144924220268281e-01 -7.274197031019764559e-01
2.052771310069241226e-02 -5.322332608775378476e-02 -9.023057464301851294e-01 1.045714289328836602e-02 -4.769099535573108062e-01 8.788899500850337887e-01
-4.744765465868362730e-02 6.892936999204198056e-02 -7.736328562570075063e-01 1.750630909612853336e-01 1.418439559354119361e-01 -9.742859982303313515e-01
-5.982116041911678117e-02 -6.978099738041326772e-02 -8.381418888413305623e-01 -5.374610296540141552e-02 4.592840454812613382e-01 -8.866620111307347285e-01
-1.186112496658006943e-01 -3.232169296055619617e-02 -8.421649458321525117e-01 9.278378251796517429e-01 -1.643452379944649322e-01 3.348247495548029584e-01
5.755888843947390421e-02 -1.520138446938354149e-01 -8.879695389305545250e-01 1.380491504650838419e-01 5.566545841800166761e-01 -8.191935705114153921e-01
-8.534610381513663135e-02 -1.395363753938314855e-01 -8.702837985109458385e-01 3.637228446840120588e-01 3.782035315277359477e-01 -8.512742102254238219e-01
1.271388734998955654e-02 1.241690073088005247e-01 -7.383170035560281397e-01 -7.636586057933298921e-01 5.635549402128706697e-01 -3.150101000911796345e-01
-1.085119007745848768e-02 -5.404884333629134813e-02 -8.909647545627971121e-01 -8.324864865930686753e-01 -1.264130374456947370e-01 5.394311759656479355e-01
8.486049499160992771e-02 -4.413077344526747381e-02 -8.812515993596222730e-01 -5.555732780926610909e-02 -4.858720130688787969e-02 9.972726142815001582e-01
-4.760657351876625143e-02 -1.883608726211440931e-01 -9.289530457015919840e-01 6.141283296216093479e-01 -2.320002535916757536e-01 7.543356528028950514e-01
9.454895476497748863e-02 -2.293168242506467280e-02 -8.194322588777416261e-01 -1.149323784722347114e-01 6.536443729453832452e-01 -7.480237844450879914e-01
1.925494529531147914e-02 -2.162585421482057513e-01 -9.410796725652305073e-01 -3.754932878869725599e-01 4.109162118730552149e-01 8.307542702699332038e-01
1.916686316974355181e-02 -1.396045085855084078e-01 -9.318625292585349662e-01 5.700086996777351533e-01 3.048665977191931664e-01 7.629852160342434075e-01
-1.714594197185185381e-02 -1.357248349726305481e-01 -8.733537287257236992e-01 1.989150823164240189e-01 3.898153484012192860e-01 -8.991533707760239746e-01
4.409511926801518850e-02 1.717012022942236149e-01 -7.165825097844014113e-01 -7.728195989482177231e-01 6.750886736477373917e-02 6.310248967423084387e-01
-6.596085043955803029e-02 -1.417527887603758918e-01 -9.177139522462703924e-01 4.410803555147111421e-01 -1.910885630766170074e-01 8.768884085448558352e-01
-1.044008460083336275e-02 6.732253227529187006e-03 -8.642666574353993214e-01 8.427276763123190406e-01 -2.515133531167845216e-01 4.759738404378863752e-01
-1.521610084560662789e-02 1.457554815033257067e-01 -7.210182048254148990e-01 8.942999772370276990e-01 -1.231753221715459062e-01 -4.301806489392419053e-01
-5.241242746588586215e-02 -1.016274687840044988e-01 -9.034374127145712308e-01 6.710964710497356878e-01 -5.618695686406686152e-01 4.836652916843838246e-01
2.465150063953951143e-02 -1.092269310956393152e-01 -8.661692715745973326e-01 -7.943598119561387505e-02 5.229997645020916242e-01 -8.486231031631455979e-01
-3.610729720889493954e-02 -1.532299645078794847e-01 -9.301788134195898561e-01 -2.157794810853181089e-01 1.758710307004814066e-01 9.604731105569281890e-01
1.671200621690311847e-02 1.870578265524551753e-01 -6.901207264016431253e-01 7.105139563670151981e-01 -6.381470158146574922e-01 -2.965439326887979177e-01
1.802366181981611415e-02 -8.262748364349010999e-02 -9.131323811932160472e-01 -2.047174202860708447e-01 -6.250306816210037253e-01 7.532777873160734217e-01
9.609568740257679043e-02 -6.889559975054443397e-02 -8.446796982800880427e-01 -4.067026069295183177e-01 3.470021857302127422e-01 -8.450931739253301211e-01
4.095597984980410555e-02 2.020286247715416261e-01 -6.847775945585291568e-01 3.157807978102823987e-01 -9.464746560675519893e-01 6.684469430037510984e-02
8.589430429836533015e-03 -4.977524303992368268e-04 -7.987433317995976667e-01 -3.865088142739053212e-01 4.185443547088633642e-01 -8.218464331186945415e-01
-4.345683619282662835e-02 2.297334222377087065e-02 -8.481438847168251138e-01 5.262478893359557675e-04 -5.909974543035402261e-01 8.066732498787185790e-01
-3.291241517380721210e-02 -1.854809396772367502e-01 -9.403114684178580651e-01 3.735262200012644529e-01 -3.037853282108879949e-01 8.764659932566521983e-01
-4.165332433684310748e-02 -3.213539641842921846e-02 -8.145796822747526367e-01 1.760540887798276721e-01 3.217979245278287936e-01 -9.302962181979923528e-01
3.425479723153870143e-02 -1.588363130361753195e-01 -9.356889115854638561e-01 1.859781623757320312e-01 3.778593453732480290e-02 9.818270449883150786e-01
-3.356835811712518408e-02 -6.460107938574354003e-02 -9.013068083827254773e-01 -2.536310093745463012e-01 3.611089227501147469e-01 8.973692980004946973e-01
9.500773407366902568e-02 -9.706272034538104831e-02 -8.949616543294135473e-01 -6.709068097038543010e-01 -2.231330431032725603e-01 7.071744464900222571e-01
-8.332879435183448980e-02 -1.521329209121839443e-01 -9.008606421214325755e-01 7.191226219945636711e-01 6.581062878368171276e-02 6.917597962260890743e-01
-2.666485419761764966e-02 -2.390017760359392507e-01 -9.236077514080107687e-01 6.721380724860613887e-01 7.008409176090241166e-01 2.388564835202574288e-01
-9.312774410731804176e-02 -1.371603552123985999e-02 -8.054408278577850355e-01 2.293635143699647438e-02 6.567644955400142592e-01 -7.537468548397593393e-01
-2.193652931485038857e-02 -2.369637194143174586e-02 -8.090507466901033506e-01 4.084913488272649829e-02 3.333139070233152590e-01 -9.419305640885560216e-01
7.554008475536898304e-02 2.075509465638284701e-01 -6.465857413668283371e-01 3.873735157756440228e-02 -7.634528261323939580e-01 -6.447008607588613494e-01
1.545951115079536621e-02 -1.078851610068127381e-01 -8.632087780764871043e-01 -3.339654287840661540e-01 4.786084615586584934e-01 -8.120351180223234211e-01
-1.172582117288320652e-01 -5.764041806829248160e-02 -8.434345239075025091e-01 8.301095426128048960e-01 2.615075186065577983e-01 -4.924753445355417036e-01
-7.134136601331033702e-03 -1.501266118497140145e-01 -9.231217126546544804e-01 -8.417905054996284164e-01 -2.589575602303194057e-01 4.736345921174259233e-01
-3.745819138508067053e-02 -2.052692642141564772e-01 -9.395751493852861902e-01 4.742601693668770935e-01 2.019680738551257182e-01 8.569050057593032843e-01
1.127637573355378536e-01 -4.643519856068277496e-02 -8.496326014723807329e-01 -9.960703865653889322e-01 2.662563383382009555e-02 8.446810421942738123e-02
-4.104176847681226259e-02 -1.756181502857345755e-02 -8.643936638203130185e-01 3.702646402520836655e-01 -8.811572374932606921e-01 2.940510482760447242e-01
3.724065717764767254e-03 -9.356220306812522425e-02 -9.180323090792406049e-01 6.733836067790810453e-01 -2.801984930287479414e-01 6.841369180402520067e-01
8.253901723711789401e-03 1.831894905493191769e-02 -8.488839736433277938e-01 1.550687580254230813e-01 -5.025301224591777194e-01 8.505393326035056711e-01
1.431714178777213770e-02 1.242504881453320165e-01 -7.625083241533504586e-01 -9.813812375583244041e-01 3.501581459972822469e-02 1.888511564603436166e-01
7.302575756118268036e-02 1.970719683886330564e-01 -6.404378154872795159e-01 8.094134534041963480e-02 -2.085037001965629744e-01 -9.746664586507657324e-01
-1.070717060277507626e-01 3.065001268994219444e-02 -8.084475655065839206e-01 8.918470974456659262e-01 -4.522489648776653048e-01 -8.923482774164393991e-03
-7.124489354497665940e-03 1.504488541337757057e-01 -7.091908010290420838e-01 7.142618588358951026e-01 1.289632029503834931e-01 -6.878942428143078880e-01
1.179503707242960525e-03 -1.612747007687868050e-01 -9.257218375514415509e-01 8.498318954472340314e-01 -1.898909517872329755e-01 4.916575799373993361e-01
9.697765282869218184e-03 -1.252758215190697966e-01 -9.291455252243571161e-01 6.794836010524363257e-01 1.578327427658056947e-01 7.165129874690595591e-01
-6.361867739990290094e-02 3.275522204571341967e-02 -8.283787994707512148e-01 -1.204951571123562687e-01 -4.484032779232648980e-01 8.856722968796866269e-01
1.977438750947881074e-02 6.560661579879722982e-02 -8.200411392395140497e-01 1.972819771931092619e-02 -6.301644563990748127e-01 7.762110254988693336e-01
3.915636247780426155e-02 -1.689426562442833124e-01 -9.359445807087933833e-01 1.932191007357286772e-01 8.129426595639629993e-02 9.777819907492094620e-01
-2.601861145134927097e-02 4.127807238991446775e-02 -8.333085653039493668e-01 -3.735734627033990285e-02 -7.659218467811382824e-01 6.418474532963488466e-01
-3.018765603608479509e-02 -1.878044182950685537e-01 -9.421630258384336987e-01 3.503824048521690937e-01 -1.473114203005545242e-01 9.249494666299579171e-01
2.722705229051556111e-02 4.220958487171505569e-02 -8.283056700699380492e-01 -2.639111656891291458e-01 -7.733606030145414589e-01 5.764236934144795210e-01
2.525278518764912175e-02 -1.706202642484954957e-01 -9.323506626397809471e-01 -6.856459473194690402e-01 -5.318492800446186219e-01 4.970170804312551427e-01
-1.052636860730310486e-01 4.202547250797764554e-03 -8.344000607803566671e-01 2.031600110657634517e-01 2.614813247326145881e-02 9.787963450442176416e-01
-2.356277710398858860e-02 1.288481470701889897e-01 -7.600415336733504779e-01 9.446073824802623253e-01 -2.924061159917185071e-01 1.490488386215227390e-01
7.263106664588345196e-02 1.844210285899665347e-01 -6.876892984205486004e-01 -6.842608020771890898e-01 2.209979265395823622e-01 6.949439338578955461e-01
-3.065903871996954189e-02 -1.239675162265661962e-01 -9.269906143363439988e-01 2.782384777601262238e-01 -2.685268253375131531e-01 9.222129328782394664e-01
4.485427461031096796e-02 -1.340638368851249651e-01 -9.297158258283536592e-01 -3.046807634967468315e-01 -2.379331124810412090e-01 9.222567247464903417e-01
-8.450997165563108038e-02 -9.991891942426424367e-02 -8.525209884271924832e-01 6.963662338392401230e-02 4.425429525673431619e-01 -8.940394151359680741e-01
-6.345593871613544601e-02 -5.414267610874688025e-02 -8.882351298341347734e-01 3.662325625879438440e-01 -4.083074676941479408e-01 8.361571155742562045e-01
7.432117526129948526e-02 -5.094447236769590603e-02 -8.308116550890691787e-01 -1.499407122060611441e-01 3.515638315764662569e-01 -9.240782732812263811e-01
-1.112161093170763310e-01 1.873916080499941905e-02 -8.171346867240479872e-01 9.245804974205914517e-01 -3.512395416771221246e-01 1.475862058321741055e-01
-5.950754270960994380e-02 -3.342211083739182742e-02 -8.757951697069348285e-01 5.620857026457465322e-01 -7.061607492795646257e-01 4.305771232406121474e-01
-5.386304443235014755e-02 -3.067536537405085584e-02 -8.781749167601688999e-01 5.323152856130807242e-01 -6.001734374765846924e-01 5.970194985510979269e-01
-1.734339424124551124e-02 1.373343354735944433e-01 -7.243798682826148028e-01 8.508592701119310764e-01 4.902222895796418817e-02 -5.231016378607361572e-01
1.073636880688375178e-01 -9.156176924042182252e-02 -8.675295641328810703e-01 -9.770077333338577086e-01 2.121412871496178576e-01 2.125942831640766778e-02
-6.946067376850334138e-03 -1.009703681920778515e-02 -8.758002498161673310e-01 2.652182198881157249e-01 -4.122842909792148181e-01 8.715967870817016294e-01
-9.221296163536790713e-02 -1.058415250162643845e-01 -8.563800650966142403e-01 1.139991597805606605e-01 4.832344357075959995e-01 -8.680372524930525246e-01
-8.971674029449547283e-02 -4.620151511263165256e-02 -8.271424680203424140e-01 2.054437777072875282e-01 3.986169059067880549e-01 -8.938106155817671095e-01
-1.124049815433555109e-02 -6.364737151938480719e-02 -8.930364350405667340e-01 -6.604546052724777905e-01 -3.349559423777062617e-01 6.720150526887310738e-01
1.028469172483189864e-01 -2.564205102959830548e-02 -8.573614302217085203e-01 -7.433011727282636816e-01 -3.301798545317353728e-01 5.817943195685135738e-01
-1.089448639671508900e-01 2.473893478989467459e-02 -8.166113581832027402e-01 9.062632533726425743e-01 -4.010217503728224497e-01 1.336730014413951284e-01
-8.393225843067233247e-04 1.721016718390840916e-01 -7.196629785491559517e-01 7.585318267810419179e-01 -6.509936004767861162e-01 2.892749381619579355e-02
5.718357410099805804e-02 2.060809649350336947e-01 -6.601193086259332654e-01 5.137052924057466941e-01 -7.901890022076516473e-01 -3.342277866132649100e-01
-1.173988846718805740e-01 -4.800220793077050047e-02 -8.385166096068187302e-01 7.995724589079161726e-01 3.045468046951250729e-01 -5.176245035795137284e-01
8.350905513653213152e-02 1.111513899363093805e-02 -7.996613858620030824e-01 -2.768210193788085416e-01 1.835790107259716308e-01 -9.432225983567986694e-01
3.723588758814495858e-02 8.375100695772641490e-02 -7.875989579951663266e-01 -4.226723364913976821e-01 -9.052018695915134971e-01 -4.424557890830668055e-02
6.271264067808132725e-02 -1.085198316874894514e-01 -9.163736260168796610e-01 2.566152969458108113e-01 2.276996999262359891e-02 9.662453714455497833e-01
9.413121501234621158e-02 -1.350459734014117230e-02 -8.588426307421053174e-01 -5.933092433804404431e-01 -4.778227198495523798e-01 6.478191029252731159e-01
9.741975540119667681e-03 6.891012019977688086e-02 -8.188597375507580267e-01 -4.213587224243851015e-01 -6.141105745887263101e-01 6.673267784340699560e-01
4.816365306957338249e-02 -5.589110415642144919e-02 -8.386832918754867361e-01 1.306295421282501756e-01 6.104348709489623159e-01 -7.812203217101355568e-01
4.729902439774662237e-03 1.331873267882030254e-01 -7.728419505724193339e-01 -4.110978478307411033e-01 -5.300048375734952577e-01 7.416828376453277194e-01
9.064372050459827690e-02 1.890629789254339235e-02 -8.416739045008859721e-01 -3.759646841870067369e-01 -3.712663248400549509e-01 8.490064029699205816e-01
-1.097742531155782297e-01 -4.623698713886360834e-02 -8.328104532919085035e-01 2.931896319848313892e-01 4.106026148112636442e-01 -8.633917606780553422e-01
-4.607491585949215207e-02 1.306178008980236720e-02 -8.553127950565314608e-01 -2.547600794041077806e-04 -5.704281535241607637e-01 8.213474640883225986e-01
-1.151739344257803922e-02 -1.301675700790301815e-01 -9.200708189321461505e-01 -6.384388159269773766e-01 3.114070442715715648e-01 7.038618693293468009e-01
3.944110609901240599e-02 1.671142036861495567e-02 -7.929881977762284206e-01 5.599904862422457053e-02 6.640678015203586027e-01 -7.455723047009586990e-01
-7.582180700441523702e-02 3.275356700168060436e-02 -7.851029900496286906e-01 9.666063935905153115e-02 3.021145494348972393e-01 -9.483583288074439732e-01
3.365489932951951091e-03 -1.174397790789242779e-01 -9.229067967683387552e-01 7.445150816749256384e-01 3.111705315270952774e-02 6.668800658001929893e-01
5.124424737881515951e-02 -2.040813978746676069e-02 -8.154971643823599736e-01 1.306387332467167945e-03 4.362942813298920086e-01 -8.998030859198975495e-01
-1.140576887767662806e-01 -7.334513521844618356e-02 -8.648748691008920630e-01 9.196195971461152974e-01 -2.666946198178775027e-02 3.919037335142632195e-01
3.090168754262239553e-02 -1.266253088247451530e-01 -8.769625555366451497e-01 -1.026467768388485309e-02 5.052706526571049128e-01 -8.628998806092796903e-01
4.198342961267934048e-02 1.580018046173800039e-01 -6.922392727628473574e-01 -5.155540520589156905e-01 8.524690007700801431e-01 -8.660613218297084914e-02
-1.012655715741604956e-01 1.508355229204977506e-02 -7.959743376722530073e-01 3.560140620563202463e-01 3.300609866666354697e-01 -8.742503832992041257e-01
-8.704049143144405865e-02 4.882321674044836669e-03 -7.943856243377602766e-01 2.809202632859239546e-01 2.247542466601670785e-01 -9.330430506056983653e-01
7.747964659139115751e-02 2.030389863245324888e-01 -6.773840566318759526e-01 -4.821449308058489147e-01 -6.362533765820460596e-01 6.022606632399031268e-01
8.552973851160571017e-02 -1.206708147517293189e-01 -9.091486604092068324e-01 -5.585712876012246531e-01 -1.583843277868940969e-01 8.141944002380533396e-01
5.110507917287510082e-02 1.828372628933276067e-01 -7.084501056038827738e-01 -6.446603647055869635e-01 -1.889478682423505473e-01 7.407507794557699476e-01
-1.020178833912549488e-01 -1.013489904887470913e-02 -8.533768566864984306e-01 5.761411892713045324e-01 -3.726588436761901213e-01 7.274522089147653636e-01
5.264678675237881994e-02 -1.922392030556364095e-01 -9.031144973531894937e-01 -6.310079698399947423e-01 2.972256239077611384e-01 -7.165792841626461573e-01
7.488495305122286338e-02 2.103992541154243445e-01 -6.512462864112223970e-01 1.172687715033564337e-01 -9.356095557544450436e-01 -3.329906821685307272e-01
-6.459574667798900771e-02 -1.666528863765752086e-04 -7.965204150332069188e-01 -1.318248048571651621e-01 6.305589515300377146e-01 -7.648644516969720364e-01
1.100050684385052852e-01 -6.209345766253902138e-02 -8.497488766820531225e-01 -7.432454558352695750e-01 3.064677864335484947e-01 -5.946962991802985377e-01
1.071315989495258761e-02 1.767062484860610905e-01 -6.892704024932819751e-01 7.737680525906709406e-01 -2.754139256896342425e-01 -5.704648721229601538e-01
7.290161437841184700e-02 -5.292779030008464697e-02 -8.847152645018704353e-01 -6.640452126947302691e-01 -6.470375474715344133e-01 3.746816884493182620e-01
-6.199512022295640412e-02 6.329226966289561683e-03 -7.916413505876005452e-01 -1.093367872188358847e-01 5.895730971963831779e-01 -8.002805945560138579e-01
9.544358849051527705e-02 -1.011095380498870239e-01 -8.626763596335568218e-01 4.335339639306348691e-02 6.631150671553165399e-01 -7.472609254689996927e-01
-1.113726804657755483e-02 1.304040031492536833e-01 -7.210149117266198004e-01 5.167065906646839402e-01 4.755666577582273180e-01 -7.119344444486076506e-01
6.874751820042569739e-02 -1.742969105953338094e-01 -9.089931484065305600e-01 -8.579660134084258205e-01 5.082526629138914842e-01 7.465621526029277144e-02
-5.520232790786541027e-02 -1.280750919273161426e-01 -9.190394628071901773e-01 4.015147795558028920e-01 -2.726806292630132855e-01 8.743175374101689323e-01
7.425280982047968714e-02 -1.521928030045531233e-01 -8.856732433091697443e-01 -1.971267595339926681e-01 6.374831242169372025e-01 -7.448196473068096068e-01
3.154499483794594161e-02 -2.144148181614333737e-01 -9.321348250716173789e-01 -6.410695985024095211e-01 6.004356085185026393e-01 4.780239009704169706e-01
-4.751308012234765205e-02 -1.499787859836982928e-01 -9.280918823478266910e-01 3.186601285023453189e-01 -1.943408445178982091e-01 9.277323744781891257e-01
-1.043538958957478113e-02 8.785384015005134536e-03 -7.903124575976052668e-01 2.400482082513907545e-01 4.992683652475730094e-01 -8.325310547831311636e-01
1.391681307966504723e-02 -1.461159789730585301e-01 -9.243565324109083159e-01 5.836559554703478758e-01 1.079838657839850280e-02 8.119292583047481582e-01
-5.188905438897770811e-02 -3.533789345442717861e-02 -8.831694411706040304e-01 4.634745077573909078e-01 -5.159392288725471731e-01 7.204152224720445918e-01
-6.194236085401195330e-03 1.243136419423222644e-01 -7.830548843292113315e-01 -8.784982282043582447e-02 -6.393922494406891754e-01 7.638455079304933282e-01
1.069153639025434248e-02 -4.472838832699094214e-02 -8.972373483643241165e-01 1.162045887858262766e-01 -4.309434563218431657e-01 8.948654820689534439e-01
-4.862091314929727071e-02 -1.974373036626198286e-01 -8.939456059036933189e-01 6.195421227294015815e-02 5.769666761223934959e-01 -8.144145935737624464e-01
-6.957753501900272586e-02 -7.861280537160941773e-02 -8.962983328495298663e-01 3.070143593915641844e-01 -3.408048753306321954e-01 8.885911433714942520e-01
-6.018229052214909419e-02 -2.585993777768848256e-02 -8.138763515953156835e-01 4.215453223849704306e-02 4.840076339486028001e-01 -8.740478280341579254e-01
-3.308052746103661013e-02 7.730087112602571087e-02 -7.688443367449552257e-01 3.655633434995975706e-01 1.546457089938639562e-01 -9.178497407414681897e-01
-9.660904717128665498e-02 -1.314368193092423087e-01 -8.945595904794958475e-01 6.986786812880499964e-01 1.721018764000257009e-02 7.152285716852953001e-01
1.893060921688893838e-02 1.557189532733669612e-01 -7.490826794198384153e-01 -6.413932318991363291e-01 -3.201871013903804797e-01 6.972050933385433025e-01
-9.296286543320346485e-02 -1.490066178998112334e-01 -8.936285767439831051e-01 8.591332719502735582e-01 3.331648731916800332e-01 3.884471499434496988e-01
-5.669810946786333489e-02 -1.074716866340514609e-01 -9.043600261905854198e-01 7.015527718786896960e-01 -5.869745278221476514e-01 4.040849068664827404e-01
-3.866727651977169139e-02 -5.128348383862919857e-02 -8.283667009861803709e-01 -2.675811245660140655e-02 5.662483575011472148e-01 -8.238002191338702485e-01
3.532205563966904494e-02 -3.502222154769785156e-02 -8.899472109076409509e-01 -1.916810817085943253e-01 -5.757506320389434995e-01 7.948393376159612611e-01
-1.047472845866187635e-01 -6.514885784446163008e-02 -8.713238006812236147e-01 -8.427601956594183916e-03 1.822728763089906390e-01 9.832118663275521975e-01
-3.680276311980237164e-02 -1.034047251970078990e-01 -8.503146204074135683e-01 -2.175388978722991307e-01 5.649151158127893035e-01 -7.959571218594180264e-01
6.032737892131627422e-02 1.744304560517586922e-01 -6.536852640501049638e-01 1.980065221821380728e-01 8.210411175677538864e-01 -5.354296409766908793e-01
-3.000253553213519733e-02 -2.140371499590680571e-01 -9.408491398869092137e-01 4.068935446195434125e-01 2.682678365943696464e-01 8.731952881205440331e-01
8.417387032716808215e-02 2.020862377865198234e-01 -6.720419996638270499e-01 -6.413629760058819906e-01 -5.320127769246184579e-01 5.528254138494672620e-01
-8.016410167703946765e-02 -3.849186445596544659e-02 -8.216368324268638057e-01 1.610699629381818765e-01 4.147911749017261229e-01 -8.955471781334239934e-01
-6.438496268788092280e-02 -1.923528380709001173e-01 -9.158955890122996157e-01 6.643426959725740044e-01 4.712707952116477195e-01 5.801315539500272456e-01
-8.261536553776920033e-02 -6.101072738336785900e-02 -8.818023959421578128e-01 5.129426616073706757e-01 -4.823592705686056137e-01 7.100840513627024730e-01
6.674102087676500074e-03 1.337912051574912387e-01 -7.711389653821414392e-01 -5.056853599176875935e-01 -4.890778466793997969e-01 7.106934477342256029e-01
1.547914723438101152e-02 7.358681872117057987e-02 -8.126563629914613784e-01 -7.746404752347504918e-02 -7.294869223454474305e-01 6.795941078822329562e-01
5.872595809657748384e-02 -2.182280584812704496e-02 -8.760805382786831519e-01 4.959551729644409712e-01 4.129873695159214098e-01 7.638520138286807315e-01
3.196782135985663104e-02 -1.901127378697468617e-01 -8.943294646952368865e-01 9.423897666283279073e-03 3.451177002386460746e-01 -9.385121006863809123e-01
-2.339555320388759033e-02 -4.182912488384656069e-02 -8.215349763422254981e-01 -4.830125437631543200e-02 6.397887083548153830e-01 -7.670315492125154844e-01
-7.895156493916184390e-03 1.442469209672345432e-01 -7.116429298661933744e-01 6.728496644579552433e-01 2.269968834181754491e-01 -7.040921416670209432e-01
-9.145810652934013157e-03 6.447421706995032017e-03 -7.913507241924174762e-01 2.176891855758341932e-01 5.047833899569823535e-01 -8.353473216015402381e-01
6.339376215129420566e-02 3.116273149512520033e-02 -8.364477519407278461e-01 3.623064841013400872e-01 -1.030369596648799020e-02 9.320020629953322810e-01
7.278723944351953024e-02 -1.068352711397787397e-02 -8.712414150048413131e-01 -3.411579749591486799e-01 -5.780422968915841508e-01 7.412680615850614219e-01
-2.882376081476469357e-02 -5.906365767474055367e-02 -9.017571954036799342e-01 -1.256290252991143774e-01 1.708185872480880510e-02 9.919302183646288018e-01
-7.912161167712948584e-02 -1.737381649840998021e-01 -9.002025007622641573e-01 8.642420487832052078e-01 5.022980246413248917e-01 -2.797097703747489228e-02
2.211566835802293574e-02 1.927299409741784209e-01 -7.015685301045229139e-01 4.994204808795770223e-01 -8.573757226990037505e-01 1.244429724989447178e-01
-1.173590081097334731e-01 -6.400335177340894799e-02 -8.513919978840819303e-01 9.730579678564474921e-01 1.993317428770920163e-02 2.296973220433712881e-01
2.638616155604363300e-02 -1.053259210884307656e-01 -8.636897750147018993e-01 -4.131605026874316661e-02 5.587937819314319210e-01 -8.282768216393344707e-01
-2.537717767363162347e-02 -1.251232180229937263e-01 -9.288521369387479076e-01 2.122494835021124238e-01 -2.426085515622393163e-01 9.466209629318161900e-01
-3.740849522181500381e-02 4.910239562696663146e-02 -8.235526389129393943e-01 -7.739933907986824846e-02 2.642839043159982415e-01 9.613341563834566506e-01
-4.705314249180007902e-02 -1.552524488574198447e-01 -8.826809625130829229e-01 -4.296075279216178544e-02 4.487100115997896821e-01 -8.926442175971607274e-01
-5.083477016878933108e-02 6.575591636524130701e-02 -7.745223925560678069e-01 1.308429788992217235e-01 1.485550964878504798e-01 -9.802099255671018474e-01
5.059294144396762893e-02 -5.251596158433512185e-02 -8.355991972494719588e-01 1.671896061162801983e-01 6.358528243759070664e-01 -7.534844532834534814e-01
