-5.073101157438491410e-02 -6.790187832502499188e-02 -8.433517682979373431e-01 -3.798987730182977751e-01 -4.280782866507178430e-01 8.200157942121466537e-01
-1.679653107506974552e-02 1.445305201050830490e-01 -7.012873927677857333e-01 9.010674482191400880e-01 3.179759483208268733e-01 -2.949046456896161073e-01
8.417481744051099474e-03 9.444374999775191626e-02 -7.522504849446759456e-01 -3.314593447516039210e-02 -4.562755312736203606e-01 8.892209998581589447e-01
3.719833740272941724e-02 3.097714835279000156e-02 -7.761109240793222508e-01 -2.615517957174376407e-01 -3.492771546167062202e-01 8.997755983687495407e-01
5.854650569330970000e-02 -1.911152415558611817e-01 -8.494373597155364664e-01 -3.917544807264148332e-01 7.703026819512477363e-01 -5.031522682145952441e-01
1.094150575681916314e-03 9.433530761129460540e-03 -7.995698447423056354e-01 1.068314911724429911e-01 -4.763581209009926654e-01 8.727370584234106499e-01
2.895001869233681732e-02 -1.216044902705920444e-01 -7.927379704922010717e-01 -4.493238324527444871e-01 1.281778042248027938e-01 -8.841258643960634434e-01
-7.182939219924265595e-02 -1.388764739722124497e-01 -8.477546047161993448e-01 1.479157010958546403e-01 8.358178718988493738e-01 -5.287054287444008516e-01
-2.932082149156477538e-02 -7.190562894131362348e-02 -7.716508647567856816e-01 2.760540264512626463e-01 3.699169130379333370e-01 -8.871052090527545841e-01
6.393127481222987685e-02 6.630276094910117490e-02 -7.367977243292010980e-01 -3.857137006343939190e-01 -7.091458936928090040e-01 5.902008493737943562e-01
9.702594010369856858e-02 -1.050510185586685102e-01 -7.896300869129966316e-01 -6.075887008137228484e-01 1.891594345557300882e-01 -7.713978733196306115e-01
4.724532075566030553e-02 -1.680371048432366399e-01 -8.214299144288408350e-01 -1.328788117444696659e-01 6.330295281980407029e-01 -7.626380778709804797e-01
-2.794723800083016851e-02 5.251139593033566505e-02 -7.822385191268940163e-01 -7.592456317256641996e-02 -6.920556040393076591e-01 7.178401643993210790e-01
-5.248689283389599419e-02 8.030611518794754378e-02 -7.598786311772967039e-01 2.556620446734446661e-01 -9.314613889016384318e-01 2.588756456270548956e-01
-5.972135479199354446e-02 6.628037551032908703e-02 -7.772202615731300668e-01 -1.492883152898603072e-01 -6.002436969681124168e-01 7.857610980240548049e-01
8.606268205387357373e-02 -9.784782691886465336e-03 -7.777034950202040831e-01 -2.684847570862309296e-01 -2.922876610035756717e-01 9.178691946227449661e-01
9.587518430707363259e-02 -1.507582597761692941e-02 -7.759357578040763093e-01 -3.458847954196599406e-01 -2.288353422672484427e-01 9.099440062041902477e-01
3.314984538916581486e-02 -1.170825430991589283e-01 -7.942131489157310265e-01 -3.321718060231186320e-01 2.734118406408095892e-01 -9.027224693563045133e-01
-1.500219912886080996e-02 -1.554082566702838231e-01 -8.349781531231366127e-01 -4.553285837472904052e-01 7.982173887677483926e-01 -3.943664299753266156e-01
-1.283316097386725911e-02 -1.498866246554389214e-01 -8.240764068771602169e-01 -5.849067024869779585e-01 7.428335071997496097e-01 -3.257031316507859597e-01
5.621751140383941803e-02 -5.777636469545837511e-02 -7.571105087883200913e-01 5.751477194240397495e-01 8.150789602485982721e-01 -6.965191599223910512e-02
-3.910959775027515739e-02 -1.177661116169168853e-01 -8.652532654846237792e-01 -4.557243587711344301e-01 -3.471184708723349943e-01 8.196487516014956398e-01
-2.454881352700810995e-02 -2.110095716292860468e-01 -8.759587241652623257e-01 4.727910505251030071e-01 7.956807186307908175e-01 -3.786301844049915766e-01
2.464936967973351684e-02 9.776728651874311282e-02 -7.128322604529981898e-01 -9.034910109704498149e-01 1.848921332162860032e-01 -3.866767282502603931e-01
-4.710076071656400104e-02 -1.863640895245506357e-01 -8.688483434229506974e-01 1.383493045850088532e-01 9.085331684295885335e-01 -3.942422501256525047e-01
-3.586402845758027841e-02 5.678203797280906989e-02 -7.318072500792900392e-01 3.293699994364807093e-01 8.425316093021467667e-02 -9.404343721623958929e-01
1.533891941373417660e-02 -1.720287405642605683e-01 -8.993562759081989988e-01 -3.899297701740483957e-01 -5.047948377074236159e-01 7.701538457710574992e-01
1.461170617244227955e-02 -5.261216242937332560e-02 -8.226483579064685081e-01 -4.695548649898597104e-01 -4.085928697976390356e-01 7.826685732255284078e-01
2.900819882628853999e-02 5.193001908864976895e-02 -7.702293682997644053e-01 -4.223081341245539244e-01 -5.568787376866921601e-01 7.152215820042864269e-01
-9.519642600804583202e-03 2.279516878823877601e-01 -7.227183883884938931e-01 -8.023274418002126485e-01 -4.919008183475179763e-01 3.380891318030919135e-01
3.650809601865018933e-02 -1.361870839534363720e-01 -8.565786425759372991e-01 -2.855646226995283143e-01 -4.905114381177015925e-01 8.233172993070049239e-01
8.748937806653145355e-02 5.052374973208267894e-02 -7.315439709894273612e-01 -7.614112001397000951e-01 -5.961522854009333461e-01 -2.546673063293863337e-01
5.778066459582155423e-02 -7.496513341386738805e-02 -8.195880823823111783e-01 -2.743549169414903899e-01 -5.000802906244351531e-01 8.213702468917464250e-01
5.653899700519943172e-02 -1.379012734434366394e-02 -7.292377950593754710e-01 1.209216436746455986e-01 1.146426539393914923e-01 -9.860197857998361792e-01
2.455891707321873271e-02 -7.904121314488397887e-02 -7.598835816261445553e-01 1.123595794815875591e-02 4.037829648051829978e-01 -9.147858058486280086e-01
1.690778412737597991e-02 1.471206595614055757e-01 -7.299721061091636320e-01 -3.997643982927042705e-01 -8.818807278581776432e-02 9.123657652915280192e-01
9.447097114741571933e-02 -9.041190013083300059e-02 -7.804815464292509386e-01 5.521193241935978824e-01 8.204131422611238289e-01 -1.486153688460031541e-01
4.113370461253508525e-02 4.823689785694795090e-02 -7.137490860468417297e-01 1.348029679178241458e-01 8.813380108851419370e-02 -9.869450810183089118e-01
1.100598454915175384e-01 -9.884181469564808087e-02 -7.989799035016674766e-01 -8.184229917549014077e-01 5.054314539221228531e-01 -2.733548096396434812e-01
-5.720520419285475555e-02 2.540049764903966611e-01 -7.106934476469198847e-01 4.142996844739627038e-01 -2.102693401153414576e-01 -8.855182528057984337e-01
-9.864883659818855788e-02 2.774548110878093457e-02 -7.850759264229357770e-01 9.494101841537920805e-01 -2.129372668172048733e-01 -2.308203254167220386e-01
1.095696490749425468e-02 -2.202648982712035186e-01 -8.729357399298907083e-01 3.325536187499877894e-01 8.188950576262488124e-01 -4.677809051806097740e-01
5.990799359422856879e-02 7.045990662943243943e-02 -7.224008772144769885e-01 -4.846523610218007594e-01 -7.343541705056583213e-01 -4.752220967262999474e-01
1.139814235433598832e-01 -6.308314974863414581e-02 -7.730085927077360308e-01 -8.636000580717511088e-01 3.275231408620971618e-01 -3.833060551286596729e-01
-6.551649806718359836e-02 -8.800010278441548761e-02 -8.596230587252779998e-01 -1.941025561051657189e-01 -4.717480620220629306e-01 8.601034610393500923e-01
1.117296496689255542e-01 -8.223423161172445373e-02 -7.842630191311418253e-01 -9.045710973663408927e-01 2.746247222889461326e-01 -3.260864788935182723e-01
-1.061122012957764899e-01 -4.934931534179271689e-02 -8.409253632926351196e-01 8.431666412525232746e-01 -1.503372408230331525e-01 5.162060916927038168e-01
-7.738514695342717242e-02 -1.239461352676485134e-01 -8.803485074261098164e-01 3.126551331012104584e-01 -3.134920922159155077e-01 8.966434496852984104e-01
3.890367505553276456e-02 4.528098390102658355e-02 -7.699750268602567616e-01 -3.613284696599206036e-01 -6.000230448507818393e-01 7.137325007740760174e-01
-7.344521524365230092e-02 -1.747722709013406137e-02 -7.697924850820200282e-01 5.136345490022410365e-01 1.653669145591298850e-01 -8.419224035743781975e-01
-2.975494951769842161e-03 1.162963580657162821e-01 -6.963632625483198169e-01 4.202247550556109101e-01 2.406564013959241466e-01 -8.749260835668438707e-01
9.459398993457895921e-02 4.149563638634470863e-02 -7.369149974811635140e-01 -8.178660174771181790e-01 -5.754048908407577434e-01 2.095006599902675664e-03
-5.077035914205677708e-02 -7.794771203824543866e-03 -8.185761267456441725e-01 -2.398692163826758872e-01 -4.895068155210525740e-01 8.383590141403617357e-01
9.429673529472135107e-02 -2.195758753099947766e-02 -7.428419528411486228e-01 -2.083282346641467664e-01 6.481742372505736594e-01 -7.324407858703373408e-01
1.992707392450253964e-03 -1.952666732066013152e-04 -8.044143391939380106e-01 3.496993476305969295e-02 -4.196684403041353595e-01 9.070035853707315576e-01
6.619969681527525240e-02 6.801594816952787059e-02 -7.313301020511315809e-01 -4.979703666622266045e-01 -8.421910699451570226e-01 2.067358595670314991e-01
4.741374108368807266e-02 -1.512145635975516988e-01 -8.090799246682418566e-01 -1.707294935468903763e-01 4.858535590771902446e-01 -8.572034526092678908e-01
1.589476993243720687e-02 6.520670824025870393e-02 -7.117933503342246393e-01 -6.473064479262612414e-01 2.645619283993651538e-01 -7.148435832506966348e-01
-9.231003584130145767e-02 -1.056207288779337089e-01 -8.690157955845521087e-01 4.665647102074786390e-01 -2.130912693975287597e-01 8.584343201990246586e-01
-3.733151805415863000e-02 -8.697277247293156224e-03 -7.528018719364423239e-01 2.702412927017963651e-01 2.839292832808880118e-01 -9.199748941218252041e-01
7.268193591666896602e-02 -2.624155846669735948e-02 -7.313700715847555323e-01 -1.268013223624160357e-01 3.305462835095536178e-01 -9.352329009958773032e-01
2.420900012894135894e-02 2.837847690824619323e-02 -7.241513793280395239e-01 3.139673803139871877e-01 7.329354058795366500e-01 -6.035148506101326582e-01
-9.468645575656189917e-02 2.893495512235845848e-02 -8.056967038114605240e-01 3.859324482489227548e-01 -5.797747790507415955e-01 7.175774180987416484e-01
-3.962348094848619495e-02 2.285468469092779564e-01 -6.994487923631090842e-01 3.051041143249553778e-01 -1.497796129458737191e-01 -9.404666644638548512e-01
1.442333220752101824e-02 1.100317906039061100e-01 -6.965215863397358209e-01 -3.795198414121463970e-01 1.933545791424687021e-01 -9.047533899904094401e-01
1.826501069890641704e-02 -2.295969170801711035e-01 -8.978300237836923658e-01 -1.370599058657915037e-01 9.800729798804730386e-01 -1.437759935186349036e-01
2.514961607663468782e-02 1.837734553381254604e-02 -7.862018449654796237e-01 -4.122035521469384345e-01 -3.746992671437489597e-01 8.304749790327120573e-01
1.672950137550062791e-02 3.099086512532858717e-02 -7.239773653897113581e-01 -2.272097833925283139e-01 5.350621841585224692e-01 -8.136855494687316170e-01
4.348977584884202580e-02 -1.994969337350345207e-01 -8.924652184879078298e-01 -6.340349908420236380e-01 -1.729250906076271188e-01 7.537217944482561549e-01
7.211584384466308839e-02 -1.795289987005235788e-01 -8.633245677776637539e-01 -8.355402510883681577e-01 5.655817594342792826e-02 5.465104404722191944e-01
6.925440056448456394e-02 -1.954819460641370882e-02 -7.298178624243855106e-01 -1.327654919651348742e-01 3.860202299349084487e-02 -9.903954805854404686e-01
-1.880078585163993940e-05 1.226644122594639369e-01 -7.362889380990814692e-01 4.231478537031849174e-01 -3.816283580432811018e-01 8.217698523574451519e-01
-4.698815700007490798e-02 -3.927042803221335310e-02 -7.772308249846751060e-01 1.188810486452960141e-01 6.395655047079535915e-01 -7.594888158891182073e-01
3.603496683310733473e-02 -7.730659440590964548e-02 -8.324487783969167776e-01 -2.660265349446425676e-01 -4.892196708975272701e-01 8.305985771190932399e-01
2.405891063957520115e-03 -1.429052418897330534e-01 -8.798409816396761673e-01 6.187994000905493175e-02 -5.394305503384118072e-01 8.397532699466395689e-01
-3.387637068567362492e-02 1.231656839416474941e-02 -8.016085082579936794e-01 -2.690942778510554412e-01 -4.308283224304150782e-01 8.613798385263107260e-01
-6.092083166901440805e-02 4.633171296418865659e-02 -7.929143062324158775e-01 -1.256147221386622603e-01 -6.795173532976719333e-01 7.228257799424102625e-01
1.107416779999556983e-01 -5.021835376833660991e-02 -7.596048826189653047e-01 -7.002094029438455935e-01 3.291480471312596690e-01 -6.335363881409664666e-01
2.804685546305660943e-02 -1.826511377044345852e-01 -8.448717114668319317e-01 5.182150088333968840e-01 6.525856610717295503e-01 -5.527975755946985537e-01
-7.960152929568888036e-02 6.110570112127371167e-02 -7.700937015457819390e-01 7.905873652075473546e-01 -5.761148195581036191e-01 -2.075170659481335445e-01
-1.720224679167531301e-02 -2.006059931322222434e-01 -9.117788445129280106e-01 3.944864367132200900e-01 -1.319862843722266199e-01 9.093734502320376389e-01
-8.996709128385564636e-02 -1.297584248156455899e-01 -8.648304524688908979e-01 8.940303868167858159e-01 4.448043190472371067e-01 5.346760893430912293e-02
-9.580271250968688812e-02 -8.936538433278073956e-02 -8.637607308481677348e-01 4.322428323206035095e-01 -1.088718027836740876e-01 8.951609154035353733e-01
-6.398377043501792677e-03 2.024970919878097131e-01 -7.309741291433545785e-01 -3.055212013747268252e-01 -1.028285258947266301e-01 9.466166540753764291e-01
3.015301817189138152e-03 1.150510683451504423e-01 -6.945131434717568553e-01 2.388464880668463575e-01 2.452944248669289284e-01 -9.395653251729420008e-01
-6.521781332446269230e-02 2.708341123881203849e-01 -7.320061227210469257e-01 6.682641325183611425e-01 -7.438210337856776544e-01 -1.238220042998218300e-02
3.623954358269525569e-03 -1.297398431853690748e-01 -8.719885591647859036e-01 1.732870616651723539e-01 -5.161220585014362205e-01 8.388024886632673427e-01
-4.701304785218766991e-02 -1.485163444376728648e-01 -8.849846347395726731e-01 -1.902169258953241293e-01 -5.899455919422443850e-01 7.847176050343510623e-01
-3.554967324881922602e-02 -1.030128508339162030e-01 -8.572696257433007894e-01 -4.933755686529943119e-01 -3.029308572104887909e-01 8.153609286727278027e-01
1.087415073094289385e-02 -1.638588864699906944e-01 -8.315819498602198268e-01 7.661592855616229381e-01 6.300925367537077992e-01 -1.264252517299491729e-01
1.242698984012032860e-02 -1.351229553605682865e-01 -8.722335191208426819e-01 -5.362461191849746678e-01 -4.815246637425976139e-01 6.932345186635128220e-01
-7.517394136749425138e-02 -9.437533728152439072e-03 -7.693001993331414212e-01 5.327795046202127294e-01 1.628435230265312395e-01 -8.304384302673788465e-01
-6.791418753464847913e-02 -5.348449170104801337e-02 -7.940999831037153234e-01 5.950042583783704542e-01 1.005333701996625750e-01 -7.974101667196770160e-01
6.663332346078992829e-02 -1.443395270279387854e-01 -8.095906907596603919e-01 6.687442182792374679e-01 7.214626325936563944e-01 -1.796464313286589010e-01
-6.112629591015982661e-02 4.914747515671108458e-02 -7.437163797869663640e-01 5.265148842273651431e-01 1.222064600493633600e-02 -8.500780743545067741e-01
-2.500617656078041318e-02 8.075569104718356706e-02 -7.582677235797181670e-01 -5.358047884307090558e-02 -6.478981581878303642e-01 7.598401864232798841e-01
-1.723697399313857057e-02 2.518622082617057167e-02 -7.365867388709258501e-01 7.814670906954312990e-01 3.458463295956633599e-01 -5.193260078844754712e-01
-8.282967424415500768e-02 -4.548016385391334682e-02 -8.472757835243547309e-01 1.556928112165838485e-01 -5.505038812561310335e-01 8.201860918458766525e-01
-1.272528444801257486e-02 1.143101072016523834e-01 -7.174674202615651808e-01 9.908898286770889685e-01 -2.056602734370373969e-02 1.330954016620688185e-01
1.791465869429070823e-02 1.215362691044171856e-01 -6.965890509600000113e-01 -5.901520885006154016e-01 1.096771617765876922e-01 -7.998071221382027085e-01
-6.051122896482395708e-02 -8.266495791647043845e-02 -8.552575006163877225e-01 -3.045440346346529048e-01 -4.432809142948218040e-01 8.430628458130472458e-01
2.725753470520258376e-02 1.159896724125794309e-01 -7.153272813906864647e-01 -9.828845855831591649e-01 2.225783981474679582e-02 -1.828728519759085513e-01
9.138282191071632476e-02 -5.694308812381792401e-02 -7.506360741353158561e-01 -3.126571107992162646e-01 4.709768960000657034e-01 -8.248795636338858150e-01
1.979798596865612464e-02 1.500691711661723271e-01 -6.998006048908622656e-01 -7.657319141314796740e-01 -1.387109112347869599e-01 -6.280238202369041733e-01
-3.033509967103790810e-04 1.389042401346207156e-01 -7.307083564837421052e-01 4.888737231041871412e-01 -1.935780694504880273e-01 8.506056747318775368e-01
6.283398919724203502e-02 -7.011927751300632214e-03 -7.303732718687422354e-01 -1.724705598537127071e-01 -2.349913731088459634e-01 -9.565735520848179796e-01
8.739893958287645037e-02 -6.737210589403287708e-02 -8.078686679479130106e-01 -1.853217828379502830e-01 -3.382180838207323181e-01 9.226398888962017431e-01
7.370682756546240166e-02 -4.924094536910653130e-02 -8.030044649880730967e-01 -9.705414746246472657e-02 -3.138201761538099710e-01 9.445090732751729723e-01
-8.087637338859066105e-02 -4.443680074499074123e-02 -8.469462722800730203e-01 1.556928112165838485e-01 -5.505038812561310335e-01 8.201860918458766525e-01
-2.906845407517682361e-02 2.536111580837817625e-01 -7.342496497709696257e-01 -8.281261577671816809e-01 -5.029700797381565502e-01 2.474432575560657765e-01
-8.860543198071398063e-02 4.110029651599172995e-02 -7.686641630645734136e-01 8.449145642682294177e-01 -2.486139475823676281e-01 -4.736142778199785575e-01
6.832229369847578337e-02 3.722515235283435642e-02 -7.141706794981289574e-01 -1.999130740087639302e-01 3.574157339465491162e-02 -9.791615304798493291e-01
1.044786449226711711e-01 -3.161156166881061436e-02 -7.761925405062957140e-01 -4.236575024782837096e-01 -3.258748158097825587e-01 8.451744938264543761e-01
4.577979195467992736e-03 6.667028891847376348e-02 -7.060541184983071261e-01 -1.464401210904901426e-02 2.738874813230179339e-01 -9.616502485227587105e-01
-3.938385826562208758e-02 -1.224558213203877019e-02 -8.181145473756284980e-01 -2.325656990089307319e-01 -4.481691514941482102e-01 8.631671954456464624e-01
2.309773099014922684e-02 -1.695465920330422593e-01 -8.917679184413968008e-01 -5.402716347166505173e-01 -5.244013773734591544e-01 6.581107476173115867e-01
4.407550365370265649e-02 -1.194492405104769783e-01 -7.905793010962908207e-01 6.365571337134295904e-01 7.670913032982975555e-01 -7.978689066921983153e-02
4.084565155410836804e-05 -1.069285686684490616e-01 -8.564696618017549890e-01 2.858390004692308306e-01 -5.116715485676588404e-01 8.102396510891854975e-01
-2.640480213278633206e-03 -1.061440255921430355e-02 -8.086188405788655720e-01 8.036813650378872576e-02 -3.726647111044574245e-01 9.244792997857441685e-01
3.775874315245678070e-02 8.577251108674542601e-02 -7.227461860586510412e-01 -5.244447182655542772e-01 -7.133657902271720586e-01 -4.648300622990363395e-01
-1.830424867871811162e-02 1.943929054683274718e-02 -7.942862398466166152e-01 -1.283679232085520872e-01 -4.412227871193138418e-01 8.881689751493168083e-01
5.963929819223286188e-02 -3.945967239300095242e-02 -7.373874703433220823e-01 9.032286376235125480e-02 4.029003713514447416e-01 -9.107760817273561349e-01
2.717051897625280543e-02 -2.258578196985059350e-01 -8.902029398635434854e-01 -4.010060657529297967e-01 9.112448763900744542e-01 -9.395163906071682391e-02
5.825990353761378859e-02 -1.750899165066928664e-01 -8.785958626125875970e-01 -6.822504813301351057e-01 -5.681145800227607179e-01 4.601957243286394217e-01
2.604382043426691287e-02 3.894733170640452685e-02 -7.772160401326582146e-01 -4.060725571653458488e-01 -2.978933936697608642e-01 8.639239574899573171e-01
1.095362069559637913e-01 -5.828239344553421547e-02 -7.860021291928396270e-01 -6.224716869850840384e-01 -4.388972294863262569e-01 6.479955407648810839e-01
-3.707298904524494731e-02 8.206170243565659439e-02 -7.373779149232279062e-01 4.981202865729551510e-01 -5.024000272669436606e-01 -7.067321930594722135e-01
-4.948173421919080384e-02 1.039953115156036847e-02 -7.536877729725188768e-01 4.237396671182674934e-01 2.232247295569870366e-02 -9.055089186262285095e-01
-7.170709347371451159e-02 2.533936568456671146e-01 -7.345194936376394645e-01 9.591185488532435466e-01 1.274121278840427696e-01 2.527009278053972685e-01
-9.623722523588335021e-02 4.192262685662311310e-04 -7.874854121400640672e-01 5.029035747974062165e-01 6.948231372266314709e-01 -5.141097182805743904e-01
-9.180317149280023403e-02 -3.338714482725192289e-03 -8.239138415860297604e-01 -7.658170386123328011e-02 -2.697441967844270150e-01 9.598819255173183240e-01
1.092270931525297639e-01 -1.057746120033791620e-01 -8.122015300427714024e-01 -9.259434657159230087e-01 7.805797267461074551e-02 3.695073087232714770e-01
-8.816271418270325150e-03 4.997456301901017500e-02 -7.151887469806084141e-01 6.507390646237811715e-01 1.942529299637297258e-01 -7.340330162690728022e-01
-1.217497174806566815e-02 -1.048010936680805194e-01 -7.920299181647449949e-01 -6.067931821816882065e-01 1.927667935484991268e-01 -7.711309858661179462e-01
-6.135483931939227781e-02 2.417801841332676838e-01 -7.137778948535573598e-01 7.507148651101489545e-01 1.705762081425412635e-01 -6.382248416650384559e-01
-4.222990658901865091e-02 -8.158775741087777311e-02 -8.482081333575617332e-01 -6.640850417200602762e-02 -6.877546421723622627e-01 7.228993448219487306e-01
9.390554397779593554e-02 -1.162816910354952799e-01 -7.928046423636512241e-01 -4.807957170271068836e-01 4.513007007416027783e-01 -7.517733408405278261e-01
-5.675367184831518058e-02 2.372422067763773068e-01 -7.097331164855368302e-01 7.242931341893167341e-01 1.851798362842916046e-01 -6.641595320402615688e-01
-2.506036606984774623e-02 -1.141774060290836751e-01 -8.574319000408135993e-01 -2.262092770601472069e-01 -4.411574052285447411e-01 8.684523629905921416e-01
-3.258970263597149586e-02 3.490423623971937450e-02 -7.373101937533155237e-01 2.013977239263115282e-01 6.309740585736226537e-01 -7.492067099301980004e-01
6.868052426098437274e-03 -1.916116019178731311e-01 -8.452799351218384105e-01 4.538455619916665351e-01 5.435635973214156813e-01 -7.060898112332950616e-01
2.472408691863277677e-02 1.130717634755942780e-01 -7.075188563068824932e-01 -8.980211895236858144e-01 1.027575988183353911e-01 -4.277836124158502784e-01
5.089889817818022549e-02 1.795518311383938236e-03 -7.843046525580644746e-01 -2.854765159184945444e-01 -3.806337447026638121e-01 8.795573382404724416e-01
3.939758950948454852e-02 -2.166309224490595153e-01 -8.958263386586132748e-01 -8.202828755571095476e-01 5.095199426320736746e-01 2.598565606790946281e-01
-7.435230677096842100e-02 -1.184503998229773924e-01 -8.785345227669104640e-01 4.926476772728397013e-02 -4.938569382521749151e-01 8.681464779638078388e-01
-3.106393028978158763e-02 3.041187332485089170e-02 -7.440733037568284525e-01 2.340097696478724842e-01 7.974282567204742378e-01 -5.561902579990909423e-01
4.780547768635671178e-03 1.382527091674273269e-02 -7.281450835725336024e-01 -4.909969667387696912e-01 4.373999734858866617e-01 -7.533944795708772402e-01
-9.308675439249594619e-02 -1.061769681106398272e-01 -8.376562258634424607e-01 8.274387490070276296e-01 3.615849925950055388e-01 -4.296526617766435185e-01
5.382034936347705051e-02 -6.684395053701698564e-02 -7.626002830205738103e-01 -4.241987609401695059e-01 -1.396131393242139307e-01 -8.947421877529092571e-01
-5.773507772311840813e-02 2.691639776298283548e-01 -7.181450490472373049e-01 1.756381545276577139e-01 -6.449082661248347614e-01 -7.438041186750569134e-01
-3.667390886366515834e-02 -8.877312780491822264e-02 -7.823839293704819564e-01 3.571244642616738241e-01 4.123085451156081049e-01 -8.381311237810362691e-01
-2.864014752517902648e-02 -8.377459167877468471e-02 -7.770149258482279553e-01 2.702659224373237801e-01 4.395680572039978862e-01 -8.565840614061208669e-01
-9.598628020185261123e-02 -7.132806132349926720e-02 -8.276803000547404698e-01 2.460264967039544615e-01 8.351652471070297734e-01 -4.919044347678044327e-01
-8.343727327228887825e-02 5.454750500828719345e-02 -7.692367175711335436e-01 8.230038794135557945e-01 -4.382147340886641818e-01 -3.614311293978964001e-01
6.026366632545939600e-02 -3.253790561131546938e-02 -7.994892173881955610e-01 -2.839174607970627040e-01 -3.851439972110710097e-01 8.780973618379837031e-01
-7.261283708589778840e-02 1.970178563069745550e-02 -8.139791790971072638e-01 -3.364202645289087745e-01 -2.269119429367748020e-01 9.139651939581491247e-01
9.683020604809010334e-02 2.638440838904191829e-02 -7.282948248512706169e-01 -7.488442495544034294e-01 -1.742458501659220338e-01 -6.394299598933862461e-01
-1.022597807748046039e-01 2.103351188796898433e-02 -8.021640784033692295e-01 9.214986462298859760e-01 -3.733243785231234457e-01 1.070941333445071530e-01
-4.745770889358191108e-02 -1.670978554544381434e-01 -8.995351035858830668e-01 3.790452788706107912e-01 -4.854918910723689529e-01 7.877958493600204504e-01
-5.307518533659996707e-02 -3.723128784323263829e-02 -8.308208787185973332e-01 -4.848894347065992316e-01 -2.474872599168301823e-01 8.388279276995812550e-01
1.101898467004144844e-01 7.004923293464929146e-03 -7.499311798197393353e-01 -9.578170058885160376e-01 -2.793468291684425564e-01 6.746800919173004396e-02
2.859553722313047316e-02 -8.489995045903546422e-02 -7.631076381172343659e-01 -6.905383691674786550e-02 4.948774959469294799e-01 -8.662146567753120641e-01
6.134797449257876900e-02 -1.858892670654343771e-01 -8.444753373773729033e-01 -4.369924010916280133e-01 6.999055444822364080e-01 -5.649512104520159061e-01
4.047945586009518704e-02 -1.307793712930681307e-01 -8.525841341017822428e-01 -1.948386055150505836e-01 -4.287728343296949851e-01 8.821517864527795849e-01
-2.503724595889875778e-03 8.253841182014094724e-02 -7.577245170065082247e-01 1.476399326839482606e-01 -5.508467659797102733e-01 8.214440277260366408e-01
7.883239588037589327e-03 -2.166951395119946500e-01 -8.886124232199530404e-01 9.358727522836086665e-01 3.437015838067637996e-01 -7.753330137318670268e-02
-1.058548042691396240e-01 -4.356672475556424770e-03 -8.226710797857589297e-01 6.106479328871095014e-01 -3.723004599080118049e-01 6.989288015334487181e-01
-6.835005090307859354e-02 -7.387592091276704021e-02 -7.942884866970595370e-01 5.935622890854193034e-01 2.559562543476573970e-01 -7.630007895382511229e-01
1.047409245108717607e-01 -2.095821275625626631e-02 -7.423205361606151076e-01 -2.712718588568518996e-01 6.036392266550887342e-01 -7.496874432959342860e-01
9.549889670590677726e-02 -6.637043067503453631e-02 -7.578843323232943296e-01 -3.639329750592434909e-01 4.752028316809578379e-01 -8.010836775436929180e-01
7.540609378362178594e-02 -1.007835338434410755e-01 -8.289898004115803243e-01 -3.710206765898607650e-01 -5.059477450876198601e-01 7.786915543291546005e-01
-6.280011557923559362e-02 2.424346191511426440e-01 -7.155108701794977710e-01 8.097948559559862147e-01 2.392489495993434800e-01 -5.357165588096323150e-01
4.054646640635762612e-03 -1.556167856771747959e-01 -8.252256671153591627e-01 7.775213519630872483e-01 6.039683451032419326e-01 1.751650232059597523e-01
-2.240592458675799703e-02 -1.069338503402451068e-01 -8.533970809835436100e-01 -2.125509711667293300e-01 -3.911749102415431611e-01 8.954352429146401615e-01
-7.699784597483294059e-03 1.364347444757351702e-01 -6.933477204623196277e-01 6.113290596781875141e-01 3.052831150769920177e-01 -7.301225927485541778e-01
3.793270392241617633e-02 2.857333615091920895e-02 -7.768282304846928499e-01 -2.621330098872378667e-01 -3.480614445308294336e-01 9.000775055285903381e-01
-4.610452138037374192e-02 -2.329693908611850731e-02 -7.601905773235955177e-01 2.067400756174442578e-01 3.580421509384518752e-01 -9.105297135651644336e-01
-5.804493322178691517e-02 -1.656667002280100276e-01 -8.520146574976429354e-01 6.088222649240437878e-01 5.801958820977504150e-01 -5.410251270778194677e-01
-6.815652065230316803e-02 1.985688661249739029e-02 -7.565291535547481461e-01 -1.910632303476282046e-01 8.795333727566768678e-01 -4.357934008408041460e-01
-6.973096545357553022e-02 -1.579507454610425687e-01 -8.594200402480260959e-01 7.490623264782375612e-01 5.437882613792884845e-01 -3.784177028590240965e-01
1.414918371610440935e-02 -1.191971820527878562e-01 -8.586909154190615068e-01 -6.493654540502923345e-01 -4.664864079261030749e-01 6.005954864184870345e-01
4.413823500244826864e-02 -1.495082592047868308e-01 -8.623009282154379118e-01 -3.447122365893683926e-01 -5.602294774417908574e-01 7.532040935568878881e-01
3.271498086617822404e-02 -1.473080801247358129e-01 -8.673878909814872751e-01 -5.127866414315378485e-01 -6.548197561917477039e-01 5.552125244177615881e-01
-6.810645146024876806e-02 -1.459196082755372381e-01 -8.449549947218972790e-01 9.131254978237202113e-01 1.017451670936840857e-01 -3.947780974132954479e-01
-1.020530245459517170e-02 -3.793194873643078446e-02 -7.554953832870034969e-01 9.789934580675697662e-01 1.317994260837787313e-01 -1.555658071199723658e-01
-5.702414422885811185e-02 4.719818565741014382e-02 -7.914225711958696730e-01 -1.256147221386622603e-01 -6.795173532976719333e-01 7.228257799424102625e-01
8.602516713068981968e-02 -1.039894344305507257e-01 -7.820952084177258401e-01 -4.108208757989134652e-01 3.189111734035845469e-01 -8.541205251521373221e-01
-1.208131109278030683e-02 4.625981910836672942e-03 -8.017270178802614611e-01 -6.337389081687834491e-02 -5.341569739813056827e-01 8.430065700276984098e-01
-7.231969187738075677e-02 -1.562484940771218245e-01 -8.638274427847785208e-01 8.525339138615397605e-01 4.724927180638031077e-01 -2.234648900668828042e-01
5.312398082787289470e-03 1.289651243352347813e-02 -7.980108655195359280e-01 -1.762184048699815854e-03 -4.622159699006075373e-01 8.867656352589555757e-01
6.165085586204459289e-02 -7.655599677253606405e-02 -7.654444391050029273e-01 -4.528091575188888940e-01 -4.367584919336314070e-02 -8.905370778717035529e-01
1.279815790753075465e-02 7.448725087177354535e-03 -7.348036482125480662e-01 4.250473833246025679e-01 2.501279654036542288e-01 -8.699256996157413990e-01
1.337704885305825153e-02 1.004627529442941036e-01 -7.485661724379901738e-01 -2.941389103436461983e-01 -4.003686924992914120e-01 8.678635903690512521e-01
3.566075287591567028e-02 -2.000466489069277209e-01 -8.995614652007057899e-01 -6.144660351386058705e-01 -3.717787760237950545e-01 6.958534568134948639e-01
3.959437559018955805e-02 8.607850661136906556e-02 -7.269426201197918269e-01 -6.300396467748035079e-01 -7.328387993369385178e-01 -2.568994699844191487e-01
7.872464770178416726e-02 -1.396299828927842490e-01 -8.049175931683069107e-01 -2.068305057736911645e-01 6.237637806469271684e-01 -7.537505474853409826e-01
1.854965559497059879e-02 1.783247030941292333e-01 -7.100813466593112189e-01 -9.226857342419785279e-01 -3.516577583991868372e-01 -1.580754781235849116e-01
-3.670010997273148723e-02 6.256389438444341644e-02 -7.318353205591147104e-01 3.541835466280098821e-01 1.141352755485796656e-02 -9.351062756108307061e-01
-9.704555717319053240e-03 -1.012573774846927399e-01 -7.932398869993838586e-01 -5.813699246234670381e-01 1.078393461392491426e-01 -8.064612118183760447e-01
-6.993991255549631553e-03 -2.111147110308145558e-01 -9.179729662283308000e-01 4.815605403650007887e-01 4.104676146244541635e-02 8.754510890602704709e-01
-7.848115604025168723e-02 -2.526883627903397239e-02 -7.746892808294238986e-01 5.808346873523285714e-01 1.620661067838677638e-01 -7.977252929425282524e-01
-6.007746526389654007e-02 2.543853129336094421e-01 -7.475164697313541051e-01 3.294430980203876258e-01 2.441618624727383835e-01 9.120593347368211035e-01
-2.687697525170848131e-02 -2.936783050444974688e-02 -7.625139804475236094e-01 -1.416208716770272213e-01 9.540256671770496189e-01 -2.641563080314848766e-01
9.807167694764003241e-02 -2.095313141198519233e-02 -7.765287357434312865e-01 -3.527388188842653927e-01 -2.196427900286259671e-01 9.095781277276703269e-01
-1.011005845278631632e-01 -3.853290877939044567e-02 -8.049495919893966400e-01 8.567186249544929133e-01 2.274620366236899116e-01 -4.629192365316933677e-01
4.107454057937918318e-02 3.873194507025468775e-02 -7.153020638121444508e-01 1.762579981769710202e-01 1.950506637462635917e-01 -9.648255576272783962e-01
8.800125196768447677e-03 1.662912693612350612e-02 -7.294424636361088732e-01 -5.386050727782837333e-01 4.529566523143735979e-01 -7.104469344726989100e-01
1.095179325756725913e-01 -6.374536907532428465e-02 -7.665066910784081866e-01 -7.048685491241198919e-01 4.079601462233325426e-01 -5.802834200191276937e-01
7.738447122859030969e-02 -1.622335212808213301e-01 -8.560731634807527968e-01 -5.486062851053208345e-01 -1.837419240347133165e-01 8.156408825549152919e-01
-4.626486821369314023e-02 -1.617689113615720375e-01 -8.369941965823176622e-01 4.875502748159370459e-01 6.015585636278263371e-01 -6.327890833863450970e-01
6.239024921569804975e-03 2.475304686259464232e-02 -7.227732512979473389e-01 -4.161216780991658371e-01 4.485059409069644398e-01 -7.910026358913683220e-01
-9.823864021946383807e-02 2.965651363485645453e-02 -8.010052611129555578e-01 8.031442283185291631e-01 -4.939613562345447906e-01 3.331088816972065381e-01
6.281314353851474679e-03 -1.391066082826953321e-01 -7.985624367776384958e-01 9.153726265597121603e-02 5.209491986688483678e-01 -8.486653415520964971e-01
-4.558854738595101430e-02 -1.897251167882514911e-01 -8.832121087565150130e-01 6.036532131596595852e-01 7.819854060988002953e-01 -1.552469738529971277e-01
-3.689654551858122244e-02 -4.244371122124451778e-02 -8.251085442576635565e-01 -3.175664294240529983e-01 -3.250710254665156729e-01 8.907751631612805809e-01
1.402935481224181630e-02 1.548451606319968532e-01 -6.946732772807978629e-01 -6.990079618997530053e-01 -1.720528094339446312e-01 -6.941078446226063292e-01
-9.465444142591614152e-02 -1.163371505318572252e-01 -8.511166419131362959e-01 8.570644776069336057e-01 3.978373899470049047e-01 -3.273620203757739433e-01
-6.247662770739684235e-02 -1.180418718173345261e-01 -8.153420784087013207e-01 1.731217327053808652e-01 7.320922713556177186e-01 -6.588397163851456018e-01
7.580595891588322310e-02 2.617035689291801782e-03 -7.215412184127125705e-01 7.448506660797199475e-02 4.550938456077796568e-01 -8.873226958341190462e-01
1.087693093691260021e-01 -1.037926394183299739e-01 -8.016445555733445749e-01 -8.274146896420440100e-01 3.639872163494566326e-01 -4.276660352409740184e-01
1.063698157560389601e-01 -9.964670824091780010e-02 -8.143311709722298453e-01 -4.876826525332026985e-01 -2.646965871483917265e-01 8.319262871013113347e-01
-1.551899924978323610e-02 -1.530525685243208922e-01 -8.880212059444174688e-01 -1.617352018699477478e-01 -6.763571378060044825e-01 7.185977641316154685e-01
2.030491820460620864e-02 -1.739949394939893090e-01 -8.283431801924778792e-01 5.912245809425027421e-01 7.923642391476315439e-01 -1.503742245511413556e-01
-8.019377068246372198e-02 -1.111286194841220321e-01 -8.743020660729475813e-01 6.553846493259053718e-02 -4.416556781822598143e-01 8.947876684128183156e-01
2.773091672615796382e-04 1.721967227098621933e-01 -6.894874153004031392e-01 -3.061880066679761314e-01 -1.289899204251224729e-01 -9.431916586788774426e-01
-3.258684493663611959e-02 -8.174068628802322323e-02 -8.475098488140390129e-01 -2.050523134542214521e-01 -5.580420228737194011e-01 8.040787582408075451e-01
7.607057803468562918e-02 1.306292239489319044e-02 -7.182739987726804998e-01 -9.267355750527984937e-02 2.256804817812882447e-01 -9.697834458693762594e-01
-1.846867003567387658e-02 -9.428533346056881814e-02 -8.470584733420902790e-01 -1.605488533492185343e-01 -3.804301611331109556e-01 9.107672360095560027e-01
6.091625366495360960e-02 -1.376966798446818685e-01 -8.049991337628282784e-01 6.512436508666410440e-01 7.194301226998861543e-01 -2.414580828175262317e-01
7.243326449757687968e-02 -1.829972560721317976e-01 -8.549104830447344927e-01 -7.518019368848366524e-01 6.242543204311243876e-01 -2.123685266683447148e-01
-3.737806119859680282e-02 2.655360854660933634e-01 -7.313567621721194234e-01 -7.450953963884845432e-01 -6.663086569257513636e-01 -2.942148851585423344e-02
3.846017654873444547e-02 -4.613254537650580966e-02 -7.488751277402272422e-01 5.716247827337608278e-01 8.193897614884755320e-01 -4.295959185606874897e-02
-1.457044209525834230e-02 1.608600791062317625e-01 -6.908811883443458646e-01 5.063362077289531582e-01 1.395733968888061560e-01 -8.509658698347318806e-01
1.143013678431460678e-02 -1.743643285940022283e-02 -8.086590825794371939e-01 -4.649734586456120700e-01 -2.795305985771149859e-01 8.400370987130612033e-01
-7.985890124773252496e-02 -7.349694212346394306e-02 -8.051834480605123412e-01 7.966763782013472905e-01 -6.962010332479844077e-02 -6.003830357605284274e-01
-3.792576549319873203e-02 -2.031231287169160959e-01 -8.831040489011455774e-01 7.595061406612814148e-01 6.447866984408158197e-01 -8.602636695570956005e-02
2.674422122992643758e-02 1.477797153268367025e-01 -7.124875166485918898e-01 -9.624036157319184603e-01 -1.521216403038578857e-01 -2.250295246793041215e-01
3.656238839342677155e-02 -1.088610380749131246e-01 -7.784201860498533021e-01 -1.720495483926957198e-02 6.175375463752766914e-01 -7.863532083903401748e-01
-1.017001662915500565e-01 -4.016417874796810589e-02 -8.069787521268609876e-01 8.763825453362551476e-01 2.302709608649553263e-01 -4.229999040334133098e-01
-2.474740113274091421e-02 2.247173698074327874e-01 -7.372580498436535068e-01 -3.080725367325293229e-01 1.571405870693357021e-01 9.382953415671896336e-01
-8.474010656263356034e-02 -9.902815983211077366e-02 -8.208751001968664918e-01 7.072663268234864464e-01 3.685881765297879809e-01 -6.032554177660232053e-01
-6.936047695224323295e-02 2.537007151342023370e-01 -7.227694730248518384e-01 9.084049369410086561e-01 5.629865443833917404e-02 -4.142836371975540666e-01
-1.363539043701385116e-02 -8.656883850140480174e-02 -7.824444446369785977e-01 -6.717785363164121559e-01 5.667729830353415155e-01 -4.769507142732877236e-01
4.855320443889211274e-02 6.827385723342099810e-02 -7.436709858565655473e-01 -3.787167811562912045e-01 -6.469675069611041662e-01 6.618207042750713365e-01
-7.914507152713357030e-02 -1.234010507382120869e-01 -8.321805263956048027e-01 6.605392908285280251e-01 4.944022054273909950e-01 -5.650259326263503690e-01
2.789981097295963705e-02 -9.242065625075185017e-03 -8.009210476770108889e-01 -2.296017258260929783e-01 -4.337125757859333630e-01 8.713073218462075165e-01
1.084920571923325694e-01 -4.122953272975795475e-02 -7.552859701650624924e-01 -7.065671071386692148e-01 -7.778008244735115650e-02 -7.033585016790341315e-01
-6.794336021746140430e-02 -1.660063269322573434e-02 -8.275739529774762682e-01 -1.062232971964614248e-01 -5.195071231068550954e-01 8.478378147817843269e-01
1.697680062877703761e-02 2.513727377844117428e-02 -7.283608485533638044e-01 -2.976260929612351003e-01 5.339759017349663406e-01 -7.913838797669308089e-01
7.683855370991941880e-02 -7.297589703356108237e-02 -7.564388442575865623e-01 8.094984518255629591e-02 7.036044330146495884e-01 -7.059659513085979610e-01
-9.537321142802676621e-02 3.530168008362376958e-02 -7.988141460688794604e-01 7.003431485775923893e-01 -5.768829244172112292e-01 4.203873996164377291e-01
1.532275037589173050e-02 7.488109204748229220e-02 -7.076364156073160494e-01 -6.503255793484516989e-01 2.708361849234334762e-01 -7.097354449238252316e-01
5.982417182349142326e-02 -1.716683294515385649e-01 -8.725181994693496090e-01 -5.670554748930267674e-01 -5.681554918568018087e-01 5.963618242869003216e-01
5.927288322684292482e-02 -8.809581542461297765e-02 -7.681131053929529662e-01 -1.286345191031077195e-01 4.180281241191078356e-01 -8.992806280247407358e-01
-8.752750049283429534e-02 -2.164227784186042308e-02 -8.315193286524054095e-01 4.783514627620414836e-03 -4.982005251262202616e-01 8.670486461276356582e-01
7.844366546471912005e-02 5.837710084564587398e-02 -7.357901562355229075e-01 -5.133968357893703427e-01 -7.410990578305909349e-01 4.326613866340198178e-01
-9.441451016843895039e-02 -1.036154670590854060e-01 -8.381458734629977370e-01 8.325080148684680381e-01 3.342674490947435406e-01 -4.418095490768115252e-01
1.013882437085032208e-02 -1.848216519377011424e-01 -8.398707399276194030e-01 -4.699201591486776991e-02 4.691897416883681338e-01 -8.818462092307587374e-01
4.556335755692083461e-02 -6.985436115724642792e-02 -8.204858559475800561e-01 -2.809731024973832203e-01 -4.822565655551993014e-01 8.297485888218784078e-01
4.397106253336356685e-02 -1.566733209884419165e-01 -8.691931635670364642e-01 -5.070510299918540298e-01 -7.134161887673650115e-01 4.836699231798969323e-01
1.111947426401151302e-02 -1.501990889107223393e-01 -8.056708044468212648e-01 3.772439801974009771e-02 5.887807458843665742e-01 -8.074119785276268058e-01
-3.563708644124852915e-02 -5.468570365686987317e-02 -7.693850023344581679e-01 3.981822581496404778e-01 9.813380630526732928e-02 -9.120420195116524242e-01
3.030577986973138210e-02 -3.643243873075110301e-02 -8.084234011772239992e-01 -3.065196620793950721e-01 -3.624817793406024946e-01 8.801435430682907901e-01
-1.676517695318749390e-02 -2.186221733233729148e-01 -8.854369829971950878e-01 4.247626995245945003e-01 8.758528884863783226e-01 -2.290379156878763478e-01
8.799571021679661320e-02 -1.095262758221405147e-01 -8.279280832756475972e-01 -4.192418896401335915e-01 -4.448880855284802482e-01 7.913980220633444196e-01
5.730137467538749807e-02 1.451556372525500231e-02 -7.190673929701877354e-01 3.104795543352274478e-01 4.559397662591245792e-01 -8.340991403204858212e-01
-4.047630414689524364e-02 2.486094186399481765e-01 -7.468341423093886045e-01 -2.232724200487646582e-01 2.347634010762630064e-01 9.460631965998221871e-01
5.367845744848271164e-04 1.270923199019605709e-01 -6.922276679018732892e-01 2.567334983425554329e-01 2.166530683618569098e-01 -9.418860646586642016e-01
-1.066505225128827894e-01 -2.541486477317124112e-02 -8.302169456482872967e-01 7.453421550280125985e-01 -2.462357335927715385e-01 6.195426017960569132e-01
1.084235056326262880e-01 -6.587422249298924282e-02 -7.922130636087765243e-01 -6.224716869850840384e-01 -4.388972294863262569e-01 6.479955407648810839e-01
-2.221894138791662924e-03 -8.157673897757716786e-02 -7.818897750744753239e-01 7.225334197033586037e-01 4.881345140875026356e-01 -4.895611847035344910e-01
-9.213963394793735218e-02 -5.928411022928146284e-02 -8.540959478198161259e-01 2.687467963929808246e-01 -5.123011482016213147e-01 8.156731532788178418e-01
1.023136650853413571e-01 2.812407937077984407e-02 -7.397271788466744935e-01 -8.933443972226968732e-01 -4.431052354459066867e-01 -7.478996103250756811e-02
-4.494511881490333149e-02 2.300164011775081563e-01 -7.017135784882770899e-01 4.326835707904885253e-01 -7.255122596293256398e-02 -8.986218599495939818e-01
9.326830829087535968e-02 1.703769842140528609e-02 -7.238065759508993668e-01 -5.811179896752802776e-01 -5.039114615108755517e-03 -8.138037167521764426e-01
9.957052505686625476e-02 3.311565606724213573e-02 -7.376450447444209413e-01 -8.713299761926429632e-01 -4.457635982071488923e-01 -2.051313898493934695e-01
-3.370484893097312057e-02 2.140786623894066695e-02 -7.972092523408019771e-01 -2.783540533077528134e-01 -3.899401669369257362e-01 8.777617485493131033e-01
-9.374953017801089528e-02 -4.915974117011835676e-02 -8.477190903409440592e-01 1.429893904471073451e-01 -5.058753765110792777e-01 8.506727559169499076e-01
1.012751193653494697e-01 -8.574189926542603868e-02 -8.112706869688274258e-01 -3.205639421847398252e-01 -3.671928975131070194e-01 8.731598564907274707e-01
-3.952013871117823068e-02 -1.942439560684266209e-01 -8.753785811491698876e-01 9.130376658306741389e-01 1.162983010889632324e-01 -3.909436352446414298e-01
2.248188189756387262e-02 2.717585816369889190e-02 -7.268493575561376652e-01 3.055143723475075568e-01 8.429045862345992957e-01 -4.429140173823667426e-01
-7.304712722287795557e-02 -4.673309912274861005e-02 -8.463403330257677215e-01 -5.285029105659180271e-01 -1.853659055252127319e-01 8.284468326888402290e-01
-5.787530692512343061e-02 2.355298336060071274e-01 -7.379627655525161645e-01 5.494589801228941806e-01 6.000275815341483687e-01 5.814307616222159636e-01
-1.700614209855331321e-02 -9.249602190918071454e-02 -7.866331654853222499e-01 -4.876054964896661681e-01 7.818746651694423733e-01 -3.884750799719830505e-01
-6.240319805140217418e-02 -1.385647358505533722e-01 -8.845554764494966138e-01 -2.905248052729598740e-01 -2.611111824514777413e-01 9.205521646924197388e-01
2.567531583700159367e-02 6.223828712161833671e-02 -7.647556614059739521e-01 -5.890216292814766108e-01 -4.915158195667039820e-01 6.414559371884135386e-01
2.459625317474443962e-02 1.604426054624256692e-01 -7.146785078191407736e-01 -9.567484912422804522e-01 -2.708311404215035245e-01 1.062206095049727100e-01
2.535195042276106037e-02 -2.261823503582821027e-01 -8.885657477515955804e-01 -2.979171607841749614e-01 9.411615672318273118e-01 -1.595627452635075827e-01
8.719281225157801685e-02 -9.482995300838974184e-02 -7.811398994539587859e-01 -5.675200912608717729e-01 2.812671317731170462e-02 -8.228789911166118909e-01
-5.114509033188514159e-02 2.200988864424331393e-01 -7.260538244733917290e-01 7.204420246322086330e-01 6.317937338762342758e-01 2.860069351931353587e-01
-8.454577806932983552e-02 -2.856030194312031770e-02 -7.802322243077057795e-01 6.697199348969784527e-01 1.584032702329974396e-01 -7.255229925929839174e-01
-7.794349389072773027e-02 -1.377242471875838592e-01 -8.812921139355487377e-01 7.181815826909929701e-01 1.508749090102686763e-01 6.793025659561454654e-01
3.557101469231825630e-02 2.585227749530571995e-04 -7.911957717783046906e-01 -3.642914863713883067e-01 -4.812300586388639223e-01 7.973138300692896863e-01
3.501909757349316171e-02 -2.045628902341655453e-01 -9.023918203467781174e-01 -6.719379318362915798e-01 -3.454700873724475541e-01 6.550952865732134756e-01
-2.210850069853015701e-02 -1.525693076593167552e-01 -8.883829636595730328e-01 2.559517713868340871e-02 -7.888170991664655851e-01 6.140948387422274779e-01
4.237828832665048451e-02 6.963939013688306978e-02 -7.150036749226816868e-01 -8.823247771534309392e-02 -2.592788148282517691e-01 -9.617637579247143576e-01
-2.626218210245372369e-03 -2.139713129945828018e-01 -8.798831306548161590e-01 -8.074660101134097934e-01 4.387978785557770101e-01 -3.942779023562953955e-01
-9.050941493633869739e-02 -1.282041394330626360e-01 -8.661234338203880334e-01 8.924175728124006390e-01 3.727461183503103515e-01 2.542660161924909512e-01
2.544669080276263165e-02 1.016491711498169193e-01 -7.131041539291544940e-01 -9.221705553033847647e-01 1.603897870023680006e-01 -3.519610534658368928e-01
-6.051796272236664720e-02 2.405693685550001348e-01 -7.402415960450857702e-01 5.233429055146522346e-01 5.533551402650426221e-01 6.480048549121656398e-01
8.712789353113796487e-02 4.821118868408667130e-02 -7.273830954649664893e-01 -7.471875050398226747e-01 -4.954776728172218259e-01 -4.429590365394921458e-01
-3.944893734202515462e-02 -4.669662317523634587e-02 -8.277656661633099322e-01 -3.125232323057633987e-01 -3.748558929097060011e-01 8.728185887227796202e-01
6.462784373908611602e-02 -3.214232708535465916e-02 -7.974500391824570489e-01 -3.894628376019581006e-01 -5.285869182789422194e-01 7.542642560478400870e-01
2.519547327651623647e-02 1.348663627241742657e-01 -7.229234466650871216e-01 -8.524764510057222244e-01 -7.226556833901538746e-02 5.177466447146981121e-01
4.984548302513094192e-02 6.756289260290020138e-02 -7.155427402860025099e-01 -2.337052590050793799e-01 -3.787917123591324486e-01 -8.954879622649347670e-01
2.837513287220656127e-02 -1.591849316112645130e-01 -8.123411891972373011e-01 -1.270356985851701752e-02 6.265848125925035372e-01 -7.792496980694102460e-01
-1.443133136969578564e-03 -6.347399099423703395e-02 -8.331748764086437387e-01 5.120633924751190336e-02 -4.074046880546864369e-01 9.118110171367376227e-01
-8.441396084880502249e-02 -1.559627494252299219e-02 -8.281984552665930810e-01 -3.975836320178658539e-02 -4.588819184851094524e-01 8.876072653166715565e-01
3.008362059874833752e-02 -3.016178010044599268e-03 -7.323235729986750098e-01 1.774715217987308524e-01 2.290057091527640254e-01 -9.571103615184000102e-01
-9.015183789357275601e-02 3.867374208852449036e-02 -7.998009714733149700e-01 3.375284468447510844e-01 -6.290488812488252979e-01 7.002657014092376064e-01
-7.088443267556533700e-02 -3.347647911956904559e-02 -7.716630555391682522e-01 4.042487384257140159e-01 2.772813396759166160e-01 -8.716065718824907993e-01
2.595943798925035712e-02 8.964104851303385246e-02 -7.434797081189323809e-01 -6.725064015095967296e-01 -4.138850992982855415e-01 6.135423901471367403e-01
