-1.895533900751604495e-02 -6.371783194890963398e-02 -9.737322686211993261e-01 9.648057216504318800e-01 2.036408368891359510e-01 1.663740635486235242e-01
2.757412537208986381e-02 5.506535533635968649e-02 -9.484833266304830701e-01 7.139595613951307262e-01 -1.444531309237210293e-01 6.851241038372585246e-01
8.911604710783387062e-02 3.054692593302873321e-02 -9.583762453100089784e-01 -9.783462899687389580e-01 -1.207300059149969407e-01 -1.681154441928781607e-01
3.047585607978199954e-02 1.415205924926112580e-01 -8.268917598194197582e-01 -8.586812195828119609e-01 5.105976979711395192e-01 4.423295109245584805e-02
6.674642066707631161e-02 -6.239540121648631116e-02 -9.798118052971149794e-01 -4.863695615805432304e-01 4.761504697138645437e-01 -7.326154378384447385e-01
-4.317792914640931207e-02 -2.087035953662503551e-01 -9.541787642010671755e-01 1.519234344619082577e-01 5.844303423795226271e-01 -7.970950037275682520e-01
5.470154911615319332e-02 -4.629374692518046369e-02 -1.011566748173566843e+00 -1.763923649455934328e-01 -6.920318846392585765e-01 6.999840028397336100e-01
-7.970239116498332999e-02 -1.472933687720749951e-01 -9.360261666382531098e-01 9.263940256361320458e-01 7.980837908160499927e-02 3.680009944199172933e-01
7.620717810491742239e-02 -7.229554739560115073e-02 -9.938767478152383816e-01 -5.614200329016811875e-01 5.079660307918620887e-01 -6.532825255723866409e-01
3.554606551759832006e-02 -9.730954998807479772e-02 -1.033681214287498928e+00 2.937992166440460684e-01 -2.280211339722297004e-01 9.282717181738130430e-01
3.491857143343896769e-02 -9.690319121021981341e-02 -9.704907393551646111e-01 -4.358063908527469721e-01 5.346343704169052025e-01 -7.240434238778928888e-01
-1.610217783085287485e-02 -5.485837807356900436e-03 -8.692028788254123617e-01 -6.081993599161061859e-01 4.126537326400427919e-01 -6.780932351350206222e-01
2.570875448664298318e-02 6.190553789449131095e-02 -9.433724698975093359e-01 5.426040213263453316e-01 -5.132490610885735993e-01 6.649483268135777392e-01
-7.502830174100334759e-02 -1.572409892696394751e-01 -9.423739514751374724e-01 4.947459013023159935e-01 2.902074638563862941e-01 8.191496328916976211e-01
3.463513641413457772e-02 1.516912476613792027e-01 -8.334857476232401252e-01 -8.232832142337653814e-01 4.646417087898053189e-01 3.260564853116858508e-01
-7.431892418453179064e-03 9.431110949177588798e-02 -8.372530457356691658e-01 2.870684954973567460e-01 3.593208525660645525e-01 -8.879640779919423244e-01
6.789895703453843745e-02 2.747875396161852946e-02 -9.800610072120397032e-01 1.309109073524550582e-01 -2.012806464630780001e-01 9.707463292207506589e-01
-9.401415362428722222e-02 -1.008271433135709688e-01 -8.937636922232322645e-01 9.453525113704382976e-01 1.688137634433202472e-01 2.789454113580428496e-01
2.138520868270652603e-02 9.492058653159174408e-02 -8.912073558307025412e-01 -5.407342138848085511e-02 -9.814789215303836301e-01 1.837802810175752366e-01
7.496253300731407776e-02 -7.553256994766703591e-02 -1.026120545872820644e+00 -4.900379075625427294e-01 -3.052004785556491906e-01 8.165264950025366009e-01
9.010415161221273228e-02 2.304779910031022616e-01 -7.888021284662353194e-01 3.069951935253965036e-01 -6.088468431252580526e-01 -7.314775955343485458e-01
-1.178256075552767609e-02 -1.187000177148403446e-01 -9.335810001535059799e-01 -7.188925525883480550e-01 4.244815021977123570e-01 -5.504624892987554086e-01
1.669165521931987098e-02 1.712506107903897512e-01 -8.024210531353477283e-01 6.799873875354187636e-01 -2.580871899179397189e-01 -6.863003389136692611e-01
1.937388793487227270e-03 -3.646914574471644965e-02 -9.002008558971510421e-01 -6.332118517452033357e-01 4.982800639737327564e-01 -5.922497181559004398e-01
-7.655502705784070216e-02 -1.661030931047194625e-01 -9.237767250588853063e-01 8.147178073854948188e-01 5.706755721066623099e-01 -1.027827112393199377e-01
4.277847839265373764e-02 -1.654303190570434179e-01 -1.039646105751367511e+00 -4.328090077526464685e-01 1.947250512480721563e-01 8.802036793973342377e-01
-3.060749790038570090e-02 2.215725556702020840e-03 -9.311716774496053839e-01 9.822001210803653626e-01 1.338155694408301732e-01 -1.318192532407226891e-01
-6.685333826187393746e-02 -1.795113596871814876e-01 -9.353338559703424648e-01 7.953398203912931397e-01 5.527214189364624275e-01 2.488646281591840037e-01
-8.702046215992137457e-02 -8.536806250211118052e-02 -8.673463454970767872e-01 2.316794219620495754e-01 4.142695964899352212e-01 -8.801734754373121694e-01
-4.019371671655330713e-02 -2.145093003114227626e-01 -9.996048514705654364e-01 8.562661108271076849e-01 2.833931968313140870e-01 4.318525714161570717e-01
8.280685722494886269e-02 -8.641376787772091228e-02 -1.012216517341388400e+00 -8.009791134880309693e-01 4.567900935390766803e-01 -3.870081009494364954e-01
-1.374613601679345112e-02 4.552397087068472264e-02 -9.220397683788462695e-01 -1.622711538414018106e-01 -4.460421322279741196e-01 8.801786687420358746e-01
-1.413122551669581013e-02 9.081387940072960241e-03 -9.395425564199918478e-01 3.390918078201315411e-01 -4.584061945852388464e-01 8.215111116930524648e-01
3.163360202106791849e-03 -1.235280887864695504e-01 -1.027787604934820909e+00 4.169717228225048866e-01 -2.293053663315165192e-01 8.795189772472228329e-01
9.387579899532266792e-02 3.438577173422984476e-04 -9.801205465045382814e-01 -9.888750759780706723e-01 1.408442816605863512e-01 -4.784320675789133226e-02
3.813193536769886316e-02 -1.679077075675862174e-01 -1.001154373975003731e+00 -7.896120810198646867e-01 -2.470263394902149079e-01 -5.616856319201545267e-01
2.330711758310010512e-02 -2.313793210481343565e-01 -1.015663545538981749e+00 -8.666420516342575597e-01 4.487914222494182592e-01 2.179858106724121281e-01
-2.339313334662752528e-02 -7.782870655707475882e-02 -9.050538271635056864e-01 -6.045797425714968254e-01 3.189597409015578200e-01 -7.298958956975942769e-01
9.103915467809209350e-02 2.360353621688097980e-01 -7.949064266369182397e-01 3.298334269731691415e-01 -8.509521874866419200e-01 -4.087667856649240816e-01
6.902218788756389611e-02 -9.260511939892435151e-02 -9.993486294567728301e-01 -6.990398124802844615e-01 3.155513670123288872e-01 -6.416935992700714131e-01
5.768043838860334102e-03 -3.485834192609527094e-02 -9.026122081007647013e-01 -5.615307368221262863e-01 5.096639791363390959e-01 -6.518633752366463918e-01
-8.281936894091491974e-03 -5.484516032931219948e-02 -9.955663315659390999e-01 5.890850479160836262e-01 -3.995166895371338733e-01 7.023996163887010757e-01
7.215935140206271303e-02 2.286183165136294326e-01 -8.034326087397135607e-01 5.038965461152925540e-01 -8.626852763216653619e-01 -4.315535691997474804e-02
1.706850786211159057e-02 6.076450164321556963e-02 -8.629342300770170837e-01 -8.941392730980406434e-01 1.049874511989450782e-01 -4.353074722474410407e-01
-2.243890866343977233e-02 4.971600736456157493e-02 -8.447369046075307031e-01 -4.784829116394935244e-01 1.671581981960729435e-01 -8.620395814838404114e-01
1.776539653755115911e-02 7.946387316262358558e-02 -9.201028471215909610e-01 4.715000844396137758e-01 -6.854360001545882763e-01 5.548559813731093193e-01
-4.518047563853589549e-02 -1.773925468046098630e-01 -9.344465836298846417e-01 -6.486501180352871598e-01 4.839789884083480764e-01 -5.873817865341416367e-01
8.780272550530190956e-02 1.191217793845957169e-02 -9.564759599292478320e-01 -8.200845596253723002e-01 3.333903733823044835e-01 -4.650937260381678984e-01
-8.589458014494912030e-02 -1.608676667996837215e-02 -8.885101356153209951e-01 8.432339357816345249e-01 -3.566036167020148473e-01 4.022317616763455006e-01
-1.365097340651389921e-02 -2.090944112533383581e-01 -1.015825524477665720e+00 -5.985613485341458873e-01 -1.478539763533378015e-01 7.873141137547903234e-01
-3.718126124248925801e-02 -7.512979810196672437e-02 -8.907649476489072349e-01 -6.993788415310198125e-01 4.139013793266372865e-01 -5.827133808402167325e-01
-2.510730608895748658e-02 -3.902283131585937426e-02 -8.799845771398350225e-01 -5.004130699042069752e-01 3.032322769831776732e-01 -8.109481769291083664e-01
-9.104023764436305205e-03 1.505598882688664042e-01 -8.448603228987026093e-01 7.646739429905534680e-01 -5.593562722580867064e-01 3.199911273720206228e-01
-3.594495031405509078e-02 -2.998948165359750784e-02 -8.669166850715530614e-01 -5.786975082061962539e-01 4.360931317524329720e-01 -6.891530849051566987e-01
-3.570047899420580872e-02 -4.264694316180554085e-02 -8.744029112108933077e-01 -5.450176773823076637e-01 3.563189811531086160e-01 -7.589417072547830490e-01
1.693234526678270152e-02 4.707843380282965978e-02 -8.649119831760999633e-01 -8.920761818047890923e-01 6.109267782526209972e-02 -4.477362734609821038e-01
6.378950302358733782e-02 1.978488483872258841e-01 -7.883407720472448421e-01 1.133523686541404174e-01 8.900783517546663470e-02 -9.895599253192666200e-01
9.823666104379874531e-02 2.152872236451484345e-01 -8.219239233245201337e-01 -3.283551326151333272e-01 9.233820959692948249e-02 9.400300856535025451e-01
3.523680670573673540e-02 1.489040135457359026e-01 -8.258521691134265152e-01 -8.024269452191583607e-01 5.829603071887804466e-01 1.275471592338007221e-01
5.284372940333995766e-02 1.810839356203957085e-01 -8.317522370798330344e-01 -5.657359673670389055e-01 2.942486930787511779e-01 7.702989821158583439e-01
-2.176408367891823070e-02 7.769953496581407520e-03 -8.535392378238082500e-01 -6.246264847612255089e-01 3.548568994403927812e-01 -6.956423904955656434e-01
2.915299047448948605e-02 4.883526877642348912e-02 -8.835345137123079562e-01 -7.942996617431252737e-01 7.572913662005618940e-02 -6.027878111089649549e-01
1.005702277277592260e-01 2.211147891279014177e-01 -7.834942626405522192e-01 -7.700601521526713455e-02 -1.562553547470868220e-01 -9.847102811149724966e-01
-2.066094590113054866e-02 -1.139522324280178855e-01 -1.005503254881747965e+00 9.805169604267557348e-01 1.770783381072950913e-01 8.502795121978330706e-02
6.041473866272794452e-02 2.196659420716714495e-01 -7.991380379941960266e-01 5.123267690263417773e-01 -7.403118832504688163e-01 -4.352695684942534116e-01
4.993737277724044632e-02 5.280175341167531872e-02 -9.057746183151527131e-01 -6.853561037147045676e-01 1.840798404499785490e-01 -7.045577502525320890e-01
1.365666305653483702e-02 8.031734597943555876e-02 -8.498628556337636253e-01 -7.963830866782863893e-01 3.074579992900717262e-01 -5.208104817736591841e-01
4.656867110665426773e-02 -1.221126142103760026e-01 -9.935164329211568779e-01 -3.916580396156857935e-01 4.916428249339669376e-01 -7.777475893214624847e-01
3.722230519124233167e-03 -1.220545739132528236e-02 -9.630916385232064503e-01 2.665890243276247129e-01 -8.772415002825363350e-01 3.992212948855425880e-01
2.286432698431328792e-02 -2.254677349938733755e-01 -1.022631838268681426e+00 -6.466618600625927415e-01 5.078646100454095036e-01 5.691238675401090186e-01
2.592047935691692631e-02 -7.979292513673823251e-02 -9.520966021203872698e-01 -7.775972061955391812e-01 1.657701647581519555e-01 -6.065169720567982203e-01
2.388022305460758138e-02 -1.133389696992267714e-01 -9.716492228201342174e-01 -7.221854294851327571e-01 3.544898212898074941e-01 -5.939572139820292751e-01
-3.075696166919472674e-02 -1.445662237516591175e-01 -9.257361506850946276e-01 -7.820700950374195326e-01 4.278842116015805219e-01 -4.530799795954962295e-01
-4.698279325887395191e-02 -2.091076479464435145e-01 -9.559321265933721223e-01 3.290530893945597946e-01 7.360255082782926062e-01 -5.915999624100537480e-01
7.927911908870409474e-02 -1.022050727488877653e-01 -1.020246913994923954e+00 -9.483952500555502541e-01 2.801224448978127946e-01 -1.485862225663665548e-01
7.854257196880551350e-02 2.731717267735025642e-02 -9.375920836934708014e-01 -7.987660080156236964e-01 -9.613064176275634004e-03 -6.015650034999769913e-01
-2.780084171000270568e-02 -1.782685717088397515e-01 -9.502656059704664981e-01 -5.544621175580909389e-01 2.259440003001756125e-01 -8.009501038899687897e-01
8.920853216998168855e-02 2.370309684940101469e-01 -8.008840710419204978e-01 3.560939105015502593e-01 -9.256670614151560894e-01 -1.278186931350161759e-01
-4.702728943097244513e-02 2.258781824709784475e-02 -8.353650523398676864e-01 -5.322420812592728590e-01 2.243044341210564951e-01 -8.163368715000136611e-01
-7.983301018959013118e-03 -4.987002586984404240e-02 -9.015022264482592806e-01 -6.061553071075637122e-01 5.095583753556897078e-01 -6.106766785871268199e-01
-5.456909309415121367e-02 -1.093700974895124717e-01 -9.643201241724009831e-01 9.400017317761463209e-01 -3.189816517742399271e-01 1.210266503263772997e-01
4.509521838685602579e-03 -5.159193696033146509e-02 -9.127493815294419610e-01 -4.778977577857626002e-01 4.384306986806738027e-01 -7.611782022350064292e-01
9.742433397808772030e-03 9.875625878028408688e-02 -8.774859632824586475e-01 -3.700551438217440370e-01 -7.311691296471248824e-01 5.731063552100379432e-01
-7.553283995335292877e-02 -1.054343546395992703e-01 -8.774228708374116614e-01 -1.427409610739789891e-01 3.885811557417770401e-01 -9.102909993150877233e-01
-7.149256848059820646e-02 -2.879083341669084681e-02 -9.165355191958896031e-01 6.840932586437915575e-01 -3.279269522362430189e-01 6.515215479745598559e-01
-8.894069700487122407e-03 -3.794808434776985456e-02 -8.892862726273337293e-01 -6.201845964395675814e-01 4.543941629454573694e-01 -6.394505540072566996e-01
-1.409227539569411249e-02 -9.809519403367816803e-02 -9.181954312043765221e-01 -3.624126246153719366e-01 6.123841274970293763e-02 -9.300037345749179174e-01
-4.159806880133453538e-02 3.031214795125940567e-02 -8.966188817090220420e-01 6.780570247363598702e-01 -7.196660608829883454e-01 1.493968942744066941e-01
-2.825906097378396917e-02 5.480545213250567066e-02 -8.406143358154453127e-01 -4.716169533021015159e-01 1.223341341536754584e-01 -8.732764791169596030e-01
-2.233457152661311174e-02 8.751029157053601126e-02 -8.509114895453803173e-01 7.921729417577244581e-01 -4.981211561201342453e-01 -3.526150084333530277e-01
-7.591290353831335602e-02 -1.642183361335891045e-01 -9.377671630837178807e-01 9.068193711594860762e-01 3.138528249543501292e-01 2.813805827666296944e-01
1.124875968836504814e-01 2.103384958005127536e-01 -7.940433656406719054e-01 -8.044601099852757287e-01 4.890301113515771458e-01 -3.371846402699001932e-01
7.796957433129284021e-02 5.860143769724600327e-02 -9.432702985579719535e-01 -7.676556849567240937e-01 -6.131659494926833265e-01 1.863659511186495088e-01
-3.985048450160065536e-02 -1.894460441004825191e-01 -9.458618102077740453e-01 -4.985929454996873567e-01 3.495354754967521238e-01 -7.932402070414767969e-01
-4.847061447036674769e-03 -1.560917191278840821e-01 -1.020805572247337922e+00 6.715466740261964718e-02 -7.937388906998266158e-01 6.045401757010465671e-01
4.395234219696633055e-02 -1.601835297243839329e-01 -1.009023798162508312e+00 -6.953666636169730797e-01 7.030186600859725243e-02 -7.152082569195549189e-01
-7.654760439704222375e-02 -1.535392505814395792e-01 -9.062348285562242811e-01 3.287748602917268670e-01 6.108223461616815175e-01 -7.202799127212242691e-01
6.558948096995900756e-02 -9.105695062975863174e-02 -9.950467475994529964e-01 -6.744061813784469894e-01 3.125874486385241124e-01 -6.689285383897138892e-01
6.314923413763055826e-02 -8.443282572682683784e-02 -9.893822955998100577e-01 -6.190539728863549973e-01 3.511993427301677295e-01 -7.024465818263463390e-01
2.689303910852161150e-03 -2.311646218632429917e-01 -1.026118372228608244e+00 9.433755514845354462e-02 4.851210058615452736e-01 8.693434507491817342e-01
-5.134634004238713273e-02 -1.011583630512045695e-01 -9.606351846507135139e-01 9.391102712075450887e-01 -3.434202310748885045e-01 -1.159497309013807903e-02
-9.275001069503354192e-03 -2.474871794113268075e-01 -9.995451673388774383e-01 4.835745096929567333e-01 8.613724059910519149e-01 -1.555418650151872972e-01
3.427684719933950415e-03 1.800123595993092379e-02 -8.697498957504410377e-01 -4.314641696077550770e-01 5.127610713285559729e-01 -7.422363195604763098e-01
5.167068100576475975e-02 -3.560774264351200535e-02 -9.518989948135161416e-01 -4.151822429394479430e-01 6.280462315725942046e-01 -6.581653562405366253e-01
7.167283458805492891e-02 6.587262613805990041e-02 -9.263772749568525144e-01 -8.672356329847697998e-01 -2.415689587389194259e-01 -4.353697222537409317e-01
-3.569859200232360780e-02 -2.156910950065575594e-01 -1.005592794456160899e+00 7.513055211364293440e-01 2.699529919084309171e-01 6.022170672353988063e-01
5.299740712944819854e-02 -5.426737296584206033e-02 -9.662137510301990195e-01 -4.902536845980070557e-01 4.398156837137230935e-01 -7.524715869037899019e-01
-3.235238074850965706e-02 -1.301943744037729056e-01 -9.138382140085997696e-01 -2.748057357930115963e-01 1.049412233466689437e-01 -9.557557989454030789e-01
8.886078001719938113e-02 2.367578240228432329e-01 -8.048911077762258559e-01 2.632821289228564621e-01 -9.428666111567668429e-01 2.041692292085232341e-01
-6.663679915734423143e-02 -9.973440285560702945e-02 -8.777342442202618056e-01 -2.875571003926590818e-01 3.034343019954092169e-01 -9.084264077988510877e-01
4.679153129547251183e-02 -2.823074703478964734e-02 -1.004556378315226706e+00 7.553386183089694228e-01 5.719321864108294351e-01 3.199330333654610281e-01
7.684978579256540598e-02 2.000052628187238279e-01 -7.870196164432797792e-01 2.509548102992234520e-02 2.857435692437421126e-01 -9.579774681419827020e-01
-2.902968252193370916e-02 -1.478818769254289789e-01 -9.935522736559222468e-01 -1.228732732086219581e-01 7.761809288268638196e-02 9.893824287848728138e-01
5.488686999388979991e-03 -1.245176531381994162e-01 -9.506066705031216424e-01 -3.436977929337542426e-01 3.646400745436755853e-01 -8.653955414544545199e-01
1.698965673732448847e-02 -2.076213507735726882e-01 -1.036395295314484155e+00 -1.982360587073589420e-01 3.852914685980265430e-01 9.012507693498787997e-01
1.542737595951200989e-02 5.001357570425079418e-02 -8.619578289288007955e-01 -7.840584109687123160e-01 1.183402032818450800e-01 -6.093012427990189828e-01
8.686416923673193069e-02 2.350351772709466935e-01 -7.967065294933129982e-01 4.097499379851874957e-01 -8.270664685421630358e-01 -3.847935094753160423e-01
2.816872599616437531e-02 1.577202199853788289e-01 -8.003417310373655003e-01 5.211041126180655791e-02 3.499244712380316091e-01 -9.353274129773536671e-01
5.802093624741534728e-02 -1.215292925419962644e-01 -9.978738878634216825e-01 -4.505167204953374749e-01 4.923137909904431453e-01 -7.447562122968454101e-01
1.156477373325933838e-01 2.204785056245604224e-01 -7.950981250465964933e-01 -9.054003322703547685e-01 -4.008066575499593526e-02 -4.226627243528426892e-01
6.139091073622223588e-02 1.911203630348689009e-01 -7.897905890848311294e-01 -1.660458893614027293e-02 2.918751519075507561e-01 -9.563122833704511550e-01
3.278386050782298305e-02 -2.101886606516752409e-01 -1.017873572547265626e+00 -8.708455210944178182e-01 4.913207090628870510e-01 1.523283413332722144e-02
5.025090890507531716e-02 2.100214103407975763e-01 -8.244018029671389414e-01 3.779673894990158711e-01 -7.525651294505576461e-01 5.392461204407171804e-01
-1.607547049469256611e-02 1.787897690964613748e-02 -9.358284907854953483e-01 -2.750200881757893234e-01 -3.902102336701726015e-01 8.786921671659820854e-01
-6.254437465606590973e-02 3.634509845937011763e-02 -8.295033588945878167e-01 3.697570300848508351e-01 -3.542110254201477626e-01 -8.589611680242815739e-01
-3.385253682238278938e-02 -1.543451292632556926e-01 -9.936253677704031118e-01 -1.875020192126335972e-01 1.698247914214226495e-01 9.674722388832949216e-01
-6.274173644634774283e-02 -3.319886200716555547e-02 -8.438344555391642521e-01 -5.253400411382138646e-01 5.044391206378983084e-01 -6.852437630120854495e-01
3.016304141307270259e-02 -1.609081583722823117e-01 -1.042356041848948145e+00 1.276882660832802212e-02 2.743312873524539081e-03 9.999147120137418243e-01
-4.536146132376359108e-02 -2.765059284508743567e-02 -9.283503671552577607e-01 5.909105613839475968e-01 -7.981967082299978866e-01 -1.170757165927405197e-01
-9.116991689032689916e-03 -8.102315466129676735e-02 -1.001183500144269489e+00 3.206306419019606668e-01 -6.821883022653137951e-01 6.571264046786624569e-01
-5.011841476936302470e-02 -1.167137977033243096e-01 -9.808182422791057453e-01 8.337219455787479028e-01 -1.736681636480690849e-01 5.241632249552562461e-01
-1.634122442554465995e-02 1.245095666969919107e-01 -8.339835032850413388e-01 8.534979027784994621e-01 5.556470091390656313e-02 -5.181253651048665088e-01
-7.452786687739856863e-02 -1.428841006516810563e-01 -9.455491067905250624e-01 5.791924336862277478e-01 5.613222662111220368e-02 8.132559854653271803e-01
6.605294379192802601e-02 -8.899435788534790226e-03 -9.483445507960246434e-01 -6.414602083292945123e-01 3.495827015212254474e-01 -6.828768087490302285e-01
2.219364610334574259e-02 -1.954413534758134563e-01 -9.872488997415829193e-01 -8.258186817717700912e-01 1.411770997191734989e-01 -5.459785081407677598e-01
-3.115893487740490145e-03 -9.125288355120830808e-02 -9.234884316167440987e-01 -6.745990111760095109e-01 2.434015165524351654e-01 -6.969016256691646927e-01
-2.224854402668124606e-02 -5.174630006817043659e-02 -9.740209835226663060e-01 9.917818318879835227e-01 1.278649431661323665e-01 -4.399346091967306326e-03
-1.105571943553283580e-02 -5.699104712124324762e-02 -9.039793479351343475e-01 -5.798326595447088616e-01 4.379112414088430216e-01 -6.870428164045347952e-01
6.275047479509079928e-02 -2.815782438182721364e-02 -9.538053149390052221e-01 -6.378381688985413911e-01 3.002726622182003702e-01 -7.092240820929237577e-01
-2.483207175919429147e-02 -9.846414165362328552e-02 -9.125200808092180926e-01 -6.016279390746991362e-01 2.687733244972450586e-01 -7.521999222038169286e-01
4.795026834509436703e-02 -6.885180168004585710e-02 -9.704677451700197688e-01 -5.118502995406978284e-01 3.780318160793972870e-01 -7.714280374032372878e-01
5.872106001277218462e-02 -1.106133250073412094e-01 -9.938560734963070020e-01 -8.155038886383167984e-01 5.272384314761910384e-02 -5.763450389996677137e-01
-7.713855911413591837e-02 1.832885585955916843e-02 -8.340160396674727306e-01 7.233652252656714854e-01 -2.515054559809769552e-01 -6.430301365318309426e-01
6.852210602761280023e-02 -2.323153954573806482e-02 -9.575332075497438034e-01 -7.280080609283052784e-01 2.250578900149850237e-01 -6.475748677685163601e-01
2.778154800362410762e-02 1.370799726434096810e-01 -8.240448352183343816e-01 -8.325170173922966654e-01 5.406340056694852736e-01 -1.209557260571041681e-01
1.696965398352839882e-02 1.222856990578776448e-01 -8.555592329629398973e-01 -8.767920779849099899e-01 -9.608369651583879845e-02 4.711725535796366660e-01
-5.003089627535765166e-03 -2.503531835981945980e-02 -8.873182132941052069e-01 -5.257686650934075834e-01 2.320193722938420078e-01 -8.183729722359284198e-01
7.089352332711225391e-02 -9.104513094953732566e-02 -1.000597838880151302e+00 -6.865600725410606620e-01 3.412129296469442741e-01 -6.420350484468607677e-01
8.434923291274752655e-02 -6.790604670917457786e-02 -9.961499758922414127e-01 -5.808881502023992560e-01 5.435285504672001666e-01 -6.059254671834305439e-01
1.045139674136478895e-02 -2.331356109330985638e-01 -9.896347762683853633e-01 -4.099116331203331298e-01 4.348301170949029348e-01 -8.018074720903104469e-01
2.486219876398705359e-03 -1.185128443564738981e-01 -9.465312444664809588e-01 -4.653880874961263125e-01 3.966481900110954695e-01 -7.912547891656768195e-01
6.254927492148557033e-02 1.871001252912217194e-01 -7.914695940204915514e-01 -1.497099068135966382e-01 4.930625609304933321e-01 -8.570159011421711881e-01
-3.091733753350705063e-02 -2.173793223645920369e-01 -1.010535012016196221e+00 7.220402166812639466e-01 3.072983694544718647e-01 6.198593692326478388e-01
-8.140771418322135383e-03 -1.082814960548345168e-01 -9.296044709255051330e-01 -7.103789426736130119e-01 4.588651250770542367e-01 -5.336708300009835870e-01
8.435994213259916108e-02 -4.763887240125072586e-02 -9.869641610916592978e-01 -8.519687724113426119e-01 1.643030133781837321e-01 -4.971455829339710975e-01
4.104563610131439083e-02 8.736620609210828114e-02 -9.179698007562243633e-01 -7.107291382248923095e-02 -9.415294455631390003e-01 3.293492736569322288e-01
5.607976352472836268e-02 7.488017299681783145e-02 -9.071969442367067149e-01 -7.197326929126313111e-01 -9.615334344710996239e-02 -6.875604593755183513e-01
4.194205886505888992e-02 -2.339266040948124320e-02 -9.327495087776607186e-01 -5.903736960625011188e-01 4.838021634355939571e-01 -6.460606516825955215e-01
-4.545564305619337331e-03 6.015720258923661773e-02 -9.165441550410752258e-01 5.442884314342920637e-01 -3.330842610522515290e-01 7.699382952198658980e-01
5.752249333188282077e-02 -9.143180642770445260e-03 -9.407476064225631651e-01 -6.134679042625410528e-01 3.276180598328611304e-01 -7.185565651436756074e-01
8.586980689861141436e-02 2.016565101233154782e-03 -9.901864042011722100e-01 -3.919934452864375918e-01 -4.440216024943818840e-01 8.057207676179072298e-01
7.380544494380851528e-02 6.219563732187475581e-03 -9.921092420735950768e-01 -2.704382558661655445e-01 -5.650591404240096205e-01 7.794686123169717318e-01
5.949203612185421236e-02 -1.533746674480837291e-01 -1.026139522967393081e+00 -9.037736584689470831e-01 4.240290940698142053e-01 5.824518555200636910e-02
4.009718775967675841e-02 3.100137950623799848e-02 -9.010743597200026045e-01 -5.304727413454556340e-01 5.847621846563035852e-01 -6.137196901562015361e-01
-5.033257822079376803e-02 2.241348686012433269e-02 -8.939950283686409760e-01 6.971649469724208181e-01 -6.901177923781742773e-01 1.941609367406752773e-01
-5.686260203200523000e-02 -9.524687013103133593e-02 -8.808736151457011720e-01 -6.162877393820314076e-01 4.154074922251878577e-01 -6.690486063736814648e-01
-2.358901800463407764e-02 -1.523937115821612787e-01 -9.420270228083441610e-01 -6.965395733638293230e-01 3.687830525923971869e-01 -6.154930404633084384e-01
3.589563912371945137e-02 -8.926125584174975092e-02 -9.662964210160299716e-01 -6.199808459497165858e-01 3.397421885771215178e-01 -7.072474785789631957e-01
3.780575497274055868e-02 1.511347727406835151e-01 -8.152458130895314792e-01 -6.998687394300958653e-01 7.110853199403492919e-01 -6.739002399361011808e-02
1.927764588412556393e-02 1.042078603143855586e-01 -8.515138044618479896e-01 -9.916709377282395543e-01 7.616768795708478423e-02 -1.038616126221129782e-01
7.831151252096529847e-02 2.542033440546764833e-02 -9.801389306791470357e-01 -3.282069104240464275e-01 -5.024509734202915467e-01 7.998895194080887228e-01
6.701809887015768019e-02 2.163146003147176366e-01 -8.244282386261433393e-01 1.445007834790588419e-01 -5.558956291806658179e-01 8.185960988373751634e-01
8.469920349957343192e-03 -2.421428097922032063e-01 -1.019549890102496192e+00 -2.279156040545987916e-01 5.066374391323124060e-01 8.314884140490952369e-01
8.958846705251116704e-02 2.365551284039787705e-01 -8.067655426486359804e-01 2.632821289228564621e-01 -9.428666111567668429e-01 2.041692292085232341e-01
1.696390003571108043e-02 1.870990373365943316e-01 -8.184492247611553362e-01 7.588437311062078416e-01 -6.478455979843312784e-01 -6.672535449986792544e-02
3.716598479217479711e-02 6.879674818338558928e-02 -8.893525317600590174e-01 -7.161913179363454951e-01 8.429206293906763015e-02 -6.927949510772117847e-01
-4.005153414654537281e-02 3.048396185812876982e-02 -8.378876828163434043e-01 -5.464713749291173484e-01 2.001060609215356001e-01 -8.132198969316641879e-01
7.965622862704115070e-02 -2.706199831099782155e-02 -9.731107462596815250e-01 -8.214778434859337786e-01 1.715426735477789955e-01 -5.438265015735989083e-01
-3.043916900083326257e-02 -9.840196727751256145e-02 -9.078679022393866260e-01 -6.167271026571014003e-01 2.944712745357263017e-01 -7.300235265534129603e-01
1.004494756774043512e-01 2.384344289940907025e-01 -8.043522165841873184e-01 -1.161005321687269692e-01 -9.605510620331432214e-01 2.527099595527231291e-01
-4.343176016398799660e-02 2.908529435907998215e-02 -8.918924428732979415e-01 7.200683647189773939e-01 -6.862007213969467667e-01 1.031024737106121247e-01
-6.728466974291724689e-02 -3.774227720416939436e-02 -8.442407979282042785e-01 -3.944619527344493393e-01 4.990763367971168263e-01 -7.715714988865878254e-01
-1.548781134838272087e-02 8.264059901859696633e-02 -8.997933101900946751e-01 4.616717235568652128e-02 -6.019878645331396827e-01 7.971694946192500186e-01
-3.004575686262134920e-02 -1.782829975897393116e-01 -9.486493169376184476e-01 -5.791055734657875043e-01 2.472253336534352419e-01 -7.768631598813323658e-01
3.138820396514205996e-02 -1.790288940006938279e-01 -9.942084174455412260e-01 -6.425902808384162945e-01 1.983772376914124669e-01 -7.400839158757132052e-01
1.350662223975393830e-02 2.481364568608298779e-02 -9.596377926783927759e-01 5.274754219117749887e-01 -5.803917435293519667e-01 6.204152668350075839e-01
-9.116462948561582236e-03 -9.365188982388608641e-02 -9.199551611376488580e-01 -4.086834792324329779e-01 6.263636280180404081e-02 -9.105242994327136241e-01
6.018197285367320182e-02 -1.110055709085451398e-01 -1.038338166218232272e+00 -2.139529334525567816e-01 -7.314960344417255345e-02 9.741012666981836432e-01
2.793725984564858489e-02 -1.065928314167131630e-01 -1.027404294533050155e+00 1.245688817948652563e-02 -5.483760096782677174e-01 8.361390900718755903e-01
1.718851379637971639e-04 -2.026863711189867412e-01 -9.726589433661320117e-01 -3.703418160527855996e-01 3.420248640906297100e-01 -8.636353001276121377e-01
4.959574221072470673e-02 7.975973773552326451e-02 -9.014205552883794992e-01 -7.077983372516525318e-01 -1.526951024895253084e-01 -6.897142302863621399e-01
-7.093214771158753984e-02 -1.404781340666042821e-01 -8.981842733151989000e-01 -3.336926140201098012e-01 4.588586895820953582e-01 -8.234670256564181612e-01
8.599740660040661178e-02 -4.886002705242556421e-02 -9.905676215415208929e-01 -8.809000706943784786e-01 1.674778264669308514e-01 -4.426807462410707883e-01
-4.853157191163387507e-02 -1.176262308708539428e-01 -9.834300884290511080e-01 7.890464346057607381e-01 -1.861539822726553384e-01 5.854506118537828874e-01
-5.542236562812404010e-02 -9.288542092156679142e-02 -8.807340682492459383e-01 -6.162877393820314076e-01 4.154074922251878577e-01 -6.690486063736814648e-01
3.631047732005767553e-02 1.774665522418273911e-01 -8.399647819843976126e-01 -3.151614024194352437e-01 -1.649399324820552681e-01 9.345951578613221900e-01
-5.083619292310458115e-02 -1.106248843681751637e-01 -8.961369091536004472e-01 -5.869139411968917752e-01 3.566393667232962694e-01 -7.268702688457807648e-01
-2.853674131077334544e-02 8.273638851677485306e-02 -8.546716973194630196e-01 6.486358193626691193e-01 -7.584121489447116504e-01 -6.389511853642058925e-02
9.797705520620206276e-02 2.219947650790417004e-01 -7.836630149155596747e-01 6.525437697729455366e-02 -1.750528038803865483e-01 -9.823942091334414428e-01
-9.308038295411652507e-02 -3.006403256912346111e-02 -8.795276728723031567e-01 9.504387421796387514e-01 -3.101536069849011867e-01 -2.170109301951073794e-02
-5.600518662848072426e-02 -1.900125251383167069e-01 -9.770408339761849081e-01 8.813329290011038264e-01 2.203312611495391871e-01 4.179789511669081969e-01
2.406281488107025329e-02 -9.939052835738948835e-03 -9.076837685930180255e-01 -8.144081250554279228e-01 2.204690604954392674e-01 -5.367800286970075829e-01
4.112045976680402809e-02 -1.040204923511783702e-01 -1.036782719800423136e+00 1.733799521700788993e-01 -2.428305567834463941e-01 9.544489053258651268e-01
3.579638539764403587e-05 7.760487860211227884e-02 -8.444946108881565827e-01 -1.667254747092024592e-01 4.054920408157587919e-01 -8.987651644996381695e-01
5.894533514369128258e-02 1.952654729507802556e-01 -7.891110566920889191e-01 9.464367467736410633e-02 1.119828675827594239e-01 -9.891928084107298735e-01
-9.320606961121678802e-02 -9.448032860220807738e-02 -8.807652005319347444e-01 9.286372748405715694e-01 2.351366997118929103e-01 -2.869556485334900375e-01
6.715069320720232215e-03 1.262710321572674543e-01 -8.149700437319008506e-01 -7.439115550784350037e-03 5.591267923913890714e-01 -8.290487860131865450e-01
9.013143077414683541e-03 -2.430304752501082355e-01 -9.944249509279657895e-01 -4.516484963059161362e-01 4.425907740620436681e-01 -7.746786704820040059e-01
-5.260379958165160852e-02 -1.986153846503062315e-01 -9.781051790850862071e-01 7.759845377703802338e-01 4.079977650005231493e-01 4.810258006550862109e-01
-4.552901741110292749e-03 -2.187887956664938127e-01 -1.019981281425939912e+00 9.042011299566713456e-01 2.026651229882812377e-01 -3.759616529770329896e-01
2.191959652434971595e-02 -4.099487402875422182e-02 -9.266556301979462784e-01 -8.156627107994978143e-01 3.456923424349915286e-01 -4.638869976546264318e-01
-7.654160318514378891e-02 2.673627144932120073e-02 -8.382444215631879025e-01 8.147124052410875672e-01 -3.748712188653021138e-01 -4.423971812893076061e-01
9.129366792974133449e-02 2.002993323536358117e-01 -7.881635962237729665e-01 -1.697324048157651810e-01 5.980071018089206936e-01 -7.833124644364800604e-01
8.726540762506640458e-02 2.334111480045999165e-01 -8.122747851046688838e-01 2.293063534356469257e-01 -8.391094797905848113e-01 4.932685649822215468e-01
-2.662857748421654930e-02 -1.755299437145401154e-01 -9.503045591342769161e-01 -5.544621175580909389e-01 2.259440003001756125e-01 -8.009501038899687897e-01
2.719236889620561815e-02 9.387544728328675592e-02 -8.937687982702727796e-01 -1.962126427385074978e-01 -9.768969158579010603e-01 8.469365157372552022e-02
-9.807901024662927028e-03 -1.303007841134070366e-01 -1.021303998336263286e+00 6.948546574316495361e-01 8.509698575619913108e-02 7.140976880376759262e-01
6.575287620958084403e-04 -8.914196691586384613e-02 -1.011348321559823571e+00 1.196336479025481986e-01 -6.628264340632556983e-01 7.391541845897360297e-01
4.104740181013902256e-02 -9.081029106783911065e-02 -9.716387194332032351e-01 -6.925851027675967719e-01 9.977753078744615312e-02 -7.144020715076051520e-01
1.451038745406421811e-02 -2.364706443154460380e-01 -1.020164714421318619e+00 -4.552195703986536834e-01 5.316417410401020893e-01 7.142353967074961396e-01
3.017843245290258679e-03 7.249946868700676839e-02 -9.137959687321790536e-01 5.824889481143895598e-01 -5.796292688563968731e-01 5.698565924946298322e-01
4.759507741102830813e-02 6.938922905249421402e-02 -8.994499314187612837e-01 -6.819696168746202103e-01 1.054033373103438337e-01 -7.237455202926823539e-01
2.525241781042135772e-02 -2.166167771449591661e-01 -1.003087141116058234e+00 -8.635160078776009662e-01 2.545304694925872302e-01 -4.353783920212551117e-01
-3.508553755110989381e-02 1.173678193313798870e-02 -9.199772863023497615e-01 1.684582496285153552e-01 -5.376650337094803778e-01 8.261586588896107086e-01
5.837718607713404326e-03 1.085381335639493128e-01 -8.738315252474436745e-01 -6.399037793381273653e-01 -2.907082679941852543e-01 7.113451033841463600e-01
-8.611932842838236624e-02 -1.111272773964982336e-01 -9.202519503504441589e-01 9.275829469169951658e-01 -9.595943125676885399e-02 3.610840125810892975e-01
3.548121360793563689e-02 -4.069505417620946502e-02 -1.008876033771043179e+00 1.245670153869685992e-01 -6.065240194962973064e-01 7.852462495622871685e-01
3.357063774460716105e-02 1.933308690638049776e-02 -9.779654684680815224e-01 3.540785331440487460e-01 -6.167741475727467337e-01 7.030064318713380445e-01
3.225812426545782846e-02 -2.567705579822491396e-02 -9.259538813039557281e-01 -5.605726882964245927e-01 5.582037607556205039e-01 -6.116917709225794253e-01
2.239082037108713549e-03 -2.628885518366660956e-02 -9.853409821058595197e-01 4.044557196623880246e-01 -5.787565001760970329e-01 7.081359222185349411e-01
-2.018095781321002646e-02 1.469295070715067458e-02 -9.385438319192963563e-01 -2.755122323854771738e-01 -4.152884608948719802e-01 8.669651112089454825e-01
-4.006179286203864764e-02 -2.188764488404838504e-01 -9.959885336582525728e-01 8.421276947944753566e-01 3.905319395065824928e-01 3.718948102425868041e-01
1.027306581989175481e-02 -3.755550842830392838e-02 -9.974917677434356200e-01 4.071718959475969513e-01 -4.865046771190332797e-01 7.729969251502519789e-01
-2.408347421750677703e-02 -4.159168010481470446e-02 -8.815381915581552708e-01 -4.898170012726213440e-01 2.872006795943740642e-01 -8.231616335233477022e-01
8.560206835543152093e-02 -2.157131850473621368e-02 -9.797685147901989966e-01 -7.988997436152747156e-01 2.500770745695000685e-01 -5.470106547647940465e-01
-8.153593151628781011e-02 7.882158767277524722e-03 -8.725404206615682279e-01 6.146223646847150945e-01 -1.233845600586224306e-01 7.791120581588434346e-01
2.205290638478214771e-02 -8.901070398792183813e-03 -9.860756873182662252e-01 7.274310927421930861e-01 5.239140725456830072e-01 4.431230640583892488e-01
1.155002574859729722e-02 2.315017508290629147e-02 -9.594822323559026866e-01 5.573509708589795553e-01 -5.524730191106598243e-01 6.197850098520493178e-01
-4.839873825866830570e-02 -2.098194180141157439e-01 -9.583246010308056340e-01 5.414782574601356702e-01 7.650692311656794864e-01 -3.485259936095025379e-01
-2.885457776933907093e-02 -2.208704630680029812e-01 -1.011058938502545468e+00 7.043142519809314495e-01 3.433847901626231880e-01 6.213117738635831611e-01
-5.229483946909065095e-02 -2.622828640537239187e-02 -9.211728235925438213e-01 3.349271949722907454e-02 3.267597484195159940e-01 9.445137926750961643e-01
-6.917530716216771514e-02 -1.023983439773191312e-01 -8.778620077743475303e-01 -2.589343078277366872e-01 3.039629418831111263e-01 -9.168203500094960212e-01
7.286471171434742711e-02 2.511197863933893604e-02 -9.811261712655695577e-01 4.062091831881054632e-02 -2.628073276610760622e-01 9.639928679832545644e-01
-4.749035443731056821e-02 -2.061503199353909577e-01 -9.783167331393916033e-01 6.601742722925642015e-01 5.959069410784988419e-01 4.572360963194502248e-01
1.113138156022596553e-01 2.234443676689710223e-01 -7.888679917575738276e-01 -7.124550326474800022e-01 -1.483437984096322992e-01 -6.858585451306125069e-01
7.335651574217058601e-02 -3.274847446794058869e-02 -9.660411769932227832e-01 -7.784392405361469924e-01 1.495314464034902813e-01 -6.096496496595289472e-01
3.072164850014608845e-02 3.893694872238304128e-02 -9.562299934923057521e-01 2.861145127544068023e-01 -8.179740605358839511e-01 4.990560308039029835e-01
2.610792551141924087e-02 1.447562347677673056e-01 -8.436569701125401499e-01 -8.025856748605626478e-01 2.113204979649757620e-01 5.578529211615278482e-01
1.936712716084777741e-02 -8.787762901738101207e-02 -1.020260292372560107e+00 7.846577372442282705e-01 3.848300963100562688e-01 4.860226665051336492e-01
-6.760630228436846634e-02 4.512062300474680571e-02 -8.434146857706211753e-01 8.065731270232731065e-01 -5.540737365751340349e-01 -2.060147693772648725e-01
-9.563761422806661694e-02 -8.675050150939964122e-02 -8.885252642785006483e-01 9.984878478691820991e-01 4.845905425393478433e-02 2.595645812477112568e-02
1.371821193674507833e-02 -8.176992797061705120e-02 -1.016130722277157394e+00 7.668416444225187867e-01 5.445484490630473351e-01 3.397364846500842694e-01
1.018121978294591612e-01 2.381110064681889738e-01 -7.956199987371840310e-01 -1.684540460794736461e-01 -9.282352087953025244e-01 -3.316664461657157226e-01
-2.808041987442322363e-02 8.159197705393987643e-02 -8.910481011078400515e-01 8.678977622944672454e-01 -3.753913377777241545e-01 3.253226363561362855e-01
-4.157523601155983795e-02 -9.753477197887963634e-02 -8.981586573069714197e-01 -6.211488017642863291e-01 3.061027755902306913e-01 -7.214397111628579884e-01
7.809582576296179857e-02 -7.168692674665050335e-03 -9.608842170496371127e-01 -7.284502300879468484e-01 3.930312725833423615e-01 -5.611476463965034966e-01
2.114264949269563029e-02 1.345468727540068410e-01 -8.133258130406401110e-01 -4.912954427071237751e-01 6.225017995321875386e-01 -6.091964359337629364e-01
-8.782268607886029033e-02 -1.161062203041756807e-01 -8.860400334410331036e-01 8.318184813944728973e-01 4.379158349448568632e-01 -3.410391993820382495e-01
-8.362675716015779970e-02 -1.437451232114383623e-02 -8.361511711890242671e-01 5.628269282492776027e-01 1.234545497164768885e-01 -8.173033849139401674e-01
-1.609479128184597083e-02 -2.220683674547854203e-01 -9.754023246812496550e-01 -3.602636777463646411e-01 4.964261238522903463e-01 -7.897918624888797812e-01
6.429936387802030751e-02 -1.063721202565097446e-01 -1.037047735917685509e+00 -2.016837475048994799e-01 -1.128966530188014600e-01 9.729224078669027609e-01
-6.811179764348851418e-02 7.574547904874474012e-03 -8.851736552211264542e-01 6.660266229668351246e-01 -7.457216520835423523e-01 -1.754295052678093297e-02
-1.495694920216587322e-02 -1.321685305681706279e-01 -1.000151831147934711e+00 7.412898593107738465e-01 4.806252016491568968e-01 4.684962753562939008e-01
1.641333378776052565e-02 -1.243660396825709280e-01 -9.614757335126705717e-01 -9.650257799526522628e-01 6.877274092269401728e-02 -2.529734257441972334e-01
-7.787692294290630632e-03 2.921342117463640933e-02 -8.567649827739398649e-01 -4.280899907749731170e-01 1.611330156706293759e-01 -8.892553688672180101e-01
3.824857806517149850e-02 1.872472077600371432e-01 -8.364760671772749623e-01 -1.027219155948134489e-02 -4.317220058690192652e-01 9.019482200930358795e-01
-4.031828348123501354e-02 -2.345621545490853693e-02 -9.265942604874016775e-01 6.409720141837187413e-01 -6.920426874921872251e-01 3.320117403373819553e-01
-2.944323991746058272e-02 7.871109487528105131e-02 -8.676517011595472617e-01 8.291556336289647167e-01 -5.391492296323021627e-01 1.477127056425574791e-01
8.594836347573851787e-02 3.553538035261425559e-02 -9.652252918335693099e-01 -7.661558026610069128e-01 -4.981010404262989355e-01 4.060795975853830897e-01
1.198711635937236338e-03 1.177621815038066705e-01 -8.223895849771515332e-01 1.541749732140678120e-01 5.874550603989148190e-01 -7.944347862764750134e-01
3.597410573160948061e-02 3.992459112012513439e-02 -8.928453724857816631e-01 -7.223873800781517307e-01 1.070609495160765035e-01 -6.831503686543245468e-01
-5.083385060876646766e-02 -1.290174516819808936e-01 -9.831492749315451363e-01 7.935580086770236408e-01 -1.108233947677706860e-01 5.983175260985618138e-01
8.544885174294737651e-02 1.835400152094650988e-02 -9.490621553469545946e-01 -8.668687517606449289e-01 1.258528813653729261e-01 -4.823894893889944524e-01
5.407886390531602833e-02 -1.666760749299540101e-01 -1.026969750334956188e+00 -9.437373327058634631e-01 3.240676326121624817e-01 6.587880046244527776e-02
5.936543717140918552e-02 -1.325187983615818132e-01 -1.036839790803546268e+00 -1.366891591885970869e-01 2.994249757430643144e-01 9.442779027709903295e-01
3.925993985808339665e-02 -2.666919042302347623e-02 -9.332313127499374250e-01 -5.249193660310124132e-01 5.993841607601787524e-01 -6.043163798834313427e-01
5.628452514052636330e-02 1.901330390768862233e-01 -8.320338126004850343e-01 -3.450658199319197594e-01 7.738015716245549847e-02 9.353832857135226941e-01
2.265794304066281063e-03 -2.485603685733693835e-01 -9.949202726074717340e-01 -1.367264231113164696e-01 6.044070087464800123e-01 -7.848554344599503185e-01
1.933870775961243904e-02 1.822212941643636674e-01 -8.054285424375944302e-01 7.375709138122812369e-01 -4.182464343153175501e-01 -5.301500422339311402e-01
-1.929849929195709066e-02 -2.392147282949301512e-01 -1.004446304932376410e+00 6.392484776411454517e-01 6.916525540624769430e-01 3.361221925019687307e-01
-1.117327759731686319e-02 -1.530486031763981236e-01 -1.006515974465591379e+00 9.986517246812115500e-01 -5.135975666642149384e-02 -7.543751481028915934e-03
4.175525121612781720e-03 1.312966966857127271e-01 -8.123878058389685242e-01 1.749663083378062423e-01 4.035491294574651278e-01 -8.980728762526801745e-01
-3.062590982050119454e-02 -2.206225332249051041e-01 -1.009174989426198765e+00 7.075055328443026204e-01 3.734329506376375951e-01 5.999864601578664969e-01
-4.656439834128443811e-02 -1.699242795624736624e-01 -9.258780288944133963e-01 -6.777093890634449114e-01 5.286841863574233136e-01 -5.110802432797038053e-01
-8.642355108970617428e-02 -5.602855099988295756e-02 -9.087327503653503946e-01 7.531617752251157372e-01 -1.064814718194385113e-01 6.491602548669456185e-01
-2.866537251434748274e-02 -2.244050960351874069e-01 -9.729336761450119164e-01 -1.141214421839778226e-01 8.024076431074919080e-01 -5.857629816884375451e-01
-5.995921221073585022e-02 -4.412082070480629475e-02 -8.557956080918480701e-01 -5.361535727001259799e-01 5.280356976665334656e-01 -6.585724322128188035e-01
-4.515688124178110496e-02 -4.119451751779981685e-02 -8.661838144696886177e-01 -5.942553541796186112e-01 4.330175590885392833e-01 -6.777583400813735892e-01
-7.366373668320479531e-03 -1.116847235537614946e-01 -9.334663267027092370e-01 -6.854345043719999309e-01 4.502857471240094833e-01 -5.722082541813628964e-01
-1.049860760597581474e-02 -1.844612196863583686e-01 -1.018384124802834245e+00 9.515943563015678563e-01 1.030206709080630917e-01 -2.895771441613740893e-01
6.571369875499065427e-02 -3.941755350076289049e-02 -1.015546572131866832e+00 1.481231180671445380e-01 -2.506836866439187128e-01 9.566698652851358675e-01
-6.653794491857684124e-02 -1.731846533202427429e-01 -9.591821621912637319e-01 9.199511738489177803e-01 2.149057301009825449e-01 3.278801075145636457e-01
1.776748687618443174e-03 -3.868140351502974417e-02 -9.019910285488705881e-01 -6.040966236474093476e-01 5.061958327733663277e-01 -6.154941495909430627e-01
-2.929300482101222444e-02 -1.113087181457580593e-01 -9.942775331512275772e-01 -2.538670643464970844e-01 -3.463871927010630514e-01 9.030877179835677948e-01
3.625074492531671355e-02 -1.071887079508313939e-01 -9.785005782586033707e-01 -4.400800159302449277e-01 5.012467441753792885e-01 -7.450377715474679752e-01
-3.780169763284756037e-03 1.398630989325923002e-01 -8.593328876360990520e-01 2.339638481080450194e-01 -5.552053459081675024e-01 7.981277727616472584e-01
-6.009247592509044111e-02 -1.787709011583096530e-01 -9.242410530971117977e-01 1.751840693965264414e-02 7.299984663273743069e-01 -6.832242271597063210e-01
1.252853760625774297e-02 -1.001215458657554735e-01 -1.022346201405571531e+00 3.324208335700536837e-02 -6.796983709996466949e-01 7.327380762281378024e-01
6.224542678342882135e-02 -2.015142387846842117e-02 -1.007677673380658501e+00 -2.507287256959681021e-02 -3.933444029531395492e-01 9.190492542440512613e-01
-7.403489213592824580e-02 3.611375690857428211e-02 -8.550590868600456140e-01 8.447270540897398039e-01 -5.217035244808161387e-01 1.194220944095530645e-01
4.987833867586773801e-02 -1.103996039887885361e-01 -9.863384742332799160e-01 -3.126741495296802009e-01 5.426460049972479105e-01 -7.795961707681853259e-01
3.576053640205407308e-02 -1.942796267954029210e-02 -9.945330291064250483e-01 7.257399391292853608e-01 5.680176225010483693e-01 3.881462627423811762e-01
7.143186934009497502e-02 2.106109764663149572e-02 -9.322414957549717274e-01 -5.372613901567143690e-01 4.745824393608409353e-01 -6.972242873689843412e-01
4.429669782920282739e-02 2.106777090902202387e-01 -8.045993295397638745e-01 5.766702154490199739e-01 -7.551210895449904648e-01 -3.118390654462125933e-01
-2.793778083623763356e-02 -1.244536999508868008e-01 -9.147970552091353458e-01 -4.600256131514678382e-01 1.594720673188699811e-01 -8.734672832966680067e-01
6.563105293935103668e-02 5.578761308118702217e-02 -9.609316356706935069e-01 -3.159918421362074015e-01 -7.160270857804755806e-01 6.224583264220067136e-01
-4.277210442407869406e-02 1.972494859142555693e-02 -8.389304910036792240e-01 -5.282667744123323850e-01 2.065933224124557321e-01 -8.235614210164124982e-01
-2.076502821249954361e-02 -4.243704659741975166e-02 -9.774752246027890168e-01 7.463333002157805929e-01 -3.182426442751327689e-01 5.845581445449140601e-01
1.689658635469930628e-02 -2.452085012015589316e-01 -1.010130600097019160e+00 -8.378109857971985930e-01 4.640596643479800720e-01 2.876132472657790817e-01
-4.842767321593114543e-02 -1.792897936932401071e-01 -9.880198353916552767e-01 4.508642128242644209e-01 1.232668954532613881e-01 8.840400070583179781e-01
-4.774783659089660431e-02 -1.051067468124902010e-01 -8.961712520952034300e-01 -6.243978061731894069e-01 3.271321039788883667e-01 -7.093038602689636374e-01
-2.676833598359789484e-02 -2.324031555197967613e-01 -1.003084210547569688e+00 6.902539966382830183e-01 6.083678456704446624e-01 3.917116088133962282e-01
