4.611866417536895218e-02 -1.102417800835527734e-01 -8.769141800924992181e-01 -8.985172658848074034e-01 -2.327319217044395427e-01 3.721593415818671424e-01
-4.709933985755772323e-02 -2.349041153998317893e-02 -9.192534160403246224e-01 8.667013261566361981e-01 3.157318948921801760e-01 -3.861893082234686969e-01
-1.481895717589849781e-02 -1.194216829790789997e-01 -8.838804752661006958e-01 2.975208741104403698e-01 8.970584599977415863e-02 -9.504915521255432598e-01
2.158818742970169957e-02 2.417598084689096677e-02 -8.808133017885980687e-01 -6.557457761409551944e-01 -3.204024385326673663e-01 6.836225233676962443e-01
4.264601527223771393e-02 -1.971624152385353101e-01 -9.432584539231705367e-01 -7.817644209507530473e-01 -4.745906335706460283e-02 6.217652510721418668e-01
2.524800560073709246e-02 -1.594719362126179041e-01 -9.599347720175271936e-01 -9.627285063915661523e-01 -2.314520595739827657e-01 1.399420133484773066e-01
3.054681448694228363e-02 2.789773128718153056e-02 -8.612013210906955818e-01 -9.634714047104565582e-01 1.772787042012337680e-02 2.672238292436268647e-01
-4.149646021260399581e-02 -8.809920712791492747e-02 -9.197323203369600630e-01 7.255682702848700316e-01 5.225909529669421349e-01 -4.477157368609293586e-01
1.242331074300889564e-02 1.498992133836872520e-01 -7.897718424143672644e-01 -8.431325775516756993e-02 -1.399319506988333170e-02 -9.963410385297030158e-01
4.865229864837072871e-02 -9.846336231133098749e-02 -8.641638890196775558e-01 -8.741442630797903179e-01 -2.232092044095987937e-01 4.313345086954258889e-01
1.986073969533771674e-02 1.488544787040620709e-01 -7.908473174154414531e-01 -2.389056275905711568e-01 3.213648008524103150e-02 -9.705108694668422853e-01
-5.449690260755822406e-03 -1.637841411697222305e-01 -1.018292724370777558e+00 -4.716865641340215465e-01 -4.264357056661076673e-01 7.717929606756530614e-01
-1.437500982578520867e-02 -1.718046937217584669e-01 -9.498308193561963986e-01 9.173585194891550332e-01 -1.229931772002832990e-01 3.785842377633344968e-01
-1.261011865468815961e-02 -5.336113046683781808e-02 -9.595025564987588185e-01 -9.392008026726758052e-01 -1.344448179914773667e-01 3.159532294094173355e-01
2.824288298848466258e-02 1.710044456445886651e-01 -7.935081082333674818e-01 -3.153960027504781882e-01 -4.057806831640103223e-02 -9.480921800229816787e-01
3.654791052425921533e-02 -8.723604095404030589e-02 -8.846043124863693929e-01 -8.885558379134820273e-01 -2.377732758605842767e-01 3.923421876326788627e-01
3.494404843813059963e-02 -1.926720658428588140e-01 -8.925855229940836688e-01 -6.682297282589400034e-02 6.585379655722524150e-01 -7.495748382934611653e-01
-1.644361690826017311e-02 -2.674897446408365867e-03 -8.379879675189710886e-01 9.402038977361133476e-01 -7.488285319762561171e-04 -3.406113179823146431e-01
2.778289254168270564e-02 -4.312779962033397307e-02 -8.859471100129637788e-01 -8.917467042924894782e-01 -6.954195340267718684e-02 4.471596270912920890e-01
-1.102694980455825799e-02 -1.735694380510799661e-01 -9.281934426698347229e-01 7.972429385276755820e-01 5.253726200979835781e-01 2.973000286228321687e-01
-6.240168158663721848e-02 -5.248495396741775093e-02 -9.560316771790370316e-01 9.928887126481543701e-01 -7.110304630080989396e-02 -9.547963710988605079e-02
6.367389124912773909e-03 -1.636633691222246292e-02 -9.158413989942917333e-01 -8.564904767682165465e-01 9.601894024665996383e-03 5.160735091404051733e-01
-4.446638174710631358e-02 -4.059753319091292251e-02 -8.940040541212606051e-01 8.663159452983700826e-01 -1.509035431504251457e-01 -4.761562806331965936e-01
3.494392381080225346e-02 2.523567227889756959e-01 -8.258520856317953518e-01 -6.763966678877361138e-01 -3.600114538743336978e-01 -6.425568463176283274e-01
-6.457518384527830002e-02 -2.020512807919989592e-02 -9.696167557860433384e-01 9.750299859569669936e-01 -7.779676227795033483e-02 2.080004573644599619e-01
4.831111529743595950e-02 -1.784854643782803063e-01 -8.728829647808407088e-01 -3.732310351906162893e-01 7.814402605285973857e-01 -5.000497111243427106e-01
-2.609335583116117671e-02 2.575225391111116841e-02 -9.641303198741555391e-01 -8.236011689031467187e-01 -6.626568122503203977e-03 5.671306755733535043e-01
5.884534820921857694e-03 -2.203951059756218966e-01 -1.009140736961842366e+00 2.498504047084609547e-01 4.328836496165561210e-01 8.661330851328040703e-01
-4.455137756380497110e-02 -1.023253331260732257e-01 -9.215712444753993982e-01 9.123774072138126634e-01 3.272967625791535495e-02 -4.080395018841348476e-01
-1.796726740760513572e-02 -1.714876353558219546e-01 -1.019493214485907018e+00 2.667045153415596448e-01 3.980113668295560125e-01 8.777560329447426923e-01
3.335884351069785120e-02 -1.238952154705319150e-02 -7.756265801129523796e-01 2.136625879209094747e-01 7.454996483650651318e-02 -9.740588284420071963e-01
2.496354057330223489e-02 2.151799840995129443e-01 -8.007708754839654164e-01 -2.393166923286185466e-01 -3.277839315821965416e-01 -9.139393934881062664e-01
-1.430395586073227900e-02 -2.010936028769103323e-01 -9.610356197384182231e-01 7.091531607420585859e-01 -2.053450900347877084e-01 6.744888350507758368e-01
3.434143707002033225e-02 -9.020935153522854910e-02 -8.920491750691952326e-01 -9.144205017675163250e-01 -2.799405997898365417e-01 2.923498016701057134e-01
-1.421274673235566055e-02 -4.612735771644747851e-02 -9.611883956247232463e-01 -9.392008026726758052e-01 -1.344448179914773667e-01 3.159532294094173355e-01
-9.330123541352538380e-03 -2.163686752850107475e-01 -9.518678647534843940e-01 7.538858685006640803e-01 5.664487645156552897e-01 -3.328541639422391563e-01
9.221584172337997723e-03 1.169705579781505217e-01 -8.371279722261778522e-01 -8.629457401536384104e-03 -4.733794481437759716e-01 8.808163432521273206e-01
7.818786491186528395e-03 -7.511607167299978738e-02 -9.364984747815726651e-01 -7.966486791491489416e-01 -1.678004524626562910e-01 5.806839847655902442e-01
-2.342108824047922297e-02 7.105086652233350009e-02 -8.377025770565148521e-01 8.976944453420326875e-01 -3.438969843898220247e-01 2.754624238070356723e-01
5.313923286948300101e-03 1.210598280955329925e-01 -7.919265184800181601e-01 3.851951860291923796e-02 1.902482909440234293e-01 -9.809800377578931085e-01
-4.545696247742679608e-02 7.355820111322415589e-02 -9.276504957207039048e-01 6.632521534688828879e-01 -6.847932821969915373e-01 3.019184353045716862e-01
1.983072385764692372e-02 -1.755073424305503282e-01 -8.844338829673806801e-01 8.295754959996970435e-02 2.581904872145618923e-01 -9.625256969433469978e-01
3.963293793920806551e-02 -1.043616187389608263e-01 -8.962476109050999673e-01 -9.139729750248890561e-01 -4.046588135564083144e-01 -3.007732593289281012e-02
-2.140084750366718844e-02 9.211673264869402189e-02 -9.022139490547349538e-01 -3.494143795396221219e-01 -8.689640730691035042e-01 3.504440484386839860e-01
8.113109096775497414e-04 -9.420154157799806582e-02 -8.422724649717855394e-01 6.362626664091470818e-01 2.745850222813173147e-01 -7.209527618871369725e-01
-5.749060203692387544e-02 2.693868998146855404e-02 -9.455450463556990259e-01 8.866186525680903596e-01 -4.197031591541782736e-01 1.943106356181933392e-01
-7.735614646083744696e-03 1.264103888409253383e-02 -9.325937335205709555e-01 -9.003960207678786132e-01 -2.028641554180254380e-01 3.848806831108845805e-01
-2.206338017504517763e-03 -1.748348760772132360e-01 -1.017072570247996799e+00 -6.967079419738669843e-01 1.436300467412362503e-01 7.028288933045149234e-01
-6.578852662522403916e-02 -9.637086271140555757e-03 -9.584616449103307012e-01 9.872010441887602017e-01 -7.991914490381860081e-02 1.380109728625371901e-01
-1.368076892960263906e-02 -2.197512945274890661e-01 -9.915009719837365454e-01 7.181504270992157268e-01 6.855316132059333656e-01 1.196092444273620381e-01
2.172282972258460579e-03 -5.977090380319057678e-02 -9.347160016625085666e-01 -7.019805232053134558e-01 -4.159460259135727145e-01 5.781109310219795239e-01
-4.172409963428211355e-02 -1.506215113690461960e-01 -9.539618019118850656e-01 4.373594867652569884e-01 8.292749171938816888e-01 -3.478789890888952518e-01
1.421488551526548481e-02 -7.217090718123726767e-02 -9.285956723419922509e-01 -6.964726367722680056e-01 -2.542489558212459588e-01 6.710315452281587767e-01
5.548959057132869105e-02 -1.516154713748104066e-01 -8.757476166126680894e-01 -9.725370490168290249e-01 -1.461633305267638627e-01 1.811297024205637818e-01
5.821420604459254244e-02 -6.537271400787970921e-02 -8.170716381041776000e-01 -9.468383821945832723e-01 -3.130867411738197381e-02 3.201825181488764938e-01
3.591253319445745357e-02 -2.659064125214760307e-02 -8.700428149045462689e-01 -9.494631895271162803e-01 -2.521074290411172703e-01 1.869799346327653822e-01
4.594824064141886377e-02 -1.613634017342594762e-01 -9.041195953258991391e-01 -7.816822665018350325e-01 -9.846405425544339785e-02 6.158552299494867155e-01
3.033994923575252314e-02 2.145745674526930435e-01 -8.025637782505498086e-01 -4.417909374109240672e-01 -2.876434009739322617e-01 -8.497541064906521946e-01
1.168016120609860313e-02 -1.767470728043033235e-01 -8.872308510458981612e-01 4.655251530244064462e-01 5.023862996919846724e-01 -7.286249637388210187e-01
-6.524379111836929590e-02 -5.525424767759696230e-03 -9.593614622810923143e-01 9.863259088056736124e-01 -1.030401101426490496e-01 1.286232378711268109e-01
1.349905630665792014e-02 -2.130369587463317449e-01 -9.309057009982389941e-01 4.448520312168656177e-01 6.752339863689992283e-01 -5.883585080326952932e-01
-3.189645883981636482e-02 -1.765463550311651975e-01 -9.639781004115265395e-01 6.935343641780755686e-01 4.273597323693562600e-01 -5.799773658112052921e-01
3.587574143832447660e-02 5.401682356079962055e-02 -8.108093501093595057e-01 -9.165780377823780078e-01 -3.650476839311717625e-01 1.631713489295617825e-01
2.757168868823743971e-02 -4.924407877088055746e-02 -8.875492515019269835e-01 -9.002251292195146970e-01 -9.341950642439440788e-02 4.252852131700917138e-01
-1.092951003008236187e-02 -1.277366971140984075e-01 -8.835771743162130765e-01 3.104049555257926141e-01 1.315567081021922213e-01 -9.414571663853568140e-01
1.993715967173365772e-02 -1.215157849863585937e-01 -9.454921621028182788e-01 -9.866340715018855345e-01 -1.483752972056774089e-01 6.736453169687338371e-02
-3.003642676702797734e-02 -6.696844956123516879e-02 -8.664280708144339593e-01 9.118104816020574654e-01 4.037037634350405801e-02 -4.086219259346075550e-01
7.281038212664545789e-03 9.459572859492622332e-02 -8.531531978635610303e-01 -5.754861596864072615e-01 -4.664878588271919591e-01 6.717177663097894103e-01
-4.810418874979534992e-02 -4.340054939360672021e-02 -9.002761777789894948e-01 8.923877790860890169e-01 -8.485552884729324896e-02 -4.432195742088157475e-01
2.814264861359292227e-02 -1.566726774345420514e-01 -8.547634667404077069e-01 4.816458632199315248e-01 5.625949098135928361e-01 -6.719406446219504669e-01
-1.887991820900601983e-02 -1.760120697282231417e-01 -9.411975974864068561e-01 9.914379637305679172e-01 -1.288714212643405632e-01 -2.104568495187783897e-02
5.964283336351464127e-02 -9.651810906049665406e-02 -8.342872192645669482e-01 -9.813898450390914352e-01 -1.690074203465434521e-01 9.116174593520377789e-02
-2.443710354289212964e-03 -2.239437494341515456e-01 -9.760752546788344919e-01 6.278398404218186180e-01 -1.400602121015802337e-01 7.656371671785309196e-01
4.316083786914321624e-02 -9.958161300329551602e-02 -8.771595852240373636e-01 -8.904531615518301857e-01 -2.452138784516658121e-01 3.833579540025766619e-01
2.617037913038339821e-03 8.053857480486095732e-02 -8.060727417696538222e-01 -1.691458908938366923e-01 3.739292308456927394e-01 -9.119027348971374680e-01
-4.089100556785785212e-02 6.827461060324209463e-02 -8.750835527629008403e-01 8.959607210598862226e-01 -1.363043477011945115e-01 -4.227002615513745232e-01
3.317645986764478083e-02 1.463378144222665933e-01 -8.180750396323163143e-01 -7.615910353661636822e-01 1.179221298035025151e-01 6.372389396078216306e-01
-1.540068826193828101e-03 -6.702870511223021910e-02 -8.416496188384395838e-01 2.681591514572645440e-01 -1.965837178513052119e-01 -9.431041890297585661e-01
-2.229782891644050205e-02 -1.642792146454385149e-01 -9.187238321648648620e-01 8.333634523120573290e-01 5.270356740511190630e-01 -1.665495560726955593e-01
1.261603231465034322e-02 2.244706232686819250e-02 -8.909983398513757757e-01 -7.467452235223559498e-01 -2.632680459930185624e-01 6.107876121087953969e-01
-5.728073683452738346e-02 -4.073882869063619183e-02 -9.689367981818128861e-01 9.552563532424503956e-01 -2.912932032174648245e-01 5.131831397506242398e-02
4.093496953874523753e-02 -1.556219181731422485e-01 -8.472254388115093571e-01 2.226465724004094704e-01 5.897113662163928627e-01 -7.763175950302456663e-01
-4.556809297341623405e-02 1.757008819628126661e-02 -8.892715243437958605e-01 8.955768328740346673e-01 -6.799679749876250123e-02 -4.396800790907244294e-01
3.071021115082463865e-02 -2.010962946749534630e-01 -9.016451982755709915e-01 8.275484768771383670e-02 7.594096931502982706e-01 -6.453282522356768025e-01
1.090511833173424955e-02 7.373439546252034960e-02 -8.658776778109649186e-01 -7.085995166564368342e-01 -4.472856748810837835e-01 5.457309319073251341e-01
-5.983205018007214937e-02 4.669934656763694361e-03 -9.726542184382441780e-01 8.883468879252846007e-01 -2.476254110519764684e-01 3.866800518707958489e-01
-3.573149522606108852e-02 3.572963405196751679e-02 -9.717252227645176710e-01 -4.081290398203006320e-01 -5.048022180590122643e-01 7.606611647100574025e-01
2.727638021167421573e-02 -2.188938493551957354e-01 -9.332265675232472857e-01 2.376276857432360265e-02 8.644664957511164483e-01 -5.021284781342998382e-01
-6.520956361776199250e-02 -8.895577784852453859e-03 -9.328998890497293139e-01 9.781611234769633789e-01 -5.930577017348233337e-03 -2.077634346426863454e-01
4.714105050616257397e-03 -1.386100802702270596e-01 -8.649558865912733152e-01 7.542804043624296018e-01 4.477269321364509280e-01 -4.802100226302361552e-01
3.690894780977638234e-02 1.658120106308824393e-01 -8.023554098589680272e-01 -9.521341016839300897e-01 3.411957475013682739e-02 -3.037704841313672577e-01
-1.665448799191865739e-02 -1.577487352626708583e-01 -9.437947196044740306e-01 9.239026337108122711e-01 3.826253589363756702e-01 -1.325941565188874186e-03
4.811405974183712714e-02 2.864894714576542156e-02 -8.009656667613642700e-01 -9.089812877333991459e-01 -3.218936619567883684e-01 2.648348333255661768e-01
-2.834884902495848902e-02 7.957990932041140997e-02 -9.283608597443283594e-01 -3.619766038896192750e-01 -7.421448681507318845e-01 5.640868132779479627e-01
-5.870826905792126543e-02 4.920702738323809965e-03 -9.159922872608450284e-01 9.387574112455429054e-01 -1.236921680524006861e-01 -3.216127646628210712e-01
-3.009721900694314889e-02 -1.478961374023656482e-02 -8.739848924561621768e-01 9.985331490384909969e-01 3.248548790656711344e-02 4.331562474150236347e-02
4.302324593667693209e-02 4.247660658996819938e-02 -7.995323102376451496e-01 -8.975269135579470037e-01 -4.044692455838975742e-01 1.756418766010491295e-01
-4.660108513259860613e-02 -1.715289124309644008e-03 -8.917219368329307727e-01 8.646346962080181386e-01 1.155169131582171049e-01 -4.889403694599834260e-01
-2.200889866633074302e-02 -6.836557212039735820e-02 -9.907670281130422918e-01 -8.731648385473843588e-01 -2.059640851254712912e-01 4.417713892534777531e-01
-5.420149086587550472e-03 1.903442993743298672e-01 -8.144105060625292936e-01 9.885339868129134899e-01 -1.497239370231362443e-01 1.957803866730634806e-02
-1.714343801316398422e-02 2.920288000707606593e-02 -9.486386437499169100e-01 -8.980857662474845959e-01 -2.571020178691468816e-02 4.390682657488974017e-01
5.043097989572051243e-02 -3.394600460670550712e-02 -8.329583315391178022e-01 -8.895926186299888405e-01 -7.426258705445049069e-02 4.506773136547028713e-01
-2.804556184516957332e-02 -1.476374710841502902e-01 -9.464914585669590430e-01 8.352013272141431410e-02 8.693698674277174909e-01 -4.870527908131833672e-01
-1.783046577823411668e-03 1.926955896054607098e-01 -8.033823298817530656e-01 7.803115383481364908e-01 -2.356366721541194309e-01 -5.793006661975255156e-01
4.780781183150555926e-03 2.109366082946000642e-01 -8.365392637203682424e-01 5.383578678086933245e-01 2.959552702049544348e-01 7.890382019942949743e-01
3.283437420781423061e-02 2.747674702398454349e-01 -8.616848510750624301e-01 -4.074221940836532108e-01 -6.327805994734861939e-01 6.584799683346772570e-01
5.966335190698309615e-02 -9.933970714412761194e-02 -8.421093608248308993e-01 -9.842588715770268504e-01 -1.682484037902141072e-01 5.410127857974240256e-02
5.987496767920554713e-02 -1.191565633406596880e-01 -8.283245784756113617e-01 -9.163844260102660400e-01 2.110029559179364411e-01 -3.401725097060735448e-01
8.817045955324365972e-04 -1.191985656131254595e-01 -9.624821874895946872e-01 -7.238687886536867566e-01 -3.313310731922378127e-01 6.051724520748809066e-01
2.832503797568056494e-02 -2.096364529003676702e-01 -9.959593804302825371e-01 -7.481986519997235741e-01 -2.314745379963767113e-01 6.217863904952892762e-01
2.986432846195537574e-02 2.371841387777861576e-01 -8.132243061442854248e-01 -4.504653991908178501e-01 -4.395718430638095864e-01 -7.770826976051793400e-01
-2.387300344739153035e-02 -1.436037292370642982e-01 -9.326421523651224899e-01 7.574517707587065107e-01 6.526632245203840554e-01 1.724906760247312681e-02
8.396211012866685794e-03 1.032350678328424892e-01 -7.974519737976536460e-01 -2.011756151953997818e-01 3.370302305567956513e-01 -9.197494199734977949e-01
1.486894959319015608e-02 -8.802912864980823315e-02 -8.261067497888684441e-01 6.356261935266135366e-01 4.580833829725294293e-01 6.214008016950983704e-01
-1.109045427094200280e-02 -7.762330289849038445e-02 -9.734764058448795998e-01 -7.919520785337343938e-01 -4.643312704386515222e-01 3.964951154792774046e-01
3.014296812523909949e-02 1.233492390212623524e-01 -8.166950344877110801e-01 -9.821407006934919082e-01 1.000621741649190544e-01 1.593336290388381038e-01
-3.159469946566130505e-02 -1.170136099656186035e-01 -8.975404227342546060e-01 8.012450505572740189e-01 2.482536660067196366e-01 -5.444047081645190245e-01
-5.956851469513468889e-02 -2.387467886335901956e-02 -9.878434573929497642e-01 8.999353919443660033e-01 -1.644235644235967353e-01 4.038331113073562184e-01
4.855804475523852609e-02 -1.524274310838050761e-01 -8.998537477660639716e-01 -7.357762600449168078e-01 -7.365655008900466594e-02 6.732072547019238851e-01
6.000240336594530460e-02 -9.116725184861609876e-02 -8.128983912507727894e-01 -9.951506849934763643e-01 2.562299095091183018e-02 -9.496618604400333674e-02
-5.976113655533923236e-02 -6.098865134108741315e-02 -9.950163129756274261e-01 9.342701354177295192e-01 -1.690194007720731140e-01 3.139613928959840150e-01
8.348621598980497877e-04 2.086317827230691480e-01 -8.067606556108827265e-01 7.574372394713233536e-01 -2.754715895113107882e-01 -5.919495178088861609e-01
-4.469543807996164200e-03 6.800206420079128733e-02 -8.967851762296860096e-01 -8.276961452861500979e-01 -3.782216849623526445e-01 4.145689907635245475e-01
2.309011169298556473e-02 -1.812150116074534578e-01 -8.861039123771666803e-01 7.952511347094864957e-02 3.719766561097769264e-01 -9.248292402583415672e-01
2.578209757912033190e-02 -1.652527469697003537e-01 -9.669527846676667648e-01 -9.506898410100454999e-01 -2.738705755215132265e-01 1.455463296129778372e-01
6.265751416315896993e-02 -3.379483548796405334e-02 -7.907975161421763044e-01 -9.694484272359205068e-01 -2.377804733332787145e-03 -2.452836989578601468e-01
3.844299852963380115e-02 2.020119688587616869e-01 -8.251276947591305033e-01 -8.541269497463167548e-01 1.532779171517549277e-01 4.969638154138311115e-01
-5.656638350231812246e-02 -1.184042861306480211e-02 -9.884861189413050031e-01 8.230529180901493547e-01 -2.173046983851930902e-01 5.247499996026774305e-01
-2.881944465540986142e-02 -1.998589441749520912e-01 -9.845517475077794067e-01 8.657868759367025602e-01 5.002505709333996409e-01 -1.274565559602428531e-02
1.702671988607721079e-02 -1.406844034446740888e-01 -9.642842601334614683e-01 -5.699423346624373776e-01 -4.194646445856617945e-01 7.065515884223561027e-01
1.347125264679177592e-02 -8.201898716405098266e-02 -8.145502729484244142e-01 6.135815660908073843e-01 3.608907641098302310e-01 -7.023357588317535871e-01
2.792817499637418807e-02 9.022268903728447587e-02 -8.241602628696712562e-01 -9.968431196227189872e-01 3.579868626352891020e-02 -7.086782713369334241e-02
-1.173393395456850258e-02 -9.282265700371857345e-03 -9.535758476816038609e-01 -9.230894833217891948e-01 -1.056011253854898108e-01 3.698029314351501395e-01
-1.619558086257702131e-02 3.071793423135554812e-02 -9.465144681300134977e-01 -9.084627723624238982e-01 -3.459101045949858344e-02 4.165319354226871829e-01
1.296290465776676198e-02 2.208428043193419454e-01 -8.457981064331949739e-01 3.574170839893500706e-01 4.298367964717868528e-01 8.291521913807028410e-01
3.177838435573786952e-02 3.047438936401290419e-02 -7.785167260819709778e-01 1.284554183843788500e-01 -2.523140643876394251e-01 -9.590812366008858447e-01
-1.636999247929596737e-02 -9.483090358158080546e-02 -8.597519933260532321e-01 6.750486770516760382e-01 3.587071081699368946e-01 -6.447003134473747732e-01
-4.012262316867082346e-02 4.432320505157482521e-02 -8.892616693582526821e-01 5.873072644138617182e-01 7.310393619953819977e-01 -3.473494326756429440e-01
3.827625741032365109e-02 4.469331345282697571e-02 -7.860641862033239669e-01 -4.333322295342699748e-01 -5.818007663680193620e-01 -6.882812267528759520e-01
-1.142092142809762864e-03 -6.553437029873226960e-02 -8.283076529746109529e-01 7.480735887174035925e-01 5.930073600146751334e-01 2.978727527517253115e-01
-3.222378461267367405e-02 8.664308726122484094e-02 -8.712986679408087909e-01 7.777193861828815002e-01 -5.317951410680756830e-01 -3.351812707949347603e-01
-4.117732733612372922e-03 -1.538717119231460262e-01 -1.006324715577882944e+00 -5.900538366278232916e-01 -6.761915386704200337e-01 4.411365694558951889e-01
-3.973930015761411444e-02 8.066751501162357230e-02 -9.218221522628904374e-01 5.094816564757779220e-01 -8.047371248413092149e-01 3.046745831487108203e-01
6.146995853315874447e-02 -1.137713002559474634e-01 -8.344968596926889415e-01 -9.956322518801938859e-01 -5.426643092957234710e-02 -7.597087264300646237e-02
4.796169862681298052e-02 -1.823239300598542278e-01 -9.026589935386097885e-01 -8.854859620712055568e-01 7.795060393298520844e-03 4.646007404302069377e-01
5.406148646622093920e-03 -3.824524271159465000e-02 -9.218410700891107590e-01 -7.466766772071877778e-01 -2.267388243087007649e-01 6.253506578440140018e-01
-3.209625388005747887e-04 2.143609709912963623e-01 -8.116462408529847572e-01 8.747020528919107196e-01 -2.431724411048482581e-01 -4.192415563297443026e-01
4.533903045540812159e-03 2.613610662457949152e-01 -8.453245462470992955e-01 9.703630691196303282e-01 -2.390588854555474596e-01 3.530387193330249140e-02
-5.330576293366470764e-02 -3.782332377655191896e-02 -9.171787762443288639e-01 9.335918352391648911e-01 -2.523934842240870835e-01 -2.543694445014839101e-01
1.860279052141409692e-02 1.913831272831987285e-01 -7.938202851493547652e-01 -4.754401435249441116e-02 -2.075162005736896631e-01 -9.770755309589479465e-01
6.638590078660751292e-03 2.582150784959968415e-01 -8.566039313494732133e-01 8.636560575818481578e-01 1.604068724489344372e-02 5.038262702111623303e-01
-1.315079406332275019e-02 -2.165483479792446042e-01 -9.997211140761430581e-01 6.568965295749655819e-01 6.249756085692804719e-01 4.217729698852499820e-01
-6.456519560145849990e-02 -3.692985393281074131e-03 -9.621328320015181124e-01 9.795365092691863396e-01 -1.285402577769557686e-01 1.548729451497934395e-01
-7.738659655433395221e-03 -8.193617561108811065e-02 -9.729161171823099696e-01 -9.031067740021681001e-01 -2.760308340993857801e-01 3.289454869393925174e-01
-5.261992376096754492e-03 -7.096295697148988224e-02 -8.421956949461623099e-01 3.773670183472540574e-01 2.342220279766541423e-03 -9.260608227691441430e-01
-1.961999304261652713e-02 -1.752019152044309303e-01 -9.579617322354561093e-01 -6.334503359074292184e-02 4.701681046700271205e-01 -8.803007213846766321e-01
5.791626633318370382e-02 -5.677118594201256696e-02 -8.182833468857551029e-01 -9.334405052745408105e-01 3.684889998450327497e-02 3.568346699561880664e-01
-1.532135610732458450e-02 -1.550166138584736786e-01 -8.988879672061743653e-01 6.901388846348959216e-01 4.284881132443069118e-01 -5.831862967553641530e-01
-3.608317820326045755e-02 -4.704735553336665543e-02 -8.854953656451830524e-01 7.267460877137096320e-01 7.734138464003646740e-02 -6.825382291233063059e-01
5.755504217580278276e-02 -8.539779366021871265e-02 -8.344207203340019419e-01 -9.757455456521361148e-01 -2.036808038748053051e-01 8.021695751478007119e-02
2.732570257433422981e-02 1.055830290104275149e-01 -8.305420727898152888e-01 -9.167013231228053893e-01 -1.395101379018050536e-01 3.744270364270151363e-01
-1.610933004578512422e-03 -2.166166029121256720e-01 -1.008506934294216784e+00 3.577471516439020838e-01 4.823246428869079061e-01 7.996123525525926645e-01
-4.141892774924955944e-02 3.912735713519708419e-02 -8.951018118292002335e-01 8.656182873070537021e-01 -1.258842414449505009e-01 -4.846216446212782691e-01
-2.614829233392379580e-03 1.315832399419251120e-01 -8.269526384251671969e-01 4.922548737921808026e-01 -2.606624446997399813e-01 8.305060078957883229e-01
3.280858349128243368e-02 -1.510072159848822038e-01 -9.202278510499211084e-01 -8.574170623154721005e-01 -1.880308056128724981e-01 4.790411228599062432e-01
-1.270182939864186906e-02 -1.814594570392996653e-01 -9.571661868001873907e-01 9.710802447735893406e-01 3.732071463685081997e-02 2.358184099460015892e-01
4.435837536237637047e-02 -2.023890002681730249e-02 -8.424155506090644785e-01 -8.853776669117426890e-01 -9.042391521424891776e-02 4.559933140861230361e-01
-1.117341318759946210e-02 -1.429392158480499047e-04 -8.280176651916002495e-01 8.404190451503148473e-01 2.188925855580713467e-02 -5.414948650804641828e-01
2.031835241384178509e-02 -9.558026658682590437e-02 -8.169845313225149175e-01 5.610393128786678174e-01 4.606022644928441934e-01 -6.878084350665496505e-01
-2.569459856367497380e-02 -1.204763562553880646e-01 -1.020221473954496805e+00 -5.349282738204772514e-01 -2.040526112664776959e-02 8.446510327856101563e-01
5.863444321724835956e-02 -9.554827702224454045e-02 -8.450615154408878116e-01 -9.598861604846510298e-01 -1.565178132703619884e-01 2.326386318716193169e-01
-2.943216997104599122e-02 3.392740024952337063e-02 -8.522041183482984561e-01 9.397854137653124384e-01 -1.315263294647156800e-01 3.154428644485394728e-01
3.106834838332768467e-02 -1.862865572037835094e-01 -9.703214868885192690e-01 -9.797443152838138936e-01 -1.816758823447998938e-01 8.423152879586792707e-02
5.307061304969320353e-02 -1.261274538073078356e-02 -7.774020398086344263e-01 -4.357344785971961065e-01 4.543520005654777538e-02 -8.989277539143237794e-01
8.632013676558580872e-03 -1.213655885859911965e-01 -9.572097241394132983e-01 -4.510326391581452321e-01 -4.485812553568637728e-01 7.715856503049408621e-01
-1.002745877547040095e-02 -2.066312744070075980e-01 -1.010071741023711445e+00 3.980134956146854086e-01 4.284626654379309341e-01 8.111750745889585446e-01
-4.778603300124301817e-02 -1.069450625396435456e-01 -9.298567705462925659e-01 9.344739079639243773e-01 6.963701120782536669e-02 -3.491549827865444433e-01
-3.494995003578076076e-02 -3.453509754471645321e-02 -8.680878087562156065e-01 9.123715949534284553e-01 2.062439480657410618e-01 -3.536120849297895163e-01
-1.385217622116785043e-02 -8.677666331807742939e-02 -8.527693351260873245e-01 6.708542487783105690e-01 3.333791407492154302e-01 -6.624295626022463912e-01
-5.448096779663617190e-02 6.329814789484974891e-02 -9.157298011652460490e-01 9.166772094569289875e-01 -3.896207475504892548e-01 -8.887388109256585955e-02
5.892603221558809223e-02 -9.397242718580142706e-02 -8.388032190449230541e-01 -9.793499151271055636e-01 -1.951484590809647868e-01 5.282823732490027346e-02
2.608256569876806624e-02 1.919676282384238653e-01 -8.336532815641123362e-01 -2.667257034806905791e-01 3.338664600256501247e-01 9.040965578812211190e-01
-2.708078301017047274e-02 -3.539181935658639727e-02 -9.959932813760355996e-01 -7.583811265104062338e-01 -2.639156535721148278e-01 5.959921096393898665e-01
5.034512270270538603e-02 2.447135789609978726e-02 -7.978878074876571969e-01 -9.214078660565154788e-01 -3.046321762281916090e-01 2.412608164946268008e-01
-2.717231311255711816e-03 -1.532687121400520547e-01 -1.003584439217926949e+00 -5.591323775620932190e-01 -7.091613039225467263e-01 4.294894985685146493e-01
1.662687063257894254e-02 -8.820904124532726043e-02 -8.279095030268147637e-01 6.627237501464874336e-01 4.500533967665632518e-01 5.985391975891423133e-01
-5.424444303925814170e-02 -1.164643356223643844e-01 -1.004669032414638785e+00 9.050412079487814010e-01 3.327380438052135458e-01 2.649260389604809474e-01
5.628875402040428924e-03 1.990761416249685681e-02 -7.955452862630301158e-01 8.195544071347186099e-01 1.850070311688811059e-02 -5.727026259152655507e-01
-1.793918971350725797e-02 1.305809258712492538e-02 -8.379722253990271597e-01 2.239655815471080780e-01 4.407918206369750846e-01 -8.692191836020455309e-01
-3.062598852699551996e-02 -1.075149765850755557e-01 -1.020404225137343746e+00 -3.427132435380576547e-01 -1.752509852743381891e-01 9.229489286325640585e-01
-2.064157955530122879e-02 -2.145107874603046846e-02 -8.573471455668776331e-01 5.647522224333080265e-01 4.226005273824438024e-01 -7.088467546040679856e-01
-1.171674849321000141e-02 -2.164177451924124418e-01 -1.001785378980243557e+00 6.006550113273010361e-01 5.893460248787957267e-01 5.402636581586452991e-01
-2.869778729877075704e-02 9.344396095661976209e-02 -8.958715409365404225e-01 2.853793401113906558e-01 -9.491898135913663381e-01 1.326549283365469345e-01
4.471613513792179612e-02 -1.880408375025084955e-01 -9.111717131747862908e-01 -9.493078373150625193e-01 -5.936354489273133750e-02 3.086917549108939007e-01
2.970821743791425898e-02 1.046789655436066412e-02 -8.660971050710928321e-01 -9.470332011374680281e-01 -8.204217799376194165e-02 3.104789799219258017e-01
-1.140817023705895279e-02 5.401861429987007968e-02 -9.277606865019333293e-01 -7.536201902326011837e-01 -5.346288584968756918e-01 3.823984735012755931e-01
-2.980899500364916910e-02 -8.197294982615900560e-02 -8.712797189839144307e-01 8.566250946181995785e-01 2.483771478850152759e-01 -4.522192385103331325e-01
3.021439338868658897e-02 6.827056794593064359e-02 -8.148125383595787863e-01 -9.532831095575271529e-01 -2.981903849861509692e-01 4.830949527931739651e-02
2.043699007537834109e-02 -1.171097621752195672e-01 -9.337464900743656093e-01 -9.770943086224439522e-01 -1.045094933795115283e-01 1.853765838804509458e-01
-1.618203288403988541e-02 -1.691624041674919254e-01 -9.373821752378878047e-01 7.298692504607958709e-01 -1.759012185167899145e-01 -6.605676638741142526e-01
1.013495454056471436e-02 7.940787371864135857e-02 -8.620690940139463798e-01 -7.136856159776825415e-01 -4.637411115586433930e-01 5.249733545589809758e-01
-2.913888739392913978e-03 -9.471803703969187971e-02 -9.584386115428683572e-01 -8.991552696405281653e-01 -8.763551808878931870e-02 4.287654569190227916e-01
4.872980083406509844e-02 -5.398351068338889253e-02 -8.448153292710618434e-01 -9.349735846435398567e-01 -2.181089026599458136e-01 2.797372027444394726e-01
3.293237254717255175e-02 -3.453464581299693636e-02 -7.815302980825235002e-01 4.237675114629391726e-01 3.903431121744214694e-01 -8.173453070804863607e-01
2.280037796082010071e-02 1.693522207339736851e-01 -7.917579270716870177e-01 -2.170587909047400621e-01 -6.382904663309936499e-02 -9.740694708781720834e-01
-2.413238355641197583e-02 -1.007609532090203430e-01 -8.758172557809181802e-01 7.284918564764989446e-01 6.353105070111950692e-01 2.562814365665265215e-01
1.769938723920888232e-02 -1.515797012243802200e-01 -8.597889710772634864e-01 6.151466959924020150e-01 4.979134869790529661e-01 -6.112910124433302839e-01
-1.019779131307972479e-02 -8.728903283104806621e-02 -9.833035854688884081e-01 -7.742367998896532155e-01 -4.388866884514816546e-01 4.559998381542705315e-01
2.801034047366688512e-02 -2.088388000247026755e-01 -9.115177018405964393e-01 1.016044598509315972e-01 7.943655880116052836e-01 -5.988821639699892785e-01
1.448223097076909230e-03 1.878977775699676167e-01 -8.284113943944434455e-01 6.103432475687163850e-01 1.308085405618587271e-01 7.812619572610388641e-01
4.496615325674580693e-02 -7.232136088422170747e-03 -8.384454172879847178e-01 -8.673504073105203771e-01 -1.006053195837347536e-01 4.874236767020340144e-01
-3.105632649535564060e-02 -5.938813071188690090e-02 -1.003966876277878617e+00 -8.893524069135301247e-01 -3.043357144234935460e-02 4.562083888382303387e-01
-6.838018526721962448e-03 -1.187913983009401819e-01 -8.792828888813015720e-01 7.244794905526933393e-01 5.080312955194620228e-01 -4.658687267260243625e-01
-3.077187343568732122e-02 -1.350114420380127134e-01 -9.185676201671270080e-01 9.008954066684030648e-01 -5.159019070745919644e-02 4.309593002437012710e-01
-4.501027946578901179e-02 -1.408059787943619634e-01 -9.445920598432681059e-01 9.005173143761882049e-01 3.397281225779386626e-01 -2.713915423117797543e-01
4.449933123214982328e-02 -1.029546151840439738e-01 -8.103974621224091512e-01 3.915913548131148142e-02 5.241114372500712548e-01 -8.507489426687646628e-01
3.271465262398023238e-02 4.710167127938495735e-02 -8.457859204634484707e-01 -9.687371371042363677e-01 -2.312732286524324665e-01 8.978336652057362921e-02
1.227337661025405119e-02 -6.238016928884360796e-02 -8.061523931045376790e-01 6.508373589123120917e-01 3.219879348327663315e-01 -6.875569082382755326e-01
-5.645427433658170568e-02 4.920873504754296607e-02 -9.451926482129772156e-01 8.391914624997062200e-01 -4.197561565891929081e-01 3.457780477026749510e-01
5.452211941237881249e-02 -1.781312972542377915e-01 -8.877504407819521992e-01 -9.345387840370793509e-01 3.372933297973486622e-01 -1.134480974045584262e-01
-9.392657276767893762e-03 9.685469308799059263e-02 -8.691452081407913255e-01 -4.183307031889243466e-01 -8.563125451834205926e-01 3.028667161161032739e-01
2.719879095954591194e-02 -1.222301650433288422e-01 -9.192920694200782394e-01 -8.383311303846925355e-01 -1.413361642521180350e-01 5.265216087706392489e-01
-2.468948667909545702e-02 -1.532045602936612239e-01 -1.020494854019602382e+00 1.116404722336909044e-01 4.635823903958403297e-02 9.926667711939326511e-01
-2.062162172637737809e-02 7.410810530460865131e-02 -9.235517809775635190e-01 -8.160177277141030805e-01 -3.751193069625852194e-01 4.397733207008147072e-01
-4.000457158716185717e-04 -1.047532789130535269e-01 -9.574729898440860199e-01 -8.122147047681809173e-01 -2.036123930534612103e-01 5.466710772972895871e-01
-2.526528629233759302e-02 8.440104108436607966e-02 -8.549766961821902989e-01 7.992578297707415569e-01 -4.072901853248934723e-01 -4.419294360960565604e-01
2.736672751043824677e-03 -2.319856799310150430e-01 -9.945165698860036763e-01 3.462637654969984435e-01 9.083525372450005353e-01 -2.345145470635240093e-01
-2.711850181549306515e-02 -1.384068824797857755e-01 -9.026258287239538047e-01 7.798634384787066498e-01 3.557027508193789100e-01 -5.150617151213001677e-01
-3.184046335750749523e-02 -1.220607696647026258e-01 -9.003217400835306083e-01 8.335662723444633437e-01 2.452072711956690965e-01 -4.950158217294973739e-01
-4.013074450044861602e-02 7.994033976209280468e-02 -8.821271984162798452e-01 8.639490564031381270e-01 -4.222332118127286038e-01 -2.744287572074662340e-01
2.974439472260045556e-02 -1.781773873234695771e-01 -9.647536993903539360e-01 -9.674683364366852834e-01 -2.438788218120781504e-01 6.729144272479950506e-02
2.900303440441064085e-02 -1.778805426645938825e-01 -9.725793953617650756e-01 -9.548726169728354307e-01 -2.783721563920366626e-01 1.035723317353430539e-01
3.448484932188954077e-02 -9.602728457129784678e-02 -8.087877434576453695e-01 3.553771158678528108e-01 4.632691281117281012e-01 -8.118428545328499890e-01
2.604460913727279017e-03 5.970656096764990345e-02 -8.924256691427429056e-01 -7.575339464300941961e-01 -5.067328398332164863e-01 4.115387576408948145e-01
2.325865658406721381e-02 -2.792855627795446868e-02 -7.871445096770313121e-01 8.037572343931934649e-01 5.026363157376306789e-01 -3.183253716911452758e-01
1.308534265458970516e-02 5.569955554541079074e-02 -8.791131768204900609e-01 -7.703973525590154248e-01 -3.590747337952552298e-01 5.268332323609877799e-01
6.652557334417307996e-03 1.482266513643716588e-01 -8.271393773509130298e-01 1.750894335580743810e-01 -4.215003533832079735e-02 9.836498689967334563e-01
-3.479998613793838791e-02 8.146371165027237182e-02 -9.255163260001515457e-01 2.689188436547436112e-01 -8.564011103223430066e-01 4.407491279243256899e-01
3.303794882448387454e-02 2.277743998027687566e-01 -8.467068544817881737e-01 -5.573427284866254716e-01 4.528857788453523048e-01 6.958904758097517185e-01
-8.041373608986742208e-03 8.650995648334991461e-02 -8.864188801678409835e-01 -7.935168141182825652e-01 -4.878658710581217361e-01 3.637553540063311885e-01
3.125765730408137932e-02 -1.805552762033229564e-01 -9.589448378034575171e-01 -9.493290801710149163e-01 -2.566906238178904287e-01 1.813400705460229689e-01
-2.816525888301634611e-02 -1.206387081781685154e-02 -9.819764696598888287e-01 -6.981984260799806163e-01 -4.018511043854801068e-01 5.924817699504412172e-01
-5.438579062147576304e-02 -8.225239871248422874e-02 -1.012245892824774174e+00 8.227279152610497137e-01 -6.177133051071965336e-02 5.650690932772224340e-01
-1.863700354223011765e-02 -1.218121015553295938e-01 -8.855463774987721859e-01 3.980744138499108797e-01 1.453913343053060137e-01 -9.057583126568437004e-01
3.573546545767653654e-02 1.581573540963898405e-01 -8.167314517007853159e-01 -8.396367869604759449e-01 1.062484432933699513e-01 5.326549861593559143e-01
5.602315398332008076e-03 1.548388663500098635e-02 -9.037829208884604615e-01 -8.249924223281999147e-01 -2.436341400091898424e-01 5.099312786278474841e-01
5.530462218906061211e-02 -7.909428801254726749e-02 -8.429508267152867607e-01 -9.644193785701627997e-01 -2.451226047004676500e-01 9.904630686299766007e-02
2.758635666159553468e-02 2.456644078552374516e-02 -8.720000559372597104e-01 -9.088735578843893936e-01 -1.253107253094818685e-01 3.978015559308221705e-01
-5.968465166105915015e-02 -9.699288196830158082e-02 -9.938175572034512184e-01 9.785257553491820692e-01 1.085457383358064826e-01 1.752289040296929612e-01
-5.842529627604939975e-04 1.021922204642483900e-01 -8.480529529452819348e-01 6.939580915859867860e-02 -9.438088066902419193e-01 3.231240598983067813e-01
9.225239317320270416e-03 -1.684231805594256781e-01 -9.975609711481224773e-01 -8.395740497856649664e-01 -3.303799059721839182e-01 4.312360521295831028e-01
-5.699336010876816100e-02 2.997691662441519592e-02 -9.561323248547076714e-01 9.583871580803532408e-01 2.571590510014387654e-01 1.239486898466588688e-01
4.066974294766932674e-02 -1.174656576350119885e-01 -8.196645596538136846e-01 2.471464813050984199e-01 5.634277457660590294e-01 -7.883322853210349423e-01
-3.101395891053156453e-03 3.273621050781465314e-02 -9.139634105334650815e-01 -9.052271781992231592e-01 -9.735691584002185983e-02 4.136246931550274786e-01
3.456158843772184214e-02 -9.714461860761604284e-02 -9.043284869338823473e-01 -8.502461515779733414e-01 -1.770036725862123850e-01 4.957329741078744800e-01
2.572920889019824145e-02 2.674731246529299944e-01 -8.678856339203261383e-01 -1.109965546980959394e-01 -1.632500242772239596e-01 9.803209650000546116e-01
-4.497586265436189119e-03 -1.583756763514435617e-01 -1.013048301088317338e+00 -5.442808117472487384e-01 -6.218414239185973136e-01 5.630911484499178110e-01
2.625084159142459812e-03 -1.307206809332429887e-01 -9.681536356582240987e-01 -6.773287281083064659e-01 -4.534285489070294384e-01 5.793343983531872299e-01
-2.537180320244469128e-02 -9.856444571652567266e-02 -1.013026041262692578e+00 -6.622843454150731946e-01 -3.543671379284827894e-01 6.601540557888768701e-01
2.171960808581148081e-02 7.114075365473236656e-02 -8.560333381342036807e-01 -6.040314074202557393e-01 -4.537513791049073153e-01 6.551761173992074472e-01
6.119349852470444551e-02 -1.383919711824684318e-01 -8.473766256565882227e-01 -9.687410007724914784e-01 1.864017202753796565e-01 1.636926146797429149e-01
-4.068145067392547887e-02 -3.764127000027457648e-02 -1.006638573805698433e+00 -3.141932650601160226e-01 -3.906874852770954032e-01 8.652432496348776425e-01
5.414074343508349860e-03 -6.587783871939745933e-03 -9.176493457527201691e-01 -8.818024958932413337e-01 -1.101144253454318378e-01 4.585838762617971409e-01
-1.408209698017800354e-02 -2.074626485050242441e-01 -9.618706609071132618e-01 8.895409769772397723e-01 5.385465369536865388e-02 4.536700635414790961e-01
1.553819415998546234e-02 1.262900688426513984e-01 -8.319015993841324397e-01 -3.058846881124539507e-01 -3.000852173147665614e-01 9.035393848236478176e-01
3.767763971098692100e-02 -1.410168369846014347e-01 -9.102589357845453089e-01 -7.677123181900276094e-01 -1.537313124240409778e-01 6.220807665244729723e-01
6.690250175247825816e-03 2.316424202995816528e-01 -8.467209019898829236e-01 7.476604958840822324e-01 2.572601818093298576e-01 6.122262504579484288e-01
4.337334971925509153e-02 -1.984563477139678345e-01 -9.255804163060671330e-01 -9.884083822817187892e-01 -1.516141300388875179e-01 -7.875621104828008437e-03
-9.123691733699406531e-03 -5.012326370932655012e-02 -8.339578193464208811e-01 9.419891580918859919e-01 3.121335023639912887e-01 -1.234062508114066314e-01
-3.721313243738941928e-02 8.244749762037154039e-02 -9.212576246343218145e-01 4.471257434830877564e-01 -8.164355972124941463e-01 3.653922346177791436e-01
-5.814446272449798336e-02 -1.062583703914787292e-01 -9.804749924511442227e-01 6.590188355356978445e-01 6.729816202666522029e-01 -3.358420956229946630e-01
3.652367142323691140e-02 1.490999392883791963e-01 -8.046923966834553799e-01 -9.789572434992012129e-01 9.588134017503946449e-02 -1.801374031307322598e-01
3.926071363750162639e-04 -5.961761234574534940e-02 -8.384776997665308595e-01 8.331955935637013200e-01 5.517240299881537302e-01 3.722495936414760287e-02
-1.866324419407179927e-02 7.770667735936523379e-02 -9.168479002899930785e-01 -8.251213276479923975e-01 -3.655192308196587025e-01 4.307789300342104721e-01
6.270590380314662940e-03 -1.227181751886249755e-01 -9.595404268864946573e-01 -5.550825632591295244e-01 -4.219359039513524978e-01 7.168357140394369109e-01
2.986798263219933580e-02 1.402065728829746116e-01 -8.207944040509487227e-01 -6.989570420559865216e-01 7.558809725183539274e-02 7.111578537246092679e-01
-4.352120280721821083e-02 -1.077768773618863335e-01 -9.200873203931937416e-01 8.898136160822963658e-01 1.412412461234297811e-01 -4.339154745201517782e-01
-4.706778920023504953e-02 -1.356037633652873442e-01 -9.452409367143331798e-01 9.266145943972761145e-01 2.917472540249802515e-01 -2.372107358844769975e-01
2.797823077394180277e-02 2.382230407980369391e-01 -8.128526115885864600e-01 -3.370298737760127339e-01 -4.617641899590940180e-01 -8.204783342989299122e-01
-3.090657449694336409e-02 1.365503085613216198e-02 -8.593097174003678784e-01 9.196300679884924500e-01 -1.821684179208083454e-01 3.479873640862699014e-01
4.156816876173852204e-02 2.294261702241170708e-01 -8.331033275596397836e-01 -9.840400896757354188e-01 1.646477091675098980e-01 6.749987982849528501e-02
5.537824737130345870e-02 -1.747811024108293920e-01 -8.875363741724228150e-01 -9.721656526366506679e-01 2.265464510648491636e-01 5.975491062228247691e-02
-9.257941491289844093e-04 -1.941488010814540477e-01 -9.171499186041447427e-01 7.099359686404509429e-01 5.784292471763300414e-01 -4.017592891789422138e-01
-9.363662165760879008e-04 -4.306623795016439882e-02 -9.319280055714607158e-01 -8.123471985462461520e-01 -1.748307352798401382e-01 5.563508272803916466e-01
5.946050609707164564e-02 -5.063672152386847203e-02 -7.883524428214857549e-01 -6.523632357900250867e-01 1.565209122440537615e-01 -7.415682117107350591e-01
2.549996014937455039e-03 1.185072317624376835e-02 -8.071193307542223749e-01 8.200135040995689684e-01 5.470639185172476715e-01 1.682228348081802882e-01
-4.305293341223911247e-02 -4.471138751230325711e-03 -8.862289086266254001e-01 8.442421572884848402e-01 1.407894642458931145e-01 -5.171397360619657269e-01
2.892314093841077960e-02 -1.961490112170866384e-01 -9.886346943898504103e-01 -8.019563428505113167e-01 -3.078412640807917655e-01 5.119568148691580056e-01
-1.378008175426223732e-02 1.220938109767328444e-01 -8.153659779771909033e-01 9.846053402824593848e-01 -1.586377868153263926e-01 7.339193744272858033e-02
-5.088615124935648958e-03 -2.213241620946268251e-01 -9.851149359188259291e-01 -2.259497182254170677e-01 4.769026487718802665e-01 -8.494177938024487506e-01
4.048326901755561202e-02 -1.856443007921850519e-01 -9.411845521499917488e-01 -9.169002445214285979e-01 -3.368931857115014528e-01 2.140021565725455099e-01
1.595931276314307284e-02 1.881277880225100119e-01 -8.330514802129902474e-01 1.140858076244721936e-01 2.764497756023485686e-01 9.542326498648446842e-01
4.421605925898195897e-04 9.616213969692272157e-02 -8.584896190601328803e-01 -5.578114337065521733e-01 -6.482215023134360043e-01 5.183196777711154279e-01
3.220769073515384467e-02 5.054290001745218031e-02 -8.420626088239792084e-01 -9.739539895871160979e-01 -2.211106312159054621e-01 5.023658956023874245e-02
3.375322843320890942e-02 -1.714714607359385801e-01 -9.408190305317242208e-01 -8.858927445071616003e-01 -4.587711604306606850e-01 -6.872457774823891030e-02
-4.459770688312887643e-02 7.561412971063793953e-02 -8.909940700413291337e-01 9.072554405056715288e-01 -3.480917457375245494e-01 -2.360502112311330392e-01
5.938434583388274568e-02 -6.023684107515082931e-02 -8.140885798929188288e-01 -9.334056373843645504e-01 3.509204279754166156e-02 3.571028768175687484e-01
-2.261101808765422425e-02 1.951084120961815715e-02 -9.595607159827861388e-01 -8.211037989979363960e-01 -8.677153201535524329e-02 5.641447088317540492e-01
4.002431205209823484e-02 -1.852079558046686447e-01 -9.254569541237502861e-01 -9.391240159530224174e-01 -2.748267543136324598e-01 2.061949023950430948e-01
-1.434016382849691296e-02 2.311207090327192099e-02 -9.435685277611407518e-01 -9.091228871119548804e-01 -1.320065450013193087e-01 3.950567658021292283e-01
3.115298151322051096e-02 -1.805153145143241211e-01 -8.820712967080930333e-01 6.221476223205073541e-01 7.615187726769578891e-01 -1.817181743841794483e-01
-5.432344668096270035e-02 3.622445073204449278e-02 -9.226663740609168940e-01 8.240797640782048239e-01 4.047588625777182592e-01 -3.963115007183140026e-01
-6.052233289055070770e-02 -8.154532705112940705e-02 -9.961309822300797867e-01 9.648523520183022173e-01 3.557592768102170455e-02 2.603733707090354343e-01
-1.858437881405975919e-02 9.030209497163974031e-02 -8.135846031514814003e-01 8.877273932385636446e-01 -8.174008597071295845e-02 -4.530547799542184451e-01
3.635918354399980852e-03 6.006389539919963771e-02 -8.044109125709771879e-01 7.453725020205105301e-01 -2.277689308352812414e-01 -6.265310426290437995e-01
1.811944088420925844e-02 4.728697487315969283e-03 -7.824953811924921787e-01 6.153002023774748475e-01 3.586344383697589316e-02 -7.874766500350284248e-01
-4.672487664036047844e-02 -1.200557738382089235e-01 -9.322287463663858631e-01 9.097765747960686600e-01 2.033444906490823600e-01 -3.618806461735669666e-01
5.829065019099881340e-02 -8.056454069030302700e-02 -8.222168595210855857e-01 -9.789849641805022928e-01 -1.218822359928756760e-01 1.635027842511476981e-01
-1.325376560372520766e-02 -2.120960940939320694e-01 -1.004340374763095234e+00 5.652712358825409122e-01 5.415874157732893934e-01 6.222149957690146227e-01
3.739258446611781056e-02 -6.338018422064106705e-02 -8.710919126548958280e-01 -8.713899854800789546e-01 -1.194213678321175698e-01 4.758340363090201586e-01
-5.633985302937134093e-02 -9.757998795358935329e-03 -9.105260344559124031e-01 8.363477261413486685e-01 2.066846430726630157e-01 -5.077439702213324413e-01
-4.873869446394056559e-02 6.314560644177762139e-02 -8.919742293287695745e-01 9.270948051199557893e-01 -2.246774598308487747e-01 -3.000254345277221235e-01
