-1.112875951864729200e-02 7.410239733525396388e-02 -8.500321044780049240e-01 -1.966046944065164837e-01 -7.042703839767937568e-01 6.821655373811403855e-01
-2.426423423523341172e-02 -1.450814625120930845e-01 -9.119039630714337319e-01 9.560880086156412494e-01 -1.992949550088135013e-01 2.148889031323222287e-01
-1.005486447574999338e-02 -6.071197853892185831e-02 -7.445009464859597692e-01 9.508032369553827134e-01 2.704499468923842187e-01 1.510960979677265781e-01
-2.297236356654258627e-02 -2.353307116482761599e-02 -7.906699031947252987e-01 9.723951088966986678e-01 2.322828736404711492e-01 -2.219051164580584240e-02
2.495752210439316360e-02 -1.343212718339037159e-01 -8.508280280137050511e-01 -7.476879947651199343e-01 6.636603844547245279e-01 -2.274987009899577875e-02
-6.865351545658755598e-03 -1.401763765138667739e-01 -8.127705043404540586e-01 9.397060516595432400e-01 1.429265064568349120e-01 -3.106840038149312755e-01
-2.929260607675939279e-02 -2.007086747037366281e-01 -8.894845831508338962e-01 9.574427573792503310e-01 -1.472755286296240362e-01 2.482202348900729438e-01
3.018431300705965922e-02 -1.696339039935091386e-01 -8.456450070997441060e-01 -9.427323627176255050e-01 -2.321665688441560960e-01 -2.394877378822872493e-01
-4.843784953148500515e-03 -1.465484738165090395e-01 -7.976458310847818201e-01 9.979452365103667066e-01 4.254048586845447788e-02 4.791254520836901037e-02
-9.015498007390126967e-03 6.613264890833571615e-03 -6.871539260601395860e-01 9.652009115168042053e-01 -2.319267211260117936e-02 -2.604789825828712213e-01
1.661427062901285352e-03 1.608588356962032118e-01 -6.723728363639168704e-01 -8.451433004788700964e-01 -5.345361304325616514e-01 -1.981645242166186604e-03
1.603705024189263501e-02 6.756933164009726323e-02 -8.174042533454476400e-01 -9.774006589448097637e-01 -1.349609263754050215e-01 1.627067922557147717e-01
2.773315980901243372e-02 2.189374477777192296e-02 -8.182190741943098367e-01 -9.833859613848405790e-01 -1.767350454894802136e-01 4.143397937737001990e-02
3.241425476470025102e-02 2.115561592863110518e-02 -7.018742486699947047e-01 -9.695731822361441932e-01 -2.263427971221618484e-01 -9.325654121504155236e-02
1.720262158016406129e-03 1.403949180221225057e-01 -6.679076791207184671e-01 -7.319617558809279334e-01 4.358683161696323416e-01 -5.236896016603330706e-01
-2.113666659255520469e-02 -3.595592598907124821e-02 -7.998299796883225898e-01 9.978581455654391696e-01 6.238739838126215742e-02 1.967063425313303471e-02
2.715601718162621858e-02 3.741918883422257203e-02 -7.308854144759144855e-01 -9.747701231520059517e-01 1.773310144645776076e-01 1.355614927595109320e-01
-2.696743455320052898e-02 5.731815011461968007e-03 -8.695142687175945184e-01 9.899216819662297606e-01 -1.029365268777269193e-01 9.725808453543513532e-02
2.360797746094898952e-02 -2.080805527393817245e-01 -8.658569916372163000e-01 -9.011849044258632979e-01 3.639191369030299605e-01 2.354328563108840644e-01
1.866350951675656636e-02 -2.110976573820505797e-01 -8.262195754731926911e-01 -6.123263181019411583e-01 7.627842018054854512e-01 2.078863671232171473e-01
2.428772217150421825e-02 -1.794152575596283661e-01 -8.359940655617695837e-01 -8.436275549350616965e-01 2.813264569691815709e-01 4.573269871366185124e-01
8.744599368794049588e-03 -1.745568234829580345e-01 -9.106915148455321241e-01 -6.507167632881265540e-01 -2.990936068992138819e-01 6.979331689265405592e-01
-9.531848616022966028e-03 2.788166254355215964e-02 -6.901090314573541384e-01 9.672962165505798460e-01 -2.172719091635167896e-02 -2.527171514199586522e-01
-3.103328293375172062e-02 -1.958162811940889481e-01 -8.771478497150067000e-01 9.904071902124125248e-01 -1.143375171385987848e-01 7.759207272740721584e-02
-1.549301897273200725e-03 -2.310628122004450002e-01 -8.682787410207771783e-01 -2.355201717230770708e-01 9.628797901976708928e-01 -1.318816072863146505e-01
-3.103958346845701877e-02 6.785294046384288125e-02 -8.164342029827800218e-01 9.741503199275129976e-01 -2.160327375345517109e-01 -6.603794741246742095e-02
4.297966943632286485e-02 -1.496377791471514562e-01 -8.026130414513313882e-01 -9.856757117324485007e-01 1.407965910564149548e-01 -9.284240005312158206e-02
-3.335819374902648099e-02 1.754792240766280265e-01 -6.729753158800603208e-01 2.269921346686483432e-01 -8.214398574273048537e-01 5.231740928490051790e-01
-2.730739249616350242e-02 1.908276366558183113e-01 -6.117536293295205985e-01 -5.953894024737879098e-01 -7.921018526853097486e-01 -1.344846251227465594e-01
4.700742500880289443e-03 4.219922710176695485e-02 -8.559640915064218314e-01 -1.845360838960385663e-01 -8.490145187623751033e-01 4.950967386996273367e-01
-5.059657867497138750e-03 -2.250208369427602328e-01 -8.466365633816163028e-01 2.829131748548187053e-01 8.942623653761255786e-01 -3.467779655131851269e-01
3.815879814034679740e-02 -1.884656724236100436e-02 -7.204773408145204172e-01 -9.564279477618916614e-01 -2.302186237891978571e-01 -1.795688336003331831e-01
-1.379010754287807519e-02 -1.843041140986332593e-01 -9.175996779752083610e-01 2.926306872403569570e-01 1.290214448589592222e-01 9.474812650663563263e-01
-2.346707017878534030e-02 -6.345978477367740511e-02 -8.293665448210718605e-01 9.397955472104997376e-01 -3.304962714462547635e-01 -8.692838433699638656e-02
-2.584124688193852959e-04 -1.091822758644174635e-01 -7.105697794532895850e-01 8.955417904343679902e-01 1.715962765326502493e-01 -4.105601289284390720e-01
4.203133031102913864e-02 -6.719737224707950096e-02 -8.017940409821623371e-01 -6.457046892372273472e-01 -1.893827094263457744e-01 7.397294395029794245e-01
2.149524147494888404e-02 -2.148277677289566479e-01 -8.560079400191553667e-01 -8.131342192504026345e-01 5.789972226144425305e-01 5.979094989043261948e-02
4.151378359878761526e-02 -1.425004297548324028e-01 -8.336965121103712129e-01 -7.347787076921725724e-01 1.004660558667956616e-01 6.708254783032550073e-01
-2.920333825053987586e-02 7.623869963718171716e-02 -8.353031784616058442e-01 9.629163845607445760e-01 -2.321693856061179395e-01 1.374387599323499409e-01
-4.297518037445458711e-02 1.611086637671473032e-01 -5.810479642455314009e-01 -3.499435319045490766e-01 8.984984108510359890e-01 -2.650285459650204012e-01
3.218948083271364058e-02 1.765603200783136262e-02 -7.094960426289095290e-01 -9.381703208579793563e-01 -4.185793289345091117e-04 3.461737625132521590e-01
-1.472125474214495272e-02 -1.501658180941236875e-01 -8.290703581915432885e-01 7.533304339834732133e-01 1.413420615559136395e-01 -6.422738348005440079e-01
-9.493081798071982200e-03 1.709332896917084912e-02 -8.894485103578184670e-01 -3.198224748050015886e-01 -4.054088108304481630e-01 8.563628207194928788e-01
1.980408935708723173e-02 -1.464767083407365611e-01 -8.938490713411936239e-01 -8.749657061363441679e-01 4.290713530427263667e-01 2.243496982021880581e-01
-9.561570291243137384e-03 -1.059966422749115122e-01 -7.829924160486783080e-01 9.906239495871327350e-01 6.849479002797448368e-02 -1.182059822657615944e-01
3.631472922879502852e-02 -1.269277819188254115e-02 -6.910540724953733172e-01 -9.997798337770598120e-01 2.624364543033745698e-03 2.081818155987509578e-02
-2.355990668984653605e-02 8.479349052082579830e-02 -7.427027637393707193e-01 9.572264312232624528e-01 -2.428096882918047150e-01 1.573563301529787017e-01
4.350779216335763644e-02 -1.492924319618946505e-01 -8.216651809202620838e-01 -9.839668243527537328e-01 1.597961280582403665e-01 7.921165337721305932e-02
-1.115286349876892617e-02 -3.447218266116711810e-02 -6.999654405227174747e-01 9.849091910160764352e-01 1.598918638717384266e-01 6.624558339752988079e-02
-2.288942755453279507e-02 1.794447316012058313e-01 -6.005308859530036347e-01 -9.071034420662065223e-01 -2.426104566827971820e-01 -3.439527753919206510e-01
3.517978450673334145e-02 -5.197741511065082781e-02 -8.044751673504617617e-01 -9.146697252630239250e-01 3.306078713538825320e-01 2.325461869954418004e-01
-3.240412300051458833e-02 1.552768007200247824e-01 -6.163101667668751116e-01 -1.096414904029964638e-01 9.713673387773061885e-01 -2.107705784470493282e-01
-1.997258210449355878e-02 1.346492219523833141e-02 -7.378577328527007317e-01 9.384924389204287731e-01 2.370794861769262296e-01 -2.510483206939850276e-01
-2.565093649135814433e-02 5.917816446762447918e-02 -7.279551807329914803e-01 8.237233083388563193e-01 1.387105631666372130e-01 -5.497629406983376432e-01
4.173293012558423887e-02 -3.370062785289253127e-02 -7.217891831344661613e-01 -9.604457601519198473e-01 -1.812525240837116469e-01 -2.114035579631637907e-01
2.526972505775963718e-02 5.122579520716360330e-02 -7.208882424266508382e-01 -9.529299252207491522e-01 -3.016804547524087332e-01 -3.022351467247708437e-02
-1.302364235031330982e-02 -2.291949190369555953e-02 -6.997037845290237090e-01 9.756834251610523312e-01 1.560367019131492505e-01 1.539298590984355675e-01
-9.595985090192899608e-03 1.012539346726788331e-01 -8.060600406158129339e-01 -2.437820223959730470e-01 -9.191283563174736937e-01 3.094727615956991973e-01
4.537266762921936258e-02 -1.190180339098190071e-01 -8.204791142386668179e-01 -9.892793240694828238e-01 -6.346114717037590336e-02 1.315260497713170162e-01
-9.449116457942913216e-03 -9.429168736800008777e-02 -7.827642349728711757e-01 8.391893456694524689e-01 -2.931771203841458673e-02 -5.430485373110851555e-01
3.658933049093663487e-02 -8.291296096671688098e-02 -8.491886552518685960e-01 -8.253044538308134115e-01 -4.090245424939278895e-01 3.893218233347006674e-01
-2.941338889888470490e-02 3.036990915888065218e-02 -8.077030436511968281e-01 9.836320194774519354e-01 1.635722971182893837e-01 -7.557879248939762540e-02
3.737140988046962209e-02 -1.470844931849684123e-01 -7.889663500987941225e-01 -8.431040234553180968e-01 -7.422134502616407198e-03 -5.376992817113296352e-01
-1.186791433380809946e-02 1.792944685100656688e-01 -6.402280683321344146e-01 -7.786933600737621086e-01 -6.264093089921616286e-01 -3.532744803969245506e-02
-1.806767009928206963e-02 -1.959107647537619845e-01 -8.324473872941189345e-01 9.970399287453538539e-01 2.739585888001604477e-02 -7.183903815952862038e-02
1.344926919487086708e-03 3.419672103879926178e-02 -8.702931096432985347e-01 -1.315680143874403962e-01 -8.532301739185149669e-01 5.046663530542996323e-01
1.686695994797214951e-02 -2.011051629645649319e-02 -8.630057447690671069e-01 -5.204670033527106776e-01 -7.464348905551891900e-01 4.146673999519525089e-01
1.500787741092188439e-02 8.244216429325346152e-02 -7.803057792250269742e-01 -9.349463568366940258e-01 -3.535460576497813645e-01 2.967313529255903234e-02
-1.587118586396188760e-02 -1.737277633384459452e-01 -9.181661353926855451e-01 1.508915435889494894e-01 5.794825374264297307e-02 9.868504151904293753e-01
-4.766280799278345241e-03 -9.849789607669488800e-02 -7.509858869228333011e-01 9.991196632685295231e-01 3.291846315226686776e-02 2.600525435124297069e-02
4.738191204148915758e-02 -9.644660639988499040e-02 -7.676842995599071351e-01 -9.928136525098766318e-01 4.801226715192695449e-02 -1.096169402644040780e-01
-3.047848178155519727e-02 -3.656733544828990462e-02 -8.983721277448047937e-01 9.876596825927342893e-01 1.561974639145258803e-01 -1.143256959258819039e-02
3.544787278390016099e-03 1.005956103101507682e-01 -7.664210766744976588e-01 -7.003988725151946149e-01 -7.137516326709173464e-01 1.619847024094311829e-04
2.480205078562737475e-02 -1.837537298551669418e-01 -7.844414865771565104e-01 -6.817203947459831159e-01 4.467859327727133345e-01 -5.793441409592380298e-01
-1.933416231840563021e-02 1.500170751271286407e-01 -7.081393848862698182e-01 1.035748744100712521e-01 -7.007467213607238010e-01 7.058514559687003587e-01
3.146599921839497715e-02 -1.816616626226013123e-02 -8.331343064353644579e-01 -8.120362926791446778e-01 -5.162237523796284755e-01 2.722316969990941082e-01
1.876953532668143229e-02 -1.189614373313097606e-01 -8.971165914002969810e-01 -8.459624278971524802e-01 -6.878478287283867898e-02 5.287875038533829120e-01
-2.964484911641973239e-02 -1.871375471506991073e-01 -8.644773652799598862e-01 9.627659406237496498e-01 5.006033629401159674e-02 -2.656608859147261414e-01
-2.184816019089702230e-02 1.442608055335710127e-01 -6.490938662548191296e-01 8.556626868171153533e-02 9.022946675089805746e-01 -4.225431890928398881e-01
-5.834727044073729531e-03 -8.577428835787526129e-02 -7.439762784557241160e-01 9.916319159756850077e-01 6.734951773659225704e-02 1.101371221661449351e-01
-2.307191811583281238e-02 -1.466723364682753772e-01 -8.584298021946765722e-01 9.926364126373297125e-01 -1.194979085468123592e-01 -1.982932574322244720e-02
-4.190625904118771075e-03 -1.601054726813299633e-01 -8.029417736451616161e-01 9.979579315896421887e-01 4.175214269921360966e-02 -4.833968718710768275e-02
-3.041843298285849817e-02 1.279797082672462227e-01 -7.049917291162340893e-01 9.452694176755011002e-01 1.106557956677719085e-01 3.069544312964898047e-01
-3.117853704664253975e-02 -2.009840165951919666e-01 -8.734095696728109148e-01 9.725907271082298022e-01 9.026582568490273961e-02 -2.142880263955685982e-01
2.928424447997601474e-02 -1.758151829293672641e-01 -7.799711273489331465e-01 -5.876791914930757921e-01 3.645655282775484007e-01 7.223054364171413999e-01
-1.128784127366605147e-02 -9.533631515113472066e-02 -9.235018605553003690e-01 -2.174198902220688956e-01 9.745785737126669247e-04 9.760776821198339226e-01
-2.236910412342358115e-03 -1.922269459918419243e-01 -7.963876975678818582e-01 9.606918683417086102e-01 1.553341086322456988e-01 -2.300922614899135465e-01
1.611394028340909848e-02 -9.865142865250758897e-02 -8.932840269316187909e-01 -6.100834717952864361e-01 -5.265643665483941138e-01 5.920541574245539174e-01
3.158347165903296200e-02 1.105771691027788647e-02 -7.086225988838359413e-01 -6.902942264019152896e-01 2.549769360707200838e-01 6.771119870953173914e-01
3.468753723045754633e-02 -8.471165950177404758e-02 -7.045679901822935465e-01 -8.290772108258243067e-01 2.583959163013342386e-01 -4.958452671227847608e-01
-2.063598094670730798e-02 -1.085909625575561532e-01 -9.233152655779395257e-01 3.511486964006370615e-01 6.512231065257556573e-02 9.340522885103397233e-01
-5.336766362584672956e-03 -1.232932100081363114e-01 -7.689163292731856503e-01 9.888975045847091527e-01 -4.443589265271748884e-02 -1.417997773985957555e-01
-3.342841507305532173e-02 1.410005214263904127e-01 -6.695750961651331101e-01 6.411582493280350015e-01 7.131644798148352171e-01 -2.833946436491786569e-01
8.393116220939524433e-03 9.436454533765066544e-02 -7.848755651674867995e-01 -7.756103147069117743e-01 -6.268563252022416599e-01 7.402558526743938105e-02
-1.917789777198130458e-02 1.358249864702713861e-01 -6.642556331348382637e-01 2.339195746711377755e-01 8.580189612461817106e-01 -4.572582363694476237e-01
-2.172821268124300667e-03 -1.296226570056316363e-01 -7.429745538537056992e-01 9.828547452625981951e-01 1.546502707094326301e-01 -1.003984237141829355e-01
-2.729281182732203395e-02 -6.690676998980306031e-03 -7.930608361219323443e-01 9.923454717351469778e-01 -4.622661570958686711e-02 -1.145144738746447788e-01
-4.946317097671489721e-02 1.960714648048907383e-01 -6.035871497615744596e-01 1.774224029314845352e-01 -9.731739891147819232e-01 1.464707405881476299e-01
-2.468012250631080803e-02 1.239860787547255108e-02 -7.508160597914207424e-01 8.709490533427738379e-01 2.525786093452762615e-01 -4.214875948145240248e-01
-1.516513536896535279e-02 5.411696345130301289e-02 -7.090549944797686077e-01 9.203543421175170991e-01 9.810624533155795114e-04 -3.910842907378086486e-01
-1.722145719397405461e-02 -1.550245353570111062e-01 -8.333123796689841933e-01 8.294130633355427662e-01 1.018149925191087768e-01 -5.492792346945993831e-01
3.426729596110142384e-02 -8.391175647728510434e-02 -8.220825560992783831e-01 -8.879302756950441244e-01 -1.202435417625605935e-01 -4.439834638458040605e-01
-1.906686328662494587e-02 -1.300274506615217429e-01 -8.579554678393623846e-01 9.801801682243646008e-01 -1.940297873558822772e-01 3.999099196428291397e-02
-2.097511944399231901e-02 -2.380579558101396931e-01 -8.984344487001637569e-01 -3.711688078979711869e-01 8.144365781824119965e-01 4.460120807356266481e-01
-1.929788731423467355e-04 -5.685884382730731906e-02 -6.755085450049964635e-01 6.935432148496090132e-01 2.154740233099582125e-01 -6.874363639019169803e-01
-8.107490010610817963e-03 1.234894001505568301e-01 -6.795893178069409846e-01 -5.459836083516938360e-02 7.274175548776953271e-01 -6.840195317751298631e-01
-5.219748970204769571e-03 8.834622071614321726e-02 -7.003633294217855854e-01 -2.816679191105017632e-01 -3.652425957508855566e-03 -9.595049990117743288e-01
-3.498662992259972578e-03 4.460057574309446438e-02 -6.809290112608490375e-01 6.340731662254800449e-01 -3.716863883105635535e-01 -6.780858711235943082e-01
-1.623289309704987679e-02 -2.819795717034664657e-03 -7.370831494006856444e-01 9.720519707927530728e-01 1.533750444532277490e-01 -1.777387459641122103e-01
-7.070674763537006247e-02 1.754080250120565454e-01 -5.949086590445167300e-01 9.136594231001716748e-01 1.729916099515300398e-01 3.678319745028146848e-01
-2.597723506053417272e-02 8.278517628443285425e-02 -7.873796296541063500e-01 9.844842532558711889e-01 -1.212958920471120666e-01 -1.267992967793005188e-01
-1.871695841050664139e-02 -8.035804093063103615e-02 -8.016691238823022703e-01 9.036857025497890827e-01 2.697073837573663591e-01 -3.325809347419825812e-01
3.618382766785857574e-02 -5.775730636559834458e-02 -8.483041117928613595e-01 -8.968102825019937940e-01 -7.137274156559669791e-02 4.366202571572975755e-01
9.278570956535690806e-04 -1.985083651278673755e-01 -9.120028544835073747e-01 -4.693472154643810734e-01 3.139070160908332685e-01 8.253336153246039197e-01
-5.818434576488906024e-03 1.261208831215055726e-01 -6.771038205532657894e-01 -2.053528800168047397e-01 7.209609622185858546e-01 -6.618500476887909656e-01
7.313013534686645806e-03 1.261532331953997554e-01 -7.246109497133611521e-01 -4.366602105556858238e-01 -5.963140294653910267e-01 6.736003553890193007e-01
-2.264471387048314771e-02 -3.626888839244081508e-02 -8.293842534669112476e-01 9.925513233242023725e-01 7.265405363011959161e-02 -9.779191714291300686e-02
-2.652574038517042238e-02 8.419723627717552727e-02 -7.216102910352217847e-01 9.660194789889476885e-01 1.192504283892309308e-01 -2.293157245871004779e-01
-2.006572737593577058e-02 -1.789523767367273699e-01 -9.151574561632879190e-01 6.493597715661476588e-01 2.447364095100469927e-01 7.200249835468843784e-01
4.418437831129869847e-02 -4.920192140943726450e-02 -7.207984676561617343e-01 -9.529485097385592685e-01 -1.174883076083078626e-01 -2.794380707104790473e-01
-4.750047673780755098e-02 1.974998498436699446e-01 -5.829540943247509821e-01 -1.431287049425099822e-01 -9.892659632674619674e-01 -2.944533480843043727e-02
-6.731883800785900401e-04 1.122042200854579536e-01 -6.897560291025396362e-01 -2.082806752371341441e-01 5.462291422674867558e-01 -8.113278526344879227e-01
3.739620297537655375e-02 -7.770882264750932078e-02 -8.238926459559767768e-01 -5.576315066811392551e-01 4.351627140631090379e-02 -8.289471858203120158e-01
3.571269037523356477e-02 -1.784583117224616822e-01 -8.056066506424205409e-01 -9.360104224453027477e-01 3.352029203020504000e-01 -1.073475257970270547e-01
-3.252185336151085931e-02 1.350991233384782608e-01 -6.813518030304820394e-01 7.155524212943971119e-01 6.419965638242083328e-01 -2.753636584911579588e-01
-8.184864552681666086e-03 6.302315614038368763e-02 -6.956416595728209806e-01 8.430339253189949034e-01 -1.430126336128927367e-01 -5.184989753011590707e-01
-4.327723856041690298e-02 1.830612853627222314e-01 -6.516636498324350768e-01 6.741670248156372836e-01 -6.032602974362442083e-01 4.261171625132767482e-01
3.433171281323262047e-02 9.711014108515585858e-03 -6.981908524597056909e-01 -9.839249080570168227e-01 -1.668540144300287575e-01 -6.365149781092946379e-02
-1.052190966725201349e-02 -5.055015392264958912e-02 -7.223589326811010736e-01 9.880526603695344301e-01 6.983054305360547609e-02 -1.373886297825399061e-01
8.853229841099671468e-03 -8.441479760764378226e-02 -6.823808957652488516e-01 1.412297030431257094e-01 5.351478180363907766e-01 -8.328691276720735504e-01
-2.697635205204258757e-02 1.528482518450434598e-02 -8.027458952915491608e-01 9.957260400129008815e-01 8.160710849132422895e-02 -4.324272290122629925e-02
2.199318010373602084e-02 -1.695729403933501078e-01 -8.895263479416698482e-01 -9.372323290059982881e-01 -1.845766133602283199e-01 2.958496835666059033e-01
2.542715944807924164e-02 3.730325519723631800e-02 -6.910660874330510905e-01 -8.696064534152120329e-01 -3.159285457637294736e-01 -3.794387567845852183e-01
-9.475686199416736037e-04 -1.071244567520747565e-01 -7.111348006512123732e-01 8.713129159404465751e-01 1.914206872512737301e-01 -4.518538735117875738e-01
4.103501996904087429e-02 -1.621675736206087404e-01 -8.201064922638363619e-01 -9.731380768676440862e-01 2.233092514433873133e-01 5.599340648806030996e-02
3.843901670196535683e-03 -4.058023287407851870e-02 -9.004307189885818463e-01 -6.153424021636523245e-01 -4.098418294243846294e-01 6.733375104310911352e-01
-4.957342074280102684e-04 -6.643559497830649196e-02 -6.807578900310014003e-01 8.729650680815996822e-01 3.510796330942698718e-01 -3.386370935613537969e-01
-9.078478176073542100e-03 5.844005181908417529e-02 -8.631797668107397126e-01 -2.658676637368868612e-01 -5.977279000390139929e-01 7.563304455686286065e-01
1.333414514149502787e-02 -1.282148220810322425e-02 -8.562296029858944557e-01 -8.374968127856673439e-01 -4.326168276875732577e-01 3.338289516734417872e-01
1.999149032393772105e-02 -1.354703173169966024e-01 -8.968748865414214455e-01 -8.601202323445171771e-01 -2.582521215299625125e-02 5.094371838891098569e-01
3.533287194882790694e-02 -1.042303651854078472e-01 -8.631538056388281532e-01 -8.969924983995992696e-01 -1.272577051947310911e-01 4.233319433770802998e-01
2.435666236401928114e-02 -1.011534470339615910e-03 -8.287450243654206350e-01 -5.609163467501667721e-01 8.272066854408680614e-01 3.319565499247464219e-02
-2.427101458370707274e-02 -1.245450007149311034e-01 -9.049482137315292274e-01 9.896514409926959743e-01 1.319914985740305580e-01 -5.628738442370468525e-02
-5.598998006894138901e-03 -1.107861244221015895e-01 -7.319132187378037946e-01 9.560673300709664479e-01 1.248511460949342927e-01 2.652309402949716843e-01
-1.813831758686420062e-02 -2.090830799917287597e-01 -9.115030916223725299e-01 3.043339989134533075e-01 2.509858835155431844e-01 9.189052744332619760e-01
-1.333093122516444511e-02 -1.205454102849971981e-01 -8.157320904087163038e-01 8.034403424834247742e-01 2.722747808624638166e-01 -5.294809342898140203e-01
2.189232950150680340e-02 1.028180520049573471e-01 -7.258708884720449506e-01 -9.395170184032598515e-01 -3.333796272389986104e-01 7.852258447500970462e-02
4.199322066512885601e-03 9.493948362069226654e-02 -7.017958317938505219e-01 -3.626584624597402051e-01 4.415574733466629542e-01 -8.206740140506757486e-01
-2.765594514930708528e-02 -5.310203930227275909e-02 -8.763011540491792983e-01 9.965563489815310039e-01 3.342210225583604200e-02 -7.588416425975380575e-02
-7.929889954202132968e-03 -3.417882744548859930e-02 -6.799494074757080897e-01 8.210642638812852834e-01 5.384318583199747960e-02 -5.682907582536813607e-01
1.969572261144281883e-02 -1.222759257312249284e-02 -8.421659064316148191e-01 -4.897930633987300220e-01 -8.039565978291960402e-01 3.372781401949914715e-01
-2.360608417098544742e-02 9.458244882944816245e-02 -7.082090780221186321e-01 7.825463546425086570e-01 3.347421078599466249e-01 -5.249465916273776678e-01
-3.272490752873007808e-02 1.656190382301107600e-01 -5.883185481245264414e-01 -7.291711727488551231e-01 5.828218304904266844e-01 -3.586476191693562243e-01
-2.814253782526915382e-02 -6.465518971565309414e-02 -8.860333552505009758e-01 9.993197976974387275e-01 -1.122945342588025155e-02 -3.512607728890704967e-02
-2.982284883784944510e-02 7.192222521273616831e-02 -8.377123753824272656e-01 9.761178600369869729e-01 -1.832780378423787826e-01 1.166322603804818281e-01
4.274303183956361385e-02 -1.390958759266834599e-01 -7.654210635587953560e-01 -9.612883146582856808e-01 2.000229422851460270e-01 -1.895141120366132803e-01
3.746161915460117370e-02 -4.957119433906822387e-02 -8.106954592850871277e-01 -5.671651386102847248e-01 2.996337632442078736e-01 -7.671657666171572965e-01
1.166146635906878393e-02 -1.157020499797008391e-02 -6.646730990964903052e-01 -2.545290857430814180e-01 -1.320503973507963259e-02 -9.669749590534318928e-01
2.120083773641428040e-02 1.640202014284267498e-02 -8.548997237681843497e-01 -8.784017345099695007e-01 -2.464783524756095912e-01 4.094616155035611382e-01
-6.397542690693143290e-03 1.301298364508833572e-01 -6.721309447400600767e-01 -1.219047004070763635e-01 7.905184733624333049e-01 -6.001831281295644249e-01
3.048137579616206835e-02 -1.080017558971557157e-01 -8.741862423465160958e-01 -8.773658675497311155e-01 -1.261206972125936132e-01 4.629500018288335572e-01
-1.230825788476457190e-02 -1.810225583289640228e-02 -7.131064593017487629e-01 9.955862578372136618e-01 9.307475755737301681e-02 1.204544359205411523e-02
2.674483660705194096e-02 -4.333127623011032853e-02 -8.622523291679872193e-01 -8.972993486192920587e-01 -1.719521085246097925e-01 4.065542415734151871e-01
4.055054733641169640e-02 -1.477834089498817061e-01 -8.337956398448886919e-01 -7.226042158725681785e-01 1.743619972307372812e-01 6.689103386291017639e-01
-3.383789334564533263e-02 4.849129405672812643e-02 -8.052521642847980665e-01 9.869916541019047029e-01 1.253850161744734237e-01 -1.006283879037777190e-01
1.279480971796559570e-02 -7.490553206302766331e-02 -6.778105262964970734e-01 -3.518782097094735328e-01 3.724113425915538955e-01 -8.587732631147830809e-01
2.112678873423461112e-02 -1.445866539338024059e-01 -8.763278461942244357e-01 -6.507771404878197608e-01 7.586660311206835372e-01 -3.024841553018467119e-02
1.014145591338709400e-02 -9.645232045210300198e-02 -8.964278985607351258e-01 -6.338180947783749186e-01 -4.576312077531942135e-01 6.235770204408304096e-01
1.055608640107364403e-02 8.449331217669812932e-02 -7.090325468193494629e-01 -5.783666395638511482e-01 1.674541299590271703e-01 -7.984053761087057666e-01
3.470082059008135905e-02 -4.086680884158233606e-02 -7.521696675879213645e-01 -5.372441290650645795e-01 3.265719347937997563e-01 7.776371372241391855e-01
2.310779321818460380e-02 -1.540337393614011063e-01 -8.732546072138916982e-01 -5.919513130655162936e-01 -6.537573053054381855e-01 4.713756768436224709e-01
2.320591134413542769e-02 4.025538855028393259e-02 -8.033336094447137699e-01 -9.115427395968823676e-01 -4.111821261008040684e-01 4.369561011471535632e-03
2.561155271428804114e-02 -1.645081118047118096e-01 -8.780223890227287775e-01 -9.667615292563697116e-01 -4.552649000191620610e-02 2.515938875608683123e-01
4.313171541538591419e-02 -8.181726184574346361e-02 -7.488476403671371351e-01 -8.728960544332616811e-01 -1.200559374451284356e-01 -4.729049059155716050e-01
3.761941877959053271e-02 -8.376616198768385702e-02 -8.091786607321161950e-01 -7.389782777997166985e-01 -6.403816495517633545e-01 -2.093381185009725309e-01
-3.471367372439512072e-02 1.566130119833876455e-01 -6.088680828776945608e-01 -2.330399391531379205e-01 9.448582394931678285e-01 -2.300767133400802300e-01
3.732472285908638304e-02 -1.141915058395757132e-01 -8.316362178765279722e-01 -8.032567604110566473e-01 -1.856389144638732613e-01 5.659653437186850100e-01
-2.529450057172187918e-02 -8.356162577537151748e-02 -9.184778216905775672e-01 8.113666458048620633e-01 -7.167694393571437395e-02 5.801263498440700772e-01
-6.957315225643351600e-03 -1.021372753110393883e-01 -7.310881868144644136e-01 9.560673300709664479e-01 1.248511460949342927e-01 2.652309402949716843e-01
2.070189528849712690e-02 4.398288669698900005e-02 -8.224950645460200604e-01 -8.259457638716782846e-01 -5.610714382806090139e-01 5.488566559821137641e-02
-3.016085009611816845e-02 7.408584738283026383e-02 -8.264060241912078997e-01 9.908827248844348512e-01 -1.344878898876438744e-01 8.027016828582407212e-03
-1.779789966562947065e-02 -2.820353825203561482e-02 -7.545598651284733949e-01 9.805306659231838307e-01 1.435928870275395564e-01 -1.339428832724380847e-01
3.147005058508689501e-02 -1.269613798487179979e-01 -8.440987548707903354e-01 -8.214245540181888128e-01 5.566780494562929560e-01 -1.239808505760331692e-01
-3.961586222593942858e-03 -1.156449112285498765e-01 -7.463765479801853786e-01 9.961608017344284471e-01 7.604470494139267678e-02 -4.336888214143239106e-02
-8.419607679090805250e-03 -1.283033128224678743e-01 -8.106698418115050320e-01 9.053242395327282255e-01 2.195566692077617621e-01 -3.635696498896479056e-01
-2.594532202036967106e-02 -1.070295998097404305e-01 -8.854777026233764392e-01 9.262981946283371792e-01 3.197386516213820418e-01 -1.993460541059781099e-01
-1.508662185756184070e-02 1.535755709598631003e-01 -7.045260732753453325e-01 -6.786110885691398753e-02 -7.453642736356959064e-01 6.631945185933324494e-01
-2.727146955954281790e-02 7.995769866127764788e-03 -8.644529484898447746e-01 9.921592924341540165e-01 -7.890210724315128987e-02 9.692469194766190066e-02
2.602432497007288459e-02 3.334986585697015393e-02 -7.916046820269887485e-01 -9.616020498269910455e-01 -2.706744715110380173e-01 4.535226830875253856e-02
-1.856576686318676776e-03 1.344853374154452719e-01 -7.210796699420204403e-01 -1.280619686513375655e-01 -6.072407306864859855e-01 7.841293433997267304e-01
3.959739198714787994e-02 -1.828896753926174262e-02 -7.325446396485797429e-01 -9.690842357045457156e-01 -2.429953962569466053e-01 -4.276659335118702943e-02
1.093746587767219572e-02 -1.105990646708364111e-01 -9.067205613696811550e-01 -7.329303014298438335e-01 -2.118547196259810972e-01 6.464756383794793004e-01
-3.715977414258741108e-03 -1.336359011289251775e-01 -9.208850432718440615e-01 -4.521419664342410938e-01 -4.938298787699025444e-02 8.905778813205045275e-01
-5.576789624574351838e-03 -9.688107556993010017e-02 -7.741742452723631152e-01 9.801040996568535224e-01 3.327957899914554818e-02 -1.956742789879867273e-01
4.526756572354420638e-02 -1.236162740173723795e-01 -7.659303789442729604e-01 -9.881176374653343197e-01 1.144448534439037185e-01 -1.025958578604874299e-01
-8.813181938205483582e-03 -4.832912708735685042e-02 -7.031433715366767201e-01 9.782367933222662071e-01 1.966359658775462815e-01 -6.623498406411879036e-02
-2.873791328331932668e-02 -3.175268385392488596e-02 -8.695429875978536449e-01 9.723314286912168036e-01 1.624790911164856189e-01 -1.678455770321576890e-01
-2.098214091499603709e-02 -2.226814397955581559e-01 -8.645764334318686295e-01 7.982299621516707466e-01 3.624571694490070772e-01 -4.810963810281223552e-01
3.413463248799267907e-02 -5.343176640745593564e-02 -8.071920336745184166e-01 -9.386005767199278038e-01 3.421228180155009846e-01 -4.450769342654579269e-02
-2.284970888891189530e-02 -1.535407688902072632e-01 -8.423261098017466031e-01 9.293837617814829644e-01 1.391908030414696351e-01 -3.418650957403673307e-01
-1.854559300184852738e-02 -7.055733252291623847e-02 -7.941887894655936808e-01 8.872980933341431120e-01 2.428718237831806459e-01 -3.920655184759629930e-01
-4.722300944200736282e-03 -1.583672850794856923e-01 -7.931135719708375387e-01 9.936863582633796987e-01 4.320524205177566496e-02 1.035409506451903244e-01
4.560074701682137466e-02 -1.101326378585307797e-01 -7.586044777148074347e-01 -9.883077819663084185e-01 6.567155118542211678e-02 -1.376044166069397001e-01
2.206540088191002655e-02 4.428357874471183092e-02 -7.862926641497419711e-01 -8.302005297830109543e-01 -5.529784470047365286e-01 7.058269969502238561e-02
3.540737201583217530e-02 2.220520709895981368e-02 -7.700017349073737805e-01 -7.907794068974598467e-01 -3.305748300431505249e-01 5.151584332696531598e-01
-5.688582830037384325e-02 1.695104198714692534e-01 -6.262467350883474948e-01 8.985647300536111493e-01 3.255749221658145731e-01 2.942488673901814122e-01
-2.526721284577283788e-02 -2.089904478594100112e-01 -8.643431372757979236e-01 8.626473561229965892e-01 2.669255269428250643e-01 -4.296397351739002501e-01
-1.082381107737342973e-02 -9.336787247885711127e-02 -7.851588385340502185e-01 9.257742721827892929e-01 3.099189317667098292e-02 -3.768043252428939782e-01
1.082742402976235967e-02 -1.887017946923158773e-01 -7.711085972016934464e-01 -4.934913300349012127e-02 8.401097017302069370e-01 -5.401669669005932928e-01
-2.010193698273552224e-02 9.687032028865820432e-02 -7.024680403522405303e-01 6.719469865494870353e-01 3.715731994145540229e-01 -6.406407766790180869e-01
-2.151799669129109138e-02 -2.224283874990875751e-02 -7.647025404476825994e-01 8.928350526562999212e-01 3.004015779307754874e-01 -3.355658813480928426e-01
2.719315504287012769e-02 -2.046012013014630870e-01 -8.532150773359216123e-01 -9.334396013519697943e-01 3.489534833620461240e-01 8.319841992111304263e-02
2.408744237760305010e-02 2.704002605466491321e-02 -6.816614170689895280e-01 -8.151014244313050661e-01 -2.427179955759335428e-01 -5.260205723293135405e-01
-1.167822502640507559e-03 -1.485891594752272449e-01 -7.533884738296751094e-01 9.707189976321387581e-01 1.225667245291983398e-01 -2.065962866903452433e-01
4.677314497218668793e-02 -9.891337527259275175e-02 -7.630526249069983225e-01 -9.925001646594221461e-01 4.107617168435961225e-02 -1.151354474989225163e-01
-1.812659622972791554e-02 -1.097084121315560212e-01 -8.378792126893525039e-01 9.963900268562826401e-01 -3.497719190320687510e-02 7.735315396221772999e-02
3.857807344933682908e-02 -9.943472678796720643e-02 -8.534612404453372214e-01 -9.448791649448263774e-01 -9.101720056221808408e-02 3.145142808442640825e-01
-2.725811424596438423e-02 1.203905311006567627e-02 -8.165260281354168592e-01 9.950076579212514538e-01 9.073998216617530643e-02 -4.154535250239228816e-02
2.519283092177935363e-02 -1.342250186291971681e-01 -8.477174096870740971e-01 -7.724848008819982237e-01 6.226608313506011294e-01 1.247426210566296018e-01
-6.296793192012861695e-02 1.950257855636081950e-01 -5.816902992423073071e-01 4.959252926441594100e-01 -8.508640242860003866e-01 1.734604170744371843e-01
-2.511494263899546539e-02 -1.475620643166145052e-02 -7.700002726685259979e-01 9.816107222192619330e-01 1.661912443657467264e-01 -9.391943526418647381e-02
-4.420156378849603163e-02 1.613555972635746238e-01 -5.789384674581264933e-01 -3.088079466518818816e-01 9.008638788948799547e-01 -3.050933034124474474e-01
1.667113988266964025e-02 -1.071505674132884611e-01 -8.980935455130710787e-01 -8.311325363531284482e-01 -1.973017205319995415e-01 5.198949298563400045e-01
1.672173696263232201e-02 1.122838303279158206e-01 -7.061150060111068827e-01 -9.364010828234173855e-01 -7.137887608973333964e-02 -3.435957917892738522e-01
3.578894107115841022e-02 -1.150504304564394648e-01 -8.348817244331357967e-01 -9.716790041081054818e-01 9.076252556071270905e-02 2.181790020357626814e-01
-5.132202853531069725e-02 1.706573978545797843e-01 -6.472176116471729523e-01 9.663947514764268387e-01 -2.659678768302582361e-02 2.556829974866521304e-01
1.909483183452236402e-02 -2.075934311020116441e-01 -8.323478753314191847e-01 -8.003965076415522351e-01 5.322663583116113983e-01 2.757860662994086609e-01
-3.585557763351610722e-02 1.483387245442300273e-01 -6.455356957721700706e-01 3.348837316417537235e-01 9.218143176702298103e-01 -1.952210286312994758e-01
1.881349524493212966e-02 7.242497953738551153e-02 -7.633696856768329431e-01 -9.519780141565754583e-01 -3.024108261659587127e-01 4.780745527765776354e-02
-2.014791160447000976e-02 1.795465195953118709e-01 -6.649251284249253491e-01 -2.301414289944332947e-01 -8.908236193141987336e-01 3.917501779608428825e-01
4.311399783586149226e-02 -9.516258084913362114e-02 -8.125489133167108635e-01 -9.858185736820918033e-01 -1.593680345221861749e-01 -5.256966193482359717e-02
-7.282927337943985099e-03 4.183973452575710100e-02 -8.690989961147398413e-01 -8.260925652408254161e-01 -1.178716434838421590e-01 5.510692781459070044e-01
4.366429565759191028e-02 -5.937454183763125892e-02 -7.162707770281343533e-01 -9.336869945015369154e-01 -4.597202211938535010e-02 -3.551269765604154194e-01
-2.226410320502732881e-02 -3.599908197397844872e-02 -8.245060524107442612e-01 9.954199182424305903e-01 6.287488780388897358e-02 -7.201343520400438347e-02
3.891121218548362903e-02 -2.168447990271726508e-02 -7.843983506096606773e-01 -6.626190071680190252e-01 3.526692030726320537e-01 -6.607272391416775248e-01
-9.201920897106878952e-03 1.103273364544531641e-02 -6.882095982030547177e-01 9.651690573394777761e-01 -2.021162482960571147e-02 -2.608451283351315708e-01
3.490448458251031033e-02 3.543520979612712479e-02 -7.509788343354223406e-01 -9.193939847493665107e-01 1.296520979805203255e-01 -3.713556708816108665e-01
4.780902921790711191e-02 -7.585960210126946324e-02 -7.723758412758660041e-01 -9.963506046928817250e-01 -4.453309318486810969e-02 -7.281672980515445370e-02
2.978043382943339548e-02 -5.559864520967949808e-02 -6.912693137094249041e-01 -6.763283086716741499e-01 -1.033162456166269484e-02 -7.365278517634139543e-01
-2.716348769909930974e-02 1.768717613993367813e-02 -7.656621069835007898e-01 9.891384909678300197e-01 3.997843744304152222e-03 1.469321711922887685e-01
-2.663672218552327192e-02 -8.801322408149815646e-02 -8.614918778654528930e-01 8.878130124939760393e-01 3.754233099325217093e-01 -2.661679793019461338e-01
-1.186635939029418406e-02 -5.173642758852491780e-02 -7.517045514932720884e-01 9.538509518362275896e-01 2.886524283638237653e-01 8.275347292283416478e-02
4.200912288614153806e-02 -1.033884995363507781e-01 -8.405423635707793828e-01 -9.994735622435958478e-01 2.411743039891428228e-02 2.170133468362706042e-02
-2.123872383686200432e-02 2.810783469716108748e-03 -7.491548702024964923e-01 8.871024327646495067e-01 2.298449814787247303e-01 -4.002756028939125077e-01
3.655833422625176521e-02 3.033003066594156319e-02 -7.591995894895101626e-01 -9.949385222212554503e-01 -9.994361808901500166e-02 -1.042162192086762418e-02
-2.406340191689369107e-02 -1.268594391489365758e-01 -9.067252020106185695e-01 9.896514409926959743e-01 1.319914985740305580e-01 -5.628738442370468525e-02
-1.725066955224043019e-02 7.849901315985759187e-02 -8.459332440786330176e-01 -1.504853832459787828e-02 -7.658130371570764927e-01 6.428871857601047290e-01
2.156008299394567007e-02 -1.178706713266442071e-03 -6.702039704655012864e-01 -5.900892354926703387e-01 -1.020973760432143523e-01 -8.008563041899380286e-01
8.644962331869605540e-03 -1.361538948892886680e-01 -9.119971169472974593e-01 -7.019215397329565675e-01 -4.646349551875933459e-02 7.107371494744691987e-01
-4.247656858697435901e-03 2.842389386832193734e-02 -6.749576467361118048e-01 8.352856455983878048e-01 -1.713742882475915996e-01 -5.224258259168622631e-01
1.560040576545213171e-02 7.726042155439684367e-02 -7.142239409615560586e-01 -6.990465513146638665e-01 1.055299043235930212e-01 -7.072463208730948026e-01
-6.910163231503107031e-03 -1.500085149290602549e-01 -7.841901966012091441e-01 9.522221788571675338e-01 4.835811427392417566e-02 3.015533367024456068e-01
2.306940284263192878e-02 -8.857021262475800460e-02 -8.740439852819250621e-01 -5.734273282687424311e-01 -6.292542257132132111e-01 5.246143522785444713e-01
-1.355450697523659029e-02 -2.026658712974094834e-01 -9.141123564469576523e-01 1.446593629174720286e-01 2.220770924169637450e-01 9.642382660649486681e-01
3.474748603592815038e-02 -9.896886008690612690e-02 -8.625399594284970384e-01 -8.828804600080014664e-01 -1.767762613966772645e-01 4.350543032113041164e-01
4.111057564229482139e-03 -1.358391040280962185e-02 -6.641946184147083931e-01 1.914386981810996813e-01 7.147321676629470218e-03 -9.814785482279155815e-01
-2.446507489079832384e-02 1.849028950284020423e-01 -6.540631538675956147e-01 -2.135643490163297575e-01 -9.178339944072103629e-01 3.346207219222032125e-01
3.537588068095741433e-04 3.864016374542381116e-02 -8.633062151874435486e-01 -1.715708588274992841e-01 -8.363448274375988589e-01 5.206637782864940167e-01
2.042510700427946704e-02 -1.016250485659660023e-02 -6.686232228497150931e-01 -5.092912747743307822e-01 -5.582575441801675142e-02 -8.587816268309402812e-01
-2.584350463848011925e-02 1.016590380383265574e-01 -7.072676792155222492e-01 8.580564964473453848e-01 2.899149378154551315e-01 -4.238966592649292542e-01
1.241171583710493596e-02 1.160825916102956878e-01 -7.297435922688134680e-01 -5.164066295167322185e-01 -5.618960733090319071e-01 6.462174524036470302e-01
2.976851972419050640e-02 -2.450391769289797864e-02 -8.441543953951905488e-01 -8.477899373518305026e-01 -3.589292537234941571e-01 3.904126188361166649e-01
-2.934839595136989887e-02 7.205711939595402238e-02 -8.404989880705321381e-01 9.228726012437205029e-01 -2.897844302782770498e-01 2.536358528322512629e-01
-1.547585660115153791e-02 -8.245933959503196076e-02 -9.239958117990882958e-01 -1.445311814238893662e-02 -4.743934265856101368e-02 9.987695510697580659e-01
-2.544251715568504255e-02 9.438236459527993283e-02 -8.095644077975326924e-01 8.850660788991889794e-01 -4.592290993039433444e-01 7.593859581598594310e-02
3.915019070101007775e-02 -1.695970999917112143e-01 -8.217456751999681064e-01 -9.682052793810653757e-01 2.426736138947335475e-01 6.072935120600871095e-02
-1.942755686224377498e-02 1.554089522225026998e-01 -6.274994634919963676e-01 -3.995531757556412544e-01 8.145280226913893529e-01 -4.205964336439828033e-01
1.233564798055032143e-02 3.025950529151502991e-02 -6.722818469678869535e-01 -3.675715399236646475e-01 -3.339985181463249742e-01 -8.679493953648479421e-01
-4.744844983604463995e-02 1.571759680399542891e-01 -6.454681439717885327e-01 8.546151175699021607e-01 5.111437639589928583e-01 9.146066579036057909e-02
-3.049859815628544121e-03 2.912770539476536649e-02 -8.792207966119035545e-01 -2.784870474349401825e-01 -7.134268378034189784e-01 6.430140834482427348e-01
1.785595826743959988e-02 -1.731924455466948565e-01 -8.985292570464369355e-01 -8.276636806464541252e-01 -2.197526108069071393e-01 5.164122595197683241e-01
4.666139537035134122e-02 -6.240409463067102952e-02 -7.302525413037184165e-01 -9.972186921282777394e-01 6.594094617742923825e-02 3.473718018482185171e-02
-7.846361832138201708e-03 -5.607640202993906947e-02 -7.073897999001146353e-01 9.725253326970684231e-01 1.700170887527012453e-01 -1.590241075891087041e-01
4.025564356902060908e-02 -1.485254836792472555e-01 -7.653037009815625291e-01 -9.301100974719396230e-01 2.738227420100012854e-01 -2.447780883552754527e-01
-2.154735152860929800e-02 -1.280954816995955869e-01 -9.201912080349948786e-01 8.445441635071978537e-01 8.054470527684902403e-02 5.293937158087476114e-01
3.557623805897817265e-02 -6.380238726577059684e-03 -6.967929458045903912e-01 -9.175136277526025896e-01 1.298717701699696470e-01 3.759016709209700435e-01
4.801634962440443077e-02 -1.078909878960871011e-01 -7.863306140770246477e-01 -9.496259101087233256e-01 1.818856132685250371e-01 2.552023795659268401e-01
2.999813919008303964e-02 -9.971341262366414937e-03 -7.904326845506345345e-01 -4.196980117998375115e-01 -4.793166804272228632e-01 7.707847291919392996e-01
1.844130088826310965e-02 7.058082983129632115e-02 -7.842229647450377206e-01 -9.737971366095002912e-01 -2.189973107181712453e-01 6.131325003086378345e-02
-1.381724324301995301e-02 -4.458238007053363927e-02 -7.543607248471306814e-01 9.572598327136564444e-01 2.779630478145025951e-01 7.993845584382439085e-02
-1.433310029188028523e-02 -1.300688892981149147e-01 -9.237517442843571347e-01 3.376996036618655646e-04 -6.432159618220265052e-02 9.979291649328381197e-01
-2.619065558948105096e-02 2.889419431254435303e-02 -7.424920553796119371e-01 8.854514824840944431e-01 3.106684262565574395e-01 -3.456310187092491160e-01
-2.600519207502051747e-02 2.216209546731870775e-02 -8.762181833219019333e-01 9.841731316443882438e-01 1.101647380536840137e-01 1.388055382138658755e-01
-2.321407871468509146e-02 -2.017806814183896180e-01 -9.084878186693197133e-01 7.799805585959803667e-01 -6.106413352112727289e-02 6.228173888144232784e-01
2.472198904766471222e-02 -1.912525960380195289e-01 -7.900203116124399072e-01 -6.227195293009445409e-01 5.903242645882259554e-01 -5.135539411450178449e-01
-4.349390533567387500e-04 4.139900695695170746e-02 -8.598824365464937669e-01 -4.227867193195866680e-01 -6.525500221293365488e-01 6.288321386395447909e-01
-2.837242958764870163e-02 6.459458794200628740e-02 -7.841518718525080089e-01 9.635375221501958354e-01 -2.494972036109913971e-01 -9.667775751927938643e-02
-8.016903814832252589e-03 1.713534488752437579e-01 -6.710539841237643799e-01 -5.679380475107823623e-01 -7.737329337082319292e-01 2.806843805502778344e-01
2.678180852254245792e-02 6.697569163163248759e-04 -8.316512232511095171e-01 -5.705528168223024110e-01 8.209670776098135780e-01 2.196680898397706388e-02
-1.602295322756473739e-02 3.971770827424125211e-03 -7.153271738145466907e-01 9.626244565835387901e-01 2.581659202677895060e-01 8.188109183158098769e-02
3.012025772566370718e-02 -6.103898325934616065e-03 -7.037158248853266906e-01 -8.603928368851745390e-01 7.662094830795099232e-02 5.038386611972839324e-01
-1.139017285135175347e-02 4.023595878965623845e-02 -8.754188979681343241e-01 -7.599111798309969856e-01 -1.725532368900077052e-01 6.267059750845233035e-01
9.345117618537143386e-03 7.928799823324812757e-02 -8.229561876651314556e-01 -8.127794925461000464e-01 -5.155199403941261860e-01 2.713460660347607467e-01
2.491262105268989696e-02 -9.140030535841649206e-04 -8.217812311622180177e-01 -5.609163467501667721e-01 8.272066854408680614e-01 3.319565499247464219e-02
-1.943959732050451125e-02 -8.666511190659273445e-02 -8.194123307563639935e-01 9.902219992227925260e-01 1.252661322596013149e-01 -6.139045824829555964e-02
-7.198570720832462785e-03 -1.909193593462007732e-01 -9.170172652312239547e-01 -1.339314010117646225e-01 2.293227829648271099e-01 9.640920293396749718e-01
-2.237096884765069418e-02 -3.979134266504410350e-02 -8.282536792484170851e-01 9.958724326422312423e-01 3.169388949145995199e-02 -8.505054539594518459e-02
4.658885963351248882e-02 -6.110030725861914647e-02 -7.890524614650701318e-01 -9.846085555601972183e-01 -1.200089494419278313e-01 1.270584289667820999e-01
3.132967611162963684e-02 7.687662803534509384e-03 -7.523904228342602751e-01 -7.810561181693108646e-01 -4.016572696173508206e-01 4.781451432711855132e-01
-7.694726301382849923e-03 1.728007947836626354e-02 -6.825359976337047607e-01 9.692960441305746855e-01 -5.568100587918740907e-03 -2.458336329485079907e-01
9.286799576212980854e-04 -3.061659291366648772e-02 -8.931607182869086836e-01 -6.171239439952698191e-01 -5.018156475253264803e-01 6.060850547954969025e-01
-9.213033120620562830e-03 -7.704091647625152528e-02 -7.232408143453995519e-01 9.790597441224285769e-01 2.988869145011992245e-02 -2.013670369308849517e-01
4.904024869647945206e-02 -9.511768641415876968e-02 -7.846107102602146721e-01 -9.971018648112557337e-01 -2.239743572259316525e-03 -7.604508359287059927e-02
3.870968652677806137e-03 -1.755025484911135747e-01 -7.575527110273522213e-01 6.901631573301110212e-01 5.228054243991361316e-01 -5.003491825545153260e-01
1.971183227007643896e-02 3.108885070826428523e-02 -6.780724954398522630e-01 -6.708519146623458385e-01 -3.256334447770078411e-01 -6.662736436604139723e-01
2.114788839253262803e-02 -6.356891961558399674e-03 -8.260423729858255015e-01 -9.817497230555267684e-01 -9.482273828027397433e-02 1.648518413164585528e-01
3.350717198291555676e-02 -1.002149258447114777e-01 -8.655527343177312760e-01 -8.703028054915536993e-01 -1.926306794582759718e-01 4.532840699660353745e-01
4.475470720356300447e-02 -1.113333499756004458e-01 -8.204871366673900379e-01 -9.686392659415310469e-01 -1.192725467731224204e-01 2.179725488737181693e-01
-3.471464467315589497e-02 1.575204498789975205e-01 -6.053118778086394869e-01 -3.367776719633630567e-01 9.021623025204368318e-01 -2.695996653891859496e-01
2.794841278028916201e-02 -2.004223768778397863e-01 -8.571133085032688337e-01 -9.695527820990186285e-01 2.007214960428378714e-01 1.402793062086408749e-01
-3.918521020042889554e-03 1.051153843434945168e-01 -7.697926431320588625e-01 -3.849101560137797029e-01 -9.220853799804817896e-01 4.003403331789628233e-02
3.299892681260015864e-02 8.616427383021945177e-03 -7.385483439958397955e-01 -9.699205862529497457e-01 -2.417308382684723866e-01 -2.864015001280877798e-02
