3.662263440557628202e-02 9.108207111320586538e-03 -6.576341865798333020e-01 5.596958663589395727e-02 6.279477612246650020e-01 -7.762403072146784044e-01
1.552046485535471705e-03 -2.185719218859131230e-01 -7.771593082166579070e-01 -3.440761795312256011e-01 4.850579004744409173e-01 -8.039467742745930456e-01
4.168056059547902564e-02 -1.404774668161991868e-01 -8.020632759022232605e-01 -2.959554726664151425e-01 -2.242188142645015758e-01 9.285129409591553751e-01
-2.411927387826464861e-02 4.496963444337121613e-02 -6.916717026299087356e-01 8.237238424546643178e-02 -8.382009486070370885e-01 5.391047765212070297e-01
1.601967035199756278e-02 -1.359287618723592772e-01 -7.490028620117931135e-01 -3.823681662441380524e-01 3.941884989605766165e-01 -8.357092872107517723e-01
7.673631418509668789e-02 -1.357815638189937835e-01 -7.814878730837488963e-01 2.635163321863447372e-01 3.131679569538202146e-01 9.124061449861164963e-01
-5.947260695033149136e-02 -1.972621291795806919e-01 -7.822732910416950736e-01 6.766447127703025810e-01 7.311873321813339155e-01 -8.670073781426691772e-02
-3.769452966470322568e-03 -1.706724473445528079e-01 -8.010985986204537390e-01 -5.231514624245139355e-01 -2.343457912124357889e-01 8.193867203610941674e-01
-1.432296943991632696e-02 -8.730490150029128482e-02 -7.141006527493324318e-01 -1.398668652680876423e-01 5.929695384184069384e-01 -7.929844806223764753e-01
7.339058723844418819e-02 -1.590051873552714712e-01 -7.811826778329591381e-01 -9.332510714205120017e-01 2.061408822694485998e-01 2.941910507640231875e-01
-1.307342806017285086e-02 -1.744832905782537913e-01 -7.584428651609229632e-01 2.726899707749921298e-01 3.098827062731489002e-01 -9.108308779304549185e-01
7.962598863849622288e-02 3.048401810811187523e-02 -6.967955221241890484e-01 -2.660890078589407404e-01 -5.053424114179317916e-01 8.208688610971635047e-01
-5.739822281722494618e-03 1.562620248042674020e-01 -5.597316566970943486e-01 8.774232100003978019e-01 -2.573469763680994449e-01 -4.048469393570791608e-01
-1.192936530136907633e-02 6.682752088098663223e-02 -6.214758511122947526e-01 3.327052288663592816e-01 4.287550152509619350e-01 -8.399264060512272589e-01
-3.333133421454305412e-02 -1.158601164534910632e-01 -7.341470465274896329e-01 -1.307529367585029412e-01 5.969750103703033162e-01 -7.915330103807441953e-01
-2.234476281223771177e-02 1.259325232243108939e-01 -5.906003432226039074e-01 9.606690300247415770e-01 1.136416465294693007e-01 -2.533783552819649509e-01
2.095338597800239233e-02 3.782990424806227658e-02 -6.978511976464973898e-01 -1.266188354270691707e-01 -7.707762264950125397e-01 6.243970525116224746e-01
-4.230676919523380236e-02 -6.776129364424510193e-02 -7.076460578448084959e-01 8.218956584995279480e-02 4.759587751007985368e-01 -8.756187067839196203e-01
4.992591419891333898e-02 3.489525926938370770e-02 -6.896785924180377503e-01 1.698950733567111682e-01 -3.110386643913872762e-01 9.350885590695353633e-01
-4.611525627389292947e-02 4.668367226208841592e-02 -6.873094926839388163e-01 -3.020023628884573319e-01 2.750265970303004126e-01 9.127732159390531397e-01
-3.798969778875818659e-02 -7.736527076042082340e-02 -7.683796180273614329e-01 4.405195561005901816e-01 -4.756016668092378774e-01 7.614102542133339702e-01
-5.291660310054550898e-02 -1.118968790505421029e-01 -7.256359079076738494e-01 -1.080622137474418765e-01 5.107023770894990600e-01 -8.529394116788937552e-01
1.979765392776793378e-02 1.613998155160557557e-01 -5.316464553604707266e-01 5.599855102087082370e-01 3.442762716727279515e-01 -7.535848174687563850e-01
5.815291241874774759e-03 -6.681908297773198058e-02 -7.024596591128600132e-01 -4.531573207204168119e-01 4.892575579916095263e-01 -7.451680915240400660e-01
3.279647129217434093e-02 1.333616151342531184e-02 -6.543255152645517381e-01 6.539657236012520747e-02 6.832893049567665411e-01 -7.272131833618293850e-01
1.026956903503295354e-01 -2.731242149300086922e-02 -7.177523575316971938e-01 -7.840139866741250296e-01 -3.365912509943650432e-01 5.215634174799774758e-01
-9.911179556728010043e-02 -1.528982987798882358e-02 -7.284400831047895819e-01 5.044913381555843346e-01 -3.921065445397086680e-01 7.692470002899703951e-01
-1.078804769979877128e-02 -1.552174172562754140e-01 -8.067175420184916623e-01 -6.251325533526097544e-01 -3.585233392629089133e-01 6.933039059046325336e-01
-2.126626956559897474e-02 -1.538376601098622454e-01 -8.039932080441759554e-01 6.668496377823281973e-01 -5.628362668521471601e-01 4.883921552456756965e-01
-4.993852474076895809e-02 -2.017900226674840258e-01 -8.027118914140917161e-01 8.251943764543807625e-01 3.306007112926843128e-01 4.579928064509712349e-01
-2.595044819284319723e-02 -1.090693693741374287e-01 -7.954518088804461984e-01 2.052566446832171654e-01 -3.447224791646523734e-01 9.159891495929214367e-01
2.058824061393049742e-02 1.525988863278822938e-01 -5.371803746572797467e-01 1.950127061290523878e-01 7.068821564101769317e-01 -6.799173930685420419e-01
7.553125004902895741e-03 1.087790207331125053e-01 -6.008451390778331014e-01 -7.299172812573500035e-01 4.501788645936629085e-01 -5.143537230302112073e-01
9.302426176544176251e-02 3.194252418245275421e-02 -6.601952549872170950e-01 -8.497731145885453197e-01 -4.275610010029183838e-01 -3.083459812351468377e-01
-4.719771146087678622e-03 8.979207860532761876e-02 -6.062587140301959332e-01 -8.884254320685328055e-02 5.303543465084200603e-01 -8.431081008127991883e-01
1.188010640929004769e-02 -1.528896414910762558e-01 -7.528957472416839547e-01 -4.735971380890013349e-01 2.441488454575438116e-01 -8.462252017374901625e-01
-3.429252764841035639e-02 -1.313915401186046550e-01 -7.449346512096515216e-01 -4.782521191508341818e-02 5.367847637365710245e-01 -8.423626692378710645e-01
6.085597207340669168e-02 -1.789759480931935320e-01 -7.740967680249104532e-01 -5.829812463060183303e-01 6.163812678515124821e-01 -5.293458218379017977e-01
3.703635569410015232e-02 1.484150227389774701e-01 -5.475645247136360361e-01 -4.858155293645182726e-01 8.712921472306699444e-01 -6.952169159651890029e-02
7.222138584030581010e-02 -3.295889711545877537e-02 -7.383325715863338079e-01 5.466677980260297165e-01 3.445081153054182499e-01 7.631962244993619748e-01
-3.303835856291014589e-02 -2.130900885886240770e-01 -7.837810907541534755e-01 4.171920953664862708e-01 4.488589895678721797e-01 -7.902381685592198002e-01
4.419034777092522431e-02 1.730496963133699162e-01 -5.067286592094094599e-01 6.783136639091512654e-01 1.431373490238702639e-01 -7.206956865893968667e-01
-1.081078765386471047e-01 -4.217308578545607423e-02 -7.348912031391292565e-01 6.741117836507117822e-01 -3.215254302431792555e-01 6.649772182941265930e-01
8.428062326260229997e-02 3.866304957305188861e-02 -6.848821969217244732e-01 -5.575208196537376759e-01 -6.791205268859583644e-01 4.774576898687076243e-01
6.420101227804504707e-02 5.726946257806898172e-02 -6.758979083713673175e-01 -3.698794991138914523e-01 -7.517460523957604224e-01 5.459551527759836098e-01
-7.326907407016430840e-02 -8.609181225173656582e-02 -7.710284371524926961e-01 3.033158518886187593e-01 -3.539164479866770407e-01 8.847274392927889641e-01
7.921338880880150757e-02 -3.108863755385761832e-02 -6.813405549596511790e-01 -8.326264704455040022e-02 6.002768920499081950e-01 -7.954464057861080351e-01
3.688618450008072751e-03 -1.537600566309360040e-01 -7.982571038324599577e-01 8.429258523368359235e-01 -2.418972101042634604e-01 4.805847971024393983e-01
-9.364902032049274294e-02 5.144791750098452743e-02 -6.739802117960522754e-01 6.784145975148404561e-01 -6.922295365342265860e-01 2.461135970002207018e-01
1.803043695992414749e-02 -8.104625771797194234e-02 -7.816717597891686964e-01 -1.204024119322450320e-01 -5.898637587488725353e-01 7.984760518109169647e-01
-1.032668847179337851e-01 -1.001019841370250352e-01 -7.312393589882123512e-01 1.053772953705814364e-01 6.218586897229662069e-01 -7.760073425145004311e-01
-4.769255663951094820e-02 -1.031100822440770698e-01 -7.216239444363722333e-01 1.398253435419304913e-01 2.929733344666451411e-01 -9.458411592835642701e-01
-2.602646578539523012e-02 1.136828071881331309e-01 -6.199207576880076953e-01 9.955719246802570144e-01 -9.113531694656688831e-02 2.304119774442332444e-02
-5.578949541016466063e-02 -5.155016407974335330e-02 -6.973900596574622579e-01 -5.829432379893717542e-02 6.641580748752053953e-01 -7.453159218686299381e-01
5.294598055241601930e-02 -1.136010859977849841e-01 -7.317583676008573290e-01 -2.498304388242429674e-01 2.029587742842992593e-01 -9.467800630441587373e-01
7.810531176187156255e-02 -1.117411458085088849e-01 -7.780301575773101996e-01 -5.231823901200213234e-01 -2.505315479172078863e-01 8.145637667896293843e-01
9.108242597297511178e-02 -7.756679620502122952e-02 -7.533787139731054072e-01 -7.505459935576580532e-01 -4.319572710102669300e-01 5.000936188114292191e-01
-5.542853698647638716e-02 -1.147274678041914214e-01 -7.271188567569831784e-01 -3.313556361522049243e-02 4.945735990584375075e-01 -8.685038799788321606e-01
-1.290752583535718229e-02 4.473685817169069379e-02 -7.007854422980556164e-01 6.942513849039314566e-01 -3.541255272607957694e-01 6.265860878612264928e-01
-1.336668081422714635e-02 -1.059622411151870391e-01 -7.962036362137094869e-01 -4.399375384617199014e-02 -3.605100031372656111e-01 9.317172786100359483e-01
-7.256170104312648084e-02 -1.712279665597569445e-01 -7.890385500592185242e-01 7.523623392922329511e-01 9.835478115588341952e-02 6.513656787385236901e-01
-1.853867946323111554e-02 1.160301981997302473e-01 -6.418930870795019894e-01 5.925074159555832054e-01 -5.876823282105040347e-01 5.509668258132418561e-01
-3.714648216797986069e-02 -1.572201268329594948e-01 -8.016582941783471083e-01 -6.244231448146516650e-01 1.973646074955784924e-01 7.557400002169376574e-01
7.547560420972912465e-02 -1.475507846336624740e-01 -7.793843920290642879e-01 -7.284386033433455365e-01 3.544761904355053783e-02 6.841934430139912093e-01
2.546741631153694174e-02 -1.048995985104390349e-01 -7.941163611167298964e-01 -1.668820939793057845e-01 -4.158565464139205581e-01 8.939875276052621222e-01
-7.776927446596619553e-02 6.699326603376792866e-02 -6.658831304591431577e-01 5.433241014657640422e-01 -7.918255081396206041e-01 2.789467429920126085e-01
4.614609252662446592e-02 1.922885964738636211e-01 -5.137869106613826009e-01 5.714859785439547757e-01 -7.232323870098473773e-01 -3.877353359028509749e-01
4.300484315177293543e-02 -1.948841593465499289e-01 -7.703641018189225642e-01 -3.142497639409561616e-01 5.411110250890093232e-01 -7.800294509761634965e-01
-2.631190402662192049e-02 -2.123100846014637499e-01 -7.798792581880962249e-01 4.146798903539676839e-01 4.414115046783442797e-01 -7.957364337980394886e-01
-6.947895396440259552e-02 -1.793314975852800808e-01 -7.763169563087898295e-01 6.469071485817412537e-01 4.811168266063829968e-01 -5.916398737999702950e-01
-4.600476746018927060e-02 -2.034432837859251886e-01 -8.070326870401587360e-01 6.666893944251423010e-01 3.742695931204222393e-01 6.445521879774442908e-01
2.447277152968376293e-02 7.648846888536900424e-02 -6.651404192822066852e-01 -9.056681384480480546e-02 -8.089499340318200282e-01 5.808594119577596970e-01
-1.237745603003764794e-02 -4.075324595764446417e-02 -7.607782870910687611e-01 -6.726247938600230514e-01 -2.946557229874938177e-01 6.787885470420660372e-01
3.722013045989883834e-02 -6.057101225839672115e-02 -7.061199939306678219e-01 1.563711216257965275e-02 5.857129820422117827e-01 -8.103676840733685660e-01
-2.509324504354224633e-02 -2.161737335746818089e-01 -7.813874280825003904e-01 4.146798903539676839e-01 4.414115046783442797e-01 -7.957364337980394886e-01
-9.383276003455051639e-02 1.840214371031185375e-02 -7.029578407635682646e-01 -7.271902600912327763e-02 -9.309140351185375695e-02 9.929984561158581302e-01
5.061285076794112131e-02 -1.571729420423567392e-01 -8.021818926696668850e-01 -3.992829658052559072e-01 -1.401323507501972543e-01 9.060552066463625209e-01
-1.126645689123268552e-03 -2.038682574859150831e-01 -8.107882615626232914e-01 8.999985221543638225e-01 -5.603603809000116259e-02 4.322760952853363925e-01
7.757145983579369353e-02 -6.460516177176879593e-02 -7.568476078216274106e-01 -4.776934912960500434e-01 -4.978728267284766584e-01 7.238311797503523826e-01
2.874754756282629775e-02 7.609096810352609930e-02 -6.648685920044790088e-01 -1.458674475847853702e-01 -8.193414348817709136e-01 5.544387259391072575e-01
7.669331410117158354e-02 -1.084478264632308814e-01 -7.778716963764193970e-01 -5.130209778701197987e-01 -2.698908205214258227e-01 8.148425745280236665e-01
-2.476059790115479192e-02 3.285137839126985038e-02 -7.051394513041929768e-01 -1.338312852473929337e-01 -6.443840165537932929e-01 7.529000108241674649e-01
-2.135848244050109548e-02 1.248459726238139306e-01 -6.274005786858602995e-01 7.966247833700896841e-01 -4.804482578747252264e-01 3.668220631664612097e-01
-8.284813004521479618e-02 -9.104604569753275978e-02 -7.223161634771912976e-01 7.976059330348812815e-02 5.068824887897752651e-01 -8.583171851443726075e-01
5.459967835214263321e-02 1.919855393957672074e-01 -5.029155002043513845e-01 6.198856040819308300e-01 -5.597133966173658548e-01 -5.499661366839152521e-01
-4.043712347041040350e-02 4.669281996142197327e-02 -6.402103777175339738e-01 1.928065501010840788e-01 3.162779122121581188e-01 -9.288670068878733810e-01
1.072165540468090483e-01 -4.123098681097437518e-02 -6.942368406437153805e-01 -2.991433963743159175e-01 5.395417262172523820e-01 -7.870247480709529064e-01
-4.289629985647455679e-02 -2.141574583774846496e-01 -7.950159229972656449e-01 7.336214977042400109e-01 6.474778437612757065e-01 -2.063296875014278553e-01
7.526783571203871960e-03 -1.293350390530006166e-01 -7.403352133586500461e-01 -5.800925432157698625e-01 3.698147099121200099e-01 -7.257614770970383100e-01
8.272253715322124001e-02 -8.076857607302943831e-02 -7.089972418783149211e-01 2.860656586675160984e-01 6.720902705211576622e-01 -6.829795803696605550e-01
-4.503683857691257592e-02 -1.306205043832821266e-01 -7.979093751134506141e-01 2.855987445768313759e-01 -2.912694876918180409e-01 9.130144810658173959e-01
4.209883431722689223e-02 -2.016969619900925992e-01 -7.927255799688518456e-01 -8.244480658625344960e-01 5.275450089706533729e-01 2.048942415141997153e-01
2.401547131544984337e-02 1.615245879182975464e-01 -5.285104184466221655e-01 5.413388750347803979e-01 3.841282771245242977e-01 -7.479289331811032060e-01
1.026161665816752583e-01 -9.576691038860843386e-03 -6.717246987065471631e-01 -5.473491150878100342e-01 2.628449737073301762e-01 -7.945574025892556680e-01
7.971412852654996550e-02 5.148586253639022420e-02 -6.636692307765208465e-01 -6.933431984838074325e-01 -7.113321731723503127e-01 1.152464686059623128e-01
7.175058453139281089e-02 -1.331383347263328520e-01 -7.426801367230381201e-01 -2.166431382060900745e-01 3.646071131796415621e-01 -9.056088579994263643e-01
-3.548149194254617000e-02 -1.621400697701476101e-01 -8.003259680509793306e-01 -9.755543646644976308e-02 -3.670862742095967191e-01 9.250570815375435130e-01
-7.898428267928229995e-02 -4.199822414845737900e-02 -7.381394506456362414e-01 3.151840036940153356e-01 -4.298897713967804735e-01 8.460814548634397747e-01
-7.406870306102124844e-03 1.556549868770757405e-01 -5.975978352431201568e-01 6.213877080956057286e-01 -7.293551366109629619e-01 2.862139076405860738e-01
-8.999672220549984059e-02 2.644644668096563303e-02 -6.558010852210756081e-01 2.168352055797365396e-01 3.506997616911799454e-01 -9.110390610566284630e-01
4.627142928206220973e-02 -3.963570980244587871e-02 -7.550155486138729888e-01 -2.892695645699329132e-01 -5.662460957363046887e-01 7.718085760581526733e-01
-7.716366468999803947e-03 -1.195783692173349455e-01 -7.910731585969258406e-01 -7.059088726140553272e-01 2.497329225110176687e-01 6.628168155522757843e-01
-5.954955620905567036e-03 1.360064362789102366e-01 -5.650930257639051879e-01 5.996399209597661484e-01 3.867959359612650472e-01 -7.005860897243211260e-01
5.221858313697204379e-02 1.896976116863413608e-02 -7.108630329555022387e-01 -1.754011210423445932e-01 -7.164423802623683946e-01 6.752368195685725105e-01
-1.126490216881777945e-02 5.003841314028570353e-02 -6.993420713528394339e-01 5.580054094685171773e-01 -4.087555868074004284e-01 7.221833792449188216e-01
2.371186148042205358e-02 1.407712030783715429e-01 -5.556116660524349493e-01 -2.934743017065550852e-01 9.143801888658799060e-01 -2.788937153244006040e-01
5.585580444919829857e-02 -1.445034770160742166e-01 -7.971169843518084441e-01 -4.407805041722493433e-01 -2.003985471333765422e-01 8.749588387167076542e-01
8.474898407163346248e-02 1.930073609584543326e-01 -5.100505450816358310e-01 -7.701305056788360082e-01 -6.050333657716903124e-01 2.020733295757767278e-01
-3.232350543056443370e-02 3.704385387765980059e-02 -6.412915623585292435e-01 2.541063149238393937e-01 2.517661799495384267e-01 -9.338328390828005698e-01
-9.353953956874193343e-02 3.727968383624283982e-02 -6.529368992584949627e-01 3.550359599282165712e-01 2.500028239409656239e-01 -9.008041158761389555e-01
6.356022645719938691e-02 1.721848681217239552e-01 -4.917246374547667442e-01 3.426766484450629036e-01 3.203864918419979113e-01 -8.831337443760352013e-01
-4.009918627409989750e-02 -1.833044914158341310e-01 -8.124514099296956671e-01 5.342205449658689043e-01 -3.717077837499633830e-01 7.592375997249219965e-01
-9.426308664733804021e-02 -1.219592215482600273e-01 -7.421862251803199584e-01 3.089288858622226686e-01 4.646548286614942680e-01 -8.298547063682192304e-01
1.607463009708057222e-02 -1.202173342608081757e-01 -8.002562673897041234e-01 2.386224607106743056e-01 -1.147915972292455900e-01 9.643040031286510549e-01
-2.990538173565925051e-02 -8.527092367734638578e-02 -7.833721262829053122e-01 3.513492052851263647e-01 -4.783560214963383794e-01 8.048162850264057866e-01
-4.987284344020606608e-02 -3.603526019418507031e-02 -7.543452815043085735e-01 3.291765005994777837e-01 -5.027345918899440713e-01 7.993126807265936717e-01
1.557241486049866161e-02 -1.066419043583254206e-01 -7.961421217072690570e-01 -6.619700297746594631e-02 -4.047066609651761016e-01 9.120474085085814586e-01
-9.800764191465323460e-02 -9.444897327943527210e-02 -7.624647079401102312e-01 5.649483638709841271e-01 -2.881633640114171779e-01 7.731721812126466364e-01
-3.527701606446628085e-02 4.205986350690224529e-02 -6.925990345096217915e-01 3.000737290613468278e-01 -9.008759235781498287e-01 3.136531961329787621e-01
-8.623170835789584210e-02 -9.968348386463415922e-02 -7.708809108548507760e-01 4.105221579805341525e-01 -2.811963682135578679e-01 8.674100300956352205e-01
4.813821170527775306e-02 1.556966881476314901e-01 -5.269512513751146709e-01 -8.660129974265495800e-02 9.642620397721544112e-01 -2.503975509810887345e-01
6.167966602122968572e-02 3.735866968121170223e-02 -6.939567186404299592e-01 2.809293747290464438e-01 1.936193296790618412e-02 9.595331166593957795e-01
1.387259027881315374e-02 1.194089521468866266e-01 -6.025912736017452476e-01 -8.972431451051550155e-01 4.149034543188246382e-01 -1.510293420369591133e-01
7.342351296767608317e-03 -4.283943259785188973e-02 -7.603517287202535835e-01 4.971837387187542645e-01 -3.171527772292059844e-01 8.076029010902839866e-01
-2.536403302892724018e-02 1.186547320768863711e-01 -6.120876765543206144e-01 9.966504727720517653e-01 -5.625256390521517214e-02 -5.935894353284545955e-02
1.125720135694681101e-01 -3.287427416186568252e-02 -7.023799607961036529e-01 -8.927067065170561921e-01 -2.557905256539814709e-01 3.710066618338955791e-01
-6.212800800475350160e-02 7.263204152553559556e-02 -6.686406669908645517e-01 2.268494581173855218e-01 -8.362302962765502112e-01 4.992576638781638376e-01
-5.613432835653233040e-03 -2.016963239242231254e-01 -7.664757190007890353e-01 8.612285538283935560e-02 4.210442029802602959e-01 -9.029422090684563473e-01
1.012927335880787066e-01 -2.532830222823871658e-02 -7.184694471645494129e-01 -7.231066369022874918e-01 -3.809952266291823375e-01 5.761592045204532164e-01
-5.161095908304284829e-02 -1.610644490549031360e-01 -8.035174464774501590e-01 3.349254211785623325e-01 -1.026634868401909012e-01 9.366350253530862924e-01
2.331311815024372097e-02 -2.204156996859060746e-01 -7.922040891141413077e-01 -7.090244966074599198e-01 6.688206001067554807e-01 -2.235246475970321389e-01
2.417922893380433647e-02 -1.680408407725733633e-01 -8.101554000616608686e-01 -5.382133864878407836e-01 -5.296421329019338486e-01 6.555955778224716868e-01
-4.254868969534632284e-02 8.526871497840193825e-02 -6.503597216231261635e-01 2.511849590109896391e-01 -9.325893037098738070e-01 2.591974285608942274e-01
3.292212266878978555e-02 -3.359903879553267220e-02 -6.821818567301509706e-01 5.822440302939009549e-02 6.069343771404858146e-01 -7.926162884630630900e-01
8.366472159510236761e-02 -1.165072317215202907e-01 -7.360560882419640016e-01 -8.796212287437943367e-02 5.009236314955642921e-01 -8.610099769159057503e-01
8.436039432632246038e-02 -1.253297865138198741e-01 -7.412497879671823275e-01 -1.597140744086038289e-01 4.819396178949200138e-01 -8.615251703456503485e-01
-8.120561914384032132e-02 -1.090365643963587539e-01 -7.762917005674960791e-01 4.105221579805341525e-01 -2.811963682135578679e-01 8.674100300956352205e-01
5.363912791405588826e-02 -1.914442329721531832e-01 -7.875832448686806986e-01 -7.313814267235420052e-01 6.124227205674614982e-01 3.000326981790235048e-01
-3.224830808275157973e-02 1.097803962034296296e-02 -7.226553602136441823e-01 -1.009257936432457065e-01 -5.654161211027978196e-01 8.186077169038583623e-01
4.319898465568447476e-02 4.781732945363936088e-02 -6.400259854265163417e-01 -4.701327666078666812e-02 3.481433760883717587e-01 -9.362616843080822093e-01
1.376728858597550502e-02 -3.298768790174385485e-02 -7.568960429247402200e-01 7.510334001012885542e-03 -5.655910012640870121e-01 8.246516926389471092e-01
-1.627203892131176902e-02 -1.814621434699641711e-01 -7.616459946759408517e-01 2.759277354217481437e-01 2.887771196229990678e-01 -9.167724145104226841e-01
4.571606359386303636e-02 -5.822541602467891375e-02 -7.669809082492718977e-01 -2.773952041528482959e-01 -4.827999374550334122e-01 8.306359738817093996e-01
2.087284310360638939e-02 1.400775052082225414e-01 -5.554555717081471888e-01 -1.666872240510752501e-01 9.143909413601861713e-01 -3.689235363819708957e-01
-7.139923475464395562e-03 1.349931673065203619e-01 -5.665897267292562267e-01 5.493867957563571824e-01 4.195018871537713467e-01 -7.226287534571174120e-01
-4.109765457042120762e-02 -1.162641123083656414e-01 -7.941535428754800119e-01 2.872146674360225860e-01 -3.315186421779229842e-01 8.986674160656553667e-01
4.097899935501673335e-02 -6.379253182499330932e-02 -7.717948325722593372e-01 -2.605381158289025167e-01 -4.709068620357287904e-01 8.428324966966975751e-01
-3.477160478987750825e-02 6.783225875146034478e-02 -6.775230968577956592e-01 -1.407122671925156027e-02 -6.868333476552664907e-01 7.266787138256323164e-01
-4.422343454415209735e-02 -1.780759182830874698e-01 -7.634147152725592189e-01 4.001932929569595454e-01 4.443148625495495219e-02 -9.153530309675284027e-01
6.449427674874803895e-02 -1.701406762867701816e-01 -7.900357523584073949e-01 -8.088334310590036269e-01 3.399291875558735909e-01 4.798297909143655615e-01
8.582717428579925145e-02 -3.979318852651621101e-03 -7.167498311417233037e-01 -5.078601355034323417e-01 -5.842903230725580155e-01 6.329951825489680273e-01
9.009380503328871803e-02 -1.236327037009353896e-01 -7.415182844422224528e-01 -2.041313176686079534e-01 5.328044328218032311e-01 -8.212489522138305409e-01
4.857216442316886207e-02 -1.245504419050821876e-01 -7.389598516176170140e-01 4.065270612178483178e-01 6.009213174209262487e-01 -6.882073225174797360e-01
5.906696702082483291e-02 6.306908658771057108e-02 -6.408047768786490073e-01 -4.545132155683698771e-01 -4.395225012434121892e-01 -7.747500937556802691e-01
-3.828638444133604379e-02 -2.047294582437811372e-01 -7.807418015850294823e-01 3.260996866786760595e-01 5.515668247561841264e-01 -7.677454214623818940e-01
4.932144837429414813e-02 -1.021993861607448928e-01 -7.281991350831361620e-01 -8.007472417422690017e-03 3.314368570764144595e-01 -9.434434218101225289e-01
-6.539251939471248110e-02 -8.661774858468806147e-04 -7.326683837843450675e-01 9.484762830470727657e-02 -5.501871857020681489e-01 8.296372629614763294e-01
-1.850972090341991214e-02 2.849582927804406376e-02 -6.406053407413844214e-01 2.961930802494682768e-01 4.795339028088304034e-01 -8.260247546346679570e-01
3.765405841695342731e-02 -1.588499493455095279e-01 -8.051364709638038075e-01 2.236442508071057877e-01 3.797428902388390315e-02 9.739307996228783182e-01
-1.603042468223274397e-02 9.604982856704716299e-02 -6.623460587038818570e-01 5.645707947836482443e-01 -5.307063921586023802e-01 6.321475642596114941e-01
1.309181278198306118e-02 -1.123134268976176409e-01 -7.980175329524724637e-01 2.168336770159064453e-01 -2.589213101833191533e-01 9.412454045809282022e-01
9.918152551083751073e-03 9.429130036605105902e-02 -6.512414880332451084e-01 -9.319034080399614117e-01 -2.736589567578834314e-01 2.380479226325918907e-01
7.281018953541007477e-02 -6.069631647297607513e-02 -6.962386833389709873e-01 1.371714898456756482e-01 5.110166100037795145e-01 -8.485552466833040652e-01
-5.549187088233735465e-02 6.299416775119626166e-02 -6.380462872658833051e-01 1.681478659812829513e-01 1.807458573902104848e-01 -9.690496531149568327e-01
8.725509960910560192e-02 -3.681309559388737385e-02 -6.864386368992292375e-01 -1.466278702874856121e-01 5.680819823738958441e-01 -8.098043769683522797e-01
-1.201506531758672006e-03 5.067527965996708461e-02 -6.287284640776062972e-01 -3.578600902190800515e-01 3.561620304326776898e-01 -8.631829260976286999e-01
3.134415286940538808e-02 1.446399875223848552e-01 -5.543254947547806566e-01 -4.722816685642360901e-01 8.764834304760816819e-01 -9.341745896277155181e-02
1.128681287429263713e-01 -3.078471858872182734e-02 -7.000807780876903141e-01 -9.154274339499454127e-01 -2.324255916587531501e-01 3.285893447966578562e-01
8.288923930421270014e-02 1.701320980083669554e-01 -5.157750843353383630e-01 -6.726968812812806897e-01 6.886316255680543508e-01 2.706758027270586009e-01
-1.133530627027050514e-01 -6.740493430987737344e-02 -7.187150588160241549e-01 6.269641342548085694e-01 4.049516703121561756e-01 -6.655299535479326511e-01
5.437995336426032153e-03 -6.900306617151436006e-02 -7.036969085417639214e-01 -3.576386430034677044e-01 5.139704761509105158e-01 -7.796979868358291377e-01
3.421647226558560684e-02 -7.962722365688299289e-03 -6.694574526826886363e-01 -1.336382502394318963e-03 5.218825838096009528e-01 -8.530162851892232334e-01
-2.790885429271712861e-02 -7.289107730550606346e-02 -7.742511958610609479e-01 5.500093037060782564e-01 -6.966513681099579802e-01 4.606154981622728739e-01
6.856156166198654200e-02 -3.852957513237093620e-03 -6.610460940234990090e-01 2.288913805532056533e-01 6.473501502521396000e-01 -7.270120486463617082e-01
-3.838527242641899735e-04 -2.951701018327478401e-02 -7.481904512091033244e-01 -3.716834649346538733e-01 -2.986362735757021603e-01 8.790152319493607092e-01
-6.465934356915208070e-02 -1.909462987616536433e-01 -7.849823259429941080e-01 8.402880227044819961e-01 5.307954992902628177e-01 1.103275887191993293e-01
-1.076713150779135958e-01 -1.534785964501056595e-02 -7.221311656611105745e-01 6.373103436935223520e-01 -3.467140521381192886e-01 6.882041062586085056e-01
-5.849496243477426277e-02 -7.713879135288113920e-02 -7.134402556341963297e-01 5.129564452830564364e-02 4.460594042769423506e-01 -8.935321844838746141e-01
1.331904324867116095e-02 1.108416414797051136e-01 -6.230698853129857939e-01 -9.935495488588613755e-01 -1.094432992025562261e-02 1.128694626768021875e-01
7.787212515747344958e-03 -3.061341274470170265e-02 -6.788450895822755182e-01 -3.052750851846205427e-01 5.613895042662729873e-01 -7.691871988438128138e-01
-6.666543486484211023e-03 -6.766049233280749253e-02 -7.690264832094405589e-01 -8.726360653229867648e-01 -4.220122934322059205e-01 2.457883676859137778e-01
5.703173258770896648e-02 1.587732249437797671e-01 -5.176259273165199071e-01 -1.347885380158967694e-01 9.725413396765791862e-01 -1.897245177609416800e-01
7.149477096608707061e-02 -7.321561113246111141e-02 -7.072134241779547414e-01 2.973538810212413841e-01 6.082349963901521051e-01 -7.359557450063674011e-01
-9.466016538297973570e-02 5.197791197980231731e-02 -6.621171035838938623e-01 8.182276502826096864e-01 -5.655376901168003290e-01 -1.032987578354810504e-01
7.250060022214459277e-02 -1.449535125494210153e-01 -7.480273083314337157e-01 -2.112065082234175495e-01 4.966578438878651580e-01 -8.418567556233832461e-01
1.552209194261946687e-02 1.606571884436897579e-01 -5.353550720849449274e-01 6.316941905392952084e-01 2.490600079876209016e-01 -7.341195829428003305e-01
-1.345579822426114930e-02 9.109062249094558583e-02 -6.685022623764649286e-01 4.500451426958269052e-01 -5.928408920001484450e-01 6.678316002618932545e-01
6.692115488794105060e-02 1.689791916693707541e-01 -4.929142159585787053e-01 7.200714522326638958e-03 6.654497978071961528e-01 -7.464078752992424626e-01
-1.744237079024208228e-02 1.438816377359856680e-01 -5.947390056643324652e-01 8.687048864697529682e-01 -4.929906125515762794e-01 4.808405306955123443e-02
-2.675647860159777874e-02 -9.738350991013861035e-03 -6.682053135747599848e-01 1.082998537538166078e-01 5.104075597614519122e-01 -8.530857311051814884e-01
6.151138279942135190e-02 -8.311443412685938503e-02 -7.746415004750468736e-01 -2.865331579746314694e-01 -4.012387295886259975e-01 8.700035811760722382e-01
4.283906486002336811e-02 -1.544660901552058763e-01 -8.046142196588119688e-01 -2.238684610272873854e-01 -1.491646089247163354e-01 9.631369744753914830e-01
-6.539622398388855729e-02 -1.495341305376803875e-01 -7.545898890356129707e-01 -6.741820469167017493e-02 6.350746746294667622e-01 -7.695030495848791396e-01
-4.461441801976404053e-02 -1.452184331376569215e-01 -7.531790435791331229e-01 -2.384488128857690722e-02 5.308698115815148055e-01 -8.471178576725558740e-01
-2.263412858048949317e-02 6.388471570602306804e-02 -6.823342532554496076e-01 4.424562509491024032e-01 -5.621700634680352193e-01 6.987111604493020378e-01
-8.679757350086292345e-02 -1.125958577742585676e-01 -7.745728253590570267e-01 4.690077794812449463e-01 -2.414730423268401649e-01 8.495425078331819702e-01
5.275214227661950001e-02 2.175165306668314438e-02 -7.076037059477990887e-01 -2.017382485576766638e-01 -7.423930969076766306e-01 6.388694457654945369e-01
-3.250834304648517192e-02 -1.565176540456491086e-02 -7.421260034207350920e-01 1.698962706054480409e-01 -8.302678983504173660e-01 5.308394052848197653e-01
8.338444361418269335e-02 1.747059680674861726e-01 -5.208643114566473553e-01 -8.013838129032906377e-01 3.248420848233961045e-01 5.022565124955306048e-01
1.025965311169918376e-01 1.484230512665912424e-02 -6.793442002509053612e-01 -9.014367970555506870e-01 -4.149918206488340533e-01 1.232618745143692351e-01
-6.918137093899204282e-02 -5.478608630270657281e-02 -7.577539392698705578e-01 3.409286258357918653e-01 -4.789674652857016657e-01 8.089238773107818581e-01
7.729634438448150513e-02 -1.269894183830181933e-01 -7.409709121675898125e-01 -1.324141754119656789e-01 4.343420365287706253e-01 -8.909621099990781001e-01
6.780593406639930099e-02 1.613519501108859333e-01 -5.145534529220278097e-01 -2.717395898535373000e-01 9.601244430329736179e-01 -6.571643018951420223e-02
-2.218081915216321351e-02 -7.005315949893957395e-02 -7.069472489987066455e-01 7.815836331948528004e-02 4.690632378574000616e-01 -8.796993515593560797e-01
-3.306007094435406413e-02 5.377307624079551845e-02 -6.862120002298239818e-01 -1.022893278700063024e-01 -4.148172069614252527e-02 9.938894104738161817e-01
-7.728130037338569458e-02 -8.394680706370984125e-03 -6.707568710193233530e-01 7.338453297446774666e-03 6.647244222427501903e-01 -7.470526016133290925e-01
2.469646165685143030e-02 8.627518113759724550e-02 -6.413824651289777856e-01 -3.809934426511777938e-01 -9.245567060819075422e-01 -6.236497075813016155e-03
8.326265949677139067e-02 1.732863542424213643e-02 -6.547791772204901717e-01 -1.381895392165454761e-01 3.411122437243105932e-01 -9.298097054948852858e-01
-6.734101328405121822e-02 -8.662241841514603524e-02 -7.186898117453858204e-01 6.163761075322446437e-02 4.532301332943807215e-01 -8.892599458058323414e-01
-1.049287011902710204e-02 4.321674579820216494e-02 -6.305696219988179418e-01 3.409578368156026551e-01 3.661982289292631254e-01 -8.658213503044932535e-01
-2.357558035259579160e-02 4.842857564601679016e-02 -6.343713383215685564e-01 3.900084461585073825e-01 3.576994317585021066e-01 -8.484954498668049183e-01
-9.675007512421254785e-02 -4.568663306832727172e-02 -7.438875850397351774e-01 2.792988129748232851e-01 -1.531805885590501737e-01 9.479071053429010130e-01
-1.173298214668210826e-01 -6.162418814826699232e-02 -7.232590973860082428e-01 9.939134299960422636e-01 8.804886125858032986e-02 6.620794291147860666e-02
8.593965480225385090e-02 -1.264476465337435185e-01 -7.422084704867603078e-01 -2.032527838664812403e-01 5.024761120599595676e-01 -8.403606741510651901e-01
6.546792315978243459e-02 1.614335797951982898e-01 -5.289255726531690849e-01 -5.032001200407100194e-01 8.332792881890911385e-01 2.289874823349445643e-01
9.339635497036102851e-02 2.745837636223025929e-02 -6.871796911803957908e-01 -7.388769339056779906e-01 -5.583396749433923167e-01 3.772501609360181529e-01
1.065852685512317932e-01 -2.888361188292544804e-02 -7.122047675774950681e-01 -8.578700107026973054e-01 -2.958081752439615242e-01 4.201863493686963102e-01
4.762770993594096086e-02 1.784703242944059576e-01 -5.596753103291315368e-01 -6.299463524291236682e-01 -3.269367728907668358e-01 7.044713901877163176e-01
8.736273784376993867e-02 -1.249590931195225518e-01 -7.416790144918671279e-01 -2.192347797397111164e-01 5.030067179635467900e-01 -8.360145650860525413e-01
-6.413187638896755693e-02 -1.266601428156537146e-02 -6.736416659285584529e-01 5.893077427979215993e-02 6.033155609014592136e-01 -7.953222603554751524e-01
4.381436050936036997e-02 -8.958818839183980975e-02 -7.232707873742717508e-01 1.034515774013056305e-01 4.378468603053663477e-01 -8.930777670807367175e-01
8.030744922158406310e-03 -2.131893343683126107e-01 -8.175890984689995200e-01 -2.646935331420930959e-01 2.827893422933060452e-01 9.219368315660650959e-01
1.327163486994787159e-02 1.082661043265688988e-01 -6.230015346512463026e-01 -9.982815845382766451e-01 1.680190385711572906e-02 5.613888134371942951e-02
-6.629639864107374214e-02 7.349639356764241238e-02 -6.640980125960092018e-01 3.330674825735789324e-01 -8.624048860152364604e-01 3.812136731927984745e-01
-6.265123647292990261e-02 -1.246686661236819371e-01 -7.333124462877100846e-01 -1.421496574650329969e-01 6.117090439456935869e-01 -7.782066052390068656e-01
-4.210626624431607068e-02 -1.821342038363706617e-01 -7.639082099181039309e-01 8.146366966238742166e-03 3.987122145605804802e-01 -9.170399155246455880e-01
-1.068721474684951461e-01 -9.614848692984324929e-03 -7.197998589028834493e-01 6.682910706137927814e-01 -3.756020428168995173e-01 6.421138141868955040e-01
5.410417339203042221e-03 6.219453007698749064e-02 -6.890338890159498630e-01 -6.343360643626181350e-01 -4.451527746859941792e-01 6.320259208595047085e-01
4.752658215881718634e-02 -1.391322477805971049e-02 -7.322527062911904361e-01 4.648480543468497261e-01 3.715290771902274858e-01 8.036681100878187989e-01
1.046400560389667000e-01 8.884267150229632065e-03 -6.735397866307195613e-01 -9.582905608439198364e-01 -2.110745123810973123e-01 -1.926830330374930123e-01
-7.427982534422565564e-02 -1.758504455740698413e-01 -7.824884896753233621e-01 8.682500890583446651e-01 4.911276786643841152e-01 7.025230316445213452e-02
7.887319849785001669e-02 -1.070974931128803598e-01 -7.300458378541511140e-01 -7.349117181354532582e-03 5.390729215321163892e-01 -8.422270333748991256e-01
-2.504459878495389827e-02 -1.834314038153568305e-01 -7.645466637722966308e-01 1.754651811472907885e-01 3.773974341730904625e-01 -9.092761664557784673e-01
-5.739361215037526442e-02 -8.841090572138121662e-02 -7.718235660045162927e-01 -5.322685231233497127e-01 2.145508812567763213e-01 8.189372006717177133e-01
2.727787460387110299e-02 2.218117815609731494e-02 -6.471195479699080044e-01 7.964997585382143502e-03 5.546746004295318722e-01 -8.320292341329145192e-01
-5.521744302746588173e-02 -1.209567929437845302e-01 -7.907593527227616548e-01 3.435369523661609970e-01 -3.295582233535752081e-01 8.794167042869979189e-01
-4.228816360579875505e-02 -1.723944278483154902e-01 -8.039045878482984353e-01 4.408629101372688042e-01 -2.892646950920879645e-01 8.496857246291596999e-01
3.180300752643214299e-03 -3.989445508766005510e-02 -7.540940728674275784e-01 8.515241519539527015e-01 -2.036027524198295302e-01 4.831692641778569941e-01
2.531498983195294011e-02 2.098030241346146921e-02 -6.479871342918772648e-01 5.104371359534995434e-02 6.442396358465615203e-01 -7.631184907382900784e-01
-7.860865766118055320e-02 2.967040559270806011e-02 -6.521993234881311441e-01 1.779631500703751090e-01 3.060645154994961481e-01 -9.352291855845218382e-01
-2.144111566499685984e-02 -8.866141828071225431e-03 -7.265274544187558803e-01 3.085590847314455543e-01 -8.465398623671011036e-01 4.337759244738947917e-01
-8.831382587337313628e-02 4.871159196033887639e-02 -6.863014126919629865e-01 4.419628015527836129e-01 -7.106120463787708452e-01 5.474480811775584987e-01
-2.143236587464066728e-02 5.554040431144786211e-03 -7.234211222103320571e-01 -3.667010162651763161e-01 -2.987912249411777688e-01 8.810528750127527564e-01
-9.373844597917695143e-02 8.114674879755855511e-03 -6.635705274170471402e-01 3.733574302352958285e-01 2.531096475056969219e-01 -8.924907482028247019e-01
-1.136703941901241605e-01 -2.444591903389966084e-02 -7.201798214663446274e-01 7.816072313198147992e-01 -3.196278320527348171e-01 5.356567790347119828e-01
6.564280478054218548e-02 -1.083716733142266603e-01 -7.305710326343585193e-01 3.331768478393058036e-02 4.704633086748638005e-01 -8.817903419018258138e-01
-3.752755284270646585e-02 -8.579642362909520314e-02 -7.158785258716595656e-01 2.611758493364144118e-01 1.972913229280321978e-01 -9.449144456619918975e-01
-5.182733066396835730e-02 -1.169995186152860689e-01 -7.904809510856904975e-01 3.488388508926706377e-01 -3.673119537454002659e-01 8.622026355466666514e-01
-9.402313087100454270e-03 -3.900393713882662622e-02 -6.850298478419252213e-01 1.616704947332262832e-01 6.008351144743587779e-01 -7.828536366060376839e-01
-5.572045445164939409e-02 4.476702232591035086e-02 -6.434445272886353262e-01 1.255653231230123290e-01 3.354534720013112592e-01 -9.336510685214680638e-01
-6.179432474121528823e-02 6.198278646717558793e-02 -6.821538919966770864e-01 1.040743582536507589e-01 -7.137713863488667210e-01 6.926030147087922639e-01
8.500305229377267497e-04 -7.597945517695429973e-02 -7.724819914757110606e-01 4.564424380269893056e-01 -5.181531097724261237e-01 7.233102070350883039e-01
-1.695691003068557773e-02 -5.589005919595723543e-02 -6.981194157563090918e-01 1.243390009896387094e-01 5.363448502018108854e-01 -8.347898025820007506e-01
7.070823847825546959e-02 5.528844729484735931e-02 -6.446941353399368024e-01 -6.153772551334717456e-01 -4.084411709143833114e-01 -6.741562458113710132e-01
3.314375590681127581e-02 1.803084565706218056e-01 -5.676844408259762442e-01 -2.635981879150848806e-01 -7.460132561938264129e-01 6.115392194381059632e-01
-1.615220356716655370e-02 -1.037628536144986624e-01 -7.261511480348932235e-01 1.941161367281067987e-02 5.777568736965994489e-01 -8.159780537189400551e-01
-1.266616229525155922e-02 -2.052722939711451866e-01 -8.184259808622481591e-01 -4.355518255973395703e-01 1.042993257259150486e-01 8.941008096808460426e-01
1.443039280109616705e-02 1.409701138545310928e-01 -5.523585006956612808e-01 -5.097024601604659838e-02 8.409206471573880126e-01 -5.387527254738145865e-01
-3.172538736123916431e-02 -1.247112883494521790e-01 -7.407442401245301067e-01 -8.811151553211145349e-02 5.650442006514021509e-01 -8.203422530510376953e-01
-5.114534788007628341e-03 7.641615484944554171e-02 -6.835137582002742684e-01 -9.624637846697803312e-02 -6.428076328996893407e-01 7.599572236105724965e-01
2.522314691596626757e-04 -1.590941703168625987e-01 -7.961549999279257106e-01 4.890498003260971283e-01 -3.461228524609365476e-01 8.006430314474168863e-01
7.414206335463346953e-02 5.474261290963392673e-02 -6.690255173582183579e-01 -5.937768523764915818e-01 -7.476838352872663407e-01 2.973178972614838322e-01
1.497912981814564400e-02 4.808541290941237278e-02 -6.356606131563596884e-01 -2.240593291480969529e-01 2.901120852739167422e-01 -9.303936774289280898e-01
1.101532394345326737e-02 2.104763016907169534e-02 -6.470612096290573323e-01 -1.164505285804749712e-01 6.064809286672833144e-01 -7.865240985222242687e-01
6.537142106897310401e-02 -4.862382854344853705e-02 -7.527289152499411218e-01 -4.600928549069288054e-01 -5.898548229342416294e-01 6.636157417698937966e-01
-1.082253401853509600e-01 -1.080314574223738416e-01 -7.546488765101367902e-01 9.100036789864321962e-01 2.876070304521211388e-02 4.136014098035741271e-01
3.136167614407450732e-02 -1.777022566801880754e-01 -8.114771080320456464e-01 -6.442407898931773458e-01 -4.503679184105762179e-01 6.181606123851143275e-01
-2.830400438117969958e-02 -1.126652940989534245e-02 -7.300091425827461844e-01 2.251573587961304967e-01 -9.706961843459617212e-01 8.398262603741887822e-02
1.771160049283429516e-02 -2.200853245699880834e-01 -7.856735662854796853e-01 -4.492968967712264172e-01 5.154002330086117079e-01 -7.297224803762145662e-01
-5.188855482212488546e-02 -1.920606355835919044e-01 -8.019952157348697597e-01 8.740432199298860949e-01 -6.245155643761478997e-02 4.818176551280749509e-01
1.079006011752631396e-02 1.137448800253152148e-01 -6.013580051354389111e-01 -8.084266974589269239e-01 4.714970451913166327e-01 -3.523305425470663055e-01
5.830669819020224687e-02 6.981267750348861545e-02 -6.515645796064750694e-01 -5.428949854053857216e-01 -8.363510613562220586e-01 -7.603904911298435543e-02
4.671066022789632094e-02 -1.420355649637757012e-01 -8.006816320883917149e-01 -3.810690850735218294e-01 -2.321669306167367663e-01 8.949217109497525913e-01
-1.016439349276972437e-01 -7.990520470594734970e-02 -7.522634386236116688e-01 7.366181632128191437e-01 -4.174479118173310410e-01 5.321004816238400492e-01
3.585277418486770840e-02 -1.248609775877577988e-01 -7.992433586981930738e-01 -2.469551697916715916e-01 -2.991992498895051922e-01 9.216794198520027459e-01
1.110229410638212955e-01 -4.200559515502595015e-02 -7.123480489880711364e-01 -9.040366800731838293e-01 -2.326381728202181753e-01 3.586044640395964489e-01
-1.005078383871893938e-01 -6.124083055335192982e-02 -7.088893637376544321e-01 3.455702930584652610e-01 3.596141966246387267e-01 -8.667518688422322093e-01
7.446448412632566960e-02 -8.553016192934348449e-02 -7.701839417555831346e-01 -4.497815419434915141e-01 -3.800560112041631022e-01 8.082412961947169627e-01
1.091069214093641319e-02 -2.127926811078827418e-01 -7.776446618433598967e-01 -3.303296611825597973e-01 5.029638480858039662e-01 -7.986924830382063911e-01
-9.795873656561626674e-02 1.823799171014489282e-02 -7.031646954029077135e-01 -4.584909650757990757e-02 -7.038948402225554679e-02 9.964653435461362507e-01
-5.933457534228660062e-03 1.259113503947060786e-01 -5.729430743374612778e-01 2.541131058997511682e-01 6.785021865982091560e-01 -6.892469167079611214e-01
7.568003190826225191e-02 1.652075214480705767e-01 -5.030834831463104617e-01 -2.972168635709009354e-01 9.375500550232689356e-01 -1.807263963424878828e-01
-7.291778153802834679e-03 -1.449927984312705531e-01 -7.969443482526032962e-01 -6.893329233450019577e-01 -4.637933885287550684e-01 5.565211708009402125e-01
7.686582420308937791e-02 1.086614511832756369e-02 -7.084989777831085522e-01 -4.038410818836887239e-01 -6.894308429132151028e-01 6.013297709435194704e-01
2.683359331247777563e-02 -3.261079143260476134e-04 -7.266038824873112256e-01 2.045027733654397883e-01 -1.053044742026911368e-01 9.731852770149878040e-01
5.448686570482113439e-02 1.898740212459749943e-01 -5.446566335288002270e-01 -3.023540986238752448e-01 -7.859438379965725252e-01 5.393276208025707952e-01
1.182924010944809944e-02 -1.086921050832900630e-02 -7.301471108624403294e-01 -2.503395578790110210e-01 -8.275991948285790212e-01 5.024038997460400502e-01
2.378743040461170355e-02 9.671912411740727841e-03 -6.574344844330080040e-01 -4.991278770704714318e-02 5.841071158451988099e-01 -8.101404759930926902e-01
1.083756486987876716e-01 -8.143124421463200646e-02 -7.300303158454142238e-01 -9.367085440436163646e-01 -1.416206085040820975e-02 3.498235834648062426e-01
-9.350205826718790969e-03 -1.604396524312572958e-01 -8.079006225935434493e-01 -6.585249900068841367e-01 -3.095418028465202198e-01 6.859509529310090503e-01
-5.775177867116088395e-03 -1.734548491812202831e-01 -7.561361926212540885e-01 1.108162165361357004e-01 3.396667999801578075e-01 -9.339947704049824662e-01
5.671392273591742417e-02 -7.432661263998749379e-02 -7.122107249439738608e-01 1.553817602728801983e-01 5.084480975881786602e-01 -8.469575199698408108e-01
-8.776831284741282158e-02 5.071383872596022663e-02 -6.839939230632218203e-01 4.810123641245254711e-01 -7.271976421927839329e-01 4.897047015790136903e-01
-1.800866740716400988e-02 -1.984585143228791704e-01 -7.685743154193516169e-01 3.627694653595933127e-01 3.872487711072577499e-01 -8.476064560151919114e-01
9.062581342694223108e-02 -3.384206744722609295e-02 -7.348744788106679193e-01 -6.245243111822770254e-01 -3.887215535367890551e-01 6.773957030851671668e-01
7.460524220097854153e-02 -8.128759985392861043e-02 -7.125456962786546056e-01 2.348281737615006415e-01 5.928727887918462391e-01 -7.702970758856725331e-01
2.515312848071636805e-03 -1.645402802501962081e-02 -7.397701426508743738e-01 -6.685035207087451914e-01 -4.259951067384387113e-01 6.096156263047385337e-01
8.937447031326582747e-02 -8.544001981229230880e-02 -7.594828805267603844e-01 -6.402629326160969025e-01 -3.506174293724141910e-01 6.834696740442224305e-01
3.839350892662816549e-03 1.600214491690914731e-01 -6.004041377666448076e-01 1.913762864349032866e-01 -8.398894724510695964e-01 5.078984062351937778e-01
-3.250216560224406664e-02 -1.492585511460670922e-01 -8.011932797417228302e-01 -5.395622857538261430e-01 3.320300192652640980e-01 7.737109318723722762e-01
-8.358655122456316866e-02 3.210300941537996833e-02 -6.521607896017450612e-01 1.863668824582891959e-01 3.654500927597229554e-01 -9.119833413087587992e-01
8.745505704824146909e-02 1.890234967505738106e-01 -5.099875490443664949e-01 -8.614546967570442249e-01 -4.565508741894748201e-01 2.223895337286705132e-01
-7.124939924445758063e-03 -1.980276774317366040e-01 -8.098875031012748860e-01 -8.743163995081590922e-01 6.909322251511121338e-02 4.804133222065835596e-01
-1.102595928490189142e-01 -4.711297666577522053e-02 -7.348991873423098564e-01 7.340510968359786892e-01 -2.751332761369281177e-01 6.208628412105670069e-01
-1.204279748844895304e-01 -2.513956112799027587e-02 -7.026636653811858535e-01 9.904495571671214638e-01 1.033263058960722652e-01 -9.128717991768879603e-02
-2.557905319335847596e-02 1.571586151244218355e-02 -6.512951698457479788e-01 1.004930502904780310e-01 6.156149240218034002e-01 -7.816133392956805537e-01
8.054576476805173912e-02 4.407890027984959908e-02 -6.808136375002494800e-01 -5.374560168493304202e-01 -7.367409930999953005e-01 4.103093211693892850e-01
-9.023208704336155295e-02 -1.345977036673819682e-01 -7.474064460707601221e-01 4.732432103835437220e-01 4.475295163183800606e-01 -7.587873192467794459e-01
-2.604363301422465971e-02 -6.913741891335427325e-02 -7.707783224264800337e-01 4.732914118118373703e-01 -6.936008790463192852e-01 5.430589839891528658e-01
-7.214468464749387334e-03 1.525676465212415789e-01 -6.052733606907172437e-01 4.763837122995094320e-01 -7.743398082067641797e-01 4.164809960635058594e-01
-7.614654898316425280e-02 2.561453983127303172e-02 -7.034364826772004919e-01 4.024627910599262171e-01 -8.491475690979116697e-01 3.420118531679296470e-01
-7.770485022189468904e-02 6.276327567379380579e-02 -6.451914331564164717e-01 5.183169339688645794e-01 -4.357044351555947603e-01 -7.358730876631242035e-01
