-3.650336570765748412e-02 -1.942635579110454647e-01 -7.262785033084018238e-01 6.033400640944784898e-01 7.291386093923361011e-01 -3.230133980996470755e-01
-5.407507743015441473e-03 -1.474841434616512917e-02 -7.326749772656513393e-01 8.688044324939143692e-01 6.119764142323133507e-04 4.951550096321310490e-01
-4.531239771792193449e-02 1.674316270770970505e-01 -6.061017706548530448e-01 7.722108079742839859e-01 8.222403878329659355e-02 6.300235515390409935e-01
1.399704802357242678e-02 3.644640887445649985e-02 -6.335721213868398261e-01 -8.582610042400831141e-01 1.333626894109619931e-01 -4.955829311768912282e-01
-2.651171797855474827e-02 -3.661641255502851022e-02 -6.013189079206071597e-01 -4.581620301480195945e-01 3.821621409664249236e-01 -8.025208110339592249e-01
-8.660062962872071626e-03 -2.080640347564030601e-01 -7.479939158826334200e-01 -4.998707327052401284e-01 8.570952720926383606e-01 -1.245670307150850004e-01
-2.538633887605426433e-03 -8.921698059948807158e-02 -7.719797628398684664e-01 8.959801601783191627e-01 -9.887636570786606516e-02 4.329468984427977118e-01
2.137350435908716775e-02 -2.003890901253203294e-01 -8.294749651527001388e-01 -7.408280310103230182e-01 5.334957881177363470e-01 4.081128183848228286e-01
3.339492019312194360e-02 -1.299923422323952527e-01 -7.253548429406502240e-01 -9.188126299476578884e-01 2.185732029328750214e-01 -3.286473885615592283e-01
-5.170123859413538331e-02 -1.741464237823139730e-03 -6.252736432144592182e-01 9.102474038754777563e-01 -3.993890831908243899e-01 1.092612647096207340e-01
1.241720956406032819e-02 -2.034974323102063942e-01 -7.662283937417231350e-01 -7.825224888701306503e-01 4.803445018636539610e-01 -3.961410278446989564e-01
-1.806890007296552830e-02 -5.290432951837137354e-02 -7.283486616815934012e-01 8.475410155811889945e-01 -2.118205005412883424e-01 4.866274781165208507e-01
8.669538838748618373e-03 -1.320223953369517034e-01 -6.851245663046452439e-01 -7.361027657566764359e-01 4.080217004627610944e-01 -5.400657461798966663e-01
1.295493789728030575e-03 -5.539848742334669424e-02 -6.325414064145308268e-01 -6.950475166668667049e-01 1.183702035460356128e-01 -7.091526242549566206e-01
-1.188306857001722623e-02 6.389394812575843047e-03 -7.136795966278517422e-01 8.178282283808866460e-01 -3.216750210083959560e-01 4.771605282529439163e-01
-2.363348221220105266e-02 1.649161057187945034e-01 -5.656563567278883875e-01 -5.431627907268685718e-01 2.543350531945706705e-01 -8.001798944526880009e-01
-8.576364671952856067e-02 1.775125642791922087e-01 -5.560375647134334631e-01 5.810396462614807467e-01 7.207189601800801926e-01 3.780966938618708917e-01
-5.975273494624698534e-02 -1.104318237826508869e-01 -6.529615026361347274e-01 9.997210134345798638e-01 -3.065193277018621928e-03 2.342007445571517993e-02
4.897397820351180597e-02 -3.514735339822702004e-02 -7.100840891407063094e-01 -8.821388831405090336e-01 -1.492139806115307388e-01 -4.467283053956592198e-01
2.466760456481070091e-02 -1.121265276970700858e-01 -7.069441498216041397e-01 -5.010816510720954575e-01 -2.866273435607536238e-02 -8.649252144654450136e-01
5.296764494445319049e-02 -6.299370587772878949e-02 -7.241720347315079298e-01 -9.075120169690094052e-01 2.233423784201566398e-01 -3.557247827442835408e-01
6.713504492134490798e-02 2.196483635231561218e-02 -7.373700389875484928e-01 -9.764823789220905548e-01 4.915166463787942752e-02 -2.099196930208791778e-01
-5.862895155156070542e-02 1.936713921743674627e-01 -5.348128476802367359e-01 -6.507979641297607643e-01 -2.563884015968643237e-01 -7.146516615884717094e-01
-4.505981992286946236e-02 1.990776762862806748e-01 -5.804741652303405663e-01 -1.442676281514420344e-01 -9.213418642896695765e-01 3.609931032233070769e-01
4.184733535948530897e-02 -3.068645593920730011e-02 -8.224505629764458092e-01 2.350409224354523818e-01 -5.341737739655507688e-01 8.120431909622125577e-01
-1.262716222280313438e-02 1.754000120227241777e-01 -5.993525777288805090e-01 -6.692659408138389443e-01 -7.194376888808250436e-01 1.857215988634176029e-01
-3.540503976695897476e-02 1.588933912897945167e-01 -6.180361294652839677e-01 7.807323769737299912e-01 -3.742458470729857073e-02 6.237438224178544210e-01
3.336966829927637268e-02 -1.122841018260004875e-01 -7.283178841961186478e-01 -9.985776736881754045e-01 -3.327124109808214658e-02 4.166118250008374324e-02
-3.171516527441491790e-02 -5.696291777654090283e-02 -6.852819034419929123e-01 8.128550976099339076e-01 -4.248238566393803400e-02 5.809146556920776749e-01
3.362096323685741933e-02 -1.848662533577852540e-01 -8.022390201253210007e-01 -9.313239121545024979e-01 3.405631427716221404e-01 -1.290446296238173529e-01
4.475928730080999673e-02 -1.034406651855936804e-01 -7.331444425503553797e-01 -8.014819983357479583e-01 3.002133947269696734e-01 -5.172025947056385631e-01
1.284310965643266876e-02 -2.132176431951911255e-01 -7.884100474357433885e-01 -7.502688504108052658e-01 6.443359686611638271e-01 -1.480804227193069922e-01
-9.432884478733260386e-03 -1.555999150470550318e-01 -6.825700768204786550e-01 -5.234777111406573313e-01 5.531523631305910182e-01 -6.480690928458026079e-01
2.760649336340993687e-02 8.339486556340984513e-02 -6.602606528289434173e-01 -7.824632067781270850e-01 -1.944705935516218842e-01 -5.915509430997215601e-01
-5.264413370848792378e-02 -2.315002092209316256e-02 -5.982958062034814395e-01 4.877085524618949841e-01 8.984451563281412034e-02 -8.683710790130151347e-01
-3.400760188145491442e-02 -1.390265643117627459e-01 -7.240211903377582470e-01 6.906295222349191354e-01 -2.350094423465115545e-01 6.839601048493612057e-01
4.569653621074965671e-02 -2.634296470579102975e-03 -7.002093975737314624e-01 -8.334603452470353835e-01 2.074607074878631607e-01 -5.121561361043407423e-01
-5.736485893126733182e-02 -9.210610344664206528e-02 -6.265076702896669181e-01 6.113294574049856767e-01 4.414766204901169333e-01 -6.567912058406013553e-01
-3.499290954330436937e-02 -1.213673887718701716e-01 -6.436152491785512852e-01 -2.684954276999829692e-01 6.679675847321555615e-01 -6.940673678046632711e-01
-2.290443788974855580e-02 -2.716817380103723339e-02 -7.018149181217755439e-01 9.810847913214326699e-01 7.197088771667919938e-02 1.797020410542239099e-01
3.899534633188887767e-02 6.062577234730012060e-02 -6.746451490996195899e-01 -8.676155891681760490e-01 6.241902302844237055e-02 -4.933021943966332534e-01
3.219346907315037004e-02 7.121734875810269150e-02 -6.458053047869626306e-01 -9.806021673362145252e-01 -1.938115742252068396e-01 -2.926539102533660258e-02
-2.628694062816327309e-02 -8.343960522188600959e-02 -7.034210086285410668e-01 8.917985290369601081e-01 -1.965975709750354405e-01 4.074859245351058479e-01
-5.217134697041668490e-02 1.595611405210012879e-01 -5.811297621464882601e-01 5.753050542380697685e-01 8.176596283715259483e-01 -2.137350461364727686e-02
-1.170493113854561770e-02 -8.799605234816246235e-02 -6.338484698618568336e-01 -5.181496997224159795e-01 4.292724708159293412e-01 -7.397607954448230938e-01
4.811761316770876706e-02 -1.238158005481633100e-01 -7.608043975932111680e-01 -9.561727585092152371e-01 2.443428390169052611e-01 -1.613388759909914483e-01
1.423900566537754896e-02 -4.330806627806792902e-02 -6.514200302391787156e-01 -9.293576352934629359e-01 1.788094705854137711e-01 -3.229884811424498792e-01
3.873768692521229601e-02 -1.388667604756409490e-01 -8.369058160225798515e-01 -8.050612523214560889e-01 1.354714234632626579e-01 5.775152581840987676e-01
2.356778037091965261e-02 8.997791728997618643e-02 -6.516661252585335129e-01 -8.050098705321945269e-01 -4.410766055126552621e-01 3.967499671268707728e-01
-2.298280287446650277e-02 -3.325983163489193428e-02 -7.000753992329907804e-01 9.455804879703311183e-01 1.994019344087502935e-02 3.247767378605357358e-01
-6.508497924179475203e-02 2.089876773151330969e-01 -5.528315345078618215e-01 -2.029283341060929002e-01 -9.731000464572105990e-01 1.090705771594729367e-01
5.083928672504494511e-02 -8.672279843516146614e-02 -7.824767761769578778e-01 -5.156600175094595562e-01 7.698849475478546367e-01 -3.759945662923616649e-01
3.641549255257123946e-02 3.103915652233974268e-02 -6.780379448116028440e-01 -7.671768023609470966e-01 1.124374146423816681e-02 -6.413371439400012974e-01
5.019663289141219897e-02 -5.510804185376489556e-02 -7.135755880308892740e-01 -8.454973435347356014e-01 2.053852389937944611e-01 -4.929007462757258318e-01
-2.249001743212635310e-02 -1.096958745706086980e-01 -6.445553841934730244e-01 -7.608898529667543764e-01 5.982069333643543763e-01 2.513863491262915972e-01
3.190086410159496955e-02 -1.622668801889096679e-01 -8.016053496676754930e-01 -9.417468963392285897e-01 -1.638563100856054167e-01 -2.937071549699803996e-01
-1.560886445096974252e-02 1.721785428860589662e-01 -5.741536728504361697e-01 -8.027267676529276086e-01 -2.815368225913125744e-01 -5.257059577545900586e-01
3.134416840486078937e-02 5.782047613467543312e-02 -6.400455316364468406e-01 -8.587359441053126208e-01 5.470450348079800018e-02 -5.094899367018714820e-01
5.566498680821164655e-03 7.396075306256975901e-02 -7.042310918832858091e-01 7.821183292367207551e-01 -4.745499499739972982e-01 4.038480705062699738e-01
4.605524846866782679e-02 -1.089203191973167478e-01 -7.392772388429336150e-01 -9.095421050985700306e-01 2.152121783215691087e-01 -3.555515115351742250e-01
-2.707954505059551389e-02 1.359597515108059707e-01 -6.260873220116303095e-01 9.131092865077335974e-01 1.489291316437369173e-01 3.795412291717200071e-01
1.789288753089663189e-02 8.413162937443043055e-02 -7.191186666911282277e-01 8.206523134910007622e-01 -4.015434568471804022e-01 4.065619665255032489e-01
5.498474914650268441e-03 2.335716876031184927e-02 -7.346820387580362821e-01 8.581318370261710182e-01 -1.739216181507675096e-01 4.830745501699585387e-01
2.156490355550878812e-02 -1.671470673842636312e-01 -7.391034458712084643e-01 -8.691769908990554239e-01 4.690118801573802676e-01 1.567137988911717350e-01
3.395086802064809645e-02 -6.603238444616578440e-02 -6.887213649495195211e-01 -8.978109819854855900e-01 8.671001499677674640e-02 -4.317601347108331322e-01
3.436898261464465393e-02 -1.842102708634543173e-01 -8.125656257888577150e-01 -9.521944530900108283e-01 3.052377248563322709e-01 -1.247617045191193666e-02
4.019993961452694026e-02 -7.036932741399712365e-02 -7.162726391756251143e-01 -2.415219764878586556e-02 6.205697204329362338e-01 -7.837792376878334188e-01
-2.078008196392404708e-02 -1.234466958383324958e-01 -7.373059448091389134e-01 9.268306613969070629e-01 -1.434140554019743552e-01 3.470120081607134255e-01
-3.104765054463905910e-02 1.917528301848686334e-01 -5.861671762606435188e-01 -5.034201078898403736e-01 -8.360412824447772673e-01 2.181815047621444847e-01
1.514767684334832575e-02 2.430259907053874263e-02 -6.442853445900942333e-01 -5.528762069806146817e-01 4.391460127057029150e-01 -7.081515934313861171e-01
-1.301610342970534531e-02 1.531450642837994813e-01 -5.766544221403935300e-01 -4.726741135099551960e-01 3.437464798678904199e-01 -8.114293191621880785e-01
1.754145939001864815e-02 3.098882793974749514e-02 -7.537259333655880189e-01 8.606580365262053167e-01 -1.222994657241815580e-01 4.942778417514149814e-01
1.084906978469236949e-02 1.113708521949194896e-01 -6.497786755881714837e-01 -5.341968016243202610e-01 -4.532703351704344130e-01 7.135683431801251864e-01
-2.688516310208783483e-02 -1.571745426931896727e-01 -7.428634376060625488e-01 8.899533988111193450e-01 -2.781087569361603284e-01 3.614394378868477919e-01
3.739155306819259839e-02 -5.399482078243500460e-02 -8.282709780612355077e-01 6.940050689249158689e-01 -2.699413446321554666e-01 6.674493499620076653e-01
-1.115562396457381485e-02 1.182669514478684458e-01 -6.045336620115950854e-01 4.685914303175467421e-01 6.007190371354967917e-01 -6.477335176258500749e-01
2.900377524002919691e-02 1.099144450442570906e-02 -6.571187567638840932e-01 -2.971717121472101097e-01 4.421225639651036321e-01 -8.462958182174945554e-01
3.258569386624611541e-02 -4.134107377777652276e-02 -8.172524654951758283e-01 8.471041691990556233e-01 -1.515766423822469400e-01 5.093515956681613499e-01
-5.802677973072153939e-02 -6.848891790471901830e-02 -6.349797384711324266e-01 9.490261197587734898e-01 -5.056743619477805513e-02 3.111147029831499156e-01
-6.675637790244026357e-04 9.281267965204513526e-02 -6.731985435171982113e-01 6.689091627169769794e-01 -5.334913230099573855e-01 5.176364943726033951e-01
5.696900542584783234e-02 7.474008992654032624e-02 -7.434158371934624920e-01 -7.494792793240191431e-01 -6.052228450960660533e-01 2.683022877982449983e-01
-4.597443008276769910e-02 -1.659151249568292241e-01 -7.193997258081966661e-01 7.429998398968850060e-01 -1.019193125918837206e-01 6.614859723637389610e-01
6.025580516949155530e-02 -6.252440731214135849e-02 -7.706064161735426410e-01 -9.765345125867757048e-01 1.684884773353774179e-01 -1.341341818184852153e-01
1.500136678041254397e-02 -3.242039236883431652e-02 -6.492443082032345325e-01 -8.900290365969335538e-01 1.223537592742667546e-01 -4.391786329112435383e-01
-9.483198456692246148e-02 2.034586199351116620e-01 -5.165617520631046178e-01 -1.195187949636889423e-02 -2.263229715158117383e-01 -9.739789859851994969e-01
3.560937897425361237e-02 -2.368328109744706131e-02 -6.925598788334673683e-01 -8.355810497241078494e-01 -3.234976737384151479e-01 4.440197793204625487e-01
-5.106517750895458313e-03 -9.080797549036188909e-02 -6.550533160406101230e-01 -3.006815498874961801e-01 4.270515281131157317e-03 -9.537150351423042682e-01
-1.437841684728436917e-02 1.012626049891820618e-01 -6.553296759043549802e-01 5.044545006399439036e-01 -4.078164127503446368e-01 7.610594131048806776e-01
-1.773712468111818610e-02 -2.939848298714125077e-02 -6.064262614351125791e-01 -8.652387875103259018e-01 4.966278448943198254e-01 -6.872135230978039522e-02
-1.078838432039475881e-01 1.873183423938979131e-01 -5.334960208346294364e-01 7.894495049283865029e-01 6.136995997006460257e-01 -1.192813881511427254e-02
4.078619538535225436e-02 -9.885346271902519313e-03 -6.974446224774306646e-01 -7.301785787121343185e-01 5.098813627995213427e-01 -4.548189079838594329e-01
-4.810028864102355167e-02 -1.165122165370783003e-01 -6.829292283485460802e-01 8.490555313864229792e-01 -1.887120787785467324e-01 4.934495475174730528e-01
-2.223052081931253809e-02 -2.061290692483333520e-01 -8.292361461345389984e-01 8.123327291219702984e-01 -2.170841367657547205e-01 5.412855205544657711e-01
3.812173084199570183e-02 -6.544154227703515708e-03 -6.777770591161875746e-01 -9.708841074458127718e-01 -1.743815690009398178e-01 1.642410372042202582e-01
6.876169276358885807e-02 2.232931483609862031e-02 -7.475033264875975414e-01 -9.924565285077175947e-01 2.899273387281983347e-03 -1.225627726360481728e-01
2.919214522381388330e-02 8.484414295518866167e-02 -6.430716743503049893e-01 -9.574082715717534553e-01 -2.457224202987487449e-01 1.516241856977732227e-01
5.643830953399076034e-02 -3.870310121766659672e-02 -7.272832435667614392e-01 -9.731887595423167614e-01 -9.460604571728224721e-02 -2.096505053994060785e-01
-2.192030138315056997e-02 -7.125413860543081124e-02 -7.103880793436894159e-01 9.499410397399162820e-01 -1.125806433346144414e-01 2.914405938852914768e-01
2.144845194335718436e-02 7.342969368885939041e-02 -6.274284656179065500e-01 -5.144220284977658597e-01 2.467453587497556999e-01 -8.212713951743956242e-01
4.597093138022873698e-02 1.899384456518563372e-02 -6.948849937433788648e-01 -8.704972480968421467e-01 6.083528152907427544e-02 -4.883990270026170033e-01
-3.865469253678141537e-02 -5.184508164374674460e-02 -6.048401025211651572e-01 -3.403209501894670086e-01 5.502869836482239263e-01 -7.624735316648557637e-01
-2.506960428031518653e-02 -1.234965479144744388e-01 -7.291775665303923404e-01 8.123923838805755526e-01 -1.947895642475189759e-01 5.496140830374500741e-01
-5.099766746867810674e-02 -5.257729115840576589e-02 -6.512569760974339372e-01 9.230714958165624484e-01 -1.673020409039749079e-01 3.463366003187340891e-01
-3.120232262688000732e-02 -6.657341906506254736e-02 -6.878224768328168315e-01 8.524042721059317262e-01 -1.341859124651001434e-01 5.053722368625580552e-01
3.316769525490368548e-02 -1.006114915134240784e-01 -7.201028725321632074e-01 -9.167494856632324440e-01 -2.717529594703145812e-01 2.927809924761585747e-01
4.130313490522623948e-02 -1.190110902101950384e-02 -8.099694943704125460e-01 5.874348088306029503e-01 -4.227471170434203840e-01 6.900762424584906407e-01
-2.570111691890903174e-02 3.537966874980543342e-03 -5.947249114216117682e-01 -2.795933817188123172e-01 -1.467467943928339562e-02 -9.600063513760691558e-01
6.747651817890344336e-03 -9.183500653664879165e-02 -7.980694112553331498e-01 9.497639924333133310e-01 -2.179869966695978725e-02 3.122069431802612649e-01
-1.224817382449045269e-02 1.110290660952250597e-01 -6.514068908871807340e-01 4.879992968826372124e-01 -4.200153025359270043e-01 7.651430140030720528e-01
4.672755893712804420e-02 8.773221099837033576e-02 -6.969204175856567041e-01 -8.726732559989249793e-01 -4.117033241123012055e-01 -2.625676316287221534e-01
-2.939735410194285747e-02 -2.112676793377040174e-01 -7.657182512660603013e-01 3.843785144006549026e-01 9.090310474815960218e-01 -1.609835779875015138e-01
-1.949665922714545127e-02 -1.800631467800507257e-01 -6.997699886182937590e-01 -6.423337036323915061e-01 7.652605926395423808e-01 4.223314493228739336e-02
2.263645740961053518e-02 -1.404608113244525461e-02 -6.681118153145638727e-01 -9.908017768492123345e-01 -8.036764233773653621e-02 -1.088709376165993281e-01
-4.042677938401999238e-02 -8.974232372490403842e-02 -6.833048746653030969e-01 8.116238931076023011e-01 -2.527832801738856272e-01 5.266566902654805649e-01
5.006302964167507613e-02 -7.773910698751662629e-02 -7.561697517461618556e-01 -2.554572625795596408e-01 9.545347906400718507e-01 -1.536389288333921410e-01
1.275749059338491045e-02 -1.086110303932501103e-01 -8.155946448595193798e-01 9.300909199510178915e-01 -4.468897764204500522e-02 3.646008446259803581e-01
2.544081257901423254e-02 8.762223943060923337e-02 -6.502240440194428928e-01 -8.008335191888386051e-01 -3.816995135847229270e-01 4.614879802040419698e-01
3.204310043601793501e-02 -7.123049228218049367e-02 -7.046826017501122141e-01 -8.377884244026755356e-01 -1.687274988880784754e-01 5.192702447241283048e-01
-3.989342895295194119e-02 2.125846161561146391e-02 -6.369371522695562726e-01 9.138677007536766261e-01 -3.723999492723358284e-01 1.617532172822245817e-01
3.221496626951724646e-02 6.511832516747717570e-02 -6.414742693964667897e-01 -9.264186337052513487e-01 -3.081261610239355644e-02 -3.752320586152281812e-01
-3.703743988955262439e-02 -2.404751955948797662e-02 -5.953983952434293014e-01 -3.618947997130921718e-02 1.753655581003282782e-01 -9.838380164293137886e-01
-5.736335357182190684e-04 -2.114958904121495564e-01 -7.621595036706070303e-01 -2.905497426532267502e-01 5.990646264661674270e-01 -7.461249361608917052e-01
5.241130356029581605e-02 -7.541646413833431872e-02 -7.442993018543672123e-01 -4.162470258273223700e-01 9.019842156632288388e-01 -1.147296308034589929e-01
4.532807882340923050e-02 -8.239733171235397169e-02 -8.386478652674735912e-01 -4.061412988122825585e-01 -2.906587717558011680e-02 9.133479184752578695e-01
5.699158705140242726e-02 -5.822319136842539489e-02 -8.244285405611613271e-01 -8.338765384141421100e-01 -1.565361994157058456e-01 5.292885195759815531e-01
1.435066218947528283e-02 -2.691131453204895219e-02 -6.469570756601369377e-01 -8.704565632071691317e-01 8.739271201657471122e-02 -4.844253146316278569e-01
-3.445328861226458483e-02 -1.064564472536667916e-01 -6.339384740677450614e-01 -2.768575625345393032e-01 5.071747744401263747e-01 -8.161639775431408506e-01
-5.141610760051803369e-02 -3.615960574028684923e-03 -6.336845035950917637e-01 9.049105347170230962e-01 -3.573979422237903991e-01 2.310922652369649388e-01
-3.689826586717560863e-02 1.574543970919939917e-01 -5.655567682987648892e-01 -1.143641688795566692e-02 7.810138374241116788e-01 -6.244089958679550634e-01
-2.736741966764065850e-02 -2.087753363529392114e-01 -8.046240951991513457e-01 9.965933995408856605e-01 -1.442860593030598389e-02 8.119982341390115377e-02
3.896301033490560950e-02 -3.770993838934690728e-02 -8.250653574351810571e-01 5.094419393913205418e-01 -3.824257029497784011e-01 7.708563368829356444e-01
5.223746113269225194e-02 2.356274448761502827e-02 -7.959387422166585013e-01 -2.198488407699162803e-02 -3.954787848606343137e-01 9.182119557037347057e-01
4.557246266142488123e-02 -1.455561431354651658e-01 -7.980732463827117096e-01 -9.330524125222373621e-01 3.519032880715746159e-01 -7.468113102281637161e-02
8.859236541955819999e-03 4.569807602698008203e-02 -6.252312304548188759e-01 -8.362046061996163404e-01 -3.423484658574622863e-02 -5.473479988542895303e-01
-2.495817079454039703e-02 3.151759974707248751e-02 -6.767475914197984554e-01 9.843500600606708284e-01 1.629426628645173208e-02 1.754692455809277463e-01
1.454944793007633720e-02 -2.104509543146391715e-01 -7.923228271550942781e-01 -9.439667545321556164e-01 2.316878712744810664e-01 2.350478603228044472e-01
7.657085931600979625e-03 -1.162585153571361607e-01 -6.736865917561325467e-01 -7.299193168726493264e-01 3.458321067355273337e-01 -5.895913371200699471e-01
-2.817528552971877709e-02 -1.984007052501397528e-01 -7.967070771538521390e-01 9.890016409339051906e-01 -2.086089728761790149e-02 1.464260126971923537e-01
1.063113573079164757e-02 1.996688216365765170e-02 -6.418678249826637039e-01 -6.624146665347809826e-01 9.049209429729876408e-02 -7.436517938049391763e-01
5.879404872690621731e-02 -8.192627446675740388e-02 -8.106479931869682298e-01 -9.820901071610163013e-01 1.709620100625501571e-01 7.918972491324952068e-02
-1.659261289822607996e-02 8.806405976923506462e-02 -6.609407652181522597e-01 6.023239491823266789e-01 -4.529470432202185037e-01 6.573011762346597786e-01
-1.256644423075710913e-02 -2.672518369771188090e-02 -6.173126076624911862e-01 -5.197468018993384176e-01 -1.541872828018160451e-03 -8.543189594897164785e-01
1.825457284608383857e-02 -7.125785404823424540e-02 -8.125640089016634704e-01 7.143989698496756580e-01 -4.780233895444657155e-01 5.110066055601847346e-01
6.064563005508443599e-02 -5.855433006900985504e-02 -8.144724465333834651e-01 -9.661890339203973443e-01 -5.737569287156237680e-03 2.577708886407548139e-01
-1.986497395504560962e-02 -1.225563927816817195e-01 -7.394140332684506767e-01 9.354501605739167225e-01 -1.154142530584870013e-01 3.340846408818949342e-01
-1.993921375605362672e-02 -6.490352946170779846e-02 -7.196594811006433723e-01 9.993480315631060318e-01 -3.415415522556734113e-02 1.170493450527861426e-02
-5.687605339551603245e-02 -8.709365632904816912e-02 -6.547161000801655639e-01 9.797239059656951410e-01 -1.668324908400502793e-01 1.109413722622277360e-01
-3.128331547770611676e-02 5.369006489506045199e-02 -6.231774276380640520e-01 9.066627051666458215e-01 -3.946861095059008284e-01 1.489483602561513798e-01
2.425126634582646518e-02 -1.074834975669157755e-01 -6.977959383214150657e-01 -7.214803894777068738e-01 4.813341976139335343e-01 4.977785027564440301e-01
-7.194796716420073790e-02 1.710417456726234242e-01 -5.648176780290369292e-01 5.858763432806139981e-01 7.382674978540219035e-01 3.342304773603061996e-01
-5.535196365457512729e-02 -7.827223218849836683e-02 -6.537610656985364255e-01 9.721921977084843070e-01 -1.936847731822758656e-01 1.316379100110527667e-01
9.114028261912909476e-03 9.199531375248714421e-03 -7.479071910208855423e-01 8.103275185079408249e-01 -3.374005754248604050e-01 4.790930644997231647e-01
5.434123840728227739e-02 7.415693923739177795e-02 -7.503210216952167499e-01 -6.905157470153366894e-01 -6.210374006745631448e-01 3.708106660915156394e-01
1.051209874610855785e-02 -1.251896226370644016e-01 -6.828542954003725685e-01 -7.158400685024880472e-01 3.801289730819255586e-01 -5.857260111605371300e-01
-1.218074203952274927e-02 -1.990887824324357458e-01 -7.296873859486010527e-01 -2.846312364635734116e-01 8.029237211506902172e-01 -5.237351976359294614e-01
-2.862314650078213313e-02 1.796667937509304619e-02 -5.946047481986082017e-01 -1.649410934569809639e-01 -6.179260535091048862e-02 -9.843658413482063718e-01
6.087886819581075915e-02 -4.098568617188084323e-02 -8.000083662556698449e-01 -8.705929647389579751e-01 -4.460792251305738532e-01 2.075601470753433708e-01
4.992413897569869530e-02 -5.949988644154005114e-03 -8.108447717027462698e-01 7.805948816807723942e-03 -4.545150812988404954e-01 8.907048377745446777e-01
-3.550433056807576065e-02 -8.372995671098072343e-03 -6.599273211902673131e-01 8.601916710264760901e-01 -1.910775800180151973e-01 4.728209465655447974e-01
-3.852908806003706166e-02 -8.764122139627325558e-02 -6.220524974688707021e-01 -1.202205743584952441e-01 4.554866141659566492e-01 -8.820878401931104840e-01
3.791367847139689908e-03 1.039655186294268507e-01 -6.659180169191571963e-01 4.792605042004053351e-01 -7.357269999362728852e-01 4.785552744232843825e-01
3.343082768601488008e-02 3.257475082303989272e-02 -6.702701813753816351e-01 -9.408930757505167275e-01 -1.158613409831974334e-01 3.182709061009313944e-01
-3.743861210074081458e-02 -1.988217686283557661e-01 -7.471338786499831519e-01 9.473773094363815428e-01 2.936106696867559762e-01 -1.275500223879922623e-01
3.153526330113114173e-04 -5.080249329148090950e-03 -6.293737936702524793e-01 -5.442442033868153395e-01 -2.326209830674934864e-01 -8.060308463803130818e-01
4.881219575569529373e-02 -8.931937755011679081e-02 -7.519851616831129126e-01 -9.020349564180315527e-01 -4.289822492957438005e-01 4.803298022280640123e-02
3.696506003430586468e-02 7.676232148352291063e-02 -6.719949483254636924e-01 -8.453030107729700982e-01 -1.179503648752226602e-01 -5.211051059085431980e-01
-2.765448568471699786e-02 -2.337095708913500963e-02 -5.965056970834036187e-01 -2.921172786008278122e-01 2.166818213533076853e-01 -9.315130078736741925e-01
-4.163332033655144267e-03 1.183015426554880623e-01 -6.020372893982062212e-01 4.723148866823444897e-02 5.360369240332930607e-01 -8.428722338237915057e-01
-5.281516410958701085e-02 1.736877320027389593e-01 -5.972396012028482470e-01 7.882559278316194629e-01 6.565727301411118655e-02 6.118347119432363534e-01
2.415312482015181950e-02 8.001367427896949325e-02 -6.278763083995064775e-01 -6.911744517254891917e-01 1.417822490925384760e-01 -7.086435430625407372e-01
-8.020605278330749169e-03 -1.632097103607094701e-01 -8.198549410593282127e-01 7.903299709044021570e-01 -3.086106108728479680e-01 5.292806702940645591e-01
3.462279554551461053e-02 -1.698085911736978149e-01 -8.148620499179460852e-01 -9.666930860824709537e-01 -2.465811371116473916e-01 6.857273613525770306e-02
4.995174240097948262e-03 -1.935291932288446259e-01 -7.578684909280020143e-01 -1.934685950799432119e-01 1.280532457580161598e-01 -9.727138679841210722e-01
-5.630766847296030803e-03 1.370809038144371605e-01 -6.399357986176463786e-01 -3.188345947324173080e-03 -4.157211733732197323e-01 9.094865257161942607e-01
-6.069317678415822939e-03 1.077225644067662941e-01 -6.566051917903784618e-01 3.398480557403503188e-01 -5.140374540159857730e-01 7.875714538238846041e-01
6.484766594062654765e-02 -2.454456870866156964e-02 -7.903874325454497418e-01 -5.950075469001065986e-01 7.896814853181541860e-01 -1.495632671401346259e-01
3.316990008740348939e-02 -1.566282785130984068e-01 -8.373669862997773494e-01 -7.122927960105399636e-01 4.195489810151035170e-01 5.626878577690083150e-01
-8.907529388108960736e-03 -8.930168744791401603e-02 -7.597371570543839381e-01 8.395706556904477535e-01 -2.158183329804839179e-01 4.985414338377873178e-01
-2.266112186417423846e-02 1.050436764746206925e-01 -6.313767757310928541e-01 9.898740252022814046e-01 1.105809628746967921e-01 -8.900148807485169788e-02
6.251787222285870582e-02 -4.528160056699572639e-02 -7.991647788582941780e-01 -9.732710134923360235e-01 -1.702968050183465698e-01 1.540861203877380847e-01
-6.776798395603547687e-02 1.677671432642094118e-01 -5.590461223919818146e-01 3.373851238693287291e-01 9.412416817109997558e-01 -1.534192952424734586e-02
5.421425114123077857e-03 3.652669980489704066e-02 -7.303556200530342268e-01 8.780969433224535825e-01 -1.381075840322461001e-01 4.581179469967744944e-01
-9.977007827313734423e-03 -1.760011025168402576e-01 -8.250833243571947806e-01 6.475409515039767250e-01 -3.818829037348804301e-01 6.594362470780177343e-01
-9.740770984851205086e-03 1.721496988351679247e-01 -6.016744561227638233e-01 -6.530468491716535651e-01 -7.310020471574069090e-01 1.979035619655588885e-01
5.528608431833142989e-02 5.581508845543585451e-02 -7.704933042000857712e-01 -6.214871101863282954e-01 -5.506447101520057785e-01 5.572649056363233599e-01
3.650844604083913064e-02 -6.338517288767608893e-02 -8.314507935903550084e-01 6.226135286919715073e-01 -3.142958390082196130e-01 7.166383463587829850e-01
1.161620842100389607e-02 3.858401554869519967e-02 -7.417898466915922029e-01 8.857349829473561975e-01 -5.009615096249227933e-02 4.614801356959902234e-01
1.926669746378707748e-03 -1.225650350178354442e-01 -7.974405751430083678e-01 8.401445019564276473e-01 -3.422421440793284586e-01 4.207463970711696200e-01
-4.516498031048362533e-02 1.545749630291666232e-01 -5.900326108008228099e-01 6.506923842597779339e-01 7.547845464027118645e-01 8.306449047564323784e-02
6.940389986923833909e-02 1.476343522204841838e-03 -7.654510586742330203e-01 -9.999743835850485318e-01 2.338457025299404014e-03 -6.764894119128294497e-03
1.524168424544713844e-02 4.390516338178449690e-02 -7.482727404965473506e-01 8.776944481931359121e-01 3.383877810579400021e-03 4.792087279901210972e-01
4.814569099084309994e-02 -9.094448798388142519e-02 -7.827392519449254404e-01 -9.399025985469066091e-01 2.645296390285811206e-01 -2.158869503239632115e-01
2.274178283124918265e-02 -1.100486443113171398e-01 -6.889280277545968278e-01 -7.949427000932751675e-01 3.662513179152813714e-01 -4.836590490146262522e-01
5.981781970578987223e-02 -3.029505918818961585e-02 -8.050313854798605284e-01 -5.837845680388433767e-01 8.082634601266341923e-01 -7.684892415526647924e-02
-1.431713001144532468e-02 -1.383220347663543029e-02 -6.020054196295177018e-01 -6.760375724801783726e-01 1.587177910065886988e-01 -7.195706104428504224e-01
-2.810536494406726954e-02 1.902113900971104110e-01 -5.849369500464552951e-01 -5.488562250271155074e-01 -8.204155062287868949e-01 1.602349568238712052e-01
9.625106471841992153e-03 -1.363883035397668309e-01 -8.271101071549236128e-01 7.342669478948907757e-01 -5.180801544655627699e-01 4.386855397412371960e-01
3.632898457818587584e-03 -2.826430475621519167e-03 -7.474240674491077208e-01 8.482000313411400816e-01 -1.924904280730716788e-01 4.934613884926912775e-01
-1.408798651153813605e-06 8.258354137693448005e-02 -6.221535352107383510e-01 -1.196766914476726090e-02 2.272947375804082737e-01 -9.737524722245869402e-01
3.942939123678981111e-02 -3.934447069851116502e-02 -7.022731090320726288e-01 -6.199173446723901248e-01 1.166131542588789011e-01 -7.759535153784198336e-01
3.907882502219382076e-02 -1.291619846000241142e-02 -6.771221075503052189e-01 -9.861898209142347937e-01 -4.267297099847469632e-02 -1.600270435623702969e-01
-4.637518026668809024e-02 -1.803347884796737410e-01 -7.126245291721878816e-01 8.646031700900367323e-01 4.815734439723410865e-01 -1.433470485600513156e-01
3.483935718023369738e-02 -1.121319025352208870e-01 -7.223347681845956325e-01 -9.891741006725485175e-01 -7.960735926803326479e-02 1.232771954135273157e-01
2.787160041173203026e-02 -1.077686587721587014e-01 -8.414555241295139654e-01 5.054904548248262408e-01 2.394082460223451170e-02 8.624999924628146131e-01
-8.633743307492301733e-02 1.754337867179271426e-01 -5.500732708877079657e-01 5.173091411420993602e-01 8.187101300752548383e-01 2.492086984898052304e-01
-1.867638036038336488e-02 -9.536184226852024992e-02 -7.434460642240648953e-01 9.996710900280255663e-01 1.272102134286266784e-02 2.226852887313779741e-02
-4.757259659006517205e-02 -1.615772588991452319e-01 -6.764545560785030220e-01 5.823633210121081927e-01 6.326100457285448453e-01 -5.105462686016585261e-01
3.999157356447076428e-02 -1.593268745997966987e-02 -8.113096061558734418e-01 5.773965089063395340e-01 -4.199127173925467638e-01 7.002046709889748755e-01
5.114343317664118288e-02 -9.141345980232504220e-02 -8.316810893894597267e-01 -8.677121696185908784e-01 1.456537543124006573e-01 4.752479085177555018e-01
1.508395405403797039e-02 -1.763635321169489678e-01 -7.760957941346936506e-01 -9.062714442961340433e-01 -1.582367685278870395e-01 3.919607050958697214e-01
2.828070561776526576e-02 -1.904033591251569901e-01 -7.958160516699802622e-01 -6.548145043453024172e-01 5.693008687033358495e-01 -4.971061112002575499e-01
-2.913213312878662822e-02 1.833163907029210782e-01 -5.607966187816030290e-01 -7.545972198085156846e-01 -2.508034537830938770e-01 -6.063667730241574239e-01
1.791942090039295651e-02 9.507443417674947550e-02 -6.193469973495380199e-01 -6.562348672422346763e-01 1.219829791406931707e-01 -7.446314201103307884e-01
-1.006707497222721764e-02 -2.001166031700845893e-01 -8.391107242371200758e-01 5.437328690446132651e-01 -3.342977343186782635e-01 7.698049051220132721e-01
-3.199282886185687846e-02 -2.101887405555888655e-01 -7.708652744946984381e-01 6.274784663531360884e-01 7.772663614861055059e-01 4.612783937349556468e-02
-5.263550547427536114e-02 1.604618620820148500e-01 -5.858166831752631420e-01 6.661926139493716814e-01 7.216169026980815415e-01 1.882988233094711750e-01
3.871211096105253019e-02 2.944948197970416112e-02 -6.813470395119795020e-01 -8.294241432864561947e-01 -1.452941728720300203e-02 -5.584303775465859765e-01
3.559450101580920178e-02 5.421303392449484254e-02 -7.711868317512425852e-01 5.052947256261490772e-01 -5.375451157223498644e-01 6.750722100764040556e-01
5.024919104394096753e-02 -3.944398191264945203e-02 -7.115994374615647322e-01 -8.858799608934224690e-01 -8.874033698729316688e-02 -4.553480509224233086e-01
-1.331890625826432847e-02 -1.587757246412655615e-02 -7.190056273951858090e-01 8.347563088095356632e-01 -1.013177673075872504e-01 5.412177149082286753e-01
-3.796187330558651457e-02 -1.109027392269323620e-01 -6.986187278950211077e-01 8.370953772450296926e-01 -2.855588498092807015e-01 4.666127652460893560e-01
-4.559928612162390642e-03 9.886574782926288441e-02 -6.639218107587305795e-01 5.176936964792873130e-01 -5.122532670825794554e-01 6.852662453301162637e-01
-4.202493964687108174e-02 3.003557581718058547e-02 -6.182028120078453259e-01 9.081801989477771286e-01 -3.069540044622627306e-01 2.845838459641682472e-01
2.619685856502920306e-03 2.071182093750910738e-02 -6.170701435422861758e-01 -8.293916109229917399e-01 8.135297541872298088e-02 -5.527126279732400560e-01
2.618858392185645888e-03 1.229973971169532887e-01 -6.004939962609048276e-01 -4.049974297215694907e-01 3.650232241687693668e-01 -8.382929844251106877e-01
-5.764443290386214030e-02 -1.276299637512955630e-02 -6.064510948429240322e-01 9.749316796102983629e-01 -2.166666811163637518e-01 -5.063367837973532792e-02
-2.430064419170699375e-02 6.360914047611471167e-02 -6.677699374366922180e-01 9.867513446510002284e-01 -1.620264690557099707e-01 8.319083770574513606e-03
1.356913864315869439e-02 -2.086591705272110853e-01 -7.954245111840454463e-01 -8.376782104421639508e-01 -1.753432252797704483e-01 5.172523263349343425e-01
5.774978737154910780e-02 -1.937226378137646768e-02 -8.122137509854694404e-01 -6.720791834366114381e-01 -3.016377502440645286e-01 6.762575240386439202e-01
-4.101077167322861143e-03 -7.555408595267969901e-03 -7.352082220848136229e-01 8.513866698554299894e-01 3.614544628989006109e-02 5.232917399548606685e-01
2.572298744578437046e-02 1.014742168299450319e-02 -7.751497554023988323e-01 7.494552031790789881e-01 -3.394944233600398764e-01 5.683840558418574718e-01
5.835567858205418373e-02 -2.491334047756248171e-02 -7.810994243266313752e-01 -6.452454201603849970e-01 7.025079816262632670e-01 -3.002347140379374446e-01
3.648649785084068231e-02 -2.915470098322383088e-03 -6.799776204011991343e-01 -8.898272035493994814e-01 -2.357379769080024667e-01 3.906854925215134666e-01
5.934642931800563487e-02 -5.870126073214373616e-03 -7.252689306110221557e-01 -8.408234227807523942e-01 2.690418598611354906e-01 -4.697152854077896733e-01
-5.439204221985863980e-02 1.700543855676052152e-01 -5.474585966822453909e-01 -1.409804428887788397e-01 7.632794041222393799e-01 -6.304990610347352975e-01
-2.192041648744537385e-02 -3.044960958310645796e-02 -7.085760150037009319e-01 9.917057050667303919e-01 2.276036566765800989e-02 1.264980643835055263e-01
-2.058372336480416426e-02 -1.349736807532561644e-01 -7.431950479504342288e-01 9.239618356871780458e-01 -2.137838777452548411e-01 3.171608106462437959e-01
-2.477331330245538532e-03 -1.566550747497697516e-01 -8.255161014427888633e-01 8.766340885567563967e-01 -1.458391367309392339e-01 4.585233047270759754e-01
4.177867282725999942e-02 3.239815762792274539e-02 -6.875455729630856050e-01 -8.808615243977211406e-01 -1.591271380420852255e-01 -4.458267923468239857e-01
4.296790780303728907e-02 3.010833205613290195e-02 -6.892221808965232066e-01 -8.885899318367044275e-01 -8.246242390775025688e-02 -4.512293005575985783e-01
4.461595558899777991e-02 -1.311404891713199017e-01 -7.541287181809689377e-01 -8.717057573750799371e-01 3.821880213108632129e-01 -3.066942922938495353e-01
2.310364917106684946e-03 -2.124581821895450140e-01 -8.120888867995178506e-01 -9.783069999910878334e-01 -5.187850362055605041e-02 2.005593045224524362e-01
1.400354511118154927e-02 -2.092554160764217852e-01 -7.797720667220777724e-01 -7.615571303144551552e-01 5.955402386625857636e-01 -2.556610283185965504e-01
6.737034570751025686e-02 -2.909005142920232170e-03 -7.470769322924650790e-01 -9.751305966995368335e-01 1.105931079300487146e-01 -1.920663527502353418e-01
-1.175463588598388287e-02 -1.471897081958348508e-01 -7.997596606274800513e-01 7.758988560417700020e-01 -4.441547423539797257e-01 4.480039397567197601e-01
6.605771261813025985e-02 -2.211962829414585927e-02 -7.823978795891941562e-01 -5.950075469001065986e-01 7.896814853181541860e-01 -1.495632671401346259e-01
-6.146076126707816084e-02 1.654390641007269236e-01 -5.704999105839529960e-01 4.850688682413313302e-01 8.738208617317937410e-01 3.384220243098026715e-02
1.727390307648084961e-02 7.425314381349855386e-02 -6.253785667899302014e-01 -2.579636500062541526e-01 3.557218163981101799e-01 -8.982854471791691386e-01
5.330410777674986222e-02 4.433589210537896425e-02 -7.830993494010951572e-01 -4.197891853499729486e-01 -5.836635493720992995e-01 6.950639546096238908e-01
5.757296000699552163e-02 -7.012242093155181266e-02 -7.578887348200421537e-01 -9.867563855608485479e-01 1.419516890294678924e-01 -7.849556380185714055e-02
-4.641448639091998174e-02 -1.777339541025039216e-01 -7.046606403652838635e-01 7.944036674158282407e-01 5.738111325303386634e-01 -1.991572177465140980e-01
4.218113379524201026e-03 -1.134624852149484497e-01 -7.964178765168125063e-01 9.000266376943660829e-01 -1.943628807887526622e-01 3.900962983829394659e-01
5.734899956306515473e-02 -8.359584059604917294e-02 -7.870960071672601366e-01 -8.240563284253139553e-01 5.128898971190607448e-01 -2.405724859899620593e-01
1.002502401341417819e-02 -3.155655289465868207e-03 -7.587600708131280181e-01 8.236026869317386589e-01 -3.091958850837823736e-01 4.754750453242283514e-01
2.765079476343381554e-02 -1.974939317895874347e-01 -8.071072854432500554e-01 -7.898139479487639170e-01 5.818879928265751067e-01 -1.939079457625371428e-01
-2.373553044771071346e-02 -2.172305548438810130e-01 -8.292661826620458809e-01 9.725771471285368230e-01 2.719122052293941605e-02 2.309855632064250763e-01
4.043100604833776285e-02 9.666880844833815323e-02 -7.212059171280011949e-01 -4.329819300601336907e-01 -8.716641776774384232e-01 2.296262389086158873e-01
-4.798713498379849479e-02 -2.163943190212300194e-02 -5.962601053272156282e-01 2.805644041027522961e-01 1.474221764836255721e-01 -9.484462647041731476e-01
1.279181141075612892e-02 1.374151780964128211e-01 -6.094530443408865406e-01 -9.240578540451034328e-01 -1.546173217043113890e-01 -3.495862786302459946e-01
-1.134204316546479942e-02 1.705204948204065152e-01 -6.095029780294547450e-01 -5.818264135887060151e-01 -7.358383217889341577e-01 3.464390114253145803e-01
5.501873231045951475e-03 -5.886942544069700273e-02 -6.597513673618387031e-01 -8.509432607743265820e-01 1.970136893161406888e-01 -4.869098203618404397e-01
-4.743454813729984509e-02 -3.952074200136828502e-02 -5.999294263105419134e-01 1.708517088066669187e-01 2.576832199970118253e-01 -9.510042332870098925e-01
-3.468079968265758151e-02 -1.264951257069768797e-01 -6.529801998482039904e-01 -4.298632333079183687e-01 3.927870247355021438e-01 -8.129796761601696398e-01
7.994927362926453410e-03 1.039898513974937821e-01 -6.694449643732277577e-01 2.791645326906301294e-01 -8.957460448787573082e-01 3.459858187436095078e-01
1.135514086163749020e-02 -1.258303215988598456e-01 -6.969417248154102795e-01 -7.768848626500203247e-01 4.729019405353759864e-01 4.157086297193438584e-01
6.088942235944388992e-02 3.070786387653443722e-02 -7.695765002038721381e-01 -6.452085812999789338e-01 -7.208941403168935835e-01 2.530168474106723742e-01
3.452518962813645731e-02 1.006935059597633131e-01 -6.935099899346290897e-01 -5.458312727551498655e-01 -8.205424459400306736e-01 -1.696417286319763518e-01
1.538894319269656745e-02 -3.883067621322330160e-02 -6.522337573763887786e-01 -9.407080776325817961e-01 1.939273018262224202e-01 -2.783172906651931178e-01
-4.908043306912474729e-02 2.495546067919405739e-03 -6.313259398006558776e-01 9.026759332492956256e-01 -4.173833052363082885e-01 1.047250497375293160e-01
2.987561245428027937e-02 -9.144982522930564239e-02 -7.178158205188474028e-01 -8.402826239356220306e-01 -5.392546226824683764e-01 5.594250465839627900e-02
-9.928311357089773803e-02 1.810027396815326040e-01 -5.402667357334501874e-01 5.486499635378264683e-01 8.134555907844905898e-01 1.930627341860599588e-01
-6.025645650547024890e-02 -6.100939878830911878e-02 -6.110427306830119587e-01 7.229134672026158448e-01 1.643274793379854160e-01 -6.711129550765030372e-01
-2.420728078919755222e-02 -2.112659088507582439e-01 -7.560675902802920234e-01 4.692766048839278753e-02 9.925173011973680293e-01 -1.127262236792287570e-01
9.714758511587609502e-03 1.341600891591598066e-01 -6.344126727811634225e-01 -6.402211915404776299e-01 -5.043979772665884154e-01 5.793958115415276389e-01
5.415177671402492815e-02 6.508779345385068416e-02 -7.620971952394632876e-01 -6.093958832702803807e-01 -5.922424440485601904e-01 5.271485036691491155e-01
-1.107299950395071279e-02 -2.251020141912675743e-01 -7.963779647099398229e-01 6.077518156698055035e-02 9.886434238230709104e-01 -1.374429257433664175e-01
1.380938833579651095e-02 4.521128585586432075e-02 -7.456088808952126001e-01 8.859712785384010747e-01 4.915222843424108239e-04 4.637398538090883870e-01
-3.593041687409562202e-02 1.743342634506702682e-01 -6.105367999793963607e-01 4.082866236318120623e-01 -5.209936025020033279e-01 7.495783475496869963e-01
-2.402762648877461785e-02 1.181771823232391078e-01 -6.292356544314013922e-01 9.925310385029009197e-01 8.430280749633160819e-02 8.817694855567029255e-02
-4.009351979786312387e-02 -8.607926708443970620e-02 -6.821387004088880213e-01 7.775910026708879874e-01 -2.344429864647377126e-01 5.834284177710045149e-01
-5.019238156935874190e-02 1.807145753539207977e-01 -5.412153584902278380e-01 -5.190220809738945729e-01 2.871705946786233810e-01 -8.050770950744120524e-01
-3.002117618223390776e-03 1.333076052940923018e-01 -5.923469691804685855e-01 -3.757021128130694221e-01 4.880919902646666531e-01 -7.877906647500160231e-01
-8.269256583462124277e-02 1.973921598866815730e-01 -5.185510312285028789e-01 -3.917413838527415426e-01 -2.043879937989791229e-02 -9.198483264414015759e-01
9.656532971144420746e-03 1.464903045147869232e-01 -6.147037867943294653e-01 -8.450509410085871309e-01 -5.310288539022745002e-01 6.242806599389499195e-02
1.412298234874406581e-02 -6.943171749236302925e-02 -6.638476883791232241e-01 -5.930805155610757717e-01 1.901486242449924868e-02 -8.049185903361817385e-01
-5.059345368376893387e-02 -1.159419288883883625e-01 -6.784032676109721383e-01 8.541137469739743526e-01 -1.420490035189838907e-01 5.003116906782625328e-01
-3.709707041437820124e-02 4.024033395194089729e-02 -6.037132506314029090e-01 5.982452966552642692e-01 -5.142981209092093442e-01 -6.144916662242955185e-01
-2.421510786594731346e-02 -1.211873704018226611e-01 -7.297051003324338536e-01 8.332223932894723406e-01 -1.795696386083392992e-01 5.229676741549466046e-01
2.802167484183726992e-02 -1.047131510862186893e-01 -8.415690980120532627e-01 4.630318783626447554e-01 -8.391847247205701243e-02 8.823599999988199771e-01
-4.568453486636080141e-02 -7.363194782162610363e-02 -6.143510317840154000e-01 -1.682218910983596938e-01 3.714237398219426001e-01 -9.130968189912684885e-01
-1.112518215826527324e-01 1.972154558015935810e-01 -5.325637980187988285e-01 9.949641912321677273e-01 -2.840338525803622061e-02 -9.612234845030696861e-02
2.228324497848526917e-02 5.243926590321480036e-02 -7.590951498003394304e-01 7.832404415278552134e-01 -2.996090918309697870e-01 5.447649060351372752e-01
2.864889381002668281e-02 1.263517880424658117e-02 -7.775264598703348629e-01 7.393936173985757865e-01 -3.255308692894710032e-01 5.893443235409077108e-01
5.976770440887284319e-02 -3.526496976200394623e-02 -7.519907445999604034e-01 -9.866500927681803867e-01 -9.336879857576187158e-02 -1.334311129124682305e-01
-5.882298947365248443e-02 -4.825779632003077829e-02 -6.327983771570878657e-01 8.871075662595829803e-01 6.326980273704159441e-03 4.615193768474034619e-01
-2.253517880712436333e-02 -1.756145251969680188e-01 -8.104661976254469158e-01 7.894020154572675141e-01 -3.914280747125486459e-01 4.728937727638540256e-01
2.640309220468497683e-02 -1.925945990675339003e-01 -7.960569240435056981e-01 -5.484793504307180489e-01 6.066426621352664084e-01 -5.754607568101707260e-01
3.157908325322055648e-02 -7.239584476667634827e-02 -6.858750244380396044e-01 -8.683526330071001942e-01 1.565588528486988040e-01 -4.705879623878361784e-01
-1.969019166700569298e-02 1.245850847403979708e-02 -6.999750114377140120e-01 7.870763810186599541e-01 -2.533512341732290230e-01 5.624268153150866478e-01
1.526233915896611087e-02 6.697772023197089142e-02 -7.331419025346479490e-01 7.545146184221148689e-01 -5.270638309028052859e-01 3.910388839251021098e-01
2.366471204227107300e-02 -5.208152743978280985e-02 -8.075557776595095882e-01 8.281117411067898670e-01 -2.944860034506587287e-01 4.769789701996720588e-01
2.578680180395461624e-02 -1.602587676498079261e-01 -7.725648835899403544e-01 -3.316256982766179195e-01 3.504889945658747341e-01 -8.758891830196031680e-01
9.747060648237401356e-03 -6.314126195215490067e-02 -7.907485947345732624e-01 7.177000994161901737e-01 -5.553387681378016971e-01 4.201254811376948228e-01
3.872790590093318913e-03 -2.184636330636753263e-02 -6.316714795064262145e-01 -7.550115382075802684e-01 1.713667527701961263e-02 -6.554875372834129132e-01
3.515014983749281587e-03 4.716949808164575854e-03 -6.342848259365619912e-01 -5.611575794455558874e-01 -2.035897855664302314e-01 -8.022801070971530280e-01
1.039517170137180388e-03 5.201330561456513762e-03 -6.326617504587466190e-01 -5.981426530393147978e-01 -1.738403976497150949e-01 -7.823074093731178236e-01
-3.673171523425809021e-02 -1.279181756121318958e-01 -6.526999185439436024e-01 -4.550382897541284666e-01 4.599806694039476063e-01 -7.624683197565222947e-01
4.406696148303184714e-03 1.547592655925079663e-01 -6.085434825174864670e-01 -8.088000196726596869e-01 -5.855215719108438632e-01 5.483627453209884844e-02
-2.668317974135892001e-02 6.375103332355606944e-02 -6.220232478672796939e-01 9.129097732537195808e-01 -4.076285743682995233e-01 -2.084925073737362716e-02
1.945889375958665193e-02 -7.524317039732540680e-02 -8.177563093033882735e-01 7.183647006341576935e-01 -4.558227383099207608e-01 5.255262011759668228e-01
2.008395922618804938e-02 -5.285343933485091815e-03 -7.785231920402865269e-01 7.677929589594129078e-01 -4.314577704399560343e-01 4.736434993740879507e-01
4.705392097247279755e-03 4.231390626327037607e-02 -6.192852259012203708e-01 -7.928969802574282744e-01 -3.860179694843102888e-02 -6.081317949022262415e-01
