-6.988211985215452005e-03 1.551133736371363148e-01 -6.650214173991204625e-01 -1.910058341914011582e-01 -7.611313331483356981e-01 6.198353531420131013e-01
-1.608286503625387664e-02 -2.491794055900423480e-02 -7.024143998216491047e-01 9.488289478675984157e-01 4.072587215807168398e-02 -3.131533666199849408e-01
1.782095201409170104e-02 5.972618517349691930e-02 -6.482509100070605879e-01 -7.034853112252374974e-01 -5.344316706370527692e-01 -4.684988861357298751e-01
-1.809301847029147828e-02 1.111006347573777336e-01 -6.528607165090984932e-01 4.601245707185401823e-01 4.347240330955192134e-01 -7.741449440965463280e-01
3.987796495968840005e-02 -1.049064381052692077e-02 -7.342168991043668269e-01 -8.701281813670358467e-01 2.261655128517047475e-01 -4.378654003086112079e-01
-1.642465483151664407e-02 8.375597738363670802e-03 -8.443819837253546678e-01 -2.721375605188500191e-01 -3.687426259500852233e-01 8.888025787329179028e-01
1.672240412261837700e-02 3.506576136668293486e-02 -7.956911330118749959e-01 -8.917211912426562526e-01 -3.471536114047973909e-01 2.903750801590680997e-01
6.532305643073844578e-03 -2.652825396740042183e-02 -8.244905520626770734e-01 -4.341270947479763942e-01 -7.195871410683216673e-01 5.419667997348185384e-01
3.378051104263830873e-02 3.864859472299831539e-02 -7.183285053961846467e-01 -7.585007606041407335e-01 -3.212211206323623558e-01 5.670040456845343302e-01
2.070159048385922240e-02 -5.498498353750940100e-03 -7.621701196349904839e-01 -8.768443833807261223e-01 4.427996792719422481e-01 1.872761900785562816e-01
-1.536128215066837575e-02 8.652933393371212145e-02 -7.865554494785187423e-01 -7.382323299046693321e-02 -8.113451481718204628e-01 5.798872138691123501e-01
1.956191744848779709e-02 -2.224088415104116534e-01 -8.018191964275930284e-01 -7.667061746137314726e-01 6.387188615227263888e-01 6.480630944816068162e-02
2.197224213057708680e-02 -2.603934455304070597e-02 -8.049447706960699556e-01 -7.759293261172003353e-01 -4.455332705494935985e-01 4.465800999874257604e-01
-1.257668557889846106e-02 -1.009645280866303535e-01 -7.502044973654270477e-01 8.504732085170942923e-01 2.689874913353066388e-01 -4.520409838717916462e-01
-3.435017773914642025e-02 2.874508556987737454e-02 -7.796016559289875580e-01 9.641440659005536817e-01 2.462541811555007953e-01 -9.891965655107527733e-02
4.177808120344932673e-03 -1.270170950365730189e-01 -6.676756571555837461e-01 7.462665488088541244e-01 2.279327170622705290e-01 -6.254061996986700622e-01
-6.726497985261918611e-03 -3.862758098724147077e-02 -6.617271850173247483e-01 9.892588407861149236e-01 1.122141135664372208e-01 -9.367464247602411143e-02
4.431144415513091350e-02 -9.272824277004361460e-02 -7.479216565103422587e-01 -4.289216506281192665e-01 3.546625337120168364e-01 8.308072609236285544e-01
-1.761600563809202769e-02 1.899852581761481835e-02 -6.757005146803580775e-01 9.684603011451073939e-01 2.340606172836029730e-01 -8.544163237407521871e-02
-1.688229679370461742e-02 -5.673531714813677407e-02 -8.655849819431777892e-01 -2.414476518035675590e-01 -3.744397698333430946e-01 8.952641454932147580e-01
-2.878067071607065194e-02 1.912513736731376868e-01 -6.135239078065358731e-01 -3.434904608982105104e-03 -9.072870449693468675e-01 4.204978233726276993e-01
1.835937502027723545e-02 4.294009049950333473e-02 -6.340967152763576919e-01 -5.980274478599985066e-01 -4.350554301167692817e-01 -6.731195616916579860e-01
3.313566165631370158e-02 -1.136695289992945973e-01 -6.627707916302263413e-01 -7.445077707600893380e-01 3.280373724413864212e-01 -5.814633793796418759e-01
-5.041078396195079053e-02 1.886152229087474652e-01 -5.942261240755807306e-01 8.299091743757055495e-01 -4.525729744431504220e-01 3.262337583554381082e-01
-1.053841185222264068e-02 5.056567113097115013e-02 -6.568284421189525268e-01 9.188112843339699687e-01 -5.935119119637194407e-02 -3.902092514076676011e-01
-2.851520063044443720e-02 1.529443522264178641e-04 -7.545823159201974217e-01 9.964551165557932189e-01 -6.444634317205788498e-02 -5.407281702972225462e-02
8.581481075689756724e-03 9.171191938377490360e-02 -7.149874736101586858e-01 -8.518006391358605711e-01 -5.227878213889873837e-01 -3.359412113890743179e-02
-1.703084526453299205e-02 -1.847725615602229324e-02 -8.542348590202798464e-01 -1.805623972086346229e-01 -3.394137096823656163e-01 9.231443843700323226e-01
-7.595118538794168664e-04 -1.158847720340057397e-01 -6.761872273829120372e-01 9.624823225978722530e-01 2.180193718992331220e-01 1.615404969760492471e-01
-2.164042271940034776e-02 -2.175367181791098559e-01 -8.027330618765626813e-01 8.453279439397010098e-01 2.666180358366708192e-01 -4.629638108548801423e-01
4.236911431067103689e-02 -1.392501571655594128e-01 -7.312956076371460723e-01 -6.900839217271179660e-01 2.171855146233895029e-01 6.903728218951656892e-01
2.313198101012584398e-02 -1.563476980246304993e-01 -8.094886704502759489e-01 -9.439333975089782003e-01 -2.228252676829236556e-01 -2.435952404075065469e-01
-2.739823994924448555e-03 -1.274281275545865455e-01 -8.645408534519675170e-01 -4.512647663901654949e-01 -1.291702871548621734e-01 8.829921559850685275e-01
2.777861746157537712e-02 -6.870585850955143736e-02 -6.368201096335933675e-01 -7.222143831857127383e-01 1.078343156010101583e-01 -6.832116400490717556e-01
-1.889334259857813197e-02 1.152464465818761746e-01 -6.890046862574481512e-01 6.595921338651989929e-01 -3.815826612747367785e-01 6.475591784212798574e-01
-1.311912598237581322e-02 -1.743440437809385957e-01 -8.635825164349018035e-01 -1.719608212979043538e-01 3.431324932232229230e-01 9.234119167700646225e-01
-3.308971973600476069e-02 1.636954618519151361e-01 -5.664826504094482296e-01 -2.650954201484236883e-01 9.269812529090042386e-01 -2.653868402381389102e-01
-2.591282368377439971e-02 -1.783668786720643828e-01 -7.973228107882954774e-01 9.083370638801544494e-01 -2.384487458826437586e-03 -4.182321037428129440e-01
-2.354306742030133279e-02 -1.735718631137796453e-01 -8.637020451166097512e-01 2.865208010818939832e-01 3.308684865558873534e-01 8.991283974781388855e-01
-1.053239726080712479e-02 -4.993708830638975832e-02 -7.085554249537531213e-01 9.518849947726228944e-01 2.995109674510095799e-01 -6.487015572113177808e-02
-1.181575985995905222e-02 -3.887334963775153363e-02 -8.537112399055925005e-01 -7.587964355150649265e-01 -1.450204168992051401e-01 6.349779902736885084e-01
-8.437939028129313318e-03 -1.045000097432521591e-01 -7.329604861205379907e-01 9.778603681892092947e-01 1.199374344801435038e-01 -1.714762728052640073e-01
3.807995321341290512e-02 -1.815663662588235527e-01 -7.622485974385437846e-01 -9.533453374072974329e-01 3.018306630384507416e-01 -5.560440048760397456e-03
2.930656983422563408e-02 7.052557098273762315e-02 -7.061776105411443627e-01 -8.540479786474471924e-01 -3.611631409152540884e-01 3.743838081600728840e-01
-1.418911277672006178e-02 7.647797108222643102e-03 -8.439991813994299763e-01 -2.783551530113810846e-01 -3.551442929756256639e-01 8.924073845272983974e-01
-2.666788553782459964e-02 -1.436450195859503287e-01 -8.576242375694621556e-01 9.949227744178327226e-01 5.310065281457534460e-03 1.005011251251917148e-01
-3.187557536226389571e-02 8.299949668336363551e-02 -7.812679966055513514e-01 8.454653870170905083e-01 -4.773491381168777359e-01 2.394286526193463993e-01
3.839364180876458921e-02 -3.069458059245805739e-02 -7.647174527636385610e-01 -9.478573077375216371e-01 -3.084254031765845672e-01 -8.025144761272948180e-02
2.251271967923264544e-03 -2.144401210378601708e-01 -8.303305255407592567e-01 -5.359953081278050480e-01 7.129172136387346148e-01 -4.521704061109729222e-01
1.408970080213726821e-02 -2.010303842046853862e-01 -8.260356128925404606e-01 -3.960377225674727719e-01 5.351460375716947659e-01 -7.461721254341276977e-01
-2.113358472978487529e-02 1.951531528175041441e-01 -5.946672778983225216e-01 -4.729251288694208966e-01 -8.739738308446348691e-01 1.118551093271795693e-01
3.227866699491078323e-02 -2.365843564476081268e-02 -7.556247348243330109e-01 -8.654897240877703624e-01 -2.245669009642611291e-01 -4.477691866238486806e-01
2.482330929795850682e-02 -1.938773698741162177e-01 -8.099608555074510052e-01 -7.593148176196180543e-01 -1.782298909672410669e-01 6.258395271226416812e-01
-4.298320474010816281e-03 -7.202643267845183772e-02 -7.023091369536520467e-01 9.787983506265659495e-01 2.040662332146591373e-01 -1.762842228603078709e-02
7.572816330012132648e-03 8.496014375029715959e-02 -7.583646346174304220e-01 -8.422879774258970054e-01 -4.842372800650172615e-01 2.367809529481327557e-01
-2.702074664067950077e-02 -1.270084133226477285e-01 -8.421509338753991880e-01 9.595249239689009890e-01 2.136445904780659433e-01 -1.834881719401398603e-01
2.385614208831452615e-02 -1.917307833434404030e-01 -7.313951881022138224e-01 -5.002595147873007964e-01 5.480281211405236830e-01 -6.703772044930836893e-01
5.134228048053403499e-03 -1.103182692820067583e-02 -6.188451387054774155e-01 5.818137580860321956e-01 3.942261796464183871e-02 -8.123660554790689270e-01
1.578157973588180732e-02 -1.152950128200803809e-01 -8.438411916680386149e-01 -8.297739440918608933e-01 -1.017763861830902616e-01 5.487410763937284885e-01
-6.806959608322910027e-02 1.903962201264653153e-01 -5.307694392438725428e-01 8.465343719499406339e-01 -2.100430104730468539e-01 -4.891436300911410351e-01
5.010136349706987430e-02 -1.059595024621166615e-01 -7.339768000513394730e-01 -9.971917744506295644e-01 7.487520877721028090e-02 1.506014134688284144e-03
5.025682586598506640e-02 -9.484978372704146177e-02 -7.317637818782763981e-01 -9.991569605268566523e-01 -2.726368903450338693e-02 -3.069298765131279680e-02
-3.278817247694025550e-02 1.930344592916567181e-01 -6.095985258304204013e-01 1.160009968723044183e-01 -9.033236474285027962e-01 4.129771866835957872e-01
6.521121357714577960e-03 -2.033604627467876236e-01 -7.400155086314539332e-01 3.719080341638201781e-01 7.413979911554682278e-01 -5.585816259375516735e-01
2.652343701391433536e-02 2.339995212102356781e-02 -7.444503906253387981e-01 -9.838503543120208361e-01 -1.736692178802372033e-01 4.332993285222166979e-02
3.215518218185765831e-02 -1.362051375784624763e-01 -6.790261230966290196e-01 -6.826326818661557772e-01 1.390993825502737369e-01 -7.174008526774638961e-01
-1.912823222355560307e-02 -1.003729872210249452e-01 -7.736635127369340115e-01 9.960078364446790511e-01 8.040664701212391074e-02 -3.877061847659184907e-02
-2.684624176130297538e-02 7.565496638435539878e-02 -7.255303026197787997e-01 9.858204227635507522e-01 -1.273955150417460103e-01 -1.092175663963558807e-01
3.260966794407323815e-02 -1.223568236805152032e-01 -6.776873661345740318e-01 -7.658801542563249409e-01 1.759069023754594382e-02 -6.427426832981258942e-01
-2.151890289106990831e-02 1.913208110661789307e-01 -5.634500767039619662e-01 -8.163291010040494289e-01 -5.341417411664222126e-01 -2.197712428813726193e-01
-3.628854284193532703e-02 2.019059017681359147e-01 -5.756273757225416343e-01 -8.478755275161080351e-02 -9.888769644842481110e-01 1.222023731799504603e-01
-3.334938663825790656e-02 -8.395665998228593607e-02 -8.155562622022619612e-01 9.791884171498563827e-01 -1.936432558908760815e-01 -6.076457164779122677e-02
3.408508523161047493e-02 -2.374734497025506388e-02 -7.759167877712364048e-01 -8.626055735372383237e-01 -4.759132884362171634e-01 1.715172480898584928e-01
1.342928264636738742e-02 1.326691582378876355e-01 -6.645648072705366838e-01 -9.681138111865422724e-01 -2.500282096891048855e-01 1.554165208492981967e-02
1.165411893247218431e-02 -2.072175342068288961e-01 -8.298721009781554470e-01 -4.087969183443778687e-01 5.744491279700274511e-01 -7.091496872498888049e-01
2.619798504958930491e-02 1.676090603355539707e-02 -7.662864281925542143e-01 -9.814680256737277064e-01 -1.771311934816531264e-01 7.310988220398184634e-02
4.881378366409279412e-02 -1.107600041940959013e-01 -7.148866185622351210e-01 -9.977905773633440889e-01 4.434818696422778567e-02 -4.946920292374259315e-02
-3.185871447963375958e-02 7.379969042974493000e-04 -7.974195939408861289e-01 9.924955357616406237e-01 5.854865086247579287e-02 -1.073530017065103398e-01
6.559075228570030239e-03 -2.316088776095557022e-01 -7.996495273066411835e-01 -3.280409520757204267e-01 9.260418404545678328e-01 -1.866430911894995104e-01
-2.258210364775906434e-02 -1.601438325721899272e-02 -8.536657671122994673e-01 1.644508423995027016e-02 -3.239026988809009522e-01 9.459474619988200716e-01
3.033984013606390306e-03 1.286235070441050232e-01 -6.855535154855305624e-01 -1.913497507782059570e-01 -5.465402354697231901e-01 8.152785069470541712e-01
-3.513429730206880930e-02 -9.395930641713315379e-02 -8.378962799503189007e-01 9.763711328343395168e-01 -2.010764187456262064e-01 7.916871094202797277e-02
2.933536553536356659e-04 -7.458415335994002249e-02 -6.574535251918726120e-01 9.137616053490301704e-01 1.420899454499071068e-01 -3.805918758880773023e-01
-2.694721993114689365e-02 -6.745141217047966042e-02 -7.988896602680196635e-01 9.812942462600753313e-01 -8.118422700070723752e-02 -1.745586535900427450e-01
6.449691514176547277e-03 -4.922729085385632586e-02 -8.445245435822487101e-01 -7.929772341022578441e-01 -2.288048860275430363e-01 5.646551428309638521e-01
-2.337664454049543858e-02 -1.765121045150886414e-01 -7.925850807538689091e-01 8.636587356330571730e-01 4.837164231654571961e-02 -5.017507076071832106e-01
-2.667888055718630001e-03 4.947914388859452062e-02 -6.394527235933060716e-01 8.226917951549663766e-01 -2.346271751597391042e-01 -5.178110648308511532e-01
2.496957926338926048e-02 -4.803396558218452767e-02 -8.119489537305687454e-01 -8.726385584671861873e-01 -1.649751010224668468e-01 4.596576577399079100e-01
-1.038788844527092567e-02 -2.259101621473033061e-01 -8.489430126965116230e-01 -2.593931257446738803e-01 4.707804509940460846e-01 8.432561729855586607e-01
-6.745539733524567871e-02 1.845227676529924143e-01 -5.545100050893649879e-01 9.321541538783560954e-01 1.350936543065566764e-01 3.359141824535351595e-01
-9.906772115937875073e-03 1.560966705558291534e-01 -6.033822219950669696e-01 -5.867347364168912227e-01 5.971774720377280854e-01 -5.469199356143726876e-01
1.761759410546161891e-02 -2.247957380714612208e-01 -7.996500153103436315e-01 -7.279209030661450974e-01 6.844241992935087282e-01 4.116642200637788546e-02
3.572502071219667980e-02 -2.568660801521138043e-02 -6.492640823110610304e-01 -9.880813591952802843e-01 2.694254345052599781e-02 1.515563491353098535e-01
2.268219218334137713e-02 -2.066215073819925863e-01 -7.800203394185878381e-01 -9.366629258190269924e-01 1.712487222447540980e-01 -3.055101283520388900e-01
8.274081905206258011e-03 8.263598354982006067e-02 -7.608030951315856161e-01 -8.301825948051896331e-01 -5.084941338055067872e-01 2.285400953178884920e-01
2.004416201806155304e-02 -2.010351775565549781e-01 -8.157180397918374348e-01 -2.553460678442543985e-01 -4.000479980579882411e-01 8.802045131026497993e-01
3.869760555023884357e-02 -1.561900625205888682e-01 -7.050189370404231770e-01 -8.999170594835853576e-01 3.314269994744922232e-01 -2.833821272941395852e-01
2.836732622865540190e-02 -1.378132675641652594e-01 -7.885983952789448193e-01 -5.352660307488515956e-01 2.641223650026667258e-01 8.023276466829293296e-01
4.263027009626288444e-02 -9.355557457399474308e-02 -7.631695766610693266e-01 -9.756771048642916000e-01 -2.105977773406924602e-01 -6.085033461530436200e-02
3.628801097382472474e-02 -1.829516151391224754e-01 -7.469736345592307147e-01 -9.184622299790449196e-01 3.644411418374771672e-01 -1.536547631481549880e-01
1.473020758242464708e-02 -4.522179205584093281e-02 -8.297527441505513357e-01 -8.448881645671797447e-01 -2.250918589744832499e-01 4.852809952983047626e-01
-5.693223554592093810e-02 1.856559233960833888e-01 -5.808991132458369844e-01 8.959620385149440480e-01 -2.602271716667801105e-01 3.599081058637804142e-01
3.683610245906199926e-02 -7.780250864000844147e-02 -7.756090261919158513e-01 -6.818868655716194827e-01 -1.849750440256437978e-01 -7.076825104866044658e-01
-3.764466305295366411e-02 5.276268479636106457e-02 -7.704489252929254128e-01 9.615306477431350141e-01 -2.645065810845255161e-01 -7.412882039829418734e-02
1.377171457516698956e-02 -1.111954641254136039e-01 -6.502669291706857368e-01 4.247338337845464329e-01 4.489935324830375274e-01 -7.861335625878623778e-01
4.534457214252731599e-02 -1.035699397298499580e-01 -6.944963996758978242e-01 -9.499141736076065490e-01 2.365118922061383230e-03 -3.125019503808931232e-01
2.005518375821625093e-02 1.095462953739972517e-01 -6.803316050675810578e-01 -9.439236052743465999e-01 -3.277421329029260866e-01 3.991643428614845279e-02
1.446796502194275073e-02 -5.053915286782992289e-02 -6.222579677832532630e-01 -3.605916596795732260e-02 1.910175492215409054e-01 -9.809240706798316722e-01
-2.413495000665959525e-02 -7.474790952763524232e-02 -7.710072867558208642e-01 9.372857987789205980e-01 2.292252945522071095e-01 -2.625854065724422259e-01
-3.434938181686029990e-02 -3.080177096977341350e-02 -8.429745275291918860e-01 9.666837141090057761e-01 -1.940391839027687804e-01 1.669472730737629751e-01
-3.230123535511836980e-02 2.324227423151935257e-02 -7.717639292502649351e-01 9.753481802431811509e-01 1.927092960562349078e-01 -1.075130434404374391e-01
2.411289221115242229e-02 6.040458692944138813e-02 -7.181617992432930420e-01 -6.288367966618143567e-01 -3.225197014768515502e-01 7.074922793383618957e-01
-1.258644807125366971e-02 7.391868596184521245e-03 -6.565479582563245042e-01 9.170849458516646679e-01 -8.980289249224703008e-02 -3.884464475217597745e-01
-3.484804143266643367e-02 -4.531971930091369116e-02 -8.445313532670736256e-01 9.715448434347578877e-01 2.068785812103683674e-01 -1.153337324104145301e-01
2.087174442417483525e-02 9.329197132054188601e-02 -6.991482312620503903e-01 -6.857014527891061029e-01 -4.501979240659580439e-01 5.719574694062586895e-01
-6.822312688595324505e-03 -2.129916044689654786e-01 -7.602315601779644494e-01 5.956905668196413872e-01 3.827037398634684506e-01 -7.061802858311813091e-01
-2.352913526985792123e-03 -2.307330958563572343e-01 -7.926240289431675246e-01 1.259875866488555374e-01 9.149416566503936199e-01 -3.834173873681659961e-01
4.531492472467832378e-02 -1.449583111871219909e-01 -7.252693305923427758e-01 -9.479478990967551422e-01 2.220799643589178585e-01 2.282000657940090049e-01
3.936215243437313216e-02 -1.067080583171233499e-01 -7.983905176367075418e-01 -9.339481343247092449e-01 -1.035715907373846445e-01 3.420728109387280447e-01
2.897426190044549580e-04 -7.178890547483844642e-02 -6.561703593469013773e-01 9.257045186014816185e-01 1.790354582626560997e-01 -3.331928104348591546e-01
1.462591739052086304e-03 -1.274231679413033447e-01 -6.918995059368683309e-01 9.835550362594741580e-01 1.519121713624367043e-01 -9.768409717335972686e-02
2.928571114002617715e-02 -1.393229104505264992e-01 -8.224023384578921236e-01 -9.096376210792498362e-01 2.569501051128617597e-01 3.263985934402481304e-01
1.675631095629082773e-02 8.273135242765262964e-02 -7.094380800244901586e-01 -4.526789286448844041e-01 -5.503251918532611198e-01 7.015867521358931658e-01
7.372891538004369694e-03 -5.327304334389946876e-03 -8.324543247391412715e-01 -7.350914330615387904e-01 -2.329320184055496956e-01 6.366971492327023752e-01
1.483371093348896143e-02 7.289625732802927638e-02 -6.610105420131420217e-01 -7.795728874199453484e-01 -5.480999131917146938e-01 -3.030719359474975394e-01
-2.490737108429999166e-02 1.169075812801064623e-01 -6.798587143939802679e-01 8.795368739315196915e-01 -1.734551628689648684e-01 4.430893745835833286e-01
4.901669406156319159e-02 -4.995661452741189529e-02 -6.860620283210574488e-01 -9.888056879240029184e-01 -6.416137139306342385e-02 1.347094278441592630e-01
-3.658435388506856012e-02 3.857593802348122797e-02 -7.726601522377574138e-01 9.399798088385832306e-01 3.166349438289517981e-01 -1.272016954376671283e-01
1.393325199339363364e-02 -4.822288389060044866e-02 -6.217872592513585817e-01 -3.605916596795732260e-02 1.910175492215409054e-01 -9.809240706798316722e-01
3.582370544980822274e-02 -5.420330279367235882e-02 -7.640577569750448550e-01 -6.056802142408634904e-01 3.125923616171860653e-01 -7.317359452259620811e-01
1.930343947336280765e-03 -5.110602884115922340e-02 -8.507408294502454282e-01 -7.061712114998935919e-01 -2.570338738814019752e-01 6.597391967484512731e-01
4.203490792380197572e-02 -9.409193180633514120e-02 -7.666330079552733379e-01 -8.490668303484285584e-01 -3.585321623795032497e-01 3.879951109763504213e-01
-2.186956825379119534e-02 1.014065994583453062e-01 -7.467119338721512900e-01 5.157576847793737818e-01 -8.567321971601665753e-01 1.988200224728815715e-03
-8.066119423866494054e-03 -4.429602227492929201e-02 -6.750328150402554739e-01 9.816751726286830904e-01 6.330044692090040781e-02 -1.797412275023723138e-01
4.458235885458298325e-02 -1.365459700425894762e-01 -7.778033394650842869e-01 -9.547274196672980162e-01 1.594767994860496474e-02 2.970542469645565675e-01
-2.393410431015248474e-02 -2.487826704024623942e-02 -7.288041737212012094e-01 9.920655851876624132e-01 1.192206894591321675e-01 3.990365761618786672e-02
4.051090616827054958e-02 -8.170171721458581449e-02 -7.544242463146270117e-01 -4.566140087277944515e-01 2.304540551647133728e-01 8.592988860063026646e-01
-3.104502561754119219e-02 4.265270190840438763e-02 -7.296972594293528180e-01 9.558064070026677239e-01 2.668008634997424133e-01 -1.234966054936027235e-01
-7.973624115126724463e-03 -9.849690006932732000e-02 -8.681512035537747307e-01 -5.102709473133079099e-01 -5.041499326625216437e-02 8.585347335908682931e-01
2.243802005238927384e-03 -1.166136708601076682e-01 -6.665943979732676938e-01 7.987993474502154134e-01 1.898051468684673893e-01 -5.708709212557159240e-01
4.160154478061674904e-02 -1.075214647738008816e-01 -7.482274679159207631e-01 -9.625314678579021122e-01 -3.291016905982229596e-02 -2.691655515770294826e-01
-2.780315120524108966e-02 3.168760103382937954e-02 -6.988103884993290826e-01 8.811416099311735195e-01 2.937376739100224787e-01 -3.705504583370923255e-01
-2.152572384205640038e-02 -1.650656085489771510e-02 -7.133564921981638829e-01 8.701587207240549793e-01 2.406108705714426199e-01 -4.300351261359106614e-01
-4.220407659183082749e-02 1.836941276879479890e-01 -6.180803820796196835e-01 7.150057201272358443e-01 -5.556148820717002890e-01 4.243335044582075000e-01
3.367384671796605500e-02 -5.868098153607425455e-02 -7.641303745078648069e-01 -7.098268457383741792e-01 3.499433666870774839e-01 -6.112981998835135267e-01
2.180129762647154204e-02 -1.793924622385707213e-01 -8.342673092609234065e-01 -9.368218217353505572e-01 -8.895122491251616914e-02 3.383083710271181932e-01
3.272167376704617631e-02 -9.302347593953169680e-02 -8.080172018935146694e-01 -7.910455437335074391e-01 -3.184737800934918650e-01 5.223230792644737441e-01
3.996750980777622614e-02 -1.595799941424091428e-01 -7.132144676878388045e-01 -9.157756736848080559e-01 3.224166288744327313e-01 -2.395880483504604919e-01
-3.648325877289915892e-02 1.627603902948621672e-01 -6.481037231823277844e-01 7.907897923390677652e-01 -3.890419912181848905e-01 4.725440015504630553e-01
-3.852724068039364153e-02 4.202754286546104417e-02 -8.038643401128625632e-01 9.646178386237571623e-01 -1.737471608349496766e-01 1.983036800229016350e-01
-3.856957658911350229e-02 3.902807201550900079e-02 -8.045638640667766017e-01 9.899517487312572417e-01 7.896450939658553048e-02 1.173036292690151361e-01
-1.208514094129461286e-02 7.514158247342479779e-03 -8.432430604178234868e-01 -3.736285744244068341e-01 -3.404934430955060543e-01 8.628243758625231408e-01
3.956989729817834978e-02 -1.015948490950046267e-02 -6.419422555348583970e-01 -9.798229259783706180e-01 -4.714331239133544987e-02 -1.942280665196402523e-01
3.459156856182857981e-02 -5.482715117150151196e-02 -7.970955299205275679e-01 -8.848104521981354775e-01 -1.801732562647064273e-01 4.297069482890677472e-01
-2.516868417253177725e-02 8.946637199355211845e-02 -7.302257840429355884e-01 9.654202208570187294e-01 -2.004227226186620359e-01 -1.667169140144702522e-01
4.023811539697139117e-02 -8.433419979923843790e-02 -7.538216586565833488e-01 -5.244330295176850010e-01 2.739183284617288106e-01 8.061877863647124443e-01
-3.081942795149035866e-02 -3.038141675149959656e-02 -8.062133912955253834e-01 9.432229572722812261e-01 2.334953659704643303e-01 -2.362421785897922677e-01
-7.494005974742447979e-03 -1.112917094327964540e-01 -7.312518256710894837e-01 9.939033130297706409e-01 9.844409361481674947e-02 4.964841166445282256e-02
6.975938220157206805e-03 5.391061938959874900e-02 -7.867396922364808809e-01 -9.284543117249072219e-01 3.460642093965352051e-01 1.349524138879318880e-01
-5.816891876407834228e-02 1.721193453846684152e-01 -5.637212013031381863e-01 6.878799324581812424e-01 7.130720054788854956e-01 1.354603762125597965e-01
8.889124614302612234e-03 -2.305557706726393263e-01 -8.187301144811024445e-01 -6.441589994690021248e-01 7.520017651829254968e-01 1.398303563782138104e-01
-2.164384394149962074e-02 -1.333124109307878280e-01 -7.832621991706064657e-01 9.812965518344788363e-01 -1.712687386774843501e-01 8.788683922855605735e-02
3.528625628319748131e-02 -1.129261712656864231e-01 -6.807238012802244720e-01 -7.289274858686598524e-01 -1.558809908320939880e-02 -6.844134214874564304e-01
3.764090337626131710e-02 -4.574944495429311697e-02 -7.108163530311808476e-01 -6.738815713647490213e-01 -5.423369839196870990e-01 -5.017511570966965984e-01
1.741294044809878205e-02 -1.347835023077662876e-02 -7.912682134750781415e-01 -5.363410169585534071e-01 -7.388746602912314998e-01 4.079246865628285978e-01
3.106836272320548029e-02 4.519689854999097561e-02 -7.186674200263425405e-01 -7.411151102137198965e-01 -3.010242807961606148e-01 6.001106362863934951e-01
-2.148577150058755391e-03 -1.368117913619168180e-01 -7.140972442601499770e-01 9.559636603565743185e-01 3.478597772982383596e-02 -2.914162243785345940e-01
-7.188208050116139287e-03 -1.383100176215684707e-01 -8.671824646033143846e-01 -4.111488806416934150e-01 -1.434706721644714474e-02 9.114552976473224710e-01
4.110523154608423241e-02 -2.694812802011126510e-02 -6.625515931913286138e-01 -9.502316059004587423e-01 -2.006491187613892169e-01 -2.383271413165385932e-01
-4.468548727495879648e-03 -1.556015722515199651e-01 -7.272372615952320540e-01 9.679150155598620353e-01 1.098264042746815161e-01 2.260059370411459378e-01
3.800202629890299388e-02 -6.300860399655353050e-02 -6.939658240510153675e-01 -9.529915094399442621e-01 1.085525269990113284e-01 2.828843081853528729e-01
4.793742269064878853e-02 -5.894178605847123775e-02 -6.707090636699842845e-01 -9.501344937610201047e-01 -4.969728704633072369e-02 -3.078548739677915425e-01
3.502016195013377825e-02 1.872656556756276819e-02 -6.635517309693768073e-01 -9.217250273378655434e-01 -3.053398070220092898e-03 3.878319877720712294e-01
4.057701272523018404e-02 -1.014673303021476347e-01 -7.717732667624388476e-01 -4.990310158627891401e-01 -3.665571329060248740e-01 7.852413091035567172e-01
-3.090856387492463969e-02 -1.161245644853467138e-02 -8.444074475887966003e-01 9.492215772994256895e-01 -1.840585311900032883e-01 2.551486905421409546e-01
-1.653354642589247026e-02 1.649431980871522013e-02 -6.697301081470351525e-01 9.813020233966057715e-01 1.403985051275443707e-01 -1.316609229637960843e-01
3.500262368048773914e-02 -1.246382849383842750e-01 -7.846683909047023064e-01 -7.389744808487316297e-01 -4.274020882607382915e-02 6.723763761494382374e-01
1.519694766185798220e-02 -1.234030880294102184e-01 -6.572972025355152681e-01 1.312084711996556741e-01 5.283333007357678968e-01 -8.388374457659228955e-01
-3.087956781556561517e-02 5.748804793875467167e-02 -7.299700998265085117e-01 9.563953035559835669e-01 -2.639491360827260213e-01 -1.250554952700632660e-01
4.334272118707727106e-02 -2.291331563960241624e-02 -6.850922518712471154e-01 -9.665078478689509422e-01 -2.526887696361027613e-01 -4.484379229639124526e-02
3.216381516646605460e-02 3.833483571960973318e-03 -6.608751040000347965e-01 -6.964434954770374331e-01 2.145759368927252220e-01 6.847799828516709653e-01
-2.874331515621511915e-02 8.768840090035402712e-03 -7.574479059030351236e-01 9.943595260335752473e-01 6.651634536878642256e-02 -8.261179567751787689e-02
3.750612087874224954e-02 -1.263014043315403290e-01 -7.989791366749133816e-01 -7.444574163310239134e-01 5.142418821593017775e-01 -4.258385162276837055e-01
-3.323915211466515335e-02 -5.370469407644118398e-02 -8.432593175807295838e-01 9.907309111486080067e-01 1.174049744272975121e-01 -6.832520526405121142e-02
3.748623340919810670e-02 -5.798535461452566930e-02 -7.920279490692303526e-01 -9.064920852967204290e-01 -1.599369184252379117e-01 3.907585973706046989e-01
1.668526816195066778e-02 -5.395091111226765768e-02 -8.298497542920481029e-01 -8.733715522516196650e-01 -1.398659366721539676e-01 4.665400856051035716e-01
-2.640516604454638122e-02 -2.019288854568918878e-01 -8.462518044561340158e-01 9.655591213801620887e-01 -5.570017785605238525e-02 2.541516738217035609e-01
-2.483072861200296896e-02 1.888777744314762697e-01 -6.179457329977381397e-01 -1.129068967015691566e-01 -9.005132072857787717e-01 4.199142724189087739e-01
2.791546615405169490e-02 2.803588847166490344e-02 -6.774325250068423676e-01 -7.284465885785037509e-01 4.100475265489082477e-01 5.488411369052637045e-01
2.122571037919720668e-02 -1.261382574512646959e-01 -8.372713198345336227e-01 -8.377956815686606884e-01 -7.081128585161387823e-02 5.413724759728226754e-01
-2.882400870439884993e-02 1.425562924239453522e-01 -6.684338367814199877e-01 7.078470216225010159e-01 -1.023390371348985445e-01 6.989129527047389656e-01
-1.871335786535218218e-02 -2.115525248072348818e-01 -7.935230142141801446e-01 8.769390690775555885e-01 2.415810319611144397e-01 -4.154713878499856627e-01
-2.614863615722655410e-02 6.655979915770977515e-03 -7.108613410344015726e-01 9.360573739310373842e-01 1.724405681808837687e-01 -3.066934025289489996e-01
-4.112368181625250356e-03 -1.678718792730441722e-01 -7.591712405769126537e-01 9.474600049978662009e-01 -1.445518007275774057e-02 -3.195474717448217317e-01
4.210134641726992477e-02 -7.052973175759631730e-02 -6.573280529839093944e-01 -9.010268828965553034e-01 1.035334226315468842e-01 -4.212260517773261936e-01
2.987713720958570796e-02 2.213590219836386944e-02 -6.988250390231766085e-01 -9.181851340388359484e-01 -3.576759201170203184e-01 1.703055953236058684e-01
2.333190608263404839e-02 -1.667652641070676567e-01 -8.259203154896318511e-01 -7.229517334106093651e-01 -3.331328272445656657e-01 6.052795309364406018e-01
1.883919535553099656e-02 -1.108233190476175245e-02 -7.830710110729224294e-01 -7.958001644929414420e-01 -5.514198354903392385e-01 2.502763736768106040e-01
-2.036425418423297787e-02 1.863563662024078360e-01 -6.217127619409056338e-01 -1.809334357884066213e-01 -8.905063810228280863e-01 4.174463764023209622e-01
-7.231519346661436374e-04 -5.393187998350226775e-02 -6.393125952617231267e-01 9.295046862599172233e-01 3.446555505747215808e-01 -1.312767674757730763e-01
-1.419893276965697101e-03 -8.400406934036808160e-02 -8.619238651081088110e-01 -6.719905530082146417e-01 -8.568506916348594959e-02 7.355860014914383793e-01
1.594474996203071662e-02 -1.415943402484711455e-01 -8.464732158920378335e-01 -8.215331950092049640e-01 -2.234737692939832085e-02 5.697225677839549141e-01
4.186718476202026112e-02 -6.913352984558721048e-02 -6.994760339800589755e-01 -7.475766263333568640e-01 -3.062095957746402419e-01 -5.893766802441102737e-01
2.602740669219100189e-02 -9.804588752396244111e-02 -8.209869559396527627e-01 -7.988009877308718254e-01 -3.175093909321272667e-01 5.109841178256847583e-01
3.010653622807281035e-02 2.731080720987569266e-02 -6.406299755015707476e-01 -8.767601090397776353e-01 -2.799952240771694800e-01 -3.910171168766566341e-01
-1.928871102411723604e-03 -9.762422807977487460e-02 -6.674895063069132828e-01 8.565514819602907393e-01 9.943149512081679575e-02 -5.063920778701704872e-01
-3.320953009746586970e-02 -4.432498857842828016e-02 -8.301575472583462290e-01 9.724342596531980742e-01 1.750092915918874947e-01 -1.540888007262116444e-01
8.255100462819919133e-03 5.604753347217059783e-02 -7.835520544764529305e-01 -8.900188323062102613e-01 4.375334489558716511e-01 1.281833030666232331e-01
-1.386337174429668959e-02 -1.987223353632675549e-01 -7.670135617135134254e-01 7.912032541367720606e-01 -1.044256001612583473e-01 -6.025717423463728961e-01
2.416908262610237626e-02 8.673206118002554921e-02 -7.002859994621739581e-01 -7.515236608842844612e-01 -4.420940439117159726e-01 4.896580883319183730e-01
1.745476878927250050e-02 -1.832737852186515637e-01 -7.088398224108052315e-01 -9.741174897202979632e-02 8.185513261218120284e-01 -5.661136614377305643e-01
-1.913698405027959570e-02 -1.832206076495237479e-01 -7.850557975422951529e-01 9.280403111833619434e-01 -2.766958367627410376e-02 -3.714506359637443911e-01
-8.061246437414125096e-03 -6.082637075971516344e-02 -8.630551379502396925e-01 -5.386188124251837239e-01 -2.409386073185565413e-01 8.073650738080506706e-01
5.035409024516733500e-02 -1.009937162362374158e-01 -7.345552719892678439e-01 -9.989856967512755759e-01 3.888734969693630888e-02 -2.270135942882432756e-02
-3.716631962885659415e-03 -1.600029503442216283e-01 -7.187826967997660299e-01 9.095239286609396734e-01 7.540976778901481437e-02 -4.087537034880257547e-01
4.025734038789872266e-02 -9.904130792702724173e-02 -7.708207726634878076e-01 -4.823345027675887131e-01 -3.830209744996859733e-01 7.878123891722279559e-01
-2.002442055643495825e-02 -1.188793767416851804e-01 -7.738959553105037026e-01 9.928277507087412967e-01 -1.189354135592060741e-01 1.214186246514480788e-02
3.874658981428942550e-02 -6.084824016641277727e-02 -7.711986736222894434e-01 -8.064698336506365139e-01 4.102420852823552844e-01 -4.258025820432511099e-01
2.958055436767939583e-02 -1.380275943332566202e-01 -8.078073636961093928e-01 -4.065938097975481669e-01 8.427917693939916965e-01 -3.526804605816150628e-01
-3.759125421943197709e-02 1.622715439318341002e-01 -5.709935186713003263e-01 6.463644615047066389e-02 9.874290105067216050e-01 -1.442431247538476513e-01
-6.323669617033235782e-03 -2.176477617300748291e-01 -7.643768299414005485e-01 3.930225592476997987e-01 8.121310317975759530e-01 -4.312498754942347134e-01
5.035701578570020084e-03 -9.326034663692216176e-02 -6.538388778737515006e-01 8.860240742948489734e-01 1.421424580283117411e-01 -4.413126571894644412e-01
4.703475623712288084e-02 -1.220870759659018895e-01 -7.064608395473918057e-01 -9.755670361071430152e-01 1.199709140002165886e-01 -1.840541709798418635e-01
3.182840763451518645e-02 -1.361867123645358058e-01 -8.177587925327289842e-01 -9.088666805541055771e-01 1.721238907027121678e-01 3.799140998014186033e-01
1.319866567196221465e-03 -1.999872178077043150e-01 -7.432726859904318362e-01 8.697340810260769661e-01 2.578577351171522647e-01 -4.207992594361094074e-01
4.224188548761518419e-02 -4.065655824986402767e-02 -7.306751730281177970e-01 -9.070640232467589437e-01 -4.194710236955748739e-01 -3.576196318981493538e-02
4.331264218987702225e-02 -1.364816449858444747e-01 -7.015540911385330647e-01 -9.417742644304293309e-01 2.098468827692987204e-01 -2.627270839645810541e-01
-3.557274895802773479e-02 2.674729846160946167e-02 -8.019063309667222583e-01 9.732090548856769940e-01 2.292142538457932199e-01 1.802668362300052438e-02
9.909080029982041821e-03 1.428420217166766759e-01 -6.623170537715508122e-01 -9.048314942111507220e-01 -3.922754688958318137e-01 1.655292227558986251e-01
-6.470666580813146627e-03 -6.477120157009082224e-02 -6.923620416768753172e-01 9.546803516916355647e-01 2.691409984603997385e-01 1.270769414239823480e-01
-4.233133396261841430e-02 1.700105546382631727e-01 -5.350326513271708162e-01 -2.975702410242708207e-01 8.874456368386329785e-01 -3.519832287380048053e-01
-2.133953867522288619e-02 -4.277003713606269270e-02 -7.475961285640392306e-01 9.986340844920187365e-01 4.606540450423861344e-02 2.465651635265526942e-02
2.763445492646594837e-02 3.633442572161810213e-02 -6.847495135229854091e-01 -8.850531995265519258e-01 3.333127471477332904e-01 3.249360653984790237e-01
-2.005569535137508973e-03 -5.785976842282832683e-02 -6.537465570069525000e-01 9.445880639041361881e-01 2.500232975860322004e-01 -2.127010582814340411e-01
4.329676332747177392e-02 -2.721143785229707818e-02 -6.973180212194080019e-01 -9.633462280967963753e-01 -2.078998379759409987e-01 1.695337788797639522e-01
8.383133686929467379e-03 1.511899530661732494e-01 -6.502614833141805439e-01 -9.232694223001138845e-01 -3.724841362889054208e-01 9.396351450814476036e-02
-5.038634813616732488e-02 1.802775471119597850e-01 -5.203005304194457947e-01 1.663929997817284803e-02 3.043359310827236652e-01 -9.524194321559423804e-01
2.907666763609169369e-02 -1.702153111998946644e-01 -7.907680562901125976e-01 -8.623675140852878895e-01 -3.452610241250526069e-01 -3.702932565825101663e-01
2.507070614292563129e-02 -4.462857235791169164e-02 -8.105059557758339528e-01 -8.707670714300851378e-01 -1.710835509179050584e-01 4.609719361505575930e-01
-2.723886862782246704e-02 -1.499645700403968995e-01 -8.529784908466583326e-01 9.884605172084974800e-01 -1.514527544735757292e-01 -2.805188456498641531e-03
4.308691157367353780e-02 -1.602237446802410592e-01 -7.508250535266314252e-01 -9.752341075023055472e-01 2.123245840777035764e-01 -6.194115401259248782e-02
-3.126818315491533551e-02 7.072232956230174727e-02 -7.519283178064020134e-01 9.811049066014304598e-01 -1.175290399355093385e-01 -1.536882787151840346e-01
3.242386653298895329e-03 -5.899384390340619427e-02 -6.318151755990473184e-01 8.598401744937687052e-01 3.318926572096448924e-01 -3.879718268339166776e-01
-2.947614332777362053e-02 -1.838353351268159352e-01 -8.148220613097689746e-01 9.835771004594630051e-01 -1.678886625948287081e-01 6.625318425461169947e-02
7.374036941901771468e-03 -2.300086688082412789e-01 -8.244236900539639867e-01 -6.828896261142831658e-01 5.774794368211715323e-01 4.474139678130278353e-01
-4.642016208675250888e-02 1.656322701060523317e-01 -6.215083258279295864e-01 9.698310748144528537e-01 1.052220945927069412e-01 2.198999707452608254e-01
-8.061404314869615069e-04 7.997303713702280659e-02 -6.537850970443929155e-01 -7.249776922146852765e-02 -5.295652942245836492e-01 -8.451654705504365594e-01
-1.623464332829572046e-02 -8.308106421251912344e-02 -7.459958999379212585e-01 8.674957485644063659e-01 2.857586769607787791e-01 -4.071769943947046166e-01
-1.182547517676509454e-03 -1.373195879788552676e-01 -8.638724563872760553e-01 -5.551602815830396498e-01 -1.046090408085954652e-02 8.316776005390857929e-01
-2.978021745802266612e-02 6.310373844861640047e-02 -6.973347196743062693e-01 9.758005182121136656e-01 -1.748503069943918575e-01 1.313039176907436489e-01
1.252350359737654933e-02 -1.445526683920659444e-02 -6.172661546239708308e-01 -1.336315702562378832e-02 3.097975912734341961e-02 -9.994306782157129643e-01
-4.328665215847656358e-03 -7.464364984907868872e-02 -8.633534573840594417e-01 -6.584035477920838764e-01 -1.212013493740792397e-01 7.428425143761627769e-01
-3.588227726876056650e-02 5.853459942816861827e-02 -7.954047413786138332e-01 9.835239825286499205e-01 -1.430723501582966684e-01 1.105028434528546322e-01
4.840763002794081643e-02 -9.481018661697014627e-02 -7.071015842422396780e-01 -9.819524678174650356e-01 -6.061577104236351606e-03 -1.890307071091878732e-01
2.229428176830023159e-02 4.013122061141757846e-02 -6.362164631766533684e-01 -7.316152689357061645e-01 -3.625538679821060928e-01 -5.773160235705814269e-01
3.361647630796974623e-02 -8.642287616868993272e-02 -8.021698645113035653e-01 -7.558159521774945322e-01 -4.259061625345166857e-01 4.973391067965088896e-01
4.860600896353461237e-02 -4.584521222681935126e-02 -6.821166219592309510e-01 -9.844547747963889872e-01 -1.694377415781726237e-01 -4.625633048004953313e-02
3.280335501557532507e-02 -1.799251816556878270e-01 -7.330367728591298260e-01 -6.509052362975302763e-01 2.119169656823871872e-01 -7.289811883830927819e-01
-2.367969495006534350e-02 -2.048494947738944694e-01 -8.521007763779218092e-01 8.079029937749997448e-01 -1.319400016971048611e-02 5.891677783186333173e-01
1.960144593816382647e-02 -1.597697601741708273e-01 -8.240125430561735520e-01 -4.795112234192422940e-01 -7.493553274353931259e-01 4.566569608132303171e-01
-2.460943030732836920e-02 9.184316391487690190e-02 -7.301701601706459543e-01 9.529485791136782513e-01 -2.547485955495303878e-01 -1.642929049921624529e-01
3.742523771872104804e-02 -9.087693854041042907e-02 -7.973146192137161581e-01 -9.299885688636846393e-01 -1.952629178807678834e-01 3.114380430897364938e-01
3.477239497939085128e-02 1.740187794035393323e-02 -6.453836074143879387e-01 -9.259011472143258148e-01 -2.583563268254929213e-01 -2.756067379010070373e-01
1.515670997322766250e-02 7.228834107049619817e-02 -7.437184046839308005e-01 -9.647315696588644185e-01 -2.363277253473093364e-01 1.159405224057169642e-01
-8.386724178338309313e-03 -2.865897092287544509e-02 -6.687692743730309086e-01 9.920688431044201172e-01 9.182472773743599603e-02 -8.583489918094586169e-02
2.557075439308302209e-02 2.811302465537629525e-02 -6.867449335166588842e-01 -9.777457544957109947e-01 -1.119761067596093118e-01 -1.774107975309669183e-01
-2.773921398742587238e-02 1.645115640979068206e-02 -7.106077215199376740e-01 9.703052645625107608e-01 1.518845793244512077e-01 -1.882518741625454628e-01
-3.547882823894572824e-02 2.654739869719369844e-02 -7.996254047272951526e-01 9.628282192873173218e-01 2.671699239084229238e-01 -3.977501606261663047e-02
-7.025224787939102038e-03 1.249845718194166622e-01 -6.411147692630658756e-01 -8.972747279306909907e-02 6.258979882710717924e-01 -7.747262025415135867e-01
-8.351088394215739480e-03 -3.139525350734517078e-02 -6.709034430605089749e-01 9.900191643032577593e-01 7.638299158707104186e-02 -1.184385617461160972e-01
-6.604944602999134051e-02 1.945127737668085888e-01 -5.490180378034500430e-01 7.509715852239080558e-01 -5.944686520570180432e-01 2.874868691050129765e-01
-2.326905766837903539e-02 -8.544489510696293144e-02 -7.807868384903264847e-01 9.305115901352523089e-01 3.031609567827057705e-01 -2.055276499806258095e-01
3.901910657090264245e-02 -5.948696330368972995e-02 -6.493666761870269255e-01 -8.813471811977501291e-01 2.508928032486703805e-02 -4.718025796957458495e-01
-1.752246586444872190e-02 1.065027947989443530e-01 -6.983935265981244811e-01 6.192162480947206449e-01 -6.964569428842439791e-01 3.626554353705873646e-01
3.137079467607964411e-02 4.029857854323128791e-02 -6.998527119428504806e-01 -8.472165352534757332e-01 2.067435853956767766e-01 -4.893681970570184503e-01
-1.967542426312760689e-02 -1.323367639627250902e-01 -8.019931293920888882e-01 9.921869797338950248e-01 -1.227560717154091985e-01 -2.226980250323148600e-02
-2.794906299723246348e-02 -6.327342364177000744e-02 -8.055823527607587353e-01 9.845933697773699977e-01 6.412998675023776941e-03 -1.747420087970764924e-01
-4.968034371230280882e-02 2.055654569274778520e-01 -5.435700021057189302e-01 7.592450417736756885e-02 -9.943029482174157163e-01 7.481388127597458915e-02
-6.223653151000133055e-02 1.908616239431144002e-01 -5.235419578213399427e-01 6.308788479890646839e-01 -1.769045706616514391e-01 -7.554446717258699318e-01
-1.573341639163223366e-02 -9.053441195702024644e-03 -6.968955646310753815e-01 9.344859659492341653e-01 1.706422446807840665e-01 -3.124375197927265480e-01
-3.239266938490902026e-02 7.507417900268995026e-02 -7.629850847079868714e-01 9.887463601270630731e-01 -9.661150594336792574e-02 -1.142228184507753791e-01
9.585874757313666075e-03 8.375645065998695016e-02 -7.524375456131837669e-01 -8.768621501266051776e-01 -4.491339891663870265e-01 1.714392879442601658e-01
4.340125027548658726e-02 -2.832381318789397098e-02 -6.725334577310013717e-01 -9.643086066561904479e-01 -2.120077768400082663e-01 -1.586241270682180182e-01
-2.166461589183042713e-02 -1.700308694382133279e-01 -8.653996261171875704e-01 2.589524720227217025e-01 2.806751501922244429e-01 9.242105156823815504e-01
-4.440287336088177134e-02 2.042297141878836875e-01 -5.337846851798072612e-01 -3.001135423724890505e-01 -9.181926009250958032e-01 -2.585618094209657380e-01
-4.589158935935890027e-02 1.623614038246952718e-01 -6.094407945188036191e-01 8.665768900039394484e-01 4.979312042194807830e-01 3.330179538159771385e-02
3.185367785663049522e-03 1.450624454602471129e-02 -8.288282551642021101e-01 -7.134497526995952077e-01 -2.690172895311524481e-01 6.470078425384028220e-01
4.852559460547499481e-02 -7.356798476115680718e-02 -7.398429162937320003e-01 -9.909206989707958213e-01 -8.422327300738757794e-02 1.047979419413982705e-01
-2.466354898550538258e-03 3.248856504166929698e-02 -6.324790070615261550e-01 8.839303000061715654e-01 -1.037060242371673907e-01 -4.559739962628565624e-01
4.422759100242096980e-02 -5.475289808079895904e-02 -7.128324080040725486e-01 -8.914822866183317318e-01 -3.324478179317715276e-01 -3.077950308210878338e-01
1.973408684999249790e-02 1.932546912442467679e-02 -6.244115158609004901e-01 -5.150899655270280153e-01 -2.653030534334084867e-01 -8.150439357803205276e-01
2.118176827324290065e-02 -6.819033162607561482e-02 -6.299122545259077111e-01 -6.377899289182568099e-01 2.520565601663836142e-01 -7.277990773884885911e-01
4.268999025187906332e-02 -9.378249188474788167e-02 -6.913634026010284650e-01 -7.689273425991509647e-01 -1.233633776456007636e-01 -6.273214637323331067e-01
3.869432561599182169e-02 -1.508647865263695598e-01 -7.325006628093259087e-01 -8.442303945602291915e-01 1.595775041886987045e-01 5.116737838287063189e-01
-3.576510502789263107e-03 -9.886135900461742732e-02 -6.708184584390896044e-01 9.002820819691380594e-01 9.625273152814206590e-02 -4.245321949613313217e-01
-2.357404615287258046e-02 -3.121456130637582926e-02 -7.599521852658932541e-01 9.771833738515165457e-01 1.977338424768530778e-01 -7.754986400701321947e-02
3.317699997590445316e-02 -1.935183366400839919e-02 -7.654368150449172292e-01 -8.397920780858417755e-01 -5.383232363632903805e-01 7.040851351659423163e-02
8.642210123297080007e-03 -2.091916683660173873e-02 -8.153453316278972407e-01 -5.639299870495231293e-01 -6.524225790176730877e-01 5.062882065526046471e-01
-3.481276120004801744e-02 1.659780905955297037e-01 -5.563663392795815676e-01 -3.613729586813003158e-01 8.921288749869578094e-01 -2.711377051397098614e-01
-2.674762251755947659e-02 -2.292572159215260363e-01 -8.182830926105019165e-01 8.552053819995697470e-01 2.678448854506542132e-01 -4.437148543117483968e-01
4.326143212947795164e-02 -1.503226143903253764e-01 -7.777776128301050473e-01 -9.327141881502325482e-01 1.594301312492586165e-01 3.234598529541137246e-01
3.646332897563884373e-02 -1.306093156169956526e-01 -8.044154371043064078e-01 -8.775352562713156779e-01 4.707825846287601035e-01 -9.108036018319587424e-02
-1.920130391604326150e-02 -9.802137034056221387e-02 -7.647709701230895885e-01 9.997766847905379395e-01 1.448591307873016085e-03 2.108274489872116395e-02
4.924482484011141054e-02 -9.107029936701915851e-02 -7.146374203908186784e-01 -9.963804007417372821e-01 -7.883551621435074333e-03 -8.464010061175050725e-02
-3.079419814961795177e-02 -1.624259102432404900e-01 -8.528388588916006041e-01 9.118605384476039522e-01 -3.479184879606967984e-01 2.178602399640383047e-01
-3.810318922204911866e-03 -7.652891299391589852e-02 -6.942412663188209931e-01 9.871162340803847357e-01 1.426473345116588687e-01 7.247950311417944436e-02
1.697075805244289970e-02 6.843133138552888461e-02 -7.361015998902274982e-01 -9.767305759828922573e-01 -1.747113801052705695e-01 1.243917826941913218e-01
3.447029301331890061e-02 -1.280150329746067555e-03 -7.230910906940082317e-01 -6.894025297972763422e-01 3.212249498030320671e-01 -6.492601046831347755e-01
3.124817706032068099e-02 3.469346052753190246e-02 -6.736339786708654964e-01 -9.770341483009216121e-01 -7.746147173953558951e-02 1.985043915127267800e-01
-3.024367652094657466e-02 4.480014654486522141e-02 -7.163809316760195722e-01 9.927896139809758713e-01 1.081708377807237970e-01 -5.165125579617215607e-02
3.297487033517981780e-02 -8.924978769537100787e-03 -7.259314909401206606e-01 -6.914490729964550830e-01 3.859198374334290582e-01 -6.107078340153323515e-01
7.464626309272972930e-03 -1.183656780485115856e-01 -6.601726994145430405e-01 7.276995413579810945e-01 2.936753433455190354e-01 -6.198452792578770243e-01
