-8.716882578439866334e-04 -8.400795862817295179e-02 -8.217258399898716981e-01 9.694349530400268034e-01 1.038652632071296600e-01 2.222788314779314822e-01
-4.915609242790967143e-02 -1.270574825461181778e-01 -6.838659445230516054e-01 4.598700448994386680e-01 5.080088808418854462e-01 -7.283175947277146234e-01
-9.019841415417576003e-03 -8.069628693550094656e-02 -7.971174356396656391e-01 9.455349914637461994e-01 1.582583817848718516e-02 3.251355452170706650e-01
-1.817072289017265113e-02 1.788185431714992002e-01 -6.660249453009060572e-01 -4.248096205723232432e-01 -7.589532923388625507e-01 4.934842310724829595e-01
-3.199923133217350696e-02 -2.009769910221380698e-02 -7.126540312081606210e-01 9.176123371790229077e-01 -2.098846428501262018e-01 3.375441235639072279e-01
-6.085590355881481672e-02 1.952487753052489228e-01 -6.403164352594785669e-01 5.963137564679978908e-01 -3.495055537619886077e-01 7.226726587719719541e-01
-3.793264768930489778e-02 3.655596517290842645e-02 -6.658815632537208318e-01 9.264644039226256345e-01 -2.768472519789698660e-01 2.549888376693906777e-01
4.768926710610565251e-02 2.602211090263388191e-02 -7.488080340058673734e-01 -8.871215326123921274e-01 -7.468912197300911493e-02 -4.554524359736605299e-01
4.128726621281455372e-02 -7.317763277343239392e-02 -7.589939454568284116e-01 -1.327271214862467130e-01 6.380213441511215500e-01 -7.584934249085955038e-01
5.030502242286225001e-02 -1.230927002903368928e-01 -8.242767959121937160e-01 -9.927822443823487442e-01 1.198466359154654604e-01 -4.494340762802812549e-03
-7.989757584807525431e-03 8.919664258787074473e-02 -7.206882423324987297e-01 6.785484775782694156e-01 -4.139641675447254809e-01 6.067994986527389667e-01
-3.546820673708608873e-03 -3.867193732389104244e-02 -7.865979640384138660e-01 8.773764786786896197e-01 -1.960592079041797720e-01 4.379170031608369262e-01
-5.320518002070453827e-03 8.778289444597274505e-02 -7.251902121121698297e-01 7.229604587324783838e-01 -4.451411929802362999e-01 5.283724949516738212e-01
-5.574323612552711110e-02 -1.257397945472633338e-01 -6.967180302829387717e-01 9.925901641183136892e-01 5.644197708351240267e-02 -1.076060840216907233e-01
5.190370079498879408e-02 -9.688186988160939206e-02 -8.612986044727571899e-01 -9.414374761932050584e-01 1.345258422164439249e-01 3.091897090702158124e-01
2.636674265605763040e-02 -5.249409136772167916e-02 -8.586108957295761623e-01 8.548768162378581614e-01 -1.478478735897653662e-01 4.973194499856283257e-01
4.332388742637003493e-02 8.565173215949749286e-02 -7.453221527582364336e-01 -8.649795097825596635e-01 -3.832573688354118380e-01 -3.239201088072179435e-01
-7.528195595200010137e-02 2.027923213771824773e-01 -5.757367515450846351e-01 -5.017992847193961659e-01 4.181366820490218378e-02 -8.639728554800507609e-01
3.232564581306025808e-02 -1.922225785980129498e-01 -8.314112677523277650e-01 -8.802796261405436695e-01 4.057439416557692136e-01 -2.459260734682368887e-01
-3.027606693046118458e-02 -2.307824892196580144e-02 -7.220329550371841210e-01 9.406753639756937346e-01 -2.610323462113185999e-01 2.167763221401502183e-01
5.624648886651109625e-02 -8.646581435594948017e-02 -8.375717049696010941e-01 -9.875511148095886815e-01 1.572101467867346447e-01 5.269287013597571956e-03
3.972296731616643123e-02 -1.633919903777502139e-02 -7.276718967694491003e-01 -9.354171895068924547e-01 -1.606813669844834036e-01 3.149224982103119297e-01
-8.364024511519860608e-03 2.870471204810305307e-02 -6.475713187293415940e-01 -5.891186100002318016e-01 -9.908628190888824072e-02 -8.019483599888879155e-01
-2.416705910772819904e-02 1.665883994067988982e-01 -6.792775168299989286e-01 2.934463355213564051e-01 -5.191074345325851214e-01 8.027557035500186844e-01
-3.337601412600899042e-02 -1.650639513344504261e-01 -7.613588539393523202e-01 7.900460986840462940e-01 -1.493304510155446518e-01 5.945818516853774716e-01
-1.818803914484329320e-02 -2.265831135655944906e-01 -8.676344986708762752e-01 5.976329523387554632e-01 -1.591954168457460350e-01 7.858063842538900445e-01
1.392052579552457807e-02 4.840386829610226344e-02 -6.791235134768240922e-01 -8.401338984030634061e-01 -5.803799225620893260e-02 -5.392648924312980485e-01
8.476655484618495981e-03 1.012982249070162044e-01 -6.663148046292094451e-01 -1.640948692879536652e-01 3.426788486663415179e-01 -9.250103137533549624e-01
1.829363188727295810e-03 4.843180290996304538e-02 -6.611608024641950632e-01 -7.427410176868756153e-01 -1.792691268715582431e-01 -6.451343742168553774e-01
1.049024563295298390e-03 -2.282332177801551509e-01 -8.460316510173209181e-01 -8.297014115656092814e-01 4.585813734874737424e-01 3.182745537054092466e-01
-6.141500595463533080e-02 2.156198479764200870e-01 -6.043324227085529188e-01 -3.703558945620306075e-01 -9.280679968585850981e-01 -3.906794811672947149e-02
3.439242189152227902e-02 -1.298252979346440350e-01 -7.802794840892786077e-01 -6.051489972436173703e-01 5.458186086835583595e-01 -5.795487361299211937e-01
3.394730639222846846e-02 -1.774726604860344947e-01 -8.302323959284599875e-01 -9.776884695430456684e-01 -1.528728522683112934e-01 -1.440664692491919197e-01
-3.786813537853291750e-02 -1.670808182590120539e-01 -7.558340008263428889e-01 7.736841379634270544e-01 -1.087703172421792402e-01 6.241649403409524899e-01
2.750440616000567658e-03 1.261736996684973029e-02 -6.605165514265526339e-01 -9.019743239938680102e-01 1.356134183164649232e-01 -4.099406293944629631e-01
5.873301783065712489e-02 -8.949232434153631122e-03 -8.431707938036374639e-01 -8.665425809121999334e-01 -1.549214549793147266e-01 4.744505224500398244e-01
5.879020465402267498e-02 3.042991303620310936e-02 -7.736484812479659245e-01 -8.870966198295774374e-01 -3.339529531564701670e-01 -3.186455902174246124e-01
-2.725074899731693562e-02 -1.899759707342541515e-01 -7.417838342744516034e-01 -2.234110256446646403e-01 8.946164504576232801e-01 -3.869740562247057647e-01
-8.596798388109594055e-03 -1.463252952077378488e-01 -8.346843266887575830e-01 8.177386220813822604e-01 -4.352746970475903643e-01 3.766158308762007634e-01
-4.891506323474249796e-02 1.728322396003798000e-01 -6.088484052207533415e-01 -4.809107612184310154e-02 8.252819841672947021e-01 -5.626694367089224436e-01
-3.615285537807796934e-02 2.197043856746590479e-04 -6.958162591250838247e-01 8.830003650286532002e-01 -1.051884870874920663e-01 4.574338613870969628e-01
5.797464911295013845e-02 4.390533374147517504e-04 -7.708595523877727063e-01 -9.165269177776337317e-01 6.743392971419324977e-02 -3.942474782574161285e-01
-1.165015461960381337e-03 -1.079841087043633824e-01 -8.196537088244960634e-01 9.299248661919022885e-01 -1.021956571145780091e-01 3.532644772757264073e-01
3.152365266892114687e-02 -1.484329127742080867e-01 -7.753145053700748468e-01 -7.761422932755188686e-01 1.182365464639945907e-01 6.193732797508186838e-01
-2.094056076566019539e-02 1.169629526049485724e-01 -6.951036732835627063e-01 7.807613344227302132e-01 -2.289307429324123344e-01 5.813797843155982248e-01
-5.324627919478899102e-02 -5.704353213309931031e-02 -6.736940920768524910e-01 9.446809269955367405e-01 3.984436818931191837e-02 3.255616262621380264e-01
-1.405210740642862111e-02 -1.305213541904557406e-01 -8.124123612008360418e-01 7.014894488681645557e-01 -4.324574902334833992e-01 5.664742467823188354e-01
3.650258032151518228e-02 -2.502156513710031976e-02 -7.241487796559352708e-01 -1.778517463816734756e-01 4.788194162490744255e-01 -8.597096736293508012e-01
5.087456879086640210e-02 -4.772724117090052648e-02 -7.561888383672508152e-01 -9.119544956127008106e-01 -1.913851684470927600e-02 -4.098447451227957838e-01
3.275324519662520077e-03 -1.174735530072424095e-01 -7.017652066469638461e-01 -6.728950681665849531e-01 2.901028219628021820e-01 -6.804796690029066841e-01
2.864732626917987704e-02 5.934202393414813453e-02 -8.123665845835121857e-01 6.728943265904856474e-01 -4.063439136490674675e-01 6.181406385950501958e-01
-4.412366424661255844e-03 1.376011997709566427e-02 -6.501402567561428425e-01 -7.226038898031421631e-01 -7.197247702108073436e-03 -6.912248679459405132e-01
-5.594615206836169724e-02 -1.949369140725857458e-02 -6.596317377580287467e-01 9.687029140334791899e-01 -2.364076839097074834e-01 -7.567080897871769629e-02
-2.580606271765739299e-02 -9.709214277477645760e-02 -7.505654655190451274e-01 9.475786527824689998e-01 -3.172892402267283307e-01 -3.771252878429792038e-02
5.066016063163361616e-02 -2.156917484882271002e-02 -7.976997040639109970e-01 -9.849328610374726845e-01 8.853349337145842435e-03 -1.727103860630656296e-01
-4.230875497101338478e-02 2.067113206517910973e-01 -6.298596831152787345e-01 -3.351866327587234018e-01 -9.063099123569087201e-01 2.573951514373976068e-01
-1.339512359804138908e-03 -2.698484836610443374e-02 -6.648195612723430958e-01 -7.288333536317537220e-01 -2.542531347304247645e-03 -6.846864086340833655e-01
1.101173979192134229e-02 3.310283082460723642e-02 -6.734677863180767998e-01 -9.046929649787934791e-01 1.012588499256698582e-01 -4.138565988716505495e-01
4.741638402006665559e-02 -1.316126748771628829e-01 -8.021163399186344023e-01 -9.696237195677910314e-01 2.211452566712860113e-01 -1.045208969695191059e-01
3.891216953997107125e-02 -1.359896336436212938e-01 -8.707260575067432562e-01 -8.030123892735417934e-01 1.208970417857427732e-01 5.835709108246007748e-01
3.804747115293623250e-02 -1.324381647973550957e-01 -8.722179348055559833e-01 -7.462312826881848382e-01 2.245682081731357332e-02 6.653078715424350920e-01
6.537048685765291245e-02 6.588612895626472926e-03 -8.115696885884524647e-01 -9.972803048760370270e-01 -1.256979571009382221e-02 7.262226753665346202e-02
-3.400319860315687698e-02 4.112796026561298113e-02 -6.753210830514476681e-01 9.336842022605463809e-01 -2.740153552289467664e-01 2.305415267318255412e-01
5.534584605124283352e-02 -5.805477503823818636e-02 -7.736802074809309149e-01 -9.779625869800551152e-01 1.062718612917092492e-01 -1.797094042193495000e-01
1.255138000340404528e-02 -1.317014578373146838e-01 -7.304847683383793866e-01 -7.215168348664308118e-01 4.188020749463413628e-01 5.513785260825514456e-01
5.576648619902638965e-02 -7.765903413921652898e-02 -8.082832269782053158e-01 -9.840199296468082890e-01 1.678837994493646846e-01 -5.932796929219728843e-02
-2.208824878789123966e-02 -2.321608106006978200e-01 -8.413689613484898189e-01 5.412356692231038435e-01 8.286190367734505013e-01 -1.430190276056227117e-01
-3.709373588944407663e-02 -7.282133814017395512e-02 -6.533733340992107230e-01 -1.473024367058632933e-01 3.402489752197548345e-01 -9.287263466718396199e-01
-6.558771925401351167e-04 7.890014735898515097e-02 -7.412587316289873662e-01 8.240048830682465963e-01 -4.141566821650796149e-01 3.866396194102443840e-01
7.266460758084387558e-03 -9.326173512923403852e-02 -6.975889462169407862e-01 -6.864200146951479065e-01 1.578603713720230228e-01 -7.098645410049722049e-01
6.525512260779052671e-03 -1.538351416841433339e-01 -8.704860475810154430e-01 6.293035456656130844e-01 -5.340278039300111468e-01 5.646161103284047522e-01
1.405535048182669083e-02 -1.605097727667374186e-01 -7.452386480367702015e-01 -7.165348038674341780e-01 4.081668889924461863e-01 -5.656656835772220226e-01
-4.353932534100914999e-03 -1.384731156240148753e-01 -8.322560368238729467e-01 6.996815077926860083e-01 -5.594574403365110138e-01 4.443570187417685835e-01
-2.797751938038360933e-02 1.929623092029397746e-01 -6.190156166637006407e-01 -7.753915758456213503e-01 -4.003154115027842685e-01 -4.883804617519014735e-01
1.667307730466837876e-02 -1.269091714515317715e-01 -7.292703956770902884e-01 -7.245624779153637673e-01 4.950815040596386329e-01 4.794825543595869211e-01
3.402623424352739512e-02 4.963872242297652504e-02 -7.293148312786840171e-01 -6.996975114067406354e-01 7.084144798552537425e-01 -9.258680933385876610e-02
9.432617829719247213e-03 -1.149726040100282620e-01 -8.523313789077727742e-01 9.496826848651478414e-01 2.921828307228348937e-02 3.118478635514952413e-01
3.188915382524822734e-02 -1.624391327266005436e-01 -8.720447328673247567e-01 -7.372724114593824929e-01 3.442598957336362453e-01 5.813041505875673476e-01
-1.841742386642393611e-03 4.679131213668354800e-02 -6.567209102971872658e-01 -7.005825144722233055e-01 -1.878420754387806479e-01 -6.884035844696252404e-01
-2.712958140400819479e-02 -8.221192128531402965e-02 -7.344541092701682983e-01 8.695975714047657901e-01 -1.646010524251618201e-01 4.655175156183302687e-01
-3.056689914289557539e-02 -7.429136182550404033e-02 -6.551917178150203913e-01 -1.992842294213084120e-01 3.512783133682862435e-01 -9.148165621921630075e-01
-3.261082191899392774e-02 -4.351031812190935683e-02 -7.216598498756499058e-01 8.541020301152926208e-01 1.774500297702062690e-02 5.198026904723379582e-01
2.836396471116499254e-03 1.088220771751279015e-01 -6.626567246014548607e-01 8.297633966006421127e-03 4.276907528633244748e-01 -9.038870334205314494e-01
-1.473095677710133285e-02 -8.735692694288942073e-02 -7.863999400296566300e-01 8.094563130497876013e-01 -2.320981986425607602e-01 5.393615702390397448e-01
-2.956301887119623575e-04 4.353654397614755561e-02 -7.706510336906110537e-01 9.217477872580795983e-01 3.199186894343976351e-02 3.864680284400504595e-01
3.108543016772593801e-02 2.363633814400013106e-02 -8.297475272308068028e-01 7.860121452758082050e-01 -3.154986787521672081e-02 6.174054691335170153e-01
2.814577934500000350e-02 5.718047753925671606e-02 -8.132991655540668940e-01 6.537084391479380807e-01 -4.671115480200789261e-01 5.953755775080565860e-01
-1.827708018487621613e-02 -1.113853698572148526e-01 -7.830471319300135180e-01 9.912227146802148336e-01 6.688371949302365782e-02 -1.140355118757473557e-01
-2.292384456845007398e-02 -1.614206539407189167e-01 -8.132515839309335526e-01 9.846956906586002978e-01 -1.624969736368823692e-01 6.300103457275017804e-02
4.600276810859280779e-02 8.485876212735049551e-02 -7.535507822885726403e-01 -8.835411338043005491e-01 -4.209081288435495005e-01 -2.054054817896371621e-01
4.541471119066187168e-02 -8.905914468051003008e-02 -7.983791263278631201e-01 -9.583361325501550398e-01 -2.743018994233258345e-01 7.968892659314337490e-02
-1.866340613232827031e-02 -1.315382099309579111e-01 -7.771043904976900896e-01 9.745860349720030236e-01 -6.785711791494671019e-02 2.134888099780094806e-01
5.074438118885916948e-02 -1.115170649340767178e-01 -8.068067824956826062e-01 -9.998845396467517244e-01 1.123675986420268091e-04 -1.519522125294868985e-02
5.524597607245794462e-02 3.373956212756540340e-02 -7.681265705393583998e-01 -8.343670504624725037e-01 -4.466151764889939590e-01 -3.230580586090662232e-01
2.352058311758245882e-02 -2.262009115349654376e-02 -7.063588110249481300e-01 -9.592891604419917506e-01 7.776922640123558328e-02 -2.715073739025367638e-01
-2.225349370662641629e-02 -2.324953415234626286e-01 -8.439325023073940280e-01 5.412356692231038435e-01 8.286190367734505013e-01 -1.430190276056227117e-01
-3.170312271741675819e-03 9.799799955494457523e-03 -7.740085419757531948e-01 8.544892794885938780e-01 -2.295768518665466107e-01 4.659855580660297591e-01
1.811086069657980371e-02 -8.962492336262022075e-02 -8.653940892292961706e-01 7.162064672782088026e-01 -3.936809176170067426e-01 5.762496258854310494e-01
5.646692784995728520e-02 -3.555247047024909235e-02 -8.532359699739310299e-01 -9.000002193906126990e-01 3.652897101532286417e-01 2.378298399129493701e-01
5.512175969937006814e-02 -8.564671773436889624e-02 -8.544541036803549039e-01 -9.728188302459196413e-01 1.575222764952006749e-01 1.697358416090433142e-01
5.769008279892866992e-02 -7.641927502906156744e-02 -8.285665904439206697e-01 -9.879052298483378403e-01 1.515712287133489655e-01 -3.270197952156083526e-02
4.879123308377453228e-02 6.339923800213612126e-02 -7.481076833819960692e-01 -9.061602606196906828e-01 -1.525289753869569533e-02 -4.226593559716007031e-01
-3.354191030345429064e-02 -1.725115785879564323e-01 -7.633543265217406226e-01 8.221327276415234531e-01 -1.694431438020018721e-01 5.434949854039157202e-01
-4.201888054916587401e-02 -1.336787287654443990e-01 -7.295500367725292756e-01 9.214655595625590445e-01 -1.664739346684749044e-01 3.509809846929837218e-01
3.850132477620877430e-02 -3.920331702379029927e-03 -7.179074713632123128e-01 -9.483739988949458910e-01 6.009301612103569966e-03 -3.170972193415512175e-01
-4.910312748668773514e-02 -5.181418220135568242e-02 -6.860191909347088668e-01 9.406332791431247786e-01 -8.641001334211680096e-02 3.282412889364579311e-01
5.647383891830881630e-02 -1.445552124683375551e-02 -7.846913062767449931e-01 -1.697030240130441570e-01 9.643466261400467365e-01 -2.030676446239947364e-01
-2.982835201248287479e-02 2.749661229627431078e-02 -7.066305098327477774e-01 9.077222495680754566e-01 2.765583965528017538e-02 4.186591360188309796e-01
8.393587490302199111e-03 -3.972760813048441253e-02 -6.764078109600045741e-01 -7.935852820397647500e-01 2.342075180426941849e-02 -6.080081155007636129e-01
2.882041025843558313e-02 -1.266042830904233196e-01 -8.795617206426473711e-01 -2.134201848768340903e-01 3.650098423574119760e-02 9.762783941258560416e-01
1.029015164965966372e-02 -5.915524664687275835e-02 -6.821366528643385552e-01 -8.878584488266071384e-01 1.999436659976253916e-01 -4.144030710246255911e-01
-2.071447793578501222e-03 1.251651297774603044e-03 -6.620366017170132844e-01 -7.708981759809746537e-01 5.098798490802796124e-01 3.817571764500010678e-01
-4.452580816659016533e-02 -1.240410192543343892e-01 -7.191469956074539871e-01 9.202983175388986803e-01 -1.133333656962611097e-01 3.744416576117433615e-01
-2.795385558416178112e-02 -2.101775214535154257e-01 -7.728544111700579311e-01 4.336024076723762333e-01 8.152734842128565029e-01 -3.838203981032632939e-01
-4.260483972321364027e-02 -1.706577394746570595e-02 -6.892390644869232919e-01 8.520146848090860425e-01 -1.459236702195224611e-01 5.027695887176725220e-01
-1.784018010302071411e-02 -1.147128360115139550e-01 -7.965041694791638038e-01 8.401134108216513630e-01 -3.144936571274056236e-01 4.419312125028523330e-01
5.719986120657243782e-04 6.530017226366890970e-02 -6.657727138280744583e-01 -6.718848384965149245e-01 -3.070662268453994703e-01 -6.740037805008530780e-01
6.101193033377463881e-02 2.681518562467943498e-02 -8.082101476309394572e-01 -6.462689081063305307e-01 -6.935731413264237810e-01 3.182652919274233660e-01
8.866174820861339508e-04 1.642832389947102845e-01 -6.523533252025006668e-01 -8.531668265306342480e-01 -4.879401932230356120e-01 -1.844471033795689330e-01
-1.519341436685850075e-02 -4.240386745266966351e-02 -7.674532651728063204e-01 7.735131717845944443e-01 -2.314970197456769074e-01 5.899885616896368701e-01
6.116270567718894852e-02 5.643917858950145633e-04 -7.787947074941222736e-01 -9.515484275350930554e-01 5.270666988559184751e-02 -3.029481754443538177e-01
-1.110114157110183956e-04 3.483281487408752819e-02 -6.561685901752531969e-01 -7.579644150991557972e-01 -8.659081061442351623e-02 -6.465229902799524142e-01
-3.664242062268936728e-02 2.038429771775510935e-01 -6.304323178247620563e-01 -4.812008372946477985e-01 -8.579617028164677750e-01 1.798540260522321077e-01
-3.092493476122586474e-02 8.655537165820051740e-03 -7.048390214847168878e-01 9.192105254347463505e-01 -5.781012790628972664e-02 3.894996778450988129e-01
3.267122419289360084e-03 -2.299323402069367028e-01 -8.250287511747999014e-01 -4.311148714766855905e-01 8.860344966042038584e-01 -1.705369121890500383e-01
-2.690842926383710601e-02 -1.506671240362079944e-01 -7.661594156670100686e-01 8.464022938617542513e-01 -1.945831206448716544e-01 4.957222671069598241e-01
-4.224193033163888000e-02 1.743526233592780639e-01 -6.643970657496079957e-01 6.317236196816150562e-01 -2.180674333568864420e-01 7.438896845940924374e-01
-3.704413908745368689e-02 1.987693724620631930e-01 -6.457364520827383325e-01 -2.466074711813212583e-01 -8.603185551438859990e-01 4.461353369020324977e-01
1.654878426406231409e-02 -1.647099311912424424e-01 -8.025786967557897444e-01 -9.772829088597110303e-01 1.446180820663626743e-01 -1.549313602539798829e-01
5.023747014360118585e-02 2.748988397193164596e-02 -8.382585278741981893e-01 -6.554940829558121296e-01 -3.627967770436504868e-01 6.623488550429136312e-01
-4.297326015168310281e-02 -6.521175787983833627e-02 -7.081847877803608693e-01 7.447819032111965276e-01 -8.521612148616039550e-02 6.618444902603357605e-01
-1.939822530779808027e-02 -1.785690478965273331e-01 -8.432678168598288782e-01 7.263969141733325197e-01 -3.726677522217668459e-01 5.774653838399633754e-01
-3.891371852988712021e-02 -1.331066911715027834e-01 -7.397673512232885162e-01 9.530936751687726360e-01 -2.498945408413462688e-01 1.707781157261514804e-01
-3.202350175295927588e-03 2.272356105590956840e-02 -7.686038682421206802e-01 8.899615193983908545e-01 -1.317420979196381459e-01 4.365919303260654138e-01
1.756964302562084509e-02 -1.335385604906261514e-01 -8.730275065942646462e-01 8.451318603442197208e-01 -1.382418589014148269e-01 5.163732439607997549e-01
5.641697475149656804e-02 -7.751288809658905821e-02 -8.162016824091410383e-01 -9.765477208061549286e-01 1.895280093971096480e-01 -1.021453995159501277e-01
-1.389558509530616943e-02 -1.795887304275354812e-01 -7.288577648769972717e-01 -6.929903528012526515e-01 6.802139586767418367e-01 -2.389002748966838896e-01
-2.603028531038345875e-02 -2.864690789510253299e-02 -7.333504560649812820e-01 8.996459338274156448e-01 1.461794344834475498e-02 4.363754226318644625e-01
2.755089152594934754e-02 -1.422668543397801744e-01 -8.796580761971338758e-01 -1.427061423237292181e-01 2.495040972300793108e-02 9.894505717809930490e-01
-2.146399605524079712e-02 -8.646262743957358610e-02 -6.639170673712539994e-01 -3.890132874748752356e-01 3.968795855940780437e-01 -8.313574782887702685e-01
4.791854489154237853e-03 -1.062015980102395951e-01 -8.381787113379630672e-01 9.557297406955831409e-01 1.150887924824215564e-02 2.940207619342601331e-01
6.523491205309147473e-03 -2.266033899534210805e-01 -8.528885889438696521e-01 -4.324099887880880067e-01 8.582122765057392799e-01 -2.765742035171067648e-01
2.570305314133256025e-02 -1.046040948251165531e-01 -7.433518042738610498e-01 -9.309133593276546215e-01 1.977874269226216897e-01 -3.070512191420670112e-01
-4.760599935422753920e-03 -1.563612152409566969e-01 -8.560069782989605525e-01 9.458651188687472455e-01 -1.727119554420947500e-01 2.747903880320023973e-01
-4.325058966811665823e-02 -5.597482239548998845e-02 -7.052415499215131112e-01 9.066243505863660346e-01 -1.914689061542234616e-01 3.759946075410591226e-01
6.074372785922554224e-02 2.619178643615615795e-02 -8.101132890328638370e-01 -6.462689081063305307e-01 -6.935731413264237810e-01 3.182652919274233660e-01
1.743607738412696756e-03 -1.571161903326946108e-01 -7.353309287295324292e-01 -6.117721109144476088e-01 2.290034794587273714e-01 -7.571606769392328351e-01
4.384853423046149862e-02 8.312937412574074314e-02 -7.895951706753764343e-01 -5.908517751457149636e-01 -7.229364317053273981e-01 3.581299980737802091e-01
2.364349020088862482e-02 9.861508704134182290e-02 -7.181063782966401465e-01 -7.400857791894278614e-01 -5.632071346943858803e-01 -3.675197448721866378e-01
-1.877036642756931689e-02 -8.694727889708493695e-02 -7.770832336996946754e-01 9.915200803162766974e-01 -6.587012262943361951e-02 1.120225748426957879e-01
2.631687830803198722e-02 -2.024575254868816176e-01 -8.570062864650577206e-01 -8.241482397336549193e-01 4.878867744924689775e-01 2.876563474343172278e-01
-2.657427594135198037e-02 1.565509922437090529e-01 -6.281993289536240699e-01 4.176174273227756251e-02 6.879506859513807582e-01 -7.245549051265802731e-01
4.479846015226441464e-02 -6.247950573192608686e-02 -8.727760717042248872e-01 -4.619920352792226681e-01 -2.350663784768307618e-01 8.551649882030653016e-01
9.118596757918259049e-03 -1.792661708152603894e-01 -7.543799645742307325e-01 -6.866219780908804360e-01 4.884051093647677755e-01 -5.385264230740733904e-01
4.265762346370571834e-02 -1.550619917875170617e-01 -8.514106763462306882e-01 -9.439232149487480905e-01 2.770722983419377505e-01 1.795547431073199196e-01
3.014350414604845957e-02 -8.530644742420388782e-02 -7.624408126243149564e-01 -4.925160747771630265e-01 6.990577533506225905e-02 -8.674912671957568655e-01
1.667362524348587824e-02 -1.709721127306062793e-01 -7.806937323322067357e-01 -8.033903682858850592e-01 3.446354913400005437e-01 4.855824278681285522e-01
-1.614704556078149639e-02 1.108272396758499534e-01 -7.023684923458753948e-01 5.510808832570862625e-01 -3.399858723877924871e-01 7.620495172134822415e-01
-1.125722499035372755e-02 -2.005137382351824746e-02 -6.540354252574035465e-01 -9.008528649582747683e-01 4.218119089394419818e-01 1.026587997851727690e-01
5.615716703434010110e-02 -3.293486748395037939e-02 -7.988694154088084032e-01 -9.034804227182114955e-01 -4.285316382632757826e-01 9.152091144368575473e-03
-5.515914188110474653e-02 -7.570328126110985323e-02 -6.658019006771355164e-01 9.820765061611943514e-01 -4.253337081187506807e-02 1.836209367517795954e-01
1.879598472980729571e-03 -1.108873652864704601e-01 -6.978687287612076462e-01 -6.755308740190496541e-01 2.542566374420995312e-01 -6.921066395893740175e-01
1.857429686913319652e-02 1.036135408097964561e-01 -7.416568291554959114e-01 2.313257063909034406e-01 -9.571290494468316368e-01 1.743341626525162225e-01
6.472751047548173930e-02 1.906900734092685859e-02 -7.918461112218341258e-01 -9.946754151012496825e-01 -3.968677026430408872e-02 -9.510929954081748239e-02
-1.362358825540937492e-02 -2.383756784524379557e-01 -8.609222058441188263e-01 -3.880830844581454886e-01 9.061496945598955799e-01 1.681792216846649812e-01
2.986297535697733999e-02 -9.106578163716047558e-02 -7.476360901883715160e-01 -8.498546824130931432e-01 2.950367291624362842e-01 4.366925087812610351e-01
4.474482587471793893e-02 -1.405925012486972936e-01 -8.560897260627358119e-01 -9.450290474178576483e-01 1.928188036025230978e-01 2.640852296395775900e-01
-4.138261740812201883e-02 -5.557850170652763044e-02 -6.457878836441589554e-01 -3.059513452394303501e-01 4.171329916707424146e-01 -8.558001177880261157e-01
-9.439097533649906668e-02 1.901504847564328415e-01 -5.778617015954206071e-01 2.534352026699263627e-01 8.155325853724753049e-01 -5.202664704200529178e-01
-9.156235585053046355e-03 -1.829825998882765592e-01 -7.399375246791208838e-01 -2.352397046389668456e-01 3.806061748989367222e-01 -8.943160632517855868e-01
-8.513998068107682740e-03 -1.299856510343807281e-01 -6.970580286583788476e-01 -5.758889636189796768e-01 3.955186915680674042e-01 -7.154836589343893660e-01
1.499582378384999547e-02 5.363690504285468369e-02 -8.004228126748902383e-01 7.448519055724772686e-01 -4.208938837443914061e-01 5.177296373510138494e-01
-6.853066511439602146e-03 -1.799049143668352557e-01 -8.593684792272563433e-01 7.785557008971910609e-01 -1.786440967434389793e-01 6.016122566065327248e-01
5.928437529372462475e-03 -2.271668149070530385e-01 -8.568280677502553289e-01 -5.621630493579480303e-01 8.180659839874905304e-01 1.214114977222182506e-01
-6.772820082453742327e-03 2.403317681492457211e-02 -6.484070394503809176e-01 -6.288660595154370592e-01 -5.861950234618865802e-02 -7.753007372202169734e-01
-1.513282821167577508e-02 -7.669174083749151494e-02 -7.819644015422794192e-01 8.773497923558298828e-01 -1.242840583601191456e-01 4.634768761121969560e-01
5.059745498690453036e-02 -1.106879020859049684e-01 -8.007795949558214055e-01 -9.991373706264943255e-01 1.402287933619105788e-02 -3.908802211289176542e-02
7.337374493743511160e-03 -1.182116960292201452e-01 -7.066125586801675906e-01 -7.446035993861214175e-01 2.848414807478392152e-01 -6.036810504120618814e-01
-3.866896929469646610e-02 -5.510181712925172476e-02 -7.128130704450699184e-01 7.919527379202281336e-01 -8.201881119507269807e-03 6.105273049149855247e-01
-3.371911807189050848e-03 -9.631377124032088066e-02 -6.919659152469647134e-01 -2.931623035735106408e-01 -9.712882481744591207e-03 -9.560133491104445547e-01
5.270501767396782583e-02 -3.019501203521003305e-02 -7.693135364115599728e-01 -9.018695836208042715e-01 -3.727490554065914230e-01 -2.183790187566811147e-01
-4.112648627621288966e-02 1.572076590909180782e-01 -6.417691635999711597e-01 5.954361801083659644e-01 7.896021105262667206e-01 -1.482709090496944493e-01
-1.319955544684920691e-02 1.379480923024012928e-01 -6.933462599239835766e-01 3.341985065414044831e-01 -2.373250881088380115e-01 9.121338502542417626e-01
3.711245144328469137e-02 9.933969218972228329e-03 -7.193109537712876200e-01 -9.652462716429733858e-01 -1.243525485694538940e-01 2.298609987440691504e-01
-2.905853800437329520e-02 4.719362331964558482e-02 -6.476942584935333480e-01 3.009719706200319478e-01 -5.322857838483403548e-01 -7.912570487610537384e-01
1.110522442648451645e-02 -1.163881086892520067e-01 -8.570482597895971999e-01 9.440108400211025819e-01 2.846195111939142305e-02 3.286844250358232356e-01
-2.439891294185724847e-03 -9.804962875199217665e-02 -8.146384642974742185e-01 9.404230607952326348e-01 -2.920289705125197685e-02 3.387501402632037140e-01
-1.874816869346538836e-02 -1.119182276610122817e-01 -7.722156147357427391e-01 9.710859790714447826e-01 -2.688711711468989157e-02 2.372110962499738573e-01
-2.509419193986473992e-02 1.829642529822910757e-01 -6.647975893094363320e-01 -2.706299624517067293e-01 -7.696281543305689699e-01 5.783008970121954473e-01
2.968773082431008792e-02 -9.797361749765709504e-02 -7.411448235586939326e-01 -7.300225520199457030e-01 4.923448602332370916e-01 4.739869324614339741e-01
-9.847762907831139612e-03 -1.766281311614829319e-01 -8.541683726839870427e-01 7.724596502281608768e-01 -2.545199579426211112e-01 5.818295968565654341e-01
3.604725514933311559e-02 -2.482003968713616254e-03 -7.277136521132524516e-01 -8.381480755342978206e-01 -2.234154707857082256e-01 4.975875107875531445e-01
3.231175226727092675e-02 -9.740866705385126112e-02 -7.361157486451380683e-01 -9.480516449267120116e-01 3.180889984176984431e-01 4.179430269929274716e-03
-1.908744329846650753e-02 1.217280737253549489e-01 -6.952507019267989419e-01 6.424512579081345098e-01 -2.802277980942133317e-01 7.132522431703419707e-01
-2.084404367920197898e-02 5.523326885652826701e-02 -6.511157744956839188e-01 8.725251298454496374e-02 -5.392562053016075607e-01 -8.376095415058213423e-01
-5.475787004364772448e-02 -8.778820119899378993e-02 -6.708153340899707384e-01 9.997660767780925939e-01 5.020194968410186635e-03 -2.103780801843122342e-02
-3.187924509349923663e-02 -1.076542788939358897e-01 -6.707108516142773480e-01 -2.661199989545271483e-01 4.489901444602241165e-01 -8.529876882663839366e-01
4.333012335633514012e-02 -1.213547108174367756e-01 -8.618201297429307628e-01 -8.360571152958501395e-01 -2.641011948179196600e-01 4.808940204025505816e-01
-6.505507167217362829e-02 1.930871233230099793e-01 -5.840793272322474250e-01 -4.701838602084282281e-01 3.936932514357391333e-01 -7.898941456761514601e-01
3.514749778601377467e-02 7.015700231533555931e-02 -7.209404207283848232e-01 -8.808320184511208017e-01 -8.155344697506052010e-02 -4.663517884149372961e-01
-1.328113721513856336e-02 9.325288996173956846e-02 -7.129423539535393317e-01 6.274525309422191999e-01 -3.538865058501564076e-01 6.935904139990479722e-01
-2.849386357944481973e-02 1.890350065588161099e-01 -6.576818855983457279e-01 -2.945898873413860808e-01 -8.008457408816666012e-01 5.214047349112627128e-01
2.482341495853876423e-02 -2.010497639331420248e-03 -7.098359613979049465e-01 -3.705154695147180322e-01 4.266506283428718183e-01 -8.250378949993272260e-01
-3.088090613666165992e-03 -2.253674920585166663e-01 -8.005523941241121655e-01 -2.794195575638213080e-01 8.755024555385313434e-01 -3.942336378302090938e-01
-2.208968746264081476e-02 -3.666813142446498364e-02 -6.447729821552951046e-01 -6.100584619153370802e-01 5.162330456970206649e-01 -6.011090712806380632e-01
4.819697316016784312e-03 -1.476737751471858817e-01 -7.212766500547874715e-01 -7.624278170592637682e-01 4.271307672661252552e-01 -4.860690603493468820e-01
3.352249276677538026e-02 -1.364518996687522079e-01 -7.610202735952524833e-01 -9.010029296240151808e-01 2.217503659702914631e-01 -3.728545239111142884e-01
6.199678887222929979e-02 2.203807655731006634e-02 -7.786634871065415409e-01 -9.512548192224021815e-01 -4.740194151491895075e-02 -3.047414065183318144e-01
-2.300033423924388587e-02 1.915506173981622318e-01 -6.275837471178014049e-01 -7.843098551599515522e-01 -5.680677188930578492e-01 -2.493132925670310251e-01
3.460101992279807082e-02 -1.390154973372240421e-01 -8.754433545981721299e-01 -6.997380019462067224e-01 7.621493142258146947e-02 7.103224710373322592e-01
1.967722233812361707e-02 -1.750583843695944219e-01 -8.752224242646291508e-01 -5.384123786617529550e-01 2.941893600198596803e-01 7.896611494526617481e-01
1.596092160727946227e-02 1.012204270616179624e-01 -6.694209737564359441e-01 -5.508036924704756698e-01 1.333113383507450733e-01 -8.239195224219552083e-01
2.757220396978263960e-02 -8.495854689775760027e-02 -7.203443737845186545e-01 -8.418701771020115077e-01 1.910915958803487968e-01 -5.047163628119554213e-01
5.154305196762584695e-02 -8.731980866819698262e-02 -8.661034094629160851e-01 -9.162162261342448044e-01 1.430794221139259914e-01 3.742674256943387956e-01
2.797563536338698240e-02 8.534816081006203758e-02 -7.002322263654529033e-01 -8.551177322206252596e-01 -3.192191821055263556e-01 4.085006460432269448e-01
4.836599759802211185e-02 -1.052025272928569649e-01 -7.822776177157826361e-01 -9.595712760193703117e-01 1.131545837066094823e-01 -2.577188515121492385e-01
-8.667545188187715868e-03 3.972499342900589862e-03 -7.675776529808563398e-01 8.268932808332722928e-01 -3.656836219094751761e-01 4.272270950910707632e-01
-4.099696817919201014e-02 -1.402119135896719715e-01 -7.381026917006510146e-01 9.636743603962680815e-01 -2.069982184293279182e-01 1.687704496703362478e-01
4.607488164832846539e-02 -1.119287522715467151e-02 -8.557710987849874718e-01 -3.674807206521758796e-02 -3.832058925164198993e-01 9.229316459739496104e-01
1.568721391478955854e-02 -2.193575587526080117e-01 -8.528831851778858608e-01 -7.197667185151970237e-01 6.571173917564339106e-01 2.239031137994439702e-01
4.551320843184571835e-02 -1.431547668010845209e-01 -8.495930217841943799e-01 -9.681655860642696121e-01 1.990457143603873991e-01 1.517768149474500727e-01
2.815743203297329730e-02 -1.414118842220615235e-01 -7.826155504008521779e-01 -8.842377414235519373e-01 3.709264124043047395e-01 2.837907912935995758e-01
-3.512902346667531178e-02 2.232894694948779277e-02 -6.388880464725376074e-01 1.821506420854443198e-01 -2.351151581313383476e-01 -9.547470900739818411e-01
1.335565997974757710e-02 -2.562720275938727352e-02 -6.836520203013290997e-01 -8.535223813387529113e-01 -8.310213609139610602e-03 -5.209899086389244705e-01
3.929881406424981863e-03 -6.931922334704841704e-02 -6.877452312173685245e-01 -6.130155930574190393e-01 5.465349534666678055e-01 5.705360876470900733e-01
-2.423390619148356809e-02 1.189731403158671014e-01 -6.816046967014574021e-01 9.912361684303064857e-01 1.224790357722470302e-01 -4.949489056362873368e-02
1.982316218703795291e-02 -2.945263293809103136e-02 -7.155544128724617980e-01 -7.711847477824711472e-01 6.285556671127403572e-01 1.009547330645972768e-01
-2.578161925182747075e-02 -1.061071169088769091e-02 -7.307666427229605466e-01 9.769423188713081130e-01 -1.436157338144985196e-01 1.579817286880813298e-01
1.173819134115821223e-04 -1.740025019928463992e-02 -6.668097842365406924e-01 -7.238596406355537471e-01 -7.755207552699669438e-02 -6.855748655255837765e-01
-1.079619505513692845e-01 2.064268263242878820e-01 -5.972921687988040906e-01 9.342275980744453312e-01 3.997071263605988384e-02 3.544307226065738781e-01
1.159426360495710226e-02 -1.902316721785453912e-01 -7.720925670119846984e-01 -8.520236394708579075e-01 5.232785590357597050e-01 -1.533843004653790733e-02
-2.852330915059346494e-02 -1.660710829929905874e-01 -7.696569063338134509e-01 8.654082398330145143e-01 -2.134967577797589611e-01 4.533075256894096294e-01
6.176715973125741777e-02 4.647940399304192720e-03 -7.799828217826779708e-01 -9.515484275350930554e-01 5.270666988559184751e-02 -3.029481754443538177e-01
-2.287905820114163880e-02 -7.632703360024757633e-02 -6.587378895183023664e-01 -3.947620322206948917e-01 3.486783042419513423e-01 -8.500508091096344865e-01
2.217390465999173263e-02 -1.879839949447086600e-01 -8.180571193753404247e-01 6.899621372726910673e-02 5.221696680074007224e-01 -8.500460930469254661e-01
2.674775587031474541e-04 7.474627529084099109e-02 -6.699549826292595656e-01 -6.424076713854774967e-01 -3.446776120831657741e-01 -6.844777041465520684e-01
3.376298617562607796e-02 -5.486609841228601986e-02 -7.345746338187351121e-01 -9.638755612272503770e-01 -2.182122382054969278e-01 1.527328437704231767e-01
2.850413220623557869e-02 -5.254634260943869678e-02 -8.623637893303474078e-01 8.645782322803050590e-01 -1.007920307704215784e-01 4.922859400797842677e-01
-5.169859820987227073e-02 -1.418444506048601172e-01 -6.981400427574425693e-01 7.853343393422379526e-01 4.770959996984662221e-01 -3.944989005328302101e-01
-4.858814729308137681e-02 3.769199395776046038e-03 -6.621479570936242842e-01 9.313358478748603453e-01 -3.273284288366682393e-01 1.595920992359372848e-01
4.786915949323544694e-02 -1.371382986968373574e-01 -8.345045593640406656e-01 -9.826223602378744149e-01 1.829194467519926204e-01 3.152416787948653792e-02
2.604107444439210297e-03 -1.880903675201505976e-01 -8.716586121678355781e-01 5.680129300584690899e-01 -9.411870067261869643e-02 8.176203162043437223e-01
-9.447146345738885453e-03 -1.499365989313911629e-01 -8.363076944097582732e-01 8.738440448636336511e-01 -3.335830524754253568e-01 3.537215463575003604e-01
2.635487022177395930e-02 -8.488129471106685420e-02 -7.183172240458588487e-01 -8.200262376399389819e-01 2.010068910038385614e-01 -5.358667738823311710e-01
3.534329151979988259e-02 -1.227835600837073188e-01 -8.750177294850008947e-01 -7.364432790475238244e-01 1.548500891761948051e-01 6.585383410461804754e-01
5.088264459996715006e-02 -7.784406623476147757e-02 -8.696555633065948809e-01 -8.893684501020234778e-01 5.050320499906579136e-02 4.543932066481041754e-01
2.246118071783253026e-02 7.230700326823340240e-02 -6.797228275797411179e-01 -4.765006425940369605e-01 1.896328021766516547e-01 -8.584792006485078009e-01
-1.813313910654466149e-02 -1.912533035773730794e-02 -7.561390254904870600e-01 7.777241143139587143e-01 -1.250746161285218039e-01 6.160369651367290089e-01
-2.824234800664683284e-02 -1.918612770585424454e-01 -7.447430416643773254e-01 1.556094482371243037e-01 8.004481122949737015e-01 -5.788510336371103238e-01
-1.716131961055133298e-02 1.692544263977571739e-01 -6.776923168716502133e-01 -2.519071403780411278e-01 -7.139599611532398971e-01 6.533023545775890062e-01
-4.701019394116344452e-02 2.011629300107926899e-01 -6.429670112151452122e-01 2.108181448144614556e-01 -7.375043691435656523e-01 6.415941203838606555e-01
5.619865223371235674e-02 -4.692868125745598695e-02 -7.749582525906584252e-01 -9.936896832052373174e-01 7.343709473268170661e-03 -1.119235606235221836e-01
4.361855339286593858e-02 2.035791088837712870e-02 -8.425971277893730127e-01 2.452553801548555679e-01 -2.878614464273679951e-01 9.257351598409995219e-01
9.202913185998133627e-03 -1.485080594093293460e-01 -8.685117256294058175e-01 7.216934953722958790e-01 -4.786194707220468025e-01 5.000818942763929353e-01
-5.514528902808141231e-02 -1.074356439247647343e-01 -6.941181402235628850e-01 9.975823706531032897e-01 -6.277524906861828291e-02 -2.981076762693585930e-02
1.057436899784420202e-02 1.487064233319907725e-01 -6.636372637856868817e-01 -9.256737013762351696e-01 -3.421195737554039717e-01 -1.615004514973291672e-01
-8.942147456286247964e-02 2.230706848202783921e-01 -5.911251643787867049e-01 4.648034718526112413e-02 -9.827945470963351804e-01 1.787580921895474961e-01
1.780813866355690153e-02 -5.128765385996378323e-02 -8.418567043210964940e-01 8.842477521721603395e-01 -1.822335807764030868e-01 4.299963195376119707e-01
-3.946277939704595505e-02 -1.836062952722098407e-01 -7.355627520881773407e-01 6.201770362392485803e-01 6.908330590753305467e-01 -3.716586178337891178e-01
-3.206080483454162161e-02 -3.547516187815129285e-02 -6.400111561687629180e-01 -1.753596808551018960e-01 2.851010736077532193e-01 -9.423196698350849720e-01
3.597903583007288492e-02 3.769382047424304355e-02 -7.030870869620193808e-01 -9.685835915118409245e-01 4.919652840136830990e-02 -2.437735175265695886e-01
-5.003963272759454073e-03 -1.304542104736206576e-01 -7.001422560748041812e-01 -5.758889636189796768e-01 3.955186915680674042e-01 -7.154836589343893660e-01
4.209163719679965068e-03 -6.480840528405747147e-02 -6.965495054762728122e-01 -7.996854552654544257e-01 2.046652876007039046e-01 -5.644601781243773209e-01
5.968802351943007511e-02 -5.314551376273871780e-02 -8.272432095874934221e-01 -9.997714799942111208e-01 -2.133395169396047619e-02 1.360255602494767502e-03
2.161508289338627889e-02 -1.816577368241056520e-02 -6.999339759084999280e-01 -9.394312437328669052e-01 3.020192689322356502e-02 -3.414041328256811614e-01
-8.256040274566832371e-02 1.853415650992275010e-01 -5.839156003039310816e-01 -4.367488154293516778e-02 8.791245251697866747e-01 -4.745867401931997409e-01
-2.854627075023607324e-03 -2.346913966371959870e-01 -8.410024667067438342e-01 -3.419261162129680343e-01 9.366926051320784152e-01 -7.545524860734255379e-02
3.371144807920158776e-02 2.842611592962994080e-02 -7.234264053071542966e-01 -8.671860619418244598e-01 -2.022730855716136505e-02 -4.975733010947871460e-01
1.992286087312908696e-02 -1.795515311672984948e-01 -8.736977638185484674e-01 -5.305503740001724644e-01 4.484299211356163745e-02 8.464664238506924843e-01
-9.675309076339393133e-02 2.210282038533346871e-01 -5.945504322509169715e-01 2.841659881595211545e-01 -8.774018736967764687e-01 3.865431970772586490e-01
5.495679757692105427e-02 1.895049160664979970e-02 -7.618657523181889824e-01 -8.919258033108002914e-01 3.440069539782763391e-02 -4.508713270374705151e-01
-8.122561023457422480e-02 2.216752342935533748e-01 -5.955890630728715163e-01 -1.227186484096471492e-01 -9.792884161809030097e-01 1.610413961266106420e-01
-5.684388051279328641e-02 1.941299116648803058e-01 -6.439738763657757437e-01 5.389105715368578409e-01 -4.251245905052752350e-01 7.272169404198030040e-01
-1.013807866710191297e-01 2.179537498274197460e-01 -5.787807102761401978e-01 5.698023724416437785e-01 -6.770156683824924970e-01 -4.658057976501380759e-01
-8.380171446857478598e-03 -8.956899714576582738e-02 -6.730564405473493661e-01 -6.054579310630353595e-01 4.098328792922572017e-01 -6.822446077206376636e-01
1.836280594664293012e-02 -1.900891421112673729e-01 -8.087238262619917961e-01 -7.207587074235327629e-01 -3.129953464998226909e-01 6.184988267916231575e-01
-5.272441135338944151e-02 1.764958518730098957e-01 -6.034255155006148508e-01 -1.201894124223049226e-01 7.742237314429332162e-01 -6.213952999598258975e-01
-2.950448060380918280e-02 -2.234222127018876958e-02 -6.374001305138969897e-01 -1.755898166660520565e-01 1.624091908733001910e-01 -9.709744955471603101e-01
3.271400699453091976e-02 -1.479388042727859121e-01 -7.734994839242154141e-01 -8.505045714305387028e-01 1.502749409817782933e-01 5.040430696762717711e-01
-3.177575700745183945e-02 -1.762040123093589761e-01 -7.685214147464500822e-01 8.868549045350035964e-01 -2.491881426119754717e-01 3.890933665379089357e-01
1.765328289233378603e-02 -1.483591475224742551e-01 -8.774166292806750977e-01 5.686192923079438355e-01 -2.323127009215120164e-01 7.891152700371254491e-01
-1.971588373431427260e-02 -2.816590811766804883e-02 -6.421201008754445771e-01 -5.143382372785701984e-01 3.115529249832916237e-01 -7.989937124956170145e-01
3.059716151010039714e-02 -1.576672214174022757e-01 -8.184116407348878131e-01 -6.377933942459518279e-01 6.156774303115964964e-01 -4.627752025132041980e-01
4.160290574055596630e-02 9.486008111376223115e-03 -7.377239866500113763e-01 -8.586909097299427751e-01 9.891631238452053276e-02 -5.028573204114773487e-01
-1.456875893133809455e-02 -1.858227882300785838e-01 -8.531733361864997089e-01 6.884927061114076707e-01 -3.180089860750806574e-01 6.518037115626834632e-01
-4.905503091695564283e-02 -1.470872632867181173e-01 -6.998436142937183302e-01 6.930738158901170731e-01 5.364975008830540348e-01 -4.814759778781795840e-01
-2.328313555794164075e-02 -8.771774902694072507e-02 -7.472671940919717315e-01 9.649998468079140634e-01 -2.031516245317654956e-01 1.658454494727156503e-01
5.526287090206544184e-02 -7.910669844125059469e-02 -8.057957955706330777e-01 -9.441994516051920305e-01 3.134149847607815564e-01 -1.012839716631097065e-01
5.725088152883479886e-03 3.172285206915063244e-02 -6.639276557469357964e-01 -8.508959925070052055e-01 -2.437092786995919899e-03 -5.253285357890489227e-01
1.929253278094135785e-02 -1.424747526384254614e-01 -7.426388370643862702e-01 -6.903309283957678177e-01 2.251489067943966138e-01 -6.875690358571461269e-01
2.975534322895535475e-02 -1.608332054607994333e-01 -8.153762994857650659e-01 -9.412527004475476078e-01 -3.352789864527099262e-01 -4.039003767568098702e-02
2.542969921526385541e-02 -1.869053633267577508e-01 -8.691229329552293548e-01 -7.349806690418076993e-01 6.947796979142373264e-02 6.745192568403949318e-01
-3.090370018851085546e-02 -8.197180446443042001e-02 -7.274890434770389103e-01 8.519577883213651504e-01 -1.888439609642157124e-01 4.883706433907692990e-01
-4.297034392623398646e-02 1.783872675995569201e-01 -6.622562456079951199e-01 5.386291980764200682e-01 -3.442467893877386720e-01 7.690076299854159414e-01
3.099310417735473902e-02 5.353974143393946949e-03 -7.080207557183821887e-01 -3.622233408716483138e-01 3.832848561250257191e-01 -8.496393178243342170e-01
8.277844619486992433e-03 -1.384218753002266489e-01 -7.194701205193887450e-01 -7.646603617952467680e-01 3.460517975159903004e-01 -5.436383766209982316e-01
-3.737910111298354404e-02 4.260097009164956483e-02 -6.520684781590087020e-01 8.243969146186486130e-01 -5.164235326449514440e-01 -2.316818121859401669e-01
1.842739277601685224e-02 6.604473273513855602e-02 -7.934145803917945772e-01 7.240479585466277346e-01 -4.712599123168624837e-01 5.036552876398340262e-01
4.307036775713849602e-02 -1.238467570799322015e-01 -8.636301495481591983e-01 -8.367740121853872726e-01 -2.603052094895452195e-01 4.817161513212668833e-01
2.158352211094113904e-02 -1.518406884707664550e-01 -8.796661555024323231e-01 2.053879851764689179e-01 -7.229107070650347966e-02 9.760070576800446984e-01
-2.758197624175779891e-02 5.795208885644428237e-02 -6.829585662147521496e-01 9.476244831661004842e-01 -2.933374921974024607e-01 1.263366715388678507e-01
-8.679525167151605491e-03 1.529590240792304545e-01 -6.362870452681957945e-01 -4.687690862675699677e-01 3.282257389461818997e-01 -8.200752453605099079e-01
1.978003578720807440e-02 6.207040760285286590e-03 -8.182272946677630054e-01 8.048114903138010590e-01 -2.657986360906055001e-01 5.306878085195214645e-01
6.359602450221220338e-03 -1.300603190382536578e-01 -8.474932625639067796e-01 8.955980794859500493e-01 -2.313132761427271200e-01 3.799976951261633817e-01
2.726226291375277635e-03 1.159626538156793979e-01 -7.051977489702799806e-01 -2.718099421085310441e-01 -5.265636280082413023e-01 8.055123220843710685e-01
-7.787674801438318993e-04 5.592614129690198083e-02 -7.679293759859202595e-01 8.386916311593071161e-01 -3.967953758536982289e-01 3.730278508696944773e-01
3.170313374251543942e-02 -5.067023022306615249e-02 -7.242220765987280595e-01 -9.251485117925276613e-01 -2.601835764080421276e-01 -2.764140692793906617e-01
5.449093358812057836e-02 -8.285494978909083152e-02 -8.591402355798113399e-01 -9.635984287143193328e-01 1.165309815021710743e-01 2.406212761362458707e-01
1.105262141521390525e-02 -1.606840619943257775e-01 -7.415721848997696153e-01 -6.846542429859356904e-01 4.068886294107212920e-01 -6.047232514279733406e-01
1.328376054235118602e-03 -1.662849295116758663e-01 -8.726239718634988263e-01 8.016644159786969759e-01 7.918162518920777992e-02 5.925069066145394192e-01
-9.410428905884567208e-03 -1.664612708398813257e-01 -7.205376846288445991e-01 -5.330940500710488195e-01 5.300677375551079429e-01 -6.594231777713425169e-01
5.592238549983425365e-03 1.461305239049880689e-01 -6.505297767064228687e-01 -7.928715493185848340e-01 1.110965050971241819e-01 -5.991763286682406653e-01
