7.766437382374474264e-03 5.339540981911147094e-02 -9.424332356971036884e-01 3.803803324702783456e-02 -3.310348814830316178e-01 9.428515340541230305e-01
-3.686321783120830031e-02 -4.780732649313167854e-02 -9.593691883342311266e-01 3.070331801500770230e-01 -2.678938669912456771e-01 9.132160217141435110e-01
-1.315468345164332725e-02 8.929863197534966546e-02 -8.826403487318454921e-01 4.828594994505611138e-01 -1.824619448914250597e-01 -8.564778703835798090e-01
-2.356013583239071740e-03 -4.369507334375095225e-02 -9.771754002928403349e-01 2.029066507390988455e-02 -3.807802913563803626e-01 9.244428909486018808e-01
2.983209301504673866e-02 6.001808748472691607e-02 -8.893853029188873993e-01 -6.245155838729347098e-01 4.236709956166622576e-02 -7.798623688668271381e-01
2.072766841947633679e-02 -1.526811034781158927e-01 -9.690980735186445205e-01 5.845193647162945094e-01 6.348351491040487016e-01 -5.052934253814307386e-01
-9.641912173393872576e-02 -2.466476566343339845e-03 -9.272763499590711556e-01 7.009965759391697526e-01 -4.187299377655527288e-01 5.772945866197050080e-01
7.583555000138386681e-02 -1.897251130036717998e-02 -9.250297740646135081e-01 -3.923324601102292641e-01 3.074850024621933464e-01 -8.669072695534858486e-01
-8.507123413699396730e-02 8.398732660827443880e-03 -8.856890920988894633e-01 5.598911212437913676e-01 -1.737520131430170776e-03 -8.285643688791854977e-01
3.668383526893611440e-02 5.926471051727955075e-02 -9.421989223360356380e-01 8.602419864004985650e-02 -6.688530872422596696e-01 7.384005585959666496e-01
9.144229019100653943e-02 -1.517269524939839076e-02 -9.330536787492001993e-01 -5.861229338946348788e-01 3.238579385031611912e-01 -7.426815885904457515e-01
-6.526968884357349510e-02 -2.525372795352059246e-02 -9.463360796811817188e-01 3.124783154976727984e-01 -4.310254962556950287e-01 8.465071316422968506e-01
4.912491155595222897e-02 1.220940620663611177e-02 -9.089569584178081030e-01 -3.262068762772427077e-01 9.794461925117856071e-02 -9.402105750464547773e-01
5.907223006524705763e-03 1.062889603423608220e-01 -9.132430325070036714e-01 -1.513481799204454137e-01 -3.933612013632588611e-01 9.068410520575378442e-01
-3.701860373093523310e-02 -1.079474657882594640e-02 -9.488653635860148094e-01 3.849064338711223332e-01 -5.171126107157656415e-01 7.644877925796724760e-01
3.006694055336782759e-02 -1.634191912348930964e-01 -9.799240007563648769e-01 2.852712653889154515e-01 8.717613384306018842e-01 -3.983120309017700866e-01
2.246145484489308827e-02 1.309651483171149489e-01 -8.740495378526023096e-01 -9.711277713678044821e-01 -1.736533578557448998e-01 -1.635706666356339656e-01
3.423560438055347349e-02 -1.222890055725666392e-01 -9.522535659923846429e-01 -4.181334866787205229e-01 3.790176010440470811e-01 -8.255362169019064833e-01
1.669816494164400034e-02 1.002193773900491996e-01 -8.671709279114859781e-01 -4.231991703521436610e-01 1.211474817351177041e-01 -8.979007461198015294e-01
7.918747959897244615e-02 -1.384107731221699278e-01 -1.009932108456836675e+00 -4.414839147202266889e-01 6.812746296148930458e-01 -5.839150897916527416e-01
-1.032175797178588039e-01 2.321855825538070295e-01 -8.717001542876297027e-01 8.072241583917914021e-01 4.915149286939524131e-01 3.268061091528776663e-01
-6.073476752825583518e-03 -8.299228109421942501e-02 -9.927531916378179444e-01 3.216732952618475694e-01 -4.035531464321978068e-01 8.565460577926077290e-01
-1.659054976426270478e-02 -8.901651772281808650e-02 -9.188297381151392385e-01 -1.475810252422672109e-01 3.791380751183532349e-01 -9.134955725037706697e-01
-4.390967122454469268e-03 -1.042448633792246865e-01 -9.379050370814605575e-01 -4.762565179440158003e-01 5.962477121088749499e-01 -6.462726939309547669e-01
-6.525395359578155252e-02 6.158681943991790170e-02 -8.971130320920098766e-01 5.626643064569768482e-01 -7.521872130533268086e-01 3.429624975975626988e-01
-8.011146723531457903e-02 2.557725735952049995e-01 -8.583005807256541830e-01 -4.076245216413805772e-01 -8.438630313826493978e-01 -3.489089188059275592e-01
5.253524927735717803e-02 -7.934330843600713445e-02 -1.008684847852141742e+00 1.675452589327950936e-01 -5.509146847520878243e-01 8.175705451724945005e-01
7.038691518813559866e-02 -1.641061872468694838e-01 -1.014502946187786137e+00 -7.701613525050911013e-01 5.216868030183829941e-01 -3.670073169079704489e-01
2.855327458901744941e-02 -5.287489651688899450e-02 -9.207523309816249002e-01 2.769811391574190096e-01 9.911974738097574858e-03 -9.608242301835701049e-01
8.893829828999129383e-02 -1.153278070516594450e-01 -1.030845626398056991e+00 -3.065150146109214546e-01 -2.789679209476054189e-01 9.100689231592502537e-01
-1.060074084176822473e-01 -2.516466984051335398e-02 -9.107587597606401353e-01 7.519558737815466021e-01 1.845510404221523681e-01 -6.328532826528843191e-01
-7.907175705390363796e-02 -7.442443932742118240e-02 -9.624693377701701857e-01 -3.118111020723268040e-02 -2.250476100342746477e-01 9.738487108294109351e-01
-2.661952100588545200e-02 5.700968375237987218e-02 -9.230864695869670511e-01 4.952260644620875008e-01 -5.391082250061897119e-01 6.812587370508121909e-01
1.479112682257396026e-02 5.639770679692624605e-02 -8.743104047290700676e-01 -2.236263452939697138e-01 2.067891725898890476e-01 -9.524859556917630865e-01
5.479208733992024793e-02 -6.232090165310674723e-02 -9.996916532841932934e-01 2.564551350817097508e-01 -4.552834056338463387e-01 8.526123293998675301e-01
7.541150565726433518e-03 1.262667381734838001e-01 -9.043010534047264404e-01 -2.937367792275910050e-01 -3.554294204652622136e-01 8.873492162597144128e-01
-4.478607961967907142e-02 -4.943516657981241597e-02 -8.980230046658457255e-01 -2.596093306480405372e-01 3.926561747176169348e-01 -8.822834713948825014e-01
6.446916281350391353e-02 -1.150142301232298485e-02 -9.798209342114114762e-01 1.685758452247040906e-01 -4.465668092949635626e-01 8.787265042337643051e-01
4.439231921227106831e-02 2.290520988740043368e-02 -9.077964718903145380e-01 -4.809783868085560909e-01 -2.719590352381702214e-01 -8.334854975195205018e-01
-8.152760399842308436e-02 -7.869224744041812547e-02 -9.151619127176003898e-01 4.022002282263943962e-01 4.137778687735303440e-01 -8.167146697151163037e-01
4.782881732897816679e-02 -5.438251827865005217e-02 -9.272032488857742116e-01 -4.868745365012756565e-01 5.025640174690591128e-02 -8.720249307159294583e-01
2.948217317897739234e-02 -2.663132106174337377e-02 -9.223312768608585843e-01 -2.940552457269776654e-01 7.957326030089483249e-01 -5.294725082278115558e-01
-5.262530811059443203e-03 -2.343108335975193635e-01 -1.064656225922964605e+00 7.811060550550897874e-01 6.010936179242355459e-01 1.689964296872210059e-01
9.214960666008659151e-02 -4.609413038399355622e-02 -1.001785991306334500e+00 -1.000912871600962012e-01 -5.121238359040722887e-01 8.530597346807161641e-01
-6.970297045443944739e-02 -1.312257080765280859e-01 -9.407127960320463833e-01 2.476487343030917831e-01 4.923250480966428477e-01 -8.344376258383339184e-01
-6.058422537665256874e-03 1.915075956361248222e-01 -8.848812400727785743e-01 -5.308602916445052111e-01 -5.478305175439934782e-01 6.465826125118050438e-01
3.554217597046925581e-02 -1.140196627703965598e-01 -9.495608413273951554e-01 -5.234687065281532492e-01 2.989251117008490666e-01 -7.978873923558241765e-01
-6.538836881784758359e-02 -3.124099063588929668e-03 -9.366218592947570531e-01 1.815068842361298729e-01 -3.528179756076065265e-01 9.179186930567665437e-01
1.920939344679074845e-02 -1.372442137175879928e-01 -1.022978865934735859e+00 2.170484829546812447e-02 -5.893772381497017765e-01 8.075663258900164232e-01
7.642788170271913595e-02 -3.845726726884336755e-02 -9.976994627414599304e-01 7.125042185671556783e-02 -5.298966804442369893e-01 8.450638351269200710e-01
6.596233686880161040e-02 6.884657005718897160e-02 -9.411836795895796026e-01 1.721958708763411949e-01 -5.487506803850006332e-01 8.180594555593969641e-01
-6.133792901131541672e-03 -1.668919092922188929e-01 -9.780489320088607830e-01 -8.083971382262363781e-01 5.885299436970442555e-01 -1.125043463982070176e-02
-9.229859341120251817e-03 1.602624835830940633e-02 -8.920006398221294042e-01 -1.593431192353534642e-01 -1.049897581434499662e-02 -9.871674335487358176e-01
-5.882589803905528131e-02 -1.934660958418011889e-01 -1.003922340244410627e+00 7.551994448539799398e-01 6.530735181137914402e-01 -5.629190377590116701e-02
-4.694885230469929283e-02 -2.028063758763220537e-01 -1.000356990914951894e+00 4.633851877692150012e-01 7.987384854020515013e-01 -3.837850957159832932e-01
3.077413161393992985e-02 -2.022483005439090487e-01 -1.008762962658295681e+00 -4.698019589197793833e-01 5.401522285362092557e-01 -6.982275341194331686e-01
6.767172296607493025e-03 -7.249138741224284144e-02 -9.921362405562217379e-01 3.979508298879218531e-01 -2.546943109713540321e-01 8.813432617036006667e-01
6.836021176655054585e-03 2.306017469315081378e-02 -9.529852867383943327e-01 1.013231118201870541e-02 -3.609056416302273695e-01 9.325472932294558426e-01
-4.689721598155288662e-02 -4.035698639285617562e-02 -8.950119060891096323e-01 -9.977977017565138607e-02 1.904150357293316886e-01 -9.766197374781504514e-01
-9.595575664473708632e-02 2.301988238713440771e-01 -8.531598393154175008e-01 5.000568886806148194e-01 3.864542280409183350e-01 -7.749814434632360527e-01
-4.832839062199349028e-02 2.067609422612365910e-01 -8.863976488012941246e-01 2.160930293081019249e-01 9.679749800207616828e-02 9.715626830343917497e-01
3.351277871520199486e-02 4.911708287451342636e-02 -8.927826167694932202e-01 -3.284249642431145144e-01 1.592069582980110698e-01 -9.310156751050995272e-01
7.896096165829322167e-02 -1.534609435594866678e-01 -1.029062223766643358e+00 -9.601083511412483729e-01 2.792360489604979734e-01 -1.480483129803738911e-02
-2.917151754075561140e-02 2.220813919755624533e-01 -8.732872564280653727e-01 -5.623918984253427622e-01 -7.630420167225452355e-01 3.185627619504982633e-01
-3.035708203886790073e-03 -1.883972828573037273e-01 -1.056361923896866006e+00 2.630510450028671898e-01 -4.700626490140784042e-01 8.425231472931571375e-01
1.686580464459662768e-02 2.423717534012513261e-02 -9.536458031173080663e-01 1.749424985618958373e-01 -3.641601241189063032e-01 9.147581790826599946e-01
-1.619300499154542258e-02 -1.792952669247191155e-01 -9.794740188859831775e-01 -7.758393161200127786e-01 6.305380175849694124e-01 2.225227948879859516e-02
-7.027898536554601228e-02 -1.066041796882050419e-01 -9.278584773343081515e-01 3.157212510924424231e-01 3.355560493058616922e-01 -8.875371707049035663e-01
-2.693184211826615479e-02 -2.908107604950528960e-03 -8.912190425689004991e-01 -1.351471110165835821e-01 1.409469124285758490e-01 -9.807493187663820500e-01
-8.772246103253325544e-02 3.084655621691013636e-02 -8.928228454721726104e-01 7.873056638747931713e-01 -3.309011865508105221e-01 -5.202443621702563803e-01
-6.344944499706772767e-02 -7.787861434611975664e-02 -9.652740722097621351e-01 1.542432033641948919e-01 -3.949870956439486269e-01 9.056457522070699984e-01
-2.694989296146020272e-02 -5.838995087299410358e-02 -9.117611087485537613e-01 2.402656157568887341e-01 -2.498085832764266878e-01 -9.380128493823460811e-01
-2.078259768713444991e-02 1.682130263815483362e-01 -8.905244444931548209e-01 5.999716034662285757e-01 1.421971111195566850e-01 7.872827043847813178e-01
-1.220829224349942455e-02 8.307121728536795424e-02 -9.161191540422629620e-01 6.511443880470733081e-01 -3.982020893259066163e-01 6.461006747955653218e-01
1.112693740212735150e-01 -3.402514883003509433e-02 -9.665219114615593021e-01 -8.813757006327956889e-01 2.438613395419233498e-01 -4.046090970441307832e-01
2.661865041905622786e-02 -1.602187188843894883e-01 -1.043629641781291140e+00 3.666902588738275015e-01 -4.241975337802009194e-01 8.280064651811847032e-01
-2.003565317866182194e-02 -9.014608331277075559e-02 -9.854782756147489886e-01 4.175950105580133465e-01 -2.857136130886889780e-01 8.625439921840853952e-01
7.043023002661535914e-02 -4.611326515733638965e-04 -9.174628412861765003e-01 -3.502384190959005883e-01 1.835533006257293043e-01 -9.184994478052803668e-01
2.823865596232814912e-02 -6.750560993153181810e-02 -9.954901033313752201e-01 3.320570691153746506e-02 -6.704946764499923884e-01 7.411708776528695974e-01
-7.603422978777692187e-02 2.215827470246713726e-01 -8.472980617223525579e-01 3.282530932145562019e-01 3.531926174586605960e-01 -8.760735595643645013e-01
-3.079471829960321941e-02 -1.512953103059006266e-01 -9.514845874631471245e-01 2.322835770746523379e-02 4.483328378488711796e-01 -8.935648325133391801e-01
-1.017329910882023430e-02 1.051628032074938685e-01 -8.748124791967962777e-01 8.819713793914941702e-01 2.360110199518013208e-01 -4.079525516473396229e-01
-5.765179986972240878e-02 -5.690322763273218676e-02 -9.580037942859946920e-01 7.368944006140115688e-02 -2.853798945234882201e-01 9.555774077620294849e-01
-6.498896082207322733e-02 -1.577942111664327185e-01 -1.000983301693390448e+00 2.185941475436117831e-01 -2.393020960758956150e-01 9.460185545079782266e-01
8.387831919733501618e-02 6.332280383433862292e-02 -9.178760296668276863e-01 -7.464527670826149874e-01 -2.898327133446972348e-01 -5.990035599142611300e-01
-6.167756772578658966e-03 -1.834686706999728578e-01 -1.052219164418997099e+00 4.835673706829251572e-01 -4.302687258750249599e-01 7.622541712215715748e-01
6.771589076640234517e-02 7.380282773526540552e-02 -9.071072467919217841e-01 -5.860754702397783511e-01 -3.724626138120509244e-01 -7.195742800403011064e-01
-3.159169576102744369e-03 1.027908237018180099e-01 -8.671569033465885701e-01 5.320242799339041095e-01 2.413062043181286587e-01 -8.116165851671518494e-01
8.445069135862887100e-02 -4.354446466915803948e-02 -9.411649503819065066e-01 -3.775043787514497096e-01 5.449241072888851845e-01 -7.486976434575532968e-01
-6.034424025258380148e-02 2.317293020179354013e-01 -8.851995489229819158e-01 -2.402924593035181688e-01 -3.040479069157701608e-01 9.218537868349875319e-01
1.095186180171355134e-01 2.590094349046439398e-02 -9.558134563917971560e-01 -9.687859911357484810e-01 -2.474324177529201307e-01 -1.519546064026668780e-02
-9.486933982623547978e-02 2.343595222493654040e-01 -8.821334462705022750e-01 4.712847124833972612e-01 4.482170552145366971e-01 7.596000205333400812e-01
2.996946463818987022e-02 6.480769791373320980e-03 -9.046981379430191206e-01 5.158491214757625169e-03 2.563400002867889382e-01 -9.665729120047574785e-01
9.061946919163976766e-02 3.570865117634680619e-02 -9.652304866566886465e-01 -8.887594614652079283e-02 -5.552256006957214662e-01 8.269374816324606137e-01
-2.238119871066558686e-02 -1.840087599883900304e-01 -9.767327317157885602e-01 -3.567426858070634754e-01 7.621066461866188302e-01 -5.403037256593242743e-01
5.275817056336851857e-02 -1.507903246462149738e-01 -9.830331883469022314e-01 -5.629851605592538499e-01 4.826610316740441720e-01 -6.708845187462733062e-01
8.485267392337406123e-02 -1.151150697943133377e-01 -1.031807215921003662e+00 -1.746172470434330104e-01 -3.774613348234461263e-01 9.094128642966708975e-01
1.373122953763442088e-04 -7.155269670851197028e-02 -9.895539331111045112e-01 2.208297571633214273e-01 -3.338720507546493188e-01 9.163862024692827069e-01
4.013870500763061511e-02 -1.575837524519852484e-01 -9.783574789592246468e-01 -5.113709560685544275e-01 5.250058080049166964e-01 -6.803445060045955062e-01
-2.997643692507725652e-02 5.769148311595071604e-02 -9.201951626770342729e-01 4.739354780206192497e-01 -5.180948570355643490e-01 7.120132595581806223e-01
-4.906182717820729323e-03 -1.760641086684472112e-01 -1.048359913816378386e+00 3.299633592429819795e-01 -5.058361933807676847e-01 7.970281845851758806e-01
-2.052724968709321654e-02 2.107204709936606468e-01 -8.796167407379041903e-01 -5.214069490284893860e-01 -6.049119388396477781e-01 6.018441158257347157e-01
-5.251524753976012302e-03 4.589817950062187457e-02 -8.816440618104193216e-01 6.328532782749726748e-02 1.649783851141578273e-01 -9.842647508302280190e-01
9.612490142850524388e-02 3.091169574020047480e-04 -9.380072109014971904e-01 -8.289463166272461603e-01 -3.330779576767007311e-01 -4.493407151149771961e-01
-3.433742923097016925e-02 -2.543574577466724621e-02 -8.938857537230336936e-01 -2.186078243428552226e-01 2.126616551515222719e-01 -9.523579366836286697e-01
-9.657575199013867726e-03 1.942791308289727736e-01 -8.581863277142962598e-01 -7.434790786194959145e-01 -4.392729378658725703e-01 -5.042599981297253287e-01
1.232298101722303224e-02 -1.338268215361548552e-01 -1.020636865758216327e+00 -8.367970620600978515e-02 -5.994631180650631386e-01 7.960161285105900042e-01
2.672237425218256315e-02 -1.491862534140716845e-01 -1.033594030840438993e+00 -2.242822668847728115e-02 -7.330637324463600280e-01 6.797900696681450361e-01
-7.374508388090282585e-02 -1.676857999459887560e-01 -9.759389758334873211e-01 1.156882856555377370e-01 9.603409548389073569e-01 -2.536956267285233046e-01
1.813125227698490554e-03 1.072094660314392850e-01 -9.132410735956669745e-01 -1.455591089130642540e-03 -3.786044210090045437e-01 9.255574394099037594e-01
7.954601877880544680e-02 -1.100262550017142710e-01 -9.784230958775113063e-01 -5.682656345372295581e-01 4.767702738434042020e-01 -6.706446708826404590e-01
1.084554290395935844e-01 -3.885592707646239041e-02 -9.638985923235747766e-01 -8.425263898444818045e-01 2.697843837860948168e-01 -4.662249121194418922e-01
1.044818600509168915e-01 4.124254623030647326e-02 -9.517598535246298841e-01 -9.136893856211061316e-01 -3.962774402874236213e-01 9.019920688438858025e-02
5.472230314460675010e-02 -3.430763414583025417e-02 -9.328369921990715685e-01 1.428526199531832963e-01 8.860091129584791725e-01 -4.411133422682204097e-01
-4.030939344831814541e-02 5.899610818808685708e-02 -8.762053844179877871e-01 6.314824811699246143e-02 -1.892661255407350196e-01 -9.798931740156954229e-01
4.236513766714613410e-02 -4.321147917352519824e-02 -9.256091442424521087e-01 -4.968060254902476602e-01 -3.567815016674691919e-01 -7.911325635470257689e-01
5.450263520216848227e-03 -4.013791968670236271e-02 -9.151944691860186554e-01 1.966047461798867135e-01 2.086240090902741484e-01 -9.580305822940328175e-01
6.268459830079983752e-02 8.549380718024020276e-02 -9.149849197406285661e-01 -5.124536726301881506e-01 -8.104247968934381596e-01 -2.839064669711866551e-01
-2.438760473307003546e-02 4.621844115489222304e-02 -8.774385846869919847e-01 -2.054248111248252462e-01 1.311909359706135980e-01 -9.698399792200176339e-01
-5.890388706310463462e-02 1.947740881709998373e-01 -8.672260839939546218e-01 6.215188817283946454e-01 7.697131132200614179e-01 1.457943860104576606e-01
2.008965563571171384e-02 -6.544372642910487037e-02 -9.263083499879035676e-01 -3.608215092107354138e-01 4.595135997390975002e-01 -8.115756835598907371e-01
1.886689019463044792e-02 -7.578265981337774237e-02 -9.328141968355417868e-01 6.098900474318911247e-01 3.730144112208026441e-01 -6.992098247773149700e-01
8.163844884160155468e-02 -1.428669361048944819e-01 -1.019209882319571880e+00 -6.007806829644531943e-01 7.213051189706431998e-01 -3.446469154417480807e-01
-4.417459539971925475e-02 1.825224747744658149e-01 -8.751934182201244194e-01 7.170479658037524073e-01 6.209654969668565450e-01 3.166134335643476794e-01
4.348680819143991433e-02 -6.536502251307026168e-02 -9.267672489636830102e-01 -4.313886626110961520e-01 2.615207134963469793e-01 -8.634296370770297990e-01
-5.915468643832542256e-02 -9.691537906236581679e-02 -9.749072934487804654e-01 2.450578978238228955e-01 -4.604422892699134851e-01 8.531937206555437747e-01
9.040833080830178170e-02 -1.019242075767701483e-01 -9.829587656057369172e-01 -6.542471741209814340e-01 4.258693574198640919e-01 -6.249767400195802569e-01
9.799852026379238246e-02 1.029920781967646332e-02 -9.376301020848178958e-01 -2.405038544962595781e-01 7.558361197368450579e-01 -6.089906863603020692e-01
9.010374536567909709e-02 7.724370870081554916e-03 -9.783408320799412694e-01 1.695783306497877785e-01 -1.697369913716557654e-01 9.707896494782635166e-01
-2.600689559909152848e-02 5.529590664082423973e-02 -9.248879868947319505e-01 4.952260644620875008e-01 -5.391082250061897119e-01 6.812587370508121909e-01
9.872156043704551076e-02 4.664407124524259929e-02 -9.560851334810200886e-01 -5.306965198287002528e-01 -5.905701891502609380e-01 6.079375424570609976e-01
5.270929701743391066e-02 -1.387439626589298258e-01 -9.750745325285686826e-01 -6.195930069940042140e-01 3.488581664679563099e-01 -7.031376005965995768e-01
4.212673418833873945e-02 -9.303883219612057998e-02 -1.016022331078173080e+00 5.468831564116839461e-01 -1.649046087491501944e-01 8.208077017465682523e-01
-1.204900812499220750e-03 1.839188081275668334e-03 -8.985332079860658405e-01 -1.724069193969935965e-01 3.644697045102852639e-01 -9.151162159191718048e-01
5.439481765416490783e-02 8.658623085016886600e-02 -9.063156852057837609e-01 -5.187307629519611885e-01 -7.100172593096921725e-01 -4.762288179537538801e-01
6.061085767164584720e-02 4.600432132659140749e-02 -9.022008474217928509e-01 -3.313232936032957099e-01 1.773952875467133261e-01 -9.266907720874765220e-01
4.704710835567557647e-02 5.074233983829602723e-02 -9.514601745839613711e-01 9.583928101978110570e-02 -6.874434496494117308e-01 7.198863352972664220e-01
-5.695060681284545151e-02 -8.195379648123189698e-02 -9.682251675174577965e-01 1.520307726101170764e-01 -4.083241700448410616e-01 9.000877825727681136e-01
-4.222284360259433850e-02 1.883503392085421058e-01 -8.498367088534505287e-01 4.213292862748899137e-01 4.852767845118446943e-01 -7.661514699724436550e-01
-2.765141778671096479e-02 7.023816479809437407e-02 -9.124141460808501414e-01 4.694692819268456163e-01 -5.349106266097369833e-01 7.024736399802273823e-01
-4.741402218631859955e-02 -1.600650196046494445e-01 -1.006328272187523964e+00 2.620874684532959464e-01 -4.939968301369100367e-01 8.290218879465289792e-01
-4.807460096332894298e-03 6.152028541498567871e-02 -9.372522095459212554e-01 4.278607851342562940e-01 -4.113576493076941398e-01 8.048105571501567024e-01
3.666307640627501641e-02 -7.348598954371557412e-02 -9.267201786774916794e-01 -3.447944313336211430e-01 3.715359462330177776e-01 -8.620196289981225668e-01
1.049603824947603625e-01 2.352899066324086463e-02 -9.684101310802344376e-01 -5.360306675122475939e-01 -4.698744179278783739e-01 7.013480982103765804e-01
-3.833163741772829120e-02 -1.388530662954376160e-01 -9.979494035613095670e-01 2.016952041250416328e-01 -4.070515825231729723e-01 8.908580435727896374e-01
2.482751381295022347e-02 7.546207374966823478e-02 -8.786130332418332634e-01 -8.689674733481304036e-01 7.978039847265350204e-02 -4.883959646460138138e-01
9.631744914009282565e-03 -7.773413189198374873e-02 -9.949447447461228222e-01 3.979508298879218531e-01 -2.546943109713540321e-01 8.813432617036006667e-01
7.007590066470492651e-02 -1.721463579740256100e-01 -1.028833179214005522e+00 -8.529577582307920069e-01 4.982442161528253255e-01 -1.556141502054311510e-01
4.671334331321309180e-02 -6.157029862568797612e-02 -9.968224404875434264e-01 2.580550075288811085e-01 -4.515378683917892766e-01 8.541201124534347766e-01
-1.054915002324111201e-01 -6.545766968484641180e-02 -9.258309455127845533e-01 7.962510519202842252e-01 3.059307192420846477e-01 -5.219105836633910478e-01
-2.461351390077080523e-02 -2.240461977396084325e-01 -1.037748947428678736e+00 6.495452090120582556e-01 7.486734373278779442e-01 1.325862198312531826e-01
-3.356901284985380762e-02 -2.125853711684369540e-01 -1.008462141224782060e+00 6.435515567612710708e-01 4.153165244719982940e-01 -6.429257953221695354e-01
1.147485623013448919e-01 -2.521770658343181620e-02 -9.721582633063146073e-01 -9.777622115891229093e-01 1.007717187540646819e-01 -1.839187817698316463e-01
-6.657093542231370953e-02 2.435143407949733330e-01 -8.800526245081085053e-01 -4.838962866070143920e-01 -6.721543027086104294e-01 5.604042979476904218e-01
-7.046908472402363399e-02 -9.609701345845082787e-02 -9.717103612319250017e-01 2.472041277989335817e-01 -3.829887615940824608e-01 8.900616426359465594e-01
-8.196552699893318306e-02 -6.657107310342470774e-02 -9.607902904061202953e-01 1.725096681536664178e-02 -2.410139838104829180e-01 9.703683134520291187e-01
2.463819529929383700e-03 -2.254720568879439446e-01 -1.073501247047766727e+00 6.527229043242180340e-02 -3.647766226981964399e-01 9.288043624114840080e-01
-7.787909289685004954e-02 -2.336906123458560788e-03 -8.838307178091525662e-01 2.721203250887233582e-01 2.484347537348057244e-01 -9.296400926220501626e-01
-5.958737721490597709e-03 -1.511800470729401935e-01 -1.030473341274993349e+00 3.954346712273754116e-01 -4.595702618562099717e-01 7.952525354934193436e-01
-4.280193463909879453e-02 1.773707848198634862e-01 -8.656746634160714660e-01 7.717227330889517845e-01 6.287940855816551711e-01 9.519464885826496581e-02
4.791418080809627805e-02 3.665434204460611689e-02 -9.032313840772887570e-01 -1.588840130680300999e-01 7.498470843812041764e-01 -6.422501229555392932e-01
-3.501377666287010942e-02 -2.161057597281511311e-01 -1.016117957297724805e+00 5.968592137774181294e-01 7.693203968849311458e-01 -2.278271403187385469e-01
8.998313335582713499e-03 -2.761964629631561731e-03 -8.948752957295289523e-01 3.813539130357365137e-01 3.544380543923937310e-01 -8.537815051937271971e-01
-3.461656858060022102e-02 6.112944641058352252e-02 -9.148349935638022679e-01 4.299544038314900840e-01 -5.212823070712557794e-01 7.371593904715429968e-01
2.952609446605656066e-02 -1.237283616284226700e-01 -1.018278653855051674e+00 3.388758833684250016e-01 -3.612918474510514733e-01 8.686951920188552556e-01
5.878249004402706646e-02 5.561037628398678850e-02 -9.000603955492866293e-01 -3.578028315547179816e-01 8.831388481634858123e-02 -9.296116347594145513e-01
-8.240768755069537155e-02 3.531569296815337961e-02 -9.089748127316075177e-01 4.308609307028564706e-01 -5.213141777061914839e-01 7.366073489426951948e-01
8.377054900941548893e-03 -1.082079467734300554e-01 -1.005957263777479849e+00 5.379526256586292937e-02 -4.221010847080953199e-01 9.049512384729462289e-01
-4.107604900346886745e-02 1.954919877732760325e-01 -8.466424851576664912e-01 1.663610814964927576e-01 2.688188882043210381e-01 -9.487151289548986233e-01
-4.769283676489417118e-02 -2.016583874886000993e-01 -9.988660754685977361e-01 4.633851877692150012e-01 7.987384854020515013e-01 -3.837850957159832932e-01
5.258901540902210375e-02 -1.200455844502213050e-02 -9.778598329055836480e-01 1.520113111777744719e-01 -4.827049853272056823e-01 8.624896859755923906e-01
9.690117811773754641e-02 -1.420200901337729561e-02 -9.373214543204270166e-01 -6.562161677892514033e-01 2.720741496211034338e-01 -7.038153154343418372e-01
-8.035306449571802401e-02 -1.251371094725042266e-01 -9.411441814609767809e-01 3.839520968383004496e-01 4.492694499431474919e-01 -8.066831773882817691e-01
5.366478838006088180e-03 6.091342312978217932e-02 -9.390648047236594964e-01 -2.116494558953034913e-02 -4.559445863547828548e-01 8.897564718797823513e-01
-5.958440225773185134e-02 7.186967629632633192e-03 -8.801374696741708359e-01 -2.592134452323325844e-01 4.757283208038776134e-01 -8.405301628114885126e-01
-6.641596163350452220e-02 2.053629416878530178e-02 -9.293283752955668886e-01 1.830909253337409948e-01 -3.562200141344970539e-01 9.162887179216238076e-01
-5.592357283547060715e-02 2.305438292518127361e-02 -9.300588155990938688e-01 9.336273529055764964e-02 -1.924811936486185149e-01 9.768492154629947466e-01
-2.056810927249830973e-02 -2.212905841308114574e-01 -1.012928574308256335e+00 1.445551566851205616e-01 8.627325853980989390e-01 -4.845578322223796919e-01
6.757463892563629615e-02 4.603776187606061637e-02 -9.580910662402155609e-01 3.801303921901080796e-02 -6.514701200616787036e-01 7.577213811924249365e-01
-1.087681222223275262e-01 -5.511479518230306268e-02 -9.337302585915270292e-01 8.652536535816586216e-01 -1.525453090710148507e-01 4.775626070412334334e-01
9.220773498578114374e-03 -2.985481482867501524e-03 -9.650946858356703739e-01 3.081504274749146122e-01 -3.555541459049554875e-01 8.823970553989994858e-01
1.068343250430870729e-02 -2.337957997612509498e-01 -1.066672842107886821e+00 -6.555383904484619606e-01 7.050604309382202395e-01 2.704795877204986820e-01
7.670040773986912253e-02 -1.091574971313720721e-01 -1.029681329257762457e+00 -6.344641654648992823e-02 -5.062716065430589163e-01 8.600369832953227434e-01
3.240494335176955648e-04 -6.047635287383123365e-02 -9.850256256430822699e-01 1.849582900975818289e-01 -4.566030854978298525e-01 8.702321835223288948e-01
4.121956805197365264e-02 4.026346188743409188e-02 -8.981832849231169424e-01 -2.417868152873264564e-01 4.857046212988029854e-01 -8.400179502857059166e-01
1.409870327641961005e-02 -6.512654482575162829e-02 -9.233038411716067984e-01 -3.082823687634706281e-02 6.398417577018009617e-01 -7.678881070261249775e-01
-7.039904884190810452e-03 3.768878935890633899e-03 -9.588541721442425114e-01 3.718395572312960806e-01 -3.280272266066127651e-01 8.684085917831578794e-01
8.746838177197441277e-02 -5.805828646703748569e-02 -9.664630886600185100e-01 -5.397752073607952061e-01 4.286492667603818418e-01 -7.245015746183010030e-01
-5.194681875309895003e-02 1.752769336361438210e-02 -9.317963919667910933e-01 1.582280763882224495e-01 -2.646630326469690542e-01 9.512714412787720564e-01
-1.071069442163252311e-01 -7.872641272580431504e-02 -9.456779106719166439e-01 9.281619132117563398e-01 -6.585664198387115864e-02 3.663036521380861332e-01
2.655166222729020593e-03 3.547775143684565868e-02 -9.482368985501256065e-01 1.128441646352149920e-02 -3.370843706466109535e-01 9.414068137690825289e-01
-1.700261232444832266e-02 -2.145123042834007898e-01 -1.057728707859476813e+00 7.070218853025899142e-01 -1.991913262441586951e-01 6.785594073124802117e-01
-1.620803460018949843e-02 -2.231496625985545379e-01 -1.058666435680583273e+00 7.705709050981418562e-01 2.716888050043551051e-01 5.765463324413190316e-01
4.860002274974975500e-02 2.526789194428883528e-02 -9.113369459982044729e-01 -4.988918000944199127e-01 -3.273076812258648438e-01 -8.024815596691908803e-01
-4.226151705655432217e-02 5.600279744147519667e-02 -8.757541417662100258e-01 1.208944624852744953e-01 -1.565078523218937645e-01 -9.802498768691506603e-01
-1.620481950862827369e-02 1.070566811007525182e-01 -8.915727640185274749e-01 9.885934581611851568e-01 -1.092773714133277452e-01 -1.036408731046904869e-01
1.764995448718620352e-02 -1.128391596909977118e-01 -9.468176335035656255e-01 6.955044005284792830e-01 2.045326550538773824e-01 -6.887960669618637954e-01
2.466367231912865166e-02 1.067739589975090497e-01 -8.743853751157782961e-01 -9.460336787573287998e-01 -3.233518015422576913e-02 -3.224511044813906380e-01
-4.103018287955231130e-02 -1.655735136225012505e-01 -9.610968419641412464e-01 7.397257896990712400e-02 5.803000884913163127e-01 -8.110362907154717860e-01
3.465931924692298299e-02 1.468973731476224147e-03 -9.066480283798429296e-01 -1.998425997050411185e-01 2.895168111499833441e-01 -9.360784963904873468e-01
3.543214082327840464e-02 4.315973737150383127e-02 -8.951962911173761972e-01 -2.659719130604069059e-01 2.961874345062860958e-01 -9.173505028633122116e-01
-7.233025404062336239e-02 2.053047740571641577e-01 -8.674753811281518123e-01 6.006362990811597857e-01 7.900586630538225519e-01 1.226513153606355322e-01
-5.620582215724405362e-02 -1.524223458673847897e-01 -9.563052707923332951e-01 -6.606923794343778633e-01 7.200862513328476489e-01 -2.120409639639155575e-01
1.103660958478686754e-02 1.285126724960821420e-01 -8.603846264974722713e-01 -3.336962539551840967e-01 1.368761036476273674e-01 -9.326905930406508283e-01
4.519914395428227538e-02 -1.617545713050896061e-01 -1.046016373568688929e+00 -1.096891664436844133e-01 -7.285568882596985540e-01 6.761458033103769916e-01
1.001656548275599162e-01 -2.267695696218033699e-02 -9.443136523603183896e-01 -6.795342039313287952e-01 3.274033650491653402e-01 -6.565365962700769886e-01
2.723029886683129772e-02 -2.247764158268032442e-01 -1.052323851598901294e+00 -6.267783198929713917e-01 7.586129931468831300e-01 1.779192635463372751e-01
-6.506145701209685439e-02 2.451077017232146035e-02 -8.779148255075154283e-01 1.685284157203622291e-01 7.187548156843943416e-03 -9.856705901295209626e-01
2.015858755167066613e-02 1.261477568824684869e-01 -8.950799110251009827e-01 -8.365309967394825019e-01 -2.700396261720584001e-01 4.767541208955648480e-01
-9.297150035117145855e-03 -1.723319446039998371e-01 -9.834243237274444827e-01 -7.191993531504277115e-01 5.494995973110218257e-01 -4.252087522418030452e-01
1.168792543451167842e-02 -2.161955620352215557e-01 -1.069614760357054273e+00 -1.107550257434939955e-01 -3.808753713490521942e-01 9.179691039312160017e-01
8.385436963300785251e-02 -1.173126291701542673e-01 -1.032911021333994261e+00 -1.746172470434330104e-01 -3.774613348234461263e-01 9.094128642966708975e-01
-4.681768071032029604e-02 -1.407890090703496078e-01 -9.475706399348206022e-01 -6.532750531226485524e-01 7.074244051318583359e-01 -2.697821639609203626e-01
-8.114104955865233948e-02 1.855601982714625675e-04 -9.328689978573734276e-01 1.491850319869513775e-01 -2.156467124151169035e-01 9.650079386490062472e-01
-3.801394708339054379e-02 -1.312120735904226676e-01 -9.946501123372655240e-01 1.555142006346326433e-01 -3.851373535145395932e-01 9.096617790853849250e-01
6.189373143850092351e-02 -1.803698171328949051e-01 -1.046615529381638821e+00 -7.460671060288660561e-01 3.246079324357124540e-01 5.813893389988541438e-01
-5.887659016189940309e-02 2.352888440852237695e-01 -8.500161222681649198e-01 -3.544386957428292129e-01 -5.088575824155754379e-01 -7.844980380971631195e-01
-2.258537077637033652e-02 2.041351725910983683e-01 -8.514348335758041841e-01 -5.593586758679355286e-01 -3.969164420912116298e-01 -7.277191832904528201e-01
-4.041297483517721639e-02 -1.753408152693119171e-01 -1.028188987708033686e+00 4.607108452460459969e-01 -6.486009965875287886e-01 6.058566367535623831e-01
-8.098519524010108772e-02 2.511137857942622453e-01 -8.823484936928649436e-01 -3.100633899829962070e-01 -7.277699646392205013e-01 6.117283488291843652e-01
3.038413853011338872e-03 -1.196033575534184851e-01 -9.411039989153374696e-01 -2.771162972962519233e-01 3.239216021702024939e-01 -9.045890522332803441e-01
1.268525301584494738e-03 -1.724383788218032398e-01 -1.047628059610513196e+00 9.590235045574782569e-02 -5.388632002990368930e-01 8.369164776371312842e-01
7.916946610295325093e-02 5.250074177087839244e-02 -9.542285657762119566e-01 8.928830937765096232e-02 -5.471728365637742453e-01 8.322436450554814291e-01
-1.059062430029529683e-01 -7.002809292950068487e-02 -9.291427623103396538e-01 7.962510519202842252e-01 3.059307192420846477e-01 -5.219105836633910478e-01
-5.146418041038928332e-02 6.282938038616390532e-03 -9.358075534080766422e-01 2.159474043693918877e-01 -3.623353015173294556e-01 9.066861903770612185e-01
-4.408216333161019997e-03 -1.454433931277239293e-02 -9.012333219933915673e-01 -5.339363449471877798e-01 2.554636012402285994e-01 -8.060088882796585530e-01
6.618734418864739844e-02 -1.790965206162940249e-01 -1.038471864470729811e+00 -8.125080371747068764e-01 5.590028209270664350e-01 1.653678799588582660e-01
-2.497604513041002186e-02 1.936776729088621474e-01 -8.475863424272831459e-01 -2.826571252906054932e-01 -1.036775157305870471e-01 -9.536015531941969270e-01
-9.888151334278119653e-02 -2.125713848617648630e-02 -9.315544585750690221e-01 3.866875319813497525e-01 -1.479420946738851383e-01 9.102669329563036760e-01
-4.817339642670932093e-02 -4.902905683759484212e-02 -8.970597490914885563e-01 -1.580958563333183797e-01 3.558861636179703192e-01 -9.210595739448769192e-01
5.676181525987153767e-03 -1.244962948076654835e-01 -1.015017560236619154e+00 -1.687747195785473941e-01 -5.292216466650201401e-01 8.315284377171637820e-01
-9.133717627016020579e-02 -6.945208593991972212e-02 -9.155136801983795314e-01 5.040968389388708060e-01 3.960660271781649144e-01 -7.674751325529337587e-01
-1.324561383377160367e-02 -1.098725843457910439e-01 -9.360568245637941320e-01 -6.175804723990294676e-01 7.512669721129587863e-01 -2.327923897459240887e-01
2.762665101993724490e-02 9.144731768421487939e-02 -8.903637858868080901e-01 -9.345335109315751065e-01 -2.049365725422631346e-01 -2.909434965427705189e-01
-3.981334678655489012e-02 -6.898978192394560061e-02 -9.657543333109012140e-01 2.740804094790070256e-01 -3.626848019615191432e-01 8.906961679304303825e-01
-5.580830479288910462e-02 1.946569660950306091e-01 -8.741924189745196028e-01 6.149726766356288232e-01 7.244232545039516191e-01 3.114796226489195408e-01
1.387374714268051722e-02 -1.884734311283228492e-01 -1.056023253982604881e+00 -1.089911251557095367e-01 -4.578441144985205824e-01 8.823263010113424620e-01
-3.057179598205465518e-02 -1.329411537957871370e-01 -9.973898176538841254e-01 3.180730354594658027e-01 -4.109579745889452296e-01 8.543670682062558530e-01
1.315313734593090769e-02 -1.755239144137273402e-02 -8.992809415080625923e-01 1.132238778625094949e-01 3.260528371858626984e-01 -9.385466961450692480e-01
3.295343876361008645e-02 -1.017979472536600649e-01 -9.470057139608792918e-01 -6.350964709985408296e-01 -5.930306985642749829e-02 -7.701529837836138537e-01
9.598255782040618356e-02 -8.906133926683210134e-02 -9.810846008310326605e-01 -7.672740773312457518e-01 2.851561201594675632e-01 -5.744357904858335973e-01
1.140079080998862224e-02 1.019330788812192051e-01 -8.652062568561703637e-01 -1.746979475604376608e-01 1.519267956903675720e-01 -9.728303427984901219e-01
-4.049473979787188843e-02 -5.186831212223112081e-02 -9.013063717519875784e-01 -5.465600763548070784e-01 6.778274639766089793e-01 -4.917540157579462501e-01
-2.647855597909437933e-02 7.702241883483562646e-02 -9.079479895007089851e-01 5.052437462650088973e-01 -5.145088990252811856e-01 6.928270705478332125e-01
-4.274596091951907845e-02 2.047878347194616588e-01 -8.873988497262270680e-01 1.982525420964241503e-01 3.447320380567222078e-03 9.801449104772718135e-01
-1.273038393086498195e-02 -1.971251508135698216e-01 -9.913679833713059386e-01 3.407389490394195364e-01 2.815913348024792207e-01 -8.969968164780017794e-01
1.121583555720121889e-01 1.140237024414359097e-02 -9.565777433609961022e-01 -9.886605289350248738e-01 -7.669749845252482601e-02 -1.291040365637015352e-01
1.511208579218654459e-02 -9.347541100237037603e-02 -1.001913058753546304e+00 3.251618784440106769e-01 -2.774368663169737848e-01 9.040456504043254959e-01
-5.812690258908573271e-02 3.799605543687801547e-03 -8.837285676896744491e-01 -5.208413013070960496e-01 7.390386729313384029e-01 -4.272542320031681995e-01
-3.589651304274431992e-02 1.751585221551755500e-01 -8.792905300736151286e-01 6.944012906030325727e-01 5.389966061008650833e-01 4.767488922069894053e-01
8.492634263261393535e-02 -9.553440338320400016e-02 -1.022738732771670378e+00 6.359494913793536930e-02 -4.261228198902866082e-01 9.024272961368654533e-01
4.291265007195480680e-02 5.424221073117986569e-02 -9.475676061438441655e-01 9.583928101978110570e-02 -6.874434496494117308e-01 7.198863352972664220e-01
-3.285194069900942287e-02 -1.739395391712252048e-01 -9.665463996258825130e-01 7.504881133778364133e-02 6.025726220985077042e-01 -7.945274765633437708e-01
3.224206723728358787e-02 -2.028215630165041139e-01 -1.010246816242428292e+00 -5.324469046317620302e-01 4.760061658726903455e-01 -6.999417288597931108e-01
4.046877468582687348e-02 -2.120811575669380722e-01 -1.029536209294566795e+00 -6.357535622335618308e-01 7.009924708486061640e-01 -3.231516113543342339e-01
1.002687792765372399e-01 2.752709326637379703e-02 -9.292108198379583905e-01 -7.513627286357090762e-01 8.339468881810416234e-02 -6.545986372534190467e-01
1.097646075682378319e-01 2.041884637760294982e-02 -9.646999020185151874e-01 -8.702578618073211203e-01 -3.681492510009208852e-01 3.272879205684352533e-01
2.250253043137265610e-02 -1.594130963857889882e-02 -9.118867739341351975e-01 -8.501195975058208898e-01 2.303408958138507268e-01 -4.735395882629178099e-01
-1.004863815664512605e-02 -2.181429800410510447e-02 -9.005545281118444434e-01 -3.739897744790149914e-01 2.864811042779069061e-01 -8.820772219464954045e-01
5.097937052890487430e-02 -1.604614324302130329e-02 -9.161410630903504826e-01 -2.286843724474456885e-01 3.112370864655435443e-01 -9.224071410211207578e-01
-1.746447756980022692e-02 -4.628718379720404841e-02 -9.140775955516847739e-01 7.962475066625802900e-02 -3.056961554670352132e-01 -9.487938446332853104e-01
7.393720666267901420e-02 4.663733988855062185e-02 -9.580053504703172074e-01 5.591611953330313106e-02 -6.240620292612363285e-01 7.793715232228368706e-01
-5.317389527569674201e-02 -1.388957008033190610e-01 -9.962331083109984275e-01 3.303935237292389415e-02 -3.110449920285309755e-01 9.498207273631951164e-01
3.392240022010185180e-02 9.710496228848014555e-02 -9.002759001815231477e-01 -4.978596252537786926e-01 -7.532841054184297169e-01 -4.297660410806363185e-01
-9.103903157227036247e-02 1.587144272421878513e-02 -8.914469542029550553e-01 7.223851797732738778e-01 -1.236566091726268163e-01 -6.803445414287256909e-01
3.841237748719827233e-02 8.094918967546842203e-02 -8.936622791410960831e-01 -3.525150545243016520e-01 -1.954173798137072982e-01 -9.151749472098075211e-01
1.012094303900692716e-01 -1.925547712506644679e-02 -9.862474121061632903e-01 -1.995903184083520909e-02 -3.611851973586724385e-01 9.322804783202066625e-01
-4.934551879368077182e-02 2.901515382401610374e-02 -8.764139064626402797e-01 -5.841406739319091740e-02 1.414254220496405645e-01 -9.882239861127966041e-01
1.039424021795573305e-01 4.265377425307247117e-02 -9.448539348219758827e-01 -9.305680335023205352e-01 -3.451267144215343086e-01 -1.221911863279039889e-01
2.617283499027999935e-02 9.383939655575584959e-02 -8.815498760765639874e-01 -9.915979967130170714e-01 -1.092231359832460287e-02 -1.288957562543893154e-01
6.467847874216939297e-02 8.363029997393146842e-02 -9.136003652404760533e-01 -5.349691234946001295e-01 -7.616176122867559517e-01 -3.657138903050304313e-01
-5.739356321503339547e-02 -1.402893430518065698e-01 -9.966080080955842524e-01 2.328196115422702384e-02 -2.911826092704660751e-01 9.563841478941692564e-01
-1.566594566665774346e-02 -1.530825252562825478e-01 -9.528266755351896267e-01 -7.723965450106397290e-02 4.969173066070525224e-01 -8.643536464705570133e-01
-3.980310210752591865e-02 -1.698485484269993406e-01 -9.641003638676117760e-01 7.504881133778364133e-02 6.025726220985077042e-01 -7.945274765633437708e-01
-4.418644724123262091e-02 -2.429642365609061688e-02 -9.532802924622308938e-01 1.904642997936822624e-01 -2.314560107370000619e-01 9.540185876584460489e-01
3.020735866909383602e-02 -1.552674337417511985e-01 -9.698946653254650885e-01 -3.404212518689898048e-01 5.924252253365591692e-01 -7.301682844802811490e-01
-1.029019381958955343e-01 -6.639392569376711961e-02 -9.231782303994517935e-01 6.788638221935419104e-01 3.409259040719930800e-01 -6.503179521199375923e-01
-1.010313465113874820e-01 -9.734085130691115528e-02 -9.633761383694595670e-01 7.596090619264393995e-01 -2.514608564021149073e-01 5.998012260213789748e-01
-7.269695876424316083e-02 -7.630915729767852318e-02 -9.109128005954122420e-01 2.917310375553021362e-02 6.155395654229848246e-01 -7.875658533837992525e-01
1.625557786153486797e-02 8.036093335080422839e-02 -9.257761936959741922e-01 -8.038272027734261194e-02 -5.784376156782208289e-01 8.117564555020855277e-01
-6.434587168601701990e-02 -1.470950368927343987e-01 -9.982909123163817844e-01 4.878677311460934835e-02 -2.632346738624878890e-01 9.634974609440201121e-01
-5.588936404213686038e-02 -7.526336640875623540e-02 -9.653817182014415854e-01 1.455842267651106248e-01 -4.017375971645427146e-01 9.041084757603286004e-01
2.293940894373200021e-02 1.257482456813054650e-01 -8.887654523078233337e-01 -9.529199632942566556e-01 -1.914255351834854013e-01 2.351591121666105899e-01
2.720799594523217423e-03 -1.265432832234300413e-02 -9.661901679619004923e-01 1.697036752329683651e-01 -2.406132097901873268e-01 9.556704169779906000e-01
1.115329449548215918e-01 -2.113964849555172165e-02 -9.599753206492208646e-01 -9.033188706341115370e-01 1.702707312672946671e-01 -3.937294706140420653e-01
-1.976662782177067770e-02 -4.663427031404088208e-02 -9.668571415227080745e-01 5.641392349134507489e-01 -2.839417514051416069e-01 7.753218721539120173e-01
6.743807967359365108e-02 -4.718333320471043008e-02 -9.467930229747096860e-01 -6.755601068810961340e-01 -5.647774828466206598e-02 -7.351386304225183688e-01
9.228727491496681312e-02 1.086199507704582040e-02 -9.336516120885834935e-01 -6.942027065564112531e-01 2.640219788765972297e-01 -6.696080920059426234e-01
-2.915361283107780616e-02 -1.832396826031976456e-01 -9.742413183666710497e-01 -4.392206968423885416e-02 6.647713646691691958e-01 -7.457545739119159078e-01
-8.969673634067082402e-02 -1.358510799497966992e-01 -9.538217736285100612e-01 5.174889013478463085e-01 5.038712086787519029e-01 -6.916061321636850501e-01
1.244259212522540745e-03 -1.036688289020352635e-02 -9.653670951949022694e-01 1.006281404803489182e-01 -2.572694073427907457e-01 9.610860676281579584e-01
5.348014380342759611e-02 -1.239329086490298798e-01 -1.029310791084770971e+00 4.511765573379513672e-01 -2.027821525813842951e-01 8.690909691759166611e-01
-7.586555388913516877e-03 -3.063748251698984043e-02 -9.063875305602355770e-01 -5.266022818268605299e-01 6.365189968641218332e-01 -5.635012008912098080e-01
-6.514709140248081849e-03 8.616632165065585269e-02 -9.197813806687947791e-01 6.257341352615524155e-01 -4.116388065218019587e-01 6.625785122789475956e-01
-1.960995872024376554e-05 -2.297296291320632677e-01 -1.031116527123208559e+00 -5.065172424497991210e-01 8.015788399303900302e-01 -3.176659353423049170e-01
-8.426185202914403261e-02 -1.582409746386997940e-01 -9.746086309510790802e-01 8.108090178938296422e-01 5.790317251240472141e-01 -8.550437299877265696e-02
-6.069631798521755994e-02 -1.735464940964672464e-01 -1.009169603086422118e+00 4.994798771086824130e-01 -3.408883010932159952e-01 7.964389609639123124e-01
-3.418004279427314801e-02 1.732354493899058157e-01 -8.537519040831590411e-01 5.792442648133826477e-01 4.772287823341874735e-01 -6.608545762818265334e-01
-1.108862304292567054e-02 1.892833155143841539e-01 -8.896786257498278117e-01 -3.224388078046553918e-01 -4.447802406933135666e-01 8.355858739293707815e-01
1.443286697398900482e-02 1.190413974461064922e-01 -8.633889545144738387e-01 -4.296703535804812235e-01 1.341706711837861998e-01 -8.929622714583840271e-01
1.929497113270033787e-02 -1.033787658234143342e-01 -1.006509575711131310e+00 3.528092259448151746e-01 -2.951686422958928468e-01 8.879195474216229345e-01
-2.165433257363000297e-02 4.882182619892060961e-03 -9.479317344402963252e-01 5.025425830684930872e-01 -3.700632614153901434e-01 7.813476401407067895e-01
-3.987223197104664690e-02 -1.010929108720549918e-01 -9.843625878027971732e-01 1.498469872734539514e-02 -2.644931850900527626e-01 9.642711308781207746e-01
-4.514662549035959593e-02 -1.412058804560668290e-01 -9.508974700736867458e-01 -4.919556381252669364e-01 6.604572180998548037e-01 -5.672529534313258681e-01
-4.202914686746940867e-03 -3.125424831263397957e-02 -9.131840697019575348e-01 -2.214932833661115430e-01 7.230256412440777547e-01 -6.543505540054884717e-01
-5.532466997373683415e-02 -1.969007587827184269e-01 -1.002606588937683174e+00 7.055637207248134368e-01 6.935125595876971971e-01 -1.456714305932295672e-01
2.409070328377726708e-02 -1.566342078634297696e-01 -9.716871707130780855e-01 4.856873944997366910e-01 7.785237627591732323e-01 -3.975028372771139407e-01
-9.708257183892196607e-02 -4.607906605212777618e-02 -9.097613519434767371e-01 6.319028942161172280e-01 2.304253043488453112e-01 -7.400019671575451818e-01
7.719324309745591306e-02 3.006743828507139199e-02 -9.124720663932758269e-01 -3.401477097911924652e-01 3.633010018636147476e-01 -8.673591629588636165e-01
6.253538669539028712e-03 1.389338251189221329e-01 -9.004463819426775650e-01 -2.485382265708609428e-01 -1.994051685240441352e-01 9.478746376493617509e-01
-9.069723789675274150e-02 -1.369695699440162395e-01 -9.554958849688156564e-01 6.005059515609934007e-01 4.969647741397648089e-01 -6.264332489611629251e-01
-2.083592935193934181e-02 2.039007481746456796e-01 -8.854933133464344408e-01 -3.959600299770947851e-01 -5.159357424153401261e-01 7.596222510951545770e-01
