-2.791582332493233037e-02 -3.655914125918234558e-02 -6.224305168149738554e-01 -7.755755565590046752e-01 5.677117596990165493e-01 -2.760179595019786603e-01
-2.646007468088105736e-03 -1.344593954060225582e-01 -8.036447510399564731e-01 6.925340071353279781e-01 -5.109737655119706012e-01 5.092174976565542188e-01
-1.476554043131484209e-02 -1.920949477244090486e-01 -7.246051858987833105e-01 -3.693413857450687510e-01 6.908223684591744407e-01 -6.215717142955979879e-01
4.911252004302390367e-02 -7.660791225981564145e-02 -7.380537457699903880e-01 -4.959061209494575739e-01 8.036377342374841914e-01 -3.290038165652559021e-01
1.460878699474719294e-02 -1.242052697399554650e-01 -7.022383967370806612e-01 -7.642868816958504619e-01 5.151933722124268922e-01 3.878676987015297062e-01
-2.821907205870818544e-02 -1.189834356217114447e-01 -6.650073696652263333e-01 -1.551601342574790154e-01 1.497254844861678202e-01 -9.764771436303993912e-01
-1.122631819680755712e-02 1.801891606070621099e-01 -6.164307584673159868e-01 -7.887525130205048640e-01 -6.085441487704380537e-01 -8.685327973715896432e-02
-2.611767525073255963e-02 -1.775459651381784409e-01 -7.965000154526993281e-01 9.593845481377555329e-01 -2.511064874141265557e-01 1.285566831131439991e-01
3.370101996151862039e-02 4.467562939758008833e-02 -6.969083769237641723e-01 -9.830896668354619505e-01 3.263012693900485539e-02 -1.801942889696687700e-01
1.130756401090398863e-02 -4.269097749339884063e-02 -6.836171516831938133e-01 -7.533710490428801032e-01 -1.031436018527113752e-01 -6.494562801766406990e-01
5.396801866546640375e-02 -1.143019644027663401e-01 -8.037945824220005253e-01 -9.995025602421396815e-01 -2.927218744568491765e-02 -1.173759394221191021e-02
5.346323484332309028e-02 -1.112016047972753767e-02 -7.325536713909819309e-01 -6.059506815532856860e-01 6.591175574154408690e-01 -4.454074730309444119e-01
-2.703516347887130120e-02 -1.792612479721440999e-01 -7.936621538770729511e-01 9.504600859529978019e-01 -2.623038452597841741e-01 1.668002331297863960e-01
9.736670426425220876e-03 -4.968323313881019970e-02 -7.856663093970467360e-01 8.644697625640310745e-01 -2.555205571142017407e-01 4.328986884994402429e-01
8.178765220693537397e-03 -5.969554125684161522e-02 -6.765280419854482474e-01 -3.405765931938175561e-01 -2.599882185521922295e-01 -9.035561467792416757e-01
-7.368013100864498344e-02 1.779133901754218483e-01 -5.800647964655772926e-01 2.988989918436744664e-01 9.462403705156324785e-01 -1.236468919191812815e-01
-3.235720038370389854e-03 8.001622625434005875e-02 -6.429151173608596004e-01 -4.603256205699728376e-01 -3.422275284119627448e-01 -8.191340805044730056e-01
-3.815444164003466143e-02 -1.929710817432822023e-01 -7.591968352086098104e-01 9.680358949422412929e-01 -2.450912221562612792e-01 5.326160836215561301e-02
-4.853238983635572990e-02 -3.969608801729688358e-02 -6.705044012737747527e-01 8.651093408666871154e-01 -2.094573830737544162e-01 4.557558919214328430e-01
-7.053395199483147946e-04 -8.216037131570030905e-02 -7.857624681468963201e-01 9.331118712282862049e-01 3.561815170833949190e-02 3.578178070495203755e-01
5.597809671807962850e-02 4.388318273914738193e-02 -7.411650511081522286e-01 -8.561933246782297280e-01 1.595355939756039898e-01 -4.914075549188175462e-01
3.881729024721779914e-02 -2.208347335037746592e-02 -6.999158909624909608e-01 -9.387802134538987264e-01 -1.360237882795457265e-01 3.165268390666637899e-01
2.774135564373078275e-02 -1.489221604295430657e-01 -7.772537879866903143e-01 -3.027675257864130831e-01 7.944284214722314719e-01 -5.265124010755227735e-01
1.275379012807700135e-02 -6.203621121291735818e-02 -7.998750351121702851e-01 8.006198563402655566e-01 -3.932445342620284334e-01 4.520692224723249497e-01
1.089318651217533254e-02 -4.857611825645494902e-02 -6.674114155216265276e-01 -8.904245347221780849e-01 4.415519983059777442e-01 1.103448265973099029e-01
6.557788785580005719e-03 -1.914521326911633181e-01 -7.461031056100865255e-01 -7.757713636002315782e-01 5.624482375253032629e-01 -2.860607829160037863e-01
-1.766118501113503672e-02 -4.499636838043215986e-02 -6.321314623857591242e-01 -5.042317639304918497e-01 1.576975817315906525e-01 -8.490475846261814619e-01
3.972639175639479381e-02 9.685454090175642239e-02 -7.156565923434514698e-01 -6.382013164059676669e-01 -7.465891487728546494e-01 -1.878928489121241552e-01
6.257189324052772617e-02 6.676292607948167146e-02 -7.471578495591646440e-01 -9.356240285335665208e-01 -3.176161128886847429e-01 -1.540379241099476271e-01
4.524275317562637989e-03 -1.665065796030238965e-01 -8.448904856052776857e-01 8.660687749069232444e-01 1.154469085008774931e-01 4.864122618199615555e-01
-3.152834636357521730e-02 -4.952566657531234928e-02 -7.011510426492658654e-01 8.054389664538962323e-01 2.459897037280615612e-03 5.926736203208688991e-01
2.313302069422613211e-02 1.010485522857648422e-01 -7.200179682130279923e-01 4.394573840769627204e-01 -8.553374201818568778e-01 2.743630901139554878e-01
-6.162301842506680977e-02 -6.098897561645757331e-02 -6.266953682136104931e-01 4.761747591582259909e-01 2.532203681827175368e-01 -8.421027513777723517e-01
8.092479748298036027e-03 3.987669486585946471e-02 -7.505093766685547729e-01 8.854496871840055183e-01 -6.105129237795409863e-02 4.607077068649146900e-01
2.357967914435490572e-02 -2.430174494615775969e-04 -6.794628049327097186e-01 -2.014282030605506202e-01 4.667049606721110910e-01 -8.611696457120634474e-01
5.479324776033654004e-02 -8.648425322148339811e-02 -7.835489208061148236e-01 -4.068921150854799551e-01 8.485513122358611104e-01 -3.382299176360108461e-01
5.079293501989252946e-02 -1.037838195032493305e-01 -8.084810267454647370e-01 -9.344191241382852064e-01 2.734824282358689351e-01 -2.281847100286354124e-01
6.210849022832730555e-03 5.011027224110817940e-02 -7.466978463931084331e-01 8.913467298379996739e-01 -3.110305140824846590e-02 4.522539191651079871e-01
-5.176679454765015925e-02 -1.634625071467238067e-01 -7.095994549386240857e-01 9.828369949187510946e-01 -2.954650376548465310e-02 1.820946060000534217e-01
-5.634463393679409876e-02 -1.038797065482295959e-02 -6.165409619631438964e-01 6.474488605890025283e-01 -3.743480325285806348e-02 -7.611889439734540463e-01
-3.384516980414499498e-02 -8.738514434546473808e-02 -7.066488839061010330e-01 7.946213292964484642e-01 -2.520319277826984505e-01 5.523195183997047231e-01
6.833412385920260845e-02 -2.858286590591757950e-02 -7.999931420102190938e-01 -8.260262706178328473e-01 5.557694875777619004e-01 -9.381298911529450946e-02
-2.470411319048685175e-02 -1.919046745456715010e-03 -7.073376045227791620e-01 9.837879976584092967e-01 -8.209917936490669643e-02 1.594393314426098829e-01
3.284972600844721091e-02 -5.889475323853898131e-02 -7.057047664193012437e-01 -9.434089074687281862e-01 -2.847920473345701975e-01 1.699209318584503914e-01
-2.332687542015525473e-02 7.674697491879900468e-02 -6.564694271377597978e-01 9.765024599405544015e-01 -2.038378692260795766e-01 6.995047390416622712e-02
-5.399638472085938751e-02 -1.493711040253063171e-01 -6.963072984479706795e-01 9.551086805470576646e-01 -8.563122090412922383e-02 2.836101238498484611e-01
5.690760182687416846e-02 3.168598757889161486e-03 -7.315159350035892460e-01 -8.509808838095909156e-01 1.150796876844264044e-01 -5.124336063072975067e-01
6.336643846046666195e-02 -5.041051542171420125e-02 -7.832429304450911900e-01 -9.901458731935108837e-01 4.134680320682809773e-02 -1.337968297921710847e-01
-2.567577978308494685e-02 -2.084082392654438287e-01 -7.457009903168131393e-01 2.058370494621034885e-01 8.634297993353838852e-01 -4.605649690200004920e-01
4.144106637790921643e-02 -8.522767543695750070e-02 -8.494838401423813190e-01 2.757438741590337306e-01 -2.265120091575399119e-01 9.341614558368276366e-01
2.441402182024445672e-02 3.570719389710590164e-02 -6.622457373227037536e-01 -3.608925178460855587e-01 3.669279026659922893e-01 -8.573916869248551231e-01
2.015631985967112835e-02 -2.980754514375070011e-02 -6.913994779889053310e-01 -6.460105767740051963e-01 2.407288863689810710e-01 -7.243755503629778492e-01
-3.811087666783413708e-02 -9.553471952391782984e-02 -6.417239425314196222e-01 -2.048298960398969304e-01 4.658039622464948959e-01 -8.608550298649308985e-01
-1.001309449923987183e-02 5.302911497283769454e-02 -7.156896937387743352e-01 8.447971470690439633e-01 -1.872850722077279706e-01 5.012405430850043198e-01
-1.312793224681154530e-02 -9.224452564529030119e-02 -6.654541188023201936e-01 -3.793784572546188283e-01 1.192023840137446389e-01 -9.175308048324836152e-01
3.252694486265003682e-02 -8.134448750984477061e-02 -7.162107674852169481e-01 -9.053839000844728924e-01 1.261805035435536737e-01 4.054114872488500665e-01
3.405891253204078317e-02 -3.588668530507366228e-02 -8.263595123882375715e-01 8.004091977046078332e-01 -2.205361104335110400e-01 5.574127198268120642e-01
-7.528407320887967047e-02 2.033275907801737892e-01 -6.019178793777641978e-01 4.584796661839742882e-01 -3.740500713086608586e-01 8.061531739376934791e-01
-3.959501949011069027e-02 1.581665716472111516e-01 -6.333669794430238920e-01 8.467656006036130556e-01 4.482095890701780494e-01 2.865243129298882807e-01
-1.520730083233083271e-02 8.867688407446222554e-02 -6.449869924042943570e-01 4.145695691182585962e-01 -3.703842439464521963e-01 -8.312325692592394955e-01
-9.485809403546898583e-03 8.505294931206580644e-02 -6.428426012081873697e-01 -1.625703924725442895e-01 -4.141119601424551044e-01 -8.955903929577944123e-01
5.421457630770682573e-02 8.265216579868549240e-02 -7.403878375354049357e-01 -8.306876951143320476e-01 -5.567309843218114507e-01 2.926479404571604142e-03
5.297373697158627714e-02 -1.214846243272196258e-01 -7.949627020923452081e-01 -9.867696259299565398e-01 1.468280481283445738e-01 -6.875485164607592070e-02
-9.803314268090949218e-03 -2.343067993237763214e-01 -8.402349528737533824e-01 -4.186350968671455619e-01 9.052980151757230587e-01 7.197332415507853853e-02
-1.034526637624520393e-02 -5.754684401577032926e-02 -6.395490931975382765e-01 -5.684650351812072788e-01 1.469125985306254933e-01 -8.094839048241834201e-01
-5.093358036632198577e-02 -1.535082676873058549e-01 -6.799151694071529084e-01 5.340411349988016809e-01 5.657973722266469441e-01 -6.282303715283215073e-01
5.245663581267636516e-02 1.201232239175162482e-02 -8.142319284137420343e-01 3.373552937871896473e-01 -3.305630844929610679e-01 8.814303449077859343e-01
5.991227500246336379e-02 -9.303223702678592444e-02 -8.207908687839349238e-01 -9.824735538139526270e-01 1.838860030634875964e-01 3.052300662642794607e-02
-2.554131721678564587e-02 1.812876083586028031e-01 -6.390212701192841127e-01 -8.229064828135038145e-02 -7.134220302517954027e-01 6.958859503947762981e-01
-4.185121890476097700e-02 -3.998386492836313727e-02 -6.848566393566221100e-01 8.846355448045873926e-01 -2.798522718288367073e-01 3.729646884364915538e-01
-2.506610369389368834e-02 4.368382399684938439e-02 -6.955749835714357676e-01 9.791218430810629814e-01 -6.614901932300265054e-03 2.031665806031298371e-01
-4.917829905913558702e-02 1.329979165727460458e-02 -6.413403791589447067e-01 9.022869286015227086e-01 -3.331898920479278159e-01 2.736106619119954009e-01
1.540829756056518070e-02 -3.779287735644455692e-02 -6.765761078469308965e-01 -7.494800089694813039e-01 6.079874224033857688e-01 2.619752094271384779e-01
2.356555099540573808e-02 -1.810849768863393994e-01 -8.476517409913638668e-01 -5.075147899133743978e-01 2.936484241560368899e-02 8.611425224950225443e-01
-4.904445117286032607e-02 -1.575021694132088534e-01 -7.212820872679215345e-01 9.712685572994624872e-01 -2.045665487360771306e-01 1.216138016001089284e-01
-3.092289619762008182e-02 1.732967423721301636e-01 -6.438391125162755690e-01 3.080822324617307761e-01 -5.172772403895375959e-01 7.984419794927998248e-01
3.503490366114828287e-03 -1.472758670278984383e-01 -8.299963574337313466e-01 5.419599859154354826e-01 -7.185464108355391621e-01 4.358559729336113908e-01
-2.490257692939071982e-02 6.159808912900077704e-03 -7.021345429764419555e-01 9.816856983193745778e-01 -7.614508745741534190e-02 1.746285067544933456e-01
-4.749926803831455713e-02 1.746621340989869958e-02 -6.156183863768115438e-01 5.129783067504665173e-01 -2.121901870679821223e-01 -8.317623346338055557e-01
-2.188740691200364685e-04 1.658944012089028364e-01 -6.303272397886320322e-01 -7.850501676361383296e-01 -6.168111344236301141e-01 5.692327068524284661e-02
3.589422733542000504e-02 -1.356424002218601169e-02 -7.016460956291405981e-01 -8.192782565014729013e-01 -2.185963497822013268e-01 5.300931750983067792e-01
-4.006726098731936206e-03 -2.475083526819516627e-02 -6.410577500142279339e-01 -6.985287736342461473e-01 2.290784355664518546e-02 -7.152152005575805882e-01
-7.708765339342794551e-03 1.118713635033461717e-01 -6.341325266070587663e-01 4.305529828899603006e-01 4.928052902846845051e-01 -7.561528117992983855e-01
-1.861577727691027251e-02 1.821885544500851106e-01 -6.333383252943025621e-01 -5.260538248667371297e-01 -7.675081599618357453e-01 3.663312677551194829e-01
-5.768507844448233536e-03 -2.250193252303409330e-01 -7.790976278426040569e-01 -1.102981292293876425e-01 9.377441145407738876e-01 -3.293482933501211130e-01
-4.252242397430762433e-02 -1.393352438341645960e-01 -7.274600759137452854e-01 7.541786750021473029e-01 -2.061809930846520145e-01 6.234612451970307223e-01
-9.844871003272085558e-03 -1.735871229702030116e-01 -8.263354732694478955e-01 6.877912268165524701e-01 -3.784698399711687866e-01 6.194383008390581535e-01
5.535663408322108892e-04 -1.976271250973541116e-01 -7.567565989234702473e-01 -8.704370333082943612e-01 3.935435968596977530e-01 2.957411172227945584e-01
-2.089551689330857581e-02 1.072450967562237900e-01 -6.489659223899151286e-01 8.927464622467150557e-01 1.975489720503471325e-01 -4.049421659790758965e-01
-8.092616189574590446e-02 2.071687383897682366e-01 -5.966960447475441187e-01 3.979087969695611071e-01 -4.800262209953825021e-01 7.818205781706751845e-01
-4.460581090245589742e-02 1.675784813280258023e-02 -6.537868015072156869e-01 8.945567583805635881e-01 -4.213637277693049743e-01 1.490664783108955060e-01
-9.943722626354128957e-02 2.235248722381104336e-01 -5.592240172689987299e-01 2.579860833624076921e-01 -9.456908121663187838e-01 -1.977677136833345395e-01
-5.406932597655287817e-03 -7.773821332501668069e-02 -6.503875222207837759e-01 -7.439833078360078567e-01 3.843351616183057207e-01 -5.466034405354786019e-01
-5.579655644880245069e-02 -1.021949182371352238e-01 -6.457879081650230724e-01 3.278793626570596920e-01 4.855459929388549756e-01 -8.103950964095362197e-01
-5.323668083638555953e-02 1.883279663291859418e-01 -6.233449287101642255e-01 5.070998492669228641e-01 -3.771299603047116866e-01 7.749985392979980015e-01
4.059173383669521795e-02 7.831325104176743712e-02 -7.700755066869715559e-01 1.353989319279845782e-01 -7.298651859380141937e-01 6.700477144117638062e-01
-2.692799743010628258e-02 1.061148082384866069e-02 -6.921490549255391311e-01 9.457897176173586384e-01 -8.784747294844678922e-02 3.126733623861307487e-01
-4.423826373616598223e-02 -1.361331712771996494e-01 -7.172693400047256418e-01 9.278222647044558347e-01 -2.763291215809485779e-01 2.505754610591302001e-01
7.053331741575030733e-02 9.056408639753871573e-03 -7.913884999323158587e-01 -9.893179766330061353e-01 -2.903784255250991750e-02 1.428521781796486256e-01
-1.881291251956301175e-02 -9.454483210156180983e-02 -7.511552748562900783e-01 9.982110363600062986e-01 2.345344588875562103e-02 5.499693414204982062e-02
-3.269639410536723245e-02 5.256993788843352527e-02 -6.494877838666383019e-01 9.070219454278498628e-01 -3.429084376000526846e-01 2.443869757883371796e-01
-9.266121315977214612e-02 1.938302495189761221e-01 -5.507186589333371574e-01 -1.927744163070870681e-02 6.335865386007432098e-01 -7.734316248693891005e-01
-2.881120444151424181e-02 -1.895672427544826677e-01 -7.954191668108232527e-01 9.611809211142794407e-01 -1.244804985379544121e-01 2.462434615774548863e-01
-1.082024690142439627e-01 2.124933534114955558e-01 -5.762856481136146014e-01 8.045315529689622824e-01 -3.057600866200361200e-01 5.091559188573355765e-01
-4.629428717767183898e-03 6.209148319297832369e-03 -6.393021729512650131e-01 -7.641882151397673129e-01 5.584890675365533630e-01 3.226551305707812123e-01
2.489928239667184295e-02 3.384040681471027490e-02 -6.632783626565477153e-01 -3.229575292002804798e-01 3.924874602582563154e-01 -8.611922130818840948e-01
-1.919826532013864731e-02 -4.258263787478322460e-02 -6.309005229814551585e-01 -4.429309768374827261e-01 1.045203665803266790e-01 -8.904423859676197095e-01
-7.327992704582819792e-04 -1.482553808661406514e-01 -7.054099616596655187e-01 -8.412422937138165357e-01 3.968306995387470559e-01 3.672013060580061050e-01
1.813669417722211380e-02 -1.951352273025331874e-01 -7.841687852547085669e-01 -9.064083646569314201e-01 -1.957680722122921158e-01 3.742976601345911480e-01
6.033926947950951636e-02 4.580998230863583820e-02 -7.452641358560396778e-01 -7.132118016437182240e-01 5.872050597743923017e-01 -3.827781913477748543e-01
2.915928191018523491e-02 -4.299970118618239717e-02 -7.004339001195158954e-01 -7.071334212688493714e-01 1.055600588754937313e-01 -6.991562046458674740e-01
-2.745687843264459083e-02 -2.150576972167089762e-01 -7.670458626452274498e-01 2.443127707626186751e-01 9.342779808489984905e-01 -2.596842785826870559e-01
5.171781591828573943e-02 -8.068724886656636341e-02 -8.472639990674055710e-01 -5.174551109592028242e-01 -9.980914709601962365e-02 8.498696031145978047e-01
5.988001310756287110e-02 2.466320283826469242e-02 -8.069266076544622246e-01 -7.960479908235476021e-01 -3.321366619739214987e-01 5.059573441295359686e-01
-4.697006454667707748e-02 1.690341163558493898e-01 -6.296712028398250283e-01 7.907070482012283907e-01 2.961554211536520098e-01 5.357931787977552318e-01
3.170667550717146815e-02 -1.987147220763036404e-01 -8.180367718308986236e-01 -8.840214972585234143e-01 4.672106269840728965e-01 -1.483989278761511758e-02
1.775253135224353837e-02 -1.231197613813091590e-01 -8.347404853083273402e-01 8.836722620165359254e-01 -9.268267492356888071e-02 4.588390296297718551e-01
4.295493601394539257e-02 -1.257564974436855762e-02 -7.212434000098046916e-01 -3.359933086033384253e-01 9.216779975669643354e-01 -1.939540290242319776e-01
5.899071815024337084e-02 -6.239656447433285236e-02 -7.621190483875907029e-01 -9.825547331072731483e-01 1.177820170167269975e-01 -1.439221765954310506e-01
1.786905009414746634e-03 -2.206783099370750734e-01 -7.768729040116082452e-01 -4.885903394011122391e-01 7.735450624622596250e-01 -4.036180330264798610e-01
3.130880282145465793e-02 7.113028921419267681e-02 -6.814700844850394290e-01 -8.953360408281390015e-01 -1.800742145961718443e-01 -4.073655007873939748e-01
-4.593090370146307895e-03 9.783099337854976596e-03 -6.291625670015803529e-01 -8.139512764776140052e-01 9.345460592532311983e-02 -5.733668600048357211e-01
-3.993278031228700981e-02 -7.428064212157822407e-03 -6.113957017958653317e-01 5.773342719953533653e-02 2.635614370666091583e-02 -9.979840705505822473e-01
3.683832103927779655e-02 9.866519598428871718e-02 -7.132504898655949166e-01 -6.005937172359399057e-01 -7.807544701407727050e-01 -1.723648577057316222e-01
-2.205431568687702890e-02 -1.171184533306425107e-01 -7.434938174490168805e-01 8.891041336459148958e-01 -1.263289979622462256e-01 4.399259299104810172e-01
2.510578219585037074e-02 9.242038866257146906e-03 -7.862332335300771247e-01 7.856605947334046602e-01 -2.500876007174946958e-01 5.658565382237089603e-01
5.212128369358189984e-04 -2.582507514527465978e-02 -6.456911179749806884e-01 -7.254341180632759567e-01 2.388543973180504848e-02 -6.878770428779950041e-01
8.114156160590047309e-03 -2.185162105044602399e-01 -8.205285332882656935e-01 2.475862004202135924e-01 5.862592560540466069e-01 -7.713631816806124641e-01
2.132586032769933498e-02 -5.681026351243313732e-02 -8.124611749198373811e-01 8.244455472974554500e-01 -2.798206201871104581e-01 4.919247504034531815e-01
5.957639652143650530e-03 -1.278221590343233127e-01 -8.126365372504713580e-01 8.505103965624661866e-01 -2.862543679303723998e-01 4.412374668814280643e-01
-3.255865113485611334e-02 -1.822706510345513398e-01 -7.799669148529748686e-01 8.429370651954010141e-01 -3.308422651754361343e-01 4.242646576057808594e-01
1.937375449952835962e-02 -6.011501537902493031e-02 -6.823857255038359160e-01 -6.400405920185112674e-01 -8.254013696022176327e-02 -7.638947351299006927e-01
-1.117271761651214904e-02 -8.690537722942082155e-02 -6.654221583075234925e-01 -4.352978491779991299e-01 1.659468785245713784e-01 -8.848601109830632749e-01
-1.365709293686205583e-02 -2.259047856243557306e-01 -8.459516048602251370e-01 1.385004513037263185e-01 4.240469974590440477e-02 9.894541254793592922e-01
6.326995500760801416e-02 -2.420889553449416878e-02 -7.822184397587007565e-01 -6.651035076384509415e-02 9.257668724788780112e-01 -3.721989670350347446e-01
2.927492901096904326e-02 -8.029602760055994104e-02 -7.323176026511765135e-01 -4.004231019665145386e-01 4.747777044980590055e-01 -7.837394150628561595e-01
-6.447479835818985261e-02 -6.461603735450302533e-02 -6.372149132287623363e-01 9.707628106167744964e-01 7.418139185147654135e-02 2.282907940027320837e-01
7.072349260718575892e-02 3.441181001316764593e-03 -7.705284052477547885e-01 -9.917588213548651499e-01 3.939189523602853321e-02 -1.219127509923469826e-01
-2.799501676186329571e-02 4.087423180114389820e-02 -6.850268703476213306e-01 9.246625430346901986e-01 -8.155385062441353194e-02 3.719518126813611825e-01
-2.658108446264208918e-02 4.442189234696637679e-02 -6.886535730050048487e-01 9.744340853700047544e-01 -4.415164247756055149e-02 2.202926365897318328e-01
-5.026792435922647351e-02 -1.641020333505855411e-01 -7.202271814011871331e-01 9.807577182902198487e-01 -1.445066574428268413e-01 1.312711848383442403e-01
-2.741374261697865355e-02 1.464146623822293325e-01 -6.529224596378524481e-01 8.196302548939496946e-01 1.512039926684255742e-01 5.525790421863696622e-01
-5.062221321581449399e-03 -1.753516158526451374e-01 -8.328072186057560167e-01 7.283875109348306731e-01 -2.898242660380123126e-01 6.208490385993113980e-01
1.874235961534229458e-02 1.368946662261573410e-02 -7.744439342099380674e-01 8.405243026644281246e-01 -1.923904708771552730e-01 5.064630325563190816e-01
4.716249072924813546e-02 -2.991943453492779126e-02 -7.243705156384798727e-01 -8.178701178703542407e-01 -3.718837226609586488e-01 -4.390796819650846783e-01
-2.448621594473846322e-02 -1.620590668684479818e-01 -7.668476921422672232e-01 9.438189215584230629e-01 -3.256907966830219769e-01 5.595845123190349574e-02
-5.153224725317239949e-03 1.262560534904397513e-01 -6.242198715755190586e-01 1.095217520168377118e-01 5.016262463801696159e-01 -8.581235894541671128e-01
-6.157445516684822984e-02 1.816996454508162662e-01 -6.147749560338372499e-01 7.557999905272122509e-01 2.006137765550787266e-01 6.233141158159138939e-01
5.339721481628268568e-02 -1.115410995263043659e-01 -8.034750308303720834e-01 -9.749908182437132531e-01 -2.212473105096937620e-01 2.103644296646695402e-02
8.938826586822237047e-03 1.107305335973738925e-01 -6.336993299744555497e-01 -4.408790273763109058e-01 2.559893063825115500e-01 -8.602878345283737627e-01
3.296907309698035582e-02 -1.466454974887135554e-01 -7.744002275871529895e-01 1.291705369091402655e-01 8.950165861260594991e-01 -4.269195274918428096e-01
3.029937316009203782e-02 -2.006906930178193049e-01 -8.130272153080783104e-01 -8.637432181229319772e-01 4.871186701567778443e-01 -1.290854536008343711e-01
2.719994017353082050e-02 -1.791151766129530643e-01 -8.444478585163810447e-01 -7.432247548898471834e-01 -5.657721430417073094e-02 6.666453198969495286e-01
-7.533257923011676960e-02 1.916555467649829203e-01 -6.031245476516672310e-01 6.295579265612391007e-01 1.696759975748071969e-01 7.581997579470117765e-01
-6.337353972373398377e-03 4.303080548762065055e-02 -6.277638733802411997e-01 -6.547406236133109791e-01 -1.529311203385372575e-01 -7.402207699210096026e-01
6.728256686230174588e-02 1.374891569974253866e-02 -7.506852669940425882e-01 -9.451870703202700508e-01 7.985360125261450892e-02 -3.166145992628466299e-01
2.447588355292995219e-02 -1.529987215858145677e-01 -7.527906357702687234e-01 -6.932611135051307549e-01 2.548670396097409974e-01 6.741155840226457086e-01
-1.047251938630238029e-02 -6.484263828033286214e-02 -7.609112775325307387e-01 8.699461305556357438e-01 -3.403803342205880544e-01 3.568402415747941592e-01
-4.173500078197701912e-02 -5.405882169130862142e-02 -6.255398483701495316e-01 -4.945601115843557549e-01 4.869300876613156803e-01 -7.199370706942467280e-01
-2.341972526628032306e-02 1.906777718035415625e-01 -6.211062538908653785e-01 -5.232813389498662815e-01 -8.043627288349721738e-01 2.813845069793146636e-01
2.279079405997121166e-02 -1.049272855464885162e-01 -6.987359182403104496e-01 -7.778194237706644865e-01 2.344718993023199860e-01 -5.831122297145157063e-01
-1.727446473593847662e-02 -6.244596971851237854e-02 -7.469268698823567920e-01 8.331957852089757477e-01 -2.351786363060922036e-01 5.004755663718307712e-01
-1.004395897064783161e-01 1.929134774797701679e-01 -5.764490314025881856e-01 6.247495766458196487e-01 6.701373844516886891e-01 4.007541047090079078e-01
-1.674604919418639856e-03 -3.067021188105205007e-02 -7.556415552339739161e-01 8.366531244771858722e-01 -1.792779677233589386e-01 5.175625175682108114e-01
2.627533489986829535e-02 8.631127822617205847e-02 -6.517940110925909414e-01 -8.458614617548062542e-01 -9.409585690441925679e-03 -5.333196482552998718e-01
4.605767907941302197e-03 1.563478057007020861e-01 -6.428083706400319342e-01 -7.211540728899769048e-01 -6.252341107107977081e-01 2.983607044466074498e-01
4.525739440158140642e-02 -1.501673192960118752e-01 -8.328766028618731498e-01 -9.387311841680974211e-01 2.178422613258416685e-01 2.670739842268524677e-01
2.528484968964508223e-02 -1.579215102708461105e-01 -7.786413293895103616e-01 -7.835008576478050824e-01 -2.085564779545798497e-01 -5.853465653511041866e-01
1.225582911728013806e-02 3.479400159971270806e-02 -7.588235044100327675e-01 8.645057487427402210e-01 -7.614996569472869126e-02 4.968208863518578378e-01
-2.636979619494533508e-02 -1.971081636228506628e-01 -7.275374857403354989e-01 7.229479931768204026e-02 7.787411960419869938e-01 -6.231657978248738017e-01
-2.339359065407673258e-02 1.821226628855381890e-01 -5.932931706820422368e-01 -7.267556246443208634e-01 -1.539572747556833543e-01 -6.694202115246041807e-01
-5.576201954541377959e-02 -1.074471585071851013e-03 -6.368205946867740996e-01 9.254003058492067391e-01 -3.347389583960647119e-01 1.777191707895134365e-01
-1.845080865300852482e-02 -1.050944442697636511e-01 -7.590398777275003672e-01 9.986390938632848657e-01 3.232049303990126854e-02 -4.093098994129610452e-02
-2.091056427415186741e-02 1.776899627247780222e-01 -6.419935681196414778e-01 -2.362607261162523731e-01 -7.217573139022867013e-01 6.505745530864062154e-01
-3.935605285521656671e-02 -1.078743594906433900e-01 -7.083438667157300195e-01 8.025440583234670910e-01 -2.662903877338941294e-01 5.338655859392246184e-01
2.999248180624200857e-02 -4.955637899888973297e-02 -8.233602087883743481e-01 8.345808341722658064e-01 -1.822678487075628795e-01 5.198588871605848150e-01
4.812139273708915949e-02 2.717569943825920431e-02 -8.076325771573876766e-01 5.219349176581875582e-01 -2.511479402887744627e-01 8.151740021724485086e-01
5.975669550655417217e-02 -4.109812485582157310e-02 -8.208675998455426948e-01 -9.524936876426796095e-01 3.001310642072201329e-01 -5.174088614133458969e-02
-3.616457413371794265e-03 -1.128512541237756961e-01 -7.867967853313049265e-01 8.085779800057386613e-01 -2.804906994673249110e-01 5.172297533612791876e-01
5.375361231759683694e-02 7.145514885494720636e-02 -7.209091042208201072e-01 -9.033370588188078809e-01 -1.350721087031978573e-01 -4.071089333520660491e-01
-1.864268335732783416e-02 4.788787720516231305e-02 -6.220501641473490384e-01 -2.883007924750048967e-01 -3.075690306908356875e-01 -9.067987342394032702e-01
-3.172305803842699612e-02 1.694655669040207729e-02 -6.795182885414912111e-01 8.646568232741748128e-01 -6.218667788038708538e-02 4.984991424863371989e-01
5.104859817406123823e-02 4.855426707419842336e-02 -7.950603092375180259e-01 -7.996162558650424246e-02 -5.844194329812439914e-01 8.075023620940343649e-01
-8.139004946444313576e-03 -1.553288114774296347e-01 -8.155371294282273142e-01 8.214088427281344140e-01 -3.615952781991049192e-01 4.410627708979060757e-01
-5.743883108673275562e-02 -1.280173313212540909e-01 -6.644456121918345115e-01 5.741751952803173520e-01 5.350565770717344849e-01 -6.197074345665769535e-01
-3.325482605373628053e-02 2.377456704845454932e-02 -6.134484614914793577e-01 1.553796987483248120e-02 -1.611440871460446123e-01 -9.868085704279411230e-01
3.950500401484519086e-02 9.781755219465865236e-02 -7.187311310322740399e-01 -6.382013164059676669e-01 -7.465891487728546494e-01 -1.878928489121241552e-01
3.350343313353272567e-02 -7.732720858008464149e-02 -7.144062665052540728e-01 -8.915215809065626384e-01 -4.529577225495579583e-03 4.529555758659136178e-01
-4.365153771076039912e-02 -8.935612319217335620e-02 -6.377094470701857309e-01 -8.089487328476532846e-02 4.234075478187100949e-01 -9.023203798686962873e-01
1.363426201869717691e-02 1.421116805588461263e-01 -6.462041126077360254e-01 -8.604786466514989796e-01 -4.748537872411084937e-01 1.846358020525285526e-01
1.422617305572066717e-03 9.154664264422283926e-02 -6.986743159766350963e-01 7.081666978567636717e-01 -4.783815527316432337e-01 5.192793256549976810e-01
-2.088591737357948022e-02 -1.454209030135432401e-01 -7.590718478196504249e-01 9.425598399775657610e-01 -2.132854247303989648e-01 2.570802902967063153e-01
6.888422802990333028e-03 -7.270342441919117049e-02 -8.024452627319637044e-01 6.209378988599077998e-01 -6.310371553236326925e-01 4.650034777939839881e-01
1.019064045726876880e-02 3.509690588966045410e-02 -6.481464342608990181e-01 -8.622243827583414566e-01 9.578480922041009149e-02 -4.973875592529493073e-01
-1.652006990963094529e-02 6.244298305907539787e-02 -7.019572426241469376e-01 6.310667717160722834e-01 -4.418981502488357749e-01 6.375584321789745657e-01
-3.866502302539234770e-02 -1.702939986439082620e-01 -6.908744093074894455e-01 4.068417617624039279e-02 7.396771951823440938e-01 -6.717309317993631623e-01
1.570033887424270372e-02 -1.609579386607249418e-01 -7.626711236505456792e-01 -9.504279928365685359e-01 2.410574581722237653e-01 -1.964126581771088453e-01
2.709506738158882697e-02 1.027140591518039964e-01 -7.152787645273215311e-01 -5.033115509715244823e-02 -9.959726105033785970e-01 7.419793766454488293e-02
4.426280108678343206e-02 -1.037503039934011689e-01 -7.417206395550410836e-01 -8.440164399333611733e-01 2.098677279136282881e-01 -4.935501857993631614e-01
3.308655379080099879e-02 2.818297376167085491e-02 -6.711188288864733398e-01 -7.691404292227010941e-01 2.190239736665265946e-01 -6.003761313497094632e-01
-3.285716740271030223e-02 -1.712228454586165183e-01 -7.484889563234554677e-01 8.467902866915673066e-01 -2.865063456944414444e-01 4.481744350603123483e-01
-1.238410416521101322e-02 1.760207397268473417e-01 -6.365478954317098648e-01 -5.640563931219718663e-01 -7.183847725645752247e-01 4.071408895279063911e-01
-2.625384658327666737e-02 1.504463436482628702e-01 -6.057673520292601310e-01 2.213639662990595502e-01 7.102967762903806825e-01 -6.681889583163148627e-01
3.609254387906246642e-02 9.203126112491304134e-02 -7.511269470339807519e-01 7.177319991482719597e-02 -8.744475468867070056e-01 4.797812996749731274e-01
3.297710863801491671e-02 -1.176723476925074924e-01 -7.386634960717258780e-01 -9.938394889827443235e-01 -6.006025506450211882e-02 9.314416728976825099e-02
2.044644972320605256e-02 -6.097675787442717252e-03 -6.750552040586501601e-01 -9.767480441325677720e-01 -6.216454777390018061e-02 -2.051799875311181576e-01
-1.643410420489545276e-02 -1.096475881972135830e-02 -6.192331368992478602e-01 -6.406476970507692936e-01 1.527010453279442070e-01 -7.524977867205315807e-01
-6.931309973462222371e-03 -5.449471063518097902e-02 -7.580274610044022143e-01 8.303020313057316582e-01 -3.195452601152483640e-01 4.566063551325735270e-01
3.130080195251568054e-02 -1.810162761095508808e-03 -8.000594430598572115e-01 7.067375763686635226e-01 -3.862712885590107725e-01 5.927195709469266216e-01
4.294993724478109436e-04 9.629350538103459423e-02 -6.933489252078238740e-01 6.502334245979659588e-01 -4.705019038728354697e-01 5.965102278985987549e-01
-1.856756828425799172e-02 -1.173557100591523794e-01 -7.543598729426276295e-01 9.891571930275837587e-01 -4.404639936171485942e-02 1.400998293541412532e-01
6.354308800093240450e-02 5.570163449738119166e-02 -7.421985121658323248e-01 -9.583858470803739982e-01 -2.215226690093378276e-02 -2.846152581770411416e-01
-1.001541119578781835e-01 2.219720620903842534e-01 -5.556142352256957517e-01 3.303139744501437658e-01 -8.636749837177014610e-01 -3.807337662766171471e-01
-4.775522653489462990e-03 -1.586612622452534746e-02 -6.404539296422938621e-01 -7.022907042243549114e-01 -5.428398030527818025e-02 -7.098175936409830689e-01
6.861975998760835860e-02 3.446245134653447804e-03 -7.584907698720705360e-01 -9.719140289410971301e-01 6.748727737765995716e-02 -2.254519632640947513e-01
6.744311153719376173e-02 -1.542737256468785720e-02 -8.110551484544454848e-01 -9.282618534584107239e-01 -1.161674433326668338e-01 3.533200482898011807e-01
2.961132500599561804e-02 7.766734376451083811e-04 -7.964467258526184423e-01 7.102990735350953599e-01 -3.697912398449301752e-01 5.989404520226816464e-01
2.125044688888037478e-02 3.318701953729966819e-02 -7.743392220520437519e-01 8.607547527120729125e-01 -3.063105411528306218e-02 5.080974259011398209e-01
-1.842055714858699790e-03 8.811191941768865832e-02 -6.437527100364222044e-01 1.282559933552714637e-01 1.954986840988173213e-01 -9.722811654475691512e-01
-5.722123189000924426e-02 -4.860495945106085847e-02 -6.554229245627355427e-01 9.069240400669449365e-01 -5.299761653798110844e-02 4.179474107946398176e-01
-6.521259447966332168e-03 -4.580881144146756873e-02 -6.406253903624803403e-01 -6.466200021615491345e-01 9.628921731626841063e-02 -7.567106180259520753e-01
-3.583471357804810659e-02 -1.149134541135512638e-01 -7.205362714427715476e-01 9.020613453569457096e-01 -3.718817298961524243e-01 2.190646210191455612e-01
-2.417836044407072060e-02 2.504336981108569449e-02 -7.003736799980317951e-01 9.869118810048769230e-01 -3.042150255704087480e-02 1.583649939651668170e-01
-6.207216483359360298e-02 -8.881682561563621070e-02 -6.489240115145565868e-01 9.981932640451259831e-01 -3.106203407749133852e-02 5.143304048864022482e-02
-3.186736739989070449e-02 1.964153388311247472e-01 -5.906869838557413654e-01 -7.341868095175824172e-01 -4.896700419110855962e-01 -4.703115762823500412e-01
4.425360432666161636e-02 2.802428484322474350e-02 -8.044525408336514749e-01 6.682120335219855489e-01 -1.304308641390626300e-01 7.324482698022778404e-01
1.548808282716963337e-02 1.017627605617863265e-02 -7.705401173014055916e-01 8.345676515934067341e-01 -2.182715574992957208e-01 5.058204840659357160e-01
6.315682147318164852e-02 -9.809596593608813433e-03 -8.173713924316130530e-01 -7.973487133028468454e-01 -1.706665979250610310e-01 5.788850850963253025e-01
-3.586910257817582659e-02 -7.336264120861400728e-02 -6.317552275858419053e-01 -1.918375245819603225e-01 3.777168977600209310e-01 -9.058301768592230685e-01
3.322382950201181046e-02 5.951238119075270838e-02 -6.808016941439904990e-01 -9.755290162820731137e-01 -1.768022897950822236e-01 -1.307061158283968072e-01
-2.175242731423003562e-02 9.935589806386718736e-02 -6.684419016403092551e-01 9.726354783019474093e-01 -3.749530281276367699e-02 2.292909257151730107e-01
-4.791257660663927193e-02 -1.736489587065385420e-01 -7.277149201221099206e-01 8.009660988554194727e-01 2.390317449453962378e-02 5.982323517943626268e-01
-8.362591446643778334e-03 5.321427969298271957e-03 -7.359472035404222012e-01 8.007414505635427338e-01 -3.709792904419134674e-01 4.703057467356820398e-01
-3.514520444762192497e-02 8.190841654595944210e-03 -6.750481463794126835e-01 8.481446659061063764e-01 -9.387776010664315718e-02 5.213804674634238134e-01
1.726199366965635792e-02 -5.008644394541231920e-02 -6.838698059855524702e-01 -3.660020651254239921e-01 -3.563009104337332422e-01 -8.597046874060985111e-01
4.247188422796376039e-02 -3.478631337444550858e-02 -7.174912203312812098e-01 -3.805821891242988642e-01 -6.790066594739245509e-02 -9.222508860853737556e-01
-4.001989189912940476e-02 -1.839289686189169437e-01 -7.418993120001227126e-01 8.866754477536038515e-01 -1.785456615445597250e-01 4.265303003240936697e-01
-2.923838886071805990e-02 -1.994219798115487996e-01 -7.968456319014108891e-01 9.767293744616249995e-01 -6.398652969138515778e-02 2.047082144953059346e-01
2.976870782117413752e-02 -2.019954707317609399e-01 -8.209874647638059075e-01 -8.662401820199246982e-01 4.955009600351976129e-01 6.408389546746498522e-02
-1.914020168568633662e-02 1.382712567318943042e-01 -6.177754134204844760e-01 3.633144752727547888e-01 7.479025323133476899e-01 -5.555577325684205592e-01
-5.209035068291813925e-02 1.208897047364999866e-02 -6.177809129280349421e-01 7.367402831549040298e-01 -2.666707996385581092e-01 -6.213698092094300796e-01
-1.955787354619476295e-02 -2.155077385365212206e-01 -7.645124648356935726e-01 -3.268139295946521222e-02 9.396944344258035819e-01 -3.404501379987945886e-01
3.845293542758186633e-02 -6.925812354650032199e-02 -7.264873380435059591e-01 4.286124571997823596e-02 4.779676883100709706e-01 -8.773310678112672401e-01
5.613627105182303345e-02 -1.282552134378198323e-02 -7.392234747671728723e-01 -3.646111250445029928e-01 8.687375497183204009e-01 -3.351921795078018351e-01
-1.845675219780759657e-02 -1.028824918072852590e-01 -7.553815739069783541e-01 9.994155413050471726e-01 3.322353407943125919e-02 8.048141475645533352e-03
2.301043797443528757e-02 -1.597730322572358252e-01 -7.367730850869442794e-01 -7.747316213471505675e-01 4.317525464001780722e-01 -4.619314381613112697e-01
2.362287690054932273e-03 1.318366262314463744e-01 -6.674199170809902437e-01 -2.549146892737539360e-01 -4.663061424554537648e-01 8.470992165624872117e-01
1.160563565130132320e-02 -1.181851785605717575e-01 -8.202339869745336465e-01 9.162674829472352567e-01 -6.674607394878523392e-02 3.949669116596488672e-01
-5.468712929721630117e-03 -1.419229229820996585e-01 -6.871978258727451383e-01 -6.000075283943403504e-01 4.352506508809109165e-01 -6.712286024730010903e-01
-2.988151135167657624e-02 -4.238486341475924957e-02 -6.265259174099373496e-01 -5.427457462175140357e-01 4.189191675392966441e-01 -7.279655115669810828e-01
-1.315561664588893627e-02 -1.483437263862402988e-01 -8.016476527588365375e-01 7.394458981553551080e-01 -4.169733211759285019e-01 5.285385635208995625e-01
-5.004657460125362667e-02 1.646840615105772121e-01 -6.033304251361844006e-01 5.275724980523333052e-01 8.408001510261196021e-01 -1.213357545543571336e-01
4.452724255120552033e-02 -2.372655600481637581e-02 -8.279479912114401374e-01 4.685447173159908996e-01 -3.902415109012762340e-01 7.925764386131897155e-01
-5.273657146931257089e-02 -1.005532499874611449e-02 -6.142713426766613916e-01 4.332874153823648156e-01 -3.380158144115996688e-02 -9.006217123539421721e-01
-2.019193335109326429e-02 1.651245642083729037e-01 -6.526563786804379097e-01 1.973242996531572035e-01 -5.054932634185158591e-01 8.399640953069898996e-01
1.650538015665906078e-02 1.221001568478433247e-01 -6.381376981600327403e-01 -8.260704345863482123e-01 2.524463273156607804e-02 -5.630011950436428769e-01
6.720003948747292621e-02 -3.126109118965839095e-02 -8.128011855896630777e-01 -9.699731561873321528e-01 2.316044081028562629e-01 7.423930511064172344e-02
2.173468296856343341e-03 5.700280428566685542e-02 -7.358207412021084970e-01 7.943015830250805820e-01 -4.328899984117611233e-01 4.262525594983753163e-01
-2.782903878189756444e-02 1.224430503515556642e-02 -6.890490513431111186e-01 9.257386401282022836e-01 -9.388681563560707932e-02 3.663239495629407871e-01
3.777808480278245246e-03 -1.001201151202173317e-01 -7.979386001960110386e-01 9.326324399855085989e-01 -4.611736255649993149e-02 3.578685802882237699e-01
2.521662878840279925e-02 1.975931354708893115e-03 -7.900702589987390612e-01 7.544515815072434517e-01 -3.402467109654671029e-01 5.612797759036047829e-01
-5.979705709707048428e-02 1.710482058845099740e-01 -6.025497188762721779e-01 5.520926791529003896e-01 8.337821776976076515e-01 9.766164075634287817e-04
-2.409549674576585629e-02 -6.643561858383778551e-02 -7.175092826315924155e-01 9.264144585090337003e-01 -8.527567451821412015e-02 3.667210253051730318e-01
5.219523721892450896e-02 1.383648359254639054e-02 -7.217262623558429180e-01 -8.465770337150848590e-01 5.104677967960280505e-02 -5.298127520837053739e-01
-2.570557918154855320e-02 -3.657639228863914654e-02 -6.270162182047945842e-01 -5.766484878791763302e-01 3.170228561169161074e-01 -7.529761152427959514e-01
7.136342723250206632e-02 1.576834756216116337e-02 -7.736086133448860647e-01 -9.992038963067324531e-01 -3.167062316165704383e-02 -2.425995123649622026e-02
2.137763558529292771e-02 5.777346028900681024e-02 -6.532704121617299853e-01 -3.231636268544407775e-01 2.618338096280344862e-01 -9.093999815339529613e-01
-6.142614810538449960e-03 -7.063696171847248795e-02 -6.460279994543606241e-01 -6.403799978752546807e-01 3.027834801397530917e-01 -7.058580753067490443e-01
5.507260215394780070e-03 -9.764510682160754129e-02 -8.023626499031634163e-01 9.437450309223841538e-01 1.668262934200748226e-02 3.302529431928583059e-01
-6.997615984590478677e-02 1.943298322756526753e-01 -5.577157293220055267e-01 -4.236513213367436026e-01 3.565500267889968322e-01 -8.327014088653847956e-01
4.676366963086753085e-03 1.431123930647477394e-01 -6.592035111316676410e-01 -5.008455649143790378e-01 -4.909274445348992266e-01 7.128421734914607288e-01
5.996826572085706131e-02 -4.505044334908229337e-02 -7.588724984973058696e-01 -9.880350299476658993e-01 4.553944886257553330e-03 -1.541623857569926759e-01
-1.543971949015579982e-03 -6.183574526490490109e-02 -7.752936881015077830e-01 6.581649432304534919e-01 -6.069046224650671562e-01 4.455173248404467601e-01
6.400766240611210911e-02 -6.360092887970868192e-02 -8.202850706686829474e-01 -9.873744392771389711e-01 1.980057095708294412e-02 1.571612358437298185e-01
6.107181817127000506e-02 -6.057629594437170112e-02 -8.310392273797779783e-01 -9.204560645237348515e-01 -1.541715046773380338e-01 3.591542571472646772e-01
-1.111199930823815810e-02 -1.931987113403220435e-01 -7.282322729131316397e-01 -4.331313950729160922e-01 6.472719540156145479e-01 -6.272449379205841113e-01
-3.680122204265782321e-03 -7.504477200511600055e-02 -6.690855614642043925e-01 -5.084796910937671166e-01 4.114758462492935226e-02 -8.600902743460836497e-01
3.333027677767735203e-02 -1.741217674349820610e-01 -7.907436246540768821e-01 -9.048639007516260380e-01 2.590790913656135785e-01 -3.377859463235842186e-01
2.173084252462911467e-02 -1.106583273950368373e-01 -7.076059076027190198e-01 -6.999844944330790852e-01 5.580101519024054380e-01 4.456976306052354841e-01
-1.399256280940748554e-02 -1.652397105427520496e-01 -6.973205777785428383e-01 -4.918557932407391919e-01 5.426168027131745841e-01 -6.809147406752587006e-01
-3.190955239525634923e-02 -1.890866573763811953e-01 -7.862157983942180683e-01 8.952253663034840381e-01 -2.209343761794082261e-01 3.869877839790402119e-01
-6.110384724114802796e-02 2.126146041896066485e-01 -5.963052112910985914e-01 -3.981326516222065404e-02 -9.228298423097770486e-01 3.831448630213309392e-01
1.199842869891512911e-02 -4.935190793897723666e-02 -6.818983504964907238e-01 -3.775500832622011860e-01 -3.462500445046208242e-01 -8.588171174989778223e-01
-5.392842903386035891e-02 -4.846290641116852982e-02 -6.627483784549489387e-01 9.126491989631517754e-01 -1.035619473812743052e-01 3.954065789621046823e-01
4.144544374523726274e-03 6.968699745560198722e-02 -7.236853559118763268e-01 7.676029942761415370e-01 -4.555851918890007068e-01 4.508079148703622585e-01
4.644315630786883392e-02 -1.290335707976605351e-01 -7.626103996309534505e-01 -9.468852813210063557e-01 2.345264150560070204e-01 -2.200127829436641924e-01
2.232635405460366498e-02 1.181927473639445003e-01 -6.528718353519137318e-01 -9.556936476815459658e-01 -2.919514555976714387e-01 3.760318278473221559e-02
4.807148186315986227e-02 4.926151075292321130e-02 -7.245500999225035210e-01 -3.331431277257122514e-01 8.841487514911084977e-01 -3.275616608912642058e-01
-4.409832092656836879e-03 -8.656533204641707335e-02 -7.776988981605975626e-01 8.981733015130082265e-01 -4.750195755165768224e-02 4.370678259469381044e-01
-9.098438136397589979e-04 -1.170444485951472324e-01 -7.935094975951684226e-01 8.244624458153743118e-01 -2.785082291383940700e-01 4.926406821836036842e-01
-1.875286768549037919e-02 -1.136670467085115349e-01 -7.662214048268327637e-01 9.981753422324535219e-01 -2.915192726903186732e-02 -5.287864687777962119e-02
-3.027891145225524577e-02 5.984641334738294988e-02 -6.475572973480961947e-01 9.108166200689447045e-01 -3.672299191171056743e-01 1.885610540685100645e-01
-1.645600509262989258e-02 -8.468479277401566238e-03 -7.290206743880381923e-01 8.147854759879007425e-01 -1.360172929446754331e-01 5.635813376427329935e-01
6.642223291443319355e-02 5.038051671640395024e-02 -7.547180715297314713e-01 -9.887584258861811248e-01 5.453116120059219724e-02 -1.392233015597464652e-01
-2.493828054333739955e-02 -8.763461485068005374e-02 -7.250327912158450738e-01 9.487332316910617180e-01 -2.925692864513555480e-01 1.196180074670138566e-01
3.606995217219687716e-02 2.648581570549152914e-02 -6.801879189765108746e-01 -9.984946796634681654e-01 -5.059627047630389091e-02 2.117527089877424551e-02
1.984036991191862748e-03 -6.605461018526063988e-02 -6.538728150676565987e-01 -8.445841049906283038e-01 3.345043054035684027e-01 -4.180724330348214446e-01
-2.729868104662849446e-02 -3.691154451415065707e-02 -6.249196829086939298e-01 -7.558292924512113320e-01 5.103229740170848183e-01 -4.102347411702946256e-01
-4.297403936057179324e-02 -1.344044383042378166e-01 -7.212493077293384847e-01 9.532644271358233778e-01 -2.920521557951989422e-01 7.741104735622017508e-02
2.723970545214290245e-02 -1.458334814251488476e-01 -7.719203044174995920e-01 -1.545091780569475548e-01 8.577664838544737380e-01 -4.902688783434036024e-01
1.516454407538636064e-02 -2.034386159167364816e-01 -8.051417931896758251e-01 1.589678615313349919e-01 6.084077959614956344e-01 -7.775404637788502216e-01
-1.910599490962277408e-02 -5.083443379585103616e-02 -6.324239118329209042e-01 -5.078347545623767001e-01 1.862099494778773068e-01 -8.410884119841485207e-01
6.429896163868020764e-02 3.728453273262031381e-02 -7.880238677384527879e-01 -9.836835642343123576e-01 1.410007519354287697e-01 1.117382361097697535e-01
-3.727446450952106444e-02 -3.027110686520147545e-02 -6.883595874170327367e-01 8.870502733270905216e-01 -2.996529945903800840e-01 3.512120376971035185e-01
4.923521986452134534e-03 1.569510732256586272e-01 -6.253233015412067441e-01 -8.684182099012234257e-01 -4.414568680967024816e-01 -2.257557226787504367e-01
3.158937345822706438e-02 -8.785642738224444526e-02 -7.353154193934505756e-01 -2.075922072943957308e-01 8.810546286875886590e-02 -9.742396537214661478e-01
-4.492996794079649227e-03 -8.178625825216016831e-02 -7.771819430357220782e-01 9.112081340373294758e-01 -2.245527909183463091e-03 4.119401583587318227e-01
-1.027696483661763305e-01 2.212355950869742405e-01 -5.706087996938752349e-01 3.800467156564720228e-01 -8.534143404833086644e-01 3.567190174018873283e-01
5.985940512348892489e-02 -8.962785375570062052e-02 -8.036861875265552957e-01 -9.551851104348939581e-01 2.678836831197257129e-01 -1.259354482331707936e-01
-6.202996103936405520e-02 2.067785719833814817e-01 -5.641734031724979781e-01 -6.441047597891880194e-01 -4.003797606867297021e-01 -6.517860888737572189e-01
-7.737963704745293853e-03 -3.329009531742823519e-02 -7.468869110410660817e-01 8.245821023902794034e-01 -1.929156082104934444e-01 5.318344897864389909e-01
-7.229028936509970457e-04 -2.361869944292313561e-03 -7.538991133658564658e-01 7.598388481673754580e-01 -3.497960772303146393e-01 5.479850629077032131e-01
