-5.697652259736472012e-03 -2.297307869788195456e-01 -8.971132101680739934e-01 2.630273221899321820e-02 9.207628019295558408e-01 -3.892351845101484908e-01
8.716025319954907868e-02 4.210816976728975515e-03 -7.570594924113108748e-01 -4.368996317154913434e-03 5.933128493672852333e-01 -8.049601074878517393e-01
-1.004992889549159440e-01 -8.813057526991976975e-02 -8.398641845551326757e-01 7.435087774205703104e-01 3.057888307987940424e-01 -5.947166458552132218e-01
-3.812986255770890037e-02 -8.267277860100387399e-02 -7.919221831498894915e-01 2.771811218248340092e-01 3.662084428273204018e-01 -8.882916199683049685e-01
-4.349772695765274227e-02 -8.999088005258702727e-02 -8.601355599834764609e-01 1.698126497800250545e-01 -6.905452489194634502e-01 7.030724878484740925e-01
-9.784345551727215151e-02 3.286547360208410401e-02 -8.044688351134963167e-01 8.156653528491810690e-01 -5.219346563108527848e-01 2.495480849517635324e-01
-4.075747441736182752e-02 -9.562291850276651017e-02 -7.981300442050512922e-01 2.930311081161624531e-01 3.678331289432298368e-01 -8.825143392195092806e-01
1.005794124680894353e-01 -6.635958420672073699e-02 -7.918343598144114148e-01 -4.827538559152167452e-01 4.299546259474588683e-01 -7.629467440296017200e-01
3.945476869576439866e-02 -1.504655963443225775e-01 -8.244038304892483682e-01 -2.345016893074637065e-01 5.127085306470100523e-01 -8.259170178133694584e-01
-2.437243685054831834e-03 -1.805195085148781908e-01 -9.137188947226481117e-01 2.283097100406243363e-01 -4.568119705892176863e-01 8.597659564250969000e-01
-5.573038915899544005e-02 -1.220066152873877374e-01 -8.193099203088389793e-01 1.466355843309645746e-01 6.719874348707236544e-01 -7.259000570214755310e-01
1.048152239477265074e-01 1.578960371064208959e-02 -7.646648059768336170e-01 -7.809094549219484094e-01 -2.286139541905558500e-02 -6.242257442728543770e-01
-2.670149593392293075e-02 8.956301341457813259e-02 -7.567694954100708804e-01 4.695992152150551546e-01 -6.224657127401107548e-01 -6.261094261647481840e-01
1.775718215190788540e-02 1.418934316527907247e-01 -7.252000470962252088e-01 -7.473126336705960826e-01 -1.233969139014045174e-01 -6.529142586863351250e-01
-5.273362480743055795e-03 2.083937924082144288e-01 -7.539213568119182973e-01 -6.797820906591792722e-01 -4.127689067206393725e-01 6.062327431471211669e-01
-3.651745451286884936e-02 1.044558514065165207e-02 -7.650529492727830005e-01 2.933250074719526701e-01 -3.854988964045594213e-02 -9.552352307156010136e-01
-9.621626237514601179e-03 1.294072063047681798e-01 -7.546994452530318975e-01 8.526015009444922743e-01 -1.376353453457042630e-01 5.041102977511642269e-01
-1.517720773965190728e-02 7.839440594002593243e-02 -7.823194171339840075e-01 1.625725609444220454e-01 -5.766793583442080262e-01 8.006316756709569438e-01
-3.807350025857495629e-02 -2.105656215475887050e-01 -8.912056249062816349e-01 7.924816444056178577e-01 6.087646245737107220e-01 -3.712782174861220530e-02
-2.627846076937831107e-02 2.164603968214975083e-01 -7.625286215744160323e-01 -2.244819879576631927e-01 7.724016291439345094e-03 9.744476264299199997e-01
9.101224316072034637e-02 -1.320419955051266581e-01 -8.666102498738676996e-01 -5.416422131904239379e-01 -3.441793454138257768e-01 7.669186991335456005e-01
-8.246344626500624886e-02 2.468910363957438625e-01 -7.580091130927375520e-01 8.963741580961244182e-01 4.249354518175663675e-01 1.262665057965274840e-01
9.249800336894919983e-02 -1.466655438826727498e-01 -8.681385246470131323e-01 -8.239570107297572443e-01 8.738990015692306434e-02 5.598730658103187041e-01
-1.954208992102252160e-03 -1.415489374505893017e-01 -8.254626774101664344e-01 -1.969958425264979954e-02 6.686789215745687631e-01 -7.432902705014672318e-01
-4.227620248838976497e-02 -2.530496862897932756e-02 -8.339386409432396619e-01 -2.428684763588152551e-01 -1.169715472617970653e-01 9.629810799399584065e-01
-9.619318354260665560e-02 3.401788181814704298e-02 -8.059357027518245786e-01 6.457418531768098768e-01 -5.702868019090515661e-01 5.077306595273965995e-01
-8.959006907336668213e-02 -6.295309315980643361e-02 -8.576853214760326027e-01 2.894813301806969941e-01 -4.594886495350326561e-01 8.396849054408958013e-01
4.664404260226107102e-02 4.206775346846731295e-02 -7.993097819622684286e-01 -1.587599779321686444e-01 -4.956028561722575221e-01 8.539163181254224577e-01
-1.082057352943080752e-01 -4.254523779953281459e-02 -8.197881140375671283e-01 8.804688973661709550e-01 1.627231667670215320e-01 -4.453040441856673248e-01
-3.736365340881435404e-02 -5.767814509455031560e-03 -7.676049825625229639e-01 1.714828402444808775e-01 1.949217428494048332e-01 -9.657117321780015473e-01
1.102339357519296764e-01 3.558279072029434630e-03 -7.974934194294683865e-01 -6.551830178050512821e-01 -4.255700167936744549e-01 6.241997869160940127e-01
-7.273582276095606758e-02 -1.500410693130119211e-01 -8.556886742169679261e-01 8.691356725787217560e-03 8.392179364103902195e-01 -5.437257723571242707e-01
-2.376044932323594094e-02 -2.212466633753651102e-01 -9.050456912310381741e-01 6.182341948569062273e-01 7.595445830878271298e-01 2.021843381955475416e-01
6.773317962931306446e-02 -6.791479766868827039e-02 -7.912447334907125596e-01 -5.628163175676698105e-01 -1.236203244795837097e-01 -8.172856343134450308e-01
3.496590807684614444e-02 9.368055694134534706e-02 -7.539624839761117636e-01 -5.771450442550969395e-01 -7.378234565891440555e-01 -3.500287771007257187e-01
-7.577044138695701418e-03 -1.119042041852686686e-01 -8.684486506234974090e-01 4.454968525663642875e-01 -4.085474210901242631e-01 7.966313821800342643e-01
3.288464133584860245e-03 1.895706272323140762e-01 -7.558328119098083331e-01 -7.116987436897439512e-01 -3.486006569116863463e-01 6.098872684612958173e-01
9.415780210292802599e-03 5.445885791031471190e-02 -8.029506544714396510e-01 -9.558381008503490095e-02 -3.359040275350801963e-01 9.370337344702912574e-01
7.624317542097046319e-02 2.333169860311713859e-04 -7.616775214492792490e-01 -6.326258098115965234e-02 1.655772503242857463e-01 -9.841656466381311086e-01
2.247581969043102937e-02 -9.948646659603474496e-02 -7.937725262886008437e-01 4.012463884572740613e-01 8.947919199055658357e-01 -1.958283835957028707e-01
2.549103138547485423e-02 -3.356013277128110095e-02 -7.795903074068446514e-01 2.172339281435282932e-01 6.304407508321687725e-01 -7.452206922472723871e-01
8.014771568332400287e-02 -1.583409490643251649e-01 -8.770229927561672412e-01 -3.125239958223834380e-01 -1.405276658650846389e-01 9.394576771530062098e-01
-1.092748330288290659e-01 -3.103516377620414365e-02 -8.181489790923524019e-01 8.999798940635591604e-01 1.307342395681670710e-01 -4.158662632215768262e-01
1.097508354868001607e-01 -2.526889428866964035e-02 -7.865019920929602337e-01 -3.839469748841006225e-01 2.802113193476813979e-01 -8.798103983170346698e-01
1.112362609779950079e-01 -5.342155934910731291e-02 -8.196399144490614797e-01 -5.325598314114904364e-01 -4.290483956622809791e-01 7.295872121594426662e-01
1.025917899439963005e-01 -7.675252817116157145e-02 -8.391603169176898858e-01 -4.230184736679418189e-01 -4.371163806837581878e-01 7.937157177942090192e-01
-2.711034539757827683e-02 -1.695853894809458973e-01 -9.057765796718162399e-01 -1.507255363029499085e-01 -5.186605162466609853e-01 8.415896159013223077e-01
-3.814767064735768987e-02 7.527304844521998106e-02 -7.825278127471981815e-01 1.787653326792861680e-02 -6.103588647544115897e-01 7.919232827578859268e-01
-8.241363350558796042e-02 -1.323165053967242932e-01 -8.821589304099646256e-01 4.506793877755663758e-01 -2.241318138065661603e-01 8.640908629733446977e-01
6.794494524713835804e-02 -3.286101980363315134e-02 -8.259800119696566467e-01 -2.464798088324420544e-01 -5.092014373054176701e-01 8.245978414257579825e-01
-3.230481971565026672e-02 -7.587352343078879180e-02 -8.495999443094339743e-01 9.465549539540832336e-02 -5.619490486096229143e-01 8.217381602178331912e-01
3.088389524539470604e-02 -1.075486434702954963e-01 -8.062452027493258733e-01 -1.011393787891701618e-01 6.865569946792839939e-01 -7.200071660164849563e-01
8.632573941450276400e-02 -1.073213839765156108e-01 -8.557368892721316511e-01 -2.820837735212329278e-01 -4.473986923042314601e-01 8.486831887344566949e-01
1.041344994241248795e-01 -5.080423404604500655e-03 -7.684182272863396834e-01 -5.305899054917811997e-01 3.828228549432731720e-01 -7.562545959683841801e-01
-9.368832126333345722e-02 -8.081587810528226279e-02 -8.296298482507177274e-01 5.560171277285799185e-01 4.128672967489795398e-01 -7.213775356549787521e-01
-2.346812926524631873e-02 -1.169913975699105047e-01 -8.087750041800861878e-01 3.364589167056584174e-01 1.623296907586322668e-01 -9.276014601473315802e-01
-9.196126488948433431e-02 -1.712351313401512184e-02 -7.920801117239033573e-01 6.823494798941251993e-01 3.820328801731819046e-02 -7.300271885847010589e-01
1.962976292172035481e-02 1.391562016129979651e-01 -7.567415210207010245e-01 -6.588750911056602266e-01 -1.174512888079149719e-01 7.430267889368911138e-01
6.823100331437727262e-02 -1.127641620759086971e-01 -8.082793068232492217e-01 -1.968671085453795044e-01 5.130771497609845078e-01 -8.354610583181755201e-01
-3.856186668549161506e-02 -1.065311157427532331e-02 -7.689248034967104406e-01 1.310909117539073021e-01 2.356858490079984936e-01 -9.629472225583850520e-01
-3.706681011895824251e-04 -8.602255864071928215e-02 -8.591420281301289652e-01 1.380407657657105151e-02 -4.347861353977772181e-01 9.004279337824507845e-01
4.803736029094841931e-02 -2.139123154684078321e-01 -8.954928631367653491e-01 -7.683496870685371238e-01 6.360744785526444289e-01 7.104939208510255289e-02
-6.263075427802611284e-02 -1.135084425651320811e-01 -8.161931526204190268e-01 3.654356679422447463e-01 4.463558874033388690e-01 -8.168373120615775029e-01
1.027527302700321915e-01 3.848216983358153376e-02 -7.774088446333402569e-01 -8.423683458855890649e-01 -5.201525208707353798e-01 1.409146013789760732e-01
9.467657790776051741e-02 -6.847385979679249113e-02 -8.377963739737336324e-01 -1.546500870485454926e-01 -3.237171587285576080e-01 9.334294572813669477e-01
-3.669440133999898879e-02 -9.759581435076428169e-02 -7.976564279176339145e-01 2.670867152722826154e-01 3.676622401807669305e-01 -8.907800871541320387e-01
2.513449838085977852e-03 1.563011570100990288e-01 -7.602860863964471250e-01 1.820223371145417712e-01 -2.810119829268042067e-03 9.832903803139260157e-01
9.632457361269633478e-02 -6.765929742278509185e-02 -8.370252975675390728e-01 -3.120349494887396102e-01 -4.245869095088322109e-01 8.499177292957822427e-01
-8.324400357210237633e-02 2.525915483687700691e-01 -7.525907164003152738e-01 9.133649688198659522e-01 6.299641174622579165e-02 -4.022385931754750010e-01
-4.086122352905151300e-02 2.051281959437118996e-01 -7.254871035084813347e-01 5.965650478666360002e-01 2.889120212772168239e-01 -7.487589649716329676e-01
-1.476160683576697649e-02 3.013929575954012174e-02 -8.081130069021822404e-01 6.087727934345456282e-02 -3.476330257269725776e-01 9.356523052307672561e-01
-3.006223613416712445e-02 -6.597525835183333520e-02 -8.441776921929642352e-01 1.276331211851147035e-02 -4.231816858528912872e-01 9.059549429317498292e-01
9.675285451500448622e-03 1.451706603530787121e-01 -7.193762984000898753e-01 -4.724336327645874412e-01 -3.822937680061064269e-02 -8.805367552704949086e-01
-2.846798795940406676e-02 2.018466834670452348e-01 -7.606698713300552583e-01 2.413687354301233545e-01 2.684361073087666583e-01 9.325680617787525106e-01
-1.938971762692899559e-02 2.045040051645708595e-02 -7.605187008770518675e-01 2.155624607075118659e-01 -4.832358957691171991e-02 -9.752936256451820718e-01
8.924709882976476771e-02 -6.607529107921661371e-02 -7.854054937157368688e-01 -3.696340001991957336e-01 4.593417043492632468e-01 -8.076979042576839518e-01
-1.137450690203223140e-02 -2.002430536346616607e-01 -8.641426376404556242e-01 -3.620722299303547054e-01 4.573812707754569828e-01 -8.122229210365148333e-01
4.630011053483157855e-03 1.210471181825723830e-01 -7.682359601705676111e-01 2.434353903567867405e-01 -3.688263293810676302e-01 8.970542622813444389e-01
8.765465071511860384e-02 -2.567941112343679472e-02 -8.160031696192189266e-01 -3.070962690037082332e-01 -3.824581769979899515e-01 8.714457093883565264e-01
-1.317073472004094345e-02 -1.659026748471510437e-01 -9.023541171856575005e-01 6.933408041300727354e-02 -5.653238211237250344e-01 8.219499757061575762e-01
4.857888960830560737e-02 6.826345447234039021e-02 -7.777129455079565545e-01 -2.366854731533562517e-01 -5.938817603655874855e-01 7.689502204325339152e-01
9.804681808543282140e-02 -1.021823785965742526e-01 -8.155256101833392446e-01 -6.088275383049343015e-01 3.009302033371376028e-01 -7.340095648702559261e-01
1.017988616174970041e-03 -1.933528808421424716e-01 -8.730484454305708075e-01 -2.115275377033407761e-02 6.129093478649488835e-01 -7.898700477342425197e-01
4.091085821200927258e-02 8.247190674502655194e-02 -7.469684317058317147e-01 -2.585248815058092120e-01 -4.072232928374562855e-01 -8.759760701143762818e-01
7.016845737393830051e-02 5.191261509747199798e-02 -7.458728683996218578e-01 -3.207742448058733542e-01 -9.909172516170725031e-02 -9.419579151287484908e-01
-5.948546696151477131e-02 -4.262526464381355407e-02 -7.814866211002869933e-01 2.628347012938566860e-02 5.021601425871604629e-01 -8.643751329109372605e-01
-6.813002167427928586e-03 1.277678075871742092e-01 -7.237685288457931243e-01 5.345376180157276336e-01 2.037035423127938616e-01 -8.202282619949714526e-01
-7.075346588123504477e-02 2.320842238169693872e-01 -7.453664853799482071e-01 7.695803072917992704e-01 5.352474650586467320e-01 -3.482187556363849357e-01
6.297211127521569474e-02 -1.857259014328982438e-01 -8.624568721291325790e-01 -5.304264807032009754e-01 6.652203052595403454e-01 -5.254804411576331491e-01
-9.151842515795942379e-02 -1.071534499625911990e-01 -8.334445770868808001e-01 7.105290523336817987e-01 3.518891860565315222e-01 -6.093623441978276434e-01
-7.755848687253949492e-02 -2.649586572859454967e-02 -8.385002783026533901e-01 9.917339902888751280e-02 -4.634050899367248011e-01 8.805795588961811138e-01
-7.451329582679459829e-02 -1.628609632822302644e-01 -8.765473614845272765e-01 9.502438411638595150e-01 3.103708950256435783e-01 2.658100545754975980e-02
-4.918686885064652708e-02 -1.038850423727580297e-01 -8.051967666429155068e-01 3.704927588553913465e-01 4.042564490458108173e-01 -8.362486705762780526e-01
-1.413412884768414264e-02 -9.335844991197611575e-02 -8.580322183088567867e-01 1.363230168934897457e-01 -3.471934305479514316e-01 9.278322891823727048e-01
-9.998391181002860839e-02 2.455157329944499325e-02 -7.934291546088138025e-01 9.122834165974011977e-01 -1.969186548826986627e-01 -3.591128111896885744e-01
-1.525170433701421822e-02 2.170784370469681923e-01 -7.580613588937524794e-01 -5.199601233170618730e-01 -3.113271415151391275e-01 7.954350263322066406e-01
9.179634150647068835e-02 5.504767100004371444e-02 -7.685533884202661037e-01 -7.583478230140590082e-01 -6.517315052080581150e-01 1.243480796298510396e-02
-2.668131857159860773e-02 5.240381168921911387e-02 -7.999087500061897726e-01 7.799597074872351155e-02 -6.522288462486747207e-01 7.539987802828908015e-01
4.494145555510615370e-02 -1.678408172943105792e-01 -8.378795037838143722e-01 -2.495505606317333924e-01 5.646947263946696660e-01 -7.866666280391183541e-01
7.600141342033230052e-02 -8.085059835170574360e-02 -8.449308358255085416e-01 -1.567403021816500541e-01 -4.477397646658280439e-01 8.803190221783202540e-01
-1.148002455701064781e-02 1.951682174941768780e-02 -7.570051326660305335e-01 8.228425794400634485e-01 2.475552264219157139e-01 -5.115139287757634046e-01
6.895385666679908210e-02 2.733166854898964535e-02 -7.471012893575980085e-01 -1.028792118705944281e-01 1.775975414975452249e-01 -9.787108771332383439e-01
4.517321447759006445e-03 -1.534310705173645983e-01 -8.370478519662599703e-01 6.321032885051774963e-01 7.631458880566903691e-01 -1.343643784754934567e-01
2.632823385143017586e-02 -2.284154902136103504e-01 -8.945333200775930083e-01 -3.218830825398583118e-01 8.956970477710255452e-01 -3.067867008018891339e-01
1.906612338971246101e-02 -1.268579677157653796e-01 -8.726929200077681026e-01 -3.816936550792413563e-01 -4.919597000735423942e-01 7.824868095858225070e-01
2.036969343907166219e-02 -2.206944342133075054e-01 -9.298497945340871151e-01 -4.904490637528117758e-01 -2.657198052977035596e-01 8.299715060991799120e-01
3.915630203466274883e-02 -1.515389446651045080e-01 -8.822635486762753221e-01 -2.815395955169887610e-01 -5.990584785131289891e-01 7.495761438824379841e-01
-4.351008252394128473e-02 -1.169947460337506934e-01 -8.203322300794041455e-01 -1.182580711948159058e-01 7.757818577909549873e-01 -6.198205689711304700e-01
-1.502870356594653012e-02 -5.451943904868556540e-02 -8.406282125118972326e-01 1.664967143578315045e-01 -3.571360698476978568e-01 9.190933966261463084e-01
-3.575122431310476245e-02 2.502172733365052859e-01 -7.545284625831985004e-01 -7.396184740127409452e-01 -6.403902381430834900e-01 2.070382954675516751e-01
1.343405968767959723e-02 -5.314135362881472480e-02 -7.773325546990972335e-01 6.244599748143979667e-01 -8.959297402487235995e-02 -7.759013074226512874e-01
4.612302691684851130e-02 8.766318285232162916e-03 -7.571846366372244619e-01 -1.243376995037714788e-01 -1.817662831684472846e-01 -9.754492066659533611e-01
-8.558329362025421730e-03 -1.672383597199434691e-01 -9.038175067521890815e-01 1.087105534634043580e-01 -5.739996189492478917e-01 8.116073268593613221e-01
3.751066509547604927e-02 -3.161370333933676870e-03 -8.178336294409940255e-01 -2.461752536632235422e-01 -4.947511241393699466e-01 8.334381018688052922e-01
2.261406402613861180e-02 8.697709303800002512e-02 -7.760465672785030744e-01 -5.143321245814455045e-01 -4.147817228441088577e-01 7.506121421999575327e-01
-7.143991053291340321e-02 2.666316263393375685e-02 -8.191478932262820090e-01 -5.713970255275720340e-03 -5.189765444795833016e-01 8.547693822452655521e-01
4.882490805084191421e-02 -3.697904072929580205e-02 -8.286233364405297674e-01 -5.170228773986109555e-02 -2.618997600617481991e-01 9.637091828565624851e-01
1.025442432936673753e-01 6.888437842187395202e-03 -7.629669777323626612e-01 -6.329551854495063523e-01 1.519165384368363070e-01 -7.591370749488857150e-01
5.864423601464913149e-02 -7.995887840027117444e-02 -7.889047427353005348e-01 -2.795048151782955070e-01 3.381324783911163201e-01 -8.986342333503815061e-01
-6.339544630264190572e-02 2.536551815902646223e-01 -7.353465197383856067e-01 2.071005277548920998e-01 -2.659940796710319466e-01 -9.414650928120520401e-01
-1.031790481521078096e-03 -2.266838391731322844e-01 -8.952100701441081387e-01 -7.579821086027249688e-01 5.246792162779218005e-01 -3.875239902820891147e-01
-6.637454796498989951e-02 2.294776014852022150e-01 -7.406092815274815111e-01 7.303593140576990494e-01 4.656083642607098394e-01 -4.997840768768384012e-01
-9.875266129977977592e-02 2.766156366541657353e-03 -8.272153802241851706e-01 3.491213277401187809e-01 -4.108777289711254554e-01 8.421958147322431421e-01
2.337090666521990032e-02 -8.276682202297515334e-02 -7.823526134458278491e-01 7.154062930225318744e-03 4.372219975710566753e-01 -8.993251604528615939e-01
1.883735754209888216e-02 1.198705673540603339e-01 -7.632895181788436068e-01 -6.861424872839713140e-01 -2.908621054481109747e-01 6.667891141568352831e-01
8.594619537893168071e-02 -3.333024068861542566e-02 -8.202956425161475051e-01 -3.002049743454134889e-01 -4.296643164431478423e-01 8.516252395001642217e-01
8.238099486098915403e-02 -8.104193452454029611e-02 -8.439564408276714058e-01 -1.556519000357206861e-01 -4.153527193882681767e-01 8.962447235616178842e-01
1.347605573937799700e-02 -9.393859193503752147e-02 -7.907206859165073487e-01 4.684798186200638259e-01 6.384500221317008783e-01 -6.106621232610899286e-01
1.359509637724840188e-02 1.578401904459873217e-01 -7.588907465938716790e-01 -4.544671937474937806e-01 -1.659528469685389307e-01 8.751681109308738771e-01
3.071451319484299128e-02 7.569539868266376981e-02 -7.790976011412443780e-01 -3.821803781342917872e-01 -5.696202020791557574e-01 7.276475685058194642e-01
-4.204884234288647910e-02 -1.301605410593398848e-01 -8.758613514768189834e-01 -2.863397448706972992e-01 -3.420681508978274943e-01 8.949854359981089802e-01
2.908607136824187950e-02 -1.120273079544065360e-02 -7.611542878350417984e-01 1.408581907802844979e-01 2.877751697274195664e-01 -9.472826514712806567e-01
-7.078845569603209320e-02 -1.697014917089139097e-01 -8.817135047868855935e-01 8.764297982396230813e-01 4.537303659749658546e-01 1.612438022060906362e-01
-8.706671364044488159e-02 -1.004745272078035045e-01 -8.252212523107003150e-01 6.531429272396442887e-01 3.486352111384813934e-01 -6.722036939434767877e-01
-4.137145624562497265e-02 3.303122272626121680e-02 -7.570321986073714760e-01 7.910908099928944809e-03 5.146130691023331760e-01 -8.573860312846901532e-01
-9.269198805574097033e-02 -1.226323684799913161e-01 -8.454817938372852781e-01 7.383393892173834017e-01 4.200610029038506221e-01 -5.276397446833515081e-01
-3.193341779671481778e-02 -1.869602577196637638e-01 -9.124351409124725754e-01 -7.231161720250309233e-02 -1.219332842035543291e-01 9.899006537127317262e-01
-5.629076858990297080e-04 -1.336317831714815274e-01 -8.189273302809390032e-01 4.389925132860113544e-01 4.704153946569565869e-01 -7.655030566552760707e-01
2.000520097405576042e-02 -2.314280943401218760e-01 -9.297563439299368904e-01 -7.656214143041060183e-01 4.066319639653123152e-01 4.984719609373164939e-01
-8.954037267167151704e-02 -7.049176296994663984e-03 -8.302737154612612747e-01 1.306308815103136844e-02 -2.109124378484788787e-01 9.774176688032449878e-01
-9.289000058585696051e-02 -1.032730439794720262e-01 -8.328583680784942267e-01 7.023931523149751222e-01 3.328031025050251501e-01 -6.291946873139199203e-01
6.027132948322710959e-02 -4.708376476138922268e-02 -8.310304216941372113e-01 -6.171370895815558172e-02 -3.235099838350625201e-01 9.442100976401732737e-01
-6.369657914140280756e-03 1.676979171185251014e-02 -7.509321117997262984e-01 6.914658010937012600e-01 2.628562004682586384e-01 -6.728905288330608858e-01
-6.990852037110134587e-02 -9.044480857778496030e-02 -8.632431501935472484e-01 -8.506162326075668301e-02 -4.143477177050543525e-01 9.061349177031297053e-01
1.109178698222265495e-02 8.906354229175414416e-02 -7.821129310367999077e-01 -3.082955297008724838e-01 -4.745884233868197799e-01 8.244511475846649784e-01
-6.115501901061819873e-02 -1.572048273371733085e-01 -8.462559582928685931e-01 5.227061983173101334e-01 5.185900404620312765e-01 -6.766406728643004076e-01
-7.139986722339704273e-02 -6.787433426722228047e-02 -8.066843406057606636e-01 7.020917130918604698e-01 -1.488828449798526299e-01 -6.963484220406059855e-01
-5.455198709847778465e-02 -4.484235516269876459e-02 -7.854194166547741052e-01 -4.468044788865285222e-01 8.704884244797944648e-01 -2.064356085892715131e-01
-3.209145228922425513e-02 -2.044453992038573198e-01 -8.726217635302520037e-01 6.737683555591441609e-01 3.447127442184824697e-01 -6.536125205505856073e-01
8.954455754850725036e-02 -1.017716251551678830e-01 -8.093548499778651095e-01 -4.016428350726308771e-01 4.146305580879698360e-01 -8.165565095781663896e-01
1.471224273298625887e-02 1.643382461949986773e-01 -7.565495525329432036e-01 -6.280529700527840431e-01 -2.590499994101850278e-01 7.337864570932469688e-01
-9.043634074328832373e-02 1.622274259634693891e-02 -7.771975290596543351e-01 6.733886063705453173e-01 8.908333381981907440e-02 -7.339018629529980853e-01
-4.709750971387392793e-02 -1.566688090329087235e-01 -8.371805206614442163e-01 4.030733336020326241e-01 5.339178112562897871e-01 -7.432789910674439948e-01
3.217321446874743529e-02 -9.146097431734377670e-02 -8.575915239825451231e-01 4.858234148999620444e-02 -2.353515165409200693e-01 9.706953279774443999e-01
5.877418324733615224e-02 5.136315907559266258e-03 -7.585573349794744180e-01 -2.211591706110307143e-01 -3.310474327965289842e-01 -9.173310299414646485e-01
2.708152959691985037e-02 1.045459524880091307e-01 -7.475718499146566387e-01 -9.826374228310870151e-01 4.509003288644122809e-02 -1.799738430610934858e-01
3.348676839160166091e-02 -1.607662087410128560e-01 -8.299129807088796440e-01 -1.489538486930254979e-01 5.829004780315898415e-01 -7.987739252567520598e-01
-4.854405966381189486e-03 -2.247106309187357209e-01 -8.879549926914823699e-01 -2.503502651274321922e-01 8.206864659217171232e-01 -5.136131515095252453e-01
-1.855515280151098789e-02 -2.056714117687793442e-01 -9.195790469926903299e-01 4.418263933085528339e-01 -1.738270396941871410e-01 8.800986299541156965e-01
2.930024703548520047e-03 -6.097264609196711982e-02 -7.805228033259260512e-01 -2.890371004160989243e-01 5.166522702120507349e-01 -8.059329911771746513e-01
6.142210876055213820e-02 -1.244821504852574173e-01 -8.153368649569578963e-01 3.435209045543361622e-02 6.837738546658355121e-01 -7.288849357455307043e-01
-5.984118165914201898e-02 2.586344666363846190e-01 -7.371335650343483481e-01 -2.429266564446480939e-02 -4.859037783880880701e-01 -8.736746445582967979e-01
6.381003019036003698e-02 -1.568683877425191275e-01 -8.371219552294022481e-01 -4.450227329812900257e-01 4.157226320390496888e-01 -7.931768153068949889e-01
1.604737260847220390e-02 1.707341883373131586e-01 -7.520942180128756815e-01 -7.698493506996254565e-01 -3.412303380245008122e-01 5.393457459172638080e-01
-1.384870971328399161e-02 -1.589645935854182845e-01 -8.357342624656789454e-01 -7.593726125823420103e-01 6.360613088173547869e-01 -1.370373915594640946e-01
2.641928759539126891e-03 2.001029822173197303e-01 -7.495093642148150659e-01 -7.457934265225946158e-01 -4.362522181160645163e-01 5.034641666936193749e-01
-8.663521773090737677e-03 -9.842729926328075418e-02 -8.054282678012197882e-01 -1.714046767187044351e-01 -2.769907288446065707e-01 -9.454610372369081084e-01
-4.753613224372145452e-02 2.278999101126641391e-01 -7.263455687508002523e-01 2.726161939554889724e-01 -1.192555502140194151e-01 -9.547033699198795853e-01
2.364896277938052099e-02 1.299907216467951210e-01 -7.532207124966234790e-01 -8.716869238816055132e-01 -1.349329854571391929e-01 4.711209994995420591e-01
1.038857113801680276e-01 -6.060166657520880962e-02 -7.909786567955991998e-01 -5.373031236510721342e-01 4.076137311375873096e-01 -7.383470725227367915e-01
-1.344224856801661851e-02 2.190060028289846084e-01 -7.556022597141461850e-01 -6.237507086161881986e-01 -3.966068025253634555e-01 6.735266124596785975e-01
-8.177771545663173325e-02 1.470931683371130491e-02 -8.251459716467521854e-01 -9.425137861079839474e-02 -2.541808282671397246e-01 9.625532630308801796e-01
-3.570528987354936595e-02 -1.539040101988020659e-01 -8.298244378466796967e-01 3.025364498171924099e-01 5.249829393146629997e-01 -7.955278813219220924e-01
-3.324678939265544170e-02 -2.082612679601709982e-01 -9.090822169044451284e-01 6.624960245240246737e-01 4.244642108483847043e-01 6.171945813102386325e-01
9.960593115433115374e-02 -1.241514988989315532e-01 -8.302715600927383921e-01 -5.613978895331467323e-01 5.253517345342813005e-01 -6.394043827262612112e-01
6.196690573629341781e-02 -1.797357867204351367e-01 -8.952193357313145139e-01 -6.349398532017804797e-01 -4.534620946846596445e-01 6.254786259340138210e-01
6.291673881374262867e-02 -1.818237465596797275e-01 -8.580599389035925562e-01 -4.885674224582796099e-01 6.323295886496000939e-01 -6.012164044923428152e-01
7.758971719923465904e-02 -1.179133554956002528e-01 -8.664035673002622451e-01 -4.686663178848984868e-01 -5.253933280337744760e-01 7.101505004840915625e-01
-1.044970875485048967e-02 1.115639560440434691e-01 -7.327961730573923083e-01 8.563937652162069147e-01 1.595550198388314411e-01 -4.910518450663210466e-01
4.485329491791770207e-02 -1.611220277109360610e-01 -8.888496717486182863e-01 -3.853162943735601309e-01 -7.163740149650742461e-01 5.816696863109228621e-01
3.621446450648112964e-02 -1.365650714960995882e-01 -8.160391388893588616e-01 -3.129179849582731099e-01 3.860978170890782546e-01 -8.677619548751273060e-01
5.955619629932389775e-02 -2.205973264337116047e-02 -7.606257846937384270e-01 6.484267497357042165e-02 3.153974241687459434e-01 -9.467417241940866424e-01
4.595872572682424551e-02 -1.467123329831242773e-01 -8.777290142469410528e-01 -1.325939999732120012e-01 -4.654313341762005285e-01 8.750957115299250466e-01
-9.935432125826412775e-02 -8.280784279506685219e-02 -8.352464923092328686e-01 5.499724371155529923e-01 4.413544252350604657e-01 -7.090392018348550263e-01
-7.730925785735305589e-02 2.515801435367581718e-01 -7.432870105658586635e-01 7.076941114978128056e-01 -9.135179932198856517e-03 -7.064599019328184903e-01
4.245457692372087838e-02 -1.097999936413672356e-01 -8.024201346889672237e-01 1.537131230093917167e-01 8.289219992931008418e-01 -5.378295221560711603e-01
-4.452585611073747035e-02 8.111759677688180903e-02 -7.621967985165071235e-01 4.985551338863977722e-01 -7.413009994609662812e-01 -4.493502049333999437e-01
-8.881247754117822801e-02 -1.154696439769707095e-01 -8.355943605675292263e-01 6.489793256128255639e-01 4.011521802389199642e-01 -6.464539915699206718e-01
-5.973560192695248627e-02 2.942002888836143734e-02 -8.159080561716638424e-01 -2.200875112911721276e-01 -3.267406893833498249e-01 9.191311164762899777e-01
-3.563197532745243645e-02 -1.122634349445671281e-01 -8.148180347879500074e-01 -2.325671615212115406e-01 8.450070753610269270e-01 -4.815345864751258143e-01
-1.030327634929824182e-01 5.930872588342968321e-03 -7.955293510283056868e-01 8.926679417540521744e-01 6.126180322400257700e-03 -4.506732915086508751e-01
3.974976128207129145e-02 -2.133795353871003331e-01 -8.762022764201813363e-01 -4.391227447075359835e-01 6.809695170629900263e-01 -5.860475508962715852e-01
-1.023517050986781085e-01 -1.004523799877058421e-01 -8.469418779267401387e-01 9.431596348894321080e-01 1.279030258594628100e-01 -3.067421051815784061e-01
-3.292515895074701188e-02 2.437171819697506459e-01 -7.365568880563673204e-01 -5.329501737363671054e-01 -6.886165302058991911e-01 -4.917025387788476198e-01
-4.942269862587252149e-02 7.253908551499765878e-02 -7.584081530140397431e-01 4.645086127981328250e-01 -4.014909555316146794e-01 -7.893267772365671897e-01
9.041543150821265695e-02 -9.283949759068081675e-02 -8.071664761559820267e-01 -6.102208421795002335e-01 7.040390070332626371e-02 -7.890968347012282669e-01
5.067816581890334515e-02 -9.461234415178539081e-02 -8.607982450617793768e-01 2.886146640428104843e-02 -4.043749132756641052e-01 9.141378152501370424e-01
-4.098242796407223359e-02 -4.977721092222456289e-03 -7.680948320147721331e-01 1.973299509834211818e-01 1.735145456073702575e-01 -9.648593643156231359e-01
-6.141450844834654178e-03 -1.152609592222632456e-01 -8.091115064691811742e-01 -6.929561699568388411e-01 3.009816888759808129e-01 -6.551501884912427354e-01
-7.386171721614505359e-02 -3.326804757258491896e-02 -8.428418792380645286e-01 6.787429641874026531e-02 -5.163661960034933163e-01 8.536738437544766356e-01
-2.259305239740490301e-02 4.861325940071616059e-02 -7.499251232974868397e-01 1.202673758440405000e-01 1.776425388298692176e-01 -9.767184275448408393e-01
-1.100306811243420210e-02 1.174931481209366274e-01 -7.318106189101852843e-01 8.605604735251739523e-01 2.000183353516132856e-01 -4.684317847128841028e-01
-1.013044300186629644e-02 -1.354730364751454974e-01 -8.153722821939064502e-01 -5.210029798027649983e-01 4.161947219731588765e-01 -7.452099358156226705e-01
-6.075700450560390931e-02 -1.268676207653081367e-01 -8.824875491716215326e-01 -3.731751559480194214e-01 -2.012881655436858375e-01 9.056618449483387900e-01
1.609913427769804964e-02 -2.059457220067917871e-01 -8.633317966244561381e-01 1.124280469888839923e-01 5.700162914050195262e-01 -8.139050078376058872e-01
-8.373624631820225997e-03 -1.755438381079140603e-02 -7.697650585693315284e-01 8.563895286839217080e-01 2.461947087278412438e-01 -4.538558587866234895e-01
-6.775316257799156305e-02 -1.196284890419021668e-01 -8.793196370240862203e-01 1.929383520952142050e-01 -5.673933068588932205e-01 8.005245952639511442e-01
-4.644457157971853406e-02 4.147310968284021078e-03 -7.682022193600452908e-01 2.848247225755398127e-01 6.131396463492639476e-02 -9.566166814092852411e-01
-4.374615604395089286e-02 2.089520838636318434e-01 -7.263535825495821552e-01 6.285285377974051402e-01 3.117779324770760252e-01 -7.125632589423731567e-01
7.796639872884006395e-02 -8.264367196122338055e-02 -7.974538681799415718e-01 -5.088120064791853414e-01 1.185949640226030555e-01 -8.526696761179577422e-01
-2.935430828927701376e-03 9.102071819475460179e-02 -7.782486857581408790e-01 3.428378841398158072e-01 -5.132791359472341775e-01 7.867697972086844516e-01
-5.976030745842596942e-02 1.294651908911478681e-02 -7.734376698655998084e-01 2.327638194863752008e-01 4.587351650288529897e-02 -9.714507835303718419e-01
-4.858449269948824506e-02 -8.313624541176097005e-02 -8.556414229631764679e-01 -1.952178850454676651e-01 -4.737782454932230602e-01 8.587340400005916141e-01
7.476829941027882120e-02 6.060177893745961192e-02 -7.503072168792058738e-01 -5.212241717138327290e-01 -3.785701902357148652e-01 -7.648594471444564169e-01
2.451809081929913047e-03 2.837790749302336601e-02 -8.123455612037557838e-01 1.763689190723207179e-01 -3.949450544560262344e-01 9.016165528349551206e-01
1.221164957857904165e-03 -5.858747441411709528e-02 -8.473390697608214062e-01 2.681631195784373815e-03 -4.007771335998251416e-01 9.161716531511098216e-01
-8.508263457451838152e-02 2.426279727855057411e-02 -7.724294433003483507e-01 5.918264461634116236e-01 1.924417552092862541e-02 -8.058356652135134635e-01
-3.555607488779409433e-03 -5.769758774079483503e-03 -7.571135908102102352e-01 5.169819023221283727e-01 2.975152512610570454e-01 -8.026296704822610817e-01
4.454944726725299474e-03 -1.208630544396093742e-01 -8.778036979998381506e-01 -3.122316326272775444e-01 -5.119671749281257123e-01 8.002505978648304374e-01
1.007352516099138534e-01 2.649252976303831039e-02 -7.614112607302562230e-01 -7.554049571522590822e-01 -1.507592482954319690e-01 -6.376793863401808427e-01
5.377588667331940908e-02 -1.739574417232866432e-01 -8.457208293667032306e-01 -3.147549884894478289e-01 5.941633851386827203e-01 -7.402021136024600212e-01
-5.591024136030855324e-02 2.283012384455336552e-01 -7.659914746121058160e-01 2.533417934812066119e-01 4.997111945613210149e-01 8.283155544270692783e-01
-2.191589450180427088e-03 1.583120047473064729e-01 -7.164091777396336402e-01 -8.833824925828280550e-02 -1.116865718742828667e-02 -9.960279186923483019e-01
5.468150296329333214e-03 -1.782781614447775664e-01 -8.529127053257709035e-01 7.818652108648568300e-01 2.336081976099482482e-01 -5.780259527466600211e-01
-3.616859330632304914e-02 -1.427522307475361241e-01 -8.234593842618895820e-01 3.585558680704686862e-01 4.350459060138703316e-01 -8.259374971102857454e-01
-9.308356992867444779e-03 -6.811163533759717614e-02 -7.842247562198607636e-01 -6.304501160189421860e-01 1.650893084260063592e-01 -7.584709430526161977e-01
2.330272499784535184e-02 -1.725359869824569237e-01 -9.033607244210448695e-01 -3.453803986585395336e-01 -5.337213492281379645e-01 7.719157347797517277e-01
2.207166095343640264e-02 1.145153152973940464e-01 -7.620766752066941985e-01 -7.036318325496961901e-01 -3.155818025461752940e-01 6.366399061671071946e-01
-8.952116183528424859e-04 -2.080663161216229906e-01 -8.818316499798125596e-01 -7.664167008706631590e-01 3.130655139413917598e-01 -5.608880678059933178e-01
4.783049977627571586e-02 -9.603224445121985586e-02 -7.939214367716564968e-01 -2.348254884152982391e-01 4.599464800498783146e-01 -8.563330108551481246e-01
-5.011474161601290472e-02 -1.136317598848344407e-01 -8.741506140402351965e-01 -5.017903254138241786e-01 -1.768765878357606014e-01 8.467119592852498933e-01
-1.438147240433411238e-02 2.053830556722321399e-01 -7.208424138787807856e-01 -3.561820136474542209e-01 -2.818982830501028380e-01 -8.908803124816760954e-01
2.286971816499899432e-02 8.080116511807580726e-02 -7.404139678780922162e-01 -8.653826375563715700e-01 8.721074753206793650e-02 -4.934644628855002213e-01
1.083564152220357069e-01 -1.194323681621991956e-01 -8.438489415998955412e-01 -9.743381996803673895e-01 1.908394153867756793e-01 1.193540538836203452e-01
-9.750716378564279474e-02 1.208398501401178673e-02 -7.856905160830386370e-01 8.419363695452485308e-01 1.327738398924031664e-02 -5.394134413521493032e-01
-2.296491075918499422e-02 -2.183551813997587354e-01 -9.128313456061400988e-01 6.889962166269086863e-01 5.900126094678991295e-01 4.209148775497086326e-01
-1.248668997327275756e-03 1.956100956033734461e-01 -7.571550732977867515e-01 -4.915041261312282361e-01 -2.651436644030402690e-01 8.295315130981495422e-01
3.842377472626685997e-02 -2.037985652159836347e-02 -8.263120109744185315e-01 -1.358814697645571168e-01 -2.288748816164760114e-01 9.639255753115317793e-01
-1.241025175983492476e-02 8.188710893232244159e-02 -7.450865407700740795e-01 9.000169902957544377e-01 -4.734861399317979308e-02 -4.332753465544703086e-01
1.395615924878685320e-02 2.701432382234833160e-02 -8.111066218728512078e-01 -3.751714497661284842e-01 -3.259897103340195779e-01 8.677425263502551722e-01
-8.427712774832207820e-02 6.040894607859967867e-03 -8.273489390095619678e-01 -1.096844851636552959e-01 -1.941013596028146326e-01 9.748302292782690115e-01
-6.773022898323755037e-02 -1.737211237928148466e-01 -8.716368720212385179e-01 7.432593176600270635e-01 6.213920137283149847e-01 -2.478659960265234274e-01
1.088180986650095529e-02 -1.860958925766899863e-01 -8.520955638218914441e-01 2.394476710651684825e-01 4.063657237938654299e-01 -8.817775860992127512e-01
-5.801459139462145781e-02 -1.829884456270150783e-01 -8.688179157297974964e-01 6.281787417855244637e-01 6.675132149210925014e-01 -3.997719053090932340e-01
-1.551883731759126812e-02 -2.648024222304910455e-02 -8.304356435692632488e-01 3.239611576332199205e-02 -2.725735923074596445e-01 9.615893762204613671e-01
1.565856115993092754e-02 1.631789968611062625e-01 -7.294187980806553506e-01 -7.997286312738409730e-01 -2.265476996245784080e-01 -5.559768485428872031e-01
-8.536208749257229167e-02 -8.358737852858927342e-03 -8.306287849881862639e-01 -5.611434807302363194e-03 -3.003099527948297487e-01 9.538251642999205915e-01
-6.269063549542865099e-02 -5.088516863583809197e-02 -7.955356453062454314e-01 -3.866849597672561978e-01 8.688838536989942352e-01 -3.090559668910798918e-01
3.921643135846636374e-02 -1.644677636195256976e-01 -8.338742092359235913e-01 -2.016578188913682734e-01 5.813564910594029023e-01 -7.882631250940731471e-01
-3.460683040269836065e-03 -8.263671854926420146e-02 -7.993770881038055887e-01 -5.432079925788949604e-01 5.530524829740217641e-01 -6.317103987387547859e-01
4.617516348946438393e-02 -1.987058167003625531e-01 -8.718892198483402245e-01 -1.957698434321042680e-01 7.653962898738410070e-01 -6.130601013358547569e-01
-9.808366399860140444e-03 -2.741701453917329279e-02 -7.769900534349809540e-01 3.919272545843425215e-01 4.479338065082925091e-01 -8.035846763726716135e-01
-6.093461346269161277e-02 -1.922618507470898828e-05 -8.256152932403497680e-01 -1.609507456316384144e-01 -3.723069367249865480e-01 9.140472648321180671e-01
1.112357515241118450e-01 -4.771807036216851178e-02 -7.903947113580307438e-01 -6.767938209389332549e-01 3.382148623107416041e-01 -6.538813583908053007e-01
-7.170347727172828034e-02 -7.197577957146476801e-02 -8.060538743491201252e-01 6.987585019125973629e-01 -1.660450698953463977e-01 -6.958200850566992335e-01
-1.819835961597158006e-02 -9.968788883403402468e-02 -8.035473933525193457e-01 -3.477924427367842242e-01 7.631102888244568616e-01 -5.447046023905384171e-01
-3.433784058413681499e-03 6.658841924696298764e-02 -7.937672849666047581e-01 2.692535878373107927e-01 -5.609502853859582583e-01 7.828392445209600981e-01
-4.217669625834501862e-02 -1.673708760887136215e-01 -9.003096520020883453e-01 2.358738389922855616e-01 -7.423500409594809835e-01 6.271203622642929076e-01
6.765730086869815862e-02 -1.730866231684581591e-01 -8.868982576727317824e-01 -4.475360107483757344e-01 -4.008114380688077016e-01 7.994133537767827979e-01
-2.141036912403181808e-02 1.787729508309904292e-01 -7.533889505938939912e-01 5.809108841978101179e-01 3.919250384181905411e-01 7.133984222588510837e-01
1.060869829849956786e-01 -7.914213452449010699e-02 -8.384302488835958522e-01 -6.032094774844415364e-01 -4.498325328611790241e-01 6.586266155058138061e-01
-3.524318938593751921e-02 -6.661797907122310458e-02 -7.854684491805189461e-01 2.680772842946987367e-01 2.365005671746325533e-01 -9.339175827508849892e-01
-1.057938746832766813e-01 -3.262339907009734197e-02 -8.114246918318208657e-01 8.758902842018221335e-01 1.663715822820747980e-01 -4.529201989863222977e-01
-3.833191313877919865e-02 1.910527359436515193e-01 -7.316623039833387576e-01 8.193569722880145179e-01 4.465136633984480019e-01 -3.595548641883670737e-01
-6.119834777213228882e-02 2.280815029918734776e-02 -8.179485482884006897e-01 -3.183431757611426827e-01 -2.022299176505839291e-01 9.261537036871083650e-01
-5.416600544846139620e-02 -1.369785083093315592e-01 -8.332598300476513620e-01 7.227476192337046745e-01 -8.843926180860284259e-02 -6.854300663545197514e-01
-3.795322817237985896e-02 -1.065588623368271398e-01 -8.023277168161474515e-01 1.473212447753434462e-01 5.858494453304161631e-01 -7.969171087659536745e-01
-9.973119684345227443e-02 3.023678375287848497e-02 -8.020528476342980717e-01 9.213147610175408397e-01 -3.883651154558638297e-01 -1.875228594452306788e-02
-5.537033355960533504e-02 -3.585474080896876997e-02 -7.779605491297584274e-01 9.236420109956210156e-02 3.649173081082366377e-01 -9.264470910949410554e-01
-1.058376129530756368e-02 -4.791359020650069050e-02 -7.810400835698932953e-01 2.072503407598098521e-02 2.802823998670258068e-02 -9.993922606893637095e-01
-8.492393024609538876e-02 2.706683323330271243e-02 -8.163941108540808678e-01 2.411789179265764471e-01 -6.281811931827070428e-01 7.397439544053849847e-01
3.437221339057278113e-02 8.193628368947787621e-02 -7.452505021552752185e-01 -1.598706572811185722e-01 -2.996326711260745568e-01 -9.405645301277082426e-01
4.569367621098784082e-02 1.254655309242503659e-02 -7.580778194476595067e-01 -2.173872288340416015e-01 -3.132434888498987213e-01 -9.244573053597442414e-01
7.044905059759216936e-02 6.795945605918303489e-02 -7.518574465632169579e-01 -5.148322453258036280e-01 -5.070147962997578750e-01 -6.912913680250221127e-01
-2.010238783290252060e-02 9.400147627626491767e-03 -8.164360740614396983e-01 2.639153583301963660e-02 -4.075396761185277605e-01 9.128060578379068035e-01
-9.993133322783993855e-02 -6.323613606467108628e-02 -8.167251954672388736e-01 7.307964217897836567e-01 3.223564759727711726e-01 -6.016833821019695883e-01
-9.813783779520060882e-03 1.268050723182094219e-01 -7.551207920254147110e-01 8.654425420365733368e-01 -1.421362406858267535e-01 4.804232462287548189e-01
4.502470054376760816e-02 -1.524706768252730160e-01 -8.812919691968089664e-01 -1.864824494917976805e-01 -5.440416395146877582e-01 8.180727293497257469e-01
2.446011996256968607e-02 9.442638726795611614e-02 -7.409311581181298179e-01 -9.404732397882167305e-01 1.215862014394573781e-01 -3.173749846187927659e-01
8.068499098839598815e-02 2.835737429734171838e-02 -7.990094908057886469e-01 -3.492469910444251924e-01 -6.154788241829137752e-01 7.065496134234545700e-01
8.310647669948482974e-02 -2.091384865507751184e-02 -8.153937706333522772e-01 -2.311283812115121905e-01 -3.807790517326953283e-01 8.953139031424091066e-01
-7.303131149503887254e-02 4.918733898779625857e-02 -7.664927760682131996e-01 5.957539490833408946e-01 -1.493431213869294283e-01 -7.891602272327292722e-01
-4.967398217465583687e-02 2.539245932605379563e-01 -7.361259155714551250e-01 -2.994642649070684004e-01 -5.918624360548622176e-01 -7.483448475341252237e-01
-2.831838935323322329e-02 3.810109736899657679e-02 -8.063471678026478129e-01 -1.425412877731936645e-01 -1.957085014073380591e-01 9.702474755220203972e-01
7.244106474168788591e-03 -2.261318659499188533e-01 -9.039408732131766211e-01 3.210824983284595313e-01 4.084071996959209305e-01 -8.544645039460040392e-01
2.194720200876245850e-02 -2.072918460185773359e-01 -9.229211721564776205e-01 -4.918371059413468305e-01 -4.005850108427682077e-01 7.730639755591638407e-01
-8.219893782918377689e-02 -6.351020759171860375e-02 -8.569854727977889164e-01 -3.585036173234110723e-01 -1.590496176399349981e-01 9.198795440135734136e-01
5.385393041040701517e-02 -1.399686570480753178e-01 -8.742186886237925947e-01 1.127179516033056245e-02 -3.219535639578568476e-01 9.466883591175596635e-01
2.602490374469167839e-02 -7.457156279983268021e-02 -8.526681225748652393e-01 -1.449159665837656402e-02 -3.850526198504546360e-01 9.227808372374191048e-01
9.096849733591943002e-03 2.995107045523609512e-02 -7.435059468807458938e-01 -4.205402194596794541e-01 3.760853700910100073e-01 -8.256547209459367265e-01
2.292243357319297126e-02 -4.043022251143831708e-02 -7.796752276064293774e-01 -1.810269770543978529e-01 -4.844730732322416467e-01 -8.558709452314954280e-01
-6.732350502778468304e-02 -5.168349839379251381e-02 -7.895675809543315493e-01 -1.859573141887131131e-01 8.318884719876007416e-01 -5.228589173705036064e-01
3.941394543836634901e-02 -1.394309082905335617e-01 -8.184842034274756317e-01 -2.992182036591022332e-01 4.061280440484817400e-01 -8.634399101479931504e-01
-3.158467804737531692e-02 2.439510079928306763e-01 -7.569589865111915339e-01 -7.412135883875998754e-01 -5.499625786721141774e-01 3.848942432018127580e-01
-4.223797744688885525e-02 4.138069207160123553e-02 -8.078355595319831606e-01 -8.078742962199687849e-02 -4.784332607617192146e-01 8.743997976966711994e-01
-4.642889363968088177e-03 8.190215751764648444e-02 -7.319797183933025586e-01 5.837152500150000201e-01 1.631608632052757579e-01 -7.953961526296411400e-01
6.262501747713133948e-02 2.807488242234304140e-02 -8.032625338043559715e-01 -3.089557024818363404e-02 -2.661446233266073214e-01 9.634378564356801400e-01
-4.495007251055586905e-02 2.579700038002957219e-01 -7.625328096860158889e-01 -7.441466202733914015e-01 -5.999350696129689409e-01 2.938089851998589297e-01
-1.051170562904316513e-01 -5.262925193794260915e-03 -8.280350279764375765e-01 3.739806195326373928e-01 -3.579981848630207075e-01 8.555558402867500245e-01
-7.457316448655139374e-02 6.477174825647136203e-02 -7.795521675107747184e-01 7.258054216436479189e-01 -6.362350379697224723e-01 -2.615558570790421089e-01
-1.013242302478777924e-02 2.227382339360957086e-01 -7.464014925203247275e-01 -7.564435001958129678e-01 -5.922985731880525684e-01 2.774448255255521079e-01
6.410836452082312176e-02 -5.933159587746150015e-02 -8.357253111163130965e-01 -8.830405214045611295e-02 -4.331125731885138719e-01 8.970038424229853646e-01
-1.394712075987789707e-02 -2.245183251640736621e-01 -8.893241700718773624e-01 2.855785487076878959e-01 8.840068493021193685e-01 -3.701037461374184212e-01
1.908772637124099211e-02 5.114143764382352020e-02 -8.008784377592812476e-01 -3.430982814357617094e-01 -3.086989323616503578e-01 8.871237447135568166e-01
-3.283113978072862288e-02 -4.176107849354707829e-02 -8.354353514833856575e-01 -7.387467273587598748e-02 -2.913401515110068951e-01 9.537627843681628637e-01
-1.498538544490488761e-02 9.150066366612114033e-02 -7.507577841737841373e-01 7.114796164914697352e-01 -2.809658602789830706e-01 -6.440923386245499538e-01
5.874401647179799783e-03 -4.382267050060222047e-02 -8.401629149636036242e-01 -3.612746533421947737e-01 -3.553086386136350971e-01 8.621115914885972842e-01
2.231982578938540920e-02 5.539964974823236715e-02 -7.432914830470415124e-01 -3.023056276674286891e-01 1.244476486967176360e-01 -9.450524272306062290e-01
6.699557830483530985e-03 -1.548782693683104505e-01 -8.282453890258870688e-01 8.177146617256404459e-01 5.172253480309422224e-01 -2.526275348278407273e-01
-9.156468432194880824e-02 1.354144909873551336e-02 -8.242706829142669722e-01 3.814534359127787488e-01 -5.132882479263671804e-01 7.687837477281992404e-01
6.426495928593532747e-02 -3.095113939301767647e-02 -7.635524816655684388e-01 -1.449155259101307658e-02 3.455597876488720188e-01 -9.382848331202887637e-01
-9.361002191218976975e-02 2.345092143705964846e-02 -7.809815815963800922e-01 8.025304402267088300e-01 -1.146852885973907582e-01 -5.854845660552102649e-01
