8.049553288454150413e-03 -2.635044708194100860e-01 -9.958927527195130525e-01 -8.851496700812354623e-01 -2.305715167176557168e-01 4.041618948312666881e-01
-1.347256777687907969e-02 1.273082798621540945e-01 -7.879662792423982598e-01 8.457364364242296872e-01 2.644132031238725644e-01 -4.634819717294501040e-01
-4.299292789102191620e-02 2.622492328056803476e-02 -9.159619120386055524e-01 -8.457364364242296872e-01 -2.644132031238725644e-01 4.634819717294501040e-01
-4.288831247935713520e-02 7.794149386390736289e-02 -8.862561034164884166e-01 -8.433398625458898845e-01 -2.665168251032623559e-01 4.666333230470761095e-01
-8.080835352605364452e-02 6.001053234801072278e-02 -9.553383400162732686e-01 7.160389422912052382e-01 -4.232638755477338144e-01 5.550999232379738579e-01
3.373452957467298896e-03 -2.448610232323299510e-02 -8.438242129813292580e-01 8.457364364242296872e-01 2.644132031238725644e-01 -4.634819717294501040e-01
-2.048468813039913683e-02 1.562994961370993696e-01 -7.842223263294588742e-01 8.457364364242296872e-01 2.644132031238725644e-01 -4.634819717294501040e-01
-9.501349444086176765e-03 5.015729106628603190e-02 -8.247339143826883934e-01 8.457364364242296872e-01 2.644132031238725644e-01 -4.634819717294501040e-01
-5.841863781611882078e-03 -2.156326933421905401e-01 -9.782986078207708269e-01 1.849993687466158498e-01 6.694229003118516985e-01 7.194777370436299391e-01
8.522156007855746784e-02 -9.241615828493943141e-02 -7.385915368868293251e-01 -5.314505846162241864e-01 4.952948345611455916e-01 -6.871996092607453033e-01
5.833095854995275220e-02 4.948920678318727978e-02 -7.175523575408127019e-01 -8.482803014432301891e-01 -2.630708997553180550e-01 4.595804955449152573e-01
-4.414265553285227905e-02 1.673170423643040305e-01 -8.212400909680107608e-01 8.459706339905291861e-01 2.608330783763802563e-01 -4.650804141762618360e-01
-4.360774307140489331e-02 -1.002043615699041851e-01 -9.728638331752771373e-01 8.468418771210777241e-01 2.680703212641631361e-01 -4.593442478265922224e-01
-5.222690588063687300e-02 1.695296087451596823e-01 -8.507025517319029007e-01 -8.423426868542628343e-01 -2.690504743975162816e-01 4.669803423374617179e-01
-2.469553728762025058e-02 2.154576948247195756e-01 -7.741538828955413232e-01 -8.444251855946356411e-01 -2.699271556526755544e-01 4.626936746646983512e-01
-5.975753757935504257e-02 9.850174257734883865e-02 -9.049903808935101379e-01 -8.428861711321147254e-01 -2.671495654133614339e-01 4.670910106325055211e-01
-4.502910282761062727e-02 2.125648532956043169e-01 -8.127661978422238143e-01 -8.385457890517802326e-01 -2.838138854352955098e-01 4.650705732441565154e-01
-3.886746361414619710e-02 1.383765595991504616e-01 -8.279911141701163935e-01 8.457364364242296872e-01 2.644132031238725644e-01 -4.634819717294501040e-01
3.063646903012403125e-02 -1.207046019790675578e-01 -8.654292941820982410e-01 -8.457364364242296872e-01 -2.644132031238725644e-01 4.634819717294501040e-01
-8.643470915470881713e-03 5.226336410750023059e-02 -8.163963561500353627e-01 9.825357549645958866e-01 1.323131673986313872e-01 -1.308308677227715544e-01
-7.474549715615874668e-02 1.472320031620479308e-01 -8.965431924245375050e-01 1.660266122836246971e-01 -7.769812606414231437e-01 6.072357735062122730e-01
2.401365215757242377e-02 -6.452249404492114981e-02 -8.290015912592922920e-01 8.457364364242296872e-01 2.644132031238725644e-01 -4.634819717294501040e-01
-3.384977887200677632e-02 -1.271610401242948551e-01 -9.704563514521510337e-01 8.490615698074223117e-01 2.630979055903632791e-01 -4.581200091134637886e-01
-4.076765929719292081e-02 -6.671371774957486622e-02 -9.484610467555883995e-01 8.457364364242296872e-01 2.644132031238725644e-01 -4.634819717294501040e-01
-8.463776397658483164e-02 1.424833115145811568e-01 -9.118051740707915354e-01 9.281001946331965957e-01 1.571088111352898498e-01 -3.375601430641341771e-01
5.978461148892191129e-02 -1.952774232333439053e-01 -8.522892238582341351e-01 -5.425714404731351026e-01 8.180909119724024681e-01 -1.906396908596691975e-01
-9.614302320701250196e-03 -2.037381401561201566e-02 -8.897467187620676787e-01 -8.519852209438363300e-01 -3.204186336777335442e-01 4.140689344606489630e-01
5.127643484111548550e-02 1.217390268415160792e-01 -6.966696131609764198e-01 -8.557022872981507877e-01 -2.646428827107181747e-01 4.446771189787870338e-01
-3.005402407170678150e-02 1.510829555226074761e-01 -8.046700371908100946e-01 8.487980529654004513e-01 2.615045931121849909e-01 -4.595184578048810420e-01
-1.642156777688669189e-03 3.145929510852028821e-02 -8.210599665281330672e-01 8.457364364242296872e-01 2.644132031238725644e-01 -4.634819717294501040e-01
-2.331569464347453199e-02 5.421999231742354736e-02 -8.640849880852111697e-01 -8.457364364242296872e-01 -2.644132031238725644e-01 4.634819717294501040e-01
-4.321310332424056072e-02 2.239159392256857839e-01 -7.882873691013611017e-01 8.607110725439546250e-01 2.275429768503005878e-01 -4.554126077375758586e-01
3.675024431084769616e-02 1.211806024526865672e-01 -7.160864648717847336e-01 -8.488119674145725435e-01 -2.624726997517989879e-01 4.589404382474971400e-01
-7.398051216407407205e-02 9.540251692937684255e-03 -9.812827332922358092e-01 -8.408957549533787601e-01 -2.669159693399401623e-01 4.707974029375136538e-01
7.899039915974677417e-02 -8.175661587229827998e-02 -7.543346392545577928e-01 -8.503352076723722508e-01 -2.601230383920263844e-01 4.574560519771096456e-01
6.578220556790641271e-02 -5.842001213719186931e-02 -7.732169576178763437e-01 -8.225073021954601993e-01 -3.723146277378355795e-01 4.299576209437192542e-01
-2.159887717188777728e-02 1.586087724865992421e-01 -7.782655913218772259e-01 7.916379702311210353e-01 9.094695655599926987e-02 -6.041837263461768970e-01
3.921825672522246536e-02 -4.547388117932364693e-02 -8.068511227333321489e-01 -8.457364364242296872e-01 -2.644132031238725644e-01 4.634819717294501040e-01
-3.133806642915255847e-02 -1.203221225207102008e-01 -9.780747085938719110e-01 -8.423607499558166678e-01 -2.657234480190520665e-01 4.688490333857376902e-01
-6.423959136377582757e-03 1.188213671882799166e-01 -7.799460894284027113e-01 8.457364364242296872e-01 2.644132031238725644e-01 -4.634819717294501040e-01
6.401568369551624560e-02 5.127821959554713926e-02 -7.060132002803712892e-01 -8.487701286179415439e-01 -2.634570137052946182e-01 4.584535643828840379e-01
3.373978258096601429e-02 -1.727252031102838592e-01 -8.893116179584619196e-01 -8.490766718610418540e-01 -2.604488329533504176e-01 4.596033188681461490e-01
1.699502954164539004e-02 1.936852710387987897e-01 -7.104784791368496943e-01 -8.467548458704117209e-01 -2.676152791621171922e-01 4.597698264936028179e-01
-5.002135818119932825e-02 -3.762050034032347326e-04 -9.275179409730421876e-01 8.481559091959723906e-01 2.626924427897527892e-01 -4.600263407644242242e-01
-8.623815808827937912e-02 6.547339081066665123e-02 -9.577887698187789178e-01 8.710963879423967438e-01 2.445792149647438296e-01 -4.258780230546529433e-01
-1.776721154482145681e-02 7.447161219226045015e-02 -8.374742581780197925e-01 -1.778070478086521064e-02 6.904266066372392041e-01 7.231838959662213462e-01
4.135309073831878318e-03 1.216179070290689113e-01 -7.755438687407170129e-01 -8.457364364242296872e-01 -2.644132031238725644e-01 4.634819717294501040e-01
4.571684291949588974e-02 4.603719823572635650e-02 -7.501376087870255116e-01 -8.260193934315569475e-01 -3.753468191170559187e-01 4.204839200893072393e-01
1.957243610203127093e-02 1.593652590271283850e-02 -7.912043736480233180e-01 8.457364364242296872e-01 2.644132031238725644e-01 -4.634819717294501040e-01
2.844005537606845643e-02 1.189906837412950114e-01 -7.115241375072568486e-01 5.595064263308902053e-01 8.160710564516626686e-01 -1.448467801378524600e-01
-6.045856025087646690e-02 8.955266351495516641e-02 -8.954590560170937463e-01 8.480959899684817893e-01 2.622556475443101887e-01 -4.603858893694459109e-01
5.656480440001552396e-02 3.644291554580800924e-02 -7.123324512504297656e-01 8.426055517987154353e-01 2.660426387080677690e-01 -4.682277207377100181e-01
4.774326305651404451e-02 -9.903523038746336882e-02 -8.055029101928595781e-01 8.432543696954263313e-01 2.668294415496097471e-01 -4.666091695540203199e-01
-2.641040878386531274e-02 -1.709148468745271543e-01 -9.823352450973402705e-01 8.575503365705243741e-01 2.789264567005615980e-01 -4.322122765496722030e-01
-6.480897966809341659e-02 9.612343940048259650e-02 -8.997369451877528235e-01 8.485753308877834744e-01 2.616567224873022068e-01 -4.598430899621002155e-01
-1.614893622946134491e-02 -1.759666825955890634e-01 -9.817778439912380195e-01 -8.423250417169164672e-01 -2.567177318458274682e-01 4.739035031021918143e-01
6.104947663323264523e-02 -4.254450137183268116e-02 -7.651330798100661745e-01 -8.480898539570299599e-01 -2.625914495464379828e-01 4.602057477262148089e-01
-3.132542553653899081e-03 2.448642996839443461e-02 -8.442186691669042453e-01 -8.457364364242296872e-01 -2.644132031238725644e-01 4.634819717294501040e-01
-8.377075406994244355e-02 2.898985552685674760e-02 -9.738412470878500260e-01 8.718412852927874823e-01 2.464727303314080686e-01 -4.232540212000373003e-01
-2.565986567573817420e-02 1.451575338105519919e-01 -8.164832751364037300e-01 -8.457364364242296872e-01 -2.644132031238725644e-01 4.634819717294501040e-01
-4.656903506467978231e-03 -5.979716447984947253e-02 -8.717554523101338493e-01 8.010648075078542485e-01 2.966108913836930094e-01 -5.199203335944609927e-01
3.622862167010548751e-03 -1.677231213336919657e-01 -9.250848160762972228e-01 8.457364364242296872e-01 2.644132031238725644e-01 -4.634819717294501040e-01
2.777275949799363347e-02 1.729291926192112472e-01 -6.875482011302840313e-01 8.365910944860259768e-01 2.531515147860179393e-01 -4.858288291036444440e-01
-1.653059303941633446e-02 -1.960121082722379449e-01 -9.880281632250406121e-01 2.796489617306310294e-01 5.201209625733376196e-01 8.070134091170757529e-01
-5.121709064380306625e-02 2.526128554600190479e-02 -9.150888505805053752e-01 8.481035796374136737e-01 2.625998249357301972e-01 -4.601756731400837297e-01
-5.856328384908246823e-03 1.112714592067430008e-01 -7.760100146275167310e-01 8.010648075078542485e-01 2.966108913836930094e-01 -5.199203335944609927e-01
5.852975328619801354e-02 9.518217995640131102e-02 -6.909356973490120568e-01 -8.496267430363643181e-01 -2.630122411692785711e-01 4.571202888874361658e-01
-1.848870511806175940e-02 5.278793779520931512e-02 -8.560939398405666978e-01 -8.457364364242296872e-01 -2.644132031238725644e-01 4.634819717294501040e-01
-1.662107196441967027e-02 5.492458586704265094e-02 -8.350058847171707432e-01 8.457364364242296872e-01 2.644132031238725644e-01 -4.634819717294501040e-01
5.971066955501123930e-02 -5.659256712898339675e-02 -7.832575409249529219e-01 -8.227637347035869908e-01 -3.721284890460116457e-01 4.296280071142219992e-01
5.791259154979002538e-02 1.178561143985581844e-01 -6.661666861681448948e-01 6.642074957313739425e-01 2.189514501627698728e-01 -7.147647620622307185e-01
4.230492565453949222e-02 -5.535979244433815449e-02 -8.068585816700107882e-01 -8.457364364242296872e-01 -2.644132031238725644e-01 4.634819717294501040e-01
-3.763255142414639182e-03 -1.605000458485090001e-02 -8.684953094830011322e-01 -8.457364364242296872e-01 -2.644132031238725644e-01 4.634819717294501040e-01
2.792602277508982739e-02 1.441408834684408113e-01 -7.191888848914832488e-01 -8.463460004249141466e-01 -2.673974474483797326e-01 4.606485131451555359e-01
1.221234987069488853e-02 -1.271770858649411140e-01 -8.862799629632855947e-01 8.457364364242296872e-01 2.644132031238725644e-01 -4.634819717294501040e-01
5.199402053264354229e-02 1.031973954690060258e-01 -6.984659949626843556e-01 -8.485165691868185034e-01 -2.634153815659127096e-01 4.589465857481849764e-01
4.333943489045253422e-02 8.683065523599530280e-03 -7.519991336603509824e-01 8.433601303085358492e-01 2.659751423603480269e-01 -4.669056802528347427e-01
2.012625885332471054e-02 1.814301838838852377e-01 -7.118449563189512830e-01 -8.467548458704117209e-01 -2.676152791621171922e-01 4.597698264936028179e-01
-6.369119729761071880e-02 -7.069409562388596913e-02 -9.931754438309076116e-01 8.505883166522020256e-01 2.680989167124143702e-01 -4.523521708054504264e-01
3.882951072459752545e-02 9.384146159734174653e-02 -7.280820624516376460e-01 -8.457364364242296872e-01 -2.644132031238725644e-01 4.634819717294501040e-01
-3.237268005607534666e-02 -1.155360876997942321e-01 -9.772179266047810176e-01 -8.425185007808734250e-01 -2.662477579632193114e-01 4.682677729905279085e-01
-3.897985996152648208e-02 -1.576412560684567477e-01 -1.000325598646264691e+00 6.052426055751888301e-01 4.766207661363094927e-01 6.375845306186420647e-01
-3.615629248686200864e-02 -7.271720724593271415e-03 -9.225963950584841200e-01 -8.457364364242296872e-01 -2.644132031238725644e-01 4.634819717294501040e-01
8.213334994113138249e-03 1.046152842413784617e-01 -7.855254426663214051e-01 -8.850942041863868459e-01 -2.306237933341928614e-01 4.042535289441692714e-01
7.716276026890438178e-02 4.435835402927672949e-02 -6.855031697536295709e-01 -8.720280494594677689e-01 -2.588697077616490816e-01 4.153956612186926467e-01
-1.534328001128973384e-02 -2.576800362794075608e-02 -8.787087946021326923e-01 8.457364364242296872e-01 2.644132031238725644e-01 -4.634819717294501040e-01
8.692002298823085088e-03 4.929865854457827351e-02 -8.040906815804714780e-01 -2.711929954627456674e-01 8.831310259683379238e-01 3.827975315804085232e-01
1.620441441536020835e-02 -1.162828445925828819e-01 -8.892415330163100373e-01 -8.457364364242296872e-01 -2.644132031238725644e-01 4.634819717294501040e-01
5.901773476362025955e-02 1.209230152167444644e-01 -6.748255563478673391e-01 -8.616297895216902258e-01 -2.637033123055819717e-01 4.336527053851653157e-01
-7.564722083362454552e-02 -2.010244080571555944e-02 -9.865579449332806394e-01 8.605046990249305416e-01 2.586039902854184169e-01 -4.389255508220876734e-01
-5.363781090421770870e-02 2.231169968313424790e-01 -8.097314371680816025e-01 9.343973131042190294e-01 -2.764159211318330603e-02 -3.551585612780078782e-01
6.736245863486724217e-02 -4.038160649773662320e-02 -7.366002596155383220e-01 8.428613218204829005e-01 2.665699570469924340e-01 -4.674668439354742189e-01
5.710776289773466380e-02 3.361983520811732962e-02 -7.129594109214358877e-01 8.426055517987154353e-01 2.660426387080677690e-01 -4.682277207377100181e-01
-3.288382527014858253e-02 -9.635825811552563638e-03 -9.179736819988603136e-01 -8.457364364242296872e-01 -2.644132031238725644e-01 4.634819717294501040e-01
-1.482135783204954760e-02 8.520957825463754132e-02 -8.144444902251278817e-01 8.457364364242296872e-01 2.644132031238725644e-01 -4.634819717294501040e-01
6.043349167894902785e-02 3.769233575847766304e-02 -7.046605935825910327e-01 8.426055517987154353e-01 2.660426387080677690e-01 -4.682277207377100181e-01
-5.542609346883650007e-02 1.833109571121596670e-01 -8.330288280703508352e-01 8.534851231999105448e-01 2.548503366641916013e-01 -4.545486226781269012e-01
7.429213023945320515e-02 -9.436380352612841471e-02 -7.552931210766018477e-01 8.313851901384101684e-01 2.770955527742620106e-01 -4.816811396050772465e-01
7.702701737233667856e-02 2.967809912721767682e-02 -7.001089613319610994e-01 -9.660522958415074246e-01 -1.258437715450935190e-01 2.256242603592509277e-01
-4.715849511462721390e-03 -1.795969171549525178e-01 -9.401911889020518887e-01 8.010648075078541375e-01 2.966108913836930094e-01 -5.199203335944609927e-01
6.566900536703734748e-02 -1.768401321397263803e-01 -8.197142763052779335e-01 6.615954387303634165e-01 4.801390346757986594e-01 -5.759843598846847712e-01
1.952487198127297874e-02 6.840888166182279573e-02 -7.613560563551010629e-01 8.457364364242296872e-01 2.644132031238725644e-01 -4.634819717294501040e-01
-4.425351391890607750e-02 1.657161141626294354e-01 -8.385047712532265329e-01 -8.429315282254231656e-01 -2.678018145252681892e-01 4.666354324957835975e-01
-3.765744712693072649e-02 1.876319281680425555e-01 -8.138738988190103996e-01 -8.457364364242296872e-01 -2.644132031238725644e-01 4.634819717294501040e-01
-6.155858876741159696e-02 1.517224709363670654e-01 -8.777618850294058861e-01 -8.426728030742589581e-01 -2.682457896361424288e-01 4.668476660554849444e-01
3.084942894871517405e-03 -8.680049530183121809e-02 -8.799005929492725864e-01 8.457364364242296872e-01 2.644132031238725644e-01 -4.634819717294501040e-01
9.991933580764028600e-03 7.128931117913617221e-02 -7.771079738012329763e-01 8.457364364242296872e-01 2.644132031238725644e-01 -4.634819717294501040e-01
4.111224722867969777e-02 8.665444818439874131e-02 -7.280167908754109352e-01 -8.457364364242296872e-01 -2.644132031238725644e-01 4.634819717294501040e-01
9.028354390803433605e-03 1.200632332966434651e-01 -7.510410808418516160e-01 8.457364364242296872e-01 2.644132031238725644e-01 -4.634819717294501040e-01
3.419710701095715621e-02 -2.001459276451885427e-01 -9.037885432777653660e-01 -8.478146750136714704e-01 -2.556399750474045440e-01 4.646057253082718219e-01
1.511832377743487811e-03 -1.283610080208599791e-01 -9.284936536256566120e-01 -1.699112295879227214e-02 6.072882775658177135e-01 7.942998487169324884e-01
-5.201648080165193616e-02 6.797335791853557907e-02 -8.922032502424536160e-01 8.480798718727098340e-01 2.623919346440973244e-01 -4.603379232239029895e-01
5.884908344066246827e-02 5.691156110462828460e-02 -7.123438057614874808e-01 -8.491084462494447038e-01 -2.629614477162874886e-01 4.581114749957788668e-01
1.769695979220247198e-02 1.379091331963568090e-01 -7.387526062680034311e-01 6.337866976989896262e-02 -9.593940829779331603e-01 -2.748565767179838026e-01
-7.340449603729817807e-02 1.325045593372050912e-01 -8.906142426785323973e-01 7.154661869576284250e-01 6.914526990669959128e-01 1.000065011550650973e-01
-2.323821372476202879e-02 7.665817398572213892e-02 -8.275872999408122599e-01 8.312106977880718839e-01 2.050188079190818358e-01 -5.167746745750081416e-01
4.611008652051758888e-02 -3.371943446113949416e-02 -7.875694612571100262e-01 -8.457364364242296872e-01 -2.644132031238725644e-01 4.634819717294501040e-01
2.420745223650128120e-03 6.147236195806052989e-02 -7.965239627673456058e-01 8.457364364242296872e-01 2.644132031238725644e-01 -4.634819717294501040e-01
-4.897105933918453197e-02 1.853691480782160284e-01 -8.357231876430784023e-01 -8.417974422974872084e-01 -2.691612923664136181e-01 4.678987762679560070e-01
-3.240635349880705961e-03 -3.604703243418259651e-01 -1.059959366935604219e+00 3.070240559620678322e-01 -4.692054010927569907e-01 8.279991066697994784e-01
-5.587646264530604645e-02 1.784025216556485161e-01 -8.366264626006589822e-01 8.534851231999105448e-01 2.548503366641916013e-01 -4.545486226781269012e-01
-7.905918019611710146e-02 1.125665136460742843e-01 -9.169973333642882363e-01 8.588160975063002800e-01 2.507680769202472182e-01 -4.467105128176074857e-01
3.218547053241897771e-02 1.201624366813690697e-01 -7.089640120476832230e-01 8.426464513874876161e-01 2.663359968746093487e-01 -4.679872805246771961e-01
-2.966555484663941852e-02 -8.356459392008359910e-03 -8.918043698157573917e-01 5.324726488258652024e-01 -2.756559696072175547e-01 -8.003041076192672909e-01
-2.927698776241119752e-02 -8.100142395289605668e-02 -9.565759381538041506e-01 -7.267193724631498819e-01 -6.816961848869526053e-01 -8.467151349385108883e-02
3.944025866539150466e-02 1.504383169542438947e-01 -6.790447635122957015e-01 8.311134003066243947e-01 2.547197903505867278e-01 -4.943362663557205883e-01
5.318791654813107700e-02 -7.116629507110483477e-02 -7.797421183898398667e-01 8.433231362395385844e-01 2.665413901133097396e-01 -4.666495207750385732e-01
-2.447153248317976773e-02 -1.599026206069479872e-01 -9.878375980489444430e-01 -8.433945681722142540e-01 -2.597580186541372238e-01 4.703311324189384801e-01
-5.571411143962395895e-03 2.105899241259406515e-02 -8.270366071663147745e-01 8.010648075078541375e-01 2.966108913836930094e-01 -5.199203335944609927e-01
2.401169406489779903e-02 -2.933284429440618027e-03 -8.103301116984269470e-01 -8.457364364242296872e-01 -2.644132031238725644e-01 4.634819717294501040e-01
-5.815084419839689628e-02 1.928271126178827122e-01 -8.479053884410846509e-01 -8.393903104093370926e-01 -2.730331595943907841e-01 4.699753190890141319e-01
-2.715588202563654074e-02 1.739890106851758322e-01 -8.082724436185705352e-01 -5.473020481305278517e-01 2.945678323203820836e-01 7.833838524466795183e-01
-4.811474365615447252e-03 1.481882056450929408e-01 -7.767112992159472817e-01 -8.457364364242296872e-01 -2.644132031238725644e-01 4.634819717294501040e-01
7.955014448381800274e-02 -1.360719827996980658e-01 -7.837983432051206512e-01 -8.753750006672195161e-01 -2.267018143844216904e-01 4.269951938390839086e-01
-1.833871339423020705e-02 -1.886494611719955472e-01 -9.780741572555776697e-01 8.554281018865763642e-01 2.844703442032643914e-01 -4.328040962971650973e-01
8.110127498733549212e-03 1.601569546527601140e-01 -7.473507749691586932e-01 -7.269322346026179105e-01 3.402823950260734365e-01 -5.964708022451425951e-01
-4.845929316335038234e-02 2.246079593886703418e-01 -7.980191607395624720e-01 8.825245476833200042e-01 1.587896186665460618e-01 -4.426469018756196139e-01
2.474285367889767634e-02 4.241297201119764021e-02 -7.769017175578856182e-01 -2.658159965832790905e-01 8.852309395984127027e-01 3.817172245761901728e-01
1.564893994021944804e-02 1.443085399965484406e-01 -7.415895813185767738e-01 -8.457364364242296872e-01 -2.644132031238725644e-01 4.634819717294501040e-01
4.961381476449376604e-02 3.019823730249919513e-02 -7.238409632308064889e-01 5.466986418593138275e-01 8.260389281333946343e-01 -1.370411770141155006e-01
3.522417198697833096e-02 -1.475639419068996983e-01 -8.490420225954457001e-01 8.265655599001222598e-01 3.689660827563769341e-01 -4.250334162891337142e-01
2.136561225427754951e-02 9.480210116150777910e-02 -7.429400286600280623e-01 8.457364364242296872e-01 2.644132031238725644e-01 -4.634819717294501040e-01
6.575461128265928934e-02 -1.737461031721475035e-01 -8.172253897427593783e-01 8.063370487240392182e-01 3.217502787947347231e-01 -4.962835096499954024e-01
3.194296996513218412e-03 -8.932638355483658865e-02 -8.811420510653935612e-01 8.457364364242296872e-01 2.644132031238725644e-01 -4.634819717294501040e-01
2.120630844757533801e-02 1.697967599467261057e-01 -7.008894583058769001e-01 8.405622410747599638e-01 2.632246728947874592e-01 -4.734637160953407142e-01
-5.615528643616936322e-02 3.657708321856297656e-02 -9.177320371978673341e-01 8.480791942976475539e-01 2.625286811239225249e-01 -4.602611995234737186e-01
-1.860407056845611584e-02 4.936752924558462929e-02 -8.417946133106296580e-01 8.457364364242296872e-01 2.644132031238725644e-01 -4.634819717294501040e-01
-3.707904623315243231e-02 2.170341678783743178e-01 -7.958295682463460974e-01 -8.444470563851028677e-01 -2.718216813202181670e-01 4.615432184820667527e-01
2.883103328168347065e-02 1.092419173066073584e-01 -7.212046654728696549e-01 8.458042515207407908e-01 2.610525079029367146e-01 -4.652598803110221670e-01
-1.948367520810994485e-03 4.795185371723331702e-02 -8.286709925192460302e-01 -8.457364364242296872e-01 -2.644132031238725644e-01 4.634819717294501040e-01
3.480657251304024313e-03 -1.373170646812288398e-01 -9.119444924464902291e-01 -1.719439505640496801e-01 9.819884397329203818e-01 7.831974269194422189e-02
1.628321421734240868e-02 2.208057036971781961e-01 -6.950927173323794284e-01 -8.753923968213208617e-01 -3.360387614499718012e-01 3.475141758124297708e-01
-4.417601337006455547e-02 2.015104017246682755e-02 -9.168084826330108461e-01 -2.885193832594898367e-01 -7.489555205564615292e-01 -5.965083349891798781e-01
2.485971188004219498e-02 -5.805035022497444241e-02 -8.188165828675360025e-01 5.323890252052401184e-01 8.292659006340645789e-01 -1.699411424187448061e-01
-2.805351246473769544e-03 1.353823163842897692e-01 -7.638951476030859666e-01 8.457364364242296872e-01 2.644132031238725644e-01 -4.634819717294501040e-01
8.249774660294466322e-02 -7.656778274518417915e-02 -7.448632624823078308e-01 -8.502658422442317399e-01 -2.606460364598457979e-01 4.572872633153916566e-01
-3.734948273623869830e-02 2.050975313935313182e-01 -8.033479385934865213e-01 -8.457364364242296872e-01 -2.644132031238725644e-01 4.634819717294501040e-01
7.552837255808218797e-02 -1.605259213378862626e-01 -8.003158395133717073e-01 -4.986431181820966119e-01 7.008456210724933744e-01 -5.100690699436173370e-01
5.418952809437374563e-02 -1.401558860366076409e-01 -8.338792315767663554e-01 -5.669516778729280157e-03 -9.775198328083185562e-01 -2.107672485133607887e-01
6.412218361020471935e-02 -8.417057857086143735e-02 -7.674373165645255179e-01 8.427748307827148677e-01 2.670889453451348317e-01 -4.673265238284577405e-01
9.601773505691486160e-03 1.019225141989503480e-01 -7.768050477988208691e-01 -8.457364364242296872e-01 -2.644132031238725644e-01 4.634819717294501040e-01
7.947569205567196760e-02 1.866149276706877830e-02 -6.830552739926621930e-01 7.360662818807895968e-01 2.938919272222746404e-01 -6.097818985438706596e-01
-6.663263262326980796e-02 1.043304111154427644e-01 -8.984323645085722232e-01 8.485753308877834744e-01 2.616567224873022068e-01 -4.598430899621002155e-01
2.126178066035128156e-03 -1.490506288907540167e-01 -9.171633574585389415e-01 8.457364364242296872e-01 2.644132031238725644e-01 -4.634819717294501040e-01
-3.162970377210441719e-02 1.665933079854745591e-01 -8.149962480215057203e-01 -8.458045331263623900e-01 -2.676687366807503632e-01 4.614847117149465938e-01
3.720781089403803199e-02 1.461834522678092108e-01 -6.853031769730403289e-01 8.405072377185430765e-01 2.600277903430480153e-01 -4.753242383805570959e-01
-6.738997682240558361e-03 -1.198938206353990649e-01 -9.096401532776010601e-01 8.851496700812355733e-01 2.305715167176557445e-01 -4.041618948312667436e-01
-4.741390002961550984e-03 -1.438005933981444939e-01 -9.198089895070082900e-01 8.010648075078541375e-01 2.966108913836930094e-01 -5.199203335944609927e-01
-3.113592296047314884e-02 -1.434572374785431925e-01 -9.907165172556534616e-01 -8.426613022785812701e-01 -2.593005256465710229e-01 4.718952924554107309e-01
-1.010327701831499093e-02 -4.351619192006194597e-02 -8.726921457204862564e-01 9.022340695472279570e-01 4.097553693206042458e-01 1.344403996616466146e-01
-5.418542975063944667e-02 -1.049431094173609302e-01 -9.953804546411109122e-01 8.550701320066378397e-01 2.646781882699361654e-01 -4.458705260547003446e-01
-5.298780809186121044e-02 7.865906384985971167e-02 -9.040989413707479772e-01 -8.433398625458898845e-01 -2.665168251032623559e-01 4.666333230470761095e-01
-7.890317548590183860e-02 2.795059293151681140e-02 -9.649171242317667874e-01 8.594973502420699685e-01 2.550165552360662558e-01 -4.429795271594287875e-01
5.857885755020192375e-03 1.337958340570776505e-01 -7.489920257191207131e-01 8.457364364242296872e-01 2.644132031238725644e-01 -4.634819717294501040e-01
3.237942658678892843e-03 -5.205983116185140813e-02 -8.834358685177882142e-01 -4.581415500536461516e-01 -4.328958122426017074e-01 7.763424089003900797e-01
1.522533999659861359e-02 -9.290909762244696501e-02 -8.612323779956250203e-01 8.457364364242296872e-01 2.644132031238725644e-01 -4.634819717294501040e-01
8.321535935983012666e-02 -6.289126581189387333e-02 -7.221948251462274593e-01 8.183039475663480555e-01 2.860418473914274062e-01 -4.985566276143876818e-01
1.922651463013082609e-02 -8.097360448468716998e-02 -8.635832975976142079e-01 -8.457364364242296872e-01 -2.644132031238725644e-01 4.634819717294501040e-01
2.916555662512705302e-02 1.490425495119220289e-01 -7.140661775836275593e-01 -8.463460004249141466e-01 -2.673974474483797326e-01 4.606485131451555359e-01
-2.007138830190305367e-02 2.050761379867973577e-01 -7.560229475481683448e-01 8.467594473953465872e-01 2.595661023124417044e-01 -4.643531810777811741e-01
5.391578751604562958e-02 4.007475984685213849e-02 -7.310890727438867920e-01 -8.481720216695333159e-01 -2.629502555883035941e-01 4.598493065592934581e-01
6.881142174400789457e-02 2.760364761493969490e-02 -6.913659778260181632e-01 6.897974439760575782e-01 1.969516514175207178e-01 -6.966990263291668040e-01
1.233282959625456310e-02 -1.186043834928224155e-01 -8.811694518067084703e-01 8.457364364242296872e-01 2.644132031238725644e-01 -4.634819717294501040e-01
-2.102001121112727008e-02 -1.634201643619587543e-02 -9.001510805068715371e-01 -8.457364364242296872e-01 -2.644132031238725644e-01 4.634819717294501040e-01
-5.794006462226543308e-02 1.410696558579071780e-01 -8.773413627204228460e-01 -8.426198495266287170e-01 -2.676544335538439401e-01 4.672824556761068227e-01
7.590596976807523211e-02 -5.412506652243932043e-02 -7.294341403712186755e-01 8.320893574986044650e-01 2.744282239581491978e-01 -4.819921690574814899e-01
-3.763375585933943779e-02 2.327996536617841505e-01 -7.867261467137004471e-01 -8.185119845383066473e-01 -3.259394212928256040e-01 4.730767641878653729e-01
-4.417654223187434531e-02 2.155927984294255806e-01 -8.093811546652295297e-01 -8.385457890517802326e-01 -2.838138854352955098e-01 4.650705732441565154e-01
6.838923243712605182e-02 4.828050487144410624e-02 -6.996386800707937725e-01 -8.488237080952388824e-01 -2.627819876955895806e-01 4.587416914977358040e-01
-3.044337226095671783e-02 2.234436739316502385e-01 -7.649932267567989275e-01 8.542814366342502685e-01 2.392577044455725388e-01 -4.614747857527613517e-01
-3.559360721591735277e-02 -6.523404407010857100e-05 -8.986043492962509927e-01 5.324726488258652024e-01 -2.756559696072175547e-01 -8.003041076192672909e-01
-6.331252656112169863e-02 1.282722668694718793e-01 -8.899157096316731019e-01 -3.329886253284304598e-02 6.796957266467867909e-01 7.327379510658058592e-01
-3.189479363034508630e-02 9.001813607151988583e-02 -8.372804395806291433e-01 5.389080503568139946e-01 -3.080917960467345895e-01 -7.840009939211269874e-01
3.811638972990068902e-02 -2.437155114339108544e-02 -7.968230183071813855e-01 -8.457364364242296872e-01 -2.644132031238725644e-01 4.634819717294501040e-01
-6.271134777330321375e-02 1.394278231214732822e-01 -8.845211378448835093e-01 -2.579180096657810450e-01 -7.838039999744892405e-01 -5.649155599857670351e-01
-6.988601248025466672e-02 1.727881151433466878e-01 -8.659435689764158894e-01 8.611433929010487986e-01 2.443881542416680153e-01 -4.457650579949274938e-01
5.339387026754287974e-02 -4.941645616048572116e-03 -7.577784882507239139e-01 -8.480905345305150833e-01 -2.627277055564942176e-01 4.601267194727616805e-01
4.931892961670852893e-02 4.922191799325103395e-02 -7.181281044148067894e-01 8.431843992370025020e-01 2.657432352795925379e-01 -4.673548991788472606e-01
-1.157494458737950982e-02 1.824847938888323196e-01 -7.693498187970696511e-01 -8.452342044362085582e-01 -2.679630346676666885e-01 4.623580341064535970e-01
-5.748744394702114124e-02 -4.454779922788668772e-02 -9.823921389028020812e-01 -8.422443498810739948e-01 -2.653745667872003389e-01 4.692555747094681040e-01
1.684216086492686809e-03 -2.156691779466582970e-01 -9.775963354489584090e-01 -4.459217409161864154e-01 -4.435315961599738399e-01 7.774532295810876459e-01
3.709609655881131521e-03 2.244103549241354412e-01 -7.027064358948624800e-01 8.337191459833218632e-01 2.377105168701882376e-01 -4.984035471283772001e-01
1.411869511435144900e-02 3.823044701030509085e-02 -8.048986935245183716e-01 -8.457364364242296872e-01 -2.644132031238725644e-01 4.634819717294501040e-01
6.009411729056964024e-02 2.662081743061917721e-02 -7.115576471500073552e-01 8.428206958456816444e-01 2.657018669484725870e-01 -4.680339651716498572e-01
-2.840603284674697582e-03 -2.913163654321941978e-02 -8.578135259660463197e-01 8.457364364242296872e-01 2.644132031238725644e-01 -4.634819717294501040e-01
7.924280966591254471e-02 -1.009720601996503819e-01 -7.647901602539814991e-01 -8.505067428387426132e-01 -2.593675996281102902e-01 4.575660921101840639e-01
3.750645120690784991e-03 2.292420181731969764e-01 -7.205014614350264690e-01 -6.804566166349189649e-01 -7.021566200775910538e-01 2.096541765836595073e-01
-1.803935573101737508e-02 6.138170152672371357e-03 -8.818873559111655158e-01 -8.457364364242296872e-01 -2.644132031238725644e-01 4.634819717294501040e-01
-6.180913747192029462e-02 1.803586203399289434e-01 -8.465357556766114344e-01 8.490115361350766277e-01 2.558134347285698773e-01 -4.623190436505177914e-01
3.394196563062680180e-03 -3.207891697567581968e-01 -1.036585170430687652e+00 -4.460281789337975367e-01 -4.435053159527741484e-01 7.774071637942568946e-01
4.434975684686839198e-02 2.355236923436365357e-02 -7.581084531671201665e-01 -8.457364364242296872e-01 -2.644132031238725644e-01 4.634819717294501040e-01
5.405803070549095035e-02 -7.794287271166701336e-02 -7.820403121663467294e-01 8.433231362395385844e-01 2.665413901133097396e-01 -4.666495207750385732e-01
4.061503884139675002e-02 2.595990505741721174e-02 -7.470887210671768308e-01 8.457364364242296872e-01 2.644132031238725644e-01 -4.634819717294501040e-01
-2.471991268494370605e-02 -3.966754479298169322e-02 -9.202095072031045708e-01 -8.457364364242296872e-01 -2.644132031238725644e-01 4.634819717294501040e-01
-4.332515573331047892e-02 -8.246032682004141023e-02 -9.784236099466026015e-01 -8.425727585103406359e-01 -2.653076962544431705e-01 4.687035021465440487e-01
2.552035463615616798e-02 -1.160288711141754664e-01 -8.720974270750122548e-01 -8.457364364242296872e-01 -2.644132031238725644e-01 4.634819717294501040e-01
2.014635520585802975e-02 -1.063847814296122601e-01 -8.599405625994461788e-01 8.457364364242296872e-01 2.644132031238725644e-01 -4.634819717294501040e-01
7.325711151340869032e-03 -8.154376262715574974e-02 -8.691633430432303964e-01 8.457364364242296872e-01 2.644132031238725644e-01 -4.634819717294501040e-01
5.291476027948606442e-02 5.671124477402606640e-03 -7.364192284954372836e-01 8.433601303085358492e-01 2.659751423603480269e-01 -4.669056802528347427e-01
-1.543100283164304184e-02 2.222405103452297290e-03 -8.793616932573607992e-01 -8.457364364242296872e-01 -2.644132031238725644e-01 4.634819717294501040e-01
2.840142925355587655e-03 -6.958905558047219497e-02 -8.705282852475644262e-01 8.457364364242296872e-01 2.644132031238725644e-01 -4.634819717294501040e-01
2.753912934509157931e-02 -1.725680898272032374e-02 -8.120649115668396867e-01 -8.457364364242296872e-01 -2.644132031238725644e-01 4.634819717294501040e-01
-2.456726145043794385e-02 -1.129983557792409582e-01 -9.617313280514901974e-01 -8.425185007808734250e-01 -2.662477579632193114e-01 4.682677729905279085e-01
-5.173526495860124308e-02 -3.701487612532536331e-02 -9.516133877993864232e-01 8.483265324666074969e-01 2.631389797457428514e-01 -4.594561694564041066e-01
3.113624732953991850e-02 9.039189402053794328e-03 -7.904994062883350381e-01 -8.457364364242296872e-01 -2.644132031238725644e-01 4.634819717294501040e-01
-8.227238543417447758e-03 -3.682111723022489236e-01 -1.057834944354061557e+00 9.998507498851443298e-01 1.347549251214321189e-02 -1.081152420659834378e-02
4.753658523326224905e-02 -1.029977705919561254e-01 -8.081413758616928789e-01 8.431934936848742845e-01 2.667516881833260634e-01 -4.667636115410474518e-01
-1.517219304098990293e-02 -1.048789681611602548e-01 -9.305068784731193032e-01 -1.120555994802378656e-02 -6.913433524963545906e-01 -7.224394814691071920e-01
-1.941473527057656009e-02 -1.901271060271438615e-03 -8.889835175605296236e-01 -8.457364364242296872e-01 -2.644132031238725644e-01 4.634819717294501040e-01
-1.301278687623045813e-02 -1.298611345799672023e-01 -9.503017955019202878e-01 -8.457364364242296872e-01 -2.644132031238725644e-01 4.634819717294501040e-01
6.416251806082184928e-02 -6.396633284622391113e-02 -7.764957930878224612e-01 -7.187488028334531043e-01 4.635745617716299227e-01 5.181686830595991777e-01
8.585802472300227417e-02 -1.182769977756406993e-01 -7.606752246869927792e-01 -9.294434810326992480e-01 2.868793355629942199e-01 -2.320238401387958727e-01
-4.565370744892126298e-02 6.645392566244276260e-03 -9.319345702565277056e-01 -8.433120772863256231e-01 -2.660643385614277490e-01 4.669416537950886181e-01
-1.019889562008074665e-02 -1.057621112598412655e-01 -9.393851992252779670e-01 -8.469821687627325790e-01 -2.945682802993503935e-01 4.425502615968738840e-01
4.804376795371309572e-02 -1.061652289639059277e-01 -8.253608336450257710e-01 -8.482716569974438903e-01 -2.620579958160869638e-01 4.601747524187595473e-01
-6.333377644854897015e-02 1.002485730612400761e-01 -9.104440775669777608e-01 -8.428628671789388793e-01 -2.670032895499230841e-01 4.672166847410507140e-01
1.750577079357260686e-03 -3.545454053235569392e-01 -1.036217602348912914e+00 -3.127619865173408287e-01 4.730538537972959756e-01 -8.236504059352202090e-01
-8.505439396141564745e-02 8.053646564060999713e-02 -9.467768683790843687e-01 8.707674915847044561e-01 2.426475147724200254e-01 -4.276519135629467949e-01
4.400837978708174031e-02 6.723189920687978882e-02 -7.338125148139225118e-01 -8.457364364242296872e-01 -2.644132031238725644e-01 4.634819717294501040e-01
4.357384534845317597e-02 4.264772467242519682e-02 -7.486305279435675475e-01 -8.457364364242296872e-01 -2.644132031238725644e-01 4.634819717294501040e-01
1.046911983289126706e-02 -2.245909895112714882e-01 -9.516779572542408694e-01 -2.562078641538744761e-01 9.631414737723441588e-01 8.195139928852264444e-02
-1.172450103190973356e-02 1.629010001458459367e-01 -7.809322647251559779e-01 -8.457364364242296872e-01 -2.644132031238725644e-01 4.634819717294501040e-01
-8.232221284850913543e-04 -4.564651314312624664e-02 -8.566076446277332002e-01 8.345806973766093373e-01 2.093420022510747713e-01 -5.095595997132071897e-01
-1.627483103868274106e-02 1.206289998142995729e-01 -7.968901775367408513e-01 8.457364364242296872e-01 2.644132031238725644e-01 -4.634819717294501040e-01
-6.269481108252606891e-03 -2.538782624056629689e-01 -9.969240666243761595e-01 7.227715631767237525e-01 -3.424517185355902549e-01 6.002733443483027065e-01
-6.077794652714178791e-02 1.917668856066674088e-01 -8.532165146835183345e-01 -8.404306376794413724e-01 -2.723064822779847627e-01 4.685355087494622039e-01
-5.935975744483693896e-03 1.243822474021449853e-01 -7.686531185235117025e-01 8.010648075078542485e-01 2.966108913836930094e-01 -5.199203335944609927e-01
-7.541361889401725083e-02 1.886328199860069083e-03 -9.732195643388587003e-01 8.601176743895857513e-01 2.562756222801583217e-01 -4.410446594479611737e-01
6.981437093509929026e-03 7.410860686340501810e-03 -8.190435688446868756e-01 8.457364364242296872e-01 2.644132031238725644e-01 -4.634819717294501040e-01
9.626632278068526088e-03 1.717406177077352714e-01 -7.207145047055392162e-01 8.453052501452743561e-01 2.617856691645521483e-01 -4.657545464049740458e-01
8.467918420271110247e-02 -1.035491165557833881e-01 -7.557729404121233951e-01 -8.723702926795350310e-01 -2.344694237303203699e-01 4.289454065330389754e-01
-4.119542051855032416e-02 -3.012327345868869369e-02 -9.283670109661574799e-01 8.457364364242296872e-01 2.644132031238725644e-01 -4.634819717294501040e-01
-5.633876650122696811e-02 1.329806235943831183e-01 -8.784897921214772643e-01 -2.561790477260998955e-01 -7.831018168077064079e-01 -5.666778979443418685e-01
-3.623473505631939762e-02 1.669647410638297191e-01 -8.070486480284466690e-01 8.487980529654004513e-01 2.615045931121849909e-01 -4.595184578048810420e-01
-3.375136774801838074e-02 2.004586021759112088e-02 -9.026235328509755185e-01 -8.457364364242296872e-01 -2.644132031238725644e-01 4.634819717294501040e-01
2.539614141063339589e-02 1.131399838068878755e-01 -7.251852565013645613e-01 8.426464513874876161e-01 2.663359968746093487e-01 -4.679872805246771961e-01
5.240177192154667901e-02 9.551037693836203490e-02 -7.021241442155513601e-01 -8.485165691868185034e-01 -2.634153815659127096e-01 4.589465857481849764e-01
5.967809767928799330e-02 6.112632421091749452e-02 -6.927287561272035266e-01 8.426587457098150269e-01 2.653643334575633839e-01 -4.685168180624731948e-01
5.412338879249788126e-02 -6.487084732566771039e-02 -7.667242284991161450e-01 8.221944708216873954e-01 3.734653508406748368e-01 -4.295577771053588068e-01
8.705221300825757499e-03 -1.989164900207136544e-01 -9.529249022350060327e-01 -7.269322346026179105e-01 3.402823950260733810e-01 -5.964708022451425951e-01
6.610310464971851270e-03 1.503383544250422588e-01 -7.382143382547736721e-01 8.455551186943215392e-01 2.614279843999687269e-01 -4.655018262288576070e-01
7.045728438705269048e-02 -7.755683725824144559e-02 -7.677363360007419812e-01 -8.486587837998611494e-01 -2.617415578085109940e-01 4.596407571085429633e-01
-3.054684174588115364e-02 1.217239061467557774e-02 -8.848066907993685781e-01 8.457364364242296872e-01 2.644132031238725644e-01 -4.634819717294501040e-01
-4.614864347359698415e-02 -1.149243041373626192e-03 -9.372709594299480917e-01 -8.432882413296431956e-01 -2.661362947732133222e-01 4.669436953633090970e-01
1.996875691574415135e-02 -8.438580812543948484e-02 -8.477143747487033698e-01 8.457364364242296872e-01 2.644132031238725644e-01 -4.634819717294501040e-01
-1.038994570392746605e-02 -5.167064642169895416e-02 -9.009086558104362208e-01 -8.457364364242296872e-01 -2.644132031238725644e-01 4.634819717294501040e-01
-3.028145701251710314e-02 2.306008502506309565e-01 -7.610211467190838297e-01 8.534408910661770431e-01 2.360105789806500598e-01 -4.646909210059826933e-01
-1.723113505028803227e-02 1.283397667202513526e-01 -7.942362502984466888e-01 8.457364364242296872e-01 2.644132031238725644e-01 -4.634819717294501040e-01
2.166084625066446237e-02 -2.427214742588697585e-02 -8.267934807922121543e-01 -8.457364364242296872e-01 -2.644132031238725644e-01 4.634819717294501040e-01
7.664181213591871045e-02 -1.104957543800814262e-01 -7.750249924330123719e-01 -8.506195068590688413e-01 -2.593611872224582671e-01 4.573600650618628860e-01
-3.268178834794818743e-02 7.910775178719946232e-02 -8.505162715638833193e-01 8.457364364242296872e-01 2.644132031238725644e-01 -4.634819717294501040e-01
-3.886962062746399105e-02 6.471011839436882629e-02 -8.700212364503000506e-01 8.457364364242296872e-01 2.644132031238725644e-01 -4.634819717294501040e-01
-1.669204226528595014e-02 -7.507577552776713292e-02 -9.092996787228402322e-01 8.457364364242296872e-01 2.644132031238725644e-01 -4.634819717294501040e-01
-3.181499008678043833e-02 1.208459491837577532e-01 -8.415843959112189188e-01 -8.457364364242296872e-01 -2.644132031238725644e-01 4.634819717294501040e-01
-3.305840230207772457e-02 -8.386580847058038024e-02 -9.660355971887536475e-01 -5.460551997417789627e-01 2.820063772883932285e-01 7.888574788918734093e-01
5.291134713301798992e-03 4.614443566030742433e-02 -8.164918658919795291e-01 -8.457364364242296872e-01 -2.644132031238725644e-01 4.634819717294501040e-01
-6.799322519619344085e-02 4.834046509230163768e-02 -9.484807611587895426e-01 -8.428436339763667462e-01 -2.665605457468737116e-01 4.675041006415251998e-01
2.676589810716523913e-03 -2.220701015221101526e-01 -9.717906287535392762e-01 -5.008833718849037275e-01 6.575121398513532611e-01 5.628442357502684290e-01
1.004687915655630426e-02 -1.568604678891198645e-01 -9.071655554910783570e-01 8.457364364242296872e-01 2.644132031238725644e-01 -4.634819717294501040e-01
7.387810943852220202e-02 -1.482424247631963787e-01 -8.014768179557519856e-01 -8.512500162811701410e-01 -2.568491710436455744e-01 4.576045379096450594e-01
-4.490260797131216328e-03 -1.765741144989578792e-01 -9.450736170623835752e-01 8.460090366204735535e-01 2.685220088414145834e-01 -4.606133310318640262e-01
3.584613225307792250e-02 1.543597798441497249e-01 -6.832496612749980880e-01 8.419045715313485667e-01 2.565228945810258954e-01 -4.747554075420190589e-01
-2.705685947805143085e-02 2.201759981374873665e-01 -7.757107698287886155e-01 -8.444251855946356411e-01 -2.699271556526755544e-01 4.626936746646983512e-01
-6.485938586423009578e-02 1.989696589967678009e-02 -9.432985807561077296e-01 8.487093899253439488e-01 2.623645434916580532e-01 -4.591919182335034155e-01
2.436869486850311642e-02 -1.443889776757820431e-01 -8.686771168706648449e-01 5.601755516193440698e-01 8.075304182716025458e-01 -1.846563698713218349e-01
-1.456412118641883802e-02 3.297776589066234165e-02 -8.437729803008219287e-01 8.457364364242296872e-01 2.644132031238725644e-01 -4.634819717294501040e-01
-4.997062806339871294e-02 -1.245440573380521276e-01 -9.991901373996197044e-01 8.622781848157935469e-01 2.758747304908735765e-01 -4.246992642651601924e-01
4.091583902387748058e-03 -1.109204099951499461e-01 -9.159807775115564876e-01 -8.011361459451372680e-01 -2.965635771994291625e-01 5.198373979802242140e-01
7.645633140794948386e-04 1.213882877497135943e-01 -7.858349060534359776e-01 -4.459217409161864154e-01 -4.435315961599738399e-01 7.774532295810876459e-01
8.124218431510943361e-02 -1.052632563677977223e-01 -7.635062268920758122e-01 -8.505067428387426132e-01 -2.593675996281102902e-01 4.575660921101840639e-01
-1.120292997842497681e-02 -1.964708972658231467e-01 -9.691929537306510634e-01 8.533946830610674716e-01 2.858922785354556240e-01 -4.358705312325047987e-01
2.442700667172734066e-03 2.400329666994741040e-01 -7.014867002176522481e-01 -8.028153186771867789e-02 -7.956537443476033866e-01 -6.004081901062068294e-01
2.883376325585176869e-02 -5.672473712907689924e-02 -8.157575519198062564e-01 8.457364364242296872e-01 2.644132031238725644e-01 -4.634819717294501040e-01
-7.144950155787647972e-02 1.910923661813118679e-01 -8.644960716605445405e-01 4.772692526707994487e-01 -7.632819511711339544e-01 4.354477275993566265e-01
6.654737020127776681e-02 2.528426316913297972e-02 -7.162262028800959746e-01 -8.486129831063806694e-01 -2.631222864416498108e-01 4.589364523340985214e-01
-3.010256911326485846e-03 -5.623528163183826034e-02 -8.900466974356928684e-01 -8.457364364242296872e-01 -2.644132031238725644e-01 4.634819717294501040e-01
8.273794431668373903e-03 -1.890755723916505149e-01 -9.467849384608346686e-01 -7.269322346026179105e-01 3.402823950260733810e-01 -5.964708022451425951e-01
-5.597050721649860644e-02 1.955585160662718647e-01 -8.268221229558142538e-01 7.386780229882626836e-01 2.105417437648514634e-01 6.403334697535399966e-01
-1.055098965303452596e-03 -6.618430506326329621e-02 -8.756937224199965453e-01 8.457364364242296872e-01 2.644132031238725644e-01 -4.634819717294501040e-01
4.249934941732977367e-02 1.321152135073953571e-01 -6.992800756418007246e-01 -8.457364364242296872e-01 -2.644132031238725644e-01 4.634819717294501040e-01
-4.941520707118202127e-03 7.597392476712781784e-02 -8.016851815968978334e-01 8.457364364242296872e-01 2.644132031238725644e-01 -4.634819717294501040e-01
-1.385118058172912087e-03 6.677425069759507226e-02 -8.169051608320985203e-01 -8.457364364242296872e-01 -2.644132031238725644e-01 4.634819717294501040e-01
1.768116085639034885e-02 5.510683004862337170e-02 -7.723090859471180014e-01 8.457364364242296872e-01 2.644132031238725644e-01 -4.634819717294501040e-01
-5.697879837564800293e-02 9.839160736530679074e-02 -9.000390154822559552e-01 -8.428861711321147254e-01 -2.671495654133614339e-01 4.670910106325055211e-01
-9.951503131595479737e-03 2.391656144658527161e-01 -7.196668314649442566e-01 8.547460525341837867e-01 2.219981336592991572e-01 -4.691758884778908789e-01
7.177055758436966248e-02 3.827728405911660914e-03 -7.037457334400148978e-01 8.321167313241309982e-01 2.717374808377626128e-01 -4.834671518918224331e-01
-5.804172978518896964e-02 3.024410177769805072e-02 -9.248229666233810375e-01 8.480959036828693565e-01 2.626240491894055173e-01 -4.601759956187391754e-01
-2.852426912374569912e-02 8.200678237507924573e-02 -8.412759823661029035e-01 8.457364364242296872e-01 2.644132031238725644e-01 -4.634819717294501040e-01
-2.348998817428163410e-02 -1.181798133366575437e-01 -9.462947471366530694e-01 8.457364364242296872e-01 2.644132031238725644e-01 -4.634819717294501040e-01
-3.684315656248988297e-02 -7.678950498749023690e-02 -9.571998390903773135e-01 -2.743999050682309759e-01 -7.664617867668876983e-01 -5.807245659731090637e-01
2.531671404145388604e-02 -6.732253535204170414e-02 -8.282212393895751479e-01 8.457364364242296872e-01 2.644132031238725644e-01 -4.634819717294501040e-01
-5.561805516615947464e-04 -1.147551431813021577e-01 -9.024926448411523250e-01 8.457364364242296872e-01 2.644132031238725644e-01 -4.634819717294501040e-01
