-3.482989109910946540e-02 7.797446792710119312e-02 -8.458933060003992477e-01 -1.158133145830078231e-01 4.611715381800994273e-01 -8.797204604520110216e-01
7.034846550664392018e-02 1.537604648308435185e-01 -8.249479250506119854e-01 -2.117102769915725491e-01 7.638518436221016783e-01 6.096795220534045878e-01
-1.475960893456549350e-01 -5.132903370112821412e-02 -9.070856551117209010e-01 1.247536798381284617e-01 -4.593828822613919560e-01 8.794338445000066118e-01
-1.259259919829454621e-01 -1.000913793333339241e-01 -9.356020972237459876e-01 1.269892692781978971e-01 -4.574293520805548519e-01 8.801318727005362774e-01
2.604078842126510140e-02 -1.414563852020894463e-01 -9.689379594830719311e-01 -1.158133145830078231e-01 4.611715381800994273e-01 -8.797204604520110216e-01
1.042495633318183124e-01 -5.758721016611725863e-02 -9.438244603411829470e-01 1.111879247716508062e-01 -4.609282364423897271e-01 8.804444367676372840e-01
-9.387066395145183401e-03 -1.272447234602525068e-01 -9.698379325075616730e-01 1.322366453963798316e-01 -4.259193241179434763e-01 8.950453613964078903e-01
1.298915698848333022e-01 -3.917701174448851020e-02 -9.292452909596171651e-01 -1.214941791792104597e-01 4.616006517299323098e-01 -8.787286286152692361e-01
1.262742079713460586e-01 6.112577958458349087e-02 -8.843717810374573940e-01 1.105285731698996132e-01 -4.619720841649667120e-01 8.799802429403189574e-01
2.712981968035941757e-02 2.393913586723653286e-01 -7.752964071095853615e-01 -5.257567298933240041e-01 -7.798939455306149737e-01 -3.396252268259363216e-01
-3.907314153268118262e-02 -1.550233079360073540e-01 -9.674779713554103600e-01 -1.158133145830078231e-01 4.611715381800994273e-01 -8.797204604520110216e-01
6.968011746917784910e-02 -1.638486861564744934e-01 -9.866208803193191601e-01 -1.289495666333722035e-01 4.718615585854675776e-01 -8.721918818668050744e-01
8.740341324233924427e-04 -1.870660502245692913e-01 -9.856986302710191161e-01 -1.937131359494831950e-01 4.555011942824703230e-01 -8.689038398855539747e-01
8.596325144195764156e-02 2.019634247471964461e-01 -8.029092673026211324e-01 -6.976803479944231334e-01 -6.681751966951992028e-01 -2.584260794573807751e-01
8.750625944883541618e-02 4.175034025319513536e-02 -8.809998750519139055e-01 -1.201896937427983508e-01 4.607549700669809067e-01 -8.793516333507249705e-01
-3.440835740535195392e-02 1.435475242611414792e-01 -8.115737586035541851e-01 -1.158133145830078231e-01 4.611715381800994273e-01 -8.797204604520110216e-01
-9.496905825094950626e-02 1.755669091157002204e-01 -7.949879815221982948e-01 1.394135456047417843e-01 -4.757789335293609034e-01 8.684458933702077221e-01
1.031613808969719381e-01 -1.453849890409770196e-01 -9.817456167126572542e-01 -1.509032716651627359e-01 4.746840787895294511e-01 -8.671235367261610483e-01
-5.499019188938056128e-03 -5.132171709448127284e-02 -9.262075412592285506e-01 1.158133145830078231e-01 -4.611715381800994273e-01 8.797204604520110216e-01
-1.131199092757008695e-01 -1.154567028406771612e-01 -9.426356370582684718e-01 2.733648585657644792e-01 7.830260509605148078e-01 5.586965702584015814e-01
1.807901452616844304e-02 -7.401321212908437697e-02 -9.412069899452696342e-01 1.158133145830078231e-01 -4.611715381800994273e-01 8.797204604520110216e-01
3.216793234647141730e-02 4.943335255419054053e-02 -8.696753947678140806e-01 -1.158133145830078231e-01 4.611715381800994273e-01 -8.797204604520110216e-01
-4.975436520125656875e-02 6.669012127344256524e-02 -8.498440685956689666e-01 -1.158133145830078231e-01 4.611715381800994273e-01 -8.797204604520110216e-01
-1.414631693535156054e-01 -4.771757897213860233e-02 -9.060691646150471623e-01 1.247536798381284617e-01 -4.593828822613919560e-01 8.794338445000066118e-01
-5.195786285191629841e-03 -1.364234895524863989e-01 -9.748741213932498040e-01 1.935962028020373760e-01 -4.555119109674941602e-01 8.689242827930258040e-01
9.358482569079007440e-03 -2.666860147856169871e-01 -1.036619505820107312e+00 -9.917067100929262136e-01 5.967203627704791707e-02 -1.138290351501552583e-01
1.957717463526750768e-04 1.907068297923849853e-01 -8.043904601774359842e-01 3.731252666558994291e-02 -4.639724706963579970e-01 8.850634563632976404e-01
7.754011863183127296e-03 -1.407285191043561035e-01 -9.661489788415957847e-01 -1.158133145830078231e-01 4.611715381800994273e-01 -8.797204604520110216e-01
1.109104312789255531e-01 -7.212881532208897939e-02 -9.439290797044312953e-01 -1.220571625986123371e-01 4.618389497553390122e-01 -8.785253744470111759e-01
-1.509863198667273920e-01 -1.790680521218827870e-03 -8.806753075338548120e-01 1.242360854261972264e-01 -4.604851409169586351e-01 8.789305035511415509e-01
-4.547298432942265337e-03 -1.542860238730999478e-01 -9.843825930661860291e-01 1.935962028020373482e-01 -4.555119109674941047e-01 8.689242827930256929e-01
6.120780281062949968e-02 1.797385125867440592e-01 -8.137345254772470060e-01 1.100009544204190171e-01 -4.624605438156279558e-01 8.797897677515637005e-01
9.787443931120026752e-02 9.983475505546751672e-02 -8.604720325185988283e-01 1.110581844312751171e-01 -4.621031132803575248e-01 8.798447546967759214e-01
-1.015401849461447931e-01 -4.921848739160829267e-02 -9.038767388096874411e-01 -1.112920483113250814e-01 4.616042760125620981e-01 -8.800770263730260945e-01
-5.788635237507063630e-02 -3.317684035249104241e-02 -8.974897392046732314e-01 -1.371926275632411041e-01 3.931859146344006128e-01 -9.091661121464016393e-01
7.321952516192958837e-02 -1.566023628084143027e-01 -9.832939399837143934e-01 -1.232470547449396742e-01 4.623585404656816999e-01 -8.780858406529182814e-01
-2.700021077713600504e-02 -9.131657699833498065e-02 -9.356706800289770198e-01 -1.158133145830078231e-01 4.611715381800994273e-01 -8.797204604520110216e-01
-7.887123455006243844e-02 1.217095026054274970e-01 -8.172053351379785502e-01 -1.106371252831030161e-01 4.602276693977422894e-01 -8.808801955032325992e-01
4.026198454532867177e-02 -5.962245532487334132e-02 -9.279107501832102312e-01 -1.158133145830078231e-01 4.611715381800994273e-01 -8.797204604520110216e-01
7.854252006261597946e-03 -1.377964862822533831e-01 -9.612891814864168438e-01 -2.528648305440473476e-01 6.064871051086948572e-01 -7.538121575106127015e-01
2.266745805724374070e-03 -1.218841123602989185e-01 -9.642204656483368552e-01 1.158133145830078231e-01 -4.611715381800994273e-01 8.797204604520110216e-01
-8.102158027016215236e-02 3.024557871467076220e-03 -8.791028924441636194e-01 -1.158133145830078231e-01 4.611715381800994273e-01 -8.797204604520110216e-01
-2.381529370083160582e-02 -9.229719916950632208e-02 -9.452766187540913023e-01 1.158133145830078231e-01 -4.611715381800994273e-01 8.797204604520110216e-01
-9.867371901644367282e-02 -1.389308227516749816e-01 -9.514574486842477530e-01 -9.965807505442182690e-02 4.663953239843809939e-01 -8.789446341163654752e-01
8.837961595621461608e-02 7.677925262339785339e-02 -8.679521792451568851e-01 -2.103381304508253336e-01 7.589796764898262271e-01 6.162042855692017040e-01
-1.542599184472214779e-01 2.936235591802168962e-02 -8.637369248989353876e-01 1.642294972302634770e-01 -4.616458995762025008e-01 8.717291641582112227e-01
-3.155688652441568029e-03 1.884325283933141193e-01 -7.886773824319291970e-01 -3.719341996658478977e-02 4.639745322442799247e-01 -8.850673889257759663e-01
1.535020496674127308e-02 1.949683845853773800e-01 -7.996886491397100505e-01 1.147478039647615577e-01 -4.652753770383531995e-01 8.776968525676064337e-01
-3.694404171524397901e-02 2.975907602121361309e-02 -8.795632852613033403e-01 1.158133145830078231e-01 -4.611715381800994273e-01 8.797204604520110216e-01
9.255173705041834162e-03 2.037859579398912102e-01 -7.890862408642886905e-01 -9.917067100929263246e-01 5.967203627704789626e-02 -1.138290351501552167e-01
2.145715502206783573e-02 8.769723363503442726e-02 -8.568790418073419790e-01 1.158133145830078231e-01 -4.611715381800994273e-01 8.797204604520110216e-01
1.843081881150888945e-02 -7.169287778830965574e-02 -9.313643422794323223e-01 -1.158133145830078231e-01 4.611715381800994273e-01 -8.797204604520110216e-01
6.603770444884504709e-02 6.522299263099576305e-02 -8.745295366933325543e-01 1.158133145830078231e-01 -4.611715381800994273e-01 8.797204604520110216e-01
8.643529188158699528e-02 1.699974656187757949e-01 -8.259165892597898351e-01 -1.070862991231532474e-01 -5.716947031660724043e-01 8.134480259438601202e-01
4.564050260944546578e-02 -8.748862214651018099e-02 -9.518995488636731173e-01 1.158133145830078231e-01 -4.611715381800994273e-01 8.797204604520110216e-01
-1.005334121021212411e-02 1.958106076049816735e-01 -7.875591501921853643e-01 -1.150946452557406602e-01 4.573672971081180760e-01 -8.817983772776344376e-01
9.886423218259664247e-02 1.276568412589931256e-01 -8.375946313641822183e-01 -1.221497916538591827e-01 4.595727005624626327e-01 -8.797001541983744399e-01
4.019420454267624496e-03 -2.127055667314264875e-01 -1.003802967841738836e+00 -1.202824575861063394e-01 4.877940037868737644e-01 -8.646323728999613101e-01
-6.693988012411829919e-03 -2.023524816471150567e-01 -9.949370234695276149e-01 4.164592625257832470e-01 4.221165457816440925e-01 -8.052200347941260716e-01
-9.593586935884668154e-02 -9.692447440180777807e-02 -9.296285771525653052e-01 -1.107688313040981060e-01 4.620241191990007157e-01 -8.799227121116444117e-01
4.928388074942061103e-02 1.038011062875404400e-01 -8.434277320864614902e-01 -1.158133145830078231e-01 4.611715381800994273e-01 -8.797204604520110216e-01
1.471057610126084714e-01 -3.789700172615359519e-02 -9.388334068820479716e-01 1.068633123202008123e-01 -4.603513936676926765e-01 8.812813550893767722e-01
8.808181256885956947e-03 -2.859268582234452127e-01 -1.041911677566565775e+00 -9.917067100929262136e-01 5.967203627704791707e-02 -1.138290351501552583e-01
-7.690121934736103906e-03 2.072437912463238885e-01 -7.808338428743636372e-01 9.355350249294903664e-01 1.640050300625313096e-01 -3.128523089963791692e-01
-7.267118438981756690e-02 -1.210083779756484894e-02 -8.968039005612784553e-01 1.158133145830078231e-01 -4.611715381800994273e-01 8.797204604520110216e-01
1.214378158565741078e-01 -7.142434172505574951e-04 -9.105316204438808070e-01 2.577626372973039759e-01 -7.464885929938768205e-01 -6.134437246753450257e-01
9.223280462262837751e-03 1.284142791561192903e-02 -8.889062926169332135e-01 -9.917067100929263246e-01 5.967203627704791014e-02 -1.138290351501552444e-01
5.947738706327868052e-02 -5.614178823778118166e-02 -9.372883482192551075e-01 1.158133145830078231e-01 -4.611715381800994273e-01 8.797204604520110216e-01
1.419234181553983339e-03 1.999831853590260389e-01 -7.829195251318934456e-01 -1.935971274876508441e-01 4.554959214439045501e-01 -8.689324586965886388e-01
5.335418261756660896e-02 -5.358646199916243177e-03 -9.098604442262636649e-01 1.158133145830078231e-01 -4.611715381800994273e-01 8.797204604520110216e-01
1.152898330212582256e-01 4.827000443484510267e-02 -8.813855753877201105e-01 -1.210883121604599960e-01 4.606001064975515646e-01 -8.793094805314993767e-01
-3.350125222155796167e-02 -8.897232950003211571e-02 -9.422585029544946478e-01 1.158133145830078231e-01 -4.611715381800994273e-01 8.797204604520110216e-01
-2.070923025259347253e-02 -1.097682986726071508e-01 -9.548443140768344550e-01 1.158133145830078231e-01 -4.611715381800994273e-01 8.797204604520110216e-01
-3.189906335615157185e-02 -1.402725688927391190e-01 -9.693623003364284507e-01 1.158133145830078231e-01 -4.611715381800994273e-01 8.797204604520110216e-01
1.742067383317555569e-03 -2.104453178760641308e-01 -1.010240897978193386e+00 1.142936473389158242e-01 -4.521677760808856528e-01 8.845797106264835508e-01
-4.382818112110404424e-02 1.705601335530099738e-01 -7.962650750506505837e-01 -1.154281126403802205e-01 4.577387318038400044e-01 -8.815620251683325970e-01
-3.116092310521442407e-02 -3.041415751620793473e-02 -9.132850458319887732e-01 -2.570815627107210233e-01 -9.304591281443032047e-01 -2.610648979988626772e-01
8.481041326682741549e-03 9.945615558701975667e-02 -8.478830675463134847e-01 -9.333845889305075749e-01 -1.666254071585755447e-01 3.178508814464199306e-01
1.170834784622723779e-01 -7.568909302666700090e-02 -9.466583572067638341e-01 -1.220571625986123371e-01 4.618389497553390122e-01 -8.785253744470111759e-01
1.592943805370636290e-01 6.805384571804219684e-02 -8.810139618333632239e-01 -9.784794218114759579e-01 -2.052507093693526630e-01 2.121714860336517891e-02
-1.390084180497691557e-01 -6.240558274882083978e-02 -9.062613974497286673e-01 -8.838720583667827868e-02 4.660618294296833830e-01 -8.803261174093616193e-01
-9.537917954042818844e-04 2.482244272427244769e-01 -7.661537446424644404e-01 1.494400083682271285e-01 -8.675086594995575773e-01 -4.744432627745754361e-01
-2.895765221594712863e-02 1.059350188729143716e-01 -8.320087513173293203e-01 -1.158133145830078231e-01 4.611715381800994273e-01 -8.797204604520110216e-01
-9.597950949942259113e-02 -2.306929764818844639e-02 -8.881546136176726725e-01 -2.740986097853795878e-01 -2.214268667671191182e-01 -9.358632885135619306e-01
-5.871209147504209691e-02 -4.401107490912334330e-02 -9.066971477263945367e-01 -1.158133145830078231e-01 4.611715381800994273e-01 -8.797204604520110216e-01
6.031755611281543195e-02 1.505321588016524659e-01 -8.204653006969728768e-01 -1.215368197192766841e-01 4.603557683961586044e-01 -8.793755556967152165e-01
1.000683163835720535e-01 -1.077044266285673152e-01 -9.653669217037165184e-01 -2.354073529778520080e-01 7.595730606341866142e-01 6.063267631589219775e-01
1.078650591156980476e-01 -1.326422816404781713e-01 -9.834072259356583245e-01 1.019518271111967689e-01 -4.556540652928331991e-01 8.842992693261726433e-01
7.079633993842998629e-02 1.447683592723226498e-01 -8.248703847010884216e-01 -1.156748608693624614e-01 4.578100013196136908e-01 -8.814926711292548900e-01
1.542114087068703066e-01 -5.474182572935277352e-02 -9.440349005445544117e-01 -9.588986130494170368e-01 1.790683039166737767e-01 2.201090466662151968e-01
-8.987915037619816083e-03 1.436443514209465588e-01 -8.118238555690548974e-01 -2.548251196350895809e-01 -5.297237599115157680e-01 -8.089851028221527462e-01
-1.007213262007123356e-01 6.487166484237523456e-02 -8.441887394334680605e-01 -1.112823174817514499e-01 4.609451764225123149e-01 -8.804236424294328289e-01
1.345282395513786866e-01 1.967076396561164703e-02 -9.071548544618183163e-01 1.105066724031458919e-01 -4.615414313620933573e-01 8.802089425191121919e-01
3.606277281863559669e-02 9.848707145452292866e-02 -8.444729519344674751e-01 -1.158133145830078231e-01 4.611715381800994273e-01 -8.797204604520110216e-01
-4.930667361668723131e-02 -9.031211642466493994e-02 -9.408801029992843734e-01 1.158133145830078231e-01 -4.611715381800994273e-01 8.797204604520110216e-01
-1.582414654825824293e-03 3.967825389242273654e-02 -8.667242195832155494e-01 -3.719341996658480365e-02 4.639745322442799802e-01 -8.850673889257760774e-01
-9.096950541254521239e-02 -1.560999153762299696e-01 -9.696703176610490527e-01 1.260237834670816792e-01 -4.572536237976664864e-01 8.803619309832430018e-01
-3.006749308652478456e-02 1.973992776266042526e-01 -7.841385394616313675e-01 -1.138876516072072215e-01 4.571586647650966451e-01 -8.820632392530534105e-01
-8.790480481060718165e-02 -9.781520520689099274e-02 -9.311072646916966900e-01 -1.107688313040981060e-01 4.620241191990007157e-01 -8.799227121116444117e-01
2.762504766688964053e-02 1.570745966165455199e-01 -8.126490927961741439e-01 -1.158133145830078231e-01 4.611715381800994273e-01 -8.797204604520110216e-01
4.562982875606910738e-02 -1.087408415642139581e-01 -9.630390903257750601e-01 1.158133145830078231e-01 -4.611715381800994273e-01 8.797204604520110216e-01
1.846781917963925823e-03 -2.021291899816391457e-01 -1.010394376358656254e+00 3.731176225720041206e-02 -4.639673184928037597e-01 8.850661894840742283e-01
1.038213691192123866e-01 -1.402006611476639131e-01 -9.867721021415432059e-01 7.715882636602648670e-02 -4.374087426813496604e-01 8.959464868728144182e-01
-1.098324154998052589e-02 2.275929571070554602e-01 -7.789088402618791207e-01 1.181214963283988700e-01 -4.670895436944894619e-01 8.762845829274947818e-01
5.499143876354248284e-02 -1.101425094960830353e-01 -9.650063157328861996e-01 1.158133145830078231e-01 -4.611715381800994273e-01 8.797204604520110216e-01
3.519684282552948407e-02 -1.238735367803914245e-02 -9.024821096779382934e-01 -1.158133145830078231e-01 4.611715381800994273e-01 -8.797204604520110216e-01
8.111763175536752801e-02 1.696225783144324761e-01 -8.133489330858267863e-01 -1.164004417720424511e-01 4.565936862589477507e-01 -8.820278583036585962e-01
-1.959989180983552626e-02 1.775791444517140771e-01 -7.957834137018265919e-01 -1.150077642634107500e-01 4.582036446497930182e-01 -8.813754218202242141e-01
-1.455071723378444440e-02 -7.396247802508290614e-02 -9.368847595496034852e-01 1.158133145830078231e-01 -4.611715381800994273e-01 8.797204604520110216e-01
6.246928955548983198e-02 3.129364393129294153e-02 -8.831737939483892408e-01 -1.158133145830078231e-01 4.611715381800994273e-01 -8.797204604520110216e-01
-5.604199510796995659e-02 -1.881025707376330625e-01 -9.909469149889491568e-01 1.234758334349999043e-01 -4.489451057968742442e-01 8.849870115083980915e-01
9.935932215412598967e-03 4.116475983025530416e-03 -8.905048432944959735e-01 -1.158133145830078231e-01 4.611715381800994273e-01 -8.797204604520110216e-01
-3.756689735338459082e-03 -4.722637875421113046e-02 -9.285251435150561061e-01 1.681053137779879303e-01 -4.557332465204425587e-01 8.740982848029972274e-01
1.402721586408246443e-02 2.704208342267059098e-02 -8.876978578514908014e-01 1.158133145830078231e-01 -4.611715381800994273e-01 8.797204604520110216e-01
-1.862746257701136318e-02 1.900594872404281488e-01 -7.894262122102962964e-01 -1.147230489735497072e-01 4.571545660889154150e-01 -8.819570991484041445e-01
-1.310979557340314350e-01 -1.152504727859014616e-01 -9.353322012043864264e-01 -4.958375995230460825e-02 4.854219084684750496e-01 -8.728728553047204741e-01
9.125820462599767285e-03 2.217241289454468522e-01 -7.792404483333560394e-01 -9.900696067939568357e-01 5.797657677089133876e-02 -1.280659605390465083e-01
-6.993846025999721217e-02 -1.736646821021634035e-01 -9.734409597720649066e-01 -1.026372786729192466e-01 4.732859983567596074e-01 -8.749091111573035207e-01
-1.589744629328818382e-01 -8.247159648330809611e-03 -8.758823926860092035e-01 -6.653618228105830090e-02 4.645117875301405519e-01 -8.830638344383805460e-01
-7.541155889492341668e-02 -1.047664368061437534e-01 -9.363481837062415103e-01 -1.158133145830078231e-01 4.611715381800994273e-01 -8.797204604520110216e-01
-3.065515397591029451e-02 -2.303624784396265945e-02 -8.993952528397183288e-01 -1.158133145830078231e-01 4.611715381800994273e-01 -8.797204604520110216e-01
1.541205512636763426e-02 2.205326198936922999e-01 -7.782011183571757584e-01 -1.252556335258132869e-01 4.423624983249961340e-01 -8.880464212785922351e-01
-5.158844982648222444e-02 -1.415679591288722117e-01 -9.587961720082632811e-01 -1.098771130024936843e-01 4.621703522185016677e-01 -8.799577180572162316e-01
-1.543158705961709953e-01 -5.056829813259894335e-02 -8.986151617750012255e-01 -6.387062903825679872e-02 4.712076623358945060e-01 -8.797067020900767309e-01
1.553118352853930517e-01 4.759463889950475007e-02 -8.878082458794139820e-01 -1.642294972302634770e-01 4.543293703638228709e-01 -8.755646723482550797e-01
9.693094801177079556e-02 1.023976887103794642e-01 -8.590068626179708788e-01 1.110581844312751171e-01 -4.621031132803575248e-01 8.798447546967759214e-01
9.400776932370584829e-03 -2.587359366740420441e-01 -1.032820354355514558e+00 -9.917067100929262136e-01 5.967203627704790320e-02 -1.138290351501552305e-01
-8.315498357313572120e-03 -1.014079277619923669e-01 -9.445069069030834763e-01 9.355350249294903664e-01 1.640050300625313096e-01 -3.128523089963792247e-01
-3.167943002375311207e-02 5.831550987027003807e-02 -8.566137765244596913e-01 -1.158133145830078231e-01 4.611715381800994273e-01 -8.797204604520110216e-01
8.405626533027601988e-02 7.730160908186983759e-02 -8.700694662864297824e-01 -2.101428505184526896e-01 7.553819347004886442e-01 6.206755312593899010e-01
-1.889501625225110948e-02 -1.256200782573796415e-03 -8.895258026387476979e-01 -1.158133145830078231e-01 4.611715381800994273e-01 -8.797204604520110216e-01
-1.510209093930518776e-01 1.698582818143530571e-02 -8.632748989499536840e-01 -9.068755136941634987e-02 4.618549594837464412e-01 -8.823070692377378288e-01
1.424635397005211308e-02 -1.721809690015842498e-01 -9.921087336191293238e-01 1.136697675020069270e-01 -4.567701459370926420e-01 8.822925919085158331e-01
1.263966988754574583e-01 9.881514857194058365e-02 -8.564722472594488156e-01 -1.212147204159611386e-01 4.598655050303445679e-01 -8.796764796433210742e-01
9.900922567218627124e-02 1.001684995049523103e-01 -8.519873497861282230e-01 -1.205441285537949686e-01 4.602334361600554646e-01 -8.795762032430812782e-01
-1.606654121563571083e-02 3.819956975808246383e-04 -8.977119660876589080e-01 1.158133145830078231e-01 -4.611715381800994273e-01 8.797204604520110216e-01
-7.896035292420836710e-03 1.243368946820129217e-01 -8.338073275301605136e-01 1.158133145830078231e-01 -4.611715381800994273e-01 8.797204604520110216e-01
1.397514466233953367e-01 9.931238687781740460e-02 -8.583551775001776463e-01 -1.409278273182352770e-01 4.541752029128451329e-01 -8.796955340039174231e-01
-5.333803019712110571e-02 -6.606170137445714283e-03 -8.964686262537404637e-01 1.158133145830078231e-01 -4.611715381800994273e-01 8.797204604520110216e-01
-3.784950996406892792e-03 -2.570645875910083089e-01 -1.022191704812759783e+00 -3.719341996658478977e-02 4.639745322442799247e-01 -8.850673889257759663e-01
1.512949240373477333e-01 7.250275150498876331e-02 -8.741775306134440537e-01 -1.634886198533919144e-01 4.512609241763452239e-01 -8.772884642407787759e-01
-2.981077590397149084e-03 1.883681833411713150e-02 -8.897601582790241048e-01 1.158133145830078231e-01 -4.611715381800994273e-01 8.797204604520110216e-01
-5.069884096663480888e-02 8.670461647046020029e-03 -8.888076761807958137e-01 1.158133145830078231e-01 -4.611715381800994273e-01 8.797204604520110216e-01
6.550149533397198187e-02 -2.598718034548971878e-02 -9.136010226477173646e-01 -1.158133145830078231e-01 4.611715381800994273e-01 -8.797204604520110216e-01
-4.916955966430125446e-02 1.126783020917765110e-01 -8.344854831973799181e-01 1.158133145830078231e-01 -4.611715381800994273e-01 8.797204604520110216e-01
-1.001469968530841054e-01 -7.965364931772379864e-02 -9.285026348941727292e-01 1.206746322288556189e-01 -4.601124063271763154e-01 8.796216269966568024e-01
-1.161297763133563449e-01 -8.543647630501365053e-02 -9.293210102843411091e-01 1.220287933285587878e-01 -4.598152301960486410e-01 8.795902044011918441e-01
-1.514368843821735366e-01 -1.634943257731948443e-02 -8.882391736115904379e-01 1.242360854261972264e-01 -4.604851409169586351e-01 8.789305035511415509e-01
-1.121332405446933897e-03 -2.574071716933646892e-01 -1.039204557624761716e+00 1.937131359494831950e-01 -4.555011942824703230e-01 8.689038398855539747e-01
-5.876311449256305108e-02 -1.154853999121115693e-01 -9.528316496298513405e-01 1.158133145830078231e-01 -4.611715381800994273e-01 8.797204604520110216e-01
-1.042932898473559189e-01 1.369333102281351244e-01 -8.142801424889677397e-01 1.220923601260048702e-01 -4.628531135241887307e-01 8.779865892482791034e-01
1.588691930644520883e-02 -1.710269562599307791e-01 -9.831302711739369204e-01 -1.179436007683648396e-01 4.655389167509685344e-01 -8.771332988936898500e-01
4.751335829220490470e-02 -2.778160534933984613e-02 -9.208461900068112271e-01 1.158133145830078231e-01 -4.611715381800994273e-01 8.797204604520110216e-01
-3.057001598691598890e-02 -4.408782096696207964e-02 -9.070889660653279618e-01 9.952156260083057371e-02 9.186433584908180183e-01 -3.823477977943631756e-01
4.793194090996305556e-02 2.677898827919536484e-02 -8.836266789015700951e-01 -1.158133145830078231e-01 4.611715381800994273e-01 -8.797204604520110216e-01
1.880790235544009537e-02 1.292312084183373511e-01 -8.260845372028682299e-01 -1.158133145830078231e-01 4.611715381800994273e-01 -8.797204604520110216e-01
1.320895472610235932e-01 -3.881401536922668687e-03 -9.216145664898769407e-01 -1.265974693006917673e-01 2.054631162805238276e-01 9.704421613960084736e-01
8.511217394704653771e-02 -1.524435919424375341e-01 -9.909541300529681740e-01 1.005776954559713943e-01 -4.497272364355863195e-01 8.874849519765257710e-01
5.648172850615171270e-02 6.224172557531901240e-02 -8.748343679185327515e-01 1.158133145830078231e-01 -4.611715381800994273e-01 8.797204604520110216e-01
-1.594771159213982381e-01 -4.039654256671024873e-03 -8.803139839075366790e-01 1.648066381136051028e-01 -4.567011551480651410e-01 8.742212688559540812e-01
-1.153179426247922038e-02 -1.310317675359718714e-01 -9.671993477639746484e-01 1.158133145830078231e-01 -4.611715381800994273e-01 8.797204604520110216e-01
3.189177795889577838e-02 -1.158650987250714193e-01 -9.649652197165388134e-01 1.158133145830078231e-01 -4.611715381800994273e-01 8.797204604520110216e-01
-1.125755212927129489e-01 -8.330204023954926318e-02 -9.203817641182858722e-01 -1.095647345156498254e-01 4.625152387739193127e-01 -8.798154481778660552e-01
-1.012117772791302633e-01 9.157768224557159831e-02 -8.385751896411686168e-01 1.205657237537268306e-01 -4.615884139445044498e-01 8.788629258126303689e-01
-5.188141022419205661e-02 -1.564928688514646282e-01 -9.665984345485061358e-01 -1.098771130024936843e-01 4.621703522185016677e-01 -8.799577180572162316e-01
5.117022318224512256e-02 -6.843472213963279135e-03 -9.103513136957388507e-01 1.158133145830078231e-01 -4.611715381800994273e-01 8.797204604520110216e-01
-2.043110808096321521e-02 -2.523460576579380707e-02 -9.105662454329500610e-01 1.158133145830078231e-01 -4.611715381800994273e-01 8.797204604520110216e-01
1.093174034134836853e-01 1.684161852479303459e-02 -9.054689270133016166e-01 1.113866479580251229e-01 -4.614806706636118694e-01 8.801298797680588981e-01
1.140479930495971218e-02 1.712992560198000891e-01 -8.031153262560136730e-01 -1.159902036212325654e-01 4.581498542279949793e-01 -8.812746358172189876e-01
-4.722574362465194880e-02 1.984281178155618552e-01 -7.814455757755434107e-01 -1.062750235061917098e-01 4.563629315984275570e-01 -8.834243001195106748e-01
1.404534361645209950e-01 8.046511928274961700e-02 -8.759625217371793671e-01 1.072606704161071511e-01 -4.628279034692192040e-01 8.799349296125107411e-01
-1.042270267063709344e-01 -3.222881901600201798e-02 -8.946247462203832379e-01 -1.113902455145660830e-01 4.614623888976687183e-01 -8.801390099507357956e-01
3.558814577394833756e-02 -4.544937013348107624e-02 -9.198655624484887161e-01 -1.158133145830078231e-01 4.611715381800994273e-01 -8.797204604520110216e-01
1.611129512965236155e-01 2.736906594684717503e-02 -9.057265485218201073e-01 -1.869303118510293529e-02 -4.670186123298519787e-01 8.840498777346288417e-01
-1.117855258638302540e-01 -6.767281136323244350e-02 -9.122685563673793574e-01 -1.099722009708022641e-01 4.620964948897882119e-01 -8.799846273794840190e-01
-7.277920877093577157e-02 1.427208590537355215e-01 -8.070723069440228770e-01 -1.153643308764579906e-01 4.577365435770709423e-01 -8.815715103356863702e-01
-5.726615121932973618e-02 8.197222938888165666e-03 -8.795186029891899349e-01 -1.158133145830078231e-01 4.611715381800994273e-01 -8.797204604520110216e-01
2.254360802650982529e-02 -3.689456880475869283e-02 -9.223362199543481132e-01 1.158133145830078231e-01 -4.611715381800994273e-01 8.797204604520110216e-01
-1.547863274903418795e-01 -6.911092974118915322e-02 -9.105277027271749812e-01 9.588986130494169258e-01 2.828900105745879578e-01 2.206109265231077921e-02
8.782844905910736771e-03 2.080781015254483390e-01 -7.827211461742005216e-01 -9.917067100929263246e-01 5.967203627704789626e-02 -1.138290351501552167e-01
3.417955237525701490e-02 1.937729396525794401e-01 -8.027809280421311922e-01 1.145285867895913662e-01 -4.657131852814109796e-01 8.774932659929769452e-01
1.248566367176918573e-01 -1.195629896003721493e-01 -9.780795845465385385e-01 -9.396764793008739736e-02 -3.685463575411921378e-01 9.248479137056031529e-01
-4.244884385267250898e-02 7.465232117755996044e-02 -8.553044243347965869e-01 1.158133145830078231e-01 -4.611715381800994273e-01 8.797204604520110216e-01
2.166920957752255586e-02 -1.784707543136032082e-01 -9.963213275591353835e-01 1.136697675020069270e-01 -4.567701459370926420e-01 8.822925919085158331e-01
-8.199372331362124455e-02 -1.008134896699207639e-01 -9.334256993669513003e-01 -1.107688313040981060e-01 4.620241191990007157e-01 -8.799227121116444117e-01
-2.476925094934265964e-02 -1.339957833993067615e-01 -9.562082981608084342e-01 3.619340196259882014e-02 8.450172845963451751e-01 -5.335127237356135366e-01
-1.081877380142411416e-01 -1.149783923309249389e-01 -9.375941927339901394e-01 -1.088677273204712442e-01 4.630902627600168020e-01 -8.795994693523491170e-01
9.435201504300429198e-02 -1.225297131222475716e-01 -9.765276383672363281e-01 1.077574026483915093e-01 -4.593872760266479727e-01 8.816754917764748622e-01
-8.955429243278587026e-02 -6.376403041201883504e-02 -9.130237538240281170e-01 -1.112089545702789201e-01 4.619020535330500832e-01 -8.799312821836353660e-01
-4.983394898144557356e-03 -3.938126889583071222e-01 -1.108147074025900070e+00 1.920659672864739875e-01 -1.915090715984224534e-01 9.625149036278977110e-01
8.222946737160063968e-02 -1.730317750209441618e-01 -1.000123841614930287e+00 -6.703102885317439030e-01 5.277465539194859945e-01 5.216969349292721603e-01
3.906228320075946954e-03 1.917445076687493768e-02 -8.904898619593895059e-01 1.158133145830078231e-01 -4.611715381800994273e-01 8.797204604520110216e-01
-1.811984958711966923e-02 -3.595709809868077866e-02 -9.164915171796520488e-01 1.158133145830078231e-01 -4.611715381800994273e-01 8.797204604520110216e-01
-6.384582728411676567e-02 -8.943937604374410655e-02 -9.298359576847993191e-01 -1.158133145830078231e-01 4.611715381800994273e-01 -8.797204604520110216e-01
-3.746025472606771909e-03 -2.796217798970179191e-01 -1.050264864417286281e+00 1.937131359494831673e-01 -4.555011942824702675e-01 8.689038398855538636e-01
1.385505609407096661e-01 6.886481625673181173e-02 -8.818304173286899417e-01 1.074983923792900004e-01 -4.626539641873426700e-01 8.799973892334028713e-01
-3.245723896311024370e-02 -6.585869077998843246e-02 -9.216066112431239299e-01 -1.158133145830078231e-01 4.611715381800994273e-01 -8.797204604520110216e-01
9.289485081905907160e-02 8.277006022141887576e-02 -8.565497468163737471e-01 -8.533731458612768550e-02 3.616233344631121782e-01 -9.284105270358626871e-01
-9.314262929272019986e-02 -4.935122202435700267e-02 -9.050082898145282995e-01 -1.112920483113250814e-01 4.616042760125620981e-01 -8.800770263730260945e-01
-3.024985640629272721e-03 -3.719244138784175702e-01 -1.082544029215914305e+00 -3.645192180465502835e-02 4.689863720937480496e-01 -8.824528543707542694e-01
2.112441603880441110e-02 2.333252807716700850e-01 -7.800054187239804371e-01 9.700445164476288740e-02 -4.975984923850702568e-01 8.619662851511096235e-01
-2.605024962844333311e-02 -1.666602788888192077e-01 -9.752992516773490994e-01 -1.139547163347086195e-01 4.659169380065716903e-01 -8.774598164609342943e-01
1.171805980199173425e-01 1.144098470814806923e-01 -8.552308107720052455e-01 1.101363330934196499e-01 -4.629418561899763529e-01 8.795196563580113258e-01
-1.005030990399057023e-02 -1.145422717480182595e-01 -9.500775901154755454e-01 -1.158133145830078231e-01 4.611715381800994273e-01 -8.797204604520110216e-01
6.692296744884773663e-02 6.642538144345930262e-02 -8.653431728207974238e-01 -1.158133145830078231e-01 4.611715381800994273e-01 -8.797204604520110216e-01
-5.709054381358544955e-02 7.152476128232787556e-02 -8.591150333867964006e-01 9.990690953720178513e-02 -5.299167715800717771e-01 8.421441828005932217e-01
1.366166477170605020e-01 -3.013100978039981795e-02 -9.335023959894659384e-01 1.070580116447249763e-01 -4.610355376064250721e-01 8.809000029552914723e-01
-1.936028777074269569e-02 -1.094286039926072041e-01 -9.461712385249008150e-01 -1.158133145830078231e-01 4.611715381800994273e-01 -8.797204604520110216e-01
6.942410593352599246e-02 -6.362001196731534303e-02 -9.425180849693006735e-01 1.158133145830078231e-01 -4.611715381800994273e-01 8.797204604520110216e-01
8.112242095849042656e-02 8.469413323398163052e-02 -8.703456166224158297e-01 1.340452263965954405e-01 -5.267241766915290446e-01 8.394006903552774235e-01
3.523556301701286086e-02 -2.740776467096914248e-02 -9.103612834234964257e-01 -1.158133145830078231e-01 4.611715381800994273e-01 -8.797204604520110216e-01
-2.525590813210289165e-02 -6.980813276851002835e-02 -9.246250476091293358e-01 -1.158133145830078231e-01 4.611715381800994273e-01 -8.797204604520110216e-01
-1.222911545850739468e-01 -7.934344339454281470e-02 -9.170871188668537899e-01 -1.098065475329963181e-01 4.626692082295074671e-01 -8.797043400342893227e-01
1.283236259065585472e-01 -1.172432732979686726e-01 -9.736548733357081042e-01 -8.901516912291619343e-01 3.447751037653066786e-01 2.979263238209820530e-01
-8.253099384070069003e-03 2.160778702877331758e-01 -7.854013112972015875e-01 1.169834698076254870e-01 -4.648335461798148160e-01 8.776358254638800815e-01
-6.194597718970092093e-02 -1.152830342508737449e-01 -9.563979467469732043e-01 8.622763415661373332e-02 -5.559067120980840659e-01 8.267602569983941718e-01
1.672787513391332803e-02 8.908764651494441300e-02 -8.468549684540401801e-01 -1.158133145830078231e-01 4.611715381800994273e-01 -8.797204604520110216e-01
-1.554222342238756327e-02 -7.974641136154012044e-02 -9.311137283949819654e-01 -1.158133145830078231e-01 4.611715381800994273e-01 -8.797204604520110216e-01
-3.670641150426992572e-02 1.152799456398080069e-01 -8.347623831362368518e-01 1.158133145830078231e-01 -4.611715381800994273e-01 8.797204604520110216e-01
-2.550535340764569295e-02 8.363821419361031073e-02 -8.528243679837499425e-01 1.158133145830078231e-01 -4.611715381800994273e-01 8.797204604520110216e-01
1.009913353592671453e-01 3.337475085308320988e-02 -8.872315818905472939e-01 -1.201896937427983508e-01 4.607549700669809067e-01 -8.793516333507249705e-01
-7.566280309533511550e-02 -1.534373123757593049e-01 -9.619914135111787834e-01 -1.130874937971782096e-01 4.673583601696798540e-01 -8.768052132179535718e-01
-8.602938616166891372e-02 3.966767458743512137e-02 -8.592458717219525477e-01 -1.114043860196074348e-01 4.611045935228141324e-01 -8.803247222518260084e-01
-5.164867057548058055e-02 -1.129603835578249331e-02 -8.991495734221232050e-01 1.158133145830078231e-01 -4.611715381800994273e-01 8.797204604520110216e-01
1.018460570991087805e-01 1.116860277254246442e-01 -8.547467497047590568e-01 1.110960422109810997e-01 -4.623482271847249025e-01 8.797111947816725896e-01
-1.232483256515501668e-01 1.476317412972074083e-01 -8.043342299525577666e-01 8.403196244575203977e-01 -4.267205767672730410e-01 -3.343239119700799344e-01
-1.079135701973916867e-01 -1.267350609675315376e-01 -9.520145246764423197e-01 1.230879755266819087e-01 -4.581936431448770386e-01 8.802885524998992350e-01
-4.295428816686938135e-03 2.927031181555750025e-02 -8.882138728529341831e-01 1.935962028020373482e-01 -4.555119109674941047e-01 8.689242827930256929e-01
-8.359143813975917353e-03 1.698120242253270754e-02 -8.919128987695039701e-01 6.145487148879590356e-01 -3.662731360589566720e-01 6.986944016028000526e-01
1.318827672282469887e-01 -5.629745344392372841e-02 -9.466026744361583090e-01 1.066503373716061048e-01 -4.604475617072473770e-01 8.812569139906777371e-01
-1.039267846926550110e-01 8.138208988810032019e-02 -8.468647601694254679e-01 -6.713337624773603463e-02 -9.275291038128287147e-01 3.676722336181381112e-01
9.365164758191634950e-03 7.811860419970105551e-02 -8.564724758549278061e-01 -9.333845889305075749e-01 -1.666254071585755725e-01 3.178508814464199306e-01
6.459613338355157941e-02 -1.110246874786638693e-01 -9.580606285765544960e-01 -1.158133145830078231e-01 4.611715381800994273e-01 -8.797204604520110216e-01
1.285028592829454419e-01 -9.247966425724503392e-02 -9.546490676286530919e-01 -9.054213242637999814e-02 -1.929964305569345784e-01 -9.770130500909216531e-01
2.574442889589908037e-02 -2.138602980988012492e-01 -1.007863090688940533e+00 -1.531768894410723558e-01 5.146446341216244225e-01 -8.436099460716287579e-01
-7.323456831785507548e-02 9.340681283310695027e-02 -8.327473900849278188e-01 -1.158133145830078231e-01 4.611715381800994273e-01 -8.797204604520110216e-01
-5.238554824964713336e-02 1.506505500351347504e-01 -8.022773830468498124e-01 -2.653481634602979367e-01 -5.657304532948144171e-01 -7.807300470476917775e-01
5.920572722645248837e-02 -1.644999902917965717e-01 -9.939160170322072219e-01 1.130851109912751201e-01 -4.562910201240872876e-01 8.826155803214730255e-01
5.152178235962584507e-02 6.567897392759576569e-02 -8.656858543879806245e-01 -2.495768736273238919e-01 9.149606221718067367e-01 3.171095142460897409e-01
2.324367832898522820e-02 -9.793909365736944150e-02 -9.544294542886003763e-01 1.158133145830078231e-01 -4.611715381800994273e-01 8.797204604520110216e-01
3.631097140886937330e-02 2.156473541448662434e-01 -7.914390362550981495e-01 1.123940327818724189e-01 -4.686337427751376405e-01 8.762134423344540846e-01
4.321193811676721230e-02 4.037280414319213695e-02 -8.845516657542396022e-01 1.158133145830078231e-01 -4.611715381800994273e-01 8.797204604520110216e-01
2.529825807309163399e-03 1.527575604616621396e-01 -8.116084592529269059e-01 -1.158133145830078231e-01 4.611715381800994273e-01 -8.797204604520110216e-01
-1.296148434583674347e-02 -2.328341214963650097e-02 -9.018541562837906200e-01 -1.158133145830078231e-01 4.611715381800994273e-01 -8.797204604520110216e-01
7.445612992137320973e-02 -5.650371266841888729e-02 -9.394499975050834006e-01 1.158133145830078231e-01 -4.611715381800994273e-01 8.797204604520110216e-01
1.224906386150816616e-02 -4.043067502892295356e-02 -9.110528689055098495e-01 7.350853922208723523e-02 -1.932817881403775806e-01 -9.783857342759515463e-01
-3.154828190092493108e-03 -2.216353781206096829e-01 -1.003645304080980516e+00 -3.719341996658478977e-02 4.639745322442799247e-01 -8.850673889257759663e-01
7.284779333370072774e-02 -9.281321249880938873e-02 -9.582726142800073177e-01 1.158133145830078231e-01 -4.611715381800994273e-01 8.797204604520110216e-01
3.024599456986834176e-02 -2.914287613894341739e-02 -9.142869011248033750e-01 2.493342666528260143e-01 -7.306951927865918961e-01 -6.355446158305984028e-01
-1.172633321564507808e-01 6.605569493288472593e-02 -8.414881898372789104e-01 -1.104083321057735406e-01 4.604505187439444924e-01 -8.807924386539960349e-01
-1.289803732500343914e-01 8.506602563843748688e-02 -8.353494214519557870e-01 -1.008414713765442838e-01 -9.483445203021654279e-01 -3.007884114514208229e-01
-8.671281363385598823e-03 -1.235694624568601796e-01 -9.571884518788779106e-01 9.355350249294903664e-01 1.640050300625313373e-01 -3.128523089963792247e-01
9.199531794391668793e-02 1.391847804049809456e-01 -8.306260081297771602e-01 -1.209861419602850374e-01 4.596674159157608797e-01 -8.798114685538558355e-01
-8.006166755906904409e-02 -7.012712629065612213e-02 -9.175772111622964022e-01 -1.158133145830078231e-01 4.611715381800994273e-01 -8.797204604520110216e-01
-3.821724833276383959e-04 -5.793504062866759036e-02 -9.179459958509140760e-01 -3.719341996658478977e-02 4.639745322442799247e-01 -8.850673889257759663e-01
1.253326145753758461e-02 -1.676740201550998843e-01 -9.895547435589019392e-01 1.136697675020069270e-01 -4.567701459370926420e-01 8.822925919085158331e-01
-1.567726236721474903e-02 -1.916575828267769732e-01 -9.899188884069360927e-01 -1.129498068936738570e-01 4.673569647517520353e-01 -8.768237044131000912e-01
6.033560584846373032e-02 9.086745752019406708e-02 -8.603353956916209855e-01 1.158133145830078231e-01 -4.611715381800994273e-01 8.797204604520110216e-01
-9.668021819405139827e-02 -1.610799989471934091e-01 -9.712960192062221054e-01 1.547424788437384291e-01 -4.315963240088959152e-01 8.886953236870909212e-01
1.187764754111442916e-01 7.814343963571503127e-02 -8.662289520813201138e-01 -1.212846922153934248e-01 4.601772823915180055e-01 -8.795037761175186208e-01
-9.466704651295231032e-02 1.575570538762054162e-01 -8.070822009807614439e-01 3.702648799907113930e-01 -3.853835415826892818e-01 8.452120707388456333e-01
-3.027118318385212808e-02 -7.015469658875903014e-02 -9.241464748395356033e-01 -1.158133145830078231e-01 4.611715381800994273e-01 -8.797204604520110216e-01
-1.013138890326241576e-01 2.071095115353030133e-02 -8.757542429123585936e-01 1.202096716481526606e-01 -4.611048466273107160e-01 8.791654879822384805e-01
-5.394121648685328702e-02 1.920177691424259092e-01 -7.920387372883362920e-01 1.174965393240472583e-01 -4.662664409982266167e-01 8.768068026912883006e-01
-4.764552059848889409e-02 -8.958870063107868265e-02 -9.320469730602443104e-01 -1.158133145830078231e-01 4.611715381800994273e-01 -8.797204604520110216e-01
1.458006345211671495e-01 1.116327285035897537e-01 -8.597582668785247462e-01 -2.232470558364930968e-02 -4.959823700322824602e-01 8.680455610955933876e-01
5.473612733136659636e-02 -6.616363498314223324e-02 -9.332452905824454303e-01 -1.158133145830078231e-01 4.611715381800994273e-01 -8.797204604520110216e-01
4.886745731008129701e-02 6.054377997635687625e-02 -8.747220711081566957e-01 1.158133145830078231e-01 -4.611715381800994273e-01 8.797204604520110216e-01
2.431614835185477372e-02 2.206729136525296675e-01 -7.793728762164834345e-01 -1.237558201493782345e-01 4.411533283986745491e-01 -8.888578276765785047e-01
-9.077182544105251785e-03 5.425624095080073400e-02 -8.718411886198202954e-01 9.674627452034576525e-01 1.466950484171425373e-01 2.061465483904152407e-01
-8.622301404023505200e-02 -1.205455973000056497e-01 -9.486311491862805534e-01 2.715043425876118022e-01 7.870151888437051380e-01 5.539787762048073994e-01
-4.841943276345336833e-03 -7.284543507975418941e-02 -9.289047324428619801e-01 -1.158133145830078231e-01 4.611715381800994273e-01 -8.797204604520110216e-01
9.247502907974451680e-02 -1.657248138441200225e-01 -9.935442547682398207e-01 -6.976803479944235775e-01 5.926360693623118348e-01 4.025228208600959978e-01
6.025324081390598385e-02 1.585283452110787528e-01 -8.134314058277263282e-01 1.595744124663353025e-01 -5.427268810558862899e-01 -8.246111443979966538e-01
-9.068076566567207647e-03 -2.450832054707101915e-01 -1.026624389654496428e+00 9.909124106959468214e-01 -6.245182931670919396e-02 1.191317058710381072e-01
4.921275218153434161e-02 4.720829227510611736e-02 -8.817583256883430032e-01 1.158133145830078231e-01 -4.611715381800994273e-01 8.797204604520110216e-01
6.823460170595679018e-03 1.455044631463394689e-01 -8.290557879927979990e-01 1.158133145830078231e-01 -4.611715381800994273e-01 8.797204604520110216e-01
-1.084107596504440968e-01 -1.580384878991543049e-02 -8.939278493211421095e-01 1.202398226796187464e-01 -4.608523878868295842e-01 8.792937288648092764e-01
-1.001003290379618993e-01 1.311456254563264090e-01 -8.096818490378708821e-01 -1.011940692161442806e-01 4.584728826505350407e-01 -8.829282961994066037e-01
-3.732742082806419365e-02 1.786766784737395808e-01 -8.013375397824286095e-01 1.167362645648682001e-01 -4.643424151257886101e-01 8.779286793644406339e-01
1.609759922220982062e-02 1.385550766619297047e-01 -8.173725603325441291e-01 -1.479077701714384407e-01 5.733872988658090808e-01 -8.058227454113492394e-01
5.619384848471223326e-02 -1.181354110962522519e-01 -9.693690001326339400e-01 -2.381853896943183779e-01 7.587394324417690017e-01 6.062855711577737061e-01
1.075934487855822672e-02 -1.306294817027265631e-01 -9.699230401651013356e-01 1.158133145830078231e-01 -4.611715381800994273e-01 8.797204604520110216e-01
-1.232887617507319594e-01 -1.016715719236408466e-01 -9.287155567225997554e-01 -8.230944683841502629e-02 4.719754013871239606e-01 -8.777610013247439946e-01
1.326240377612919192e-04 -1.681345104660306178e-02 -9.001862516636300882e-01 -1.158133145830078231e-01 4.611715381800994273e-01 -8.797204604520110216e-01
-2.565506620257763243e-02 1.687670694002902927e-01 -8.081294142243868883e-01 1.161163096372606618e-01 -4.643484694617666109e-01 8.780076887731329549e-01
1.645847896106542030e-02 -1.617690345081967684e-01 -9.783248693894547321e-01 -1.158133145830078231e-01 4.611715381800994273e-01 -8.797204604520110216e-01
-4.100360794057150010e-02 9.505498080535775343e-03 -8.896462857949851699e-01 1.158133145830078231e-01 -4.611715381800994273e-01 8.797204604520110216e-01
-2.264542457789971153e-02 9.203443744009301430e-02 -8.401267761299694437e-01 -1.158133145830078231e-01 4.611715381800994273e-01 -8.797204604520110216e-01
5.551734845920876758e-03 1.971940129284304247e-02 -8.783619361182495311e-01 -6.144548977596516748e-01 3.663070649449414184e-01 -6.987591235830830083e-01
8.723294360654706980e-03 -1.434924187956080066e-01 -9.677254883729041746e-01 -1.158133145830078231e-01 4.611715381800994273e-01 -8.797204604520110216e-01
-1.842878505456370733e-02 -8.168318496391843708e-02 -9.404216085217413923e-01 1.158133145830078231e-01 -4.611715381800994273e-01 8.797204604520110216e-01
1.044504447201973912e-01 8.671820586926858032e-02 -8.717860717913541446e-01 -7.227426650881503545e-02 2.229930149519123439e-01 9.721371023077295392e-01
1.318260892733373046e-01 -7.209698476552432733e-02 -9.469123761388014149e-01 -1.454837785547878903e-01 4.651943591764340913e-01 -8.731716202258571480e-01
-6.980154972899234311e-02 6.260622647310351563e-02 -8.580183642746951334e-01 1.158133145830078231e-01 -4.611715381800994273e-01 8.797204604520110216e-01
-8.991117757114010234e-03 -6.822035987027916248e-02 -9.345485755267246564e-01 9.909124106959468214e-01 -6.245182931670922172e-02 1.191317058710381488e-01
-6.048353711893982021e-02 1.566085373063501318e-01 -8.071039890742365275e-01 -2.236961236073233550e-01 -9.077506309806367968e-01 -3.548927108821941512e-01
-8.166258980024693193e-02 9.927758227389488210e-02 -8.285900982037670559e-01 -1.106180238040829211e-01 4.607698511243861761e-01 -8.805991125957883803e-01
-1.237713099863117366e-01 5.379066702310394271e-02 -8.470900301339688854e-01 -1.103383500420390545e-01 4.607698726354881313e-01 -8.806341879472295853e-01
4.275399648045577483e-02 1.004264135224906263e-01 -8.443371854279240196e-01 -1.158133145830078231e-01 4.611715381800994273e-01 -8.797204604520110216e-01
2.285138115503963785e-02 1.099634524048116735e-01 -8.367174936711740951e-01 -1.158133145830078231e-01 4.611715381800994273e-01 -8.797204604520110216e-01
1.174121697688693122e-02 -1.723094285792328706e-02 -9.019333577454181627e-01 -1.158133145830078231e-01 4.611715381800994273e-01 -8.797204604520110216e-01
-4.495819590330252941e-02 -1.108943556551661713e-01 -9.435697125387542128e-01 -1.158133145830078231e-01 4.611715381800994273e-01 -8.797204604520110216e-01
1.662966228066551852e-02 -1.272996044670330062e-01 -9.689502496831070566e-01 1.158133145830078231e-01 -4.611715381800994273e-01 8.797204604520110216e-01
1.278289436602054185e-01 8.612516303589602684e-02 -8.603372801971650441e-01 -2.502318135362705531e-01 9.089177955649897500e-01 -3.335453198586790791e-01
-6.512869978392872572e-02 -8.759081628234660633e-03 -8.873724356091384768e-01 -1.158133145830078231e-01 4.611715381800994273e-01 -8.797204604520110216e-01
1.328665882934660647e-01 4.423813467431197445e-03 -9.186429738104546772e-01 2.525542379414306704e-01 -9.083337242767485220e-01 3.333859658704233508e-01
-8.077513244583073293e-02 7.355278104974515008e-02 -8.421648728652664229e-01 -1.112823174817514499e-01 4.609451764225123149e-01 -8.804236424294328289e-01
-1.225752074852416440e-01 -4.691454919675108054e-03 -8.861581675029486238e-01 1.211734807552892063e-01 -4.607612645507695448e-01 8.792133100967154391e-01
-9.810851196163697385e-02 3.829986231443704287e-02 -8.669667435904577779e-01 1.202574301311582078e-01 -4.611615034216828279e-01 8.791292386561276873e-01
7.707115599152012352e-03 -1.457126481914337857e-01 -9.786793765262772338e-01 -9.333845889305075749e-01 -1.666254071585755725e-01 3.178508814464199306e-01
-4.710035870988395906e-02 1.623216176646327114e-01 -8.001163180548707121e-01 -1.146692462502678783e-01 4.577062448335261768e-01 -8.816779215817913684e-01
