-1.018858223716818528e-01 -1.360928921115218682e-01 -9.342866506513921587e-01 -6.511788429002821066e-02 -4.556671831378019122e-01 8.877652163476847935e-01
2.058273149945212890e-02 -2.975757502483209610e-02 -8.605151594616139432e-01 7.398163977567188965e-02 4.593538376837299486e-01 -8.851670852338174855e-01
1.299255195214233348e-02 -7.496795377323625664e-02 -8.846112824039644718e-01 7.398163977567188965e-02 4.593538376837299486e-01 -8.851670852338174855e-01
-7.838422882572015915e-02 -2.144427084470730202e-02 -8.730918130846493375e-01 -7.398163977567188965e-02 -4.593538376837299486e-01 8.851670852338174855e-01
-5.819972562410312411e-02 1.005809996512554705e-01 -7.994610714666275930e-01 7.398163977567188965e-02 4.593538376837299486e-01 -8.851670852338174855e-01
-7.311962877053815313e-02 -1.734789282464965221e-01 -9.512052863408373415e-01 -3.915564148987472209e-02 -4.275316441469250162e-01 9.031519966165957314e-01
-6.701083973149177253e-02 -5.076021778274843188e-02 -8.873546239899928745e-01 -7.398163977567188965e-02 -4.593538376837299486e-01 8.851670852338174855e-01
-7.278088271346860871e-02 -2.705778581797622234e-02 -8.669173798291412991e-01 7.398163977567188965e-02 4.593538376837299486e-01 -8.851670852338174855e-01
1.452957495860343617e-02 1.596081025443620294e-01 -7.713697545017869084e-01 -7.398163977567188965e-02 -4.593538376837299486e-01 8.851670852338174855e-01
9.296991965010330261e-02 9.705346401202231965e-02 -7.971992084717242077e-01 -7.871560633070520674e-02 -4.601154636732310843e-01 8.843628290519435220e-01
3.117173400677377554e-02 -1.349758557145422644e-01 -9.142327344295781977e-01 7.398163977567188965e-02 4.593538376837299486e-01 -8.851670852338174855e-01
-2.727213128001981096e-02 -4.809536519663944187e-02 -8.826503764580165834e-01 -7.398163977567188965e-02 -4.593538376837299486e-01 8.851670852338174855e-01
-7.452833485145723968e-02 3.343648096574824372e-03 -8.599059510619949664e-01 -7.398163977567188965e-02 -4.593538376837299486e-01 8.851670852338174855e-01
-6.111085541258877429e-02 -1.854753077924760907e-01 -9.486946509179577935e-01 9.501810842558214287e-02 4.829171993888408121e-01 -8.704955701240889576e-01
-7.908945624911208061e-02 1.217391639997676134e-01 -7.988234731164066682e-01 -6.874225778327548719e-02 -4.602073368954393007e-01 8.851461512442254653e-01
-1.888609881374631386e-02 -1.254760302941806682e-01 -9.134866372017134140e-01 7.398163977567188965e-02 4.593538376837299486e-01 -8.851670852338174855e-01
-1.236220975752090785e-02 5.045817109806707140e-02 -8.216410410926238139e-01 7.398163977567188965e-02 4.593538376837299486e-01 -8.851670852338174855e-01
-1.117061169335834547e-01 -5.080374260796780353e-03 -8.637694170072780508e-01 -2.888210723571145166e-01 -9.079810055889278031e-01 -3.035669310913262087e-01
-9.847643601043164219e-02 -1.213824813089835614e-01 -9.264576380993796434e-01 -6.589489894916769619e-02 -4.574052163470765375e-01 8.868135826378411579e-01
-9.021396918199172180e-03 -3.431283128699014751e-01 -1.027443313151616078e+00 9.854316680525814220e-01 7.833782480885623234e-02 -1.509556650256081434e-01
1.445669830625648522e-01 -1.858944054261948628e-02 -8.448551594083368865e-01 4.847372552922472877e-02 4.606119618824016104e-01 -8.862769987448408937e-01
-9.759253119421705536e-02 1.444664582803716346e-01 -7.884241244515199920e-01 -6.666332518391712703e-02 -4.613085771532984825e-01 8.847318224864654246e-01
1.186356501889019970e-02 -1.341563845370682129e-01 -9.154212363407937536e-01 7.398163977567188965e-02 4.593538376837299486e-01 -8.851670852338174855e-01
8.293029407940184783e-02 -5.960422087954915515e-02 -8.794122091584538614e-01 -7.398163977567188965e-02 -4.593538376837299486e-01 8.851670852338174855e-01
-5.341045355529649118e-04 1.430934950531898226e-03 -8.422797889663343751e-01 -4.822472257738715309e-03 4.606107522779265828e-01 -8.875891384234523285e-01
1.145438728659281535e-02 1.204919093933920077e-01 -7.919259649275993684e-01 -7.398163977567188965e-02 -4.593538376837299486e-01 8.851670852338174855e-01
8.853765611246440514e-02 -1.640062969324623809e-02 -8.479164201115235722e-01 6.954122854511460283e-02 4.595571503456228890e-01 -8.854215058934624683e-01
1.511268038326283591e-01 9.126119190174879214e-02 -7.941687888780621929e-01 -2.074962912279752214e-01 -4.819998539054991538e-01 8.512469852878850052e-01
-3.545340778368002554e-03 -1.573371835707572108e-01 -9.373579028059743079e-01 -7.398163977567188965e-02 -4.593538376837299486e-01 8.851670852338174855e-01
-1.743693957933491884e-02 6.417950319201685960e-02 -8.235637744460649889e-01 -7.398163977567188965e-02 -4.593538376837299486e-01 8.851670852338174855e-01
4.657226952934137576e-02 1.616546619065780122e-01 -7.676042520917826240e-01 -7.513390547831928779e-02 -4.628574448765228611e-01 8.832428216351105865e-01
-1.111562394124085834e-01 -4.514703931045156021e-02 -8.879930210251569811e-01 -6.933814091656646805e-02 -4.590178105781687057e-01 8.857171511189442237e-01
-7.465646277061917246e-02 8.300516499133921144e-02 -8.148224054870231159e-01 -2.430844452875642880e-01 -9.176848696140719186e-01 -3.142680902360930340e-01
1.077095051632477318e-01 1.228544646276035629e-01 -7.742671644336625025e-01 6.778954996731992311e-02 4.534269460670725116e-01 -8.887117538862172594e-01
-2.076155333126574257e-02 -1.625912973724979171e-01 -9.329042023782047055e-01 7.398163977567188965e-02 4.593538376837299486e-01 -8.851670852338174855e-01
-1.205751713080998461e-02 -1.499106032860276216e-01 -9.342153510364303859e-01 -7.398163977567188965e-02 -4.593538376837299486e-01 8.851670852338174855e-01
1.110441922600294146e-01 1.544524585246197790e-01 -7.580418440145207937e-01 5.025530446412113106e-02 4.480047510917137821e-01 -8.926175818190398292e-01
-9.109315473000885455e-02 -1.082270153132619817e-01 -9.067942752882142132e-01 4.162270059213234868e-02 3.610114837192861525e-01 -9.316320407855331887e-01
6.767755020011397005e-02 1.695024871061144855e-01 -7.533421059286059540e-01 6.702219388849099679e-02 4.584055091682643357e-01 -8.862123981814731266e-01
-9.322189724544142908e-02 -7.927048433300953878e-02 -8.957828855742315799e-01 7.884081905266344947e-02 4.599704136590987980e-01 -8.844271274725707954e-01
7.959484464989292907e-04 -2.986164873037694401e-01 -9.979953977362961970e-01 -4.822472257738704034e-03 4.606107522779264718e-01 -8.875891384234521064e-01
8.586802768025722510e-02 1.907230721319161382e-01 -7.417322012967119127e-01 3.010585668451048937e-03 3.948060919913443101e-01 -9.187595366038141531e-01
1.342521276666782670e-01 2.615680170409550448e-02 -8.303543496368487320e-01 -7.925434786595361714e-02 -4.594457627526455368e-01 8.846628394100106707e-01
6.692795818798928653e-02 -9.528359274356731912e-02 -8.906461169790805821e-01 7.398163977567188965e-02 4.593538376837299486e-01 -8.851670852338174855e-01
4.891295974125327989e-02 1.501952966973582881e-01 -7.609950349639887923e-01 1.287558020094004274e-01 2.580682655452561369e-01 -9.575085972289645309e-01
-7.815110478869433108e-02 -2.824762565248062959e-03 -8.634098110926524683e-01 -7.398163977567188965e-02 -4.593538376837299486e-01 8.851670852338174855e-01
1.126306500956678058e-01 9.282263722245798210e-02 -7.976405759919926730e-01 -7.977762852006781147e-02 -4.599750847511757668e-01 8.843406874026903397e-01
-5.201228416498145449e-03 -5.174870800131029652e-02 -8.740823731126711182e-01 7.398163977567188965e-02 4.593538376837299486e-01 -8.851670852338174855e-01
4.180476849751314089e-02 -9.399260574348562713e-02 -9.006951631819899440e-01 -7.398163977567188965e-02 -4.593538376837299486e-01 8.851670852338174855e-01
7.356579035997910625e-03 -2.687725008018647666e-01 -9.967332170646145961e-01 -5.807668498101141719e-01 -3.749737274378066032e-01 7.225680382448657069e-01
-4.950130652315173213e-02 -1.522888882278275735e-01 -9.299733975381105910e-01 7.993822642674805468e-02 4.598293361209286889e-01 -8.844019796440597547e-01
-8.670364018726034461e-02 1.792527025985432843e-01 -7.694231844486445482e-01 -6.086725473488632798e-02 -4.739610089029313578e-01 8.784396048339088159e-01
-7.949096538334778778e-03 1.936113958524886616e-02 -8.359637264284739411e-01 5.807668498101143939e-01 3.749737274378065477e-01 -7.225680382448655958e-01
-6.706765552302540456e-02 -1.060217642471989047e-01 -9.160371260777194768e-01 -7.398163977567188965e-02 -4.593538376837299486e-01 8.851670852338174855e-01
2.423794132802168516e-02 4.460239535186302090e-02 -8.216208571838344854e-01 7.398163977567188965e-02 4.593538376837299486e-01 -8.851670852338174855e-01
-9.030226365036003733e-02 -1.646040463262289921e-01 -9.403974970779194198e-01 1.034756007480719942e-01 4.783189864664562085e-01 -8.720686597026220399e-01
1.283891181583351471e-01 -1.033321105076324270e-01 -9.013737315949424955e-01 -3.808798696843107567e-01 -2.447769590121149919e-01 8.916360048843047226e-01
-8.911787130153992625e-03 -3.241761445394463759e-01 -1.022311621744380172e+00 9.476377190145552909e-01 -1.470965505705090215e-01 2.834525680094434619e-01
-9.031043099409580277e-02 9.478033417904525859e-02 -8.052120201713914849e-01 7.873194329258559332e-02 4.585081196778061363e-01 -8.851957892437670727e-01
5.772986818639796319e-02 1.556816462102491028e-01 -7.739685534129618905e-01 -7.848442016868051319e-02 -4.601385254433068561e-01 8.843713774165496977e-01
-7.075001187757444521e-02 -1.778524639976269972e-01 -9.454909443650177936e-01 9.616667826300599742e-02 4.882361189534886736e-01 -8.673969461216095578e-01
3.250708110726664019e-02 -1.388840819081904876e-01 -9.161492850568262458e-01 7.398163977567188965e-02 4.593538376837299486e-01 -8.851670852338174855e-01
-1.041608169953972124e-01 7.924389200399688249e-02 -8.105483351907678546e-01 9.799173583448590741e-02 5.575488024771857454e-01 -8.243403135625483324e-01
-1.304324373624197453e-01 -1.107823007239601767e-02 -8.595382414169550067e-01 9.052623111004673429e-02 5.229042982570657472e-01 -8.475707028592339709e-01
-2.133738199189600185e-02 -2.323065842787739449e-02 -8.606316962718277841e-01 7.398163977567188965e-02 4.593538376837299486e-01 -8.851670852338174855e-01
-4.681562219134802194e-02 2.242198489547224949e-01 -7.422792464009438929e-01 -4.158460043191786887e-02 -5.026116655966316182e-01 8.635115717887614784e-01
1.339381412418173128e-02 -3.892540577034338256e-02 -8.744928325339825781e-01 -7.398163977567188965e-02 -4.593538376837299486e-01 8.851670852338174855e-01
1.067068597321676054e-01 -4.263867964210227464e-03 -8.401900974420385415e-01 6.958714209675770368e-02 4.594632099429462047e-01 -8.854666500573186161e-01
6.380373410563992820e-02 1.538128640266280545e-01 -7.741997200250195776e-01 -1.096573336010432387e-01 -3.375250142618204663e-01 9.349075536838215017e-01
3.704945192713832592e-03 -3.092974807196343101e-01 -1.019708383998099599e+00 -1.523257684299560433e-01 -4.552408748711759823e-01 8.772414753753664529e-01
1.557412548161886678e-01 7.604764004167618996e-02 -7.995160450160619936e-01 -9.627491916420995999e-01 -1.985817981479723882e-01 -1.835191091870322921e-01
-1.324415597959946733e-01 5.250478353704197271e-02 -8.389705030962958388e-01 -6.863293791640970309e-02 -4.598841552367218810e-01 8.853225873065527773e-01
1.357905267980493921e-02 1.806451732459295745e-01 -7.520158590991503633e-01 7.318501677008532047e-02 4.563529545012117161e-01 -8.867840403606604971e-01
2.494632417770802427e-03 1.975294129664212361e-01 -7.442517997080577707e-01 7.371179710088451853e-02 4.556039303098957105e-01 -8.871254869827231992e-01
-1.683662153016771829e-02 -2.168648090048539145e-01 -9.615345430320212383e-01 1.065475997424139426e-01 5.136127899878719649e-01 -8.513809434970954770e-01
6.477406696695334198e-02 8.712279384440577146e-02 -7.961670895865449182e-01 7.398163977567188965e-02 4.593538376837299486e-01 -8.851670852338174855e-01
4.359150365734366928e-02 -4.686281658088553743e-03 -8.542006775853503431e-01 -7.398163977567188965e-02 -4.593538376837299486e-01 8.851670852338174855e-01
7.764845065851108674e-03 7.872700400810528354e-02 -8.042236208654665042e-01 -4.542870766012354622e-01 4.103423238018630848e-01 -7.907227259475916314e-01
-9.285043472828298505e-02 1.579412853420678331e-01 -7.759833709133265867e-01 3.532285648469390416e-01 8.950488111930566815e-01 2.722447548770554615e-01
-2.046442201682801415e-02 -7.681134958765940823e-02 -8.969834355494792355e-01 -7.398163977567188965e-02 -4.593538376837299486e-01 8.851670852338174855e-01
1.135472405285008063e-01 -2.189492514905282822e-02 -8.576492960794213083e-01 -2.880002991111795252e-01 7.775559679755390530e-01 5.589834920438112587e-01
1.536000643655862918e-01 5.469757867592296707e-02 -8.135368801747776546e-01 -1.218986624058732426e-01 -4.639562901508002546e-01 8.774310667700145894e-01
7.883572620511331702e-03 6.307022177287646691e-02 -8.264032831742786911e-01 -7.398163977567188965e-02 -4.593538376837299486e-01 8.851670852338174855e-01
-7.433042779175974557e-02 -1.042190447909166207e-01 -9.070894093913721701e-01 7.398163977567188965e-02 4.593538376837299486e-01 -8.851670852338174855e-01
2.216731208075909190e-02 6.852888876206483793e-02 -8.146183976399202775e-01 2.194119995268078438e-01 -9.282762119680969537e-01 -3.002692937311587373e-01
8.962642206004288459e-02 1.755775036570163261e-01 -7.486823575173862100e-01 4.760130960525919136e-02 4.389204724187061313e-01 -8.972641384874379122e-01
8.997495918718720342e-02 2.949312188138265844e-02 -8.239922008894847716e-01 6.958583526748315928e-02 4.593240715714148048e-01 -8.855389369221348117e-01
1.050996959828757321e-01 3.865325406356644178e-02 -8.180536863691008076e-01 6.953805951841857125e-02 4.592663910949084660e-01 -8.855726058822459557e-01
-3.090801408556211743e-02 1.159731486661252503e-01 -7.978115769062864571e-01 -7.398163977567188965e-02 -4.593538376837299486e-01 8.851670852338174855e-01
6.647572700770865151e-02 1.859784151047290390e-01 -7.450499048505487831e-01 6.697387429357146149e-02 4.485046645826809564e-01 -8.912676736029899738e-01
-1.464833331165489583e-01 9.240899867153519465e-02 -8.119898875283830808e-01 1.227236246239846035e-01 4.456676046508571964e-01 -8.867464677820366958e-01
-9.139033510990650366e-03 1.035492826037187064e-01 -7.964097286188410729e-01 9.854316680525814220e-01 7.833782480885621846e-02 -1.509556650256081156e-01
-8.796805467152880864e-02 -1.725511916885096031e-01 -9.452279413202980818e-01 3.809714895177271354e-01 6.867601724238303618e-01 -6.190486166263803325e-01
1.475830318937855316e-02 -1.080188549578504908e-01 -9.016153321220081729e-01 7.398163977567188965e-02 4.593538376837299486e-01 -8.851670852338174855e-01
4.896666878545215262e-02 1.980618156575682520e-01 -7.402460694417026810e-01 6.440774967242324234e-02 4.543448951551001258e-01 -8.884944333132513972e-01
-1.077740702295238856e-01 -1.064617162829644553e-01 -9.180617296316361253e-01 2.462321456436098177e-01 7.669635904392521075e-01 5.925677863268263845e-01
-4.520391418919626758e-02 -1.730795545677199787e-01 -9.488667767191315550e-01 -7.002927447457280019e-02 -4.522117380272251408e-01 8.891571541111061849e-01
2.663413253424315105e-02 -1.304720138827007714e-01 -9.122747336621492842e-01 7.398163977567188965e-02 4.593538376837299486e-01 -8.851670852338174855e-01
-8.314085704437072788e-02 1.477216613256414901e-01 -7.771923410274574895e-01 7.443095884718903266e-02 4.558717377991259312e-01 -8.869278386887475829e-01
-1.338640127722745821e-01 1.403150489714362903e-01 -7.877334382184681960e-01 8.919800912571191898e-01 -4.274191037748209521e-01 -1.472563293351765723e-01
-3.947478564363741949e-02 -2.016920620818059284e-01 -9.628357674380244591e-01 -3.047740645721461195e-02 -3.992553138591474760e-01 9.163330846645643124e-01
1.179912888230983531e-01 -1.275946908366844268e-02 -8.560571501274557571e-01 -4.059193917111714872e-02 -5.553547905321067901e-01 8.306222674040035781e-01
-9.061901913001899067e-02 5.961802326682115460e-02 -8.234625029665905149e-01 7.840638858862010452e-02 4.588964173498565335e-01 -8.850234552665577903e-01
3.733507651888939155e-02 -1.358750524686652417e-01 -9.141842410926450668e-01 7.398163977567188965e-02 4.593538376837299486e-01 -8.851670852338174855e-01
7.252831468569717610e-02 3.199399995164624311e-02 -8.327470772749731021e-01 -7.398163977567188965e-02 -4.593538376837299486e-01 8.851670852338174855e-01
-6.026629625883830194e-02 4.953559839473919806e-03 -8.578784828370725757e-01 -7.398163977567188965e-02 -4.593538376837299486e-01 8.851670852338174855e-01
3.918105313163663256e-03 4.007266272434387849e-02 -8.383676248501585881e-01 -1.522079688160643263e-01 -4.552492344094473675e-01 8.772575840643955791e-01
-1.287453823628472716e-01 1.271478892437965524e-01 -7.997962802104845448e-01 -6.502829312942402795e-02 -4.623189019743794703e-01 8.843260450591049482e-01
-9.949555223208458865e-02 1.201763812138718912e-01 -7.928816910245294336e-01 7.869409276234635986e-02 4.582627739944792888e-01 -8.853261939732700592e-01
3.646055900887602841e-03 -3.508623060859311638e-02 -8.775155811712165299e-01 -1.249737785224580566e-01 -4.570048987966039977e-01 8.806407196795555947e-01
2.913783607404234893e-02 -5.313054093045341958e-02 -8.719294349023334334e-01 7.398163977567188965e-02 4.593538376837299486e-01 -8.851670852338174855e-01
3.325294898620555911e-02 -5.666081254352757501e-02 -8.820367368588497570e-01 -7.398163977567188965e-02 -4.593538376837299486e-01 8.851670852338174855e-01
-3.467794207229216163e-02 1.147820842669268204e-01 -7.901255426462031606e-01 7.398163977567188965e-02 4.593538376837299486e-01 -8.851670852338174855e-01
1.425960328768355843e-02 1.186302074035937015e-01 -7.840384094112258229e-01 7.398163977567188965e-02 4.593538376837299486e-01 -8.851670852338174855e-01
-1.396473772009829417e-01 1.782225233179757576e-02 -8.495487159625569884e-01 9.896648414519869374e-02 4.579346745994773427e-01 -8.834599418283825001e-01
4.428551530466538072e-02 -2.809370320483208644e-02 -8.702448125048894978e-01 1.395665202373028435e-01 -9.240402378040835085e-01 3.559084507957395171e-01
1.171369008047880161e-01 -5.626134063235697924e-02 -8.746420118279575329e-01 -7.981624020051407420e-02 -4.585309853449954232e-01 8.850868337506786476e-01
-4.005109473233205153e-02 -4.220656780909363276e-02 -8.720432457082378797e-01 7.398163977567188965e-02 4.593538376837299486e-01 -8.851670852338174855e-01
-1.203862637410120645e-01 -5.641775335011818548e-02 -8.863343498612008542e-01 7.984287538788722993e-02 4.597637316899317872e-01 -8.844446993861984074e-01
9.227221729948661966e-02 -8.011092217944683347e-02 -8.807072241541512581e-01 6.912064503905447632e-02 4.603025595526636371e-01 -8.850671669984441214e-01
-1.231696938215465637e-01 3.016288261024512724e-02 -8.416300436213655090e-01 7.927841871645725791e-02 4.588864513719446703e-01 -8.849509348393741481e-01
-1.198465860386506571e-01 -2.659767204153581921e-02 -8.790484247031181697e-01 -6.842478276946066529e-02 -4.592304734359222707e-01 8.856779444983209348e-01
6.784425358236194359e-02 -1.125160640415895502e-01 -9.020887489992125419e-01 2.638419361628683846e-01 -7.788023696476849000e-01 -5.690819815746931409e-01
-4.539971721521833883e-03 1.057899783142464412e-01 -7.922730489688764033e-01 7.398163977567188965e-02 4.593538376837299486e-01 -8.851670852338174855e-01
1.340063762547810400e-01 -1.195871414776139424e-01 -9.016399060278967870e-01 -8.937262078671485144e-01 4.243551457392943371e-01 1.455203616542672940e-01
-1.503613722405795217e-01 8.010811657326240287e-02 -8.257553807944829627e-01 -2.414105624859949964e-02 -4.679835845457085419e-01 8.834073658278789321e-01
-3.995033987187607966e-02 -1.178537971492438913e-01 -9.199108650589450376e-01 -7.398163977567188965e-02 -4.593538376837299486e-01 8.851670852338174855e-01
4.024954684745868372e-02 7.680028588102169596e-02 -8.035736549345110502e-01 7.398163977567188965e-02 4.593538376837299486e-01 -8.851670852338174855e-01
8.796340186943117645e-02 -9.102900780868000696e-02 -8.867205855675386328e-01 6.891745413277365617e-02 4.601077200410143009e-01 -8.851843144083140213e-01
7.789092683711710575e-03 -3.877793209162475052e-01 -1.046617022643376416e+00 -4.553129268479786940e-01 4.157244804553375528e-01 -7.873139748507369529e-01
-1.597862649719141992e-01 1.645060044717275988e-02 -8.593967325037322746e-01 -2.522813510105731058e-02 -4.614906409168714752e-01 8.867862930523104925e-01
5.736107852767717390e-03 1.531658579055300007e-01 -7.792235868408488031e-01 -5.658919780943370004e-01 -3.911822441778661785e-01 7.257704326909762971e-01
2.990556082897652943e-04 2.115049401305700294e-01 -7.499840150736390987e-01 4.703284177338828802e-03 -4.606110137626677203e-01 8.875896423001311542e-01
9.794301776414918170e-02 5.201069441155046352e-02 -8.116895703047881661e-01 6.955542551479883262e-02 4.591988616306840187e-01 -8.856062602864431810e-01
-4.330566429833401093e-02 -9.832330183174271820e-02 -9.100560300583808715e-01 -7.398163977567188965e-02 -4.593538376837299486e-01 8.851670852338174855e-01
7.918345269959642385e-02 1.244809300379597639e-01 -7.756132675698252932e-01 6.878527874529286046e-02 4.583047576671702150e-01 -8.861294118398106434e-01
-1.025534887550103025e-02 5.581708982907707811e-02 -8.150818754352733286e-01 1.192228367864616584e-01 5.225096548173997490e-01 -8.442568186347033654e-01
1.300868055942443480e-01 4.589046048650975013e-02 -8.123582055292787318e-01 6.865205290162816609e-02 4.590046210965456619e-01 -8.857774288411333075e-01
-9.119791526390404190e-02 7.897474647791943858e-02 -8.237676972387865115e-01 1.049545652705279053e-01 2.347214332890108779e-01 9.663800432457341216e-01
1.235600610420319045e-01 -3.579085803276162246e-03 -8.467476268939533313e-01 -7.936394699381564555e-02 -4.590496595024028958e-01 8.848586181013839980e-01
-3.824185059027369188e-02 1.064002461115744064e-01 -8.033923523994982441e-01 -7.398163977567188965e-02 -4.593538376837299486e-01 8.851670852338174855e-01
-9.432131070788916938e-02 -9.937808564537257972e-02 -9.063373026545991085e-01 7.922776878505810583e-02 4.603407776773406068e-01 -8.841998241691539917e-01
-1.134045486801457392e-01 1.187559378102113622e-01 -8.030318816637072032e-01 -6.828261035373092702e-02 -4.610148539831433467e-01 8.847614308559010876e-01
5.652313818704448461e-02 -1.303818603603337511e-01 -9.097298468791714665e-01 7.398163977567188965e-02 4.593538376837299486e-01 -8.851670852338174855e-01
1.147135015189723606e-01 8.397587377679051335e-02 -8.020541757213538459e-01 -7.977762852006781147e-02 -4.599750847511757668e-01 8.843406874026903397e-01
6.177276428295487565e-02 -5.181312456468641081e-02 -8.771373829955265711e-01 -7.398163977567188965e-02 -4.593538376837299486e-01 8.851670852338174855e-01
-8.895617782989678757e-02 2.647454664579316011e-02 -8.490916688492072817e-01 -6.956576019180052417e-02 -4.596764767410910224e-01 8.853576349362071163e-01
-6.710208505214665387e-02 1.753104992196940215e-01 -7.699021083024285561e-01 -7.398163977567188965e-02 -4.593538376837299486e-01 8.851670852338174855e-01
7.970518016620813453e-03 1.084074490492644566e-01 -8.005038988903091512e-01 -5.808636541859228952e-01 -3.749419126647793865e-01 7.225067317146973700e-01
3.259547902212883708e-02 -1.015768543334397839e-01 -9.054006838704375948e-01 -7.398163977567188965e-02 -4.593538376837299486e-01 8.851670852338174855e-01
5.389932480855384733e-02 -1.726123664230324040e-01 -9.319807261361428008e-01 7.125577220642292930e-02 4.644448704731541921e-01 -8.827307501262440237e-01
1.001960072643307553e-01 -1.180508328281689584e-01 -8.995848305266818112e-01 -2.420253026173508348e-01 9.281632606229844873e-01 2.827308163654774220e-01
-7.313326588332771938e-02 -9.140386999635653764e-02 -9.089581890873899006e-01 -7.398163977567188965e-02 -4.593538376837299486e-01 8.851670852338174855e-01
7.689676480129803426e-02 7.104376113219965094e-02 -8.034980313110557937e-01 7.398163977567188965e-02 4.593538376837299486e-01 -8.851670852338174855e-01
-6.477430884227680652e-02 3.035315015403091538e-02 -8.364550256843195086e-01 7.398163977567188965e-02 4.593538376837299486e-01 -8.851670852338174855e-01
-1.743064894033451552e-04 -2.044688091268307556e-02 -8.574182714160204499e-01 7.398163977567188965e-02 4.593538376837299486e-01 -8.851670852338174855e-01
-3.655463296499551068e-02 -1.594325992667830760e-01 -9.411828973936841036e-01 -7.186629770586751287e-02 -4.544668336321311397e-01 8.878598607789615071e-01
-1.279006829155933667e-01 -1.155112432475987605e-01 -9.183483479716151310e-01 1.419126325328161353e-01 4.831602004336132405e-01 -8.639542959234339792e-01
-7.164098722400605301e-02 -1.049818018177637591e-01 -9.072604574869763683e-01 7.398163977567188965e-02 4.593538376837299486e-01 -8.851670852338174855e-01
7.037941924392657200e-02 -5.369633099149071637e-02 -8.687761069481487741e-01 7.398163977567188965e-02 4.593538376837299486e-01 -8.851670852338174855e-01
-2.532840569738618874e-03 1.132740294744711274e-01 -8.009455382505337173e-01 4.703284177338842680e-03 -4.606110137626677203e-01 8.875896423001311542e-01
-1.337499085774193353e-01 9.826606381397082202e-02 -8.155179736137516677e-01 -1.647890937858822180e-01 -9.156833881977706202e-01 -3.665630739011751515e-01
4.109391382394172315e-02 7.057279701970528563e-02 -8.089938473816348230e-01 2.425252689971654496e-01 -7.932365651150240504e-01 -5.585313291681772707e-01
1.238817422979645033e-01 -4.018284975236639800e-02 -8.575007844378882416e-01 6.839940450286438600e-02 4.598447750973737036e-01 -8.853611151836856541e-01
5.363193699327811759e-02 -9.672865804639720066e-02 -9.011265199423073025e-01 -7.398163977567188965e-02 -4.593538376837299486e-01 8.851670852338174855e-01
-4.332079155483502947e-02 -1.978991824750353234e-01 -9.613081012689249638e-01 -6.625753790145129385e-02 -4.488529729010136138e-01 8.911458620165162436e-01
3.183383460623229189e-02 -2.382672977439907053e-02 -8.564970123310301497e-01 7.398163977567188965e-02 4.593538376837299486e-01 -8.851670852338174855e-01
1.443686687177204997e-01 -2.487854583306034831e-02 -8.481370481889427548e-01 4.807888610651937789e-02 4.620472803023109587e-01 -8.855510891394094974e-01
-6.910574465695869251e-02 -1.803146891164454368e-01 -9.466945726737022726e-01 9.616667826300599742e-02 4.882361189534886736e-01 -8.673969461216095578e-01
4.499237197933774954e-03 7.685666732364296316e-02 -8.065323816449895267e-01 7.398163977567188965e-02 4.593538376837299486e-01 -8.851670852338174855e-01
5.031594444980550668e-02 4.730660285696007550e-02 -8.266571588561206774e-01 -7.398163977567188965e-02 -4.593538376837299486e-01 8.851670852338174855e-01
-3.138292342029765092e-02 1.543261203906178686e-02 -8.414071494908210713e-01 7.398163977567188965e-02 4.593538376837299486e-01 -8.851670852338174855e-01
-8.445222064581647814e-02 -1.410196771661990645e-01 -9.355104713165809383e-01 -7.398163977567188965e-02 -4.593538376837299486e-01 8.851670852338174855e-01
-1.446504016440960660e-01 -1.032921207306575911e-02 -8.647300514087048473e-01 9.944120935289263441e-02 4.588703633849195440e-01 -8.829209678614651224e-01
1.177538236148742146e-01 -1.044082922540838926e-01 -9.035945031179430931e-01 -1.202472481172604662e-01 -3.531026342975317478e-01 9.278249452199318625e-01
1.019166143726954882e-01 8.304892476156218450e-02 -8.008810736378160211e-01 2.178352032225714385e-01 -9.337142152927638827e-01 -2.841224883693637127e-01
-2.055452840176602916e-02 -1.029375715939649660e-01 -9.019298424300843386e-01 7.398163977567188965e-02 4.593538376837299486e-01 -8.851670852338174855e-01
-4.717448370240018285e-02 -1.044728075926144306e-01 -9.049514239328797505e-01 7.398163977567188965e-02 4.593538376837299486e-01 -8.851670852338174855e-01
7.065358470473501185e-02 -9.515157808933284722e-02 -8.988854434573350094e-01 -7.398163977567188965e-02 -4.593538376837299486e-01 8.851670852338174855e-01
1.889817748476919782e-03 -1.716499039284501427e-01 -9.357150357775749772e-01 7.344867018693659877e-02 4.638178364958474020e-01 -8.828806869538385893e-01
7.335571169655009938e-02 1.511703446296658315e-01 -7.623641877135681755e-01 7.338962201615975567e-02 4.548182363728474065e-01 -8.875552575716162407e-01
-7.653718202614065436e-02 -1.152543866820303076e-01 -9.216103676270012146e-01 -6.836350106086644396e-02 -4.586520712306638714e-01 8.859823414033278777e-01
4.522491765809710101e-02 -1.571984683313137898e-01 -9.332045901859818970e-01 -7.609434746871684974e-02 -4.543223578887388703e-01 8.875814584621105618e-01
-1.291870212223180381e-01 -1.095917203123678990e-01 -9.224042458656934729e-01 -4.803640170170308914e-03 -4.305738201869159232e-01 9.025425809405122068e-01
3.582443279860959839e-02 2.110292544008296467e-01 -7.347107154579011201e-01 6.365754391959702052e-02 4.375796383363709241e-01 -8.969235068920511367e-01
-1.348453417968879103e-02 -5.943858294640032292e-02 -8.873845352771723149e-01 -7.398163977567188965e-02 -4.593538376837299486e-01 8.851670852338174855e-01
-8.396389227021117813e-03 8.482390840048707747e-02 -8.023516035835559501e-01 5.807668498101143939e-01 3.749737274378065477e-01 -7.225680382448655958e-01
6.532267048225745554e-02 9.306914116999130682e-02 -8.016546252497804836e-01 -7.398163977567188965e-02 -4.593538376837299486e-01 8.851670852338174855e-01
-5.455886554514905590e-02 1.375649118101678232e-02 -8.528332146021729843e-01 -7.398163977567188965e-02 -4.593538376837299486e-01 8.851670852338174855e-01
-3.109483457711838608e-02 -1.276859328010992167e-01 -9.156538545788884820e-01 7.398163977567188965e-02 4.593538376837299486e-01 -8.851670852338174855e-01
-3.951670622721736165e-02 1.562300018878749197e-01 -7.727834323414964901e-01 -2.290187550293079910e-01 -8.157207959026616662e-01 -5.311779296777622283e-01
-4.894081239184369138e-04 -2.169925058192855305e-01 -9.599786727139619780e-01 7.848916281805884410e-02 4.861268171564547269e-01 -8.703563459649473755e-01
-3.775922475359708760e-03 -3.053580725365780957e-01 -1.002049141071221561e+00 1.523257684299560433e-01 4.552408748711759823e-01 -8.772414753753664529e-01
3.334161013240180549e-02 -1.233829051177098568e-01 -9.080352634298879400e-01 7.398163977567188965e-02 4.593538376837299486e-01 -8.851670852338174855e-01
-5.379635527909440787e-03 -9.855565808848221199e-02 -9.101886052865625354e-01 4.543930131248016813e-01 -4.103174368427917607e-01 7.906747691978829318e-01
-1.453147047227247857e-01 1.128325605086584749e-01 -8.080221740983017931e-01 6.292350560137351112e-02 -5.036950228903719351e-01 8.615868826521803081e-01
-1.614331091291317521e-01 -1.157384511488364180e-02 -8.678290035371363231e-01 2.547625411008525576e-01 4.598742010157366167e-01 -8.506537291354069330e-01
7.102598128271586653e-02 -9.050165413215656429e-02 -8.964412597995334853e-01 -7.398163977567188965e-02 -4.593538376837299486e-01 8.851670852338174855e-01
6.188219499650704503e-03 -2.178911684323692755e-01 -9.572466029692361378e-01 -4.542870766012354622e-01 4.103423238018630848e-01 -7.907227259475916314e-01
-1.392199841430630074e-02 -3.422720177825341187e-02 -8.783569415013481319e-01 -1.045903993638481050e-01 -5.499311001538284005e-01 8.286354044116813755e-01
4.226245065135793288e-02 -1.132919168596629167e-01 -9.020529888057403634e-01 7.398163977567188965e-02 4.593538376837299486e-01 -8.851670852338174855e-01
4.436991197043692325e-02 -1.691815013831630271e-02 -8.518640767000655867e-01 7.398163977567188965e-02 4.593538376837299486e-01 -8.851670852338174855e-01
6.015387716006481006e-02 -1.415958433455739678e-02 -8.577325377751598978e-01 -7.398163977567188965e-02 -4.593538376837299486e-01 8.851670852338174855e-01
1.206043306425346462e-01 1.208812366159758844e-01 -7.822967258114623679e-01 -8.386082158970967204e-02 -4.615492060939051511e-01 8.831419438325781579e-01
-5.839764030506293391e-02 1.486142868703025921e-01 -7.764197558163231649e-01 2.450974885625519795e-01 9.210480705530881274e-01 3.026510743922167235e-01
-5.890927094354661553e-02 1.584773689472298852e-01 -7.822568618628543691e-01 -3.725877284112091153e-02 -3.408637110785204261e-01 9.393741077526849281e-01
1.127980805981389084e-01 -7.708169857662013069e-02 -8.775341416120282512e-01 6.795156229448116869e-02 4.607350450396067720e-01 -8.849326547563328704e-01
1.302943481994829900e-01 5.663885910372814386e-02 -8.148725943271691863e-01 -7.945067662079689785e-02 -4.598490380288673407e-01 8.844356687789242111e-01
3.134272691127437671e-02 2.016131578816764414e-01 -7.397903844949506036e-01 7.204877910931110907e-02 4.552939254928355384e-01 -8.874212161303008939e-01
-1.410351608133985912e-01 -6.704042440425683758e-02 -8.940000029108775559e-01 1.022263903069906138e-01 4.645132033873710653e-01 -8.796460930417446811e-01
6.496742392939008903e-02 -1.208019977951230450e-01 -9.001864813083371164e-01 1.053878943294562082e-01 3.588325775368899073e-01 -9.274333253808789701e-01
-1.046876222043083282e-02 2.113294933755776317e-01 -7.463828337833323667e-01 -7.326377395047437013e-02 -4.632034165235403567e-01 8.832185541231872827e-01
-8.255853807949072032e-02 -9.653069004232138484e-02 -9.123835277796435994e-01 -6.870936422151667500e-02 -4.583487790315785571e-01 8.861125323730256742e-01
-1.404051342646722017e-02 5.321271196512343538e-02 -8.289710749894639852e-01 -7.398163977567188965e-02 -4.593538376837299486e-01 8.851670852338174855e-01
1.094906542612228278e-01 -1.257371065722306114e-01 -9.112555352232768469e-01 -8.128682659218408602e-02 -4.565147436215657439e-01 8.859947746339751351e-01
1.547232921169002240e-01 3.802941668391893876e-02 -8.221306411205354658e-01 -1.226431734925054612e-01 -4.608010724646123824e-01 8.789886367929624633e-01
1.295714667965849626e-03 1.823456026906416227e-01 -7.605875469094991459e-01 -7.419247160265585173e-02 -4.622908497137857009e-01 8.836190623953261714e-01
1.241946095903802838e-01 2.822500601092638173e-02 -8.219732369855311527e-01 6.868276559804736836e-02 4.592485130663125359e-01 -8.856486216080194929e-01
-6.315675522535496578e-02 5.575956777048017565e-02 -8.317544953863391655e-01 -7.398163977567188965e-02 -4.593538376837299486e-01 8.851670852338174855e-01
2.464204226670954363e-03 4.210555149129806274e-02 -8.211881536001282011e-01 -4.822472257738710105e-03 4.606107522779265273e-01 -8.875891384234522175e-01
3.095405010155727679e-03 -2.083655071125739278e-01 -9.549316195624959480e-01 7.301931211474481376e-02 4.651181545593789379e-01 -8.822319889675092064e-01
7.749978344053772917e-05 1.868514524960575574e-01 -7.583323751249193556e-01 -7.376998920391003578e-02 -4.623052862653999062e-01 8.836468813864063465e-01
5.915248088879709182e-02 1.716599105137747022e-02 -8.329407343980950174e-01 7.398163977567188965e-02 4.593538376837299486e-01 -8.851670852338174855e-01
7.675462850030486187e-03 -3.964465681452117862e-01 -1.051772400586070466e+00 -9.729355059665998340e-01 1.859600061043830688e-01 -1.371691560051827852e-01
3.064837439576625217e-02 2.054015377767531292e-01 -7.460147226338127435e-01 -7.590385594339386921e-02 -4.633837536825389236e-01 8.829009579086460890e-01
4.681068380221770076e-02 -1.175264614640576244e-01 -9.165726399038912620e-01 -4.454478372082742305e-02 -5.537366485611889821e-01 8.314995407596368349e-01
-6.568349158355341229e-03 -1.853664067689003991e-01 -9.545555461417256637e-01 4.543930131248016813e-01 -4.103174368427917607e-01 7.906747691978829318e-01
-9.706302704852728946e-02 1.856542261784979164e-01 -7.595775556834144515e-01 1.549960542629874871e-01 3.968036125728813257e-01 -9.047226736475747488e-01
-1.541276095450810624e-01 1.372014945500425916e-02 -8.533318917558830874e-01 1.225587654162245549e-01 4.561218926501503512e-01 -8.814375576663929790e-01
7.479131217809313614e-02 -9.726218503211256361e-02 -8.910156857803694930e-01 7.398163977567188965e-02 4.593538376837299486e-01 -8.851670852338174855e-01
-1.355221100393818878e-01 6.405758045418018243e-02 -8.251985684716079961e-01 9.890756610158163431e-02 4.552113196925253735e-01 -8.848728427246768113e-01
8.426922250725177310e-02 8.632346822235689721e-02 -7.949776404184910605e-01 6.943289359819758422e-02 4.590366676394512235e-01 -8.856999554301951960e-01
-1.035488068704703696e-01 -1.452989504408758181e-02 -8.592807577574141931e-01 3.725632854128541060e-02 3.595783749068748314e-01 -9.323708265936654360e-01
8.742183575433723486e-02 1.375466260727383483e-01 -7.682162101623820627e-01 6.878527874529286046e-02 4.583047576671702150e-01 -8.861294118398106434e-01
4.231054699799251945e-02 -4.816817545159325642e-02 -8.768724899388814498e-01 -7.398163977567188965e-02 -4.593538376837299486e-01 8.851670852338174855e-01
-1.618966236730664254e-01 -1.626360653346384244e-02 -8.719236213760622745e-01 9.932408976942929124e-01 4.566385171035124146e-02 1.067114417221057682e-01
-2.551592147299200711e-02 1.023169667062106269e-01 -7.958285091994224958e-01 7.398163977567188965e-02 4.593538376837299486e-01 -8.851670852338174855e-01
-1.547688411741368342e-01 -5.481864230523829547e-03 -8.634152721275571984e-01 1.232234308191361843e-01 4.583533313016904809e-01 -8.801864630757533225e-01
-7.098100431551174205e-02 -1.792206861085564318e-01 -9.538305852667101625e-01 -3.915564148987472209e-02 -4.275316441469250162e-01 9.031519966165957314e-01
-1.484572049329688781e-01 -5.270118896019591187e-02 -8.873595854534033212e-01 1.275967417826792127e-01 4.645384498621672464e-01 -8.763122161000036492e-01
-9.681500964800986153e-02 6.365682429976696199e-02 -8.219180402046915024e-01 7.853312829415659557e-02 4.587452113186651359e-01 -8.850906048832101192e-01
-4.492549605240682420e-03 -2.400428335492825749e-01 -9.841221987232590118e-01 4.542880286465817985e-01 -4.103376613962103625e-01 7.907245984970314723e-01
-1.061237217250629722e-01 1.670730984921169060e-01 -7.695857443527688302e-01 1.045460709149951400e-01 4.454730172862915172e-01 -8.891703492166642686e-01
-7.554009659185584313e-02 4.839897063438335090e-02 -8.366092380829346364e-01 -7.398163977567188965e-02 -4.593538376837299486e-01 8.851670852338174855e-01
-1.162698868272757369e-01 9.304488018419088124e-02 -8.122979446117825075e-01 -2.126255080458934743e-01 -7.733019522687369918e-01 -5.973227636258185980e-01
1.573807990550333824e-01 -1.856252417721813638e-02 -8.442905383043066703e-01 2.455855216701821955e-02 4.617247868165295643e-01 -8.866832008979814717e-01
-3.769129195142696676e-02 -3.835004794631915320e-02 -8.662365487093762750e-01 9.058969644424896828e-02 5.230338367185437543e-01 -8.474839895511999677e-01
9.746335799507888781e-03 -1.236995755978775452e-01 -9.230411377247854654e-01 -7.035472396222060276e-02 -4.919813250168994512e-01 8.677583699687463348e-01
9.520743639703035943e-02 -1.144662328236934340e-01 -8.942925879304834957e-01 1.066187807676029775e-01 3.553884066752561743e-01 -9.286180678774522690e-01
-6.967744159412718463e-02 7.044526348564242313e-02 -8.123909265301609839e-01 9.721396259487583014e-02 5.547982030037368339e-01 -8.262859065846558382e-01
4.454858310809164945e-02 -6.475961133244981238e-02 -8.766762740609476134e-01 7.398163977567188965e-02 4.593538376837299486e-01 -8.851670852338174855e-01
-8.224751681182559991e-04 -2.052719310051896728e-01 -9.662625381575612460e-01 4.822472257738723983e-03 -4.606107522779265273e-01 8.875891384234522175e-01
-2.136967801420400909e-02 3.467011296678738919e-02 -8.392062472818334617e-01 -7.398163977567188965e-02 -4.593538376837299486e-01 8.851670852338174855e-01
-5.448880727800103213e-02 -3.464803034943410992e-02 -8.722213181054488951e-01 2.907786810733875016e-01 9.060341885310740917e-01 3.074895247745187965e-01
-1.196246804793153762e-01 1.462319454377327410e-01 -7.815379938664984705e-01 1.033138354265747405e-01 4.465643072281779702e-01 -8.887668822133667490e-01
-7.635733992443584361e-02 -1.374092754568727592e-01 -9.245739422115747397e-01 7.607151791368056692e-02 4.639144917463760565e-01 -8.826077659470314973e-01
8.810262779963848323e-02 -8.274528359764016239e-02 -8.824029237296405759e-01 6.912064503905447632e-02 4.603025595526636371e-01 -8.850671669984441214e-01
8.459081624424805157e-02 2.699242647409848608e-02 -8.343344480095044036e-01 -7.398163977567188965e-02 -4.593538376837299486e-01 8.851670852338174855e-01
-9.370294753229438389e-03 -1.438028398977265199e-01 -9.262817634774630493e-01 9.854316680525815331e-01 7.833782480885621846e-02 -1.509556650256081156e-01
1.620461869267902644e-01 8.611057984280821864e-03 -8.303475903079670095e-01 -1.045540445952474889e-01 4.535987443502123018e-01 -8.850517673462302559e-01
-1.312486843501579903e-01 9.701802187699339053e-02 -8.078124177651370141e-01 1.011470832300079975e-01 4.531904313967922704e-01 -8.856566492972608451e-01
-1.593608035939413428e-02 -1.225469582492684784e-01 -9.246062798308055664e-01 -7.732248848002117037e-02 -4.913832947250657002e-01 8.675042884276690236e-01
1.229243619985995878e-01 8.181869499401185630e-02 -8.062465610954971940e-01 -1.165541634113345798e-01 -3.589821044407318640e-01 9.260383230097918306e-01
5.581953811722621672e-02 1.938948924651727190e-01 -7.498933679393647855e-01 -7.567241214404302196e-02 -4.644934489567581481e-01 8.823375328730823641e-01
5.219307167289634342e-02 -1.240585661787211857e-01 -9.029025778889518961e-01 1.057216960200845074e-01 3.587949917775891118e-01 -9.274098753334236722e-01
5.937687069192412043e-02 -1.153074134283314789e-01 -9.144216750364148050e-01 -4.454478372082742305e-02 -5.537366485611889821e-01 8.314995407596368349e-01
7.314372974492774210e-03 -3.735957914446577099e-01 -1.038853174120307310e+00 -4.553129268479786940e-01 4.157244804553375528e-01 -7.873139748507369529e-01
1.474360504892034129e-01 9.894766413280930983e-02 -7.847426363317344666e-01 -1.075501305420558940e-01 3.979277109928637812e-01 -9.110908331469298460e-01
6.935111759322774849e-02 1.435877749797933589e-01 -7.750087127116395136e-01 -7.384230009007157480e-02 -4.627435763890200282e-01 8.834113974972854777e-01
9.059791601150966878e-02 8.406501303400167047e-02 -7.956526999442582460e-01 6.922961385917948685e-02 4.588328216529135584e-01 -8.858214844645249109e-01
-8.955916660527495077e-02 -1.240021004196779630e-01 -9.271352945703714710e-01 -6.809764666805231959e-02 -4.579391470640564732e-01 8.863715068212186798e-01
-8.211903665440377365e-02 1.914696866443435508e-01 -7.625693120871553932e-01 -5.529039785550597663e-02 -4.709870153499481904e-01 8.804057037961121601e-01
-6.397399409141171778e-02 -1.085137500393827253e-01 -9.210252655684343370e-01 -1.024822693641869037e-01 -5.517568796894617433e-01 8.276845595885639062e-01
4.058185143221158635e-03 1.892753682685509309e-01 -7.609151867390779866e-01 -1.522079688160643263e-01 -4.552492344094473675e-01 8.772575840643955791e-01
9.588624668126474737e-03 -9.579228159639303908e-02 -9.043217001498876639e-01 -7.398163977567188965e-02 -4.593538376837299486e-01 8.851670852338174855e-01
3.084663283655196542e-02 5.717924472403650149e-02 -8.231610230610926227e-01 -7.398163977567188965e-02 -4.593538376837299486e-01 8.851670852338174855e-01
-2.666464414476485759e-02 1.617666193171270889e-02 -8.406266773936706960e-01 7.398163977567188965e-02 4.593538376837299486e-01 -8.851670852338174855e-01
-1.332528502725961461e-01 1.793216413526953603e-03 -8.638933908876359480e-01 -2.800663758906088430e-01 -9.114252934127521355e-01 -3.014411379075173092e-01
5.367519184292308954e-02 6.462166405844514683e-02 -8.049178929412506012e-01 4.977894706963818111e-02 5.564190943165708836e-01 -8.294093367623525115e-01
9.448729674581639315e-02 9.431781766071478668e-02 -7.984868491642613808e-01 -7.875362971743958551e-02 -4.598664649461562393e-01 8.844889486162357262e-01
-1.569678458285851119e-01 1.786012029736581269e-02 -8.585830261083772230e-01 -2.522813510105731058e-02 -4.614906409168714752e-01 8.867862930523104925e-01
-1.510989306160516743e-01 5.398823959969308028e-02 -8.395547026159313475e-01 -2.514194254343966525e-02 -4.641327652338891330e-01 8.854087524762143113e-01
1.194573611154788606e-01 -8.758955654558160664e-02 -8.906500013715419328e-01 -8.022293383206946515e-02 -4.581186635627748083e-01 8.852635601801491783e-01
-5.821327506926987638e-02 -6.429447472397167851e-02 -8.850236568449029173e-01 7.398163977567188965e-02 4.593538376837299486e-01 -8.851670852338174855e-01
-3.459567965950193641e-02 2.325777724047877748e-01 -7.304555780611554638e-01 1.808071629233722888e-01 2.888251943370041541e-01 -9.401535922134174328e-01
1.621105496211344144e-01 1.732026864670668104e-02 -8.317274123856088774e-01 -2.073019893124162794e-01 -4.534201460070754197e-01 8.668541148440361832e-01
-7.157458396444621451e-02 1.976760817097126810e-01 -7.585258363558219363e-01 -5.954000482393130567e-02 -4.823761183778392803e-01 8.739383663876391095e-01
-2.803917091414467183e-02 6.884442243547643503e-02 -8.220290606951817791e-01 -7.398163977567188965e-02 -4.593538376837299486e-01 8.851670852338174855e-01
-7.417345362945151899e-02 -1.833471332272020582e-01 -9.491685535542099261e-01 1.427623630519198605e-01 5.346742517345107748e-01 -8.329119714759615212e-01
-6.585278513592419426e-03 3.858254841844064274e-03 -8.563484529786602462e-01 4.543930131248016813e-01 -4.103174368427917607e-01 7.906747691978829318e-01
1.247143297481060481e-01 -2.596943231672641655e-02 -8.582596218273866873e-01 -7.946621124220613896e-02 -4.587891353782344583e-01 8.849845481869732522e-01
4.546474600013369199e-02 2.251150184386812025e-01 -7.291657190215549145e-01 -5.703462029838076708e-01 -7.086210478801575618e-01 -4.154051266452795099e-01
-9.458139575764775223e-03 -2.607635273280954971e-02 -8.659945516818771116e-01 9.474118902527058905e-01 -1.545997653370058955e-01 2.801956865576938349e-01
9.145534896909400524e-02 1.562477955748336200e-01 -7.583202928365154749e-01 6.318299440349973983e-02 4.522680293423568254e-01 -8.896412416547404556e-01
9.167993450136402434e-02 3.588880334281404488e-02 -8.290939066389279022e-01 -7.839606633071929953e-02 -4.593747383237688497e-01 8.847761901033721621e-01
3.966443242757145167e-03 1.996328823388775764e-01 -7.394481517013613558e-01 -4.822472257738717911e-03 4.606107522779264718e-01 -8.875891384234521064e-01
-9.161990745806461445e-02 -6.526801373057504463e-02 -8.968933474170643905e-01 -6.922454938520064549e-02 -4.591499331377510429e-01 8.856575527042123142e-01
-1.042622315480879608e-01 6.020829133643693098e-02 -8.327762848657133121e-01 -6.940779749725921322e-02 -4.599554878043231598e-01 8.852251165015974088e-01
-4.224263209941377800e-02 -4.364757919916358031e-02 -8.815934399949898470e-01 -7.398163977567188965e-02 -4.593538376837299486e-01 8.851670852338174855e-01
-1.489566432721314004e-01 -7.555113203496550967e-02 -9.050636625199682817e-01 9.627491916420997109e-01 1.985817981479715000e-01 1.835191091870318203e-01
-2.826998201959814508e-02 5.292158481988850673e-03 -8.464093189363514069e-01 7.398163977567188965e-02 4.593538376837299486e-01 -8.851670852338174855e-01
-3.792275224541973716e-02 5.688372961203545797e-02 -8.290620760517156684e-01 -7.398163977567188965e-02 -4.593538376837299486e-01 8.851670852338174855e-01
-1.352656479142083090e-01 4.962455933680748332e-02 -8.406855784366015216e-01 -6.863293791640970309e-02 -4.598841552367218810e-01 8.853225873065527773e-01
1.420577586956238703e-01 -7.220237920185983149e-02 -8.806029589523449719e-01 -8.343579972061521133e-02 -4.568941801887945187e-01 8.855993312071722690e-01
-6.475354185244999727e-02 6.184489221079016857e-02 -8.201107792856212608e-01 7.398163977567188965e-02 4.593538376837299486e-01 -8.851670852338174855e-01
-6.716044702204485017e-02 2.540757173398282623e-02 -8.478401652926493837e-01 -7.398163977567188965e-02 -4.593538376837299486e-01 8.851670852338174855e-01
3.934287037082722510e-02 -1.842308921145362766e-01 -9.475354887841088702e-01 -7.726597692537877371e-02 -4.527627863148810383e-01 8.882768870899165892e-01
-1.396174394893133497e-01 1.113875560952648502e-01 -8.015147881597270985e-01 1.254044452342556459e-01 4.400200275175059073e-01 -8.891884504979707948e-01
-7.040098747790392297e-02 1.427959169037230081e-01 -7.871273827851912319e-01 -7.411989990761144731e-02 -4.627340905877039834e-01 8.833931185183956369e-01
7.889302987437435410e-02 -1.208118740056649681e-01 -9.079817809195965816e-01 -2.660030249741230923e-01 7.841044160062771162e-01 5.607340327678278502e-01
7.246703000547707885e-02 -7.026866442825271952e-02 -8.772017705551818922e-01 7.398163977567188965e-02 4.593538376837299486e-01 -8.851670852338174855e-01
-3.422974618448350759e-03 -2.928676723787508318e-01 -9.955060125142823901e-01 1.523257684299560433e-01 4.552408748711759823e-01 -8.772414753753664529e-01
