4.810174635402459341e-03 -2.135399883961644207e-01 -9.082795523213473832e-01 -5.453316431142237741e-01 4.277866314373600098e-01 -7.208411732010160389e-01
-6.674734419211467151e-02 -2.141177055842478916e-02 -7.538310112472135227e-01 5.440831272026255272e-01 -4.193621340227718375e-01 7.267110507218660365e-01
8.778775591513247878e-02 1.743995939126417316e-01 -7.463285976085032303e-01 -5.503570605582277508e-01 4.143103974735972139e-01 -7.248820596752119094e-01
6.045137718743742034e-02 -8.473360560551773668e-02 -8.751061836729041588e-01 -5.440831272026255272e-01 4.193621340227718375e-01 -7.267110507218660365e-01
-7.794710902854642964e-02 -4.233780457399348440e-02 -7.622899603140598224e-01 5.644266488114849656e-01 -3.133099153476523457e-01 7.637142496092916844e-01
-1.726276957527839509e-02 4.483024670468051948e-02 -7.421549515434556765e-01 -5.440831272026255272e-01 4.193621340227718375e-01 -7.267110507218660365e-01
-4.912004503899830565e-02 -1.085302643367415526e-01 -8.173017861381015603e-01 5.440831272026255272e-01 -4.193621340227718375e-01 7.267110507218660365e-01
-6.848496032729507743e-02 8.956686598027431556e-02 -6.884695405172098770e-01 5.484627068552399010e-01 -4.185958146862597817e-01 7.238550981489110248e-01
3.653902636825234057e-02 1.065394495012329523e-01 -7.468255099574168110e-01 -5.440831272026255272e-01 4.193621340227718375e-01 -7.267110507218660365e-01
-2.329649332121249902e-02 1.801556296037234994e-01 -6.698664890351089252e-01 5.449801462114922668e-01 -4.230447458841509190e-01 7.238990145145349775e-01
1.265133609866804787e-01 2.508302575986615449e-02 -8.707769833918083124e-01 5.005796553387494852e-01 -4.289128071615935234e-01 7.519666299203049409e-01
7.819780219971711466e-02 1.841710407679456041e-01 -7.458003666702589518e-01 3.344202573337866635e-01 -4.480430318510966181e-01 8.291082758569481292e-01
-6.922262486555103012e-02 2.328249500860093968e-03 -7.382781668091311644e-01 5.440831272026255272e-01 -4.193621340227718375e-01 7.267110507218660365e-01
-1.238189504474669217e-01 -7.674372296286036121e-02 -7.330427137373392021e-01 -5.367809592423911091e-01 4.223475623769062937e-01 -7.304031341314903836e-01
7.163157076641280853e-03 -1.494105694961184172e-01 -8.830313392799522543e-01 5.440831272026255272e-01 -4.193621340227718375e-01 7.267110507218660365e-01
-1.097704377350877669e-02 1.393899869624404264e-01 -7.027921716768862348e-01 5.440831272026255272e-01 -4.193621340227718375e-01 7.267110507218660365e-01
4.784513958373935727e-02 -1.665443024409009598e-01 -9.132020038113843885e-01 -5.476960723108568185e-01 4.246108282729482153e-01 -7.209262492714644255e-01
1.135163944328120705e-01 1.165022954511399838e-04 -8.661917836731809484e-01 -5.486901677837499047e-01 4.182211685261793543e-01 -7.238992705991887933e-01
9.121011341999436806e-02 2.242841849754593359e-02 -8.364155265028769826e-01 -5.478178314951573924e-01 4.182189611675262708e-01 -7.245609180848070485e-01
-3.348160824422699577e-02 1.325663507969730148e-01 -6.742196473306684146e-01 -5.440831272026255272e-01 4.193621340227718375e-01 -7.267110507218660365e-01
3.090332076185830102e-03 1.663062955462860926e-01 -6.873548636258005606e-01 -5.442578415742098663e-01 4.164267120026030056e-01 -7.282665689262988185e-01
2.386929241068948271e-02 -1.952035539357144522e-01 -9.209223222934977970e-01 5.090289268794089272e-01 -3.706443491030414483e-01 7.768605525304913550e-01
-1.252201781855854790e-01 1.345113167078708545e-02 -6.891890294957843111e-01 5.651713710698460513e-01 -4.141891576438355704e-01 7.134624468136501196e-01
6.176316670916220941e-02 -3.446652731578390971e-02 -8.575793596830818544e-01 5.440831272026255272e-01 -4.193621340227718375e-01 7.267110507218660365e-01
6.150691575227326680e-02 2.173447381986187144e-01 -7.023196577706163346e-01 -5.780572123131823004e-01 3.649422938864398391e-01 -7.298403807858375725e-01
-2.075350698645656022e-02 2.458824451011161483e-02 -7.617210884505067892e-01 5.440831272026255272e-01 -4.193621340227718375e-01 7.267110507218660365e-01
-8.158426479461463460e-03 1.269204418166047510e-01 -7.155645513584174555e-01 8.936920975649871313e-01 -2.242582869842822679e-01 3.886163345367372735e-01
-3.923669588581014250e-02 -2.676905502343918455e-02 -7.670209466392238218e-01 -5.440831272026255272e-01 4.193621340227718375e-01 -7.267110507218660365e-01
-7.864933583007677198e-02 7.671632828812184612e-02 -6.779230016025272754e-01 -5.400931004179156947e-01 4.197419360967919455e-01 -7.294629188400737485e-01
2.810716108132009158e-02 1.685412814815763494e-01 -7.047799800189853414e-01 -5.448596074404598033e-01 4.159532847891708740e-01 -7.280871328714215718e-01
6.150874137109384882e-02 1.102028694195119340e-01 -7.634061041528461544e-01 -5.440831272026255272e-01 4.193621340227718375e-01 -7.267110507218660365e-01
-2.324805070514707542e-02 -1.076636564876409241e-01 -8.256732606892696058e-01 -5.440831272026255272e-01 4.193621340227718375e-01 -7.267110507218660365e-01
-8.517807118146642278e-03 -2.761570070364409435e-02 -8.038527742720634750e-01 8.932315982339062987e-01 -2.283734566752951556e-01 3.872762272625043245e-01
3.237431403343599134e-02 1.033485118940173503e-01 -7.560474127849741155e-01 5.440831272026255272e-01 -4.193621340227718375e-01 7.267110507218660365e-01
2.620505305993636735e-02 -1.579575505209655784e-02 -8.201829494522824282e-01 5.440831272026255272e-01 -4.193621340227718375e-01 7.267110507218660365e-01
4.639817168003890907e-02 1.707048271830616248e-01 -7.275893158376409708e-01 5.391878232252860226e-01 -4.218948853152817979e-01 7.288903875277701339e-01
5.298878607154721559e-02 3.169751846491036112e-02 -8.023302509061209786e-01 -5.440831272026255272e-01 4.193621340227718375e-01 -7.267110507218660365e-01
6.450133355296650862e-03 4.325819642896579220e-02 -7.713144073118592958e-01 5.440831272026255272e-01 -4.193621340227718375e-01 7.267110507218660365e-01
-9.478962721368705546e-02 -9.864261354282023719e-02 -7.671191154929531963e-01 -5.391637348138096364e-01 4.215468095802437642e-01 -7.291095626820031095e-01
7.432866924788296414e-02 5.451277304339765400e-02 -8.156079871882065957e-01 5.403800857617937492e-01 -4.207277808250075579e-01 7.286820276047303313e-01
4.001946722385093386e-02 -9.819452967318394176e-02 -8.728269188022025338e-01 2.992717893372580651e-01 -8.283073570717254253e-01 -4.736489399626360730e-01
5.095198488018744254e-02 -1.278687034073973661e-01 -8.929688961569401950e-01 -5.491086773672007038e-01 4.183962300180402716e-01 -7.234806529180547452e-01
-8.095653137129600607e-03 -7.749752890470361366e-02 -8.254847230003836689e-01 9.459307853777678687e-01 1.621249172787375681e-01 -2.809456539474528558e-01
-9.431849875702677521e-02 9.438615411776646313e-02 -6.561979134879546427e-01 -5.387645940712010306e-01 4.190852429295179871e-01 -7.308216412600280210e-01
-1.042596075420604562e-01 4.684191245689003219e-02 -6.714627205755424599e-01 -5.495599101767182360e-01 3.136077421044284330e-01 -7.743604388259514026e-01
9.810764820094991512e-03 1.790247367401201495e-01 -6.953844534071148553e-01 5.433999451349247334e-01 -4.225221741151810595e-01 7.253905927211503624e-01
4.664151862608482274e-02 1.392756929846790670e-01 -7.459963412066951127e-01 5.441954402155898540e-01 -4.226127890857692138e-01 7.247411630021489692e-01
-9.734883634387644924e-02 -1.348677927554615408e-01 -7.960978872411382801e-01 5.499335021755791253e-01 -4.159299363146236606e-01 7.242757977885329046e-01
1.044066495694724872e-01 1.255229853457790201e-01 -7.869890575789867393e-01 -5.489511556324118136e-01 4.169667169558505804e-01 -7.244248654490673678e-01
8.121133836568099340e-02 7.801945666842136085e-02 -7.967930036164608820e-01 -5.478180113116961625e-01 4.178499541437567522e-01 -7.247736490136482690e-01
5.973220872274804909e-03 8.312659867185656637e-02 -7.374519412665483387e-01 -5.440831272026255272e-01 4.193621340227718375e-01 -7.267110507218660365e-01
-3.378702835257176712e-02 -1.863183848173180501e-01 -8.734694860420434415e-01 5.468434332482399185e-01 -4.121117529321846051e-01 7.287840301546405497e-01
2.374492228751167930e-02 -2.929607806911960557e-02 -8.156330786744976358e-01 -5.440831272026255272e-01 4.193621340227718375e-01 -7.267110507218660365e-01
8.635723763592137447e-02 -6.921600080885234596e-02 -8.939503276713861579e-01 3.012302056350932844e-01 -8.263740920835536130e-01 -4.757795951342614349e-01
-6.533121128510629982e-02 1.642391901528038323e-02 -7.330574706683593567e-01 5.440831272026255272e-01 -4.193621340227718375e-01 7.267110507218660365e-01
-2.715060355257831182e-02 -1.415389259204789529e-01 -8.527984049994692395e-01 5.440831272026255272e-01 -4.193621340227718375e-01 7.267110507218660365e-01
-3.603116162200876299e-02 -1.669000564589706928e-02 -7.636046031739407436e-01 -5.440831272026255272e-01 4.193621340227718375e-01 -7.267110507218660365e-01
1.284416977029168572e-01 1.310556771505333451e-01 -8.028952869338217280e-01 -6.541814060878917703e-01 3.458995694379730090e-01 -6.726069995112257116e-01
1.674231858376423396e-02 -6.190075333989964596e-02 -8.292054162207352919e-01 -5.440831272026255272e-01 4.193621340227718375e-01 -7.267110507218660365e-01
1.097607989652585464e-01 7.092355476228580369e-02 -8.224817808375052275e-01 -5.485744218435659736e-01 4.175521712635777982e-01 -7.243730309530228562e-01
-3.163526459562927828e-02 5.508981706115698845e-02 -7.215511029342948079e-01 -5.387764074366828693e-01 -2.745890489898011322e-01 -7.964426137296385377e-01
2.231212734679327223e-02 1.440788604465211876e-02 -7.893401701119924230e-01 -5.440831272026255272e-01 4.193621340227718375e-01 -7.267110507218660365e-01
-1.170990095222804450e-01 -5.151055524289081811e-02 -7.195369628548042851e-01 -2.351266723518306290e-01 9.127281896739468658e-01 -3.341297647969644902e-01
9.511853196725034154e-02 1.680912810244877542e-01 -7.651392582952302179e-01 5.239551708265393071e-01 -4.371474606530163509e-01 7.310082602876329938e-01
5.403864178523631878e-02 -8.843118051176916683e-02 -8.874061116703558794e-01 5.674039688582768193e-01 -5.021087199920936106e-01 6.526404595424475374e-01
1.584661704828128166e-03 1.539950290901157537e-01 -7.037689152736601450e-01 5.440831272026255272e-01 -4.193621340227718375e-01 7.267110507218660365e-01
6.613402580515925777e-02 9.702300882971014173e-02 -7.849733056789287566e-01 5.440831272026255272e-01 -4.193621340227718375e-01 7.267110507218660365e-01
3.219665822821853735e-02 2.130541013124010678e-03 -8.038255148373765202e-01 -5.440831272026255272e-01 4.193621340227718375e-01 -7.267110507218660365e-01
4.321465543501376572e-02 -1.779064667393518567e-02 -8.350754121911543315e-01 -1.424043309218808728e-01 6.712892840459051547e-01 7.273869009405019570e-01
-1.778326785029506196e-02 2.213897404644895039e-01 -6.495230551717428025e-01 5.519449007333571133e-01 -4.344383515125825324e-01 7.117725376055713538e-01
1.234168224378139195e-01 1.134092412191537724e-01 -8.084070211284193341e-01 -5.512833049748757652e-01 4.158214596120184958e-01 -7.233112963186104638e-01
3.162682787183373340e-02 -1.044765111779406563e-01 -8.649184702594030494e-01 -5.440831272026255272e-01 4.193621340227718375e-01 -7.267110507218660365e-01
-1.078197053734723798e-01 5.254610639119393356e-02 -6.800803972730213864e-01 5.486388871425966762e-01 -4.188605399914951399e-01 7.235683931412193459e-01
3.333009240923984207e-02 -5.835656012570121509e-02 -8.500779176248794977e-01 5.440831272026255272e-01 -4.193621340227718375e-01 7.267110507218660365e-01
4.592647370444108423e-02 1.442258911063576121e-01 -7.321303868065742737e-01 -5.489323754754680262e-01 4.172910281496142182e-01 -7.242523351572279777e-01
1.044015932381996831e-01 9.196460112725957092e-02 -8.162592115443479956e-01 5.395921866975211811e-01 -4.213210729779364727e-01 7.289230587103883163e-01
-7.940253542313047141e-02 -7.649416114694326807e-02 -7.657180078902711129e-01 -5.402418267636323046e-01 4.207903463197482097e-01 -7.287484154762875477e-01
-1.953065397374233528e-02 -2.038258898322901358e-01 -8.940041279306335520e-01 5.560923700036893846e-01 -3.880920517026581473e-01 7.349461445772073054e-01
-1.525415568533921261e-02 1.839248154645287681e-01 -6.737183799896447889e-01 5.449801462114922668e-01 -4.230447458841509190e-01 7.238990145145349775e-01
2.480438417405711124e-02 8.189343618173824946e-02 -7.522623117168928397e-01 -5.440831272026255272e-01 4.193621340227718375e-01 -7.267110507218660365e-01
8.748151686857387824e-03 1.239465587881622838e-01 -7.123075634086876162e-01 -9.018226510233822157e-01 2.286614873850990881e-01 -3.666467377299204577e-01
-6.314336594076263263e-03 4.630262625238047713e-02 -7.600008992723136236e-01 5.440831272026255272e-01 -4.193621340227718375e-01 7.267110507218660365e-01
-4.423986949919926984e-03 -3.440505282432026468e-01 -9.748073196369726467e-01 6.776107528672064007e-01 3.675758050034642066e-01 -6.369707176745199595e-01
2.113022906183975591e-02 -5.106024313998862307e-02 -8.367334957208776292e-01 5.440831272026255272e-01 -4.193621340227718375e-01 7.267110507218660365e-01
-5.382754484168879999e-02 -1.439079412497232258e-01 -8.341680925610636121e-01 5.454579747447144689e-01 -4.144643845093006762e-01 7.284880724903607385e-01
-1.055710057124219642e-01 -2.092090374685087045e-02 -7.142541933331065795e-01 -5.395941576627385494e-01 4.207212615269541600e-01 -7.292679652332247908e-01
-2.363763848523564234e-02 -4.467828041645997145e-02 -8.029181557157791804e-01 5.645294895660792900e-01 2.880413435080514950e-01 7.735235224867688109e-01
1.023620930067577683e-03 -2.323573157311042137e-01 -9.298748416222158975e-01 2.967052067637181850e-02 -4.995969689827151061e-01 8.657496917620457477e-01
-2.953930118776813916e-03 -1.855454913954735496e-01 -9.008339404414116292e-01 4.762843915710283094e-01 -4.394847555033893349e-01 7.615814651276260339e-01
-4.997584331566869154e-02 -1.357900283603051539e-01 -8.283782105217275538e-01 3.004367149072568743e-01 8.306096231616136860e-01 4.688554513355453479e-01
5.643317320471014781e-02 -1.291685584168555945e-01 -9.080434793159114504e-01 5.377846863403731303e-01 -4.198179584234427719e-01 7.311227755465965483e-01
3.452100149511116295e-02 8.498669034877250061e-02 -7.686778042358294316e-01 2.782809554195859181e-01 -8.332540270368289370e-01 -4.777524843239123742e-01
-4.479054871155982442e-02 -1.371506759009092913e-01 -8.233460597376649481e-01 -2.496041148738589177e-01 9.163683333106084072e-01 -3.129965871117053600e-01
5.748295189115126130e-02 7.876091524358525345e-03 -8.194415969056108029e-01 -5.440831272026255272e-01 4.193621340227718375e-01 -7.267110507218660365e-01
2.556311824935844634e-02 -1.602081116702243346e-01 -8.926056140780916914e-01 -5.460917264334761434e-01 4.233038921308004965e-01 -7.229091514345501457e-01
1.302909024748787614e-01 -1.291948053942287324e-02 -8.869179117560055392e-01 -5.870616325226934995e-01 4.123029603269395271e-01 -6.966813536513176697e-01
-5.833604243479588967e-03 -3.817545061749960111e-01 -9.982707237738914774e-01 6.681765366958376529e-01 3.755239316854303566e-01 -6.422786720269264560e-01
1.293159377419947631e-01 7.991118191931104175e-02 -8.410099682231922946e-01 5.024123009320474731e-01 -4.357284654480654829e-01 7.468082647309415290e-01
9.435342802864442324e-02 1.054711688210237946e-01 -7.909124631082823376e-01 -5.489511556324118136e-01 4.169667169558505804e-01 -7.244248654490673678e-01
-3.918942005544273632e-02 -1.204526225737185124e-01 -8.316167894377466396e-01 5.440831272026255272e-01 -4.193621340227718375e-01 7.267110507218660365e-01
-2.691115787188280272e-03 -7.549454284194577480e-02 -8.329989003399890235e-01 5.440831272026255272e-01 -4.193621340227718375e-01 7.267110507218660365e-01
-4.639641764021726865e-03 6.260007965923776452e-02 -7.564667948096319705e-01 5.660241635831808615e-01 -4.120434798720196135e-01 7.140285827156480636e-01
2.375182855238078261e-02 1.029520570106336602e-01 -7.498206040769500591e-01 5.440831272026255272e-01 -4.193621340227718375e-01 7.267110507218660365e-01
6.960250846436982775e-02 3.759045809148297418e-02 -8.113681901117683060e-01 -5.440831272026255272e-01 4.193621340227718375e-01 -7.267110507218660365e-01
3.417934166139812574e-02 -1.240782822426259591e-01 -8.781410849693642717e-01 -5.440831272026255272e-01 4.193621340227718375e-01 -7.267110507218660365e-01
-4.350099255123165282e-02 -1.651669665650338792e-01 -8.437508678467920964e-01 -5.390376502138843895e-01 4.216603934578434520e-01 -7.291371093565810479e-01
5.557586401489045258e-02 -2.038023130450387910e-02 -8.448182132199812955e-01 5.440831272026255272e-01 -4.193621340227718375e-01 7.267110507218660365e-01
1.155256194119344409e-01 -4.598143126764999561e-02 -9.035168211831687834e-01 4.924982817570525140e-01 -4.165952850450757028e-01 7.641294464582315538e-01
-9.874723000515775451e-02 6.831309420898919703e-03 -7.133898872619450771e-01 5.485326797488240258e-01 -4.181846171035346060e-01 7.240397263034290543e-01
4.670794761611933577e-02 -1.138915068996960434e-01 -8.921037381828995638e-01 5.426924816832983112e-01 -4.153607202262718512e-01 7.300413292530333331e-01
6.016514782317915894e-02 1.261407261416009618e-01 -7.532029289312807130e-01 -5.440831272026255272e-01 4.193621340227718375e-01 -7.267110507218660365e-01
5.853099934237629420e-02 1.705213102413136450e-01 -7.367013580915741100e-01 5.437004215329953594e-01 -4.228609985928408199e-01 7.249678803187826759e-01
3.112055100725935695e-03 -1.487373844970354131e-01 -8.639039736237963396e-01 -4.763891904178440551e-01 4.394563787359440643e-01 -7.615322911349995394e-01
8.192042482895161432e-03 -3.500976106437855284e-01 -9.847778606324679718e-01 -9.009862175498207781e-01 2.223188770286254334e-01 -3.725562409918774520e-01
7.899751796841095186e-02 -1.127832192737109746e-01 -9.153079427675285817e-01 5.290345700532981255e-01 -4.163632139796924481e-01 7.394349854672978006e-01
-1.212575459343409462e-01 6.371533153289797580e-02 -6.627838261317057222e-01 5.866160152393218308e-01 -4.211405859283192110e-01 6.917530321933483828e-01
-1.251624792325200797e-01 -8.015877159988372969e-02 -7.432256790139639691e-01 5.664729717435742495e-01 -4.081257953066920185e-01 7.159201823452696622e-01
-4.986983462480221868e-02 -9.732364908006629900e-02 -7.997748365490627842e-01 -5.440831272026255272e-01 4.193621340227718375e-01 -7.267110507218660365e-01
-4.727767438285773033e-02 -1.477868317433054246e-01 -8.308665197499194299e-01 -5.426860956567962635e-01 4.242699869261319923e-01 -7.249046694390113288e-01
1.606603500765918383e-03 -2.232107836657337974e-01 -9.246166447744882388e-01 2.967052067637181850e-02 -4.995969689827151061e-01 8.657496917620457477e-01
-5.720613159097582417e-02 8.024043931605768024e-03 -7.334893593936729905e-01 -5.440831272026255272e-01 4.193621340227718375e-01 -7.267110507218660365e-01
1.116516102304327268e-01 1.607564838017536482e-02 -8.555591052458203505e-01 -5.486234527969275909e-01 4.179708345185620399e-01 -7.240943920049612847e-01
-7.830616096125277148e-02 -1.450965033794856807e-01 -8.164192329391537495e-01 5.489996036261211021e-01 -4.161964330244450894e-01 7.248309902012266548e-01
4.084276932086110951e-02 7.535846430378299876e-02 -7.629738079698312747e-01 -5.292207605132337456e-01 3.544292192498014193e-01 -7.709120022309747799e-01
-2.668173457538436724e-02 -1.502291212788193775e-01 -8.476656807531729454e-01 -5.440831272026255272e-01 4.193621340227718375e-01 -7.267110507218660365e-01
-7.240826533243548829e-03 -6.566456003836575184e-02 -8.171560763578239461e-01 6.776107528672064007e-01 3.675758050034642066e-01 -6.369707176745199595e-01
8.353457012134704596e-03 -2.349240139630832391e-01 -9.265775909415925327e-01 -9.478725727623757980e-01 -1.592665083729375708e-01 2.759923280012102631e-01
-1.188031621584223901e-01 8.311808228172679058e-02 -6.526782977108813721e-01 7.004577677670410507e-01 -4.208788095954307251e-01 5.763852385413313906e-01
2.802667898036581562e-02 -8.716059782322198302e-02 -8.627291975867599216e-01 5.440831272026255272e-01 -4.193621340227718375e-01 7.267110507218660365e-01
2.784688001689139200e-02 -2.977914783898067200e-02 -8.189829481394061972e-01 -5.440831272026255272e-01 4.193621340227718375e-01 -7.267110507218660365e-01
-1.469903906979322904e-02 1.884851037368691085e-01 -6.614179631255370229e-01 -5.431781491541221030e-01 4.156869837284519753e-01 -7.294942287915950896e-01
-8.297752151858639458e-02 -7.351263459797917343e-02 -7.716753374709168778e-01 5.478956486397931203e-01 -4.179316892067116984e-01 7.246678282899036150e-01
-6.660583075670002684e-02 1.613191138028071958e-01 -6.480557315909866167e-01 5.521304546907450650e-01 -4.250800396745715304e-01 7.172579179578681963e-01
6.473294498642022388e-02 1.635033878729682810e-01 -7.352016720769141145e-01 -5.444591291245849396e-01 4.158407792046211471e-01 -7.284508926917395710e-01
3.344879283738999565e-02 -8.769428501190265623e-03 -8.215516107558941128e-01 5.440831272026255272e-01 -4.193621340227718375e-01 7.267110507218660365e-01
-6.892935817662926290e-02 1.037216707348511714e-02 -7.233572391981152316e-01 -5.440831272026255272e-01 4.193621340227718375e-01 -7.267110507218660365e-01
-5.950111898249050776e-03 1.239608051904431546e-01 -7.198331243352743547e-01 6.084990073563606439e-01 -3.966321141109978021e-01 6.873222854688799677e-01
-4.087585304946012152e-04 -3.382610935641032490e-02 -8.106621392598589715e-01 5.440831272026255272e-01 -4.193621340227718375e-01 7.267110507218660365e-01
-1.085019779471555756e-01 -2.594322851766247759e-02 -7.249231134670667265e-01 5.485766089619771302e-01 -4.179844494105731667e-01 7.241220229703817513e-01
7.141458423145388354e-03 7.179381849571296603e-02 -7.514560677412244205e-01 -6.820400036139964151e-01 -3.655236184264373245e-01 6.334144913424889500e-01
8.405955691108822625e-02 -7.536751553558246330e-02 -9.023452020357349834e-01 5.039796752427735393e-01 -3.259327038326817472e-01 7.998577120429020137e-01
8.418842893755841550e-02 -7.757654737003213952e-02 -8.990527747831217331e-01 5.382044940073144046e-01 -4.197314750320915167e-01 7.308634698065813451e-01
3.297579023236690138e-02 -5.940127471178258817e-02 -8.399169243514609251e-01 -5.440831272026255272e-01 4.193621340227718375e-01 -7.267110507218660365e-01
6.989328055169362341e-02 1.056694138484402384e-01 -7.723027567512891212e-01 -5.479211850807474971e-01 4.176533219520781048e-01 -7.248089938750094108e-01
-2.360401722414058948e-02 -1.328984247001330776e-01 -8.348146520367736301e-01 -5.352720564060826636e-01 4.541696017573382260e-01 -7.121894400160566629e-01
-5.518508253472140246e-02 1.929469009498652188e-01 -6.365725033909694908e-01 6.876884417288769979e-01 -6.218554244047961310e-01 -3.746737757714566075e-01
4.389422184592440754e-03 -1.663742398006958778e-01 -8.749425915662144559e-01 -6.084044197079186977e-01 3.966683613484630055e-01 -6.873850981691383977e-01
8.661878889604313417e-03 -6.855529062996074119e-02 -8.233714982676283434e-01 -9.005513028773637352e-01 2.172953285985069205e-01 -3.765502503719121430e-01
-1.119410436833545713e-01 9.680608710054310062e-02 -6.504953073305000943e-01 6.001920409331256145e-01 -4.280512393503309587e-01 6.756786591947204768e-01
2.773466793683915244e-02 1.157588333793456437e-02 -8.055328474196702393e-01 5.440831272026255272e-01 -4.193621340227718375e-01 7.267110507218660365e-01
-6.003852945040039080e-02 -1.311289459917722167e-01 -8.221681882914377848e-01 5.440831272026255272e-01 -4.193621340227718375e-01 7.267110507218660365e-01
4.750036523024354744e-03 -1.459858844272722833e-01 -8.687497738549505577e-01 -5.440831272026255272e-01 4.193621340227718375e-01 -7.267110507218660365e-01
-5.723493838573041372e-03 -1.096610405887660095e-01 -8.548495866561152123e-01 6.084990073563605328e-01 -3.966321141109977466e-01 6.873222854688798567e-01
-1.304673406632412061e-02 8.260687151736328948e-02 -7.235117615161991145e-01 -5.440831272026255272e-01 4.193621340227718375e-01 -7.267110507218660365e-01
2.887037148074611884e-02 -1.134645644268688636e-01 -8.782677516335627432e-01 -1.509186539950831407e-01 7.043937949909951923e-01 6.935798017924803549e-01
2.543556733089924905e-03 9.662281901657159304e-04 -7.927949498354296409e-01 5.440831272026255272e-01 -4.193621340227718375e-01 7.267110507218660365e-01
9.216316870813898859e-03 1.975487034773866502e-01 -6.841409184012938738e-01 5.427406346453114150e-01 -4.235577741793598583e-01 7.252802323495596282e-01
-1.018025751794343486e-01 -8.294574659591207044e-02 -7.528558136873277906e-01 -5.392955820980038784e-01 4.216287022833006271e-01 -7.289646853863878118e-01
1.507386620209427708e-02 -1.205206019578202586e-01 -8.722825346875584529e-01 5.440831272026255272e-01 -4.193621340227718375e-01 7.267110507218660365e-01
1.138112662474759784e-01 -3.593148869623728758e-02 -8.872854959191596169e-01 -5.524531676336118524e-01 4.185310871304410152e-01 -7.208517369591336266e-01
-2.193209387078426387e-02 -8.838513326463408315e-02 -8.260320790529603885e-01 5.440831272026255272e-01 -4.193621340227718375e-01 7.267110507218660365e-01
-2.239606258101928260e-02 1.486967163801392044e-01 -6.888722163360306849e-01 5.440831272026255272e-01 -4.193621340227718375e-01 7.267110507218660365e-01
5.739010646475650734e-02 1.864608563888401072e-01 -7.265921718013996777e-01 5.382157398829138240e-01 -4.223949035767758375e-01 7.293191090151512901e-01
2.719496309459328888e-03 -8.256644834357990126e-02 -8.434933545316665171e-01 2.967052067637181850e-02 -4.995969689827151061e-01 8.657496917620457477e-01
2.436125917048248546e-02 -6.388060685336358069e-03 -8.133736296734592752e-01 5.440831272026255272e-01 -4.193621340227718375e-01 7.267110507218660365e-01
-6.330996951911033177e-02 1.239022207804753584e-01 -6.724261583689423727e-01 5.444574392148189279e-01 -4.226156383726095145e-01 7.245426965241963391e-01
-1.139552706907823783e-03 1.718022375850095651e-01 -6.957544751306148356e-01 4.762843915710283094e-01 -4.394847555033893349e-01 7.615814651276260339e-01
6.255060059920958260e-02 1.224756357701485554e-02 -8.312116701683269770e-01 5.440831272026255272e-01 -4.193621340227718375e-01 7.267110507218660365e-01
-2.130516568732149230e-02 -1.043514164563286578e-01 -8.357150963007110578e-01 5.440831272026255272e-01 -4.193621340227718375e-01 7.267110507218660365e-01
-7.600199372625113248e-02 1.574169015212357470e-01 -6.430112602239119735e-01 5.631179442798044388e-01 -4.291324397430998916e-01 7.062177638591526918e-01
-7.419660240608483281e-02 -1.894739193211582295e-01 -8.443802712773929020e-01 5.651348855422083650e-01 -3.887801914205477050e-01 7.276486266751265308e-01
-1.296684868669700508e-01 2.099958713929993628e-02 -6.811415920498471444e-01 5.838248039420321778e-01 -4.123978476855068021e-01 6.993401272102222066e-01
3.516262503558331004e-02 7.815946402625334813e-03 -8.027652430272392836e-01 -5.440831272026255272e-01 4.193621340227718375e-01 -7.267110507218660365e-01
6.850765915989737165e-02 -3.828092962026714147e-02 -8.543314806763769864e-01 -5.440831272026255272e-01 4.193621340227718375e-01 -7.267110507218660365e-01
1.037697173671002920e-01 -9.474091616161675611e-02 -9.198163738656741639e-01 -7.087684992662554029e-01 2.338029086740565088e-01 6.655699920695125060e-01
4.746427769356428156e-02 2.244612999581988566e-01 -6.964856160385853867e-01 5.078821862193479975e-01 -4.796977912644938002e-01 7.155038182826293225e-01
-3.858092564679479336e-02 -1.966675277901392682e-01 -8.658649268076000771e-01 -5.404298839837070600e-01 4.269659034726408509e-01 -7.250073501483611516e-01
-6.396673046607230517e-02 -1.551801638391101246e-01 -8.329877054642065293e-01 5.458337775055499552e-01 -4.142580979032700617e-01 7.283239084745100067e-01
3.138066489709306212e-02 1.403852079328237190e-01 -7.234321586287502104e-01 -5.440831272026255272e-01 4.193621340227718375e-01 -7.267110507218660365e-01
-1.561417369000569350e-02 -1.733826724171354805e-01 -8.693587747854583103e-01 -5.424879465859152594e-01 4.244407475180803080e-01 -7.249530189297034299e-01
1.074134343338759012e-01 -8.721316212756469177e-02 -9.125622479595528747e-01 -6.004916805457949369e-01 4.283747271531331280e-01 -6.752072531688074752e-01
-7.755598613686714125e-03 -6.497184132734465378e-02 -8.272236265108662279e-01 9.004995964503773598e-01 -2.173488538514740387e-01 3.766430040796699963e-01
3.957911444186365361e-03 2.133513773130349123e-01 -6.611380703892770772e-01 -5.444510305894432189e-01 4.156206705079830144e-01 -7.285825509416129497e-01
5.596455202118127970e-02 1.222304845277124435e-01 -7.628130538368292912e-01 5.440831272026255272e-01 -4.193621340227718375e-01 7.267110507218660365e-01
5.634468057284475195e-02 -1.379972419806601847e-01 -9.130479054525701965e-01 5.377846863403731303e-01 -4.198179584234427719e-01 7.311227755465965483e-01
-9.025933944005097576e-02 -4.425009160260449242e-02 -7.390519744743097030e-01 -5.403376076634033298e-01 4.206434083248468125e-01 -7.287622333638360539e-01
-2.189439286779415808e-02 -7.350788609624864245e-02 -8.069765113310203297e-01 -5.440831272026255272e-01 4.193621340227718375e-01 -7.267110507218660365e-01
-6.081385201292865972e-02 1.686491563300520358e-01 -6.481486002927292489e-01 5.499171644193560082e-01 -4.281849210747369905e-01 7.171114178711677223e-01
1.212623675765250528e-02 -9.311304697696887178e-02 -8.437610251130254202e-01 -5.440831272026255272e-01 4.193621340227718375e-01 -7.267110507218660365e-01
7.074204219846503584e-03 9.400650662579294881e-02 -7.424963878062965650e-01 5.440831272026255272e-01 -4.193621340227718375e-01 7.267110507218660365e-01
-1.314187532901425759e-01 -8.146870625893534723e-02 -7.308183183245244852e-01 -4.133401781847044765e-01 4.768821628519058775e-01 -7.757147026142567903e-01
1.115381293868483725e-02 -1.027181656661276116e-01 -8.590743930156919950e-01 5.440831272026255272e-01 -4.193621340227718375e-01 7.267110507218660365e-01
-6.687300893488365428e-02 -1.090336323161382459e-02 -7.476728550123090677e-01 5.440831272026255272e-01 -4.193621340227718375e-01 7.267110507218660365e-01
4.311209284743378056e-02 4.916210305426287064e-02 -7.953559829436697148e-01 5.440831272026255272e-01 -4.193621340227718375e-01 7.267110507218660365e-01
6.886661760238818597e-02 -8.989143352459413872e-02 -8.796902780769271235e-01 -5.192466175905287029e-01 3.299481843020763971e-01 -7.883635873101690894e-01
-1.277073570915079614e-01 9.510141877399265822e-03 -6.806326122388864919e-01 -5.023549666407652881e-01 4.285673997590768169e-01 -7.509790085981759011e-01
3.978935048925996698e-02 -2.678602254217803125e-02 -8.366955496699325368e-01 5.440831272026255272e-01 -4.193621340227718375e-01 7.267110507218660365e-01
-2.917434076739205961e-02 8.249289795717197615e-02 -7.220015154676534541e-01 5.440831272026255272e-01 -4.193621340227718375e-01 7.267110507218660365e-01
2.033113807101527993e-03 -1.244348399822136492e-01 -8.647778048121248506e-01 5.440831272026255272e-01 -4.193621340227718375e-01 7.267110507218660365e-01
1.167043206366932817e-01 1.293347845175864819e-01 -8.033691977938799411e-01 5.226503612154136391e-01 -4.314633218773192835e-01 7.353067399364612289e-01
-3.077350216637067190e-03 -2.868478308395867593e-01 -9.415274463223667345e-01 -2.967052067637204055e-02 4.995969689827150506e-01 -8.657496917620456367e-01
5.075652229236899543e-02 1.594226669884437064e-01 -7.293625031749892962e-01 -2.839330321656095002e-01 8.335186999315722378e-01 4.739500080278769567e-01
-3.847726565796076321e-03 9.638971544628560650e-02 -7.224453430626498474e-01 -5.440831272026255272e-01 4.193621340227718375e-01 -7.267110507218660365e-01
-6.940712190547232430e-02 -3.496929518951806537e-02 -7.596632774294932444e-01 5.440831272026255272e-01 -4.193621340227718375e-01 7.267110507218660365e-01
-6.302953637220987115e-02 1.394046970446582989e-01 -6.534863275347460032e-01 -5.440831272026255272e-01 4.193621340227718375e-01 -7.267110507218660365e-01
-6.615948061960730264e-02 1.339781997065136177e-01 -6.644011091786063972e-01 5.445731417130457164e-01 -4.236350213932352227e-01 7.238601121583757569e-01
2.516740321395893529e-02 1.283049762651065351e-01 -7.257514585531167350e-01 -5.440831272026255272e-01 4.193621340227718375e-01 -7.267110507218660365e-01
-1.741394267599353325e-03 -2.396262155742963085e-01 -9.143229504747890646e-01 -2.966945245303248199e-02 4.996013162378439287e-01 -8.657472196920711349e-01
-4.256151298590082899e-02 -9.726974532907560478e-02 -8.157140179999884388e-01 5.440831272026255272e-01 -4.193621340227718375e-01 7.267110507218660365e-01
6.502257941944888930e-02 -1.314026655553511003e-01 -9.056324162887854357e-01 -5.440831272026255272e-01 4.193621340227718375e-01 -7.267110507218660365e-01
1.705438379506335131e-02 1.960980008389029070e-02 -7.824018755571703343e-01 -5.440831272026255272e-01 4.193621340227718375e-01 -7.267110507218660365e-01
1.115473101283015467e-01 8.001606997265604815e-02 -8.284524850637996485e-01 5.395554854162877279e-01 -4.211681525871067699e-01 7.290385897903881585e-01
-2.998673171755879968e-02 -1.810864476837313330e-01 -8.733520978405037161e-01 5.460826386289523438e-01 -4.141220339004287876e-01 7.282147298882473141e-01
1.050640461496813449e-01 1.168074866657318328e-01 -7.925009145077511752e-01 -5.486182177921293812e-01 4.169034135868069924e-01 -7.247134570616552418e-01
8.941026174757624179e-02 2.010915493617548289e-01 -7.398282926772300483e-01 -5.796152004791755852e-01 -8.010020463843150473e-01 1.498063451981412886e-01
-7.204832288008580776e-02 -1.682883602987605143e-01 -8.343679123624803129e-01 5.463682724185556783e-01 -4.126869956261118300e-01 7.288148973062068547e-01
-1.240025264289889573e-01 -8.440290294260527348e-02 -7.465629524283073915e-01 5.664729717435742495e-01 -4.081257953066920185e-01 7.159201823452696622e-01
8.409527457499013647e-02 -3.851706550652730932e-02 -8.662293661806199641e-01 -5.480784968579620609e-01 4.184127844594994761e-01 -7.242518229751067071e-01
5.905784638366826100e-02 -1.062009253775451911e-01 -8.969087150933003905e-01 5.426924816832983112e-01 -4.153607202262718512e-01 7.300413292530333331e-01
-3.192538680851114696e-02 9.160951717088654245e-02 -7.146809131231833812e-01 5.440831272026255272e-01 -4.193621340227718375e-01 7.267110507218660365e-01
4.918371238271246337e-02 2.260799298571179727e-02 -8.152253023864098891e-01 5.440831272026255272e-01 -4.193621340227718375e-01 7.267110507218660365e-01
-2.420834102080388160e-03 -4.377917274216523019e-02 -7.993258620645961043e-01 -4.864792747783060478e-01 4.387682916168694769e-01 -7.555265061417684169e-01
-3.027323955571609160e-02 -7.513886254479799909e-02 -8.121431186806112867e-01 5.440831272026255272e-01 -4.193621340227718375e-01 7.267110507218660365e-01
2.493246178868827739e-02 -1.638919949897600925e-01 -8.942863313155348104e-01 -5.460917264334761434e-01 4.233038921308004965e-01 -7.229091514345501457e-01
1.222782045309042248e-01 1.316348209959291270e-02 -8.746520739791393551e-01 5.221267552762107744e-01 -4.243589986633894973e-01 7.397993590684852627e-01
1.761080784625018367e-02 1.380340595814696404e-02 -7.861691538538880808e-01 -5.440831272026255272e-01 4.193621340227718375e-01 -7.267110507218660365e-01
-9.187988030365638187e-03 -2.940461769111300527e-01 -9.559905959458955271e-01 9.004995964503773598e-01 -2.173488538514740664e-01 3.766430040796701073e-01
-2.550839040903789094e-03 2.080683847901937666e-01 -6.739435063223786493e-01 4.763883616194548587e-01 -4.394721567636007964e-01 7.615237043868569033e-01
-9.366072188035398649e-02 -7.824630127957285519e-02 -7.561612351803276288e-01 -5.394004324578728360e-01 4.211692314890292943e-01 -7.291526945100047508e-01
1.833221111512872703e-02 5.413600578821606280e-03 -8.020493582665660925e-01 5.440831272026255272e-01 -4.193621340227718375e-01 7.267110507218660365e-01
7.270777678561131385e-02 -1.141720698104533027e-01 -9.115736579462154765e-01 5.417684896714840548e-01 -4.141778507737999271e-01 7.313983945343845994e-01
2.035113944039804862e-02 2.247599689417534297e-01 -6.669555237777136103e-01 -5.463148207973226311e-01 4.122849394442525961e-01 -7.290824680957830317e-01
-1.654248602658708878e-02 -9.248151520131729642e-02 -8.324311315462273875e-01 5.440831272026255272e-01 -4.193621340227718375e-01 7.267110507218660365e-01
-1.081421779628690127e-01 7.761771830667074656e-02 -6.556772536053150358e-01 -5.365287449681112042e-01 4.191689002615824333e-01 -7.324167794885910743e-01
-1.211827365160978165e-01 -1.072756995005461067e-01 -7.617995610262549011e-01 5.676405241914300737e-01 -4.053031956204278807e-01 7.165986009723629424e-01
2.955378929638052821e-02 -9.915318188425219226e-02 -8.707930774393928264e-01 5.440831272026255272e-01 -4.193621340227718375e-01 7.267110507218660365e-01
9.453856177056303711e-02 -3.505511056332660108e-02 -8.822433111279052165e-01 5.390005672883932952e-01 -4.198426810439026546e-01 7.302126482310877797e-01
3.344291825558929482e-02 -1.849786740136076524e-01 -9.131448010141939298e-01 -5.492790349177645304e-01 4.278868560624359274e-01 -7.177780856287087063e-01
8.392413206411945825e-02 -5.121443224530308758e-02 -8.734388239106801732e-01 -5.481840316213901776e-01 4.187983274766427511e-01 -7.239490509546134822e-01
3.900101763702978203e-02 -2.352125116843201483e-02 -8.237227318153754752e-01 -5.440831272026255272e-01 4.193621340227718375e-01 -7.267110507218660365e-01
5.973042399003591039e-03 -2.823617613354663658e-01 -9.432774091576778819e-01 -6.084990073563605328e-01 3.966321141109977466e-01 -6.873222854688798567e-01
5.805204420469600030e-02 1.591169059776139649e-01 -7.327151966857485821e-01 -5.439623800353775573e-01 4.160905305005209165e-01 -7.286793530312510869e-01
6.462787672102920933e-02 8.235853571007477336e-02 -7.923080702084460691e-01 5.440831272026255272e-01 -4.193621340227718375e-01 7.267110507218660365e-01
2.037715144252874588e-02 -2.222040248379057378e-02 -8.229977951462706942e-01 5.679343992237101402e-01 -8.118702938806079406e-01 1.353408441403365636e-01
-2.211735916883194805e-02 -1.846318040082811085e-01 -8.812686943364371750e-01 5.458758507901573243e-01 -4.143813744132743282e-01 7.282222408464928964e-01
7.004167544272749124e-02 -7.949823787175396006e-02 -8.864211393674523709e-01 3.012302056350932844e-01 -8.263740920835536130e-01 -4.757795951342614349e-01
-6.294513310967501940e-02 1.788173789940361580e-01 -6.402525210483765994e-01 5.857324622963751004e-01 -4.665611259797308730e-01 6.627504796956027455e-01
-1.894130204050714639e-02 -1.094558187459518800e-01 -8.404304936500737178e-01 5.440831272026255272e-01 -4.193621340227718375e-01 7.267110507218660365e-01
6.747961314011730917e-03 -1.270749783612503681e-01 -8.698313168468509993e-01 5.440831272026255272e-01 -4.193621340227718375e-01 7.267110507218660365e-01
-1.039271858324887499e-01 -9.618744393155927164e-02 -7.589425540353458288e-01 -5.391637348138096364e-01 4.215468095802437642e-01 -7.291095626820031095e-01
7.438868292940946196e-03 2.153584706566019635e-01 -6.724092380352247877e-01 5.430839754113971907e-01 -4.233443784031646895e-01 7.251478007453315833e-01
-3.621728564073473794e-02 -4.049851935799567149e-02 -7.922970237281897754e-01 5.241354215542554096e-01 -4.880508255786374927e-01 6.979172239772803987e-01
3.597208076869273102e-02 -1.758590543780430282e-01 -9.096690372832519911e-01 -5.468309665797154162e-01 4.247602064440925140e-01 -7.214947408062419854e-01
1.008248540247125291e-02 2.882473277262372069e-02 -7.823630208883498582e-01 5.440831272026255272e-01 -4.193621340227718375e-01 7.267110507218660365e-01
-7.489221836031870194e-02 -1.283193188006002960e-01 -8.142834912780573253e-01 5.124521678644322620e-01 -5.227763381710328616e-01 6.812471474432238994e-01
3.975567172992766629e-02 1.300623780063118462e-01 -7.461580465572233978e-01 5.440831272026255272e-01 -4.193621340227718375e-01 7.267110507218660365e-01
-2.805477483997637772e-02 5.968452730517116722e-02 -7.284917397939527639e-01 -2.733057444136923197e-01 -8.357429336322258484e-01 -4.762748355249084020e-01
6.615104754426762504e-03 -2.974559582909288430e-02 -7.980416826287023424e-01 -5.865411685745628434e-01 3.975962467509431275e-01 -7.056108574396723343e-01
-2.808234676684329481e-02 -3.835056798587738874e-02 -7.820554519365423563e-01 -5.440831272026255272e-01 4.193621340227718375e-01 -7.267110507218660365e-01
-5.900217734635193612e-02 1.773654506451995128e-02 -7.370384957449868102e-01 5.440831272026255272e-01 -4.193621340227718375e-01 7.267110507218660365e-01
1.069741732262964422e-02 1.338706928237103910e-01 -7.084815883055963770e-01 -6.064818467443298111e-01 7.287636946491214962e-01 -3.179359163903150431e-01
-8.892713552524748183e-03 -1.665852212724311388e-01 -8.704227795604279061e-01 -5.440831272026255272e-01 4.193621340227718375e-01 -7.267110507218660365e-01
-8.001612762249733779e-02 -1.341803699213631462e-01 -7.986237434999989837e-01 -5.396402116244896074e-01 4.219431559907717011e-01 -7.285275664725555655e-01
-4.880214390448861517e-02 6.881826085908883395e-02 -7.151975298799864156e-01 5.440831272026255272e-01 -4.193621340227718375e-01 7.267110507218660365e-01
2.167047367660140944e-02 1.562019874930691832e-01 -7.135625283070264890e-01 2.402989190074796277e-01 -8.079219443935040657e-01 -5.380692904183030922e-01
-1.125446241997419827e-01 -4.892278858408275616e-02 -7.252541248483123093e-01 -5.395459541556808514e-01 4.209347931377278029e-01 -7.291804051675651044e-01
-3.099767584597456181e-03 -3.812997109677789265e-01 -1.013168317264077301e+00 4.545639541578925802e-01 -1.842464297163456111e-01 8.714498635705448804e-01
-1.192451710077637173e-01 -1.316181490018143441e-01 -7.767836791394240326e-01 5.937401731723176423e-01 -3.825489681372639117e-01 7.079045795433315247e-01
-3.222800837403372309e-02 -5.571632124235807726e-02 -7.994714590282393507e-01 5.440831272026255272e-01 -4.193621340227718375e-01 7.267110507218660365e-01
5.667950284348039630e-02 9.084241815807171661e-02 -7.692021583342031343e-01 -2.817078248005530638e-01 -1.983893651429407545e-01 -9.387664039814813677e-01
-5.586041581425446123e-04 -3.309878223378863171e-01 -9.670855708946618501e-01 -2.967052067637198851e-02 4.995969689827151616e-01 -8.657496917620457477e-01
-1.828782396803617242e-03 -2.122192042409081492e-01 -9.024918182200314387e-01 -5.427764639035244087e-01 4.286143923812426593e-01 -7.222765487512690097e-01
-8.395903878753425975e-02 5.069036527910263101e-02 -6.846280379188472986e-01 -5.375952860082060525e-01 -2.811730168339524050e-01 -7.949421633466483561e-01
-8.234293794439619119e-02 5.737639408367926908e-02 -6.948838783600863600e-01 -1.051615737238036641e-01 -9.627203168354292462e-01 -2.492200532947215219e-01
-4.824667681915309307e-03 5.351563979202050153e-02 -7.411587172120078781e-01 -5.584401931123653684e-01 3.489747040686751456e-01 -7.525697353978596515e-01
-9.497158732758612804e-03 5.442674363472529975e-02 -7.373937942944638335e-01 -5.576488035012069355e-01 3.124254822350690519e-01 -7.690371447491057832e-01
1.185550427407578138e-03 6.080849508179268087e-02 -7.617342875638473121e-01 5.028941772784250031e-01 -3.655513348238179083e-01 7.832430453364913614e-01
1.127757544227507153e-01 -5.053166906739314790e-02 -8.949688478365913635e-01 -5.524531676336118524e-01 4.185310871304410152e-01 -7.208517369591336266e-01
7.583475102791607803e-02 1.055831768491662520e-01 -7.921558517493082485e-01 5.196629286087957045e-01 -3.233742035499964640e-01 7.908094366585007862e-01
5.221546750221013437e-03 2.425689396887422897e-02 -7.708610269856274178e-01 -5.440831272026255272e-01 4.193621340227718375e-01 -7.267110507218660365e-01
4.821870453254416267e-02 1.820795089484238682e-01 -7.223521622431338107e-01 5.391878232252860226e-01 -4.218948853152817979e-01 7.288903875277701339e-01
-5.285880253516730964e-02 -1.852169490407869490e-01 -8.584644939750025738e-01 5.506526496313520758e-01 -4.029384250098009823e-01 7.310419174743623127e-01
-1.509793583685979136e-02 1.612250442096130054e-01 -6.766851410806452582e-01 -5.438018462838468681e-01 4.163224447622476121e-01 -7.286667097963683837e-01
-1.423596135587490777e-02 -5.818293846299461142e-02 -8.038667755226110989e-01 -5.440831272026255272e-01 4.193621340227718375e-01 -7.267110507218660365e-01
-3.430757733194434583e-02 3.136737068044786331e-02 -7.371626346059267920e-01 -5.440831272026255272e-01 4.193621340227718375e-01 -7.267110507218660365e-01
-9.731992847685565218e-02 4.762402993207007912e-02 -6.808602782322054070e-01 -5.395313861823038959e-01 4.198485852235127047e-01 -7.298171338150513110e-01
1.301053055399470013e-02 6.354887851555991556e-03 -7.870232666304878277e-01 -5.440831272026255272e-01 4.193621340227718375e-01 -7.267110507218660365e-01
-4.856468241108456187e-03 1.731496017400512288e-01 -6.878050928706713751e-01 5.441393902955159456e-01 -4.222221175268758286e-01 7.250109015731730500e-01
-6.100476484569839625e-02 9.926544718111444954e-02 -6.779967669518451867e-01 -5.396682526023299786e-01 4.201201616593410737e-01 -7.295596116154435817e-01
9.069864129102299388e-02 -7.996397017782366431e-03 -8.638132648655564294e-01 5.402964754648235113e-01 -4.203417841888337225e-01 7.289667365972450908e-01
7.805498972992246098e-02 2.044497777798033322e-01 -7.310818539774376346e-01 5.174309538276211651e-01 -4.482043038073689756e-01 7.289568643408127491e-01
-4.424438915189909949e-02 5.466064443944966544e-02 -7.267798027584110310e-01 5.440831272026255272e-01 -4.193621340227718375e-01 7.267110507218660365e-01
7.368084021425841401e-02 1.504453361175851211e-01 -7.493900504918947769e-01 -5.484661030625296307e-01 4.167369550056969629e-01 -7.249243023405842479e-01
2.892022865412928467e-02 -3.053967603017054833e-02 -8.261488727658673481e-01 -1.462285165309901991e-01 6.690645513423761903e-01 7.286767782015363126e-01
2.056471028678008225e-02 6.570761870895977519e-02 -7.584284267428407222e-01 -5.440831272026255272e-01 4.193621340227718375e-01 -7.267110507218660365e-01
-1.182213116107755646e-01 -4.894030183788454502e-02 -7.210867333298870419e-01 -5.368926379999691134e-01 4.218462930805425559e-01 -7.306107036415764311e-01
-4.040612232004180820e-02 -1.748424675912608195e-01 -8.516733376777116948e-01 -5.417697258879849986e-01 4.250082976114991085e-01 -7.251575767187660171e-01
6.640172015526579763e-02 1.114445690943495493e-02 -8.347315427984739467e-01 5.440831272026255272e-01 -4.193621340227718375e-01 7.267110507218660365e-01
-4.369149814294810003e-02 -1.218793287267621039e-01 -8.185708227108350332e-01 -5.440831272026255272e-01 4.193621340227718375e-01 -7.267110507218660365e-01
5.896203435219942585e-02 2.123321732587548916e-01 -7.124423929795109522e-01 5.317245303985842497e-01 -4.452889370620815579e-01 7.204073752416245702e-01
4.087896139009966623e-02 -2.248648207215563077e-02 -8.350302033685920167e-01 5.440831272026255272e-01 -4.193621340227718375e-01 7.267110507218660365e-01
5.752008517596501891e-02 -2.063056401461942427e-03 -8.292279961205627492e-01 1.442818632725799965e-01 -6.738457445908108134e-01 -7.246479534418406310e-01
9.386712126275507939e-02 2.367051201999847282e-02 -8.526793927726358246e-01 5.723441373122623022e-01 -5.016778523099592046e-01 6.486459134118931491e-01
6.003032878525554200e-02 -3.925533342971432998e-02 -8.485468646925420355e-01 -5.440831272026255272e-01 4.193621340227718375e-01 -7.267110507218660365e-01
-4.285074859836324190e-02 -4.357209394468906927e-02 -7.845102405556120262e-01 5.440831272026255272e-01 -4.193621340227718375e-01 7.267110507218660365e-01
3.149419783064565798e-02 -9.969731502294248981e-02 -8.620612470701016772e-01 -5.440831272026255272e-01 4.193621340227718375e-01 -7.267110507218660365e-01
4.212432930873901554e-02 -1.199627563572584071e-02 -8.230585221014712349e-01 1.424043309218808728e-01 -6.712892840459050436e-01 -7.273869009405020680e-01
2.061894047440307465e-02 -1.867075394348995387e-01 -9.142589112526364747e-01 5.279715134008751143e-01 -3.934348870068112847e-01 7.526320951986618102e-01
-7.488494445598359306e-02 -1.661199725968309227e-01 -8.310135552479009924e-01 5.463682724185556783e-01 -4.126869956261118300e-01 7.288148973062068547e-01
6.386012843386640325e-02 1.130160823811768439e-01 -7.740417550455016560e-01 5.440831272026255272e-01 -4.193621340227718375e-01 7.267110507218660365e-01
1.160535493174749133e-01 -5.888049853937557185e-03 -8.811746920664275118e-01 5.212884830268373904e-01 -4.227707321011284769e-01 7.412983377441600963e-01
-3.037846979862929286e-02 -1.581417782594977950e-02 -7.778299203897702796e-01 5.440831272026255272e-01 -4.193621340227718375e-01 7.267110507218660365e-01
