4.671372112340522326e-02 -7.048701064110303449e-02 -6.074742342975438802e-01 8.951618762271305041e-01 2.062674288667080413e-01 -3.951442308047034002e-01
3.230786165405537952e-02 -1.581529124016225751e-01 -6.859979616584683804e-01 8.945200571414894108e-01 2.083841232481818129e-01 -3.954869461179131851e-01
8.335962788899730844e-03 -3.432308163782676891e-01 -8.617179499581401059e-01 -9.961255400388627779e-01 4.068087541231441007e-02 -7.796778089680345136e-02
-6.056252476468609175e-02 3.784428680249226143e-03 -8.327291616911156602e-01 -8.931152327262396051e-01 -2.067956968251295491e-01 3.994755572584685610e-01
-4.808158205315985617e-02 -3.851430646362974386e-02 -8.266261955227315328e-01 -8.943474104420938708e-01 -2.059356697903701461e-01 3.971564041325688632e-01
8.226712995370850587e-03 1.131403151569330967e-01 -6.281444164094587279e-01 -9.291046023899811601e-01 -1.710715086955149900e-01 3.278706707383190477e-01
-6.779922362788339159e-03 1.725552209403169168e-01 -5.944143934592869272e-01 9.291486740726274673e-01 1.710202811628120378e-01 -3.277724895412532091e-01
2.413755005255440594e-02 1.093879146927262680e-01 -5.845083047345513982e-01 -8.971309951560693108e-01 -2.043533232157505874e-01 3.916576270430076612e-01
4.258449470717768498e-02 -1.423139072317050613e-02 -5.874803498373705191e-01 8.951539764642542085e-01 2.059657118873641501e-01 -3.953194707410259134e-01
6.477610175476027771e-03 -2.254810647480717245e-01 -7.979065245825969210e-01 -9.056012401335946649e-01 -1.402764611889065205e-01 4.002610501970090273e-01
-6.106203297387334528e-02 7.176931753690107829e-02 -7.985027495525434116e-01 -8.933944869264325295e-01 -2.079669407097286260e-01 3.982411860936692083e-01
1.006941361124296351e-02 2.349732044216062965e-01 -5.472028981366836575e-01 -6.887625447812184554e-01 -5.909181432051937577e-01 -4.200260764969557248e-01
-5.903359633705227566e-02 -6.366799418261864796e-02 -8.475267225739291366e-01 9.247892170274765178e-01 2.028189907977661355e-01 -3.219151457162003349e-01
9.635648766609411497e-03 -2.036189310315129064e-01 -7.620453497196156833e-01 8.954997483448774442e-01 2.119559370345412141e-01 -3.913500753418486244e-01
-1.925892234129723130e-02 1.732111161658095033e-01 -6.311535167738673291e-01 8.972950481358332731e-01 2.007376218420185432e-01 -3.931488315741551443e-01
3.213397740494518262e-02 8.307005408080048170e-02 -5.605081991848600564e-01 8.948085444258970789e-01 2.058433430748194126e-01 -3.961643433402219916e-01
7.012216149588915842e-03 -3.269514505906950252e-01 -8.612104077509188382e-01 -9.291486740726274673e-01 -1.710202811628120378e-01 3.277724895412532091e-01
1.180771917465533311e-02 -4.385265268619966544e-02 -6.927066129377845716e-01 -8.971309951560693108e-01 -2.043533232157505874e-01 3.916576270430076612e-01
-2.803175589513653976e-02 -9.688937332351724163e-02 -8.116191506508738662e-01 -8.963864869654468714e-01 -2.004682343866133476e-01 3.953526944231672835e-01
3.855976965103687787e-02 -1.222539362769224924e-01 -6.723354257852853788e-01 -8.971309951560693108e-01 -2.043533232157505874e-01 3.916576270430076612e-01
-4.380510156048240088e-03 -1.268683924005115093e-01 -7.536222007669535206e-01 8.971309951560693108e-01 2.043533232157505874e-01 -3.916576270430076612e-01
-1.134424740005273401e-02 -1.272896870807848635e-01 -7.613606109390478327e-01 9.009159726486507536e-01 2.335581549140416380e-01 -3.657881880264641783e-01
8.482926659548480075e-03 9.081188474354209839e-02 -6.371231092291189668e-01 -9.961150749334815035e-01 4.073567209463185845e-02 -7.807280262206128807e-02
-4.076762360725924572e-02 -3.623628077589025748e-02 -7.896940888189640795e-01 8.992181477452625415e-01 2.027398519407933586e-01 -3.876896635204560848e-01
-5.607988075996465926e-02 4.949584946619483249e-03 -8.036761457465728675e-01 8.995891875810295701e-01 2.023347031500377924e-01 -3.870399998559442278e-01
-3.156790794989398213e-02 3.363738857427898271e-02 -7.516312207752489094e-01 -8.971309951560693108e-01 -2.043533232157505874e-01 3.916576270430076612e-01
1.007097546087041239e-03 -7.850438806729592711e-02 -7.355265877123851048e-01 -8.971309951560693108e-01 -2.043533232157505874e-01 3.916576270430076612e-01
-4.155908087544433333e-02 1.707199516291438846e-01 -6.837124906013064551e-01 8.994193746621784724e-01 2.009698633377215160e-01 -3.881441774808855327e-01
-1.096942209187952780e-02 2.106149341447770551e-01 -5.931215185610210217e-01 8.978251450523928590e-01 1.998341751357305685e-01 -3.923981541234258796e-01
-3.830965771529402236e-02 6.924956357522105144e-02 -7.290127830873647241e-01 8.971309951560693108e-01 2.043533232157505874e-01 -3.916576270430076612e-01
-3.122563974244709504e-04 1.192474612245187221e-01 -6.158887688032905761e-01 8.971309951560693108e-01 2.043533232157505874e-01 -3.916576270430076612e-01
-4.247741513610871905e-02 7.341806716077203809e-02 -7.556627910484231547e-01 -8.951663670261695849e-01 -2.063647111743407980e-01 3.950832587279546337e-01
-3.360205902907454495e-02 1.390178918362697594e-02 -7.737320674344276838e-01 -5.874091661605297388e-01 3.321054503598671603e-01 7.380084290520406709e-01
5.458939007399808696e-02 7.738681858290431814e-02 -5.139035716116728825e-01 8.695485066359475157e-01 2.052994235793360045e-01 -4.491520246922930948e-01
4.641386661995920010e-02 9.987740364374438073e-02 -5.200525222509846390e-01 8.863073552161337965e-01 2.023807973839626129e-01 -4.165348544119849561e-01
1.132629581210608562e-02 -1.889637101926015588e-03 -6.524346233800950579e-01 8.971309951560693108e-01 2.043533232157505874e-01 -3.916576270430076612e-01
3.459306106479270726e-02 -1.012255014456667906e-01 -6.509963317981707354e-01 8.950234738984202965e-01 2.066803753003232103e-01 -3.952419558150697121e-01
-9.905836970566662958e-03 3.296939445127047841e-02 -7.023606151659753660e-01 -8.971309951560693108e-01 -2.043533232157505874e-01 3.916576270430076612e-01
6.141044376455646187e-02 1.549190003590755716e-03 -5.548044386339527900e-01 -8.995403973675172304e-01 -2.027622095890661558e-01 3.869296575172919139e-01
1.265209004669385143e-02 -1.416673543165811455e-01 -7.138244959200336082e-01 8.871713545031061354e-01 2.764770262429372405e-01 -3.694420681365161441e-01
6.577380937342258704e-02 -1.067249767799895339e-02 -5.344894913375773937e-01 8.744230444445129091e-01 2.207359504518796589e-01 -4.320416409589409312e-01
3.544622868993595882e-02 -3.897201905539330463e-02 -6.360136961294378111e-01 -8.971309951560693108e-01 -2.043533232157505874e-01 3.916576270430076612e-01
7.545675224120908416e-03 1.769525866500756550e-01 -5.870555768329189794e-01 -8.973813922176355762e-01 -2.070750751367700926e-01 3.896492655692281315e-01
3.451414206093239567e-02 -1.188441701737417561e-01 -6.603949045194584810e-01 8.948763401055913613e-01 2.070438583548585010e-01 -3.953848462406662767e-01
-6.270258676161620526e-02 1.802477819957382099e-01 -7.365386745642377164e-01 4.134735114674136236e-01 -7.005931044673666674e-01 5.815573551143379261e-01
-1.224523747372742097e-02 -1.924711277725181802e-01 -8.064593574762645156e-01 8.984909833444757465e-01 2.088920023843716944e-01 -3.861063120288563688e-01
-3.953813749858931664e-02 -7.695855112394202335e-02 -8.036663065943768780e-01 6.233052980240270102e-01 -3.167730438603353349e-01 -7.149442944304381653e-01
-5.686097414741983491e-02 1.590972062127200479e-02 -8.181746455383304140e-01 -8.932040026546925748e-01 -2.074091820914173712e-01 3.989586956387906058e-01
-4.210072731112484562e-02 1.813223862706968281e-01 -6.982309253077927380e-01 -8.938642589531914373e-01 -2.091079706518577386e-01 3.965861106694529292e-01
-2.453778117021247068e-02 1.184405294248179752e-01 -6.912806833318034805e-01 -8.971309951560693108e-01 -2.043533232157505874e-01 3.916576270430076612e-01
-5.466031749632600106e-02 1.011249217238940901e-01 -7.502092528284558526e-01 8.994784512238824803e-01 2.016089129489840037e-01 -3.876755886091036718e-01
-1.812108521185654825e-02 2.125710081645256766e-01 -6.084846646011305982e-01 8.979754477302077653e-01 1.994314258773363657e-01 -3.922591001446179004e-01
-2.615142377573196480e-02 -3.522546512352612430e-02 -7.751544628257394098e-01 -8.971309951560693108e-01 -2.043533232157505874e-01 3.916576270430076612e-01
2.817190503803906898e-02 1.214543013256821347e-01 -5.410196029632028392e-01 8.689509102563750531e-01 3.333787929653047044e-01 -3.657634426314552711e-01
3.587900082522689493e-02 5.348361617068835006e-02 -5.674108392721926020e-01 8.950158878235062732e-01 2.056508517652831936e-01 -3.957957651513142605e-01
4.256045325260308931e-02 7.925263723369868618e-02 -5.389532685701902137e-01 8.942925430638644091e-01 2.057503524173076304e-01 -3.973759427802843747e-01
4.196957828925278883e-02 -8.635790664121295590e-02 -6.457697514361901980e-01 -8.991411108303766220e-01 -2.022601290957574960e-01 3.881186712757884738e-01
7.015534119378813438e-02 -2.402358615511094100e-02 -5.477291986892678377e-01 -9.176462312630163654e-01 -1.874821901879134278e-01 3.503938107488854259e-01
2.275021131070359415e-02 1.907928619753849198e-01 -5.444985765609562378e-01 -8.991059225971558266e-01 -2.111046700954481714e-01 3.834623295900254081e-01
-8.674133851455462230e-03 2.393279992463658856e-01 -5.908918646870066071e-01 -8.843684973934212712e-01 -2.571656736647397468e-01 3.895615190270500516e-01
2.797663913659277635e-02 1.561651747214894415e-01 -5.325070961065198061e-01 8.939385275558364707e-01 1.962167644010534007e-01 -4.029551964167784606e-01
-2.766439451138372890e-02 -3.067110174043474052e-02 -7.567638689666835727e-01 8.971309951560693108e-01 2.043533232157505874e-01 -3.916576270430076612e-01
3.884322290255291799e-02 1.373402562137796545e-01 -5.180359695796049602e-01 8.824877802727640885e-01 1.936391899814685069e-01 -4.286247563692165974e-01
-4.787377855990544717e-02 1.729707942964474332e-02 -7.971614873063616047e-01 -8.946559621856725597e-01 -2.063563868885394392e-01 3.962420357760339518e-01
6.666723690516770939e-02 -6.771209290408657100e-02 -5.621558296209250294e-01 8.741784976993595135e-01 2.258787184122341141e-01 -4.298729564982400886e-01
-3.072065803927623989e-02 8.534308797417575199e-02 -7.227122750559097364e-01 -8.971309951560693108e-01 -2.043533232157505874e-01 3.916576270430076612e-01
1.501878094943745034e-03 -2.492663359351253438e-01 -8.071452741153163357e-01 -2.110146087747681587e-01 4.521681287623126599e-01 -8.666122652116228231e-01
4.925443278437879879e-02 7.671934936226769419e-02 -5.252748295180542648e-01 8.836553492970290469e-01 2.049351687486781204e-01 -4.208976125718660866e-01
1.958512411588616414e-02 -8.796111614874024820e-02 -6.979059501017942369e-01 -8.971309951560693108e-01 -2.043533232157505874e-01 3.916576270430076612e-01
2.967790895588833661e-02 7.530815935966563013e-02 -5.895991887683300625e-01 -8.971309951560693108e-01 -2.043533232157505874e-01 3.916576270430076612e-01
-3.299408985895444651e-02 -9.607459545489671626e-02 -8.030973370993566007e-01 8.971309951560693108e-01 2.043533232157505874e-01 -3.916576270430076612e-01
2.059034353797314226e-02 -1.291082984253190680e-01 -7.170725625213494325e-01 -8.971309951560693108e-01 -2.043533232157505874e-01 3.916576270430076612e-01
2.360299579419658511e-02 -5.603595115820710765e-02 -6.437983411504601960e-01 9.072262858067779989e-01 8.998249296181462520e-02 -4.109058496804535165e-01
-3.698826754862925142e-02 -4.397176230107534972e-02 -7.850609552938891955e-01 8.971309951560693108e-01 2.043533232157505874e-01 -3.916576270430076612e-01
-3.852919811101112452e-02 1.875921824582261199e-01 -6.681211675772902314e-01 8.973808667430690500e-01 1.995602181327220392e-01 -3.935521558094665084e-01
1.856490274561195747e-03 -2.031823351553634360e-01 -7.796301294067888854e-01 8.962158208683130844e-01 2.110185134917846872e-01 -3.902158241141087669e-01
-2.345357970522315982e-02 1.973494438794354544e-01 -6.284049163933222992e-01 8.976316939834870778e-01 2.003472012229023103e-01 -3.925790887432557552e-01
-3.319076134205652031e-03 -3.795640775440398129e-01 -8.767368013360914425e-01 5.228554400520787349e-01 3.985619418499700695e-01 -7.535055191017038245e-01
1.034472380805523221e-02 4.988856510199845412e-02 -6.191117376440675724e-01 9.039025617241730481e-01 1.253969634938215116e-01 -4.089446911930840201e-01
3.769647672796750532e-02 -6.500409808726159699e-02 -6.250389616708229568e-01 8.951554209784620131e-01 2.062549144209084584e-01 -3.951653863512037956e-01
-5.501088452830046188e-02 1.084207251144464479e-01 -7.657243172443555235e-01 -8.947684593743401305e-01 -2.070793938518223631e-01 3.956103243734057640e-01
-5.331624258932331911e-02 1.258790916770914925e-01 -7.387152418475454452e-01 2.635866641935248333e-01 7.852963207561718395e-01 5.602068895204248555e-01
5.842642139890322737e-03 1.333011314714793727e-01 -6.139375378928130234e-01 -8.971309951560693108e-01 -2.043533232157505874e-01 3.916576270430076612e-01
8.156902648673233780e-03 -1.907860957025598325e-01 -7.869202693275347826e-01 -9.291048852619020471e-01 -1.710660092613800476e-01 3.278727385097043867e-01
-3.493868394346758693e-02 1.905995182318304809e-02 -7.474784234796542082e-01 8.971309951560693108e-01 2.043533232157505874e-01 -3.916576270430076612e-01
9.018896106931123882e-03 -1.359234733347051416e-01 -7.564668290274069173e-01 -9.248946465994855037e-01 -2.378211795693420047e-02 3.794789896121985029e-01
-4.975197898474295610e-02 1.821235080059466216e-01 -6.970245718391797629e-01 8.998339561765582584e-01 1.956575351664503748e-01 -3.898935498879572137e-01
-2.908353161774798225e-03 4.982679630159986273e-02 -6.775365723526831641e-01 -8.971309951560693108e-01 -2.043533232157505874e-01 3.916576270430076612e-01
-2.968393613876701368e-04 -3.157107831998350322e-01 -8.413756986278773109e-01 -2.110146087747681309e-01 4.521681287623126599e-01 -8.666122652116228231e-01
-6.426547492216308499e-02 9.911805297621230360e-02 -7.736297333863476622e-01 9.078717759279126831e-01 1.922893800884571125e-01 -3.725501748472207497e-01
-2.220373417238894614e-02 1.141107079406826763e-01 -6.687135688767238406e-01 8.971309951560693108e-01 2.043533232157505874e-01 -3.916576270430076612e-01
-8.212859264272568544e-03 -3.319725932622131781e-01 -8.617214520353309037e-01 9.291486740726274673e-01 1.710202811628120378e-01 -3.277724895412532091e-01
-5.003508873292437237e-02 1.148127615131815521e-01 -7.511244025867602758e-01 -8.946940594942962566e-01 -2.073149133974867830e-01 3.956552370291706588e-01
-5.088818379232799144e-02 1.012245027015733490e-01 -7.414135132717326604e-01 8.991380912947594117e-01 2.020090813203703761e-01 -3.882563893188580306e-01
3.883028257124536420e-02 -1.837911776346507486e-01 -6.849638946536601436e-01 8.890863438681821940e-01 2.196436609209714286e-01 -4.015994713197985067e-01
1.039778739212324915e-02 2.319205258979284423e-01 -5.502420452563575592e-01 -9.059639336211438021e-01 -2.333784154044973858e-01 3.532192891122872269e-01
6.551722269887863548e-02 2.393893009547611722e-02 -5.334291056288488209e-01 -9.008384848909545273e-01 -2.026645823205395769e-01 3.839493341734176446e-01
-5.709959465958878988e-02 1.142119472411659148e-01 -7.490637966669562164e-01 8.995513357163189561e-01 2.013718954704109276e-01 -3.876296610498740636e-01
7.582724966950956909e-04 1.938025872824408191e-01 -5.937154418089871655e-01 -8.970946305761969830e-01 -2.073446352813521076e-01 3.901658955001061635e-01
1.920636977840774889e-02 5.587204347219484196e-02 -6.237263863823122589e-01 -8.971309951560693108e-01 -2.043533232157505874e-01 3.916576270430076612e-01
6.833156862958550404e-02 -7.576370153330545809e-02 -5.630901841898237059e-01 8.028986749866655614e-01 2.802814988278830022e-01 -5.261140552384551139e-01
-1.889693112849187909e-02 1.823903625972611575e-01 -6.530667130614534743e-01 -5.019753131835332782e-01 -7.728881542316683451e-01 -3.881554920423750943e-01
-7.254830273779794281e-02 9.777321487588920557e-02 -8.013139062186073192e-01 4.416406673255416915e-01 -4.358826246140573013e-01 7.841937633798238272e-01
2.467325894186982865e-02 -3.615416129223655850e-03 -6.227625199072426287e-01 8.971309951560693108e-01 2.043533232157505874e-01 -3.916576270430076612e-01
3.395161326931710882e-02 -7.410622128313065771e-02 -6.577690666753357451e-01 -8.971309951560693108e-01 -2.043533232157505874e-01 3.916576270430076612e-01
1.148952032535015787e-02 1.274019988415710514e-01 -5.833764168363210212e-01 5.739625286741482230e-02 9.802342627232905059e-01 1.893316147401349625e-01
-3.935297736545254749e-02 7.175778661032293504e-02 -7.300939076568518926e-01 8.971309951560693108e-01 2.043533232157505874e-01 -3.916576270430076612e-01
5.971117045781050570e-02 3.475614143746564699e-03 -5.577442274340057571e-01 -8.994678399297104665e-01 -2.026647433855657543e-01 3.871493338760165770e-01
-4.490671540793158417e-03 2.308241895156952495e-01 -5.685132375261811033e-01 8.980764370011604658e-01 1.855322027057171030e-01 -3.987938252561906705e-01
-1.546720791908277014e-02 1.260880715955347009e-01 -6.470335096069378400e-01 8.971309951560693108e-01 2.043533232157505874e-01 -3.916576270430076612e-01
-1.840251205050675090e-02 -1.901168441983563384e-01 -8.201862941401559803e-01 9.050131167847833558e-01 2.251191362280946240e-01 -3.609330034111714602e-01
4.317769145789999985e-02 -5.465112033430694072e-02 -6.264430652752916995e-01 -8.990976839350889316e-01 -2.024389703700885668e-01 3.881260336772801578e-01
2.475558292395838543e-03 -1.599021803191652547e-01 -7.746334673972002927e-01 -8.971309951560693108e-01 -2.043533232157505874e-01 3.916576270430076612e-01
-6.679024216654057960e-03 -3.598371971076778086e-01 -8.719950870484617367e-01 9.294076761934100261e-01 1.757104755107531946e-01 -3.245415231192310679e-01
6.109021039947984399e-02 -1.401867550798167328e-01 -6.293231286741711727e-01 -9.015058832852866910e-01 -1.982302304100324319e-01 3.846971772103359721e-01
3.003664708149477586e-02 -1.011182636498780124e-02 -6.138667433976326970e-01 8.971309951560693108e-01 2.043533232157505874e-01 -3.916576270430076612e-01
-3.340528774024251885e-02 -3.587605073447475840e-02 -7.726297207988221949e-01 8.971309951560693108e-01 2.043533232157505874e-01 -3.916576270430076612e-01
-8.418613004789932477e-03 -2.130574772718154541e-01 -8.096424492348488489e-01 9.095018241641821266e-01 2.438802002063131247e-01 -3.366435500486437138e-01
-5.720058650275540099e-03 -2.024559488057925960e-01 -8.010029148257554743e-01 6.461403971326153961e-01 -3.530528364048898804e-01 6.766507828265388991e-01
3.405681112985480680e-02 6.967912090082234444e-02 -5.825059114832111806e-01 -8.971309951560693108e-01 -2.043533232157505874e-01 3.916576270430076612e-01
-2.805490002043561394e-03 5.512885361448178340e-02 -6.745345249535315002e-01 -8.971309951560693108e-01 -2.043533232157505874e-01 3.916576270430076612e-01
7.097182138597206424e-02 -1.166096636519877855e-01 -5.932228279193511034e-01 -9.524742462018912503e-01 -1.179697807712438429e-01 2.808486089460361379e-01
2.216357089215326148e-02 -1.942760325475667016e-01 -7.471501338253858648e-01 -8.985582699498695369e-01 -1.965224619327844702e-01 3.923926062766405209e-01
2.639460840857413802e-03 9.756614414218567344e-02 -6.399200183544105913e-01 -8.971309951560693108e-01 -2.043533232157505874e-01 3.916576270430076612e-01
3.243934919258806195e-03 5.648154592325890788e-02 -6.404920275074321712e-01 8.971309951560693108e-01 2.043533232157505874e-01 -3.916576270430076612e-01
3.204303425484855694e-02 7.285560174703221981e-02 -5.660209460045535490e-01 8.948085444258970789e-01 2.058433430748194126e-01 -3.961643433402219916e-01
4.580968842978365430e-02 1.237151242578063137e-01 -5.353803287185256998e-01 -9.671531237443695694e-01 -2.042350037305872001e-01 1.513370360575209128e-01
-4.407974366356289669e-02 2.306114831826954620e-02 -7.847218441693523117e-01 -2.709455265409084490e-02 6.850339004948533539e-01 7.280071705617202626e-01
1.716895861296510034e-02 1.141386787867638454e-02 -6.515900098113592831e-01 -8.971309951560693108e-01 -2.043533232157505874e-01 3.916576270430076612e-01
8.044840514345780527e-03 -4.044625280909099063e-02 -6.944351285952862218e-01 -3.085612395930914520e-02 -9.864290870663182664e-01 -1.612623818617282545e-01
-1.232078817220964156e-02 -7.914781993649510836e-03 -7.292242434263960238e-01 -8.971309951560693108e-01 -2.043533232157505874e-01 3.916576270430076612e-01
-2.299241885672195090e-02 2.101244272216670206e-01 -6.395174985238119003e-01 -8.963646855420780435e-01 -2.102536735165289328e-01 3.902867449528055754e-01
-1.512472321416935377e-02 2.360434407577477189e-01 -5.903651216199549134e-01 9.021513373458743823e-01 1.796472880134246108e-01 -3.922369391509062386e-01
2.170001752440103154e-02 -8.310787073055644902e-02 -6.905293204683308206e-01 -8.971309951560693108e-01 -2.043533232157505874e-01 3.916576270430076612e-01
1.463279499286060902e-03 -1.070002862677385536e-01 -7.493498255400452557e-01 -8.971309951560693108e-01 -2.043533232157505874e-01 3.916576270430076612e-01
7.337585588424498650e-02 -3.472001000793257380e-02 -5.409198023642755038e-01 -4.416406673255416360e-01 3.938817049414885529e-01 -8.061083819664922601e-01
-3.014131140745812763e-03 3.945518488266250984e-02 -6.637105169869766952e-01 8.971309951560693108e-01 2.043533232157505874e-01 -3.916576270430076612e-01
1.541841231466937155e-03 -3.098842816901496017e-02 -7.095095290825031986e-01 -8.971309951560693108e-01 -2.043533232157505874e-01 3.916576270430076612e-01
2.384728666146927745e-02 1.269880791692172273e-01 -5.567230688591056076e-01 8.945695138548578340e-01 2.062434590771650700e-01 -3.964959274310004833e-01
-3.386449292208832795e-03 9.064345264627843290e-02 -6.498796051714322841e-01 2.051072048972479578e-01 -4.527494145301935724e-01 8.677263405831387999e-01
5.000408953965618242e-02 7.882924468347336788e-02 -5.226736506970555141e-01 8.836553492970290469e-01 2.049351687486781204e-01 -4.208976125718660866e-01
-2.949691803713126032e-02 -1.185366443341213938e-02 -7.490140346493960877e-01 2.757252489479995461e-01 7.563811634466076628e-01 5.931805144100064098e-01
-2.636264386359407630e-02 2.161672737980387393e-01 -6.439780161243582324e-01 -8.955611564032015526e-01 -2.113037080192128048e-01 3.915622021072663883e-01
2.142941163413202704e-02 -1.065744862720994501e-01 -7.033932338822257435e-01 -8.971309951560693108e-01 -2.043533232157505874e-01 3.916576270430076612e-01
-3.357541196427419466e-02 -3.116869184277818589e-02 -7.900431676728425501e-01 -8.971309951560693108e-01 -2.043533232157505874e-01 3.916576270430076612e-01
5.417018140642166496e-02 2.754151009422258975e-02 -5.395731563212858850e-01 8.947140316432172780e-01 2.056002542019571555e-01 -3.965038928596167356e-01
5.535693624898165022e-02 -2.590081151573800367e-02 -5.832178700673287253e-01 -8.994776283476335621e-01 -2.022233023953625974e-01 3.873573699704575546e-01
-3.685426775214619560e-02 -1.495666214435890096e-01 -8.419858050159242380e-01 9.289803512208952840e-01 2.460231307056449934e-01 -2.765287077380844671e-01
-7.611245738842622489e-03 3.000680517535500233e-02 -6.986504002971691829e-01 -8.971309951560693108e-01 -2.043533232157505874e-01 3.916576270430076612e-01
4.244421538509366397e-03 1.055676964295493986e-01 -6.320687636453057312e-01 -8.971309951560693108e-01 -2.043533232157505874e-01 3.916576270430076612e-01
-6.820718648298505771e-02 1.076904915704007121e-01 -7.788191474798665803e-01 9.080367744141987218e-01 1.918710524358711034e-01 -3.723636872046047208e-01
-2.218658409439647552e-02 -1.271018807644207493e-01 -8.138520488401603803e-01 -8.944632809284432939e-01 -2.061504652985373942e-01 3.967838513950903701e-01
5.324551298292936642e-03 -4.855565794298279114e-02 -6.822766149853706219e-01 9.077828828647371839e-01 8.922551778023929403e-02 -4.098402671220032767e-01
1.133628986068601491e-02 -1.446844212816292274e-01 -7.463969776743190065e-01 -8.971309951560693108e-01 -2.043533232157505874e-01 3.916576270430076612e-01
-2.030617219794975808e-02 -6.983673646177701588e-02 -7.798242862314239687e-01 -8.971309951560693108e-01 -2.043533232157505874e-01 3.916576270430076612e-01
2.046478968175215879e-02 4.929027882015706019e-02 -6.047980890402828713e-01 8.971309951560693108e-01 2.043533232157505874e-01 -3.916576270430076612e-01
-6.103259749709098736e-02 4.042599190139161552e-02 -7.966428368312391539e-01 8.995134099366660640e-01 2.022137648150260092e-01 -3.872792515271694658e-01
3.971285511194174583e-02 -7.664194203014268458e-02 -6.265503335315746325e-01 8.951310323440553329e-01 2.064687247517076329e-01 -3.951089731125694837e-01
5.532320872555988867e-02 -1.417650128864322845e-01 -6.435823391309496433e-01 -8.999849702264965945e-01 -1.998517994056075997e-01 3.874097464452242456e-01
-7.680882897566283438e-03 -3.539740302922160242e-01 -8.716930235228228518e-01 9.291486740726274673e-01 1.710202811628120378e-01 -3.277724895412532091e-01
-5.314454869718531621e-02 8.158746376477954421e-02 -7.755347718620342334e-01 -8.947822500679584179e-01 -2.068233244822874350e-01 3.957130746050931958e-01
-4.679796367922706146e-02 -1.255653642399387308e-02 -8.102664410133204598e-01 -8.945302463413998817e-01 -2.061635645724468335e-01 3.966260493502373752e-01
-5.756434748547450270e-02 1.510113693096716281e-01 -7.310493145826557626e-01 8.996950971215247339e-01 2.010961390806406401e-01 -3.874391243309712185e-01
-1.673163008861581341e-02 6.015454884981488032e-02 -7.038115097484181071e-01 -8.971309951560693108e-01 -2.043533232157505874e-01 3.916576270430076612e-01
7.384849024233960946e-02 -8.359682046660855959e-02 -5.675411275038249048e-01 -8.298338781828031863e-01 3.277754520264622440e-01 -4.515960447888543450e-01
3.632446235363000903e-02 -8.395942375746237585e-02 -6.574748765907780790e-01 -8.971309951560693108e-01 -2.043533232157505874e-01 3.916576270430076612e-01
4.429207442889878527e-02 1.945792757152819963e-02 -5.660720004346622147e-01 8.951049764406288078e-01 2.057978343616424788e-01 -3.955178030421375168e-01
-1.840606621273097737e-02 -6.533911768427699829e-02 -7.731252022968911897e-01 -8.971309951560693108e-01 -2.043533232157505874e-01 3.916576270430076612e-01
-3.137645534183697987e-02 2.061206126458639265e-01 -6.608767565378305120e-01 -8.971309951560693108e-01 -2.043533232157505874e-01 3.916576270430076612e-01
2.825163724578125604e-02 4.222912112824853126e-02 -5.819970261470795991e-01 9.042976561039466343e-01 8.900892017991464400e-02 -4.175202525546682364e-01
3.018369155678234106e-02 -1.874371672922582055e-01 -7.252742354793612067e-01 -8.998922260989329347e-01 -2.003885655126952103e-01 3.873479110805573833e-01
-2.879196285040073328e-02 -6.693699556000409778e-02 -7.977488551361081592e-01 -8.971309951560693108e-01 -2.043533232157505874e-01 3.916576270430076612e-01
2.093471471239332499e-02 3.801960842509882060e-02 -6.290822188082122457e-01 -8.971309951560693108e-01 -2.043533232157505874e-01 3.916576270430076612e-01
5.648964949312697964e-02 -1.533898785732767389e-01 -6.296050803002948282e-01 8.828674721852258767e-01 2.268750605929873154e-01 -4.111845491238669270e-01
3.341044483577231688e-02 -3.773793400490711020e-02 -6.400329601629144438e-01 -8.971309951560693108e-01 -2.043533232157505874e-01 3.916576270430076612e-01
-3.485894975930060175e-02 1.471931642130936413e-01 -6.997914731600179961e-01 -8.947978824697997435e-01 -2.072105089141245970e-01 3.954750997510609323e-01
2.997398915366305400e-03 -3.184383407939817001e-01 -8.436009694808646042e-01 -2.110146087747681309e-01 4.521681287623126599e-01 -8.666122652116228231e-01
-4.108701474797047531e-02 2.056584615494617407e-01 -6.763770445928301012e-01 -1.103006289720724481e-01 -9.346832391346244773e-01 -3.379364048592155556e-01
9.271458913333273377e-03 -1.353856534235742537e-01 -7.462749060799556133e-01 -8.971309951560693108e-01 -2.043533232157505874e-01 3.916576270430076612e-01
2.663594599462308643e-02 1.597525947545855030e-01 -5.522045596479877583e-01 -8.976339449550058136e-01 -2.074146710726745280e-01 3.888861724056641433e-01
-1.618696277895496222e-02 -4.595611047008695688e-02 -7.579287449855193204e-01 -8.971309951560693108e-01 -2.043533232157505874e-01 3.916576270430076612e-01
-2.542372870608161726e-03 -9.413078166212583697e-03 -6.881276668830701437e-01 8.971309951560693108e-01 2.043533232157505874e-01 -3.916576270430076612e-01
-3.339108353503517090e-02 1.322257130948593928e-01 -7.043163932154884455e-01 -8.950229592732437123e-01 -2.072490363990369400e-01 3.949452358054673096e-01
4.150813214526642703e-02 -1.218420099102027754e-01 -6.653012093530856763e-01 -8.993722658992798769e-01 -2.016451090622027598e-01 3.879030514477647129e-01
-5.879219191415389206e-02 1.139965309839590518e-01 -7.713187215307654165e-01 -8.934026781774029313e-01 -2.088683976710763168e-01 3.977507348576000412e-01
2.398367098394967034e-02 1.266740212375184471e-01 -5.762020201110461537e-01 -2.627930410652287163e-01 9.083346035819387376e-01 3.253737320426022817e-01
3.504226019916172746e-02 -1.364990733318543759e-01 -6.878252501445709655e-01 -8.971309951560693108e-01 -2.043533232157505874e-01 3.916576270430076612e-01
-3.151767269905629554e-02 -1.273019145724646473e-01 -8.162662307953845175e-01 8.998797606481891975e-01 2.030921040562805313e-01 -3.859663374515328593e-01
5.571298741577314015e-03 -2.793542029508055968e-01 -8.246649347871924940e-01 -6.507381081782231957e-01 3.512412105947563257e-01 -6.731786735663549681e-01
-9.810877094866977954e-03 1.629002097750161249e-01 -6.343497211909661093e-01 -8.971309951560693108e-01 -2.043533232157505874e-01 3.916576270430076612e-01
3.326088651235815236e-02 1.279340879777980111e-01 -5.627801308348525655e-01 -9.049007235104170599e-01 -7.113919006958550895e-02 4.196354325203808244e-01
-6.204214282839089212e-02 1.867100358665564064e-01 -7.286628081674439983e-01 3.951280515789765690e-01 -7.676691655733929309e-01 5.045372880999502430e-01
-5.595547666604746423e-02 1.651392687711162599e-01 -7.379988534324403160e-01 -8.931261048059407903e-01 -2.107453543992202083e-01 3.973816257872460622e-01
-6.036814032921829047e-03 8.456550290326433905e-02 -6.509426346033376776e-01 6.461403971326155071e-01 -3.530528364048899359e-01 6.766507828265390101e-01
2.534388738013199430e-03 -1.943063317554634961e-01 -7.984457798675883566e-01 -5.375185727827204163e-01 -3.900749928833183167e-01 7.476063695827547262e-01
-1.334821856593703879e-02 -1.323684475325537062e-02 -7.437199569842832814e-01 -8.844973753748384127e-01 -1.469692136615643463e-01 4.427916476072281671e-01
7.409461399364873635e-03 1.101432889823621558e-01 -6.320240498197270407e-01 -9.291046023899811601e-01 -1.710715086955149622e-01 3.278706707383189922e-01
-4.000981157466169946e-02 -7.266793111337191413e-02 -8.250662231919922984e-01 -2.576595334632332188e-02 7.088943960652288601e-01 7.048438485760301075e-01
-3.633483225679399325e-02 1.118958249373890462e-01 -7.022379122898694259e-01 8.971309951560693108e-01 2.043533232157505874e-01 -3.916576270430076612e-01
3.219344600036595089e-02 -1.993498511215348878e-01 -7.084387621786469857e-01 8.901758297226683991e-01 2.228478576540940115e-01 -3.973988229933998473e-01
-2.684702084010125427e-03 1.521734954893386171e-01 -6.325900525302227129e-01 -8.834527873580663160e-01 -1.335504270712164765e-01 4.490829054176511126e-01
4.592449064217393739e-02 -1.413981752076819698e-01 -6.464049507046084608e-01 8.942220282116779551e-01 2.088658429488939872e-01 -3.959065848280891586e-01
-5.085608723201232549e-03 -2.836940100511483043e-01 -8.290004240413639813e-01 8.595353735509974058e-01 2.364157914826318374e-01 -4.531076198346128958e-01
1.118826372828062715e-02 -6.810486547716171346e-02 -7.067794984879601783e-01 -8.971309951560693108e-01 -2.043533232157505874e-01 3.916576270430076612e-01
-5.885601701683624253e-03 -9.562989471098293226e-02 -7.407706023518072502e-01 8.971309951560693108e-01 2.043533232157505874e-01 -3.916576270430076612e-01
-1.099908007967464844e-02 -1.042417630616670615e-01 -7.859712576810040652e-01 -8.920337944738266911e-01 -1.751930899363911831e-01 4.166330408827007559e-01
-1.296067969602217318e-02 1.860760007017021322e-01 -6.101941648623891989e-01 8.972596471921201466e-01 2.010405728556106664e-01 -3.930748193239552157e-01
4.811725050904928219e-02 6.824884347638543458e-02 -5.507331704466641442e-01 -8.992178252471938471e-01 -2.033083325531608310e-01 3.873925975959794932e-01
-8.266255031941187673e-03 -2.591487188307180223e-02 -7.022520251357873278e-01 9.961255400388626668e-01 -4.068087541231445864e-02 7.796778089680360402e-02
5.369833083885988678e-02 -6.930734678871523780e-02 -5.975450703356398607e-01 2.991448046003088168e-02 9.881283458234292327e-01 1.506900661591845103e-01
-1.330007304203820878e-02 1.149824842931952973e-01 -6.673438757363373552e-01 -8.971309951560693108e-01 -2.043533232157505874e-01 3.916576270430076612e-01
1.692636244352981739e-02 1.216713463602384221e-01 -5.946171844315549793e-01 -8.971309951560693108e-01 -2.043533232157505874e-01 3.916576270430076612e-01
1.712665710511259570e-02 -3.450163762937758991e-03 -6.594424402093163051e-01 -8.971309951560693108e-01 -2.043533232157505874e-01 3.916576270430076612e-01
-4.774011629501102860e-02 9.599249879525114867e-03 -7.818997946567469715e-01 8.991126685490961057e-01 2.027283313270975829e-01 -3.879402440220061643e-01
-5.248673629205904273e-02 2.012474060777116047e-01 -7.101236930307350814e-01 -8.004991551235849379e-01 -3.524378012494921442e-01 4.847563294035986403e-01
5.238977809356292620e-02 -5.528081090017065297e-02 -5.867059571884405411e-01 8.947221833882018638e-01 2.067146964307785273e-01 -3.959056059625575275e-01
-3.542806571696457962e-02 1.877251109131292117e-01 -6.797731890883430550e-01 -8.969238102264511792e-01 -2.080147869285427775e-01 3.902019055155139249e-01
-4.445960205391243092e-02 3.193542817705445624e-03 -7.967842392036332821e-01 -8.951218583343238944e-01 -2.059815403665433697e-01 3.953839447427430764e-01
3.224740802530606104e-02 -1.050353920266328678e-01 -6.778104845624689512e-01 -8.971309951560693108e-01 -2.043533232157505874e-01 3.916576270430076612e-01
1.640173207723551532e-02 -2.084886759941924905e-01 -7.492611663825868851e-01 8.918056244137354538e-01 2.168609586831710678e-01 -3.970567375867630755e-01
6.546189995927892413e-02 -1.534446634534194776e-01 -6.221719773991510882e-01 -4.128233331981661647e-01 7.034290226177650762e-01 -5.785883732898300380e-01
5.545449229150332948e-02 1.074713514697802352e-01 -5.097193435403246653e-01 -6.416916809008810230e-01 -1.807054792866526205e-01 -7.453705899875465724e-01
4.051133999990462475e-02 -1.753922609247865472e-02 -5.938997191840784673e-01 8.951753368429022917e-01 2.060050236221368236e-01 -3.952506123343000333e-01
6.108335145295498009e-02 -1.014443812966529454e-02 -5.616818916330160727e-01 -8.994869117495883915e-01 -2.024788275559521455e-01 3.872022985246277305e-01
-1.138337559563607458e-02 -4.475774444157464699e-02 -7.268204856559817850e-01 8.971309951560693108e-01 2.043533232157505874e-01 -3.916576270430076612e-01
-1.477660209736495617e-02 1.301191150895830151e-01 -6.628282460061001302e-01 -8.971309951560693108e-01 -2.043533232157505874e-01 3.916576270430076612e-01
-4.417565833383425150e-02 -8.718044050036358183e-02 -8.243360242974770991e-01 8.997080861848369970e-01 2.035104309465454731e-01 -3.861461694094209807e-01
-4.500833046622448180e-03 -9.938957237153801805e-02 -7.317274739561593355e-01 8.595353735509974058e-01 2.364157914826318374e-01 -4.531076198346128958e-01
5.281782692367458995e-03 1.457152592197838159e-01 -6.186442919729667755e-01 -8.971309951560693108e-01 -2.043533232157505874e-01 3.916576270430076612e-01
-5.400506524085706139e-02 -4.627229439989722498e-02 -8.344299367451081251e-01 3.343978672018041443e-02 -7.154837229709010149e-01 -6.978286486149789525e-01
-2.990471997602826143e-02 -5.897520353265960774e-02 -7.766636542314098168e-01 8.971309951560693108e-01 2.043533232157505874e-01 -3.916576270430076612e-01
2.547611676215223546e-03 -1.050657802261260321e-01 -7.321610706976312555e-01 -2.110146087747681864e-01 4.521681287623127155e-01 -8.666122652116229341e-01
3.459112512907581982e-02 1.639964195922350154e-01 -5.161470065555697762e-01 7.443339859787480028e-01 7.952032504901221377e-02 -6.630561327829556095e-01
-2.743518753589766629e-02 1.193695795686660482e-01 -6.974327365678933965e-01 -8.971309951560693108e-01 -2.043533232157505874e-01 3.916576270430076612e-01
-6.615445282078881439e-02 2.886498421735337813e-02 -8.316430419369010840e-01 -8.734251997032845827e-01 -2.213927102622712806e-01 4.337207492915269302e-01
9.795668416967991815e-03 2.268230249175051394e-01 -5.414901612825948618e-01 2.377052802642160012e-01 -3.631247083696790834e-01 -9.009087888937181710e-01
-5.416507432998107774e-02 1.417126170769788807e-01 -7.463529675063118596e-01 -8.930629839854817842e-01 -2.098184564317512601e-01 3.980134695905961917e-01
8.051674059387120205e-03 -4.326784886773306360e-02 -7.109043892512180163e-01 -8.971309951560693108e-01 -2.043533232157505874e-01 3.916576270430076612e-01
-3.576135826807522872e-02 1.163940590505598144e-01 -6.985772906631472212e-01 8.971309951560693108e-01 2.043533232157505874e-01 -3.916576270430076612e-01
-3.033424511282515126e-02 1.981391334739194543e-01 -6.437590725640006672e-01 8.996876690998598658e-01 2.009540074370667340e-01 -3.875301084620962899e-01
9.069278990014308442e-03 1.459104765816464366e-01 -6.052853035961197614e-01 -9.399421811639286917e-01 -3.412525089006619439e-01 7.444544163340404558e-03
1.021842942128131128e-02 1.314374172593941459e-01 -5.854068839899477794e-01 8.971309951560693108e-01 2.043533232157505874e-01 -3.916576270430076612e-01
6.674021055614622056e-02 3.561933116370022412e-02 -5.240426281339655157e-01 -9.190427581526102729e-01 -1.936188101734673539e-01 3.433251593376943633e-01
-2.693394244521683106e-02 -4.308354566383477274e-02 -7.810469731864245757e-01 -8.971309951560693108e-01 -2.043533232157505874e-01 3.916576270430076612e-01
1.917595051535538747e-02 -8.206087506965573097e-02 -6.957646626738408502e-01 -8.971309951560693108e-01 -2.043533232157505874e-01 3.916576270430076612e-01
2.440160152297090462e-02 1.197052175986203400e-02 -6.347324746937341722e-01 -8.971309951560693108e-01 -2.043533232157505874e-01 3.916576270430076612e-01
-4.079776223579910377e-02 2.255589698871277304e-01 -6.547011740180476158e-01 9.054162541771439976e-01 1.776563292471061706e-01 -3.855640483113970118e-01
2.534763178733863767e-02 -1.957949073623765635e-01 -7.218523025480926281e-01 8.911256129425312311e-01 2.213080477557203274e-01 -3.961286280444142882e-01
2.857671497470372704e-02 -1.878078577688107875e-01 -7.291878266954244792e-01 -8.983255798008433768e-01 -1.981863419323980080e-01 3.920884167466991421e-01
-2.409233969298311268e-02 -7.297150249470524264e-02 -7.901324936815402600e-01 -8.971309951560693108e-01 -2.043533232157505874e-01 3.916576270430076612e-01
3.186370362947960055e-02 9.797970001798089745e-02 -5.533832018381640294e-01 8.948165730053524447e-01 2.052937865103561521e-01 -3.964312826899474285e-01
2.853929189260281246e-02 3.035522132939900281e-02 -6.156621841731477751e-01 -8.971309951560693108e-01 -2.043533232157505874e-01 3.916576270430076612e-01
-1.925741542910373166e-02 -6.509490577467479111e-02 -7.554679852070608215e-01 8.971309951560693108e-01 2.043533232157505874e-01 -3.916576270430076612e-01
-1.954442911773682928e-02 -1.184024578739385769e-01 -7.839394447935318366e-01 8.971309951560693108e-01 2.043533232157505874e-01 -3.916576270430076612e-01
-4.820007878377131211e-02 -5.189422486364259068e-02 -8.151494180920786370e-01 8.993621322658842399e-01 2.028298552072868299e-01 -3.873084105499817187e-01
5.790588926767527289e-02 6.302315820004590619e-02 -5.306561109896191786e-01 -9.014612254921769985e-01 -2.027842835061524629e-01 3.824214864479225096e-01
-4.156852115370554546e-02 1.079355733606243151e-01 -7.076341885745563998e-01 8.773824597956974003e-01 1.142933555499798387e-01 -4.659796649210964925e-01
3.119658444589370333e-02 1.657820699380659901e-01 -5.383871203019685581e-01 -8.986552763871820115e-01 -2.083970572236470142e-01 3.859913998549728831e-01
6.089872608705602063e-03 1.445041070282780671e-01 -6.075259088881210801e-01 -8.971309951560693108e-01 -2.043533232157505874e-01 3.916576270430076612e-01
-3.971743199245079958e-02 -2.746266011250396433e-02 -8.020102835405319430e-01 -8.950138040180544152e-01 -2.059694902597555832e-01 3.956347554238225928e-01
1.771517088919221522e-02 4.530456136325796551e-02 -6.131759747874820921e-01 8.971309951560693108e-01 2.043533232157505874e-01 -3.916576270430076612e-01
-4.125810348086475510e-02 2.022491004191651898e-01 -6.669380652433021250e-01 9.018276930745721121e-01 1.924402648575768981e-01 -3.868766682876351171e-01
1.988126235200193132e-02 9.727205017766145378e-03 -6.267773522227227945e-01 8.971309951560693108e-01 2.043533232157505874e-01 -3.916576270430076612e-01
2.237791275130176366e-02 1.545744859464804610e-01 -5.647911701645113025e-01 -8.972957656944728910e-01 -2.076597740478871579e-01 3.895352706869429360e-01
4.023857099958213362e-02 1.018574786924179854e-01 -5.513915882870911167e-01 -8.994297638495507563e-01 -2.034025928681556239e-01 3.868507271752928411e-01
-3.711014090612316935e-02 1.558566571139381740e-01 -7.003457287841815537e-01 -8.947978824697997435e-01 -2.072105089141245970e-01 3.954750997510609323e-01
2.407884826312505638e-02 1.230278828766591948e-01 -5.775259062228143003e-01 -8.971309951560693108e-01 -2.043533232157505874e-01 3.916576270430076612e-01
-3.912464655238166722e-02 -9.980025660667352083e-02 -8.381220078655349237e-01 -8.931617956234896294e-01 -2.040681314996535267e-01 4.007720106804663618e-01
7.339604032827962143e-02 -7.643054964326759237e-02 -5.667164499179075943e-01 -9.178850092484611700e-01 -1.823271456541958879e-01 3.524825126932487618e-01
-1.809418442188085591e-02 -8.625209496629712702e-02 -7.833224697793941260e-01 -8.971309951560693108e-01 -2.043533232157505874e-01 3.916576270430076612e-01
-3.351670635446171026e-02 1.758377744103681861e-01 -6.817167932505002748e-01 -8.969238102264511792e-01 -2.080147869285427775e-01 3.902019055155139249e-01
-6.222296357011214418e-02 3.567445611883440088e-02 -8.199058612211211905e-01 -8.932631121962752996e-01 -2.072907092078425662e-01 3.988879219348889227e-01
5.110541337644231019e-02 1.719112651442124815e-04 -5.607091485850722590e-01 8.947576129285224056e-01 2.060437210553240917e-01 -3.961752126523420126e-01
2.702843753939620369e-02 3.059144258550206691e-02 -6.189996952554628340e-01 -8.971309951560693108e-01 -2.043533232157505874e-01 3.916576270430076612e-01
1.814487038543990266e-02 5.349345028003576336e-02 -6.273989241572728304e-01 -8.971309951560693108e-01 -2.043533232157505874e-01 3.916576270430076612e-01
1.915238156918452200e-02 2.462825518046969989e-02 -6.206720770716497304e-01 8.971309951560693108e-01 2.043533232157505874e-01 -3.916576270430076612e-01
-4.409856339720003016e-02 1.787808398783011787e-01 -6.854233604543057412e-01 8.994193746621784724e-01 2.009698633377215160e-01 -3.881441774808855327e-01
1.926779852845638200e-02 -5.330671968496808466e-02 -6.846207210210455418e-01 -7.420258962564514338e-01 5.157537851928041261e-01 4.282471276542373917e-01
-1.928336082934715284e-02 -1.959963436163119493e-02 -7.512694623963781515e-01 -8.971309951560693108e-01 -2.043533232157505874e-01 3.916576270430076612e-01
5.785865182830986914e-02 8.304644938492604378e-02 -5.201186009187329651e-01 -9.014309918804268573e-01 -2.041114041281444913e-01 3.817861987844861082e-01
3.986091180765938963e-02 4.611231566262806447e-02 -5.622365561054876171e-01 8.950158878235062732e-01 2.056508517652831936e-01 -3.957957651513142605e-01
-5.914668939459108432e-02 1.118750242529985423e-01 -7.732285101055995646e-01 -8.933541183881168468e-01 -2.084984236438178762e-01 3.980537984959242048e-01
2.851214959822575418e-02 8.343287221448002222e-02 -5.685503883615976584e-01 8.971309951560693108e-01 2.043533232157505874e-01 -3.916576270430076612e-01
6.060268358742243108e-03 1.322154227675056137e-01 -6.061557842794057516e-01 -2.617111188890209328e-01 9.112397879781034549e-01 3.180398387867117149e-01
6.127735634366519163e-02 -9.503995326741133953e-02 -6.055185296663065930e-01 -8.995780781397560988e-01 -2.017324963064429932e-01 3.873800217671968249e-01
1.817054856438016924e-02 1.264268103265512033e-01 -5.801621767689201237e-01 -2.579350231945651828e-01 9.094256182311234449e-01 3.262124594716733217e-01
4.017412818980836686e-02 -1.759149214092625979e-01 -6.777195530122361866e-01 8.898236906261312029e-01 2.154878272138221196e-01 -4.022173491076151408e-01
2.955161779810916781e-02 -2.189885926999197985e-01 -7.415793198670610487e-01 -9.205503079330922267e-01 -1.058113813720351626e-01 3.760200554976164122e-01
1.138820724082131343e-02 -1.185532501289447010e-02 -6.574925582811433911e-01 8.971309951560693108e-01 2.043533232157505874e-01 -3.916576270430076612e-01
-1.744673980162340238e-02 -9.718432352871667068e-02 -7.680635931816988116e-01 8.971309951560693108e-01 2.043533232157505874e-01 -3.916576270430076612e-01
8.988726923207460834e-03 1.936259225064657363e-01 -5.748509809691503269e-01 -8.978183900896126168e-01 -2.075241596201550520e-01 3.884016755767722429e-01
-3.360207451099914144e-02 -1.002391876216836841e-01 -8.066762472931275907e-01 8.978460107832959558e-01 2.082148059218991709e-01 -3.879679568152858415e-01
-2.159019283839818532e-02 -2.380280276039440507e-02 -7.310436217861019381e-01 9.054953184691196810e-01 2.845106034426143071e-01 -3.148522586217646912e-01
-4.737142185395018523e-02 -1.180241294779649647e-01 -8.508579888923625267e-01 9.585714330343988454e-01 2.825332831679412959e-01 3.627329145146333811e-02
-3.683321747739868451e-02 8.252512847046843125e-02 -7.187041210697134863e-01 8.971309951560693108e-01 2.043533232157505874e-01 -3.916576270430076612e-01
-8.239917681540578562e-03 1.057952350481873582e-01 -6.338667628916402341e-01 9.961255400388626668e-01 -4.068087541231447946e-02 7.796778089680365953e-02
4.287475558110201423e-02 -1.222776224740590029e-01 -6.623590719584161457e-01 -8.993722658992798769e-01 -2.016451090622027598e-01 3.879030514477647129e-01
-2.262824814992176262e-02 2.411706217790621221e-01 -6.210486604722353920e-01 -8.743088067546866959e-01 -2.746819397860489897e-01 4.001673929577087008e-01
5.808651492724519784e-03 -1.823556410946041983e-01 -7.593614938105340828e-01 8.962854339005799087e-01 2.097889282616941797e-01 -3.907186027775733095e-01
-4.762748127174298851e-02 9.795121224248541647e-02 -7.355653482329365112e-01 8.991380912947594117e-01 2.020090813203703761e-01 -3.882563893188580306e-01
-1.531728887411818417e-02 -1.086189908947895189e-01 -7.691520842947496828e-01 8.971309951560693108e-01 2.043533232157505874e-01 -3.916576270430076612e-01
-6.444000768514460478e-03 -3.723289169219632377e-01 -8.782345916496123728e-01 9.193901081153994514e-01 1.894879985214118490e-01 -3.446971533330428494e-01
1.585104773253204679e-03 -4.995480909172596989e-02 -6.916291622317416454e-01 8.777985445858722535e-01 3.105407232317711763e-01 -3.647385013096543505e-01
5.988418924475235640e-03 -7.026242610169690372e-02 -7.003361071211310351e-01 8.971309951560693108e-01 2.043533232157505874e-01 -3.916576270430076612e-01
3.919120659140153812e-02 -9.359160654281864500e-02 -6.559340498400340058e-01 -8.971309951560693108e-01 -2.043533232157505874e-01 3.916576270430076612e-01
4.374697145032046403e-02 -1.107945421360017647e-02 -5.832058664100263634e-01 8.951539764642542085e-01 2.059657118873641501e-01 -3.953194707410259134e-01
8.934245831953702491e-03 -1.406988754269609260e-02 -6.642690841802665336e-01 8.971309951560693108e-01 2.043533232157505874e-01 -3.916576270430076612e-01
7.811014541456987557e-03 -8.357157902878672995e-02 -7.225854187865223821e-01 -8.971309951560693108e-01 -2.043533232157505874e-01 3.916576270430076612e-01
-6.434266125466277242e-02 1.566399044615514324e-01 -7.445645641516908109e-01 9.080134806635300482e-01 1.882909172153327260e-01 -3.742433024484335125e-01
-1.950928590722487282e-02 5.274861456970352663e-02 -6.945582708495519064e-01 8.971309951560693108e-01 2.043533232157505874e-01 -3.916576270430076612e-01
1.817317254083344186e-02 -1.454038489939365741e-01 -7.116318895498197072e-01 8.971309951560693108e-01 2.043533232157505874e-01 -3.916576270430076612e-01
-3.077927107194408304e-02 2.145361137583641498e-01 -6.366020590594703155e-01 9.001404206595999824e-01 1.903906369019907341e-01 -3.917890101506329992e-01
