4.545779577768829099e-03 -3.242194359307980223e-02 -7.789660496149241053e-01 -9.989803213408864346e-01 2.137106073853920971e-02 -3.976927628922435204e-02
5.666492391626885838e-03 1.102063303655566179e-01 -7.304726487076813601e-01 -9.989803213408864346e-01 2.137106073853920971e-02 -3.976927628922435204e-02
2.408004497284726465e-03 5.875590106226843967e-02 -8.623517381969444395e-01 9.987207961007209533e-01 -2.382188941758837941e-02 4.460144639490934426e-02
-6.819022582361084590e-04 3.800025506077487052e-03 -6.295804921673090471e-01 -9.987690724414527432e-01 2.317815405540661969e-02 -4.385331354668327297e-02
2.815068650664319730e-03 1.050853272814873535e-01 -8.448068314343524232e-01 9.975412512305485979e-01 -3.479773611806121630e-02 6.083230765349206121e-02
5.319792741092999738e-03 4.796082619645765377e-02 -6.654606247483919601e-01 -9.964943128512391279e-01 -5.509475922912265844e-02 -6.295754093530976647e-02
7.407754589013153257e-03 1.149854030129872640e-01 -7.716439490289092040e-01 -9.989803213408864346e-01 2.137106073853920971e-02 -3.976927628922435204e-02
3.589467113542516366e-03 -1.773363373889751682e-01 -8.339731673360040176e-01 -9.989435510665527485e-01 2.603888663367714962e-02 -3.786499921330587631e-02
-6.220975412359637871e-03 -1.170793648492968880e-01 -8.285331688714157039e-01 9.945304648663627622e-01 3.301092030562669671e-02 9.909305522220902829e-02
7.992146598862780865e-03 -3.734266279186020110e-02 -8.699006058549991760e-01 -9.991889815065387870e-01 1.984162108641647840e-02 -3.503839763157634568e-02
5.956956720822290108e-03 1.406521245963565925e-01 -7.214080942963786436e-01 -9.989803213408864346e-01 2.137106073853920971e-02 -3.976927628922435204e-02
1.090592414499394480e-03 1.263440144042202729e-01 -6.083786965635913369e-01 -9.987019832029837563e-01 2.361127263792150294e-02 -4.513154717982121450e-02
8.446085737399364538e-03 1.999271387145651058e-01 -7.849402200057440382e-01 -5.086278915457488337e-01 -7.074038617695573850e-01 4.907926693576862842e-01
-2.307822722369348050e-04 -3.318939463849237409e-02 -8.512369134390352921e-01 9.989803213408864346e-01 -2.137106073853920971e-02 3.976927628922435204e-02
8.108221710984854849e-03 -1.596480407166544699e-02 -8.612716673182324589e-01 -9.991842006431371770e-01 1.947395178640482644e-02 -3.537934972487893903e-02
-3.882225842460536661e-03 1.510461773660506657e-01 -6.605110421537213616e-01 9.989803213408864346e-01 -2.137106073853920971e-02 3.976927628922435204e-02
-6.700280279642428435e-03 8.555772264549312001e-02 -7.010812874958511909e-01 9.923175328320641420e-01 -5.856252438853405684e-02 1.089786436478606541e-01
-7.104049470479090883e-03 1.584107210296060719e-01 -6.521414466610249150e-01 9.994319154873700928e-01 1.595327821354191114e-02 -2.968735790681106476e-02
1.358957092936698315e-03 1.541606152722501677e-01 -7.861770129811634922e-01 9.987033525136748136e-01 -2.555468709338597558e-02 4.402921354629767831e-02
-3.163167953576815749e-03 -7.344347819605860639e-02 -6.153890429110202565e-01 -9.985613041843922622e-01 2.559461010062322531e-02 -4.711939854627307522e-02
-8.980137109498969586e-04 -2.102742976103098016e-01 -7.517175678313672282e-01 -9.912506096710349546e-01 1.148978019006787477e-01 -6.496709894395603924e-02
5.554744878208513204e-03 -4.619534541856143428e-02 -8.117121493320209602e-01 -9.989803213408864346e-01 2.137106073853920971e-02 -3.976927628922435204e-02
-6.276942709078872640e-03 -1.154288374952919805e-01 -8.260268598468670787e-01 9.970866968080661641e-01 -7.544907408673348637e-02 -1.120518932609797236e-02
-5.942986322943563313e-03 -6.324345909663003917e-02 -7.239001179606391334e-01 9.989803213408864346e-01 -2.137106073853920971e-02 3.976927628922435204e-02
-3.514443491221886859e-03 -3.486873268468003439e-02 -7.696557531298731103e-01 9.989803213408864346e-01 -2.137106073853920971e-02 3.976927628922435204e-02
7.270696953583392907e-03 1.376174032021031113e-01 -7.560392463723455414e-01 -9.989803213408864346e-01 2.137106073853920971e-02 -3.976927628922435204e-02
1.078978480042608323e-02 5.530454206464733430e-02 -8.579032306805535191e-01 -7.442662990866363293e-01 -4.526392012591796132e-01 -4.911063322004038945e-01
-6.798761169840877860e-03 -1.372764812941013601e-01 -8.199303459468875177e-01 9.923175328320641420e-01 -5.856252438853404990e-02 1.089786436478606402e-01
2.335311723578735628e-03 1.135689852861105353e-01 -5.816012912297279236e-01 -7.511115185300517583e-01 6.498402121110037344e-01 1.163580055475581659e-01
2.224530438089341450e-03 -6.780065751075813052e-02 -7.396693433807547402e-01 -9.989803213408864346e-01 2.137106073853920971e-02 -3.976927628922435204e-02
-5.455522660896031453e-03 1.060545800555342671e-01 -6.451681830591577960e-01 9.989803213408864346e-01 -2.137106073853920971e-02 3.976927628922435204e-02
1.775472253631460830e-03 1.479132967609472216e-01 -7.990799863039691475e-01 9.987193011052242220e-01 -2.494401897856753439e-02 4.401765006322803930e-02
-4.052807136444042981e-03 -1.195657726280570654e-01 -6.289293543374885331e-01 -9.808887473452763128e-01 1.136272821265622290e-01 -1.579433635451163442e-01
-3.187334167966284978e-03 -4.231346793970362091e-03 -7.614087421584965210e-01 9.989803213408864346e-01 -2.137106073853920971e-02 3.976927628922435204e-02
-5.645650862155951119e-03 -1.481720987459115291e-01 -7.770076317909128116e-01 9.989803213408864346e-01 -2.137106073853920971e-02 3.976927628922435204e-02
1.121724781285264290e-03 2.413998933391279522e-01 -6.952310995842284624e-01 3.368104285841740375e-01 -9.237709358437101725e-01 1.822251170595889369e-01
6.731132237008309593e-03 -6.227300334640029078e-02 -8.499020428261601090e-01 -9.989803213408864346e-01 2.137106073853920971e-02 -3.976927628922435204e-02
9.015614158904974168e-03 1.873580357818138975e-01 -7.813764770494463496e-01 -9.993671548451034115e-01 1.287785697665810511e-02 -3.315796460115857935e-02
-4.446403991567057443e-03 2.492309472168050336e-02 -7.141147631652176031e-01 9.989803213408864346e-01 -2.137106073853920971e-02 3.976927628922435204e-02
-1.533900378622050963e-03 -1.246001229344677608e-01 -8.670730228846010856e-01 9.986924675034174470e-01 -2.351356616789009035e-02 4.539237334622879538e-02
-3.029724190936170544e-04 -1.740218765945362733e-01 -7.356469386814865619e-01 -9.986949889142722192e-01 2.575480480724812865e-02 -4.410225784312998831e-02
5.433384677222676679e-03 1.451830197705462344e-01 -7.058214841750432011e-01 -9.989803213408864346e-01 2.137106073853920971e-02 -3.976927628922435204e-02
-6.512644656946479579e-03 -3.998624399734738988e-02 -6.970927701401897769e-01 9.989803213408864346e-01 -2.137106073853920971e-02 3.976927628922435204e-02
-2.994938983344233563e-04 -1.001390367303426204e-01 -6.941958598538977565e-01 -9.987535533571717528e-01 2.398453685146170744e-02 -4.377306989969501072e-02
7.591206326474403583e-03 1.839325099698199961e-01 -6.435052412087892693e-01 -9.994359253486058137e-01 -1.589689082373358167e-02 2.958242695780714457e-02
9.375549767372610066e-04 1.676099353003683290e-01 -7.689757789048722314e-01 9.986708612707791977e-01 -2.562750620054451284e-02 4.471847240929435752e-02
-1.017465331861618213e-03 -6.894515478500917727e-02 -8.506902006023387974e-01 9.989803213408864346e-01 -2.137106073853920971e-02 3.976927628922435204e-02
-3.050951756296866810e-03 -7.981330310694879915e-02 -8.054505273747796235e-01 9.989803213408864346e-01 -2.137106073853920971e-02 3.976927628922435204e-02
1.059956111654514329e-03 1.549316186645703086e-01 -5.941047438026433314e-01 -9.988850932783730485e-01 1.700651339243586940e-02 -4.403803956227657357e-02
7.013550513653220124e-03 -2.487275192512715741e-02 -7.611449931448799333e-01 -8.780123274065181338e-01 -2.328101023461936758e-01 4.182030716861651620e-01
7.653506503844728116e-03 5.729789466787030272e-02 -7.113261446261448517e-01 -9.989803213408864346e-01 2.137106073853920971e-02 -3.976927628922435204e-02
-2.534402280745197758e-03 -6.204822045983678785e-02 -8.088794079962612349e-01 9.989803213408864346e-01 -2.137106073853920971e-02 3.976927628922435204e-02
-1.406294502597280191e-03 -1.043849783091507638e-01 -6.711944767260056288e-01 -9.987591610461646896e-01 2.405818386501752323e-02 -4.360438069136904349e-02
5.005616292621407198e-03 1.417476980219861959e-01 -6.969222594069164334e-01 -9.989803213408864346e-01 2.137106073853920971e-02 -3.976927628922435204e-02
-6.600178001030498551e-03 1.151047623420718008e-01 -6.095076639968570742e-01 9.992238090976265363e-01 -1.914031279313143860e-02 3.443004151335156415e-02
-8.308106863370674430e-03 4.349410828980069393e-02 -6.046953159935287703e-01 9.991837862340475773e-01 -1.979080657764092227e-02 3.521484490948569024e-02
4.539561087526778477e-03 1.280455718310029578e-01 -6.925784286010187030e-01 -9.989803213408864346e-01 2.137106073853920971e-02 -3.976927628922435204e-02
-7.765027919951301635e-03 -7.170389238666484422e-02 -6.826779630881917305e-01 9.989803213408864346e-01 -2.137106073853920971e-02 3.976927628922435204e-02
-1.033084188757712844e-02 1.184504638374810764e-01 -5.978696625516211061e-01 9.910586999596168178e-01 1.083895604174635180e-01 7.780974506360470444e-02
3.574229962619229067e-03 -1.303801938446696174e-01 -8.072017348977171824e-01 -9.989803213408864346e-01 2.137106073853920971e-02 -3.976927628922435204e-02
6.037734835483456186e-03 -1.530674147106524940e-01 -8.863603701208910834e-01 -9.991178801351452421e-01 2.670057427182911947e-02 -3.241204911460970894e-02
2.935284360819561539e-03 1.105110954820806984e-01 -6.617025707663340972e-01 -9.989803213408864346e-01 2.137106073853920971e-02 -3.976927628922435204e-02
5.601113660863611676e-03 -5.498338092709119385e-02 -8.175993860098893506e-01 -9.989803213408864346e-01 2.137106073853920971e-02 -3.976927628922435204e-02
-2.289418524378942707e-03 -2.215271174965559031e-01 -7.810108056443473279e-01 2.834145713820582224e-02 9.825302910379399846e-01 -1.839320227697828214e-01
4.493100214890556610e-03 2.163656970855675210e-01 -6.494119080789082510e-01 -9.990413007013814184e-01 1.680732494109072120e-02 -4.042268325107326726e-02
-3.333298143169327252e-03 1.349706870418841964e-01 -6.829383612495952827e-01 9.989803213408864346e-01 -2.137106073853920971e-02 3.976927628922435204e-02
4.843756187861730789e-03 -1.428424526452755361e-01 -8.457883914677382098e-01 -9.989803213408864346e-01 2.137106073853920971e-02 -3.976927628922435204e-02
-4.009982425236665801e-03 1.442435835238349839e-01 -6.609574252846938114e-01 9.989803213408864346e-01 -2.137106073853920971e-02 3.976927628922435204e-02
-2.942866556602391059e-03 -2.148144045659815538e-01 -8.642053790082331322e-01 9.959402258973931721e-01 2.146662908179294144e-02 8.741996496975917852e-02
7.546963422263511766e-03 1.056760132979756017e-01 -6.870531534063826218e-01 -9.994359253486058137e-01 -1.589689082373358861e-02 2.958242695780715845e-02
-7.586414780448776443e-03 -6.917246238110408285e-03 -6.523498190802538010e-01 9.989803213408864346e-01 -2.137106073853920971e-02 3.976927628922435204e-02
1.663306710798807646e-03 2.786210525921259742e-02 -8.294573453791140860e-01 1.820647953493640114e-01 -7.040589131334915596e-01 -6.864061896076407709e-01
-4.731227681187806858e-03 3.651864931952355370e-02 -7.007289887116194826e-01 9.989803213408864346e-01 -2.137106073853920971e-02 3.976927628922435204e-02
-6.555397541960502651e-03 1.516581394162166696e-01 -6.661252795870770127e-01 8.305041486762676506e-01 -2.636665576885482976e-01 4.906554854357375595e-01
-3.990465787374326660e-03 -1.921993128992450228e-01 -7.066996194140023890e-01 3.813837288605261694e-02 8.708726622246796278e-01 -4.900268061068739356e-01
-5.309959088400159968e-03 -4.453714481869040093e-02 -7.297490544577983629e-01 9.989803213408864346e-01 -2.137106073853920971e-02 3.976927628922435204e-02
1.669130393016324569e-03 1.712939538558960750e-01 -6.014541521331203677e-01 -9.989083926913445710e-01 1.752751149811921857e-02 -4.329906871374775840e-02
5.385236370423113900e-03 1.788358808860719684e-02 -7.730197066426143238e-01 -9.989803213408864346e-01 2.137106073853920971e-02 -3.976927628922435204e-02
5.922311144239485355e-03 2.388908692078758611e-01 -6.805590961246212878e-01 -9.982919094949890271e-01 -5.191393498639019360e-02 -2.679938042338297563e-02
6.945564407058492373e-04 4.832859286524845976e-02 -6.388322260620619142e-01 -9.989803213408864346e-01 2.137106073853920971e-02 -3.976927628922435204e-02
5.561607011975923387e-03 6.670998138534654787e-02 -7.512118917277150754e-01 -9.989803213408864346e-01 2.137106073853920971e-02 -3.976927628922435204e-02
1.119698828956799605e-03 1.377364309667368503e-01 -6.032041593541008773e-01 -9.986985151630860535e-01 2.315955254651093018e-02 -4.544129110063100524e-02
-8.162315498625036941e-03 -1.130852600371577699e-01 -6.934204942464380350e-01 9.991833257228182053e-01 -1.876897747090687865e-02 3.578277633422465021e-02
-2.872484132869701154e-03 -3.770626992070823524e-01 -9.345439915356821281e-01 2.976661948978090444e-01 4.555958514869606346e-01 -8.389441319437969113e-01
1.026670827557852814e-02 7.375880397737367977e-02 -8.772729173905534639e-01 -9.999896579275137087e-01 -8.087490767962604230e-04 4.475484660299909427e-03
7.769579993541568010e-03 4.951282078031812167e-02 -8.162296259783373698e-01 -9.991703583736777361e-01 1.924171976253440455e-02 -3.589360901325275299e-02
-9.841474564245653034e-03 -8.873357283591499362e-03 -5.861747755015318528e-01 9.997908832016441094e-01 -1.265326132658953391e-02 1.606501928654201564e-02
-6.407483904281237840e-03 -1.625017822601239059e-01 -7.646289158712502587e-01 9.990402228566297449e-01 -1.607233038885425708e-02 4.074694234475596810e-02
1.003509791649065917e-02 1.394103844216684762e-01 -8.370314324023485630e-01 -9.999662687376507098e-01 -8.154404732396243125e-03 -9.833973565176435359e-04
-1.050734395864903791e-03 -1.194821314573326493e-01 -6.876537336404570100e-01 -9.987535533571717528e-01 2.398453685146170744e-02 -4.377306989969501072e-02
8.866094467907198809e-04 -5.972334882384629055e-03 -8.624984896664892320e-01 9.987602159690289749e-01 -2.307856560716676705e-02 4.410681134489032040e-02
2.290636456370011200e-03 -1.228955938734428432e-01 -8.292413416200062892e-01 -1.508965523498539685e-01 7.063847749696512412e-01 6.915567801561942618e-01
-3.789480566849105433e-03 2.118660441119132598e-01 -6.244087216565880061e-01 9.989915778768025945e-01 -2.485517189871097252e-02 3.739047687715945506e-02
-8.370294901890886971e-03 9.539500862628189082e-02 -5.689939095669643843e-01 9.992175307887321001e-01 -2.450773619737224227e-02 3.104347002106705097e-02
5.619004647918872559e-03 -1.515781142362174205e-01 -8.725422844172114889e-01 -9.990582409323733870e-01 2.528178767042529515e-02 -3.526276275760856227e-02
1.015551616744938060e-04 8.123135412119683596e-02 -6.069068571622090458e-01 -9.987290966700915762e-01 2.317884008185000164e-02 -4.475413765231552737e-02
-7.935847147835999732e-03 -2.599364270803725119e-02 -6.533836015119287577e-01 9.991707334366923821e-01 -1.934692446999008303e-02 3.582655379930346079e-02
3.002183034730342148e-03 2.533664907083804652e-02 -7.091537416818608497e-01 -9.989803213408864346e-01 2.137106073853920971e-02 -3.976927628922435204e-02
-7.198606082127235323e-03 1.120130167418615236e-01 -6.802577372077841522e-01 9.994319154873702038e-01 1.595327821354190073e-02 -2.968735790681104741e-02
5.133030925441796344e-03 1.352017378182774066e-01 -7.036404813328295260e-01 -9.989803213408864346e-01 2.137106073853920971e-02 -3.976927628922435204e-02
2.529554565020163300e-04 1.976412669337214711e-01 -7.355098536456784464e-01 9.989402650325487354e-01 -2.616621682999813875e-02 3.786391413346742313e-02
-1.982673338009251565e-03 1.344808575839875897e-01 -7.171284673776879837e-01 9.989803213408864346e-01 -2.137106073853920971e-02 3.976927628922435204e-02
-9.218306955243634452e-07 8.674269433585737876e-02 -6.017819735819225357e-01 -9.987294151101188122e-01 2.262925405911708071e-02 -4.502746111572299842e-02
-7.072472145664582613e-03 2.683700537433502536e-02 -6.471210193044240055e-01 9.989803213408864346e-01 -2.137106073853920971e-02 3.976927628922435204e-02
-1.799193847662925025e-03 1.020648402920399239e-01 -7.391569566140071545e-01 9.989803213408864346e-01 -2.137106073853920971e-02 3.976927628922435204e-02
-3.499159645908459589e-04 5.553004626353267442e-02 -6.100479241575813560e-01 -9.987541599823986926e-01 2.269414660476226642e-02 -4.444213797438771596e-02
6.635847502376814033e-03 -1.392426045850153095e-02 -8.215270860503912642e-01 -9.989803213408864346e-01 2.137106073853920971e-02 -3.976927628922435204e-02
-8.693943966600076872e-03 5.581557163901028351e-02 -5.863710054643246350e-01 9.992216000910120188e-01 -2.012657954802278201e-02 3.392808139660131311e-02
-2.483535629454111920e-03 -5.533436789466604500e-02 -6.203212217300357878e-01 -9.987249583570245726e-01 2.380777874024674057e-02 -4.451569640266917621e-02
-1.677322644674719828e-03 8.992517304769886977e-02 -7.487418556897569299e-01 9.989803213408864346e-01 -2.137106073853920971e-02 3.976927628922435204e-02
1.917556433994657000e-03 1.024013747836520494e-01 -6.404958273590634077e-01 -9.989803213408864346e-01 2.137106073853920971e-02 -3.976927628922435204e-02
-2.030501459867777362e-04 1.093408960939252494e-01 -5.864377737314527828e-01 -9.989520847795775316e-01 1.813257505630543401e-02 -4.202311312079312633e-02
1.018875456266361834e-02 1.836692502834052776e-01 -7.122659720088618807e-01 -9.991629212547885608e-01 1.759562259461009900e-02 -3.693035140782135323e-02
5.852086049484297135e-03 -5.181576037601705320e-02 -7.781199960524302073e-01 -8.755689310505488931e-01 -2.162114954166862169e-01 4.320088381372295672e-01
4.128047869381402946e-03 6.955889123678575536e-02 -8.834220084402029105e-01 9.955229127499037878e-01 -4.349856980125198225e-02 8.391665278830506836e-02
3.202550697910049819e-03 9.118613672447126867e-03 -8.099611631908640863e-01 -1.527444892634177431e-01 -6.975423796351076788e-01 -7.000741029438590779e-01
8.790765449022193423e-03 1.322805418183528869e-01 -8.011978695647063997e-01 -9.992095138320742365e-01 1.781368721361395804e-02 -3.553899288563348857e-02
-2.527883630462074774e-03 -7.907571635903012930e-02 -8.181933228321164320e-01 9.989803213408864346e-01 -2.137106073853920971e-02 3.976927628922435204e-02
-6.720936021086409582e-04 1.393167938024754415e-01 -7.474507259546331328e-01 9.989803213408864346e-01 -2.137106073853920971e-02 3.976927628922435204e-02
7.486489426284373069e-04 -2.305739137394010596e-01 -8.550401805747112061e-01 -2.043781028121078869e-01 4.633668316982242907e-01 -8.622765045928556527e-01
5.898776688833765741e-03 -2.127360950798602626e-03 -7.511123908423469331e-01 -8.773058291325348534e-01 -2.271797585316872314e-01 4.227574239248314547e-01
1.005280295533197282e-02 9.510509807670732008e-02 -8.569972484682206737e-01 -9.993260452603546229e-01 1.720016437890012351e-02 -3.242853079678455902e-02
5.994115775941502404e-03 -2.624764171836554971e-01 -8.752382868714542186e-01 -8.305035533898550426e-01 2.636713829368203532e-01 -4.906539000425948482e-01
1.639955667715317080e-03 -6.527679079998893567e-03 -8.796322080289933343e-01 9.986974099064274135e-01 -2.353697119648847161e-02 4.527134229386844955e-02
9.463473507228826673e-03 1.765421082827801566e-02 -8.813846807939003103e-01 -9.992208994664107946e-01 1.941459884767503946e-02 -3.436084139133824961e-02
4.574149251547044923e-03 -1.728669999767668553e-01 -8.580023355648572769e-01 -9.990620898396903593e-01 2.484000190317473336e-02 -3.546709673204292285e-02
-6.940774681955015277e-03 -1.269122497095796498e-01 -7.330503638232179764e-01 9.989803213408864346e-01 -2.137106073853920971e-02 3.976927628922435204e-02
-1.100208778710767398e-03 -3.890463054735683324e-01 -9.603674957751591190e-01 9.170952555178629728e-02 -3.117108700726147763e-01 9.457408188302118823e-01
-1.587043739067326006e-03 -5.779911594905071115e-02 -8.303931178154617676e-01 9.989803213408864346e-01 -2.137106073853920971e-02 3.976927628922435204e-02
6.923782408300598913e-03 2.011546935395590596e-01 -7.163347246353924946e-01 -9.989803213408864346e-01 2.137106073853920971e-02 -3.976927628922435204e-02
-1.562523020872337619e-03 1.623296243268871897e-01 -7.124100540170619222e-01 9.987033248365020377e-01 -2.459184728861008723e-02 4.457476873131122064e-02
8.651012928608052890e-03 -7.210970712697525875e-02 -9.183739688451385552e-01 -9.977918338353829464e-01 2.738678079351484010e-02 6.050967335221083682e-02
1.176740613691179722e-02 -5.995164985101665567e-02 -8.895420749782197989e-01 -9.937947483634830270e-01 1.033169804162906297e-01 4.120193785273933151e-02
-1.812456903022620488e-03 -1.316326150342138623e-01 -8.644072363698871442e-01 9.989803213408864346e-01 -2.137106073853920971e-02 3.976927628922435204e-02
3.083923003383219619e-03 -1.197907935895435455e-01 -7.891950275459845843e-01 -9.989803213408864346e-01 2.137106073853920971e-02 -3.976927628922435204e-02
3.941402391982777934e-03 -1.779389881511345417e-01 -8.438497513788433269e-01 -9.990379910185708257e-01 2.505884722587262137e-02 -3.598814634415491848e-02
-1.694001965790910237e-03 1.832413387041214869e-01 -6.975442868086372261e-01 9.989197988081643942e-01 -2.541915717067350436e-02 3.889861177199698677e-02
2.362980361403921314e-04 -6.184570544878410098e-02 -6.865260910208038636e-01 -9.989803213408864346e-01 2.137106073853920971e-02 -3.976927628922435204e-02
4.898483476053754060e-03 3.895281983909542061e-04 -7.701936570676637395e-01 -9.989803213408864346e-01 2.137106073853920971e-02 -3.976927628922435204e-02
3.898399127289779720e-03 1.814246172523855671e-01 -6.497601816769482674e-01 -9.989779439094783609e-01 1.839344807665034207e-02 -4.128860194100172215e-02
-5.980343414344451922e-03 7.324427636460852098e-02 -6.496164759276491507e-01 9.989803213408864346e-01 -2.137106073853920971e-02 3.976927628922435204e-02
-4.326082019205515299e-04 2.204165703240625607e-01 -7.025306505722687112e-01 9.985614976754859651e-01 -3.564601131850209104e-02 4.005367944610666031e-02
-1.014441426360811020e-02 -6.567343168579796442e-02 -5.991684054069223997e-01 9.999896575437704493e-01 3.285963651608189966e-03 -3.144399525022148999e-03
-1.537619215657407999e-03 -6.100185051018162247e-02 -6.446155687151025049e-01 -9.987691395155957608e-01 2.355323007526385903e-02 -4.365147539657287384e-02
-8.140012011308924572e-03 -1.348461969113040060e-01 -7.915277139482997937e-01 9.953531675532735212e-01 -9.360600069774577259e-02 2.258292441288685393e-02
-5.087262024497758370e-03 -1.649422396920114664e-01 -8.000458976765347785e-01 9.989803213408864346e-01 -2.137106073853920971e-02 3.976927628922435204e-02
1.755038045131662727e-03 -1.020378186557517886e-01 -7.462742105865485254e-01 -9.989803213408864346e-01 2.137106073853920971e-02 -3.976927628922435204e-02
8.130802754561778853e-03 -3.574386403672757256e-02 -7.743289213711065377e-01 -9.938311962012842393e-01 1.025092525828107393e-01 4.232501142395009297e-02
-4.848278979670272125e-03 -6.439149744279006049e-02 -7.851147433182147362e-01 8.305041486762675396e-01 -2.636665576885482976e-01 4.906554854357375595e-01
-1.405040371674426674e-03 -1.202420861022527321e-01 -6.800046034498935521e-01 -9.986987750238138783e-01 2.474871531250388487e-02 -4.458988513456680486e-02
-6.628951384159049304e-03 -5.758265221334020467e-02 -5.870914257170825046e-01 4.513506298300522246e-02 4.518778054193174354e-01 -8.909373014185352213e-01
5.031686304565516528e-03 -1.420288993935964195e-01 -7.586521332047340138e-01 -9.939708158083139233e-01 -8.806975625345710157e-02 -6.531259721379288619e-02
1.013197181031046112e-02 3.326799697286580287e-02 -8.932960392782628434e-01 -9.993342414246486616e-01 1.791860103895454026e-02 -3.178046023940694909e-02
5.995738142262142627e-03 9.225594225782857150e-02 -7.001918400432664003e-01 -8.773058291325348534e-01 -2.271797585316872314e-01 4.227574239248314547e-01
-5.307935554662159688e-03 3.106391879593075819e-02 -7.162860972543665383e-01 8.773628959911777825e-01 2.271303721749572402e-01 -4.226655211554863900e-01
4.844355739506322339e-03 2.424531527279649157e-01 -6.536476605141154916e-01 -9.986723980448551918e-01 -3.300060078903412075e-02 -3.955251864168582432e-02
-5.329649731060993531e-03 -7.573819394136285799e-02 -7.460211371245224488e-01 9.989803213408864346e-01 -2.137106073853920971e-02 3.976927628922435204e-02
-4.199483632111707110e-03 -1.594934079010115052e-02 -7.998725495597316382e-01 7.391794293409593708e-01 4.557306646932716143e-01 4.959065763804735294e-01
-9.642927229769756095e-03 -1.359675563732197778e-01 -6.576916793264263594e-01 9.998334461137128315e-01 -1.679967648963853668e-03 1.817299482956251030e-02
-2.559523841375867595e-03 7.428101732561027959e-02 -7.349882880148000952e-01 9.989803213408864346e-01 -2.137106073853920971e-02 3.976927628922435204e-02
-5.003704368781151761e-03 -2.118724375969748830e-01 -8.202878775961416347e-01 9.990227653931645913e-01 1.867417073638931446e-02 4.005982493099635028e-02
3.857340146700819795e-04 -6.269282028297515352e-02 -8.805756714919640293e-01 9.987280696343145969e-01 -2.269473907693544956e-02 4.502434611124555425e-02
-8.195217523372013563e-03 5.355749035219149745e-02 -6.022201697461359027e-01 9.991820022306048266e-01 -2.005348704168624999e-02 3.511672074536760502e-02
-8.766895272960395849e-03 -2.720181231986978226e-02 -6.308480128632311112e-01 9.991695734954094688e-01 -1.946096163570045987e-02 3.579712800232693476e-02
8.130554814371157221e-03 2.020195659520312437e-01 -7.486568522948436888e-01 -9.992848374022620384e-01 1.477493969049185722e-02 -3.480682253634994477e-02
-4.369131623699696113e-03 1.953256899012565870e-02 -5.874921096278704624e-01 -1.770929962190652684e-01 9.561759554221803681e-01 2.331643475376000418e-01
6.539215943464460334e-03 1.808941156747330969e-01 -7.168162112808829090e-01 -9.992248440243042262e-01 1.813484613156549421e-02 -3.494049857098221329e-02
-3.098254881658937853e-05 4.398062939950231343e-02 -6.232486727439564556e-01 -9.987628631705942617e-01 2.307090324621366081e-02 -4.405084079425208854e-02
-7.118049826128217475e-03 -6.006472793514257974e-02 -6.926750545800550718e-01 9.989803213408864346e-01 -2.137106073853920971e-02 3.976927628922435204e-02
8.876045762485918963e-03 -5.178160425178238158e-02 -9.045003625092341570e-01 -9.994192079499093495e-01 1.913289826296184562e-02 -2.819891815007669750e-02
6.452609050789009926e-03 -3.390655219790273539e-02 -8.276622533447197672e-01 -9.989803213408864346e-01 2.137106073853920971e-02 -3.976927628922435204e-02
-3.631780050316434430e-03 -1.580934536012811031e-01 -8.329263558783244203e-01 9.989803213408864346e-01 -2.137106073853920971e-02 3.976927628922435204e-02
-1.927995581898997576e-03 4.313564362506273203e-02 -7.675886795139597041e-01 9.989803213408864346e-01 -2.137106073853920971e-02 3.976927628922435204e-02
3.349586434634822373e-03 1.962796919102472171e-01 -6.300555582968730972e-01 -9.989592961577199448e-01 1.778835745433016841e-02 -4.199879711550900951e-02
-9.192144769469107538e-03 -1.623327977086330420e-01 -6.826427647839831137e-01 9.998425423314776239e-01 3.016076379585171802e-03 1.748696164002027167e-02
-2.664325896484700217e-03 -1.641048258522159048e-02 -5.956300793556627005e-01 -9.985686436394793919e-01 2.476894829111737917e-02 -4.740425234683092598e-02
-5.540980765706945803e-03 -7.120150954447430902e-02 -7.717248516547444703e-01 8.773628959911777825e-01 2.271303721749572402e-01 -4.226655211554863900e-01
2.400063410111146454e-03 1.771632143114502123e-01 -7.922849668760363340e-01 9.971670273497830195e-01 -4.295953497598415521e-02 6.174461855938702393e-02
-5.177082730119266646e-03 1.598461218695573782e-01 -6.214079041873373788e-01 9.990151317951698751e-01 -2.412517836080516065e-02 3.723898781302254629e-02
1.092756665970492144e-03 1.700552835797588258e-01 -7.710404117398138579e-01 9.986708612707791977e-01 -2.562750620054451284e-02 4.471847240929435752e-02
-6.751112769137191522e-03 4.275650078186336162e-02 -7.236187824257851453e-01 9.923175328320642530e-01 -5.856252438853405684e-02 1.089786436478606541e-01
9.970976307875946409e-04 -2.370558371835913142e-02 -8.742715218572459923e-01 9.987480393347248908e-01 -2.289302293447102385e-02 4.447767334252639149e-02
-1.007986895122644404e-03 -1.344649896671405442e-01 -6.970145332349407807e-01 -9.987469224889050645e-01 2.447173224186430934e-02 -4.365454317735008305e-02
9.368241348469207941e-04 -1.183121896469734174e-01 -9.113724966002192396e-01 9.969428751129777444e-01 -1.522329367177941220e-02 7.663651278112756926e-02
-7.250550740273529679e-03 9.743272659197516061e-02 -6.037221412923745589e-01 9.989929829413181084e-01 -2.459449581142512248e-02 3.752506908439669914e-02
6.784274643886089272e-03 5.275191915143836313e-02 -6.955170155044646529e-01 -9.913235952855071753e-01 1.310079841257962285e-01 -1.069754764004556859e-02
3.717083179723482990e-03 1.144146962727580208e-01 -8.536672644393419329e-01 9.955704150712192391e-01 -4.810005763210262880e-02 8.078324758703690767e-02
-9.856993269648707968e-04 -1.262669951716016148e-01 -8.798885568728688211e-01 9.986767497415338646e-01 -2.299879991925933564e-02 4.599787742884855340e-02
1.019255206406689427e-03 1.115688812643520628e-01 -5.778367933399272127e-01 -7.365892335424201187e-01 6.756676943112045475e-01 -3.015738539016638714e-02
1.758818786939588680e-03 4.421162713991001053e-03 -6.891606625845438927e-01 -9.989803213408864346e-01 2.137106073853920971e-02 -3.976927628922435204e-02
-3.919412859814790919e-04 2.252565607715515672e-01 -6.992371219973426699e-01 9.985614976754859651e-01 -3.564601131850209104e-02 4.005367944610666031e-02
-3.570591345713058570e-03 -1.486229731206698268e-01 -8.293741689901394931e-01 9.989803213408864346e-01 -2.137106073853920971e-02 3.976927628922435204e-02
6.748464012027457180e-03 1.548981162677066370e-01 -8.103351968296216290e-01 -1.554653130193890120e-01 -8.025558196333196781e-01 -5.759641419571827070e-01
-3.890590130222848866e-04 -3.415330544464791895e-01 -9.357611765596134390e-01 1.984623095577561502e-01 -4.639426714175510780e-01 8.633480812065011945e-01
-2.904173403574085086e-03 2.933695888430673526e-02 -8.400975519453942608e-01 9.911864680377575620e-01 6.250875277877687708e-02 1.167991498465492523e-01
-1.832303638142567838e-03 -1.454093249825456069e-01 -8.696822858205449647e-01 9.988674258684707707e-01 -1.747735339820405756e-02 4.425389990824500630e-02
1.056509531266716781e-03 -4.675904129099161394e-02 -8.873386982017116287e-01 9.986388139998014779e-01 -2.312931160055396035e-02 4.674991035236619741e-02
-5.587164494874420672e-04 2.338536712832368913e-01 -6.855644962620583982e-01 9.979959810371413775e-01 -4.642421455706909061e-02 4.299783874187904087e-02
-9.774339816278418067e-03 -1.138882417739891934e-01 -6.455037356977619822e-01 9.998243730240747862e-01 -4.808368218044806533e-03 1.811360544163757164e-02
1.853943025767332753e-03 1.654448869568766467e-01 -6.081085242855287509e-01 -9.989312816054760624e-01 1.860406640900857597e-02 -4.231055829329054968e-02
-6.255232813443865544e-03 -2.988007783151026137e-02 -7.769688226893179950e-01 9.942080411413145580e-01 -1.003831795638572555e-01 -3.838734414622070601e-02
-5.363121404726014846e-04 4.599106127845435654e-02 -8.623903700101024361e-01 7.147708695270420520e-01 4.753383989843971702e-01 5.129873395382251733e-01
-4.716568126751970007e-03 -2.204759258369543007e-01 -7.757695285882694192e-01 2.834145713820582918e-02 9.825302910379400956e-01 -1.839320227697828769e-01
-5.938454062531075064e-03 -1.645120180299808887e-01 -7.784332743364286156e-01 9.989803213408864346e-01 -2.137106073853920971e-02 3.976927628922435204e-02
-6.792685334493636911e-04 5.310645516255194792e-02 -6.038839336526568013e-01 -9.987541599823986926e-01 2.269414660476226642e-02 -4.444213797438771596e-02
-3.109847822506566981e-03 1.519254758762346724e-01 -6.794401998086666561e-01 9.989803213408864346e-01 -2.137106073853920971e-02 3.976927628922435204e-02
-1.792403240254037086e-05 1.593871903362151232e-01 -6.980782286664800607e-01 1.669955929978640397e-01 7.291192968515048944e-01 6.636998740982695821e-01
8.620792093117047444e-03 -6.730253509456270850e-03 -8.706095804504768720e-01 -9.991795264773173368e-01 1.965529059849620980e-02 -3.541106352613878488e-02
-5.128732910554953048e-04 -1.445015979302535780e-01 -7.139377408326262886e-01 -9.987268504019440885e-01 2.503962808206253512e-02 -4.379149816716568222e-02
-5.119371706057999015e-05 -6.110607750727035242e-02 -8.700839543620640937e-01 9.987280696343145969e-01 -2.269473907693544956e-02 4.502434611124555425e-02
-6.329509368613999440e-04 -1.264206638444187458e-01 -8.875464032124386060e-01 9.986126345191167486e-01 -2.331651662353551729e-02 4.721383516865516883e-02
-2.856618127828470036e-03 -9.933218996496599729e-02 -8.208210556881572195e-01 9.989803213408864346e-01 -2.137106073853920971e-02 3.976927628922435204e-02
1.180409828460230641e-03 -3.827016393795165672e-01 -9.369925678751700460e-01 -2.041770521258068904e-01 4.658043692353330267e-01 -8.610098843721186723e-01
7.402367797119283749e-03 1.744153629075216039e-01 -6.455914808405806005e-01 -9.923322715511884162e-01 5.850653808475423517e-02 -1.088744590773953747e-01
7.221423506489098310e-03 1.208999036796723769e-01 -7.637851125892273219e-01 -9.989803213408864346e-01 2.137106073853920971e-02 -3.976927628922435204e-02
-7.137324428193603416e-03 -3.327895618114563026e-01 -9.172209747942726699e-01 9.994319154873702038e-01 1.595327821354190073e-02 -2.968735790681104741e-02
-4.886589335451487111e-03 3.455134828414140047e-02 -5.546770474327351597e-01 4.225641876437483124e-02 1.324297690684153039e-01 -9.902912457139545488e-01
7.030393638073618480e-03 1.887371404024884847e-01 -7.256856316066196966e-01 -9.989803213408864346e-01 2.137106073853920971e-02 -3.976927628922435204e-02
-3.039791842814216008e-03 1.445677971625647928e-01 -6.851538050082407461e-01 9.989803213408864346e-01 -2.137106073853920971e-02 3.976927628922435204e-02
-5.424599307845124826e-03 2.608663740559843264e-02 -6.889178245668901024e-01 9.989803213408864346e-01 -2.137106073853920971e-02 3.976927628922435204e-02
-2.866708516639010691e-04 2.380469335579389889e-01 -6.858651849020435121e-01 9.945710213048758463e-01 -9.190849363856749832e-02 4.879869237659244241e-02
1.911556148674130318e-03 -1.738409262670914668e-01 -7.887911291005641479e-01 -9.989803213408864346e-01 2.137106073853920971e-02 -3.976927628922435204e-02
-1.182249465559704824e-02 -1.626939127626047532e-01 -6.808559322499122546e-01 9.450010995023245819e-01 2.988438333230485910e-01 -1.329108168065452900e-01
-5.846041940265016626e-03 -7.912962320967244223e-02 -7.348721483679632183e-01 9.989803213408864346e-01 -2.137106073853920971e-02 3.976927628922435204e-02
-3.640814871260967048e-03 7.689520396425615634e-02 -7.064221055760759871e-01 9.989803213408864346e-01 -2.137106073853920971e-02 3.976927628922435204e-02
9.477406584607037110e-03 7.448441161377922226e-02 -8.508342755446016703e-01 -9.992071987641530928e-01 1.875636204305621349e-02 -3.511656049221866666e-02
-1.255640384368430888e-03 9.213265630850055177e-02 -5.718298347211535626e-01 -9.986721899311037376e-01 2.234010981738749832e-02 -4.641957078173365725e-02
-1.113322937034891226e-03 8.252724646984761769e-02 -5.795144035662166404e-01 -9.986721899311037376e-01 2.234010981738749832e-02 -4.641957078173365725e-02
8.237797045933387130e-03 9.069859783288845845e-02 -8.073400735947406925e-01 -9.991723355854373878e-01 1.902056871205013572e-02 -3.595638700720780317e-02
7.915420063966428776e-04 1.801847469066222840e-02 -6.575563799205610405e-01 -9.989803213408864346e-01 2.137106073853920971e-02 -3.976927628922435204e-02
-6.512865111078286820e-03 -2.635269965699693975e-02 -6.897608908422595553e-01 9.989803213408864346e-01 -2.137106073853920971e-02 3.976927628922435204e-02
-6.866537194949878103e-03 1.557926158718967447e-01 -5.731706970005875368e-01 9.992007777050582185e-01 -3.708528666339100388e-02 1.491600974459429164e-02
-2.870883985074469767e-03 -4.533837436895182815e-02 -6.064715535475322383e-01 -9.985665354080569545e-01 2.519673832662178495e-02 -4.722286248046884960e-02
-5.563230784973513879e-03 -5.033274503010910783e-02 -7.764128819772481149e-01 8.389884023970213267e-01 -2.575776810702385955e-01 4.793247321574092279e-01
-3.168149703282004126e-03 1.692640772102366464e-01 -6.682342046667901769e-01 9.989600843349167869e-01 -2.467946573774795413e-02 3.833632580823607278e-02
-1.077636083166131492e-02 3.876391123080052958e-02 -6.353692693572144945e-01 9.905998399020153888e-01 -1.362440402591071631e-01 1.222778311780192695e-02
-1.120838056803005094e-03 -4.668327847335468350e-02 -6.464455580019116132e-01 -9.987707132807238652e-01 2.342758890962513482e-02 -4.368306732128102166e-02
-2.808378854535069705e-03 -2.203080343029140964e-01 -8.640355715750707155e-01 9.967232302489651419e-01 2.724221114063903396e-02 7.616209171390264654e-02
-6.284787621053356324e-03 1.003621156607161363e-01 -6.271893937244188422e-01 9.989668436391727635e-01 -2.478379559300245352e-02 3.809210923002845361e-02
-7.563463490579638848e-03 1.288542156210057688e-01 -5.728495345637956149e-01 9.993755590038105874e-01 -2.360735586554076754e-02 2.629039396544657209e-02
-9.802041496671349500e-04 -1.736042378370167560e-01 -7.203566227711555303e-01 -9.985784254261299564e-01 2.739516631004770483e-02 -4.572344186864771287e-02
3.604322044586594914e-03 1.431700038987554213e-01 -6.609582767315841378e-01 -9.989803213408864346e-01 2.137106073853920971e-02 -3.976927628922435204e-02
-1.028385587737547366e-03 1.461129750837223407e-01 -7.348487796279863371e-01 9.989803213408864346e-01 -2.137106073853920971e-02 3.976927628922435204e-02
-1.021436749820979310e-02 -5.951294548431523140e-02 -6.696616367266159386e-01 7.436635783863765337e-01 -6.605735761000307571e-01 -1.029904497513537825e-01
7.514050262906868567e-03 1.825399245478832311e-01 -7.401476558081103718e-01 -9.992019629306049255e-01 1.767980421681460135e-02 -3.581706015966640289e-02
-6.622145527624348146e-03 -7.434994643520481672e-02 -7.128084083247600011e-01 9.989803213408864346e-01 -2.137106073853920971e-02 3.976927628922435204e-02
4.671540155434208974e-03 -1.516320705759936494e-01 -8.461857593035647662e-01 -9.989803213408864346e-01 2.137106073853920971e-02 -3.976927628922435204e-02
1.729821216152015867e-03 -2.836698289179643770e-02 -7.060518286137303923e-01 -9.989803213408864346e-01 2.137106073853920971e-02 -3.976927628922435204e-02
9.667804440097654828e-03 -1.166305497244858082e-02 -9.120612868158688435e-01 -9.998038833993846408e-01 6.632977438408195134e-03 1.866007368182130699e-02
6.850847888575461661e-03 -2.994284995039242850e-02 -7.516260166169774770e-01 -8.312629912710124414e-01 2.568408585356050655e-01 -4.929854082321926678e-01
-4.307467297413183210e-03 2.210695486857272019e-01 -6.324901945554253224e-01 2.099171067438623250e-01 -4.736794471618411273e-01 8.553143221253449724e-01
9.758595262379675395e-03 2.862402471531305670e-02 -8.841328548505491547e-01 -9.993390830268538139e-01 1.779267751907986223e-02 -3.169886057492792703e-02
8.298744780372218494e-03 -2.350777970304117337e-02 -8.708094093061664598e-01 -9.991889815065387870e-01 1.984162108641647840e-02 -3.503839763157634568e-02
-4.604068778009911059e-03 1.868804213033481709e-01 -6.190396470503131132e-01 9.990177898497963893e-01 -2.490955998118673381e-02 3.664654670185980151e-02
1.479724352886005977e-03 -1.825134325653259837e-01 -7.834594914691226375e-01 -9.988366171226727985e-01 2.766007276239869014e-02 -3.950104643820861322e-02
5.533431963446439061e-03 -1.381401130689165202e-01 -8.605857073387962464e-01 -9.989803213408864346e-01 2.137106073853920971e-02 -3.976927628922435204e-02
8.524654226771259322e-03 1.508907807298652815e-01 -7.842257854918937010e-01 -9.992205841520284126e-01 1.720569187675044867e-02 -3.552729055136392977e-02
2.445734585340138961e-03 -1.248523175901508214e-01 -7.758840602999049763e-01 -9.989803213408864346e-01 2.137106073853920971e-02 -3.976927628922435204e-02
-5.988497053038137861e-03 1.135159378931800550e-01 -5.904330878852378506e-01 1.667654837747633290e-01 9.555406528689419643e-01 2.431693527897078877e-01
-1.229692030103103281e-02 -1.609787676824263880e-01 -6.952839112263796695e-01 9.930727269583948802e-01 1.024799106571681329e-01 5.748414462367892191e-02
7.251982376951092435e-03 -3.531912750557839736e-02 -7.561356100706746464e-01 -9.952964000073526440e-01 3.837211157123528865e-02 -8.895311791032431414e-02
3.087002741128910127e-03 1.428271817115271680e-01 -8.268032054412032261e-01 9.974794085314382386e-01 -3.713362397587235270e-02 6.046423344581762505e-02
-6.305326543888882702e-03 1.144694146475332651e-02 -5.599522048971857791e-01 4.358538231452722955e-02 2.267871555242790826e-01 -9.729686020307660721e-01
-2.277460755232109738e-03 1.722621490892645713e-01 -6.894208194861211059e-01 9.989803213408864346e-01 -2.137106073853920971e-02 3.976927628922435204e-02
9.073336885239950342e-03 1.618314135126935893e-01 -7.943592306357237787e-01 -9.992205841520284126e-01 1.720569187675044867e-02 -3.552729055136392977e-02
4.014756442113162453e-03 2.387450637174598211e-01 -6.303337578286167808e-01 -9.987457981194195478e-01 -2.638914460691779706e-02 -4.254931004985146314e-02
-6.811955248400688653e-03 -9.242875928215639469e-02 -7.957101093828495841e-01 9.923175328320641420e-01 -5.856252438853405684e-02 1.089786436478606541e-01
3.344972970528811707e-03 -1.543201230152328463e-01 -8.143076840906844360e-01 -9.989803213408864346e-01 2.137106073853920971e-02 -3.976927628922435204e-02
-2.847524378783437490e-03 -1.120625492431992914e-01 -8.278904767069632520e-01 9.989803213408864346e-01 -2.137106073853920971e-02 3.976927628922435204e-02
-3.148964324412619788e-03 -6.481651567329711761e-02 -8.828407142547735065e-01 9.905107359309344162e-01 6.811317362876834203e-02 1.193695002242016606e-01
7.150843646094660021e-03 -3.290811102427223522e-01 -9.138701376837842227e-01 -9.923175328320641420e-01 5.856252438853405684e-02 -1.089786436478606541e-01
4.490680320862746461e-03 5.371493490835921314e-02 -7.312940849086967399e-01 -9.989803213408864346e-01 2.137106073853920971e-02 -3.976927628922435204e-02
5.266010189620591586e-03 1.720069610023037543e-01 -6.872025912554222682e-01 -9.989803213408864346e-01 2.137106073853920971e-02 -3.976927628922435204e-02
-9.156424745729957416e-04 -4.426976399094390002e-02 -6.498427670809607815e-01 -9.987707132807238652e-01 2.342758890962513482e-02 -4.368306732128102166e-02
5.549039927520273661e-03 1.655059125166759293e-01 -8.253133088312826215e-01 -4.358538231452722955e-02 -6.862364762487539460e-01 7.260714931149616636e-01
-2.062762716164890948e-03 -1.557866435794987292e-01 -8.355607417067345555e-01 1.984623095577561225e-01 -4.639426714175511335e-01 8.633480812065013055e-01
5.929297609108152844e-03 -1.197103103959320652e-01 -8.606258779865018083e-01 -9.989803213408864346e-01 2.137106073853920971e-02 -3.976927628922435204e-02
-6.039009163191390653e-03 -2.394379903509788118e-02 -7.003693817415507228e-01 9.989803213408864346e-01 -2.137106073853920971e-02 3.976927628922435204e-02
-6.675936946888421340e-03 -1.115200432985745255e-01 -8.072078403992620776e-01 9.923175328320642530e-01 -5.856252438853405684e-02 1.089786436478606541e-01
9.272087527809610291e-03 1.089687861133570995e-01 -8.267702411310057231e-01 -9.992079759716937515e-01 1.848349698473694333e-02 -3.523891448052623998e-02
3.767313018928258915e-04 5.983576761876549521e-02 -8.157276626606534409e-01 9.987702508657385625e-01 -2.354156533324420694e-02 4.363233534031958627e-02
3.524179081379648359e-03 5.767231325065198116e-02 -7.048895538310658848e-01 -9.989803213408864346e-01 2.137106073853920971e-02 -3.976927628922435204e-02
8.426152997147615467e-03 1.571045753157715164e-01 -7.784114620460916845e-01 -9.992460011868077308e-01 1.713305544113527187e-02 -3.484088867157289493e-02
3.260679041262408255e-03 8.926120131555985784e-03 -8.280122199849916376e-01 1.565685033428650674e-01 6.947376370524340761e-01 7.020156119515974513e-01
1.243226406100938521e-03 5.080228642001265865e-02 -8.404312062032114339e-01 9.987701443395007317e-01 -2.339505980842481250e-02 4.371349851719195240e-02
-3.132330170460784387e-03 3.971162432773355649e-03 -7.297822006299781172e-01 2.860623610025441743e-01 4.535772959014787720e-01 -8.440592172711297581e-01
-7.228141998429678770e-03 -1.945914610805374312e-01 -7.565802244420234413e-01 9.992887272227565232e-01 -1.623514457960217178e-02 3.403615321980753283e-02
-5.838981819534285952e-03 -2.773060691898697194e-01 -8.830991134542811594e-01 8.773628959911778935e-01 2.271303721749572402e-01 -4.226655211554863900e-01
-1.014142862996236967e-02 -6.089900162183128907e-02 -6.019262370194676803e-01 9.998017916723919152e-01 -9.944680893180875628e-03 1.724762855025574818e-02
-6.418705959695386772e-03 -6.695861232583939782e-02 -6.245262175892827283e-01 1.645679782973505367e-01 -9.646992554341670134e-01 -2.056033245934669740e-01
7.005521855110856920e-03 1.652340534732967270e-01 -7.352537031520244293e-01 -9.989667489680552626e-01 1.807406266140608106e-02 -4.169847377429673763e-02
-2.202016286482150285e-03 5.373348231248132462e-02 -6.694122736653775885e-01 1.429832482915753544e-01 -9.592599808604234113e-01 -2.436720743697363412e-01
2.597493973321950145e-04 -1.405575497091845205e-01 -7.294130432616938720e-01 -9.989803213408864346e-01 2.137106073853920971e-02 -3.976927628922435204e-02
-1.218771927473118926e-03 -2.614671860138305728e-02 -6.332262264881832747e-01 -9.987706292587695822e-01 2.328946280198321284e-02 -4.375878257488664824e-02
4.294479344072008216e-03 -1.725134332639232937e-01 -8.498767705595082766e-01 -9.990620898396903593e-01 2.484000190317473336e-02 -3.546709673204292285e-02
-4.884102693321663510e-03 -8.487417064392585586e-02 -7.621224669876252023e-01 9.989803213408864346e-01 -2.137106073853920971e-02 3.976927628922435204e-02
1.769909193672980496e-03 -4.846153279170824224e-03 -6.944192815630362281e-01 -9.989803213408864346e-01 2.137106073853920971e-02 -3.976927628922435204e-02
-7.483502399609732840e-03 -2.054508188525858980e-01 -7.352069223328313585e-01 9.176960125804056734e-01 3.744589505550128261e-01 -1.327197153525502826e-01
-1.798430356496918633e-04 -1.162165760770543788e-01 -7.057352392112998807e-01 -9.987535533571717528e-01 2.398453685146170744e-02 -4.377306989969501072e-02
4.416284487820588966e-03 1.662564496394048907e-01 -6.690943964603134342e-01 -9.989875756269963603e-01 1.804726935040220151e-02 -4.120824931843070082e-02
9.131211416477023196e-03 1.641917000740857335e-01 -6.959426015832123058e-01 -9.957377843659299677e-01 8.953222192831873649e-02 2.214150000805493318e-02
-6.079298359075053886e-03 -1.894275217099735953e-01 -8.363741231446213398e-01 8.773628959911777825e-01 2.271303721749572402e-01 -4.226655211554863900e-01
-9.641344561009516229e-03 -8.373078998173023868e-02 -6.363614506709430740e-01 9.992144626766522597e-01 -1.838854102335191892e-02 3.510440338250041259e-02
-5.529533318618288541e-03 -3.674475935441047780e-01 -9.465415932624771100e-01 8.206739254060282374e-01 -2.662418104303876931e-01 5.055784870199779846e-01
7.382021801277047213e-04 5.875773149063165390e-02 -6.343242104040178742e-01 -9.989803213408864346e-01 2.137106073853920971e-02 -3.976927628922435204e-02
9.182612363464641783e-03 1.024977106926545090e-01 -8.276273562154781160e-01 -9.992079759716937515e-01 1.848349698473694333e-02 -3.523891448052623998e-02
3.020162975441686472e-03 1.849775970227164057e-01 -7.956026238170225140e-01 9.944151377608222431e-01 -6.646405302441026064e-02 8.198209223783430033e-02
-2.913841566616288199e-04 8.683005157560638732e-02 -5.952954853176787298e-01 -9.987294151101188122e-01 2.262925405911708071e-02 -4.502746111572299842e-02
4.747857528306923675e-03 -9.074521345949859708e-02 -8.153836607430984262e-01 -9.989803213408864346e-01 2.137106073853920971e-02 -3.976927628922435204e-02
9.674051135122367640e-03 5.880100772800450626e-02 -8.648804182386667927e-01 -9.992094732792634604e-01 1.893074732764706350e-02 -3.495790775480221019e-02
-5.950070810694587861e-03 -1.066398163956732564e-01 -7.470423274674418135e-01 9.989803213408864346e-01 -2.137106073853920971e-02 3.976927628922435204e-02
-2.472766399726581202e-03 -1.104405773592497496e-02 -7.830192434867147000e-01 9.989803213408864346e-01 -2.137106073853920971e-02 3.976927628922435204e-02
