1.963882986014194032e-02 -8.724216847277571629e-02 -6.998133192154060156e-01 4.808902377946852602e-01 4.058356940116410461e-01 -7.772013694402890582e-01
-7.916554653747859271e-02 1.023262303206381174e-01 -6.717115911171651632e-01 -4.768866429199353218e-01 -4.073136486287829428e-01 7.788932670432211491e-01
5.025833360603075561e-02 -1.281930480037254405e-01 -6.996855743777513625e-01 5.074155846112149426e-01 -2.919713488426545211e-01 -8.107293974863991615e-01
8.974115320652401029e-02 2.980635017418925559e-02 -6.050439007019349225e-01 -4.847763146995389683e-01 -4.051451507448380340e-01 7.751447165105855852e-01
-1.236676336014629202e-01 -2.033349204803829371e-02 -7.627147171478374510e-01 -4.571026368565310194e-01 -4.078323826957560017e-01 7.903985874250464283e-01
2.433515639770814781e-02 1.722585987924935003e-01 -5.615234301181694088e-01 4.800714149075850923e-01 4.028129873592313781e-01 -7.792773150832512652e-01
3.587245848639067369e-02 1.920523655733873680e-01 -5.442236611508430855e-01 4.787505480331970542e-01 4.017785680634514134e-01 -7.806227610073870338e-01
3.374815923162707149e-02 -1.237047041234614342e-01 -7.224942769983079272e-01 -3.189493708516540349e-01 -8.025061938865633016e-01 5.042371541318984018e-01
4.468855510000477316e-02 -1.112795581628270025e-01 -7.066822113837840647e-01 -4.808902377946852602e-01 -4.058356940116410461e-01 7.772013694402890582e-01
-9.707654094350616492e-02 1.005571410860495174e-01 -6.741277813559930498e-01 4.859788068069070821e-01 4.037084895409845942e-01 -7.751413127985578022e-01
5.293101339579425746e-02 3.747672805457927941e-02 -6.239053006433390447e-01 -4.808902377946852602e-01 -4.058356940116410461e-01 7.772013694402890582e-01
5.200880141931062822e-02 1.174137118315336098e-01 -5.729616049819181711e-01 4.810087606857883502e-01 4.024178846706856216e-01 -7.789033433236068893e-01
-1.939049413746533890e-02 1.463183117033025338e-01 -6.020029425783690602e-01 4.808902377946852602e-01 4.058356940116410461e-01 -7.772013694402890582e-01
-8.935197932309128788e-02 -7.587565739638016393e-02 -7.614480421972493751e-01 4.855174630768989141e-01 4.058299325235874000e-01 -7.743221932214475745e-01
-6.013437901096129953e-03 -4.601381648225124493e-02 -7.037147540426885728e-01 7.238853713831181480e-01 -8.412672869623617766e-02 6.847719785566543926e-01
5.267049295646197143e-02 5.719509114285153267e-02 -6.172269428119971924e-01 -4.945660746945780839e-01 3.145095480906547891e-01 8.102395583535828560e-01
3.158795097091589808e-03 -1.102380197755752911e-01 -7.220181502765715686e-01 4.808902377946852602e-01 4.058356940116410461e-01 -7.772013694402890582e-01
5.669575867001866443e-02 7.305748721363908293e-02 -6.029964706079015135e-01 -4.808902377946852602e-01 -4.058356940116410461e-01 7.772013694402890582e-01
-1.141810324013238787e-01 9.771965019460879254e-02 -6.863218843005006731e-01 4.856921797539132668e-01 4.039202579748150668e-01 -7.752106370035508620e-01
5.662332397786547233e-02 -1.390716177535646914e-01 -7.039933920715071292e-01 4.808902377946852602e-01 4.058356940116410461e-01 -7.772013694402890582e-01
-8.509448172864629914e-03 1.201525430267045835e-01 -6.131629761311088167e-01 9.687443752589959267e-01 -1.148201118020785449e-01 2.198878744492662740e-01
-7.057765694836999615e-02 1.765008628992758011e-01 -6.145992188027876724e-01 4.192544290221209696e-02 -5.390766162165386843e-01 -8.412126122960709163e-01
4.440892531355103423e-02 -6.364860029282334852e-02 -6.819835009029544537e-01 -4.808902377946852602e-01 -4.058356940116410461e-01 7.772013694402890582e-01
-7.776689441062570318e-02 1.171323310155573671e-01 -6.534140532724909134e-01 4.850473797339712734e-01 4.038464541638849825e-01 -7.756526805680914460e-01
-1.511226457399961025e-02 1.569665676195882154e-01 -6.073924904424041760e-01 -4.179532767700297469e-01 -9.048944411981209024e-01 -8.050533352477656779e-02
2.004916250375346487e-02 -1.309433686524501955e-02 -6.706577971673935989e-01 -4.808902377946852602e-01 -4.058356940116410461e-01 7.772013694402890582e-01
4.785661578718752168e-02 1.636824723299389051e-01 -5.610334577548368173e-01 -4.818951306033713022e-01 -4.091022412334295866e-01 7.748628519412608107e-01
-7.595333906058650275e-02 9.333200433999423729e-02 -6.742453862670211295e-01 1.167444590603020499e-01 7.246286077498839129e-01 6.791789985778288186e-01
7.195687076607065746e-02 -1.293123994431038537e-01 -7.034326356375085743e-01 -5.004405262507142238e-01 -3.001115482204781970e-01 8.120913361873870473e-01
7.820982074727014788e-02 4.566081664513246818e-02 -6.039689487124174638e-01 -4.847763146995389683e-01 -4.051451507448380340e-01 7.751447165105855852e-01
-1.427969015565475237e-02 2.684421351888586355e-02 -6.710436956197532998e-01 -4.808902377946852602e-01 -4.058356940116410461e-01 7.772013694402890582e-01
-5.659433414535096352e-02 1.475321089276996900e-01 -6.244461398823271114e-01 4.807646976650050696e-01 4.024798453425229017e-01 -7.790220019820589537e-01
-6.300990219349243693e-02 3.211889599130554607e-02 -6.886244402890735472e-01 4.808902377946852602e-01 4.058356940116410461e-01 -7.772013694402890582e-01
1.875450511257900285e-02 2.147385566826024716e-01 -5.430753569617911003e-01 4.785262903602759965e-01 3.999355598927053501e-01 -7.817059148857330442e-01
-5.085703246418728229e-02 -1.380077088082214687e-01 -7.796566522807368838e-01 -4.753877301101587238e-01 -4.058791372971637390e-01 7.805566167598740890e-01
-5.963287088514218799e-03 2.151988200852145983e-01 -5.580278462484096202e-01 4.812754669100319793e-01 4.020315199885642343e-01 -7.789381117176226166e-01
3.158157843925857300e-02 -2.886604918505879941e-02 -6.717577663737100968e-01 -4.808902377946852602e-01 -4.058356940116410461e-01 7.772013694402890582e-01
1.152590199084841949e-01 -4.250104868340140452e-02 -6.175774916426002292e-01 4.761502075143599355e-01 4.071447338300337448e-01 -7.794319377588416753e-01
4.034796874607311790e-02 -1.140989972068259251e-01 -7.010236065898787228e-01 4.808902377946852602e-01 4.058356940116410461e-01 -7.772013694402890582e-01
7.435369718077905477e-02 -8.061504139582321982e-02 -6.625130096343234687e-01 4.767030869122451664e-01 4.072533341174370825e-01 -7.790371549409997876e-01
-9.083102999327118468e-03 -2.809537333580289231e-01 -8.200836293344427874e-01 9.687443752589957047e-01 -1.148201118020785033e-01 2.198878744492661907e-01
-4.399666480702516674e-02 -1.662132513173155135e-01 -7.899344491605158058e-01 -4.738511138666703926e-01 -3.930069050867014413e-01 7.880423176717655798e-01
-2.691683773508839195e-02 5.343529981703967757e-02 -6.551610922904463896e-01 4.808902377946852602e-01 4.058356940116410461e-01 -7.772013694402890582e-01
1.102280710919509576e-01 7.784312201475405979e-02 -5.670625552284261905e-01 -4.859138996757375595e-01 -4.060301247653296253e-01 7.739684876562921145e-01
-7.579171580145444009e-02 8.838757543242872772e-02 -6.637395081562685872e-01 4.961696181336689437e-01 8.438557954479103396e-01 -2.042623473136043200e-01
3.755391496782334304e-02 -2.209818202880921983e-02 -6.645283910551965656e-01 -4.808902377946852602e-01 -4.058356940116410461e-01 7.772013694402890582e-01
1.330797104302804401e-01 -1.073272920807903236e-01 -6.444753995213479136e-01 -8.464395908153180548e-01 4.460606568413189588e-01 -2.908090602417469084e-01
1.333318316678052395e-01 3.171834421196423337e-02 -5.762535077431732988e-01 -5.225241635295830855e-01 -4.014183733194167103e-01 7.522179126352304124e-01
-1.176773481742223598e-01 4.315163307767101025e-02 -7.169714481124080940e-01 4.855662004014381639e-01 4.045517096578108984e-01 -7.749602436516679349e-01
1.766654088390058608e-02 1.041256026191469536e-01 -6.011060591741451686e-01 4.808902377946852602e-01 4.058356940116410461e-01 -7.772013694402890582e-01
1.702918556437318931e-02 5.788046582180978589e-02 -6.354650762680147391e-01 -4.808902377946852602e-01 -4.058356940116410461e-01 7.772013694402890582e-01
-9.439574294493824347e-02 -2.619893543005832881e-02 -7.481669064903468946e-01 -4.768217509430414114e-01 -4.063760650260321294e-01 7.794225500981928345e-01
-6.798740376346915082e-02 -3.109379468401748253e-02 -7.345289503774508066e-01 -4.808902377946852602e-01 -4.058356940116410461e-01 7.772013694402890582e-01
-1.285974939411088924e-01 -4.441194623473043723e-02 -7.775699932763097122e-01 -2.831949187856849237e-01 -3.932578783733656769e-01 8.747278885866438536e-01
-1.030013472709749023e-01 1.732979892124630050e-01 -6.400788639047829687e-01 4.911712141510901630e-01 3.993995790042161320e-01 -7.741000030232519924e-01
2.778977997666619987e-02 1.856442077273811886e-01 -5.524914171125002715e-01 4.797510251992647135e-01 4.016354834657931971e-01 -7.800819778981264996e-01
-1.249710104865079958e-03 2.021482150226878438e-01 -5.750429801716218092e-01 4.393714880974390613e-02 -4.624231908874502084e-01 8.855700534028571047e-01
4.734273285797022807e-02 1.154034450307314386e-01 -5.866664118553471807e-01 -4.807652841693513812e-01 -4.092320863676460752e-01 7.754958678321542953e-01
1.152237501536131220e-01 5.671134885887879618e-02 -5.658728128251448997e-01 4.728727727972380501e-01 4.061594195442137512e-01 -7.819372523819024812e-01
-8.788956108839158718e-03 1.419060153210558728e-01 -5.927586861197430279e-01 4.808902377946852602e-01 4.058356940116410461e-01 -7.772013694402890582e-01
9.530542663773888812e-02 4.292690729197538163e-02 -5.947030103322130667e-01 -4.848874760128340511e-01 -4.052629760258348313e-01 7.750135843122922807e-01
4.230721839476022511e-02 -3.765764444205670775e-02 -6.738315981115727826e-01 -4.603056611684083754e-01 -4.749858925737474036e-01 7.500047334198863824e-01
-4.183661672005653531e-02 1.409523862874016431e-01 -6.285099150330418771e-01 -4.808902377946852602e-01 -4.058356940116410461e-01 7.772013694402890582e-01
-6.820002203175626332e-02 2.830950724535292312e-02 -7.036415444111168149e-01 -4.808902377946852602e-01 -4.058356940116410461e-01 7.772013694402890582e-01
-7.346178498857211699e-03 -1.942504719578232453e-01 -7.789302087049921886e-01 7.339875147993724092e-01 -3.143642862124282900e-01 6.020277598855315881e-01
1.012321768106434899e-01 -4.356166021279456180e-02 -6.266999397364767521e-01 4.761302095337071050e-01 4.071274975453248457e-01 -7.794531572274691067e-01
4.401370321668143099e-02 1.241321817928263682e-01 -5.743812048231689005e-01 4.758050513834013451e-01 4.066169648597746100e-01 -7.799180706755444170e-01
-8.260573193009176571e-03 1.870571827257757336e-01 -5.701458313820386703e-01 8.661314952845301507e-01 2.313500170043890081e-01 -4.430501128633789754e-01
8.131163185099424262e-02 1.585522206057174144e-01 -5.425886085968134598e-01 -4.923027318687535070e-01 -4.170643604022605255e-01 7.639995677203066382e-01
2.661205588010570264e-02 1.985383825833240967e-01 -5.558237437669224512e-01 -4.825826837712017814e-01 -4.095140219216021893e-01 7.742171653830582922e-01
-2.699612622936001238e-02 -6.337035262406057190e-02 -7.260197966767258926e-01 -4.808902377946852602e-01 -4.058356940116410461e-01 7.772013694402890582e-01
-5.966202026179454054e-02 -1.070467131253287352e-01 -7.690384234311360423e-01 -4.808902377946852602e-01 -4.058356940116410461e-01 7.772013694402890582e-01
9.936195772009255578e-02 9.010237976150442529e-02 -5.674535605723403098e-01 -4.864754910218411776e-01 -4.056533578290411612e-01 7.738132526114309684e-01
-8.003843713163004414e-02 9.654618343524026813e-02 -6.752686405467173136e-01 -4.768866429199353218e-01 -4.073136486287829428e-01 7.788932670432211491e-01
-8.879612185342025676e-02 4.951074651351731852e-03 -7.188391016181329141e-01 4.848065718266742485e-01 4.048925077552563145e-01 -7.752577926582404633e-01
8.703180595971404809e-02 1.494520223056230168e-01 -5.350991773611625257e-01 4.529294769528655618e-01 3.889082084714245435e-01 -8.022501444629041023e-01
8.295566753822011807e-02 1.137728152112561786e-01 -5.558481707793532234e-01 4.744440780486678944e-01 4.057413045286481501e-01 -7.812021573216116899e-01
-8.168873835255953701e-04 1.545940752273545771e-01 -5.998725445816512902e-01 -4.103136706382385923e-01 -4.221119001228916257e-01 8.083713475018873273e-01
3.338413418494069751e-02 -1.616492009896973170e-01 -7.301620138304519836e-01 4.808902377946852602e-01 4.058356940116410461e-01 -7.772013694402890582e-01
-4.052935373766378135e-02 1.187370476193210928e-01 -6.393013620239821337e-01 -4.808902377946852602e-01 -4.058356940116410461e-01 7.772013694402890582e-01
-3.346585944521109773e-02 -1.221744789421466970e-01 -7.496060600226098769e-01 2.896179323462534927e-01 8.391305430512431274e-01 4.604143622673021463e-01
-4.362430554571693209e-02 -2.679851075728896526e-02 -7.027367001388470369e-01 5.022485284832410857e-01 4.649375341646921900e-01 -7.290949903553546330e-01
1.603620439977463535e-02 -1.932595303958384025e-01 -7.575755059374474909e-01 4.783637713596258223e-01 4.124835711857649523e-01 -7.752582832530289236e-01
5.519147312788610926e-02 -1.873075183777335451e-01 -7.302776564544444238e-01 4.758857001253565255e-01 4.147101254439113371e-01 -7.755954565819055402e-01
7.319966993979127104e-03 -1.841656236009289460e-01 -7.717440907230926905e-01 -5.484768534274775398e-01 -3.870361905732745966e-01 7.411991152455735810e-01
-7.585674641667965179e-02 -4.502672811098640260e-02 -7.466440547288790697e-01 -4.767221439103634384e-01 -4.065288119259899413e-01 7.794038250993832184e-01
5.056011525453017047e-03 2.330821945764774764e-02 -6.498582793325187179e-01 -7.298722905751218182e-01 3.164104346005980339e-01 -6.059462652137442840e-01
9.132686489691567780e-03 6.641783099581739791e-02 -6.351001247847892772e-01 -9.672285297278594429e-01 1.175261686420405183e-01 -2.250701467649718901e-01
-8.055649516552480793e-02 1.034844408922228343e-01 -6.766137967307588319e-01 -5.042277159175260204e-01 -4.974611949914440889e-01 7.058943051040142969e-01
-7.577752904155764246e-02 1.325898866851453473e-01 -6.441172873346896477e-01 4.854889585320797396e-01 4.039806978246442415e-01 -7.753064342107253148e-01
4.127153553385663753e-02 5.557913583523566015e-02 -6.118503500066686529e-01 4.808902377946852602e-01 4.058356940116410461e-01 -7.772013694402890582e-01
-3.463374731420904018e-02 2.299208434399273027e-01 -5.683132410589359917e-01 5.051192672389794858e-01 3.562906542992951842e-01 -7.860734670009772440e-01
1.504184778222296924e-03 -7.009448286154768004e-02 -7.020799530175428904e-01 4.808902377946852602e-01 4.058356940116410461e-01 -7.772013694402890582e-01
-5.765197575440597633e-02 -5.603451711021869425e-02 -7.411573856383291137e-01 -4.808902377946852602e-01 -4.058356940116410461e-01 7.772013694402890582e-01
-3.355011271171595699e-02 -6.214564194251267354e-02 -7.294355353938433151e-01 -4.808902377946852602e-01 -4.058356940116410461e-01 7.772013694402890582e-01
3.087429588003075265e-02 -1.634718971814821953e-01 -7.326667339580575922e-01 4.808902377946852602e-01 4.058356940116410461e-01 -7.772013694402890582e-01
1.313327528917758169e-01 4.657619864768479390e-02 -5.617103463950033904e-01 4.373364443926701095e-01 4.048024783534597271e-01 -8.030390948919445826e-01
-9.099251360830105939e-02 -7.728874165968362131e-02 -7.632173056220424856e-01 4.855174630768989141e-01 4.058299325235874000e-01 -7.743221932214475745e-01
-7.903342664372954574e-02 -1.097788187696685236e-01 -7.822989627808895063e-01 -4.757327636003459426e-01 -4.055375318353982572e-01 7.805239572940927406e-01
-2.065040556655875492e-02 1.197513967167758431e-01 -6.264716738953733932e-01 -4.808902377946852602e-01 -4.058356940116410461e-01 7.772013694402890582e-01
1.330915495612607080e-02 -1.653099991844287908e-01 -7.444949068863221386e-01 4.808902377946852602e-01 4.058356940116410461e-01 -7.772013694402890582e-01
1.530026651852116641e-03 5.900567774114718472e-02 -6.444675604760703447e-01 -4.808902377946852602e-01 -4.058356940116410461e-01 7.772013694402890582e-01
1.907565526642693299e-02 -1.196301035743488062e-01 -7.268905428427883120e-01 -4.808902377946852602e-01 -4.058356940116410461e-01 7.772013694402890582e-01
-2.284719324636298472e-03 -3.703442727494908326e-01 -8.564772507341644747e-01 4.334083718599947566e-01 4.246923438030272835e-01 -7.948544497684839616e-01
-1.217186363846989583e-01 4.312509501456920219e-03 -7.397908718258762173e-01 4.857058912475349377e-01 4.049748758950775240e-01 -7.746516230546505177e-01
-9.346345423313985254e-03 -7.102096080208575302e-02 -7.093020817189968907e-01 9.687443752589957047e-01 -1.148201118020785172e-01 2.198878744492662185e-01
-9.646488035556972235e-03 7.294986896848452973e-02 -6.328016913267930921e-01 9.687443752589958157e-01 -1.148201118020785033e-01 2.198878744492661907e-01
-1.454925157900065344e-03 1.399559632700204254e-02 -6.732815299198589010e-01 4.393714880974390613e-02 -4.624231908874502084e-01 8.855700534028571047e-01
-8.356485086206177915e-02 -1.859436992699796398e-02 -7.375718502031611834e-01 -4.768952929938601870e-01 -4.066514297570712477e-01 7.792339149426378286e-01
6.918362999405396063e-02 -1.266254832054909130e-01 -6.887177752749895632e-01 3.004052776007584691e-01 -8.340667964187352679e-01 -4.626977937070795299e-01
-1.333707173712118423e-02 -2.168628808749467896e-01 -7.886178124285809776e-01 5.079160967674515303e-01 4.518919345535081233e-01 -7.333586558635583064e-01
-2.506910254045495445e-02 1.358289477102206377e-01 -6.109938501293451507e-01 4.808902377946852602e-01 4.058356940116410461e-01 -7.772013694402890582e-01
-1.118397298873109128e-03 2.490965146389105822e-01 -5.436806113384839989e-01 1.319137788012642309e-01 -9.098252777833214511e-01 -3.934675575811465431e-01
-5.727724287666295655e-02 -1.795986229496902842e-01 -7.988668770194073954e-01 5.503985535805899776e-01 5.502772893524121578e-01 6.278983492886058837e-01
-4.540217160021399467e-02 -1.912227211162235707e-01 -7.952833998785324710e-01 5.200273826567286539e-01 4.544494440459393991e-01 -7.232200385038628498e-01
-3.268024437560794471e-02 -7.352143538170099850e-03 -6.904689048215590930e-01 4.808902377946852602e-01 4.058356940116410461e-01 -7.772013694402890582e-01
-2.190932162813912128e-03 -3.390795124366828284e-01 -8.399994571431956825e-01 4.103136706382385923e-01 4.221119001228915701e-01 -8.083713475018872163e-01
1.121930003633903883e-01 7.927591617204066132e-02 -5.650286621867636194e-01 -5.066387176611523158e-01 -4.066835745208341457e-01 7.602142329512258101e-01
1.240559772362446883e-01 -6.080124082122798090e-02 -6.217949620880405259e-01 4.732628581793962286e-01 4.084083587402322912e-01 -7.805285898536826750e-01
1.928798865886484012e-02 -1.888768456177284394e-01 -7.627591432963082285e-01 -4.827586923076742642e-01 -4.008600501510503067e-01 7.786239562165307992e-01
2.117635514748408831e-02 -7.304090193465270775e-02 -7.012629927259179663e-01 -4.808902377946852602e-01 -4.058356940116410461e-01 7.772013694402890582e-01
-3.215853446897802559e-02 2.293481558480192639e-01 -5.756389255319473985e-01 -4.716639152587525641e-01 -4.299201530040723251e-01 7.698712964409953896e-01
-1.015635139995350045e-01 1.493400307971365359e-01 -6.607743907096232938e-01 -4.758493953853580871e-01 -4.085852166655266626e-01 7.788616524349968318e-01
5.937360110017653875e-03 -3.422736814638805414e-01 -8.553273910983667516e-01 -5.484768534274775398e-01 -3.870361905732745966e-01 7.411991152455736920e-01
2.310026843829500812e-02 -1.761881168375435402e-01 -7.538652678292305787e-01 -4.825217980321029332e-01 -4.007573168019762933e-01 7.788236561979526851e-01
-5.221728079369207520e-03 -1.148763172482526046e-01 -7.400730646262498880e-01 7.339875147993724092e-01 -3.143642862124282900e-01 6.020277598855315881e-01
-1.159871040813180848e-01 -3.694925807663213685e-02 -7.668437053952218418e-01 -4.558243814185452547e-01 -4.056599757952858987e-01 7.922525590631869230e-01
4.489449322420241417e-02 -3.270375118170400913e-02 -6.655244084642373270e-01 -4.808902377946852602e-01 -4.058356940116410461e-01 7.772013694402890582e-01
-6.686136291700268616e-03 -1.962231407368433544e-01 -7.732192278348266612e-01 4.817262274756767271e-01 4.113569450837042951e-01 -7.737734199967420956e-01
1.253614036105267782e-01 8.405915509284889175e-02 -5.535031599844358885e-01 -5.254697655023197189e-01 -4.105708966728392473e-01 7.451933066984687271e-01
3.624714631232209966e-02 1.631768424536731987e-01 -5.685146167763663883e-01 -4.812257956528884772e-01 -4.091994441006090444e-01 7.752274173079773956e-01
-9.034003580356971333e-03 -3.070493569381931021e-03 -6.834186821109083931e-01 -4.808902377946852602e-01 -4.058356940116410461e-01 7.772013694402890582e-01
-7.859248801444440602e-02 9.155620853737692078e-02 -6.672613942911961304e-01 4.849019089447501596e-01 4.043423789677850766e-01 -7.754852540650979398e-01
-8.231667409412123798e-03 6.055375334366296797e-02 -6.510463846960183876e-01 -1.513165173349195758e-01 1.736435414204533559e-04 9.884853470990609958e-01
-1.245048527320916920e-01 4.561994448670470687e-02 -7.289295193535049178e-01 -4.587520662045304620e-01 -4.117094261978533898e-01 7.874273872128835228e-01
6.615560028711690074e-04 2.072209187730138513e-01 -5.580553106512597950e-01 4.804965274994358881e-01 4.022292705902169030e-01 -7.793168167962539750e-01
4.818847447652883920e-02 -1.399124591834908782e-01 -7.096514884422004954e-01 4.808902377946852602e-01 4.058356940116410461e-01 -7.772013694402890582e-01
-4.971093068071016918e-02 1.950108448089112323e-01 -6.049968271475583137e-01 -4.798770982933722173e-01 -4.096145623434263583e-01 7.758439797083794831e-01
1.246692941259476550e-02 -1.564981828414681586e-01 -7.404147139223972163e-01 4.808902377946852602e-01 4.058356940116410461e-01 -7.772013694402890582e-01
2.183617917414830065e-02 1.898523304098711506e-01 -5.633916315152941445e-01 -4.818461279855515422e-01 -4.096613315794319643e-01 7.745978972046710931e-01
3.543259203663669948e-02 -1.254667606155357440e-01 -7.239081368456348198e-01 -4.627807446390732049e-01 -4.725949119722392955e-01 7.499920210037277490e-01
8.253072002902459015e-02 -7.239476735998516543e-02 -6.532103648577481936e-01 4.768770287254250340e-01 4.070428745943601712e-01 -7.790406906676761167e-01
2.758795250525614140e-02 2.163947492704208081e-02 -6.478560474179537731e-01 -4.808902377946852602e-01 -4.058356940116410461e-01 7.772013694402890582e-01
-6.781701693199704284e-02 1.365475158524928068e-01 -6.370703362388037139e-01 4.854889585320797396e-01 4.039806978246442415e-01 -7.753064342107253148e-01
-1.927069282304641473e-02 -1.556455588704281634e-01 -7.694235890343311679e-01 -4.808902377946852602e-01 -4.058356940116410461e-01 7.772013694402890582e-01
-7.123759810256183322e-02 1.323152810239624777e-01 -6.511659777844820418e-01 -4.762989605048969510e-01 -4.076709000305657749e-01 7.790659391156968816e-01
7.410240421567558002e-03 1.330937249118161192e-01 -5.902722187406995724e-01 2.268260574577095345e-01 9.028323851882239515e-01 -3.652993620491748472e-01
6.696139992018966536e-02 1.697138872723066572e-01 -5.366758788544546688e-01 4.643515895616547873e-01 3.988034981572833870e-01 -7.907802293488869205e-01
9.934792670184114383e-02 7.683118873506118718e-02 -5.650684550491251734e-01 4.758723463608689475e-01 4.056277466158724199e-01 -7.803919791645289594e-01
6.747949219131857412e-02 1.024450047677614578e-01 -5.809786301458439439e-01 -4.808902377946852602e-01 -4.058356940116410461e-01 7.772013694402890582e-01
-1.077051072731138037e-01 -9.855547100097311608e-02 -7.849777621359167457e-01 4.912483979341877860e-01 4.079160847706877480e-01 -7.695969590067562871e-01
-5.499520508307554484e-02 -1.668583046845694903e-02 -7.046268536216790945e-01 4.641314434416510815e-01 3.438187188503913916e-01 -8.163153139423791060e-01
7.313187159625944567e-02 -7.160304071973930262e-02 -6.683649085624051578e-01 -4.808902377946852602e-01 -4.058356940116410461e-01 7.772013694402890582e-01
3.692215718950406234e-02 -1.486950023710847113e-01 -7.310250759860761338e-01 -4.808902377946852602e-01 -4.058356940116410461e-01 7.772013694402890582e-01
8.525214465636402408e-03 1.724020227512057246e-01 -5.711960575950438823e-01 4.806851094364621435e-01 4.028685252025909769e-01 -7.788701926297768585e-01
4.574912289367977225e-02 -1.238494635516397269e-01 -7.103976061417396348e-01 1.385446768008740670e-01 -9.685913579588620870e-01 -2.064852387400814560e-01
-3.069229175642194940e-02 -1.390041015067074448e-01 -7.579843246157585979e-01 4.808902377946852602e-01 4.058356940116410461e-01 -7.772013694402890582e-01
-2.893750173775537504e-02 1.903069463084646473e-01 -5.850866068938799236e-01 4.817022720616622733e-01 4.023989590291183749e-01 -7.784844242905017975e-01
8.753875175660073837e-02 -1.252848500320573877e-01 -6.918414698492576509e-01 -4.484394174316703174e-01 -5.099816489698165700e-01 7.340441448629441146e-01
-3.589775358952983220e-02 -1.887871700363047966e-01 -7.962962482901581041e-01 -4.601738275703303738e-01 -3.786239579280918921e-01 8.030466654573309437e-01
5.646427018743269133e-02 -8.984837605867743160e-02 -6.882051915843144796e-01 -4.808902377946852602e-01 -4.058356940116410461e-01 7.772013694402890582e-01
-2.337025768949491447e-02 -3.742222165446214971e-02 -7.053921811774881423e-01 1.698214861352143890e-01 7.067561974018551352e-01 6.867724079204819976e-01
8.379882950493865862e-03 -3.384847654885689838e-01 -8.432952961620209242e-01 -9.672285297278593319e-01 1.175261686420404905e-01 -2.250701467649718346e-01
1.178192214395172022e-01 5.201340678684908403e-02 -5.647519556455639078e-01 5.760751584985318585e-02 8.626983004213069073e-01 -5.024271256289786214e-01
-4.607903459881271258e-02 4.825005163466623143e-02 -6.795418035787282873e-01 -4.808902377946852602e-01 -4.058356940116410461e-01 7.772013694402890582e-01
8.776739236485428530e-02 1.335892243158312287e-01 -5.518325814824878162e-01 -4.940042055308256908e-01 -4.085838331020903436e-01 7.674757952179734888e-01
-1.151824202545183168e-01 1.229681257841545167e-01 -6.842334721359404348e-01 -3.697104073395242607e-01 -8.478896254089630657e-01 3.799965760749576260e-01
7.782182457721227575e-02 -1.294069293478114224e-01 -6.859218977653899207e-01 4.762487296383066115e-01 4.081830007970710938e-01 -7.788284698046147314e-01
8.436036059577230184e-02 5.921050785482784296e-02 -5.930356379685625123e-01 -4.848836976002549592e-01 -4.052834234880723918e-01 7.750052557546255327e-01
-5.926651127135638270e-02 -1.410831792746863322e-01 -7.768988925770470289e-01 4.863977582009610390e-01 4.057750794675794026e-01 -7.737982978142037283e-01
-4.029825030324014901e-02 2.186948878422660392e-01 -5.865113060655494648e-01 -4.661857065704749226e-01 -4.278680474857069482e-01 7.743383116765927277e-01
-1.151006886343704239e-01 -3.383443278232300261e-02 -7.647378375331922440e-01 -4.565336362642975487e-01 -4.082241333751298606e-01 7.905252025643599856e-01
4.576000385577732275e-03 -6.585795232045568715e-02 -7.077836338447707210e-01 -4.808902377946852602e-01 -4.058356940116410461e-01 7.772013694402890582e-01
1.554743358362922594e-02 -1.464182762232334734e-01 -7.430617495550820850e-01 -4.808902377946852602e-01 -4.058356940116410461e-01 7.772013694402890582e-01
-5.868462409481536857e-02 -6.647945977906043191e-03 -7.160078637345834718e-01 -4.808902377946852602e-01 -4.058356940116410461e-01 7.772013694402890582e-01
1.077653739552464213e-01 -1.286060679312410471e-01 -6.808442360756425948e-01 -5.145662237109634995e-01 -2.890061963108935816e-01 8.072775358634400877e-01
-7.984656112841392178e-03 2.277732076327057542e-01 -5.576183064175188608e-01 7.258056017560581274e-01 -3.255766939356550260e-01 6.059752840054247747e-01
5.161232030483629829e-02 -1.662136457916896237e-01 -7.213706413534433093e-01 4.753625597432112881e-01 4.085766030581068908e-01 -7.791633950769761841e-01
-9.314073376466878995e-02 1.013249026887422591e-02 -7.190121576221935040e-01 -1.627565156302018812e-01 -7.070333832420189202e-01 -6.881962740390710209e-01
-9.307961766097125333e-02 1.134583116945137721e-02 -7.277697124021056396e-01 -4.769948805369919609e-01 -4.067448214424261854e-01 7.791242097196501293e-01
1.338015888191190945e-02 -3.780577928890186540e-02 -6.823385321592911890e-01 3.236124747106782773e-01 -8.334130748157542179e-01 -4.479928715256309979e-01
-4.982996595260688610e-02 9.855216399496734281e-02 -6.555961350028747248e-01 -4.808902377946852602e-01 -4.058356940116410461e-01 7.772013694402890582e-01
2.492849944391511974e-02 -1.590969500502243672e-01 -7.438777483738442386e-01 -4.808902377946852602e-01 -4.058356940116410461e-01 7.772013694402890582e-01
-1.424213213705796399e-01 2.245129711216793320e-02 -7.489033695118904044e-01 8.732475979454594750e-01 -1.421943423730623879e-01 4.660680225885247552e-01
-2.357361741347217821e-02 -1.531316999970388504e-01 -7.609567624308657408e-01 4.808902377946852602e-01 4.058356940116410461e-01 -7.772013694402890582e-01
-7.158330440788211735e-02 -7.710993921540106044e-02 -7.607564662968667735e-01 -4.764324051158998485e-01 -4.063743781807118705e-01 7.796614830256262119e-01
-1.760959091279718294e-02 -2.948983759061087756e-02 -7.068296768689237286e-01 -5.109330278385801893e-01 -4.925256070714417733e-01 7.045324459828719021e-01
4.719766351586969499e-02 6.663604951115184583e-02 -6.024099300353964459e-01 4.808902377946852602e-01 4.058356940116410461e-01 -7.772013694402890582e-01
-1.194157486486586706e-01 1.395365099018859301e-01 -6.678962192878713511e-01 4.887374572295359876e-01 4.011435554623196675e-01 -7.747383724921959036e-01
7.124845940227080010e-02 8.425043349074123888e-02 -5.881431857086765191e-01 -4.854680864994800893e-01 -4.053431192591829824e-01 7.746080897200653403e-01
4.621475081039350466e-03 1.162140383925670400e-01 -6.168899666565608175e-01 -5.484768534274775398e-01 -3.870361905732745966e-01 7.411991152455735810e-01
4.146537335295845395e-02 -3.886362165933627405e-02 -6.602927265842186699e-01 3.268058597075268468e-01 -8.310869841922684520e-01 -4.499915052165145424e-01
-4.773599274844317342e-02 -3.889104048158439214e-02 -7.260700033689125865e-01 -4.808902377946852602e-01 -4.058356940116410461e-01 7.772013694402890582e-01
1.141474112691081427e-01 5.481921272816735885e-02 -5.637649713148548125e-01 2.437681972053920010e-01 2.606979547937595676e-01 -9.341379140135486203e-01
-9.611218609869565110e-02 -2.567278139027981063e-02 -7.394148268370591692e-01 4.848933740242219459e-01 4.050077521132939840e-01 -7.751433006583636764e-01
1.162305236895100347e-01 6.506285203266884420e-02 -5.609259741074552608e-01 4.728727727972380501e-01 4.061594195442137512e-01 -7.819372523819024812e-01
8.073893884642806273e-02 1.180700538006755618e-01 -5.644880860191781036e-01 -4.854509032359335952e-01 -4.058885351324156288e-01 7.743332083770383401e-01
-1.364502338487052491e-01 6.021453422680220907e-02 -7.281137006304592152e-01 -4.368423283424157089e-01 -4.176176709139047816e-01 7.967209430590000974e-01
-5.800275917558246098e-03 1.071435025404511576e-01 -6.238667519604393918e-01 -4.808902377946852602e-01 -4.058356940116410461e-01 7.772013694402890582e-01
3.472845341270874853e-03 -3.650214459037063874e-01 -8.688551710281674501e-01 -5.269670712951001201e-01 -3.857933010542297647e-01 7.572775149391041127e-01
-1.138215286174471125e-01 -4.454509596934731058e-02 -7.604001472456635158e-01 4.861573531393797443e-01 4.056655644533787020e-01 -7.740067685784369766e-01
9.912298575983784221e-02 -4.611043927336030274e-02 -6.293196322718870306e-01 4.761302095337071050e-01 4.071274975453248457e-01 -7.794531572274691067e-01
4.537076158850913976e-02 5.004335856786679831e-02 -6.220211867136256068e-01 -4.808902377946852602e-01 -4.058356940116410461e-01 7.772013694402890582e-01
9.986935172928645965e-02 -1.063370674261410465e-01 -6.697597444328846628e-01 -4.863940753871421330e-01 -4.034118082607260347e-01 7.750353000890335409e-01
5.458358082460049165e-02 -3.816447604980129776e-02 -6.623807822824183678e-01 -4.808902377946852602e-01 -4.058356940116410461e-01 7.772013694402890582e-01
-1.285187769072949904e-01 -4.009351457803085562e-04 -7.552207084864595021e-01 -4.579757466674356792e-01 -4.095115865802037014e-01 7.890237486419335866e-01
-2.756920575148563007e-02 1.833029429784730213e-01 -5.878603198882716985e-01 4.817022720616622733e-01 4.023989590291183749e-01 -7.784844242905017975e-01
-1.145933936281576387e-01 7.153103372325096687e-02 -7.094835614030547966e-01 -4.761601685575519438e-01 -4.073841949917518801e-01 7.793007195878661753e-01
-2.283680853503908953e-02 -1.676302733359141817e-01 -7.777862572640170669e-01 -4.787830722606356559e-01 -4.016723919027150314e-01 7.806574532404197964e-01
1.649555151459586311e-02 -4.896828616172668042e-02 -6.915890854833127710e-01 -4.808902377946852602e-01 -4.058356940116410461e-01 7.772013694402890582e-01
4.588507388778496204e-02 5.182279538280743642e-02 -6.070574719636417926e-01 2.145633313369574857e-01 9.151953466497080303e-01 -3.411452100151892153e-01
-7.916922327633446263e-03 -2.595934556054698694e-01 -8.027049862327170215e-01 8.660725857057705035e-01 2.314016952975340990e-01 -4.431382760520106712e-01
-2.080494064137736188e-02 1.167917907426258700e-01 -6.281127262706616143e-01 -4.808902377946852602e-01 -4.058356940116410461e-01 7.772013694402890582e-01
1.029544072208674471e-01 1.345712322970040419e-02 -6.053223415385052819e-01 -4.855412249818460979e-01 -4.049269456085451968e-01 7.747798962048916271e-01
5.877199744873409792e-02 -4.058929813648894797e-02 -6.610553995020213014e-01 -4.808902377946852602e-01 -4.058356940116410461e-01 7.772013694402890582e-01
1.026407874160465382e-03 -1.261279372230428020e-01 -7.457650995569591323e-01 -4.862243048106819621e-01 -4.367957231859935785e-01 7.568324924432048295e-01
4.339902013980662804e-02 -1.789478991882781089e-01 -7.330982089435531535e-01 4.784744903543702854e-01 4.114616920625201457e-01 -7.757328393494589136e-01
6.448405050814741239e-03 1.813664149897479261e-01 -5.774264020261378194e-01 -4.809495176672413663e-01 -4.087667583179167008e-01 7.756270358554486766e-01
3.207706599915766121e-02 -1.358724517128652998e-01 -7.273273319988453611e-01 -4.808902377946852602e-01 -4.058356940116410461e-01 7.772013694402890582e-01
-3.246396376794410954e-02 1.055284962618898981e-01 -6.412081192234108107e-01 -4.808902377946852602e-01 -4.058356940116410461e-01 7.772013694402890582e-01
2.755315497640719452e-02 -1.241810014915423893e-01 -7.209182091395041070e-01 1.479673494221385999e-01 -9.624501416065411874e-01 -2.275860022640564528e-01
3.717414992290492964e-02 1.411201521946110760e-01 -5.651850832061526830e-01 5.110034097015736521e-01 1.955742823562116040e-01 -8.370341781278817228e-01
-3.926796923131518902e-02 1.451280645347445275e-01 -6.149235689503584901e-01 4.808902377946852602e-01 4.058356940116410461e-01 -7.772013694402890582e-01
-5.598988869421114151e-03 2.349507354205526144e-01 -5.562879345606300818e-01 -4.749019447020477180e-01 -4.250734086363500697e-01 7.705716969812008710e-01
7.650234992399219947e-02 -1.084933935349724904e-01 -6.757786365973521558e-01 4.764120213401449311e-01 4.075543927067615813e-01 -7.790577660918475145e-01
-1.096358091063978635e-01 6.303966193446454425e-02 -7.015545050030065344e-01 4.855201155375002409e-01 4.043746811914771810e-01 -7.750815019207616396e-01
1.396713390001058097e-01 3.130827725862176530e-02 -5.717295294254480797e-01 -6.244880354474385831e-01 -3.880162762527700759e-01 6.778333592749273828e-01
-4.330826812462988673e-02 8.055944502244588579e-02 -6.511396538846728754e-01 4.808902377946852602e-01 4.058356940116410461e-01 -7.772013694402890582e-01
-1.204498365014859684e-02 9.300150685641511705e-02 -6.252986789530868839e-01 4.808902377946852602e-01 4.058356940116410461e-01 -7.772013694402890582e-01
-9.246930586551715958e-02 -2.214492462700350800e-02 -7.352927273205047687e-01 4.848933740242219459e-01 4.050077521132939840e-01 -7.751433006583636764e-01
9.507026306566510043e-03 -9.581428812465181410e-02 -7.105584849814572390e-01 4.808902377946852602e-01 4.058356940116410461e-01 -7.772013694402890582e-01
-1.335590303601181085e-03 -1.780807183422740969e-01 -7.602774190355860995e-01 4.803232128465941830e-01 4.104166929523631047e-01 -7.751436959343545041e-01
3.287396274532546590e-03 6.750227177897541453e-02 -6.291269119612492577e-01 4.808902377946852602e-01 4.058356940116410461e-01 -7.772013694402890582e-01
-8.875423335683006038e-03 1.338613884837533685e-01 -5.981323535958925630e-01 7.667922831257524274e-01 3.117100348430901224e-01 -5.611296184634306794e-01
6.956262213775714354e-02 6.182769781484566407e-02 -5.910840572431707018e-01 4.768683388078915342e-01 4.063818743462085381e-01 -7.793910184531668284e-01
2.777016010999948728e-02 -4.236699788179976861e-02 -6.673685581372881259e-01 5.207867882518552038e-01 -3.289757651139785244e-01 -7.877538112570384721e-01
-2.530204212379255982e-02 -1.737163201505498578e-01 -7.824291688085835972e-01 -4.779719040035146360e-01 -4.000745587479352938e-01 7.819739167171113614e-01
-5.379984049632750842e-02 8.439124736320408049e-02 -6.556303981211406562e-01 4.808902377946852602e-01 4.058356940116410461e-01 -7.772013694402890582e-01
-3.480569859418128353e-02 -4.514559895449945376e-02 -7.213354142435017824e-01 -4.808902377946852602e-01 -4.058356940116410461e-01 7.772013694402890582e-01
-9.712243045781915329e-02 -1.742734827164863290e-02 -7.357381975287667908e-01 4.848545571383987007e-01 4.050722105568005937e-01 -7.751338998242524037e-01
-4.776366677798265375e-02 -9.691592082169901701e-03 -7.128301536048128328e-01 -5.249408834871270857e-01 -8.255834355966407134e-01 2.070001442323219365e-01
4.880834812300910430e-02 1.402676720223786783e-02 -6.387011837601106468e-01 -4.808902377946852602e-01 -4.058356940116410461e-01 7.772013694402890582e-01
8.980068878452900083e-02 8.968853588777801755e-02 -5.736779227174657603e-01 -4.850285097941464674e-01 -4.057023253811516961e-01 7.746954032826034453e-01
-4.058248801453814836e-02 -7.783024680373670789e-02 -7.419769095010562143e-01 -4.808902377946852602e-01 -4.058356940116410461e-01 7.772013694402890582e-01
1.345828850369861496e-01 -5.805594216540447411e-02 -6.224404645620391641e-01 -5.249753783786573758e-01 -3.900948576118157263e-01 7.564567761352943842e-01
-3.178067645722643803e-02 -1.146229206839515652e-01 -7.424592367749097699e-01 3.056596048963358681e-01 -8.218405941364156919e-02 -9.485873635637946943e-01
-4.745294105802462005e-03 -3.309170031810962920e-01 -8.532232689154368721e-01 4.393714880974385062e-02 -4.624231908874502639e-01 8.855700534028571047e-01
1.053339485667397074e-01 -3.395354063844695236e-02 -6.285963770638953729e-01 -4.856577669148880450e-01 -4.045259797463278684e-01 7.749162955736043079e-01
-9.667345921257312902e-02 -2.290964842470584115e-02 -7.478453570932198646e-01 -4.768217509430414114e-01 -4.063760650260321294e-01 7.794225500981928345e-01
-1.930276648885510121e-02 2.355592289432702213e-01 -5.643492778854759528e-01 -4.626928276950490471e-01 -4.482550204652299142e-01 7.648416723919243543e-01
-1.315213234060512047e-03 -6.805516371682721055e-02 -6.980322408841387327e-01 4.104223618656315797e-01 4.220892604334510745e-01 -8.083279910453298189e-01
-6.486606127881779094e-02 9.262573177146420089e-02 -6.720975989914625970e-01 -4.566466681469075195e-01 -3.094184304967251831e-01 8.341067409746015793e-01
-4.224062472893152370e-02 2.140612615463263757e-01 -5.810908598173448736e-01 4.848857226653016661e-01 3.961243377242829045e-01 -7.797251727486078643e-01
-8.436127613275910819e-03 -2.083516456286322871e-01 -7.896433045338474566e-01 -4.713420925663259209e-01 -3.803914594245329517e-01 7.957003012265804198e-01
7.159765312189277087e-02 -1.292828008008866103e-01 -6.994133906096711151e-01 -4.857983433287882957e-01 -4.037001148545369400e-01 7.752587870417454452e-01
-4.842880855066426793e-02 -7.289688099405350341e-02 -7.344391371564525928e-01 4.808902377946852602e-01 4.058356940116410461e-01 -7.772013694402890582e-01
-9.473527359144416279e-03 -3.386308759639464205e-02 -7.040320729695491719e-01 -5.072098128636388648e-01 -4.935675902205694521e-01 7.064907923099155163e-01
7.009285297393874625e-02 5.266874766694285698e-02 -6.053535771061896442e-01 -4.808902377946852602e-01 -4.058356940116410461e-01 7.772013694402890582e-01
-1.436754122581487547e-01 2.386338911715671363e-02 -7.459477169753157000e-01 8.764262813347007963e-01 -1.972945341805002750e-01 4.392628372265599546e-01
-5.294376609010698585e-03 1.962490540370079584e-01 -5.768607238418638206e-01 -4.802301293404929727e-01 -4.098267629669884449e-01 7.755134088006560011e-01
-3.663826499669457781e-02 -1.036993956375837356e-01 -7.432281111377813110e-01 4.808902377946852602e-01 4.058356940116410461e-01 -7.772013694402890582e-01
-9.021713651170744364e-02 1.235311805467009943e-01 -6.673813736013617381e-01 -4.757616509843480279e-01 -4.079584476853314046e-01 7.792437079725584859e-01
-3.194237789061674104e-02 2.335995410930943594e-01 -5.730691149221540659e-01 -4.575178762510719310e-01 -4.532910203902482671e-01 7.649866951419980188e-01
8.313956200398915294e-03 -1.821539305424318134e-01 -7.689392249395219370e-01 -8.660720514567195050e-01 -2.313976908110882136e-01 4.431414112592563237e-01
8.499148259897108815e-03 1.397775109242530567e-01 -6.020886477739856302e-01 -5.200070717118512320e-01 -3.526460574684764926e-01 7.779674823034735676e-01
-5.752943077481638412e-02 1.823183094568294471e-01 -6.164466148529393896e-01 -4.747610769217119886e-01 -4.085513436608677607e-01 7.795432761771701191e-01
-1.520010302167632173e-02 -7.968216710690265159e-02 -7.272386881804052683e-01 -4.808902377946852602e-01 -4.058356940116410461e-01 7.772013694402890582e-01
-2.495186353635822640e-02 4.269743447115257468e-02 -6.693688929446269809e-01 -4.808902377946852602e-01 -4.058356940116410461e-01 7.772013694402890582e-01
-1.546295921398694803e-02 1.821048185955605470e-01 -5.809931315319568634e-01 4.815904450866803632e-01 4.026195963348601636e-01 -7.784395312728968896e-01
-1.057928005706757352e-01 1.420750167792823593e-01 -6.671492610405665991e-01 -4.546838225421160895e-01 -4.198734473515436383e-01 7.854736849364338802e-01
-3.761320252229431726e-02 -4.783362185478814803e-03 -6.921797976550536635e-01 4.808902377946852602e-01 4.058356940116410461e-01 -7.772013694402890582e-01
6.834982272193733388e-02 -4.627123543250206278e-02 -6.438495389321287066e-01 4.601210132493780969e-01 4.757163469685865009e-01 -7.496549942428378799e-01
-9.619765360699206180e-02 1.759251361982845374e-01 -6.432994332700323614e-01 -4.598891245465219213e-01 -4.227229715506046759e-01 7.809015830738597064e-01
1.085703962511234688e-01 3.519600223944494705e-02 -5.811191515358664628e-01 4.760735370459987514e-01 4.063621582775824859e-01 -7.798870326172226974e-01
-5.696415109483053685e-02 -9.989792241196480266e-03 -7.068717910876027855e-01 4.808902377946852602e-01 4.058356940116410461e-01 -7.772013694402890582e-01
1.419720663251286714e-02 -1.812448561430073934e-01 -7.523452642836622184e-01 4.789985944634186366e-01 4.108216873215967957e-01 -7.757485982767260424e-01
-3.624554514546473889e-03 7.789578836380700068e-03 -6.764145164883977879e-01 4.393714880974390613e-02 -4.624231908874502084e-01 8.855700534028571047e-01
-1.017281572092074704e-01 -4.254731760591550643e-02 -7.611615262321321795e-01 -4.755806846095961271e-01 -4.059910822750572024e-01 7.803808387828314874e-01
-7.258772711968693170e-02 1.807315701613638470e-01 -6.265460330879349948e-01 -4.803642055568739799e-01 -4.105058781243183241e-01 7.750710638677562603e-01
-2.526986328461472073e-02 1.578557878131432168e-01 -6.138549265640709240e-01 -4.853193554597249326e-01 -4.039132449482903953e-01 7.754477505103096746e-01
5.807923063895450121e-03 -1.641494815173887845e-01 -7.485302699452556219e-01 4.808902377946852602e-01 4.058356940116410461e-01 -7.772013694402890582e-01
-5.724676439937857048e-02 1.498936629935890275e-01 -6.333296798830294616e-01 -4.810082378288454419e-01 -4.091704073311444589e-01 7.753777485234238931e-01
4.058722709745085644e-02 1.344631277090934662e-01 -5.765518883003925010e-01 -2.859463615646127832e-01 8.297169821218481900e-01 4.793791900850227772e-01
8.206877942041997109e-02 2.452921731459199034e-02 -6.028835233598381915e-01 4.769768256570078302e-01 4.065212963363363796e-01 -7.792519126772734506e-01
-1.486914476492716408e-02 -8.036110136606683385e-02 -7.175718641963679811e-01 4.808902377946852602e-01 4.058356940116410461e-01 -7.772013694402890582e-01
7.817560386717291310e-02 -1.279305814316608336e-01 -6.945873263950401721e-01 -4.857983433287882957e-01 -4.037001148545369400e-01 7.752587870417454452e-01
-5.162561964226063116e-02 3.614109947616298002e-02 -6.794801639594589826e-01 4.808902377946852602e-01 4.058356940116410461e-01 -7.772013694402890582e-01
3.453199358394546531e-02 -1.377432171244306058e-01 -7.162170512963310642e-01 -1.722913999006401298e-01 9.563962085423503012e-01 2.358430957354798463e-01
-1.064384802095011129e-01 1.041000759904365941e-01 -6.874642397191259580e-01 -4.761133012006084075e-01 -4.080475234467599854e-01 7.789822482116164348e-01
1.900266331184352619e-02 -4.455057119077638489e-02 -6.910826838739253519e-01 -5.242516655976950934e-01 2.947188958448801466e-01 7.989373965149066947e-01
6.970179730537742757e-02 -8.049780183570845460e-02 -6.751318817031631836e-01 -4.808902377946852602e-01 -4.058356940116410461e-01 7.772013694402890582e-01
8.974021167345919148e-02 6.668801624173194276e-02 -5.762093765032015868e-01 4.766883380811671733e-01 4.062160201334378273e-01 -7.795875661683975277e-01
-9.674931679921754124e-02 5.578220717173942161e-02 -6.972742923500223622e-01 4.848093447942679046e-01 4.045999911107517888e-01 -7.754087608438096080e-01
-5.486557447517644882e-03 -3.066426559731017520e-01 -8.251569400495838424e-01 5.484768534274775398e-01 3.870361905732745966e-01 -7.411991152455735810e-01
6.092931089100175890e-02 8.472013546009982132e-02 -5.942870252240680662e-01 -4.808902377946852602e-01 -4.058356940116410461e-01 7.772013694402890582e-01
-2.118346351664730093e-02 -1.648472799400478583e-01 -7.753396920236703682e-01 -4.792322696131177118e-01 -4.015915884508724498e-01 7.804233644932506708e-01
-4.629390707366219139e-03 -1.213891213629352261e-01 -7.326598937170801795e-01 4.808902377946852602e-01 4.058356940116410461e-01 -7.772013694402890582e-01
-4.407828538896198939e-02 2.355789320081334570e-01 -5.774874821232054423e-01 5.014427546319363271e-01 -8.544497578934576731e-01 -1.359072296198666485e-01
-3.962598930071476767e-03 -3.240585377154250185e-02 -6.955989839615264181e-01 -4.808902377946852602e-01 -4.058356940116410461e-01 7.772013694402890582e-01
2.511911670829426041e-02 -2.226080813449628493e-01 -7.703825573316738229e-01 -4.595023341174064302e-01 8.715968344295904613e-01 1.708114842537588607e-01
-3.279163119201419785e-02 1.226389190178023142e-01 -6.324762146033932053e-01 -4.808902377946852602e-01 -4.058356940116410461e-01 7.772013694402890582e-01
-9.411529826035051893e-02 1.995876236035165063e-01 -6.235079112187479344e-01 6.850357160428596215e-01 -7.271702900070461384e-01 4.415243002049776266e-02
-9.612623931784414211e-03 -2.648809183082818652e-01 -8.093579226450994257e-01 9.687443752589958157e-01 -1.148201118020785033e-01 2.198878744492661907e-01
1.057026749499258012e-01 -1.059104839261715454e-02 -6.161654409761661011e-01 -4.855871513123883321e-01 -4.047250192007466052e-01 7.748566172610742431e-01
-3.545591242338744405e-03 2.325502463854267066e-01 -5.478364739236545322e-01 1.601249975103362089e-01 -8.474527465862875530e-01 -5.061460535020222418e-01
-2.010860758584130659e-02 -1.227858016220586546e-01 -7.429669097657112253e-01 4.808902377946852602e-01 4.058356940116410461e-01 -7.772013694402890582e-01
9.262926373076400821e-02 -1.654211836671455604e-02 -6.178536528263010030e-01 4.769789680124329467e-01 4.067492178745254483e-01 -7.791316562893951803e-01
-1.337445835172537956e-01 1.028364748058408912e-01 -7.040894620861476438e-01 -4.365382615295235746e-01 -4.239275346014743096e-01 7.935488590045965962e-01
1.291013887490672640e-01 -9.030857713733841940e-02 -6.343087021454678620e-01 4.329389631810506289e-01 4.249172649016538239e-01 -7.949900453139111534e-01
-6.560860737607256132e-02 -1.048920560447970107e-01 -7.610770852327997105e-01 2.978211021635334688e-01 8.519812620496655109e-01 4.306164421179912161e-01
-1.429734720773161161e-02 7.169952824293759908e-02 -6.378156961686302084e-01 4.808902377946852602e-01 4.058356940116410461e-01 -7.772013694402890582e-01
5.868729812392083078e-02 -7.776890983911988187e-02 -6.707055299466863074e-01 4.808902377946852602e-01 4.058356940116410461e-01 -7.772013694402890582e-01
