-6.728492221405749096e-02 -3.356589230115834127e-02 -7.408142164496636095e-01 6.011853731532891265e-01 3.732805887390370780e-01 -7.065675828802071567e-01
-3.428291063157176688e-02 -1.312308533838260349e-01 -7.643308734923695003e-01 6.011853731532891265e-01 3.732805887390370780e-01 -7.065675828802071567e-01
-7.169662104030100763e-03 1.807412419085185629e-01 -5.871493718295932585e-01 -6.009974691293813454e-01 -3.763518017811380290e-01 7.050967049959667721e-01
-4.205040000452443805e-02 -9.958989521604734441e-02 -7.566351272636927527e-01 -9.923344577429600577e-02 -7.117636861661434944e-01 -6.953741282899035259e-01
2.858459479243320722e-02 -1.523022502578038340e-01 -7.327698001892720692e-01 -6.011853731532891265e-01 -3.732805887390370780e-01 7.065675828802071567e-01
2.696673541915390465e-02 1.770660101372154294e-01 -5.599797603432853377e-01 -6.019243221200500926e-01 -3.762355078730864610e-01 7.043677683254671029e-01
-8.096745774969682508e-02 -8.242056277144900467e-02 -7.734708110579373574e-01 5.704883836357584892e-01 2.807564157945728889e-01 -7.718282445770202616e-01
3.217739931621207278e-02 -2.123954747202147775e-01 -7.514553660120066869e-01 5.821544926924577812e-01 4.113368250941040749e-01 -7.013545201675752683e-01
-5.209385032193195042e-02 -6.132455368867521101e-02 -7.425537800399767407e-01 6.011853731532891265e-01 3.732805887390370780e-01 -7.065675828802071567e-01
2.128047057137761114e-02 -5.085748796393207288e-02 -6.799111772302118828e-01 -1.278560917927638596e-01 9.765484318360595495e-01 1.732223428718516478e-01
-7.700177048464048636e-03 -3.332314880026207571e-01 -8.533731097071821647e-01 9.210486119467994337e-01 -1.819190262026748328e-01 3.443470957280524991e-01
-1.065686044734611565e-01 1.247170510599941440e-01 -7.031720659879430180e-01 -1.776575924446051058e-01 8.385230792070749728e-02 9.805134217863401558e-01
4.136547095983655886e-02 1.761497403861336103e-02 -6.213297493887166567e-01 6.011853731532891265e-01 3.732805887390370780e-01 -7.065675828802071567e-01
-8.058212021732984176e-02 1.797739129084161280e-01 -6.397837290131515031e-01 6.131152903278461741e-01 3.628737448693709067e-01 -7.017209459968254404e-01
1.042269119482312212e-01 5.173409438356540990e-02 -5.487735289021891116e-01 4.700818192323345523e-01 -1.965185824968383455e-01 -8.604670417631646862e-01
-7.032820719576268753e-02 -8.056882367639393860e-02 -7.789324001422119892e-01 -5.969526222898383638e-01 -3.735855614148830828e-01 7.099868977971441897e-01
-7.750934319502757186e-02 1.034186473291741348e-01 -6.772260132830938417e-01 6.048233485580344349e-01 3.715300156303627532e-01 -7.043821154208481650e-01
5.460868467106619328e-02 -1.708859375854618334e-01 -7.202812943654421929e-01 -6.062015858588140071e-01 -3.701602645789197066e-01 7.039183303687462923e-01
3.615394940650596550e-02 1.913157834146400338e-01 -5.344942613111486329e-01 5.877256540035115107e-01 3.593630813881359964e-01 -7.248701479309027640e-01
1.043199862616694812e-01 -1.035425678808225697e-01 -6.321830690895620108e-01 5.789232030164422893e-01 3.844581107201271442e-01 -7.190548561206536737e-01
-4.802196437015155729e-03 -6.715374335534242400e-02 -7.053950879723756007e-01 6.011853731532891265e-01 3.732805887390370780e-01 -7.065675828802071567e-01
-1.480170544753120661e-02 -1.412187884439433383e-01 -7.530318647040354918e-01 6.011853731532891265e-01 3.732805887390370780e-01 -7.065675828802071567e-01
5.285437158683317649e-02 -4.437437565738284323e-02 -6.443034356047478983e-01 6.011853731532891265e-01 3.732805887390370780e-01 -7.065675828802071567e-01
-9.937487745521432492e-02 -7.395574175315752785e-02 -7.848988287987951340e-01 6.306003755347172612e-01 4.622351981340975802e-01 -6.234434922119286293e-01
7.229405137089242248e-03 2.223101549947443523e-01 -5.473047787691333044e-01 -6.201231024224809207e-01 3.592662809181664252e-01 -6.974059630065881921e-01
-4.644205651645309102e-02 -1.323245803872196702e-01 -7.859380667465006853e-01 -5.961439603490766848e-01 -3.736947531422925017e-01 7.106086194335387018e-01
8.546755418916297808e-02 -3.957290018478280824e-02 -6.245257089960228880e-01 1.207016095351851476e-01 -9.774012928075618278e-01 -1.735449056403629009e-01
8.421812166757072782e-02 -4.605071810217852002e-02 -6.186394971033569723e-01 5.976334888105317988e-01 3.745974540756491500e-01 -7.088800748026380383e-01
-1.214917404021585365e-02 -2.974118118956327675e-02 -6.977653480885405157e-01 -3.219159636093944510e-01 -8.202122632318651352e-01 -4.728868317235072616e-01
4.478411929802753044e-02 6.563914824772895673e-02 -5.930497463380421941e-01 6.011853731532891265e-01 3.732805887390370780e-01 -7.065675828802071567e-01
-2.335173267777793105e-02 -1.484852597882407033e-01 -7.641455701762446262e-01 6.011853731532891265e-01 3.732805887390370780e-01 -7.065675828802071567e-01
1.296442321315033064e-01 -6.032536847466156427e-02 -5.914867917783339646e-01 -7.958893853191325585e-01 3.589926512091843325e-01 -4.875288327003177713e-01
2.209654104865267643e-02 -1.623115340258488304e-01 -7.435781001082338859e-01 -6.011853731532891265e-01 -3.732805887390370780e-01 7.065675828802071567e-01
6.461368403548199690e-02 -1.220353643368611296e-01 -6.753549296776211186e-01 5.971203104949917018e-01 3.752861236797114253e-01 -7.089482774983103530e-01
1.487246952197828452e-02 -4.713094217390396967e-02 -6.733366223755311575e-01 6.274510567674413952e-01 2.623603395538797178e-01 -7.331249713320329153e-01
-4.240533838350755980e-02 9.749178658601220793e-02 -6.612053003519956507e-01 -6.011853731532891265e-01 -3.732805887390370780e-01 7.065675828802071567e-01
1.093898644482398375e-01 7.427355332406719579e-02 -5.438081523465633227e-01 -6.083301297844114774e-01 -3.734130906753214685e-01 7.003549934917188136e-01
-6.556782696482435502e-02 1.208182972078945816e-01 -6.577964406656320318e-01 6.053554104941484271e-01 3.711316999084440238e-01 -7.041349929584024281e-01
-5.376392688804176694e-03 1.110390082312394805e-01 -6.071154655385303522e-01 6.622783019201972099e-01 3.499938478490259297e-01 -6.624890620029382227e-01
-3.708547058948648278e-02 -1.041268482070399279e-02 -7.145136670592638906e-01 -3.254834181661331871e-01 -8.203109311838622242e-01 -4.702664358415930002e-01
4.287564448486158586e-02 -7.025695698864052596e-02 -6.664676706379685234e-01 6.011853731532891265e-01 3.732805887390370780e-01 -7.065675828802071567e-01
-1.029949709765135002e-01 1.268791830936984444e-01 -7.009622687856538192e-01 -3.767679792736968181e-01 -6.003410472787099605e-01 7.054335665009972001e-01
8.819255612315378412e-02 -7.688362646302930592e-02 -6.420642376600801393e-01 -6.048321783182732947e-01 -3.717995112430527715e-01 7.042323192741152260e-01
-1.053744982660680812e-01 1.351800991413638353e-01 -6.944228459251668983e-01 -5.938710790040858667e-01 -3.775101449236795692e-01 7.104950612088907214e-01
-7.420198803919839103e-02 1.600966093021035375e-01 -6.445274873956907680e-01 6.053396594915424478e-01 3.705969307501756904e-01 -7.044301324937860542e-01
1.238699031961722347e-01 -2.138193605164415492e-02 -5.729397571843618531e-01 5.608391616632562027e-01 3.854945218719301736e-01 -7.327028103887605059e-01
4.654878724982796333e-03 9.946095430315826658e-02 -6.093257389965187620e-01 6.011853731532891265e-01 3.732805887390370780e-01 -7.065675828802071567e-01
-4.325085673195817881e-03 -3.696145733673021905e-01 -8.601893760078368478e-01 6.429424385540768450e-01 3.653067108840257760e-01 -6.731835022408315661e-01
1.043111733622234805e-01 -1.060069126622866786e-01 -6.435451569441847930e-01 -6.059827984523669109e-01 -3.704094583663554152e-01 7.039756253824285270e-01
-8.975162740914433002e-02 1.467470420150534041e-02 -7.450611390196240080e-01 -5.968446262404282221e-01 -3.747065405844359209e-01 7.094867867488217072e-01
-4.198308017998961250e-02 7.185246116407248418e-02 -6.635934045809588344e-01 6.011853731532891265e-01 3.732805887390370780e-01 -7.065675828802071567e-01
-9.162865583748948384e-02 -5.271507066585742751e-02 -7.718622860102489769e-01 6.061983154691533704e-01 3.725202535434054552e-01 -7.026750764203306687e-01
-5.037976521653639295e-02 -1.084944233690430561e-02 -7.144292769390039322e-01 6.011853731532891265e-01 3.732805887390370780e-01 -7.065675828802071567e-01
1.165951577018876362e-01 -7.759289215088482905e-02 -6.084269309768719491e-01 5.802455530065552258e-01 3.823985177388580237e-01 -7.190872491201895089e-01
2.572433415636699722e-02 1.708946876798805026e-01 -5.643378560923083542e-01 -6.019243221200500926e-01 -3.762355078730864610e-01 7.043677683254671029e-01
1.038476419136670076e-01 1.783852639971519405e-03 -5.768540898660139415e-01 5.968719490858672705e-01 3.744334225379474801e-01 -7.096079822556654593e-01
2.019511016517759952e-02 -1.843081353599038963e-01 -7.461310401528038483e-01 5.992621284392284364e-01 3.786241489684030737e-01 -7.053571118493369152e-01
-1.566583264245560714e-02 -4.347045992075616178e-02 -7.021265389280613167e-01 6.011853731532891265e-01 3.732805887390370780e-01 -7.065675828802071567e-01
-4.071530919842532292e-02 8.515727457628757824e-02 -6.705732590524274839e-01 -3.160561069589838401e-01 2.563395166113741630e-01 9.134542076521288134e-01
8.352983975886364362e-03 -2.561215245701424226e-01 -8.094032625608768017e-01 -9.285939464092040074e-01 -1.733428359655315998e-01 3.281242811978523077e-01
1.833032817603982845e-02 1.004794005225942977e-01 -5.971518909541283504e-01 6.011853731532891265e-01 3.732805887390370780e-01 -7.065675828802071567e-01
-9.444359158250066610e-02 6.852622554404214084e-02 -7.101778568231222888e-01 6.054220375692067613e-01 3.715046697119410712e-01 -7.038809819904013887e-01
-5.419714340375966777e-02 -1.086599798412916408e-02 -7.176860522106855989e-01 6.011853731532891265e-01 3.732805887390370780e-01 -7.065675828802071567e-01
-2.113170358024801364e-03 -1.328409783957261725e-01 -7.330649039511137888e-01 6.059327332133810362e-01 3.386006039434847348e-01 -7.198577316592973396e-01
-3.895585296685979276e-02 -1.497340988376158477e-01 -7.887701639357520556e-01 -5.989804001148549828e-01 -3.690333597256790776e-01 7.106594540902314572e-01
-6.495548382918560001e-03 1.806071396151746611e-01 -5.760580128259400468e-01 6.012384997251075669e-01 3.703170729459078214e-01 -7.080801733794533925e-01
-2.986703057833997588e-02 -1.212193750580500134e-01 -7.552845300482777802e-01 6.011853731532891265e-01 3.732805887390370780e-01 -7.065675828802071567e-01
2.895651572176763389e-02 8.255773778673246299e-02 -5.975786021416423788e-01 6.011853731532891265e-01 3.732805887390370780e-01 -7.065675828802071567e-01
-2.535099424311491878e-02 -1.096100762146936941e-01 -7.487223481527388591e-01 -1.116369216346562304e-01 -7.249193667370084082e-01 -6.797272316580764695e-01
-3.269587740303505491e-02 1.697525559203768020e-01 -6.197547372503494634e-01 -6.246646805581917983e-01 -5.400812066810792844e-01 5.640091551145616222e-01
3.640058041924300325e-02 1.261959604467156881e-01 -5.789885697410197540e-01 -6.011853731532891265e-01 -3.732805887390370780e-01 7.065675828802071567e-01
4.562125866524721109e-03 2.276485701283080532e-01 -5.424710278680421327e-01 5.956909202667514114e-01 3.572886824768969904e-01 -7.193727301515354666e-01
-6.912066535754089747e-02 -6.043265102911135611e-02 -7.673100451955505719e-01 -5.971017129097838660e-01 -3.741206452074326005e-01 7.095796553381278349e-01
1.005060771402925546e-01 3.771060323698438403e-03 -5.888722396831870265e-01 -6.054028190648252927e-01 -3.720677853785189781e-01 7.036000211426139961e-01
-1.277112841021490752e-01 1.086624594671705968e-01 -7.189879173220472541e-01 7.295527418002565323e-01 2.924620198055037368e-01 -6.182384361255884864e-01
4.008296215183686229e-02 5.947274839592630452e-02 -6.111053642143423614e-01 -6.011853731532891265e-01 -3.732805887390370780e-01 7.065675828802071567e-01
1.158919208937843510e-02 8.981373349759741442e-02 -6.193202004826700025e-01 -6.011853731532891265e-01 -3.732805887390370780e-01 7.065675828802071567e-01
8.487566864127131516e-02 -7.125414228410599515e-02 -6.419408704373713581e-01 -6.048321783182732947e-01 -3.717995112430527715e-01 7.042323192741152260e-01
-8.053594214527488512e-03 -8.616591862923649037e-02 -7.290036134266498768e-01 -6.011853731532891265e-01 -3.732805887390370780e-01 7.065675828802071567e-01
1.821853520564381546e-03 -1.744867283393758406e-01 -7.672032257723482296e-01 -6.006664988660612714e-01 -3.690228710211591046e-01 7.092403526332163866e-01
-2.384941320715468303e-03 7.317221412205554554e-02 -6.400018749788137784e-01 -6.011853731532891265e-01 -3.732805887390370780e-01 7.065675828802071567e-01
9.190255927483941684e-03 1.355576970532439418e-01 -6.014506684207803211e-01 -8.505785727923871331e-01 -2.308544240136180814e-01 4.724641006677717248e-01
-6.278925322933567865e-02 1.055211254251562508e-01 -6.743054052395157649e-01 -5.975180290612682743e-01 -3.750312340700764913e-01 7.087480359186987267e-01
-2.419487421940396191e-02 -1.911824330236709321e-02 -7.116948588643675633e-01 -5.934313186372212057e-01 -7.979377277115566880e-01 1.055208640743929560e-01
2.244960692040075603e-02 -1.917432302975307923e-01 -7.482072332403770787e-01 5.985203130942133853e-01 3.806669702716846682e-01 -7.048872906768721691e-01
4.964511967232411449e-02 5.727772666606757018e-02 -6.041290036326769641e-01 -6.011853731532891265e-01 -3.732805887390370780e-01 7.065675828802071567e-01
3.109080374708747541e-02 -6.907992297648817004e-02 -6.758730128705959794e-01 6.011853731532891265e-01 3.732805887390370780e-01 -7.065675828802071567e-01
8.911281860343214789e-02 -6.924151396114927581e-02 -6.372396550329965104e-01 -6.047968304819244523e-01 -3.717576741621640424e-01 7.042847616841901859e-01
4.264889329047729521e-02 -4.277713007933384159e-02 -6.499537410211781996e-01 6.003444348186065538e-01 -3.358650857726718786e-01 -7.257969438770348614e-01
-4.511614191455556866e-02 3.789811856259902439e-02 -6.841973046710093653e-01 6.011853731532891265e-01 3.732805887390370780e-01 -7.065675828802071567e-01
-8.245802633987620034e-02 1.370028580943056518e-01 -6.637783433832064039e-01 6.049551411194185047e-01 3.710278785041836724e-01 -7.045335979255135106e-01
3.635584586309573152e-02 -1.049953838153677571e-01 -6.903674197832987414e-01 6.011853731532891265e-01 3.732805887390370780e-01 -7.065675828802071567e-01
-1.231873712877917804e-01 1.586887995015036010e-02 -7.631732184152204557e-01 6.411516274989907949e-01 3.623164204591239335e-01 -6.764993732599334786e-01
3.001552763786992373e-02 -1.257666915761709026e-01 -7.213473893806732207e-01 -4.171866800634174699e-01 -8.034120967724047713e-01 4.248344109620031395e-01
3.533237688276727548e-03 -3.379271437369895659e-01 -8.399616536836636005e-01 9.919915500079604098e-02 4.648166172067954571e-01 -8.798323931383520424e-01
-9.661102904883697717e-02 2.260815383134123779e-02 -7.362919698673953128e-01 6.055281458606004419e-01 3.718370772236557764e-01 -7.036141361374089742e-01
8.749807935584183460e-02 -8.225207606814845251e-02 -6.350129099446208958e-01 5.974755267538818249e-01 3.750634794639822744e-01 -7.087668031888501030e-01
1.706459924610901138e-02 2.204780485746103136e-01 -5.357315307316179442e-01 5.844140430177310330e-01 3.402015719438348795e-01 -7.366974390960057129e-01
2.408429411288653434e-03 -6.081142566990870024e-02 -7.119070524807268319e-01 -5.364551449475826184e-01 -3.942165799910308244e-01 7.461964657645085985e-01
5.796872588349107069e-02 4.774310110146089831e-02 -5.867725876615036418e-01 5.780206841422945718e-01 4.764445511783444442e-01 -6.624897571707349941e-01
3.906897799627829376e-02 1.929859147509728756e-01 -5.410774078407259990e-01 -6.048174103994929940e-01 -3.806145130297668988e-01 6.995201873775801493e-01
7.132972637491638047e-03 -2.162612913551116289e-01 -7.746718132244169164e-01 5.923950398542755513e-01 4.035673177408293788e-01 -6.972815333905837409e-01
-6.588411099135328686e-02 -9.196409427460337793e-02 -7.704959367665904502e-01 6.056560444608212190e-01 3.725787850381387933e-01 -7.031115165801057332e-01
4.474989027367383410e-02 -9.653384907842459117e-02 -6.895529847548264035e-01 -6.011853731532891265e-01 -3.732805887390370780e-01 7.065675828802071567e-01
7.463110755591794224e-03 -4.678840648896713528e-02 -6.795116936557250575e-01 6.240828280321950583e-01 2.636191053419771335e-01 -7.355444181380434987e-01
-6.451512053469080077e-02 8.864996272476415029e-02 -6.738907236101842058e-01 6.011853731532891265e-01 3.732805887390370780e-01 -7.065675828802071567e-01
1.311663081203474079e-01 -5.718352006625632838e-02 -5.918254700394948165e-01 -7.987864793102750216e-01 3.058542834275275180e-01 -5.180669047334806043e-01
4.214589710692931944e-03 1.887667709075058764e-01 -5.627006471755392480e-01 6.005821766915583337e-01 3.696680351882564719e-01 -7.089757349870896563e-01
3.400383327469026773e-02 -1.204966214281053966e-01 -7.113558673532213161e-01 -6.011853731532891265e-01 -3.732805887390370780e-01 7.065675828802071567e-01
8.161386781703144910e-02 6.752387203553160411e-02 -5.608941231477578837e-01 5.965082624353762464e-01 3.740861188973231277e-01 -7.100968022000000435e-01
2.860022857697726989e-02 2.113758788638642749e-01 -5.308616772121080851e-01 5.796434290584896454e-01 3.377962352983186478e-01 -7.415572793571637567e-01
-8.556099931162367001e-03 -1.832585515758373418e-01 -7.669118735115034724e-01 9.285935498309166869e-01 1.733477212716217075e-01 -3.281228226477898580e-01
-8.898179705959591984e-03 1.368471425408726849e-01 -5.965850406962478480e-01 6.364818714072357775e-01 4.016043881128626425e-01 -6.584867066376026701e-01
5.182340084765844207e-02 1.449201031468946577e-01 -5.453662846600352276e-01 5.955950679653222446e-01 3.740604304836340765e-01 -7.108764374782593487e-01
1.322200520045682497e-02 -9.228522088765649112e-02 -7.033361290089039652e-01 6.011853731532891265e-01 3.732805887390370780e-01 -7.065675828802071567e-01
2.210988843090613831e-02 2.419329105792544093e-02 -6.342380921135264416e-01 6.011853731532891265e-01 3.732805887390370780e-01 -7.065675828802071567e-01
1.469081073078662772e-02 1.766445527460306919e-01 -5.706904457786463603e-01 -6.018225440857659647e-01 -3.760804839981984338e-01 7.045375043145802874e-01
9.583332615900827522e-02 7.724061881846569499e-02 -5.438670598144452750e-01 5.772229404420557985e-01 3.738064156377754466e-01 -7.260044356995801751e-01
3.489240420211077442e-02 -2.238886116160949610e-02 -6.587693642967686891e-01 -6.011853731532891265e-01 -3.732805887390370780e-01 7.065675828802071567e-01
-6.112284262079962366e-02 6.287280497623777597e-04 -7.331769124228004753e-01 -5.817613569106228066e-01 -3.122871868129034612e-01 7.510195979852949399e-01
8.711820744819663564e-02 1.167027912483692975e-01 -5.306952957872331789e-01 5.819844166237936323e-01 3.680905960349529771e-01 -7.251230598441175124e-01
-9.837494906145838325e-02 1.011117064805840543e-01 -7.066220924609899479e-01 -5.967928688439002594e-01 -3.755017738376208447e-01 7.091097866634387126e-01
5.252911411230502814e-02 -3.868042137729583302e-02 -6.523699639431097541e-01 -6.011853731532891265e-01 -3.732805887390370780e-01 7.065675828802071567e-01
-1.233829316967889958e-02 -1.687561353133846254e-01 -7.761948428110295728e-01 -5.994588163076710607e-01 -3.693759588050189446e-01 7.100778327816456015e-01
2.416948029435702066e-03 -4.437748769659239213e-05 -6.615836004845032647e-01 9.919915500079597159e-02 4.648166172067954016e-01 -8.798323931383519314e-01
9.211331806191588867e-02 -1.046854502823277577e-01 -6.430098891428233099e-01 5.963430548588416480e-01 3.761505555057726990e-01 -7.091443580219216614e-01
6.555360512311204924e-02 1.347390635928687186e-01 -5.391135889821093707e-01 6.007037718377107316e-01 3.689098286965254991e-01 -7.092675918093592768e-01
2.183985878977908607e-02 1.352570800499005577e-01 -5.709284578520721354e-01 6.052199801944699864e-01 3.726440835148033259e-01 -7.034523172147616465e-01
-4.682182700807709617e-03 -1.564505342867476279e-01 -7.632664921796201707e-01 -6.011853731532891265e-01 -3.732805887390370780e-01 7.065675828802071567e-01
5.154974704920047696e-02 1.126355381536808808e-01 -5.625158461749465433e-01 6.012917422198912343e-01 3.698789784930628377e-01 -7.082639211530515899e-01
-3.707294435371746855e-02 1.568768379222720555e-01 -6.192788173062917512e-01 2.888539367271752978e-01 8.463274743018024404e-01 4.475412936022162835e-01
-7.419528311804667042e-02 7.543900878844143898e-02 -6.998353241402448521e-01 -5.976170095769952617e-01 -3.748306173077362580e-01 7.087707091810094839e-01
1.416316980082201089e-02 -8.473198193656360233e-02 -7.093428553699968608e-01 -6.011853731532891265e-01 -3.732805887390370780e-01 7.065675828802071567e-01
-7.187302623469993268e-02 -8.680180249767437128e-02 -7.729192540903108144e-01 6.056560444608212190e-01 3.725787850381387933e-01 -7.031115165801057332e-01
4.766350609198034827e-02 1.039606693597374364e-02 -6.305827089791140594e-01 -6.011853731532891265e-01 -3.732805887390370780e-01 7.065675828802071567e-01
-3.076652447051381190e-02 -1.130211856196385867e-01 -7.633433991147279274e-01 1.371571944606120030e-01 7.266105003377539839e-01 6.732199379152495888e-01
9.641093515913513878e-02 3.892066693399477695e-02 -5.635256214158814725e-01 5.968290947580414674e-01 3.737977462652547489e-01 -7.099790676754581531e-01
-1.837518019855849047e-02 -4.037131400711909540e-02 -6.991077663058401503e-01 6.005412300597207098e-01 7.873482983626286513e-01 -1.394018940467844914e-01
-6.415870723746666671e-02 -4.440548329522198828e-02 -7.438808363218388786e-01 6.011853731532891265e-01 3.732805887390370780e-01 -7.065675828802071567e-01
-8.119811972582238746e-02 1.218202681387638153e-01 -6.811949279308200378e-01 -5.973537927207888121e-01 -3.752987324124767987e-01 7.087448820073957156e-01
8.877336424086870736e-02 4.001574036197861478e-03 -5.988393287978095447e-01 -6.047556619088277907e-01 -3.722548841325872826e-01 7.040574483865997824e-01
6.215425857293096872e-03 -3.011568947805609575e-01 -8.356876768434698954e-01 -6.622783019201972099e-01 -3.499938478490259297e-01 6.624890620029382227e-01
-5.616334734585673449e-02 1.153651125531269667e-01 -6.526709406757813525e-01 6.011853731532891265e-01 3.732805887390370780e-01 -7.065675828802071567e-01
1.868447630587375188e-02 -1.806082007127822742e-01 -7.454290768940057266e-01 5.996717425792480460e-01 3.784484802362613753e-01 -7.051032186558450210e-01
4.830522815172614594e-03 -1.197839221710459839e-01 -7.358015554302828054e-01 -6.011853731532891265e-01 -3.732805887390370780e-01 7.065675828802071567e-01
3.992148768289184579e-02 2.080749836800473984e-01 -5.252355425560180091e-01 -4.570215442856226939e-01 -5.647081091172121425e-01 -6.871943390017466458e-01
2.979995666126360708e-03 -3.868299052354163409e-02 -6.837324476061377165e-01 6.011853731532891265e-01 3.732805887390370780e-01 -7.065675828802071567e-01
-2.269732758428055774e-02 -2.063692673038781955e-01 -8.013640932403489625e-01 4.187964915263936994e-01 6.058658580980423869e-01 6.764141192171448935e-01
2.925515613640580770e-02 9.943714220128967163e-02 -5.884070912719712165e-01 6.011853731532891265e-01 3.732805887390370780e-01 -7.065675828802071567e-01
8.599856049967843918e-02 1.465349897283964031e-01 -5.226491672984586723e-01 -6.243505922555721011e-01 -3.324541404593995275e-01 -7.068667359845970388e-01
9.538569747942293384e-03 -2.646966589354667332e-01 -8.097978327889534533e-01 -9.233839014412744683e-01 1.793172480583322403e-01 -3.394222961266355476e-01
-9.694665288972530159e-02 4.612611600876851542e-02 -7.241567736696465918e-01 6.054638570368475747e-01 3.716794992741120351e-01 -7.037527034700535866e-01
3.758451045508807552e-03 2.333403366820497316e-01 -5.494254420490343183e-01 -1.665387433308206933e-01 -8.867515835152837145e-01 -4.312035205131421467e-01
1.893848536281257655e-02 -1.300547946444758074e-01 -7.292238641838985069e-01 -6.011853731532891265e-01 -3.732805887390370780e-01 7.065675828802071567e-01
-8.382758225197724233e-02 4.048035701406367537e-02 -7.264359763741755627e-01 -5.976189728183366467e-01 -3.746021101372374873e-01 7.088898520985366103e-01
1.214158365605158135e-01 2.276139906021902234e-02 -5.518102062610061864e-01 5.605537555810337080e-01 3.793213984795382743e-01 -7.361350173436433941e-01
-1.171324364834858966e-01 -1.259464511953248267e-02 -7.822598585765254686e-01 -5.572392448466035875e-01 -3.801780688016827003e-01 7.382066512874358999e-01
6.049629205990979253e-02 -1.377288630225361465e-01 -6.986874605940992522e-01 -2.965741836348023686e-01 8.580185785113576546e-01 4.193421902583854832e-01
1.364202596098319960e-02 6.727361884617520660e-02 -6.294815123573801463e-01 -6.011853731532891265e-01 -3.732805887390370780e-01 7.065675828802071567e-01
-5.287714299798111639e-02 -3.995989835161379428e-02 -7.427311770510354183e-01 -6.011853731532891265e-01 -3.732805887390370780e-01 7.065675828802071567e-01
-4.421820241714598254e-02 1.965720784917459885e-01 -6.102375637381092233e-01 -6.002563413712248552e-01 -3.771353817866910374e-01 7.053093140234563130e-01
-4.545788579209505964e-02 5.504992447991798737e-02 -6.754267568276565159e-01 6.011853731532891265e-01 3.732805887390370780e-01 -7.065675828802071567e-01
-1.085299272916996072e-01 3.618802662495422540e-02 -7.494946152788066751e-01 -5.943339801378555443e-01 -3.754879269154705046e-01 7.111792578486928473e-01
-9.717705427063716428e-02 1.182092713009006146e-01 -6.863375753640587051e-01 6.055230852357217364e-01 3.707424714507686625e-01 -7.041958627464298681e-01
1.908040186398270166e-02 3.010610458577521811e-02 -6.444898991209913053e-01 -6.011853731532891265e-01 -3.732805887390370780e-01 7.065675828802071567e-01
1.051186698279146792e-02 6.111113611480611940e-02 -6.250321795160456162e-01 2.727337044022478674e-01 -8.618807952381050130e-01 -4.275252288260409372e-01
5.857902356132029149e-03 -3.067140271541717311e-01 -8.389809269887564813e-01 -6.622783019201972099e-01 -3.499938478490259297e-01 6.624890620029382227e-01
-8.302138955338912718e-02 2.081469911132384498e-01 -6.319347435629079079e-01 6.243505922555722121e-01 -7.712774046037802478e-01 1.237639006244271173e-01
1.180429768898083737e-01 -2.437800517368123726e-02 -5.790662663009457090e-01 5.808089401475436953e-01 3.797280668838431961e-01 -7.200469222664218627e-01
1.293519822971408821e-02 -1.243306056329572112e-01 -7.205097788250476309e-01 6.011853731532891265e-01 3.732805887390370780e-01 -7.065675828802071567e-01
5.472573217327521104e-03 -2.904336722273667681e-01 -8.307652004966135095e-01 -6.622783019201972099e-01 -3.499938478490259297e-01 6.624890620029382227e-01
-7.929684153845273364e-02 1.473871811052930025e-01 -6.555952725529520242e-01 6.049551411194185047e-01 3.710278785041836724e-01 -7.045335979255135106e-01
3.967246947219370268e-02 1.078833787327643928e-01 -5.858792332249777024e-01 -6.011853731532891265e-01 -3.732805887390370780e-01 7.065675828802071567e-01
-6.109070899835015306e-02 -9.324498389510707183e-03 -7.179285209791650413e-01 6.232914915185813198e-01 4.591873496217750428e-01 -6.329729019064496143e-01
4.419389994500236979e-02 1.296214394739904074e-01 -5.605465431631667661e-01 -7.936099036480520619e-02 9.760140459787149947e-01 2.027274408179032816e-01
-1.231784544833468692e-01 1.103170926397291918e-01 -7.220260896473742473e-01 -4.919605206974795863e-01 -4.260863011996843253e-01 7.592267843042924680e-01
1.146153109336524728e-01 -4.313920880518280071e-02 -5.917420709657430500e-01 5.807201693641945717e-01 3.809218416037073451e-01 -7.194877590917452270e-01
-8.561068126922442845e-03 -2.298481946957696073e-02 -6.822531089012796590e-01 9.285935498309167979e-01 1.733477212716217353e-01 -3.281228226477898580e-01
2.517747502283725416e-02 -1.246532442786646988e-01 -7.239926884701650689e-01 -4.171866800634174699e-01 -8.034120967724047713e-01 4.248344109620031395e-01
-3.873456787831806858e-02 -8.623428503525480682e-02 -7.551447397684059037e-01 -6.011853731532891265e-01 -3.732805887390370780e-01 7.065675828802071567e-01
3.139496209122324272e-02 1.667660059903532388e-01 -5.511646954849974689e-01 6.008715768863480688e-01 3.699420982296269256e-01 -7.085874625249691805e-01
-2.828881418549979848e-02 2.117842654626930499e-01 -5.783258977696239533e-01 6.027258301265400187e-01 3.686275338380521349e-01 -7.076971915973306881e-01
1.375682428006975641e-02 6.266437564297598628e-02 -6.260933989829442492e-01 2.727337044022478674e-01 -8.618807952381050130e-01 -4.275252288260409372e-01
-4.817006847183740587e-02 -5.276440852628858438e-03 -7.255299648266982926e-01 -6.137395554537944387e-01 -4.325004098636585637e-01 6.605052259741371889e-01
-2.929800835777088275e-02 -1.553729236850258377e-01 -7.728753584803529364e-01 6.028610466848534077e-01 3.775910518502176849e-01 -7.028396374370822208e-01
6.552989690294312719e-02 -5.276849440027910759e-02 -6.374818141599281063e-01 -1.257176584406605735e-01 9.765360438916691477e-01 1.748497221519256239e-01
5.108024512641264059e-02 4.580592392850745681e-02 -6.089684909386157141e-01 -6.011853731532891265e-01 -3.732805887390370780e-01 7.065675828802071567e-01
8.493568406719655128e-02 -3.002446725211885530e-03 -5.952958328267966559e-01 5.976193112118467488e-01 3.742941793546946116e-01 -7.090522027099793734e-01
-9.797974604353860972e-02 -4.210341444394298527e-02 -7.717133271886164048e-01 6.060046513033698901e-01 3.727552409651738730e-01 -7.027175057814315506e-01
5.685015838537547939e-02 1.420692002711345346e-02 -6.207529366533287574e-01 -6.011853731532891265e-01 -3.732805887390370780e-01 7.065675828802071567e-01
-4.503560477763840497e-02 -1.470210092725771078e-01 -7.818939941857008247e-01 6.033566526761273696e-01 3.774938152317702800e-01 -7.024664896870322917e-01
-3.455331594711005122e-02 1.737022406492355620e-01 -6.035106159727977593e-01 6.014899569152348802e-01 3.697247847953771815e-01 -7.081761187996393758e-01
4.342638963959394305e-02 1.786255054149480936e-01 -5.450457733403983873e-01 -6.025300970707017090e-01 -3.779831441915577628e-01 7.029126722652216941e-01
5.748029121450896201e-03 7.440371401757011163e-05 -6.770143102226814369e-01 -6.621889935884108791e-01 -3.500307182665509109e-01 6.625588525106055338e-01
-3.672181137068643297e-02 -1.716600330969820787e-01 -7.880188859643745269e-01 6.105805409664626371e-01 3.775128479323284769e-01 -6.961863634395065725e-01
-7.877801583668649077e-02 1.667982836440634054e-01 -6.449652399578235107e-01 6.128665946399457498e-01 3.656776720713940110e-01 -7.004815324638349328e-01
-6.146844568938804321e-02 1.210531949704771321e-01 -6.649719932772345521e-01 -5.969793921665542680e-01 -3.754287944226242790e-01 7.089914143674985736e-01
-9.296999417136213306e-02 4.117044295597738213e-02 -7.337733651924644995e-01 -5.969091446014722635e-01 -3.748637262338176956e-01 7.093494624268323889e-01
-9.386870829440931152e-02 1.156148772323564999e-01 -6.848574780652446625e-01 6.058414546277782753e-01 3.708062134134822996e-01 -7.038884030501232347e-01
-9.001862477026863554e-03 1.362921078070724878e-01 -6.014876754588235341e-01 6.011853731532891265e-01 3.732805887390370780e-01 -7.065675828802071567e-01
-3.251343036706058620e-02 1.711697188180748980e-02 -6.844529530019416441e-01 6.011853731532891265e-01 3.732805887390370780e-01 -7.065675828802071567e-01
5.315327934807093611e-03 2.315646261421132057e-01 -5.546413164650488836e-01 -6.436587274314382601e-01 -3.790039777114211361e-01 6.648754977289071944e-01
6.049159125212343752e-02 1.741251911348213888e-01 -5.327708008635735348e-01 -6.124719913073676247e-01 -3.917027543511670262e-01 6.866199910414036989e-01
5.312720400614736205e-04 -3.699275745211040300e-01 -8.763822367567614124e-01 -5.357200949866960382e-01 -3.894276174905748622e-01 7.492330148645746091e-01
1.283006838596600641e-01 -2.204033724896335700e-02 -5.702736411735127575e-01 4.562161284682391682e-01 4.121187978275253627e-01 -7.886855777828364333e-01
-2.773148409879317680e-04 -3.719516249159042776e-01 -8.584612185643030191e-01 8.186371856115473578e-02 4.697874998620809039e-01 -8.789755608415260602e-01
6.599789597891796145e-02 -1.593232418636364445e-01 -7.045159228761821435e-01 -6.028589736308009872e-01 -3.680403987500925900e-01 7.078893436128912420e-01
-4.497050604358908410e-02 1.008193792660315863e-01 -6.616299101550984219e-01 -6.011853731532891265e-01 -3.732805887390370780e-01 7.065675828802071567e-01
5.143292405162391834e-02 3.680145429628991355e-02 -6.026275806078639219e-01 6.011853731532891265e-01 3.732805887390370780e-01 -7.065675828802071567e-01
3.337514264130884891e-03 3.509265733227000944e-02 -6.552503848769962724e-01 -6.011853731532891265e-01 -3.732805887390370780e-01 7.065675828802071567e-01
8.708479634587355800e-02 -6.944185494698072725e-02 -6.390869472125676465e-01 -6.047968304819244523e-01 -3.717576741621640424e-01 7.042847616841901859e-01
-6.522503830158028759e-02 -1.047551984709641365e-01 -7.873708437304089980e-01 -5.964601811245083818e-01 -3.733292132021968635e-01 7.105353973608544704e-01
1.132634067838690639e-01 -5.770470534396029971e-02 -6.005425711780562059e-01 5.805686829811594896e-01 3.808701399743005256e-01 -7.196373675800047387e-01
-7.223078695790860482e-02 -4.105041091721711027e-02 -7.489999226727838133e-01 6.049724286865661993e-01 3.723012370547797989e-01 -7.038466803335499122e-01
6.144943909650212033e-02 -1.962653165344134254e-01 -7.179023751576579793e-01 5.692924810755790599e-01 4.167002719564814606e-01 -7.087079471419844845e-01
-5.868847069848340259e-02 -7.542843300162159481e-02 -7.556159327751766908e-01 6.011853731532891265e-01 3.732805887390370780e-01 -7.065675828802071567e-01
-8.307273639282117261e-03 2.160756960457994313e-01 -5.615495551392257756e-01 9.210486119467994337e-01 -1.819190262026748606e-01 3.443470957280524991e-01
-1.135935037317666388e-02 -2.008187616662595598e-01 -7.819123522406258298e-01 6.029554754499936164e-01 3.784522712346662932e-01 -7.022952178551372659e-01
9.875406930965721641e-02 5.646428520536934254e-02 -5.618356619084763359e-01 8.237903310712556271e-02 -9.729206526349392092e-01 -2.159608728004661915e-01
9.467860141856147826e-02 1.280386558536401875e-01 -5.236524539380408294e-01 -6.760566623683285092e-01 -2.338370667127641911e-01 -6.987614868455229722e-01
-4.381710230161608988e-02 7.003428961609713121e-02 -6.661144308247006762e-01 6.011853731532891265e-01 3.732805887390370780e-01 -7.065675828802071567e-01
-5.576793258109384588e-02 1.218373714568700833e-01 -6.597131032849857801e-01 -6.011853731532891265e-01 -3.732805887390370780e-01 7.065675828802071567e-01
1.996890044644202000e-02 -9.636181419539451010e-02 -7.105470859468224765e-01 -6.011853731532891265e-01 -3.732805887390370780e-01 7.065675828802071567e-01
3.091263953688584698e-02 2.373780199523719062e-02 -6.377867831061694304e-01 -6.011853731532891265e-01 -3.732805887390370780e-01 7.065675828802071567e-01
-6.839994754928885312e-02 2.096251271754777656e-01 -6.235590144608634811e-01 -5.825649739017938478e-01 -3.961067617560843912e-01 7.097305717481182663e-01
-1.285770890322089910e-01 9.121392707288926427e-02 -7.346841160001833515e-01 7.958893853191325585e-01 -3.589926512091843325e-01 4.875288327003177713e-01
4.928456360601216751e-02 1.522159004233893664e-01 -5.436550750759111539e-01 5.965215336479878783e-01 3.739327802341735896e-01 -7.101664141316410550e-01
6.975688423550925957e-03 2.695955668629585952e-02 -6.501335192814481356e-01 -6.294621425739249654e-01 3.629672915404461575e-01 -6.870459637739213532e-01
1.068035577675094383e-01 -4.603928913309281168e-02 -5.996226467242704583e-01 5.968430951633678649e-01 3.749115763389496148e-01 -7.093797499808229823e-01
4.920816640335390346e-02 -1.045739526206333342e-01 -6.792093375341433648e-01 6.011853731532891265e-01 3.732805887390370780e-01 -7.065675828802071567e-01
9.206960762539765850e-03 1.005879798761620675e-01 -6.048571757843240748e-01 6.011853731532891265e-01 3.732805887390370780e-01 -7.065675828802071567e-01
1.445004864193468082e-02 1.391764343876653875e-01 -5.908076510079856014e-01 -6.011853731532891265e-01 -3.732805887390370780e-01 7.065675828802071567e-01
-6.198550722519521883e-02 -5.142398453952169018e-02 -7.457396453700405603e-01 6.011853731532891265e-01 3.732805887390370780e-01 -7.065675828802071567e-01
-2.880989976049727619e-02 1.089154299849647428e-01 -6.328045448383294858e-01 6.011853731532891265e-01 3.732805887390370780e-01 -7.065675828802071567e-01
3.717332914805605848e-02 1.707293886987478748e-01 -5.442395233141932298e-01 5.984224478477460085e-01 3.638126309597854435e-01 -7.138143620480261742e-01
6.728819277475386884e-02 -1.444843489286481153e-01 -6.850012666674391015e-01 5.966952091166387584e-01 3.757278354786842689e-01 -7.090722255622157189e-01
-2.919219231688109911e-03 1.927458080008644659e-01 -5.666739882847089405e-01 6.013956652858740703e-01 3.694608652838180518e-01 -7.083939036998366801e-01
2.592938657021438137e-02 -1.289010476087706081e-01 -7.279487766462238163e-01 -5.980599818416172386e-01 -4.063149134727145895e-01 6.908201279705629139e-01
-4.207788108438700880e-02 -8.199106277147004407e-02 -7.449498034566468530e-01 6.011853731532891265e-01 3.732805887390370780e-01 -7.065675828802071567e-01
-2.866737242463711366e-02 -4.648336772300546565e-02 -7.255785708995982075e-01 -6.011853731532891265e-01 -3.732805887390370780e-01 7.065675828802071567e-01
8.561344384951376577e-03 1.615983675688850707e-01 -5.881423284580926669e-01 -9.281604556762997893e-01 -1.808029578763430678e-01 3.253128631670272886e-01
-1.030330712860891423e-01 6.441960876481905851e-02 -7.197332898950395963e-01 6.054220375692067613e-01 3.715046697119410712e-01 -7.038809819904013887e-01
4.050593364477853009e-02 1.370196149088639959e-01 -5.540422359496499638e-01 6.326046477534142953e-01 1.535842154104157253e-01 -7.590937020009755898e-01
-5.117129031736086797e-02 1.657697236749413466e-02 -7.006133375281315967e-01 6.011853731532891265e-01 3.732805887390370780e-01 -7.065675828802071567e-01
-1.127847232575399788e-01 1.270578195939882915e-01 -6.995182136245277071e-01 9.540457943016220632e-01 -2.285271831480011895e-01 1.938348496473917826e-01
5.359788082907190887e-02 -1.352043498481034103e-04 -6.202992055732698962e-01 6.011853731532891265e-01 3.732805887390370780e-01 -7.065675828802071567e-01
-1.300855779000513190e-01 1.675845356318790558e-02 -7.697290273521686377e-01 7.434630234246347724e-01 3.283934679620156283e-01 -5.825980286614276249e-01
2.252426172784487146e-02 -4.148195314900777336e-02 -6.847965458491361845e-01 -5.711215977892597495e-01 -4.775218745856228408e-01 6.676773021684021536e-01
1.992214868042281595e-02 9.290461109496763945e-03 -6.547706280333683848e-01 -6.011853731532891265e-01 -3.732805887390370780e-01 7.065675828802071567e-01
-2.723526598625916617e-02 -1.879429161295862738e-01 -7.886307503107204964e-01 6.040688035905050768e-01 3.783350981934070489e-01 -7.014010507574969244e-01
7.583280950706766665e-02 -1.677438389070027014e-01 -6.902718290054435935e-01 5.868363491932772069e-01 3.861268482191129170e-01 -7.117086175886027100e-01
-4.647959565594139003e-02 -1.458610484498286675e-01 -7.930881148649827628e-01 -5.961439603490766848e-01 -3.736947531422925017e-01 7.106086194335387018e-01
-1.210272110339558234e-02 1.342114776133875587e-01 -6.052252509972751993e-01 6.011853731532891265e-01 3.732805887390370780e-01 -7.065675828802071567e-01
2.993993430527365496e-02 8.085750020987587938e-02 -6.084380004518746832e-01 -6.011853731532891265e-01 -3.732805887390370780e-01 7.065675828802071567e-01
-5.632914402655896102e-02 1.190393332247944719e-01 -6.616688192056207063e-01 -6.011853731532891265e-01 -3.732805887390370780e-01 7.065675828802071567e-01
-1.647841750449258007e-03 -3.029138375018221030e-01 -8.413853014835728228e-01 -9.919915500079626303e-02 -4.648166172067954016e-01 8.798323931383519314e-01
2.337245000355568994e-02 -2.108463904909318731e-01 -7.579024316689929597e-01 5.857738157504672749e-01 4.095390672821110911e-01 -6.993902981532102991e-01
5.795707545555420920e-02 -4.916516826566089821e-02 -6.376463625497604815e-01 5.745169518905466344e-01 4.764148179067742017e-01 -6.655517960829573365e-01
1.200051786285420974e-01 2.658404640342692388e-02 -5.599521198400170263e-01 -6.080398102078240496e-01 -3.720586574197021212e-01 7.013272735616961073e-01
1.036199205771316800e-01 8.678951667073477039e-02 -5.328089869079174479e-01 5.531440422030282633e-01 3.715889115783270746e-01 -7.456227929505162555e-01
-3.809993993390345390e-02 -1.204013272490470493e-01 -7.726479451559084000e-01 -5.963784438904909946e-01 -3.742712433806057448e-01 7.101082931786474317e-01
1.042217151292388483e-01 -1.460633600366445239e-01 -6.554227191439147004e-01 5.470521157465334516e-01 4.113131088747591368e-01 -7.290785342643287814e-01
-1.257665898328880205e-01 3.462973558237159889e-03 -7.799655915515074645e-01 2.667166166127824534e-01 -3.236037831006442489e-01 9.078231314444356048e-01
-4.691592701516804353e-03 -3.716244871739405320e-01 -8.766984990217967511e-01 6.147496878306151213e-01 -3.646820302865008134e-01 6.993495821820994163e-01
-3.903125240696936338e-02 -1.537122382518660568e-01 -7.908994945618258443e-01 -5.989804001148549828e-01 -3.690333597256790776e-01 7.106594540902314572e-01
8.657192445536522618e-02 -1.136237442821881605e-01 -6.628267556992032405e-01 -6.050901259754077888e-01 -3.711122820964775082e-01 7.043732061373498832e-01
9.759074380078665290e-02 -5.230323734818955600e-02 -6.056703686542711518e-01 5.860372255842045686e-01 4.421175174244055261e-01 -6.790379010158773543e-01
5.500285214326579297e-02 -1.310458798164704508e-01 -7.043663018679653387e-01 -6.087376310461947160e-01 -3.371139872909820756e-01 7.181870620674271066e-01
-7.000060258010325220e-02 7.295357288625152481e-02 -6.976128917720393341e-01 -5.976170095769952617e-01 -3.748306173077362580e-01 7.087707091810094839e-01
-1.482401370158285651e-02 -2.099168670990193483e-02 -7.003326143791763769e-01 -6.011853731532891265e-01 -3.732805887390370780e-01 7.065675828802071567e-01
-5.591085920970747386e-02 1.827860890618678569e-01 -6.266217081450971005e-01 -2.342630527407830177e-01 -8.217064968491298860e-01 -5.195375396990097316e-01
-1.574451256366384694e-02 1.497379024949402337e-01 -6.138065459553622150e-01 -3.136559696669834474e-01 2.554839948452097831e-01 9.145205635031926628e-01
7.680177105015069394e-02 -4.802327916017831017e-02 -6.397350004421371583e-01 -5.955434216239746670e-01 3.683049068798422421e-01 7.139184326858635243e-01
1.902791426387292345e-02 -1.833194357082686132e-01 -7.571633030748473603e-01 -6.028992888123226868e-01 -3.681666226615580850e-01 7.077893652122625445e-01
8.305954146455001019e-02 -1.065796754669533636e-01 -6.621327597001775978e-01 -6.050901259754077888e-01 -3.711122820964775082e-01 7.043732061373498832e-01
-9.236784998794814183e-02 1.573355167133275168e-01 -6.717507083386945466e-01 -5.966091172234724294e-01 -3.763472407144322629e-01 7.088161367043374073e-01
5.711280596019670253e-02 -2.166970223846194019e-02 -6.394831290958385983e-01 -6.011853731532891265e-01 -3.732805887390370780e-01 7.065675828802071567e-01
9.502706577645260444e-02 -1.300219065096439863e-01 -6.615449560783686067e-01 9.603792061881544218e-02 -9.746677270384740410e-01 -2.019889592845826587e-01
3.213871749309306358e-02 -1.419079867903661196e-01 -7.242544599522680038e-01 -6.011853731532891265e-01 -3.732805887390370780e-01 7.065675828802071567e-01
8.947823574754937281e-02 3.481752034609406771e-02 -5.715163675425041223e-01 5.967727700497684751e-01 3.741325705537394963e-01 -7.098500409086254681e-01
2.583066134655866153e-02 -1.102227588879964165e-01 -7.128823426458853474e-01 -6.011853731532891265e-01 -3.732805887390370780e-01 7.065675828802071567e-01
3.978813255396422555e-02 -1.286779401380321874e-01 -7.012936184410842877e-01 2.988072143668627501e-01 -8.516446311928026480e-01 -4.305991997238158842e-01
9.086926444059712990e-03 -1.371479438096241121e-01 -7.388551694613749721e-01 -3.843947089833751329e-01 8.984342020806076468e-01 2.122656171813231962e-01
-2.250348172245024425e-02 3.842848769024208994e-02 -6.754749584933474882e-01 -6.011853731532891265e-01 -3.732805887390370780e-01 7.065675828802071567e-01
-3.923275974448896253e-02 1.089977680976842445e-01 -6.524272760328336807e-01 -6.011853731532891265e-01 -3.732805887390370780e-01 7.065675828802071567e-01
-1.200794902440018583e-03 -2.055097549980773874e-01 -7.898765064653446855e-01 -9.908082173421840777e-02 -4.648221243912040723e-01 8.798428174628238896e-01
-7.541243577617131634e-03 -8.323801202866441817e-02 -7.217263358099238468e-01 9.210486119467994337e-01 -1.819190262026748328e-01 3.443470957280524991e-01
8.991663769259893024e-02 7.116979772665764370e-02 -5.623017273391524018e-01 -6.057403456377877804e-01 -3.731383101006710001e-01 7.027420829876553920e-01
5.895573913152177270e-02 -1.951869709208104570e-02 -6.259807789104087083e-01 6.011853731532891265e-01 3.732805887390370780e-01 -7.065675828802071567e-01
9.093592840024422586e-02 1.038748643217222434e-01 -5.440554085306845700e-01 -6.062255147915982523e-01 -3.735247993684418510e-01 7.021181164678966802e-01
5.781023275733700173e-02 7.411842184561261149e-02 -5.882847285208572252e-01 -6.011853731532891265e-01 -3.732805887390370780e-01 7.065675828802071567e-01
1.095099934503369621e-01 -1.106660813236140239e-01 -6.414934449666973570e-01 -6.091528006801095740e-01 -3.684969358358091696e-01 7.022413215577665291e-01
7.363846047950099033e-03 1.052704441249727174e-01 -6.198241879797388165e-01 -6.621889935884107681e-01 -3.500307182665508554e-01 6.625588525106054227e-01
6.392955897053436386e-03 -1.285440582529262799e-01 -7.283022400220107162e-01 6.011853731532891265e-01 3.732805887390370780e-01 -7.065675828802071567e-01
-8.540433379461079277e-02 2.022664014073389249e-01 -6.414058824529945690e-01 -5.558609346687217734e-01 -4.248707341176531926e-01 7.144952628251227678e-01
-7.354996908778724252e-02 2.448764160723955127e-02 -7.262216569290106394e-01 -5.976426483348983298e-01 -3.745561940785211985e-01 7.088941545595240923e-01
-9.948808297889884245e-02 -5.903180165634849819e-02 -7.819941914613929290e-01 6.063952846868323476e-01 3.732355009184753492e-01 -7.021253588667129009e-01
7.780786069614935817e-03 -1.021626033317032806e-01 -7.131840425788054105e-01 6.011853731532891265e-01 3.732805887390370780e-01 -7.065675828802071567e-01
9.246482959034937887e-02 -1.268770415143169739e-01 -6.544839680186150810e-01 5.959472789119821812e-01 3.769071783820584498e-01 -7.090753271983727402e-01
1.640512620252630727e-03 -1.935555247523235434e-01 -7.825878567896036309e-01 -5.364544993830301367e-01 -3.942116148928820896e-01 7.461995529181509879e-01
4.464081403427831024e-02 1.582037583753997945e-01 -5.549555606764501325e-01 -6.021040009595534093e-01 -3.764860703087849481e-01 7.040802588426597897e-01
-8.512476074847821761e-02 8.855969997004034880e-03 -7.336900462322458738e-01 6.047369527288577462e-01 3.720826283083158992e-01 -7.041645657908319755e-01
6.265296098681732984e-02 1.380573947845462612e-01 -5.502077554306611384e-01 -6.011853731532891265e-01 -3.732805887390370780e-01 7.065675828802071567e-01
1.189390010189337182e-01 -8.994705078967712986e-02 -6.224396224839841008e-01 -6.083569685359038193e-01 -3.694529434288800762e-01 7.024288728586989272e-01
5.120428498565766928e-02 5.316047766663294788e-02 -6.049775307436239258e-01 -6.011853731532891265e-01 -3.732805887390370780e-01 7.065675828802071567e-01
-4.769300762682381067e-02 -1.073041313332468299e-01 -7.738982856356222406e-01 -6.011853731532891265e-01 -3.732805887390370780e-01 7.065675828802071567e-01
-9.313781980874902278e-02 1.726452330154351900e-01 -6.642108237097114065e-01 -5.932781083186311477e-01 -3.798733979844658992e-01 7.097304331178158066e-01
4.420274631872714299e-02 -2.033884242183241764e-01 -7.460449849601106243e-01 -6.072901184762802274e-01 -3.593295392253043063e-01 7.085767384279533232e-01
3.189306829657479608e-02 1.492017097161245642e-01 -5.599123449769332073e-01 6.008715768863480688e-01 3.699420982296269256e-01 -7.085874625249691805e-01
8.226739204562517893e-02 -3.879236048682099119e-02 -6.164485187009431932e-01 5.976334888105317988e-01 3.745974540756491500e-01 -7.088800748026380383e-01
-5.277507448429399894e-02 2.327559884463722625e-03 -7.095059060749273616e-01 6.011853731532891265e-01 3.732805887390370780e-01 -7.065675828802071567e-01
9.115943348018720749e-02 5.014400774538566030e-02 -5.723721946539076511e-01 -6.058203389320109267e-01 -3.724657516254741840e-01 7.030298576891126361e-01
