1.456945460504761175e-02 -3.360088760299143051e-02 -8.185185964785745005e-01 9.847712768486691637e-01 -8.429396347084498753e-02 1.520528198233017658e-01
-8.492444591578111185e-03 -6.611223248496242953e-03 -5.964564487900169132e-01 -9.858409227875748471e-01 8.226217141332489713e-02 -1.461184797063930785e-01
-3.047027687698847375e-05 -1.213540939950798897e-01 -7.703605868557948932e-01 9.858409227875748471e-01 -8.226217141332489713e-02 1.461184797063930785e-01
4.317651936053830408e-03 -7.568675215305287196e-02 -7.102688060604024356e-01 -7.556828228334970809e-01 3.212998309291834609e-01 -5.707099875762430274e-01
-1.222770268553125331e-02 -7.264751702411839478e-03 -5.719327691877634789e-01 -9.850840673944099013e-01 8.418556621017092567e-02 -1.500738838291285349e-01
2.776684625930263099e-03 -8.092151304548333285e-03 -6.733214225220646165e-01 -9.858409227875748471e-01 8.226217141332489713e-02 -1.461184797063930785e-01
-5.419024752409238796e-03 3.902620743063351522e-02 -5.695874741387646489e-01 -9.840361080070160194e-01 -3.258307658915030741e-02 -1.749607992048217708e-01
1.407837330645330884e-02 1.191678459030230952e-01 -6.779271609260537623e-01 -9.858409227875748471e-01 8.226217141332489713e-02 -1.461184797063930785e-01
7.186969010741904411e-03 7.898836043120685199e-03 -7.462884798500611927e-01 9.858409227875748471e-01 -8.226217141332489713e-02 1.461184797063930785e-01
-1.089873290790388874e-02 2.477076038666823493e-02 -6.147681804343019252e-01 9.858409227875748471e-01 -8.226217141332489713e-02 1.461184797063930785e-01
-4.428206229428720449e-03 -4.158990911393298240e-02 -6.957838246223457812e-01 9.858409227875748471e-01 -8.226217141332489713e-02 1.461184797063930785e-01
-6.429910641643956769e-04 3.227325123100484999e-02 -6.797384623200380949e-01 9.858409227875748471e-01 -8.226217141332489713e-02 1.461184797063930785e-01
-2.806910231763412936e-02 -3.779217421801194660e-02 -5.318568011541466856e-01 9.872055514244216790e-01 -7.876500285472121110e-02 1.386408077086227486e-01
6.160501049001159551e-03 1.966713367391526579e-01 -5.599431006492157081e-01 -9.695644029692495058e-01 1.201120202931990621e-01 -2.133494107701467968e-01
-1.600431730338242736e-02 1.283592631813854634e-01 -5.453825584488729561e-01 9.538389439591866692e-01 -2.898733072663414734e-01 7.851582465526697752e-02
2.244693658722030083e-02 1.502917851776605918e-01 -7.180005878350542714e-01 -9.868029080409772558e-01 7.862051936667398266e-02 -1.415585907544466837e-01
-4.166757199269256577e-03 2.110811618021576352e-01 -5.536707316432502024e-01 9.859067150430341764e-01 -8.568556680967971684e-02 1.436869265923569061e-01
3.762949661528707922e-03 -1.444776305833502528e-01 -8.084489940033593447e-01 9.854679099366380202e-01 -7.842525315609860659e-02 1.506734155467263359e-01
-1.589607873357244639e-03 -9.538294761125204468e-02 -6.930058637214878692e-01 -9.858409227875748471e-01 8.226217141332489713e-02 -1.461184797063930785e-01
-9.268739048665951274e-03 2.069804591665630467e-01 -5.181901059493456696e-01 9.887246074757780612e-01 -1.112658299441878496e-01 1.002175915630561798e-01
2.028167204671089963e-02 1.245210395974695738e-01 -7.669063813841281441e-01 9.844027014873467651e-01 -8.733790983782667439e-02 1.527200406285084133e-01
-1.242005245260474101e-02 -2.039834728409418430e-01 -6.847682364796257026e-01 -9.801823240156912753e-01 1.164592057288467430e-01 -1.602493840493760258e-01
-2.645636906951822145e-02 -1.914327061756681062e-02 -5.327455601870515478e-01 9.872055514244216790e-01 -7.876500285472121110e-02 1.386408077086227486e-01
-2.751347775376756025e-02 1.922330806970953473e-02 -5.213262518468007034e-01 7.591946657179192703e-01 5.869565009848319859e-01 2.812570452399367760e-01
-2.947641012856900070e-02 -7.461397146944287462e-02 -5.683882137318055916e-01 9.892863773513003167e-01 4.388657357946649552e-03 1.459219081349161229e-01
1.264189579012123081e-02 1.583370088578067991e-01 -6.976860917445256716e-01 9.850331361813219333e-01 -8.546931576306898704e-02 1.496820519894824508e-01
-2.725015738722024860e-03 -5.946501748088450778e-02 -6.997144815804128282e-01 4.011708360246413196e-01 4.579972692560480008e-01 -7.932846032019612581e-01
5.972786542087295085e-03 5.491393207927744435e-02 -6.594137417609553520e-01 -9.858409227875748471e-01 8.226217141332489713e-02 -1.461184797063930785e-01
6.533047102482032568e-03 1.315919383579292889e-01 -6.722394876590805923e-01 9.858409227875748471e-01 -8.226217141332489713e-02 1.461184797063930785e-01
-2.089242764191417967e-02 1.139783487193684747e-01 -5.187316842879243772e-01 9.855588301789324213e-01 5.201269834263322345e-02 1.611473594802355913e-01
-1.203719877843048916e-02 1.639304147296917480e-01 -5.275033096214827300e-01 9.861070715498621020e-01 -8.655096339462381438e-02 1.417807256816578931e-01
-8.130210921685239109e-03 1.698759861122728643e-01 -5.509753759385919158e-01 9.859899140587405908e-01 -8.498393969474186960e-02 1.435326421703356781e-01
-8.426197144673342604e-03 -4.185269210223365767e-03 -6.477517757898072492e-01 9.858409227875748471e-01 -8.226217141332489713e-02 1.461184797063930785e-01
-2.163602353491048819e-02 6.921535438482413760e-02 -5.160440385003667307e-01 9.868853349649582274e-01 -8.040811616395368566e-02 1.399709630104267188e-01
-1.825652986155798171e-02 -1.432436819109204340e-01 -6.706165168959276057e-01 7.170677195584183039e-01 -6.945449101435785533e-01 -5.849148109714782245e-02
7.653420071230072376e-03 -1.222505701525284511e-01 -8.218492119894934556e-01 9.858409227875748471e-01 -8.226217141332489713e-02 1.461184797063930785e-01
-1.802966880360504232e-02 -1.061497310458859311e-01 -5.896189798373216995e-01 -9.848650733204991070e-01 8.576027513781851741e-02 -1.506185996538728367e-01
4.222910203289798048e-03 2.083389903184212633e-01 -5.626621722748279542e-01 -9.859069755823939296e-01 7.839005670989403207e-02 -1.477918621135689281e-01
1.076408316210734949e-03 -7.406549467826581412e-02 -7.512058799706949896e-01 9.858409227875748471e-01 -8.226217141332489713e-02 1.461184797063930785e-01
7.613766040753817965e-03 1.339217804638382636e-01 -6.050795172824453561e-01 -9.952313353864625789e-01 8.418178662122505207e-02 -4.927490097541650793e-02
-1.724347315635446978e-02 -1.788801895165471889e-01 -6.383487663149797209e-01 -9.791502596439581874e-01 1.133149119258973769e-01 -1.685956695007178319e-01
-9.817337243287028309e-03 -3.900945045942726813e-02 -6.057572239465134345e-01 -9.858409227875748471e-01 8.226217141332489713e-02 -1.461184797063930785e-01
-1.910311052360736533e-02 -9.132194857515193998e-02 -6.245630458155356779e-01 9.865971560829691622e-01 -7.985980913364910949e-02 1.422970923600839488e-01
-4.183728844498058996e-04 -1.815746849732491341e-01 -8.004017388030029156e-01 9.853317827419938446e-01 -7.773162968294368425e-02 1.519179767681167192e-01
4.735070109220039340e-03 2.217640853477270968e-01 -6.077413970444203173e-01 9.854170750671420453e-01 -8.795057216440826942e-02 1.456636022555800603e-01
-1.190770676607573421e-03 1.228900341504610139e-01 -6.250269918467398211e-01 9.858409227875748471e-01 -8.226217141332489713e-02 1.461184797063930785e-01
-1.265295212480424883e-02 -4.166661392296756167e-02 -6.403357991890041845e-01 9.858409227875748471e-01 -8.226217141332489713e-02 1.461184797063930785e-01
-3.798260136363978620e-03 1.558886595715614221e-01 -6.145329845244565936e-01 9.858409227875748471e-01 -8.226217141332489713e-02 1.461184797063930785e-01
-1.875743710730852845e-02 4.059109197702901600e-02 -5.525446692100273172e-01 9.865986443230898573e-01 -8.050692259490911662e-02 1.419216348346467038e-01
7.066557882309902443e-03 5.090477936356928301e-02 -6.690503473300443149e-01 -9.858409227875748471e-01 8.226217141332489713e-02 -1.461184797063930785e-01
3.138331702778386113e-03 6.965468479124189982e-02 -6.665313973351864041e-01 1.316399340170280596e-01 7.064871610468461682e-01 6.953753080516736906e-01
2.173853929326142846e-03 3.789100347375206485e-02 -6.955806239304872518e-01 9.858409227875748471e-01 -8.226217141332489713e-02 1.461184797063930785e-01
7.412130809865092804e-03 -2.520176156252253441e-01 -8.203782618494457335e-01 -9.959879429040824350e-01 4.390085466526455482e-02 -7.797905199060559123e-02
1.725315108456605727e-03 9.144607773045174137e-02 -6.101896819449051934e-01 -9.858409227875748471e-01 8.226217141332489713e-02 -1.461184797063930785e-01
-2.634157189642882466e-02 9.573087086210203128e-03 -5.171258301653575140e-01 9.872466003235834675e-01 -7.928838806448228194e-02 1.380489104182381077e-01
-7.512797143436088405e-03 -1.763088789777312038e-01 -6.993519244376675825e-01 -9.855502637779304242e-01 8.752852300098158678e-02 -1.450152930849649691e-01
-5.446691844929897781e-03 6.444166956471920893e-02 -6.292183038267258333e-01 9.858409227875748471e-01 -8.226217141332489713e-02 1.461184797063930785e-01
4.047643253919898203e-03 6.970175896145179573e-02 -6.903139141659465627e-01 9.858409227875748471e-01 -8.226217141332489713e-02 1.461184797063930785e-01
1.786506282440702628e-02 7.750074666437736792e-02 -7.269332795425597071e-01 -9.858409227875748471e-01 8.226217141332489713e-02 -1.461184797063930785e-01
9.534644121524559618e-03 -4.950927265655566401e-02 -7.422335504174281118e-01 -9.858409227875748471e-01 8.226217141332489713e-02 -1.461184797063930785e-01
2.776719228061919802e-04 4.489004871959021564e-02 -6.040380528596275278e-01 -9.799889766336855601e-01 1.550617138608757217e-01 -1.248097374846590391e-01
8.148205823175502099e-03 3.688956557707048778e-02 -7.364525317959881301e-01 9.858409227875748471e-01 -8.226217141332489713e-02 1.461184797063930785e-01
-1.130738099090757703e-02 1.377590040496180779e-01 -5.482227637363760175e-01 9.858984761325320090e-01 -8.548348788939813536e-02 1.438637134854171551e-01
1.224297656174306963e-02 1.474752354543646532e-02 -7.484327605190044252e-01 -1.201666727683066288e-01 -6.737713532719594722e-01 -7.291036512498528799e-01
6.236706650674918306e-03 -1.275327803082490497e-01 -8.155697481102736068e-01 9.847650267547796155e-01 -8.397818402867208987e-02 1.522678780567480183e-01
1.052034587510946792e-02 3.188436508932582930e-02 -7.030607348682949009e-01 -9.858409227875748471e-01 8.226217141332489713e-02 -1.461184797063930785e-01
-2.686699557178957865e-02 -1.565756157988284769e-01 -6.305431283048970048e-01 9.779811692574713611e-01 -1.822419625182190583e-01 1.016892308717961407e-01
-1.563481933108294350e-02 -7.313733403137959166e-02 -5.624490378440686333e-01 -9.833987563175488056e-01 1.709978294340611452e-02 -1.806501688246839876e-01
1.410052245058386611e-02 2.697819360485215201e-02 -7.603269308676000593e-01 2.139879887698213912e-01 -7.028872455795208696e-01 -6.783499544216694543e-01
-1.561207701805487858e-03 5.617785844626749930e-02 -6.078713688847531271e-01 -9.858409227875748471e-01 8.226217141332489713e-02 -1.461184797063930785e-01
-2.084346344292284381e-02 -1.375034620779193861e-01 -5.910097145262533935e-01 -9.806650381511691217e-01 1.021465427805855614e-01 -1.669196415822294943e-01
-1.781362430295999055e-02 -1.811241633527840289e-01 -6.368690363256863662e-01 -9.716079002888415861e-01 1.420030314127873339e-01 -1.892438299281839209e-01
-1.375121492268483250e-02 1.776995744113722131e-01 -5.036829621698423187e-01 9.826256589606597869e-01 -1.704389236481805014e-01 -7.346691539583516395e-02
-7.360480629019280213e-03 -1.856440513794151703e-01 -7.832800306988900729e-01 9.695933907816031150e-01 -1.200506087498744434e-01 2.132522166154853516e-01
1.226227054122191150e-02 1.559285040543038348e-01 -6.450195729332737216e-01 -9.867909544918633813e-01 7.898295887179458685e-02 -1.414401086711042366e-01
2.796541066836673393e-03 -1.404812995145050258e-01 -8.000481893283422075e-01 9.854679099366380202e-01 -7.842525315609860659e-02 1.506734155467263359e-01
2.243558741626729136e-02 2.479681527844010760e-02 -7.727823162467662987e-01 -7.532434731601267419e-01 5.371591841603393647e-01 3.795843529623796342e-01
-8.709584526627834472e-03 -1.186795763082122562e-01 -7.102981111785705570e-01 9.858409227875748471e-01 -8.226217141332489713e-02 1.461184797063930785e-01
1.964019876327350971e-03 -1.107014025732868667e-01 -7.256057171927144944e-01 -9.858409227875748471e-01 8.226217141332489713e-02 -1.461184797063930785e-01
-2.644231877306541575e-03 1.855681837826020086e-01 -5.792573015088577915e-01 9.858235141374405153e-01 -8.520830535182238874e-02 1.445390731697776543e-01
1.263944408536794503e-02 -5.367190456221537787e-02 -7.655246906456770750e-01 -9.858409227875748471e-01 8.226217141332489713e-02 -1.461184797063930785e-01
8.932873832711390322e-03 -8.275294842657304750e-02 -7.568891037880587369e-01 -9.858409227875748471e-01 8.226217141332489713e-02 -1.461184797063930785e-01
-2.900768569056928932e-03 -9.965952788180021393e-03 -6.882854933665270014e-01 9.858409227875748471e-01 -8.226217141332489713e-02 1.461184797063930785e-01
-1.996539048645247158e-02 -3.906467337195016626e-02 -5.394495428350165600e-01 -9.813488274373542986e-01 9.268461888772447366e-02 -1.684162709151555415e-01
-1.675080564575209471e-02 9.595449479468140530e-02 -5.348786809095390504e-01 9.859092405094015410e-01 -8.545784029976205565e-02 1.438051703155191485e-01
-1.484188830117505811e-02 -3.306753369951923038e-02 -6.207262201875509700e-01 9.858409227875748471e-01 -8.226217141332489713e-02 1.461184797063930785e-01
2.283371489755007047e-02 -3.614685656473549252e-02 -8.256990772612047280e-01 -9.869140077293804270e-01 8.087204337713992108e-02 -1.395007309928457673e-01
4.358585517256759016e-03 -4.089614645212735072e-02 -7.546765018400415359e-01 9.858409227875748471e-01 -8.226217141332489713e-02 1.461184797063930785e-01
-2.063430124514571608e-03 -1.453065195981821933e-01 -6.958831257488506949e-01 -9.731801016153683870e-01 1.993082749683957877e-01 -1.148768964980485530e-01
2.131830043772131936e-02 2.135376186074644245e-01 -6.776752267064323210e-01 -9.894573817653474768e-01 5.897000600550774546e-02 -1.322748202107031923e-01
-8.186578357006807707e-03 1.182565059502282273e-01 -5.291377694547823030e-01 -9.857284198661252494e-01 7.808108094751364803e-02 -1.491402932352614008e-01
1.986447698795857156e-02 2.506843769816545150e-02 -7.702302437639422239e-01 -9.865776568516241296e-01 8.016340733576166055e-02 -1.422615729052635891e-01
1.302382003715717856e-02 -1.142207365419325854e-01 -8.024691908418450925e-01 -9.868248237862496941e-01 8.004617203437236483e-02 -1.406036183811806006e-01
2.493771525862549347e-03 -1.016698252748749892e-01 -7.763093907462466081e-01 9.858409227875748471e-01 -8.226217141332489713e-02 1.461184797063930785e-01
-1.684553890721790168e-02 -1.623045355256073075e-01 -6.797748045209305312e-01 9.868112772108034170e-01 -7.783014387676080725e-02 1.419365064868993165e-01
-2.346959078514116240e-02 -1.453916247910413961e-01 -6.243229857581148456e-01 9.868706532952857824e-01 -7.823891079875534837e-02 1.412975105993033442e-01
-5.718165641671023487e-03 -6.508841030141379602e-02 -6.480957631349538728e-01 -9.858409227875748471e-01 8.226217141332489713e-02 -1.461184797063930785e-01
1.322693026699468116e-02 -5.699983130619770688e-02 -8.227477539243004401e-01 9.849399656309669737e-01 -8.366043276347136237e-02 1.513082816395007191e-01
-6.459886934130965909e-03 -2.119707209167415174e-01 -7.876093218482017599e-01 9.296771704671710213e-01 1.807178136725906548e-01 -3.210006706123109121e-01
1.519390088184278953e-02 1.011370404705139309e-01 -7.469861964068872373e-01 9.850835534445044894e-01 -8.471484028254931686e-02 1.497791326221727115e-01
-1.969539460228986183e-02 1.011664747764245698e-01 -5.112803997802830569e-01 9.870427191629654873e-01 -8.039831994273138882e-02 1.388624524404108995e-01
1.371084889259258435e-02 7.742913416067068470e-05 -7.941349708092099169e-01 9.850494496362464103e-01 -8.403211563955539920e-02 1.503867856976412454e-01
2.561998847065817542e-02 1.739461787668828141e-01 -7.287390142359756462e-01 -9.899451769601979034e-01 6.138596549695284066e-02 -1.274374742893516210e-01
-2.380261192035565757e-02 1.737633118145173391e-02 -5.224290321700342243e-01 2.249045410318160076e-01 9.293491730994021260e-01 2.927935482259225730e-01
4.818122197343497216e-04 1.219898859817238890e-01 -6.368184422668682343e-01 9.858409227875748471e-01 -8.226217141332489713e-02 1.461184797063930785e-01
-8.850200482807489208e-03 1.790019615616129656e-01 -5.405212447272498277e-01 9.861519301629638745e-01 -8.535500166014539647e-02 1.421931585114329932e-01
1.817798710998321313e-02 -5.498040295456101817e-02 -8.521760930216063512e-01 9.716079002888415861e-01 -8.814821653994596440e-02 2.195631572398595022e-01
-1.876162491784678574e-02 -1.010629134675036789e-01 -6.323825703389209796e-01 9.866293628569385854e-01 -7.960005132994706079e-02 1.422193101402933757e-01
-2.194675883912169598e-02 -1.648167859172213756e-01 -6.321871545566952744e-01 2.027333218517186064e-01 9.409988072863465502e-01 2.709620728010485036e-01
1.405531762715405732e-02 -1.158307073945974708e-01 -8.106253069114786047e-01 -9.868248237862496941e-01 8.004617203437236483e-02 -1.406036183811806006e-01
1.119861709252940526e-02 3.470541325075585104e-02 -7.060487345815278371e-01 -9.858409227875748471e-01 8.226217141332489713e-02 -1.461184797063930785e-01
3.585436027667721851e-03 -1.785706008907201325e-01 -8.243561476788043851e-01 9.731625094446193502e-01 -3.796320086997244381e-02 2.269659128396980530e-01
-8.400014085150665083e-03 -1.640013574069754121e-01 -7.379021167999126884e-01 9.858409227875748471e-01 -8.226217141332489713e-02 1.461184797063930785e-01
-1.402930415074946438e-02 -1.332012531179629089e-01 -6.825821600927104438e-01 9.858409227875748471e-01 -8.226217141332489713e-02 1.461184797063930785e-01
-8.758401269019328375e-03 1.434106993539147890e-01 -5.119246636141977502e-01 -9.841303949355780789e-01 7.848967230798895023e-02 -1.591437623814630775e-01
-1.435633252357818371e-02 -5.652290677305836508e-02 -6.587788576779028960e-01 7.514579456172415517e-01 6.085021295254143814e-01 2.550217918762048286e-01
-1.774198545576350858e-02 -7.857314864680323141e-02 -5.758981756680418007e-01 -9.849131513689742823e-01 8.498465818101906544e-02 -1.507437963376638268e-01
-2.409789760575718059e-02 -7.838090173444985098e-02 -5.826285824597804419e-01 9.867354300852727578e-01 -7.954963542443475866e-02 1.415098813449839343e-01
-2.040577273680414458e-02 -1.328202510139291914e-01 -6.386998113676990441e-01 9.866496421862566146e-01 -7.911599769663449355e-02 1.423486651928914937e-01
1.727883891544254244e-02 4.667510704914842184e-02 -7.913391541415492059e-01 9.849174345530752328e-01 -8.479312509148367871e-02 1.508236488439690381e-01
1.781965541390134397e-02 1.382396373444818582e-01 -6.926061196339658999e-01 -9.866218937021041802e-01 7.906767342849878311e-02 -1.425676747593156435e-01
-8.248212475407920921e-03 9.310074825766298523e-02 -5.421234145843949470e-01 -9.858570275367096736e-01 7.888319910131813550e-02 -1.478626462499062211e-01
1.341894150402380900e-02 5.560566030573811658e-02 -7.092624756623356896e-01 -9.858409227875748471e-01 8.226217141332489713e-02 -1.461184797063930785e-01
-8.427910587768441385e-04 -1.194606650156211647e-02 -7.032851491658668186e-01 9.858409227875748471e-01 -8.226217141332489713e-02 1.461184797063930785e-01
3.100467006737979512e-03 -1.541871332988470900e-01 -8.091761875622741629e-01 9.854208751583934944e-01 -7.879301738280709844e-02 1.507891216692326675e-01
-3.280700739610158817e-03 -1.474574912033234930e-01 -6.940707982624128025e-01 -7.325526398576821530e-01 6.797679606523995277e-01 3.580711532668537367e-02
-1.621411192226400802e-02 -1.030703168994336616e-01 -5.997371668348016049e-01 -9.848650733204991070e-01 8.576027513781851741e-02 -1.506185996538728367e-01
2.892288296030947475e-02 3.461249799532262889e-02 -8.318409526424065392e-01 -9.932029182617556629e-01 6.468573036869364190e-02 -9.676631357554643653e-02
1.445391995186991012e-02 2.085140612387352543e-01 -6.311560642131957000e-01 -9.869173969407165625e-01 6.801898395460302671e-02 -1.461761589232103142e-01
2.708038080655911575e-02 1.162405030832189268e-01 -7.698681208106136209e-01 -9.897717371133583075e-01 6.811240632270977591e-02 -1.253499442223052762e-01
-6.974701879185154184e-03 -2.650595122279183480e-01 -8.189889288434012427e-01 9.297209707602621664e-01 1.806635755612850669e-01 -3.209043299707989849e-01
-1.493955354256901874e-02 -3.866825011316304267e-02 -5.717587579088478922e-01 -9.850875064025149674e-01 8.433379505667379372e-02 -1.499680490671728428e-01
-1.943224555794988845e-02 -3.667066829681511764e-02 -5.915567480914744047e-01 9.865734272185625597e-01 -8.015662091680404722e-02 1.422947252339999413e-01
-7.499055046634617305e-03 1.967057576464038560e-01 -5.392600542114405204e-01 9.860130209605638685e-01 -8.572035593826586586e-02 1.429347511070684362e-01
1.606741301326079091e-02 -1.268775891761153851e-01 -8.493648266743459851e-01 -1.177818680618677866e-01 2.805301022470486627e-01 9.525913569254746971e-01
-1.730696045806639702e-02 -1.302988127977776633e-01 -6.588083698582809511e-01 9.866831197135922382e-01 -7.921559025563000567e-02 1.420609430234255066e-01
-2.411488552989236173e-02 -7.844473379729612061e-02 -5.510411199744746913e-01 -3.511227005731609729e-02 5.520647752806824293e-01 -8.330615897913620227e-01
-5.054891937260128608e-03 1.102215805620714723e-01 -6.054525397551949739e-01 4.072770257606909694e-01 4.480496530742467121e-01 -7.958498179101208825e-01
1.299434176713577457e-02 8.710329843035682917e-02 -6.886651363730216246e-01 -9.858409227875748471e-01 8.226217141332489713e-02 -1.461184797063930785e-01
-1.525907981014211446e-03 -9.260711500911390781e-02 -6.918728923340528025e-01 -9.858409227875748471e-01 8.226217141332489713e-02 -1.461184797063930785e-01
-2.070011399209670255e-02 -1.545434073087842974e-01 -6.651589888640360160e-01 7.545244333127326675e-01 5.951724767530593985e-01 2.765187198902251398e-01
2.674518795036915850e-02 3.348705143252784372e-02 -8.137397110524259292e-01 -9.899139611267212535e-01 7.123432249337098565e-02 -1.224582413123541241e-01
1.371032702268675484e-02 4.151582703918741540e-02 -7.708637384492618150e-01 9.850836504818695216e-01 -8.434356579216374661e-02 1.499878810530256290e-01
-1.224820390789545200e-03 -1.338584259693302581e-02 -6.493040849151414662e-01 -9.858409227875748471e-01 8.226217141332489713e-02 -1.461184797063930785e-01
-4.270824299705960891e-03 1.710714305276292702e-01 -5.767055775275764518e-01 9.858473151255358058e-01 -8.513965818909098593e-02 1.444171383985196622e-01
-4.006074871073200643e-03 -1.422423890873216468e-01 -6.834839010091424694e-01 -7.907158097817877929e-01 -5.479289023703607375e-01 -2.730245888346751748e-01
1.729284686738606289e-02 -7.494934321548984979e-02 -8.090583611672619302e-01 -9.867651006130934155e-01 8.041526755802663740e-02 -1.408120057225328292e-01
1.157588946036551590e-03 -8.733662880766088210e-02 -7.070108779739969762e-01 -9.858409227875748471e-01 8.226217141332489713e-02 -1.461184797063930785e-01
-1.719910750249214679e-02 5.316478098978227873e-02 -5.562451400230226106e-01 9.865986443230898573e-01 -8.050692259490911662e-02 1.419216348346467038e-01
8.913734545144836804e-03 -1.031328421856408661e-01 -8.197604804123146405e-01 9.854719423515730936e-01 -7.870407535361244322e-02 1.505015593292991505e-01
-6.588092239958595782e-03 7.897867365332522649e-02 -6.378141639707869404e-01 9.695935779952438160e-01 -1.200553270353284657e-01 2.132487091656628808e-01
1.959991806193948742e-03 -6.246922078147329471e-02 -6.984246580237802871e-01 -9.858409227875748471e-01 8.226217141332489713e-02 -1.461184797063930785e-01
-6.560774939559592574e-03 9.983204775002318954e-02 -6.017775716839438571e-01 9.858409227875748471e-01 -8.226217141332489713e-02 1.461184797063930785e-01
-1.236345657757054878e-02 -9.362766163802260788e-02 -6.196665487035726283e-01 -9.850676177668687972e-01 8.465190273917680419e-02 -1.499194576755903119e-01
1.657596818233797453e-02 6.523002337250852212e-02 -7.763088535009236013e-01 9.849313451200891745e-01 -8.493127687712882790e-02 1.506549820216784297e-01
6.350502606359417594e-03 2.272866283173629598e-01 -5.678550947249667580e-01 -9.869173437290161832e-01 5.921047720084966770e-02 -1.499609150295861393e-01
-2.340800049013817830e-02 -5.553382092821711191e-02 -5.292032580936383290e-01 -9.763173312381323576e-01 1.049040080239129202e-01 -1.892078693515936161e-01
-6.971021194765701819e-03 -1.371810212156273356e-01 -7.324439473402780676e-01 9.858409227875748471e-01 -8.226217141332489713e-02 1.461184797063930785e-01
2.641789337258739455e-03 1.517185696622168067e-01 -6.014979655283336779e-01 -4.051401386787046865e-01 -5.001131420170750186e-01 7.653419583514341484e-01
-7.349569476067068820e-03 7.397580713934630292e-02 -6.292030676420370394e-01 9.296771704671710213e-01 1.807178136725906548e-01 -3.210006706123109121e-01
-8.648928382074722726e-03 -4.252209043766495833e-02 -6.156178703536548946e-01 -9.858409227875748471e-01 8.226217141332489713e-02 -1.461184797063930785e-01
-1.698143222487302068e-02 -1.200318910074483214e-01 -6.043728665765045749e-01 -9.848378991177819675e-01 8.571082733304002943e-02 -1.508242902822992948e-01
2.471599924494790462e-02 1.196107231908940666e-01 -7.508360454016149710e-01 -9.867496329149006984e-01 7.891627311479310070e-02 -1.417652417907159235e-01
1.011638091414429272e-02 -1.479765337988841675e-02 -7.788305419289027753e-01 9.858409227875748471e-01 -8.226217141332489713e-02 1.461184797063930785e-01
1.349130799672472979e-02 -1.190773712226952386e-01 -8.085151500303368044e-01 -9.868248237862496941e-01 8.004617203437236483e-02 -1.406036183811806006e-01
-8.988443781451116096e-03 1.532181361726370483e-01 -5.057727488372293356e-01 -9.829918123087696413e-01 6.690119796334614843e-02 -1.710301922029844324e-01
-3.517913378662464348e-03 -1.263189388337223329e-01 -7.496264181554082029e-01 9.858409227875748471e-01 -8.226217141332489713e-02 1.461184797063930785e-01
4.570808983477970926e-03 -1.570581297551063571e-01 -7.692913921964781299e-01 -9.858409227875748471e-01 8.226217141332489713e-02 -1.461184797063930785e-01
-4.320139310015402856e-03 1.517479966077570630e-01 -5.361391385679303845e-01 -9.856394966839191474e-01 7.935164473286214493e-02 -1.490573683346783918e-01
1.373785409942692055e-02 -9.826244368418433905e-02 -8.478804098801643319e-01 9.781933795210173699e-01 -7.601806564999689930e-02 1.932846759473797749e-01
2.037071263335342095e-02 2.294104434276919915e-02 -7.589630263574043134e-01 -7.054589917646053587e-01 -4.004228103408650208e-01 -5.847984130426399085e-01
-1.994027374409108183e-02 5.140121146793717732e-02 -5.381507130236496961e-01 9.866254067352729917e-01 -8.087686542481264951e-02 1.415246954545875957e-01
-4.419609045370452745e-03 1.467631444198647106e-01 -5.381351145018461457e-01 -9.856394966839191474e-01 7.935164473286214493e-02 -1.490573683346783918e-01
-1.117245514806100917e-02 -7.025253456718498490e-02 -5.903910409552297622e-01 -9.735473426348350001e-01 1.950176243407124310e-01 -1.190533403359847059e-01
-6.033308429108531941e-03 -1.259433390290349009e-01 -6.802298089544475124e-01 -9.858409227875748471e-01 8.226217141332489713e-02 -1.461184797063930785e-01
-7.227878966911673204e-03 6.174905962651750652e-02 -6.187167764443604057e-01 9.858409227875748471e-01 -8.226217141332489713e-02 1.461184797063930785e-01
-3.349709339290101850e-03 -6.640975792523086396e-02 -7.040202927018378576e-01 4.072770257606909694e-01 4.480496530742467121e-01 -7.958498179101208825e-01
2.081909171795523483e-02 2.122815376863960990e-02 -7.790167572371553550e-01 -9.865865406556197925e-01 8.032488132427413607e-02 -1.421088007036092060e-01
-6.842429248004057094e-03 5.217509580662643698e-02 -6.521273697700380456e-01 9.756609451245684683e-01 -1.075767769147520370e-01 1.910836393500695007e-01
-9.514738477763441237e-05 1.284550493144354655e-01 -5.770718668798541229e-01 -9.858409227875748471e-01 8.226217141332489713e-02 -1.461184797063930785e-01
2.989186485214285864e-03 4.518558319148712442e-03 -7.198696667004140792e-01 9.858409227875748471e-01 -8.226217141332489713e-02 1.461184797063930785e-01
1.757655889889191136e-02 -2.616174913912398814e-02 -8.338701720920772553e-01 9.848131274471197960e-01 -8.401389313816620685e-02 1.519367294882703057e-01
2.122249827103284484e-02 -7.778575441559980319e-02 -8.391915379306990053e-01 -9.873076539880981661e-01 8.539180788172577585e-02 -1.339098036859442953e-01
-1.697456470189086198e-03 -1.471149728190120354e-01 -7.214024578642315166e-01 -9.858409227875748471e-01 8.226217141332489713e-02 -1.461184797063930785e-01
1.600717424188051463e-02 -1.143913672187044234e-01 -8.235905621420256395e-01 -9.862738448727661478e-01 8.688855754518567953e-02 -1.404075549520318600e-01
6.320520683461307125e-03 1.169797551835867894e-01 -6.790320075235142250e-01 9.858409227875748471e-01 -8.226217141332489713e-02 1.461184797063930785e-01
-2.204876723419874410e-02 1.045159306293129697e-01 -4.909483866618957193e-01 9.940364751634555018e-01 -8.751832531411128657e-02 6.505404506121242880e-02
8.627843757353131221e-03 3.266990790980754678e-02 -7.420641759056938458e-01 9.858409227875748471e-01 -8.226217141332489713e-02 1.461184797063930785e-01
-2.102892298830844053e-02 1.552745796588607570e-02 -5.039295486443700067e-01 -9.755796934339864279e-01 9.638018895321885660e-02 -1.973705168878845395e-01
-2.200925296661844152e-02 -5.406268582906522541e-02 -5.358917440869190862e-01 -9.812907411332548735e-01 9.393286409994917874e-02 -1.680627811507591773e-01
-1.575806432535937010e-02 -8.777374306772432874e-04 -5.964226114812400947e-01 9.858409227875748471e-01 -8.226217141332489713e-02 1.461184797063930785e-01
-1.702293829386196345e-03 -1.194080441716741520e-01 -7.579854351191427364e-01 9.858409227875748471e-01 -8.226217141332489713e-02 1.461184797063930785e-01
-1.724000274061325555e-02 -1.493318782683158708e-01 -6.856919845079726406e-01 7.707090870599060395e-01 5.743290408078705056e-01 2.759595187849071540e-01
-1.343934790053456438e-02 -1.978033332020442403e-01 -6.737991191193656304e-01 -9.788098429702923875e-01 1.187465236870123841e-01 -1.668249214497685984e-01
-1.324447004551350740e-02 -6.030217506963977785e-03 -6.162822371044123226e-01 9.858409227875748471e-01 -8.226217141332489713e-02 1.461184797063930785e-01
-2.782011890227358356e-02 -5.912263040011982509e-03 -5.014180249228181729e-01 1.651861550813999435e-01 3.266085290488567883e-01 -9.306129178783012490e-01
-2.716895731474878659e-02 -1.145898335799646339e-01 -5.813004153384779826e-01 9.873100252511538555e-01 -7.663875617654067329e-02 1.390877963384232197e-01
-7.568565482263801131e-03 -5.041493697529324247e-02 -7.059521042811396363e-01 9.932937423063420423e-01 -5.672000186424359242e-02 1.007491085994428742e-01
1.917945865728314797e-02 2.254862706017735918e-01 -6.687452606227733964e-01 -1.310122438859679384e-01 -9.217455153085051256e-01 3.649945163432211093e-01
-6.515295117922485953e-03 -7.503615221053037965e-02 -6.483180484456113613e-01 -9.858409227875748471e-01 8.226217141332489713e-02 -1.461184797063930785e-01
8.286841123019830085e-03 2.194647705210576311e-02 -7.458005845841040315e-01 9.858409227875748471e-01 -8.226217141332489713e-02 1.461184797063930785e-01
-1.595174750570056699e-02 -1.381059284895733708e-01 -6.214275873872194822e-01 -9.847663012743859134e-01 8.630044879559306548e-02 -1.509555047424386565e-01
4.523100282370846707e-03 2.878430021939887978e-02 -6.643434413885485057e-01 -9.858409227875748471e-01 8.226217141332489713e-02 -1.461184797063930785e-01
-2.011432854412071453e-02 8.468339763770856010e-02 -5.178459327686627534e-01 9.870427191629654873e-01 -8.039831994273138882e-02 1.388624524404108995e-01
2.438551296371557764e-02 -3.817092376422683009e-02 -8.383454664388547695e-01 -9.908721327287535185e-01 7.506364306424802291e-02 -1.119726130421829502e-01
4.673979190032327528e-03 1.479004188770113304e-01 -5.983010900792905540e-01 -9.858409227875748471e-01 8.226217141332489713e-02 -1.461184797063930785e-01
1.206002336593083729e-02 -6.347893659189185467e-02 -8.187341699728680755e-01 9.849399656309669737e-01 -8.366043276347136237e-02 1.513082816395007191e-01
2.015453880642952347e-02 2.199088940578525775e-01 -6.663016049097625348e-01 -9.893914915365901175e-01 5.487355130703747141e-02 -1.345115974254829372e-01
-1.844858617290509595e-02 -2.605656580171478512e-02 -5.923975277931142758e-01 9.865782464700273424e-01 -8.017945859278373388e-02 1.422484376430687425e-01
-1.669914161167418767e-02 8.909175844428621205e-02 -5.392702410075782549e-01 9.867040282289900599e-01 -8.093307494561316484e-02 1.409432440968076683e-01
-2.343323058535851447e-02 -1.342847926242447254e-01 -6.184308521113142110e-01 9.868312789234245930e-01 -7.819311072966804443e-02 1.415975436678763300e-01
-7.461404496565483650e-03 3.150722184082760391e-02 -5.702148505345823182e-01 -7.035423674347482947e-01 7.062533065627922824e-01 7.895824335325646315e-02
4.228457668803811188e-04 -1.369838299738053433e-01 -7.643996537660703305e-01 8.241866336969140561e-02 -4.889116519915810422e-01 8.684310913798610754e-01
-1.941889738836220444e-02 -5.129684742655211960e-02 -5.998874033379555382e-01 9.865785986157488141e-01 -8.003181422075333895e-02 1.423291167186807316e-01
-2.675052884306344803e-02 1.927826195891533742e-02 -5.085677400948315219e-01 9.872236702948858911e-01 -7.996534963227829029e-02 1.378222321241457382e-01
-2.247115740024567716e-03 -2.513444129163650564e-01 -8.285292864143319891e-01 8.241866336969148887e-02 -4.889116519915810422e-01 8.684310913798610754e-01
2.763068300069079775e-02 4.604008011894758327e-03 -8.388361724487578552e-01 -9.935124446994118008e-01 6.813919472925590581e-02 -9.104983453607647104e-02
-2.102429360758989452e-02 -7.855518886069169648e-02 -5.554658324534967884e-01 -9.812338755082512520e-01 9.512157977594004610e-02 -1.677258674623185730e-01
2.219553316362300743e-02 9.194315917719825260e-02 -7.976954714016701864e-01 9.843892105403424519e-01 -8.651836580975570679e-02 1.532724846453866752e-01
5.517722355212885225e-03 1.280616436811454484e-01 -6.151625936433893216e-01 -9.858409227875748471e-01 8.226217141332489713e-02 -1.461184797063930785e-01
6.717511098917115613e-03 3.351530033497641253e-02 -6.764853528391729931e-01 -9.858409227875748471e-01 8.226217141332489713e-02 -1.461184797063930785e-01
-1.663912446114676827e-02 2.312724369340995317e-02 -5.769638338166180880e-01 9.858409227875748471e-01 -8.226217141332489713e-02 1.461184797063930785e-01
2.198056540110390918e-04 -2.105562684337545232e-01 -7.721150745883303967e-01 -9.826318022284064035e-01 1.178219216447375789e-01 -1.433622545487313327e-01
-1.624383761787205963e-02 8.717671129777825045e-02 -5.435573569294727125e-01 9.867078278548880865e-01 -8.038915044921375597e-02 1.412276422657472441e-01
1.428296905859022595e-02 -9.076023071587192848e-02 -8.476731827594820023e-01 9.833831676400339727e-01 -8.288381408118572491e-02 1.615172404593636091e-01
-1.971152661920407001e-02 -8.634507501420740638e-02 -5.675723619942433240e-01 -9.811553734503895008e-01 9.671310488612142042e-02 -1.672743509708317644e-01
-7.459537355502683089e-04 -1.644194144873459551e-01 -7.893584684258839745e-01 9.854642748224523574e-01 -7.886622341777149714e-02 1.504668795864265440e-01
7.278514571742317370e-03 -3.573452968395994245e-01 -8.824344730193572905e-01 -9.231597531108300947e-01 -1.843939111145461718e-01 3.373054339619092068e-01
2.037532954965508465e-03 7.632247500390414163e-02 -6.440520671227728533e-01 -4.017536499626452873e-01 -4.492481968102250423e-01 7.979787355590708398e-01
-2.245685741943351590e-02 1.024730844460806367e-01 -4.879153901576717689e-01 9.931516436303758910e-01 -8.497715215738389782e-02 8.017915168860013930e-02
-1.263959346779392791e-02 1.378708371725708703e-01 -4.926245862688288235e-01 -9.632662289037414727e-01 6.470078843475979280e-02 -2.606376416204787549e-01
-2.849715943565364965e-02 -8.091991429853744033e-02 -5.595231315952872153e-01 2.038967026658250747e-01 9.511689857932331682e-01 2.317405771699818373e-01
-7.854198112273025681e-03 -1.626349976364887540e-01 -7.653501420479033035e-01 9.959772698619291376e-01 -4.395909179632101482e-02 7.808249590542368224e-02
1.360404727593287309e-02 -3.076271029610530561e-02 -8.106501493455197105e-01 9.850077900858098534e-01 -8.385145186637528447e-02 1.507600328010378632e-01
-7.828899721184664345e-03 1.100758005144273320e-02 -6.679150728736218401e-01 9.959772698619291376e-01 -4.395909179632100788e-02 7.808249590542366836e-02
-1.340637367151828300e-04 3.504740969226854963e-02 -6.816103206079544563e-01 9.858409227875748471e-01 -8.226217141332489713e-02 1.461184797063930785e-01
4.984269712604609374e-03 -6.083338179906108006e-02 -7.701222234261650978e-01 9.858409227875748471e-01 -8.226217141332489713e-02 1.461184797063930785e-01
4.558609434712489021e-03 9.271206889638936022e-02 -6.808069257840041466e-01 9.858409227875748471e-01 -8.226217141332489713e-02 1.461184797063930785e-01
-1.198493522297089733e-02 3.616470287176360571e-02 -6.010251333779871308e-01 9.858409227875748471e-01 -8.226217141332489713e-02 1.461184797063930785e-01
-1.498809332833334063e-02 1.380303615150699215e-01 -5.225564382933315377e-01 9.858409227875748471e-01 -8.226217141332489713e-02 1.461184797063930785e-01
2.419334098650615175e-02 1.992902596226768519e-01 -7.065970473664984208e-01 -9.944985915908755025e-01 1.998165073992137081e-02 -1.028264798457710072e-01
5.880192767069344906e-03 -1.584123906390114411e-01 -8.290770334851330636e-01 9.844287378187527304e-01 -7.442322308543632137e-02 1.592521397726034960e-01
-6.747161252693292073e-04 -2.035218461538252643e-01 -7.805422319795038977e-01 -7.639815957186574247e-02 4.891469322028466626e-01 -8.688490087066770284e-01
7.380654290217665385e-03 7.476699956644400347e-02 -6.577354954417857780e-01 -9.858409227875748471e-01 8.226217141332489713e-02 -1.461184797063930785e-01
4.353385940182971821e-03 -1.950930281524574927e-01 -7.775397855409825754e-01 -7.556828228334971920e-01 3.212998309291834054e-01 -5.707099875762429164e-01
1.619943186529432602e-02 1.768001950753172735e-01 -7.103680962809697519e-01 9.848654345567332546e-01 -8.647143645523429345e-02 1.502090759333308545e-01
3.270345085133144914e-04 1.385447049634833394e-01 -6.264541025783210149e-01 9.858409227875748471e-01 -8.226217141332489713e-02 1.461184797063930785e-01
4.450792012144609393e-03 -3.480905010314144093e-02 -6.996575415865787795e-01 -9.858409227875748471e-01 8.226217141332489713e-02 -1.461184797063930785e-01
1.868034172932556049e-03 1.642947484089831156e-01 -6.344711238368376804e-01 7.106717830899929034e-01 4.223711582517920560e-01 5.626261826441512071e-01
8.673118484000843370e-03 -2.508098047288171220e-02 -7.226682524880067016e-01 -9.858409227875748471e-01 8.226217141332489713e-02 -1.461184797063930785e-01
-2.782535084371542261e-02 1.155162602657583719e-03 -5.113495291733749504e-01 9.872466003235834675e-01 -7.928838806448228194e-02 1.380489104182381077e-01
2.257715164503969023e-03 -1.280825939300112848e-01 -7.373725476451246097e-01 -9.858409227875748471e-01 8.226217141332489713e-02 -1.461184797063930785e-01
1.829446377046595532e-02 -3.580826690665526307e-02 -8.435662412161772927e-01 9.840318412578279439e-01 -8.411400101930024964e-02 1.568635401336271884e-01
-6.605302889844661025e-03 1.598288500230635734e-01 -5.673604761529277285e-01 9.859713495897814983e-01 -8.484163278089969229e-02 1.437442003531831658e-01
8.003925895712634547e-03 9.239723472716389330e-02 -6.520151048805135074e-01 -9.858409227875748471e-01 8.226217141332489713e-02 -1.461184797063930785e-01
-7.263570275120066928e-03 8.779283844931267886e-03 -6.482970378290637825e-01 9.858409227875748471e-01 -8.226217141332489713e-02 1.461184797063930785e-01
-9.476693128017701917e-03 1.846388764751823175e-01 -5.327926322917618807e-01 9.861519301629638745e-01 -8.535500166014539647e-02 1.421931585114329932e-01
1.206608970332502528e-02 1.876261574977918511e-01 -6.261565953330717749e-01 -9.860254428980737007e-01 7.823849294006889055e-02 -1.470801284338720816e-01
5.212739571656769752e-03 -3.103597372788058362e-01 -8.435708236381894709e-01 -7.556828228334970809e-01 3.212998309291835164e-01 -5.707099875762430274e-01
-1.283309534910693009e-02 1.459094915801476162e-02 -6.074483651724431610e-01 9.858409227875748471e-01 -8.226217141332489713e-02 1.461184797063930785e-01
3.414169905968891154e-04 1.044460348277232303e-01 -5.935339646013724213e-01 -9.858409227875748471e-01 8.226217141332489713e-02 -1.461184797063930785e-01
2.053554482040782780e-02 1.464749418897182964e-01 -7.559653119890348272e-01 9.843832364790946476e-01 -8.815777095524723883e-02 1.523740501500987776e-01
-6.060970001103134670e-03 -1.196151095949922333e-01 -6.764804967168182026e-01 -9.858409227875748471e-01 8.226217141332489713e-02 -1.461184797063930785e-01
1.470171504827517614e-02 4.431450050399981361e-04 -8.004208973191757615e-01 9.850494496362464103e-01 -8.403211563955539920e-02 1.503867856976412454e-01
2.834108835057895341e-03 6.402888794053232524e-02 -6.331059605943414326e-01 -9.858409227875748471e-01 8.226217141332489713e-02 -1.461184797063930785e-01
5.104862319338580694e-03 -9.177455024704826714e-02 -7.361410515670255839e-01 -9.858409227875748471e-01 8.226217141332489713e-02 -1.461184797063930785e-01
-4.729132511785988195e-03 1.932158587500385216e-01 -5.604648576796276149e-01 9.860292272341917297e-01 -8.536075406654540509e-02 1.430381232578689654e-01
6.086652231458040789e-03 -2.096069155906145343e-02 -7.551122104285692416e-01 9.858409227875748471e-01 -8.226217141332489713e-02 1.461184797063930785e-01
-8.413649045553431294e-03 2.039119378380141734e-01 -5.283280492725637156e-01 9.864766466417539403e-01 -8.675766870133432007e-02 1.390572995277467028e-01
1.510707188428303191e-02 -7.828567835136418518e-02 -7.960305578974251617e-01 -9.858409227875748471e-01 8.226217141332489713e-02 -1.461184797063930785e-01
3.589125940241587147e-03 -2.662363666469003479e-02 -6.892357553629446798e-01 -9.858409227875748471e-01 8.226217141332489713e-02 -1.461184797063930785e-01
5.134902660780346455e-03 -3.073507171386147263e-01 -8.417737328194475621e-01 -7.556828228334970809e-01 3.212998309291835164e-01 -5.707099875762430274e-01
-2.530233553381190659e-02 -1.109155050923038149e-01 -5.924317385793823609e-01 9.867795945375945621e-01 -7.877723550457779722e-02 1.416339612186179597e-01
-3.391671387708118830e-03 -2.082191446748739988e-02 -6.388710242197984668e-01 -9.858409227875748471e-01 8.226217141332489713e-02 -1.461184797063930785e-01
-1.672424113682575639e-02 8.635687457365144593e-02 -4.926096813245691708e-01 -9.803913262537812257e-01 8.512621857283864113e-02 -1.777255589886876375e-01
1.771063511309771453e-03 1.381363005187845883e-01 -6.364266886879813567e-01 9.858409227875748471e-01 -8.226217141332489713e-02 1.461184797063930785e-01
-2.275736576093166652e-02 6.537179897246971072e-02 -5.103458341649527163e-01 9.868853349649582274e-01 -8.040811616395368566e-02 1.399709630104267188e-01
2.587117887970159791e-02 5.260202104077534024e-02 -7.964951438585325949e-01 -9.867357365684304993e-01 7.975025799672892657e-02 -1.413947754629285847e-01
4.437376737178445711e-03 -5.701807711004785312e-02 -7.642844626884689463e-01 9.858409227875748471e-01 -8.226217141332489713e-02 1.461184797063930785e-01
1.905604195811617984e-03 -1.511979905651298639e-01 -7.480104718906354089e-01 -9.858409227875748471e-01 8.226217141332489713e-02 -1.461184797063930785e-01
1.394280610535379369e-02 1.191088683246430005e-03 -7.434313774344809556e-01 -9.858409227875748471e-01 8.226217141332489713e-02 -1.461184797063930785e-01
9.327737706023672042e-04 9.836892901076087214e-02 -6.009450712340522749e-01 -9.858409227875748471e-01 8.226217141332489713e-02 -1.461184797063930785e-01
-2.625548551759473992e-02 -1.570439967845038420e-01 -6.372715058249602826e-01 9.778668333975741866e-01 -1.829085528061871191e-01 1.015919162696873740e-01
2.346449738468766102e-02 7.351137084785382136e-02 -8.147486660276296311e-01 9.763380141378353860e-01 -1.048606072531328287e-01 1.891251839282444835e-01
1.654162067043285153e-02 1.254724407791230623e-01 -6.909969683440321253e-01 -9.858409227875748471e-01 8.226217141332489713e-02 -1.461184797063930785e-01
3.572344466259351307e-03 -1.319224153108325137e-01 -7.484039203491841263e-01 -9.858409227875748471e-01 8.226217141332489713e-02 -1.461184797063930785e-01
7.387337553732382760e-03 4.654020096322646072e-02 -6.736717848454045754e-01 -9.858409227875748471e-01 8.226217141332489713e-02 -1.461184797063930785e-01
3.561400134050883397e-03 9.997809423262797590e-02 -6.699882479408164615e-01 9.858409227875748471e-01 -8.226217141332489713e-02 1.461184797063930785e-01
1.182163671471320177e-02 1.893700601260992489e-01 -6.625149263643500541e-01 1.175825897825089061e-01 7.070912955170409742e-01 6.972777311689158930e-01
-7.624731433147053858e-03 1.666387416863978899e-01 -5.083007210007961518e-01 -9.830555244530029269e-01 7.146230775110914979e-02 -1.688045450019550753e-01
1.508913011906058352e-02 -3.129121168408659313e-03 -7.535976683090475081e-01 -9.858409227875748471e-01 8.226217141332489713e-02 -1.461184797063930785e-01
-1.246399355304366428e-02 1.724957875258997242e-01 -5.193435625451306992e-01 9.862324896759042669e-01 -8.559874126071105593e-02 1.414861541008491930e-01
-1.606506333075383500e-02 1.604923389789774946e-01 -4.988646032214810178e-01 9.915057504510228492e-01 -1.015927033264768242e-01 8.121126432566166953e-02
2.316787901578920561e-02 1.877658302263556303e-02 -7.967297042718317623e-01 -9.867638493955787071e-01 7.985609794243851700e-02 -1.411386167830313565e-01
-3.809354118365563917e-03 -1.837123499998745690e-01 -7.792971641173306319e-01 9.859356013881859226e-01 -7.758329603517845341e-02 1.480264236264390298e-01
-2.098853588815015672e-02 -2.834005622970469165e-02 -5.760675393857226378e-01 9.865736233042760039e-01 -8.029323803692882400e-02 1.422163201809754918e-01
-1.236983636203901199e-02 1.309523214539878577e-01 -5.448454886436926436e-01 9.868043405136066593e-01 -8.039839639794431336e-02 1.405464030138972031e-01
-2.550194176234789681e-02 4.801436096967994643e-02 -4.883499629473370129e-01 1.569446321376481712e-01 1.458354361709076619e-01 -9.767806345336804696e-01
1.075470075397728584e-02 4.197756124975464409e-02 -7.511737347538098852e-01 9.858409227875748471e-01 -8.226217141332489713e-02 1.461184797063930785e-01
1.592434739843209476e-02 -6.484887097741218187e-02 -8.442593711525206990e-01 9.835015944288024725e-01 -8.410361700498782123e-02 1.601599056027494805e-01
-4.691442539654458802e-03 -1.424639552395759283e-02 -6.753398572651538867e-01 4.072770257606910249e-01 4.480496530742467676e-01 -7.958498179101209935e-01
-1.644069984356442277e-02 -5.797097578426650688e-02 -6.088184704607239039e-01 1.205269288083420098e-01 -9.724490203475188999e-01 -1.995398763585353452e-01
-1.110186536050106372e-02 4.435650843558441858e-02 -5.504279604046535823e-01 -9.850305668601468945e-01 8.389971331901205365e-02 -1.505842636405455570e-01
1.714693975507886742e-02 2.144350107207171063e-01 -6.469340519469691797e-01 -9.876341319354633441e-01 6.784289063975115774e-02 -1.413370568029715668e-01
2.175329572435982101e-02 1.441197920003800814e-01 -7.279233671469187428e-01 -1.250821514283515512e-01 -7.146238064502532517e-01 -6.882348949658145809e-01
7.304003348002048937e-03 -3.713670015816105119e-01 -8.882312709512604210e-01 -9.960381026846392150e-01 4.846371068881874522e-02 -7.456116111391082601e-02
1.897681935158132202e-02 -3.904207038112073036e-02 -8.003548543254238590e-01 -9.866793506488312770e-01 8.038179328492539577e-02 -1.414306413458562284e-01
4.483423584985569803e-03 -4.496707154869129114e-02 -7.578106270712466896e-01 9.858409227875748471e-01 -8.226217141332489713e-02 1.461184797063930785e-01
-2.386439273784366974e-02 5.303748234321668809e-02 -5.096716163538318467e-01 9.867815098177062927e-01 -8.094506378034890814e-02 1.403928364678308505e-01
1.872203925763527357e-02 1.127818780775029089e-01 -7.634852903781060851e-01 9.849274979752049575e-01 -8.520214786250145111e-02 1.505271328761655925e-01
1.250667670568792432e-02 -1.346132221220706915e-01 -8.105750162870742903e-01 -9.862796525971754269e-01 8.585486890021531980e-02 -1.410013771525712722e-01
1.306915446646813792e-02 -1.463298680035978738e-01 -8.220692959925457455e-01 -9.870084169473279934e-01 9.269165523239704385e-02 -1.312350636278574179e-01
