-1.046564297462007111e-03 1.682873218520311853e-01 -6.756154670446419264e-01 8.890840863425979457e-01 1.913954213264411341e-01 -4.158091871371070170e-01
3.494586271713936293e-02 1.158663733838210391e-01 -6.411756289150165600e-01 -8.890511559480174242e-01 -1.978888860935152927e-01 4.128292999148215903e-01
-3.521549152482652406e-02 -3.309602322001539004e-02 -8.617516507655755831e-01 -8.869283779236118992e-01 -1.958121444238582198e-01 4.183487259809938741e-01
1.974604980067118029e-02 -2.047263960136630201e-01 -8.065135178796304372e-01 8.836085298917530917e-01 2.066091299588942998e-01 -4.201769071714482329e-01
2.272955461707231936e-02 1.297679575085795844e-01 -6.528672346160100393e-01 -2.650970354086522596e-01 9.192722232466606913e-01 2.909675950766434371e-01
6.580835439926462083e-02 -1.283089168723535768e-02 -6.348584659176337297e-01 -8.929089978938706818e-01 -1.917862304600392864e-01 4.073469814373150699e-01
-5.458742617283963983e-02 -7.394692622555450179e-02 -9.213811514632535005e-01 -8.488165381743576487e-01 -1.910616820470625310e-01 4.929563045291605605e-01
-1.327454390088858181e-03 -9.727365586083235732e-03 -7.763350816194014570e-01 2.225050231317966531e-01 -4.140718065803715708e-01 8.826301907800268021e-01
2.296076712839315720e-02 -4.530502437448134800e-02 -7.242300599132164285e-01 8.891213423883024269e-01 1.943817313403966851e-01 -4.143416235797858782e-01
5.641958289207191918e-02 -1.195864324144014362e-01 -7.052793704259454621e-01 -8.918586117422533377e-01 -1.909034165563248397e-01 4.100537796537217505e-01
1.370813002801351578e-02 1.493569766156425671e-01 -6.711758447238219683e-01 -8.891213423883024269e-01 -1.943817313403966851e-01 4.143416235797858782e-01
-3.812432720687603666e-02 -1.432208734258739458e-01 -9.019419219441933144e-01 8.950306119481312717e-01 2.010826960433280131e-01 -3.981029427518719688e-01
-1.231725994397465072e-02 -1.960847062295180410e-01 -8.882116909295164620e-01 -8.860943729072420227e-01 -1.869235748173492251e-01 4.241418860235619537e-01
4.962523456729942689e-02 -6.339076199127742506e-02 -6.937490354494437739e-01 -8.911592503104467378e-01 -1.926334218196974479e-01 4.107645985040057068e-01
-3.642705036043293598e-02 -1.205608231188627644e-01 -9.050708904252338094e-01 -8.843600871814819575e-01 -1.948434437346965309e-01 4.241972048870264467e-01
-6.758306949948895102e-03 -1.397002312073929442e-01 -8.507006189672442487e-01 -8.891213423883024269e-01 -1.943817313403966851e-01 4.143416235797858782e-01
-3.121303155382256639e-02 -1.582575690537519342e-01 -9.104077026635507552e-01 -8.643133997810991120e-01 -1.569830207434576852e-01 4.778270379092178222e-01
1.878038361097816161e-02 1.066910061124618503e-01 -6.803075275811166778e-01 -8.891213423883024269e-01 -1.943817313403966851e-01 4.143416235797858782e-01
6.099834642735162821e-02 4.754571727342375709e-02 -6.005080915577145628e-01 8.772289783467157598e-01 1.982794080651757718e-01 -4.372123007031032405e-01
6.190882409337394171e-02 6.953555339404812741e-02 -6.044160111199071705e-01 -8.931889124677646619e-01 -1.937173059197713487e-01 4.058166729347596480e-01
2.205076646877371718e-02 -2.008905892938357696e-01 -8.171983600921034485e-01 -8.906012980491859743e-01 -1.865378078001678763e-01 4.147685790585066701e-01
6.150444849215155191e-02 -1.120105303861380630e-01 -6.739425837040597944e-01 8.761596855523274829e-01 2.083827571180127125e-01 -4.346502409394732425e-01
-6.224207838750522642e-04 6.134147120600070419e-02 -7.248049122294610846e-01 8.891213423883024269e-01 1.943817313403966851e-01 -4.143416235797858782e-01
3.589155345199439989e-02 8.606072028600131318e-02 -6.532676286564397250e-01 -8.891213423883024269e-01 -1.943817313403966851e-01 4.143416235797858782e-01
-1.281564587813279442e-02 2.580055716991359535e-02 -7.676433818822355759e-01 8.891213423883024269e-01 1.943817313403966851e-01 -4.143416235797858782e-01
-2.949408392407528237e-02 -1.747347293920292199e-01 -8.989879492956113216e-01 8.982569239973101638e-01 2.113339394721162057e-01 -3.853212484642992153e-01
1.984847749283024168e-02 -1.421442135531718609e-01 -7.682764678331448494e-01 8.981702447288839597e-01 8.250675976618353225e-02 -4.318365964998123752e-01
-3.152474670449429556e-02 -4.335166998791602222e-02 -8.586456812815265183e-01 -8.891213423883024269e-01 -1.943817313403966851e-01 4.143416235797858782e-01
2.426738096469725076e-02 7.958585580761699807e-02 -6.628356879291481540e-01 8.891213423883024269e-01 1.943817313403966851e-01 -4.143416235797858782e-01
5.167548045081164082e-02 -2.645730447150824657e-02 -6.719762815833073555e-01 -8.911516685606230004e-01 -1.927730633294770513e-01 4.107155337653872751e-01
-1.641338470685856782e-02 -6.187946203746834406e-02 -8.164973206672475614e-01 8.891213423883024269e-01 1.943817313403966851e-01 -4.143416235797858782e-01
-6.261849808785056176e-03 2.414758802087918141e-02 -7.576684606164569846e-01 6.596300639927756837e-01 -3.192146262629625975e-01 6.804338329747309233e-01
-1.110562953918588745e-02 -5.921480544886983943e-02 -8.038575117201735010e-01 8.891213423883024269e-01 1.943817313403966851e-01 -4.143416235797858782e-01
-1.360675258423484860e-03 2.337366467146563542e-01 -6.467517425205391302e-01 8.877623472350021361e-01 1.770952482924976756e-01 -4.248709072930482722e-01
1.923620273531428861e-03 1.316175953357182626e-01 -7.098098626397719713e-01 -5.196604075607221818e-01 -3.494200129397904142e-01 7.796529454641858425e-01
-5.980654317755988714e-02 4.523864421408684000e-02 -8.843842765516921611e-01 -5.637239676693072132e-01 3.470794220537110064e-01 7.495006091138525228e-01
-2.217591930719068141e-02 1.744944742439232810e-01 -7.399406072335354967e-01 -6.007305696539356754e-01 3.691608473499951582e-01 7.091142725027409499e-01
3.436071912786049093e-02 5.199491523520411579e-02 -6.541377194602380207e-01 8.870247783824525278e-01 1.956247575331560851e-01 -4.182319891826246638e-01
-1.993443835481651868e-03 -3.369702648706107695e-02 -7.995587681512756895e-01 -8.693801242012405561e-01 -1.085869791751808561e-01 4.820654183795435865e-01
2.309581011597808958e-02 1.677538342007927133e-02 -6.948162475944562599e-01 8.891213423883024269e-01 1.943817313403966851e-01 -4.143416235797858782e-01
-1.336757077008149906e-02 -1.183596881921686467e-01 -8.548716356417936924e-01 -8.891213423883024269e-01 -1.943817313403966851e-01 4.143416235797858782e-01
-9.379305774118652100e-03 2.540398360322579374e-01 -6.653368497874843079e-01 2.200726678035972161e-01 -9.753732316782893763e-01 1.466559958737883446e-02
4.805654548570643947e-02 -6.114145693929528939e-03 -6.702770670631181815e-01 -8.911388536524542658e-01 -1.928877629028070695e-01 4.106894866359988572e-01
2.817816854239451468e-02 5.329655566356131247e-02 -6.851902969033236701e-01 -8.891213423883024269e-01 -1.943817313403966851e-01 4.143416235797858782e-01
-5.999432781468606174e-02 -5.979026448717294356e-02 -9.155848831033246427e-01 2.958501888658497392e-01 7.328229115334350396e-01 6.127342377243988336e-01
-5.414261362542376749e-02 -1.071859321747258009e-01 -9.212866868167742807e-01 9.676492960989339087e-01 2.344734885864626639e-01 -9.315053896425842805e-02
3.867354685027699079e-02 1.358937391903291825e-01 -6.061913548060801071e-01 8.840856400187895314e-01 1.908903439223748055e-01 -4.265600282606946680e-01
-5.631086406594118174e-03 9.058454775079471943e-02 -7.218339137190649124e-01 8.891213423883024269e-01 1.943817313403966851e-01 -4.143416235797858782e-01
2.329712539235487614e-02 1.333856761423334591e-01 -6.622832260177257124e-01 -7.383046201594594127e-01 4.980549470895874742e-01 4.548049664755043908e-01
-4.130439491968578708e-02 1.481934558516973255e-01 -7.895277549257185834e-01 -8.869378774579139701e-01 -1.971197468950353915e-01 4.177140252786438746e-01
2.031254734310000004e-02 -1.271207910778157368e-01 -7.867087674336310510e-01 -8.891213423883024269e-01 -1.943817313403966851e-01 4.143416235797858782e-01
5.430938822718307801e-02 5.073553676645116417e-02 -6.124917326721495137e-01 8.866179721032928507e-01 1.954042144093359190e-01 -4.191965702799997362e-01
-2.602357750969194056e-02 4.338066376085995476e-03 -8.060546085514327386e-01 8.891213423883024269e-01 1.943817313403966851e-01 -4.143416235797858782e-01
4.326735455243307417e-03 -4.080380486280089924e-02 -7.686490818812710124e-01 2.102648757275705493e-01 -8.993419754709955916e-01 -3.833701777540816091e-01
-1.106497417293352513e-02 -6.771029031491154759e-02 -8.077557913307633619e-01 8.891213423883024269e-01 1.943817313403966851e-01 -4.143416235797858782e-01
6.286087478255061520e-03 -3.106033918160543972e-01 -8.997911602282403498e-01 -6.641573003067303693e-01 3.175167806295943196e-01 -6.768147268402878725e-01
-1.476733989712860316e-02 1.697880522271532633e-01 -7.042820291229540119e-01 8.891213423883024269e-01 1.943817313403966851e-01 -4.143416235797858782e-01
4.434318186239684725e-03 1.216505502695632845e-01 -7.125839101285152966e-01 -8.503600376258915183e-01 -2.234876116946239166e-01 4.763833475552283203e-01
-6.580618175008000337e-02 1.478520137903235887e-02 -9.039378102013858607e-01 -8.631404882774397214e-01 -2.065772536148157701e-01 4.607757977423978524e-01
3.467916967170694281e-02 1.399473635317149967e-01 -6.302865372716598413e-01 -8.891213423883024269e-01 -1.943817313403966851e-01 4.143416235797858782e-01
6.818508023020302712e-03 -2.107064712984859593e-03 -7.570169732293452469e-01 -8.891213423883024269e-01 -1.943817313403966851e-01 4.143416235797858782e-01
-2.925891628958079277e-02 -8.236115110607658552e-02 -8.536707582122862181e-01 8.891213423883024269e-01 1.943817313403966851e-01 -4.143416235797858782e-01
-1.116412682510672071e-02 -4.947364892608058229e-02 -7.994131315759253065e-01 8.891213423883024269e-01 1.943817313403966851e-01 -4.143416235797858782e-01
6.983490343131500133e-02 -5.873032605444195031e-02 -6.563497696382880608e-01 -8.779202913160952804e-01 -2.979340901723446788e-01 3.748216109146317865e-01
2.893588215042359330e-02 -9.266340081145602037e-02 -7.336256907029565788e-01 8.891213423883024269e-01 1.943817313403966851e-01 -4.143416235797858782e-01
1.028740654155279119e-04 1.979375310401030041e-01 -6.595248014120007607e-01 8.887706417237508649e-01 1.907519954525432049e-01 -4.167738267223905502e-01
9.283018877525842441e-03 3.614150968104086481e-02 -7.153713302880962965e-01 8.891213423883024269e-01 1.943817313403966851e-01 -4.143416235797858782e-01
8.934549904622871366e-03 7.969529663093519178e-02 -6.956865367539210032e-01 8.891213423883024269e-01 1.943817313403966851e-01 -4.143416235797858782e-01
4.838015758387868154e-02 1.083773691748125684e-01 -6.156018418707187578e-01 -8.924533607208099406e-01 -1.933580286781151347e-01 4.076023450421318306e-01
-6.671053332449525253e-02 2.421135775334133308e-02 -9.013581824464161896e-01 -8.646147989306846027e-01 -2.094466490801204228e-01 4.566983147102263163e-01
-3.264976207477190279e-02 8.992218638176333045e-02 -7.801230904632859842e-01 8.891213423883024269e-01 1.943817313403966851e-01 -4.143416235797858782e-01
8.560561735005993086e-03 1.557367939214105157e-01 -6.879410735791987586e-01 -9.115178852882075411e-01 -1.829809421863624330e-01 3.683111722393241361e-01
4.090491334418877578e-02 -4.129324004979791768e-02 -6.839505020395956203e-01 8.870962783063410795e-01 1.960065790511174855e-01 -4.179014405140484834e-01
3.235108795831585088e-02 1.517136514876875619e-01 -6.297830712623653238e-01 -8.917828101639626581e-01 -1.931737241990543474e-01 4.091544106753994270e-01
2.081996300868687449e-02 -1.615474318596063774e-01 -8.017706284355372581e-01 -8.891213423883024269e-01 -1.943817313403966851e-01 4.143416235797858782e-01
4.168929712434038017e-03 -7.146957009441297359e-02 -7.952429191856802415e-01 -8.891213423883024269e-01 -1.943817313403966851e-01 4.143416235797858782e-01
1.917290393331338300e-02 1.483749712146628097e-01 -6.599091880338756599e-01 -8.892923576381697170e-01 -1.977761571940968854e-01 4.123635462694071330e-01
-4.574018249311043172e-02 -5.206205406552938397e-02 -8.749557497924650429e-01 8.913408689518059758e-01 1.933430324782259013e-01 -4.100364948737652560e-01
-4.814735134010488665e-02 1.199955121370533812e-01 -7.994552694709956553e-01 8.912914405377782012e-01 1.918888119703426043e-01 -4.108263037643800630e-01
2.572166560345085645e-02 -2.140858398304311683e-01 -8.151766430465211544e-01 -8.925534242623486270e-01 -1.794231929615683341e-01 4.137096840358368000e-01
6.662035439879346668e-03 1.491233606324492422e-01 -6.679919834681661284e-01 8.891213423883024269e-01 1.943817313403966851e-01 -4.143416235797858782e-01
1.512844049297467665e-02 1.304940612543538381e-01 -6.769772840725225560e-01 -8.891213423883024269e-01 -1.943817313403966851e-01 4.143416235797858782e-01
-2.761642620024729738e-02 5.735191772574080998e-02 -8.030154776200025823e-01 -8.891213423883024269e-01 -1.943817313403966851e-01 4.143416235797858782e-01
3.370602026712835736e-02 -1.063362811251561957e-01 -7.298040291372313026e-01 8.891213423883024269e-01 1.943817313403966851e-01 -4.143416235797858782e-01
3.584081218641423788e-02 -5.118995147211574670e-02 -7.177654652851953587e-01 -8.891213423883024269e-01 -1.943817313403966851e-01 4.143416235797858782e-01
3.039164892326094020e-02 1.538623210972796772e-02 -6.798120578061642716e-01 8.891213423883024269e-01 1.943817313403966851e-01 -4.143416235797858782e-01
-3.301975024330489755e-02 -4.361094979508504943e-02 -8.619753945727040012e-01 -8.891213423883024269e-01 -1.943817313403966851e-01 4.143416235797858782e-01
1.339963235112466046e-02 -9.319106121201065074e-02 -7.672119345835994864e-01 8.891213423883024269e-01 1.943817313403966851e-01 -4.143416235797858782e-01
-1.581137441255666548e-02 3.793425334651091829e-02 -7.683794829356549450e-01 8.891213423883024269e-01 1.943817313403966851e-01 -4.143416235797858782e-01
7.199558539884519381e-02 1.390268794271618154e-02 -6.083505449953809929e-01 -9.100954645394052633e-01 -1.828972933572000359e-01 3.718532311375211674e-01
7.449844334389200962e-02 -8.729897704029035421e-02 -6.501510055571341207e-01 -9.109988094502632361e-01 -1.710679129401904419e-01 3.752558305243108294e-01
-1.925462288670612074e-02 1.715772232937473885e-01 -7.314621332391652020e-01 -8.864561218613593585e-01 -1.970765644738941280e-01 4.187557423483118657e-01
-4.066370848253571257e-02 2.012831826802143342e-01 -7.455843003031433769e-01 8.893807479543103245e-01 1.895147988530043459e-01 -4.160360875981034545e-01
-3.649023794472823490e-02 4.719928584006194416e-02 -8.268145261418309300e-01 -8.870869920313793067e-01 -1.960883936350425460e-01 4.178827711815222279e-01
-6.728431137926496608e-02 9.229673658539789410e-03 -8.932050338353961783e-01 9.011141173858455700e-01 1.880691464599543450e-01 -3.906703771694916005e-01
6.938475561715006477e-03 -3.617445749129258314e-02 -7.820511326084257364e-01 -9.119548553113643319e-01 -1.742581349797956980e-01 3.714464217991498840e-01
5.515366046677823431e-02 1.229052298774659380e-01 -5.930263983661701044e-01 -9.176068999133583093e-01 -2.059537070647169954e-01 3.399715396583908866e-01
-5.847259055475512689e-03 1.696325431602287159e-01 -7.036271199488998151e-01 -8.891213423883024269e-01 -1.943817313403966851e-01 4.143416235797858782e-01
4.897451541001790476e-02 -1.121428740216907083e-01 -7.001228336876084146e-01 8.864152762208188374e-01 1.972288740989890654e-01 -4.187704971747824301e-01
5.598010715519289443e-02 -8.137218890966253781e-02 -6.708047998208079843e-01 8.865786475044333814e-01 1.968448497279352005e-01 -4.186053116299365828e-01
6.953288976393064667e-03 -1.104765362903238068e-01 -8.065595775868946715e-01 -6.641573003067303693e-01 3.175167806295943196e-01 -6.768147268402878725e-01
-3.122956477338920470e-02 -1.537156710219267919e-01 -8.918101064595068683e-01 8.926066346913629213e-01 2.061901483721438888e-01 -4.009227087846644610e-01
3.500368739667220758e-02 -4.390232631935891972e-02 -6.977295210176938101e-01 8.891213423883024269e-01 1.943817313403966851e-01 -4.143416235797858782e-01
-5.396486604537632792e-02 1.244989881794908299e-01 -8.030224077019237905e-01 5.843395174892267452e-01 -3.880916420652417154e-01 -7.126936267847230333e-01
-1.599877214362531441e-02 -1.747786423658349297e-01 -8.688357774021614466e-01 8.902020419713895238e-01 1.982637285356382839e-01 -4.101607226650484939e-01
2.796941625720805041e-02 -1.109980635374392538e-01 -7.627144383707280539e-01 -8.891213423883024269e-01 -1.943817313403966851e-01 4.143416235797858782e-01
-5.531939727447747479e-02 -7.700214702469411997e-03 -8.924540050103887401e-01 -8.865000368289909227e-01 -1.957716834652814264e-01 4.192745313698026388e-01
6.009706349412741871e-02 7.967857098704965273e-04 -6.236746996729183312e-01 8.773873934512118611e-01 2.005610862340838629e-01 -4.358515945840883976e-01
-5.747415322689922168e-03 1.682295095248541317e-02 -7.487905891248786139e-01 8.502973139518079648e-01 2.235306570320226560e-01 -4.764751024483571684e-01
-3.979803215673646116e-02 -1.034664223003309153e-01 -9.042525788275477261e-01 -8.853793561846413640e-01 -1.951834478088244895e-01 4.219085414441497983e-01
5.550062468904770618e-03 -2.297956174695223452e-01 -8.502972529314652972e-01 8.714643034133621180e-01 2.642773616942699078e-01 -4.131675737181941255e-01
4.026825087794663055e-02 4.573553050833836786e-02 -6.627937416279550131e-01 -8.891213423883024269e-01 -1.943817313403966851e-01 4.143416235797858782e-01
-3.120683527098531973e-02 -1.432086147424660172e-01 -9.043540749781671106e-01 -8.867248717667802760e-01 -1.873318967390254774e-01 4.226414109553701115e-01
4.649648531000204893e-02 9.337371488941928477e-02 -6.268243199863610116e-01 -8.915128415924221672e-01 -1.930899931617358345e-01 4.097817807279935942e-01
-1.465193822187882931e-02 -2.657286641976389432e-02 -8.145673990719554114e-01 -8.891213423883024269e-01 -1.943817313403966851e-01 4.143416235797858782e-01
5.317076003282799820e-03 -1.518732047549671282e-01 -8.393274436536091176e-01 -8.503600376258915183e-01 -2.234876116946239166e-01 4.763833475552283203e-01
-3.888713142122005723e-02 1.961065597401229765e-01 -7.641377040548525956e-01 -5.708858694554204138e-01 2.241059850037840084e-01 7.898517782100719087e-01
5.470958403484531274e-02 -8.750689824447929061e-03 -6.394250432977786058e-01 8.866429801471674699e-01 1.960501494325758154e-01 -4.188419327899421396e-01
-4.613836266323568386e-02 1.686739354560738424e-01 -7.723854559462959291e-01 8.914927062710072958e-01 1.911673376505458877e-01 -4.107259471730482225e-01
-8.164438515831630439e-03 2.202526659992189439e-01 -6.614562518706003091e-01 9.975337303996716365e-01 -2.981047353231397121e-02 6.354362582269199033e-02
6.663597507352611582e-02 4.155836607833415797e-02 -6.127978943963504621e-01 -9.625590836354066537e-01 -2.282708544371505610e-01 1.461931172302563531e-01
-6.226047592364512828e-02 7.960674295962062719e-02 -8.489965258968120709e-01 8.915400792089153148e-01 1.920874415329932028e-01 -4.101934933290264373e-01
-7.192346744627842181e-02 -4.045395667679808384e-03 -9.106409728619525579e-01 9.124527321970352656e-01 1.816069771505798291e-01 -3.666727660413228174e-01
1.457251948661606768e-02 -1.306680281372138708e-01 -7.822767950192967001e-01 8.891213423883024269e-01 1.943817313403966851e-01 -4.143416235797858782e-01
-3.206770689304339148e-03 3.633750544699698715e-02 -7.359113286104802532e-01 5.218318030906491378e-01 3.662464861617021894e-01 -7.704252596179387291e-01
-6.165409930630691426e-02 -3.731121253473681284e-03 -8.868104212945827625e-01 8.917249522533828854e-01 1.929789472438560027e-01 -4.093723677159404883e-01
-1.675215468369578879e-03 1.614492120054753302e-02 -7.666807337168205505e-01 -8.891213423883024269e-01 -1.943817313403966851e-01 4.143416235797858782e-01
-2.728234876969124010e-03 -1.247706874717876835e-01 -8.166352418782814038e-01 8.891213423883024269e-01 1.943817313403966851e-01 -4.143416235797858782e-01
2.343557191844599166e-02 -5.749143054636142447e-02 -7.340858791461886135e-01 1.934306215178220253e-02 9.939290506205679110e-01 1.083092252723129034e-01
6.145213944993843658e-02 8.583210739762625607e-02 -5.976333618098101930e-01 -8.935785100900843769e-01 -1.945901571018121556e-01 4.045393887673698341e-01
1.965755925891728845e-02 -1.782866244165568770e-01 -8.120804475743592654e-01 -8.900756999623724575e-01 -1.885278259234054454e-01 4.149969966024901202e-01
7.990512509170162809e-04 -3.124987468133775398e-02 -7.874989266423852996e-01 2.455802438764535245e-01 -6.172344930283106823e-01 7.474703502037161051e-01
-7.243368419131462899e-02 5.735648872879515331e-02 -8.822224380226743046e-01 9.004450590714142555e-01 1.853924043430409396e-01 -3.934823401447437030e-01
9.793886727030626585e-03 3.252431991212914597e-02 -7.343854520981779599e-01 -8.891213423883024269e-01 -1.943817313403966851e-01 4.143416235797858782e-01
-6.116538963936641801e-03 -1.158342397235182092e-01 -8.471327985326324583e-01 -8.838708396972583259e-01 -1.641533328468080810e-01 4.379794767430872371e-01
-3.362081460236424763e-02 1.117662588835598575e-01 -7.861503769931069696e-01 -2.389389520227845343e-01 -8.123168944185797935e-01 -5.320239094706247229e-01
5.925305369836792596e-02 -1.662312329398285549e-01 -7.206625396050746479e-01 -8.944741449825170942e-01 -1.850303541505313731e-01 4.070378016852047032e-01
-9.462214730753730138e-03 -1.670035039896294038e-01 -8.509087777596819890e-01 8.897753914796036057e-01 1.984028159291612581e-01 -4.110183394310983895e-01
6.531891551915513898e-03 1.179390658285405236e-01 -7.105808557029352768e-01 -8.503600376258914073e-01 -2.234876116946238889e-01 4.763833475552282648e-01
-4.303225434388140147e-02 -9.234590307002576992e-02 -8.880671994327364871e-01 8.917919889748878726e-01 1.937922649115805251e-01 -4.088417865882269520e-01
-2.342145347779345937e-02 9.481764292995736865e-02 -7.764371864643976329e-01 -8.891213423883024269e-01 -1.943817313403966851e-01 4.143416235797858782e-01
1.867959799578470387e-02 -7.544466620556666836e-02 -7.475564023737654162e-01 8.891213423883024269e-01 1.943817313403966851e-01 -4.143416235797858782e-01
-7.591553865850170007e-04 5.469835176550342376e-02 -7.282148392834956185e-01 8.891213423883024269e-01 1.943817313403966851e-01 -4.143416235797858782e-01
-5.422458097019029061e-02 1.637128579668279960e-01 -8.095338746783977690e-01 -8.845383350251430077e-01 -2.007223869510565695e-01 4.210729832791674232e-01
7.662293024160609853e-03 -3.224748690358141823e-01 -9.144263929252092193e-01 -9.224172284266917154e-01 -1.640242305767186937e-01 3.496319614756863148e-01
6.584003999462115231e-02 4.144016112819220998e-02 -6.091402584060469083e-01 -8.929638624625605425e-01 -1.930486818756993184e-01 4.066297416102273021e-01
-4.963725768133607497e-02 1.031620646064576458e-01 -8.284250046539264334e-01 -8.866743143795554616e-01 -1.969202004358289737e-01 4.183671771062568157e-01
4.150490500103867081e-02 -1.100492694134481142e-01 -7.332150700959959577e-01 -8.914438493422361942e-01 -1.918518037419650324e-01 4.105127877068519560e-01
-1.071999980568233944e-02 -1.479959154409684566e-03 -7.943580533416009226e-01 -8.891213423883024269e-01 -1.943817313403966851e-01 4.143416235797858782e-01
6.206465050983486515e-04 1.130282126778338336e-01 -7.163028797258135238e-01 -8.891213423883024269e-01 -1.943817313403966851e-01 4.143416235797858782e-01
7.251545974978917779e-03 8.143894797602656277e-02 -7.260207671511177407e-01 -9.223711915306974651e-01 -1.640709240155191762e-01 3.497314926153139991e-01
-2.423066324827579526e-02 1.964156040780262735e-01 -7.302850508958882436e-01 -8.864283553769159996e-01 -1.975917060049618423e-01 4.185717244413728610e-01
-5.465361277781329019e-02 1.273849136913222657e-01 -8.276440335272682303e-01 -8.866294128314022860e-01 -1.974476847354412201e-01 4.182136966849085424e-01
-8.088432073096675848e-03 -3.256083778145388852e-01 -9.150131297554845444e-01 9.224172284266917154e-01 1.640242305767186937e-01 -3.496319614756863148e-01
3.491870841377546497e-02 1.200142930504745353e-01 -6.212777181059627729e-01 8.889080165490832464e-01 1.910182439569828583e-01 -4.163587018309636290e-01
-5.425579741128405686e-02 4.593966427799823365e-02 -8.650933257162456425e-01 -8.866377875209648929e-01 -1.963015992448708946e-01 4.187351380930842693e-01
-8.496890848993595910e-03 -1.334350749888664651e-02 -7.767397255237563636e-01 8.891213423883024269e-01 1.943817313403966851e-01 -4.143416235797858782e-01
-4.999552396638619334e-02 1.217212516319027410e-01 -8.026588383003143701e-01 8.912914405377782012e-01 1.918888119703426043e-01 -4.108263037643800630e-01
-1.296307477462851042e-02 -1.500859904748244600e-01 -8.504740990390401434e-01 8.891213423883024269e-01 1.943817313403966851e-01 -4.143416235797858782e-01
3.376590245450511452e-02 -1.808541669966431675e-01 -7.649827871171306359e-01 8.878427089379011816e-01 2.015977482017612121e-01 -4.136347085361536391e-01
7.951915346646522623e-03 1.603774830894889036e-01 -6.600306074444828308e-01 8.889647592373338680e-01 1.912512994660505172e-01 -4.161305051142683564e-01
4.608508179664827509e-02 3.770015231674840595e-02 -6.539599063973352555e-01 -8.912086122009217348e-01 -1.931289045282097994e-01 4.104247017110946860e-01
1.665802802913988329e-02 -1.440398528146832335e-01 -7.840747516683521656e-01 8.891213423883024269e-01 1.943817313403966851e-01 -4.143416235797858782e-01
4.380462778386005895e-02 1.903014883232795676e-02 -6.676899084159686470e-01 -8.911527121665602236e-01 -1.930054426033468995e-01 4.106041192239432980e-01
3.602849621797727525e-02 -1.474607175909005419e-01 -7.356474310100344915e-01 8.982150688713179676e-01 7.883041415179896372e-02 -4.324297120424883678e-01
5.606425716100504886e-02 3.409900553456328420e-02 -6.244665460040683680e-01 5.935036016984298474e-02 9.887425681237197450e-01 1.373523524655519412e-01
-1.578973657189233770e-02 2.021845012079076798e-01 -6.915793051738708952e-01 8.897030624444072222e-01 1.892902963078070822e-01 -4.154487265605060764e-01
-6.270787117423687329e-02 1.396604968935719060e-01 -8.219788604405635635e-01 9.012564710869745976e-01 1.788519803859920654e-01 -3.946501519521588008e-01
3.374015448658542610e-02 1.453845724210176549e-01 -6.297507580426124907e-01 -8.891213423883024269e-01 -1.943817313403966851e-01 4.143416235797858782e-01
3.661523290504328093e-02 7.373336412362904713e-02 -6.574978915293669957e-01 -8.891213423883024269e-01 -1.943817313403966851e-01 4.143416235797858782e-01
-3.898797057541283917e-02 -1.690228839948140771e-02 -8.621723974061765716e-01 -8.870198011477163913e-01 -1.959079991341635685e-01 4.181099475581919189e-01
-3.891986536560194943e-02 1.877204001703339509e-01 -7.657938952095139085e-01 -8.857381389507417158e-01 -1.988987846995435849e-01 4.194129500303024893e-01
7.343363359120233524e-02 -4.733347984229157451e-02 -6.342686679823861251e-01 -9.103954024204322648e-01 -1.767640438130542446e-01 3.740784464074294879e-01
-4.651342024113677351e-03 7.470538277659102833e-02 -7.271809698999905924e-01 8.891213423883024269e-01 1.943817313403966851e-01 -4.143416235797858782e-01
5.893862537198339691e-02 7.979868745147164488e-02 -5.905662987473246917e-01 8.606276552095477594e-01 1.926861087034495157e-01 -4.713725730260920899e-01
-3.073431442463354230e-02 2.540620240140638655e-02 -8.246928662915391506e-01 -8.891213423883024269e-01 -1.943817313403966851e-01 4.143416235797858782e-01
2.951020880939119774e-03 7.849271367150607859e-02 -7.275039858472359677e-01 -8.891213423883024269e-01 -1.943817313403966851e-01 4.143416235797858782e-01
6.709115567739253050e-02 5.012484427686386690e-02 -6.022697139255299703e-01 -8.929638624625605425e-01 -1.930486818756993184e-01 4.066297416102273021e-01
-1.749226889824627429e-02 -1.666119814305002944e-01 -8.859655173162795938e-01 -8.871066494406353309e-01 -1.892764302174238522e-01 4.209705755541094940e-01
3.854176225195832250e-02 -1.493873244626050811e-01 -7.398196205531070158e-01 8.867001569345747125e-01 1.975622315177170685e-01 -4.180095649263790847e-01
5.581984516650655842e-02 -5.854167622760944600e-02 -6.863150676035254527e-01 -9.003943999341487148e-01 -7.889315348166014985e-02 4.278618876471048105e-01
1.722271345343976551e-02 -9.287594517329994526e-02 -7.588602855915663747e-01 8.891213423883024269e-01 1.943817313403966851e-01 -4.143416235797858782e-01
4.179932575151328739e-02 -4.490436023067961857e-02 -7.020305129738142469e-01 -8.891213423883024269e-01 -1.943817313403966851e-01 4.143416235797858782e-01
-1.001571259889082188e-02 -1.096868146702491831e-01 -8.525440179163867871e-01 -8.967900959228820579e-01 -2.804049723330206412e-01 3.422580537336495365e-01
1.172998176995326304e-02 -1.256425500388415606e-01 -8.044323046143544431e-01 -8.891213423883024269e-01 -1.943817313403966851e-01 4.143416235797858782e-01
-5.374217409992086691e-02 6.382943050702141741e-02 -8.556103313895170315e-01 -8.866642653092261517e-01 -1.964870977482243986e-01 4.185920460808230659e-01
2.962653456293706106e-02 -1.409915809258087405e-01 -7.732294635058133414e-01 -8.891213423883024269e-01 -1.943817313403966851e-01 4.143416235797858782e-01
8.973866638619926520e-03 3.038775468624329776e-02 -7.371474401399179532e-01 -8.891213423883024269e-01 -1.943817313403966851e-01 4.143416235797858782e-01
4.946543802940337603e-02 -2.136756734893141899e-02 -6.743826156357500823e-01 -8.911516685606230004e-01 -1.927730633294770513e-01 4.107155337653872751e-01
5.068143546436836705e-02 1.219267139464673133e-01 -5.891512451188443134e-01 7.495189172916731923e-01 1.457848762329960468e-01 -6.457307197924286868e-01
-3.847902428203133635e-02 3.539020914679127244e-02 -8.182147054230408667e-01 8.891213423883024269e-01 1.943817313403966851e-01 -4.143416235797858782e-01
3.753015959809089582e-03 -4.076555067078887484e-01 -9.444915740477604071e-01 -2.216183869373984927e-01 5.613100086952307333e-01 -7.973809407741230260e-01
-1.205290788097078403e-02 1.959693965598422183e-01 -6.864317982016810982e-01 8.894867701141351279e-01 1.909991699065295423e-01 -4.151296217893162277e-01
4.584253038847366929e-02 1.309961204023177284e-01 -6.103884003006031511e-01 -8.932840675106411554e-01 -1.935257516992715254e-01 4.056986050763255469e-01
5.443197848682737594e-02 -6.404350806629828530e-02 -6.764802553124322770e-01 -2.783645436494566749e-01 9.280348553766225583e-01 2.475166419554874764e-01
4.091547170573133808e-03 5.860211227802568368e-02 -7.343879267990400805e-01 -8.891213423883024269e-01 -1.943817313403966851e-01 4.143416235797858782e-01
-5.312680475839411109e-02 5.950374249194456677e-02 -8.385736897964032321e-01 8.911424799333249602e-01 1.926295199005015890e-01 -4.108028097776179610e-01
5.731615334197578265e-02 -1.172211565682973466e-01 -7.022281771947639362e-01 -8.918586117422533377e-01 -1.909034165563248397e-01 4.100537796537217505e-01
-2.968641049842533474e-03 -1.347058385034097597e-02 -7.591203395939061238e-01 5.225172725442562838e-01 3.621274831367326530e-01 -7.719063323033221735e-01
-4.390654652684838205e-02 1.157414562505363828e-02 -8.354531349767254644e-01 5.778940265991868719e-01 -3.583189669228092344e-01 -7.332434875021729415e-01
2.834289649190529364e-02 7.446986803606353567e-02 -6.749036927819417331e-01 -8.891213423883024269e-01 -1.943817313403966851e-01 4.143416235797858782e-01
4.359100317141372666e-02 -1.944367149302081710e-01 -7.511791528052694789e-01 8.700195618177868351e-01 2.364830101238460380e-01 -4.325988303002577529e-01
-2.262233762027852924e-03 -2.312819815554092717e-01 -8.717430937933140500e-01 6.885778289950392206e-02 8.382053816506149779e-01 5.409901513947473761e-01
-2.672467988702467018e-02 -1.113235519214333669e-01 -8.618198741831160081e-01 8.891213423883024269e-01 1.943817313403966851e-01 -4.143416235797858782e-01
-3.890469598448817543e-03 -1.124443403201262903e-01 -8.133465329309699232e-01 8.891213423883024269e-01 1.943817313403966851e-01 -4.143416235797858782e-01
6.408089523485642480e-02 3.791927205412878605e-03 -6.308000943768331537e-01 -8.915429087602072533e-01 -1.929031039713862972e-01 4.098043854299184274e-01
5.768353732510861365e-02 -1.046287452235867554e-01 -6.781438727784058207e-01 8.864880002242745416e-01 1.972999770598109215e-01 -4.185830198545622549e-01
3.595697255142166204e-02 1.171988417171019453e-01 -6.203527494577555368e-01 8.889080165490832464e-01 1.910182439569828583e-01 -4.163587018309636290e-01
-1.949783182008730381e-02 -1.188838946189466235e-02 -8.180770473511880247e-01 -8.891213423883024269e-01 -1.943817313403966851e-01 4.143416235797858782e-01
-1.047011766498957656e-02 2.112094057258566970e-01 -6.936437520263912804e-01 -8.882276103376096632e-01 -1.992908168679894121e-01 4.139261800684139181e-01
-4.772902951602769200e-02 -4.796989147891310423e-02 -8.952014855501985169e-01 -8.862383433426572754e-01 -1.957089434990051946e-01 4.198566519941842601e-01
5.071114750813685013e-02 -2.259430063140663910e-03 -6.448511623895055722e-01 8.866774247282718235e-01 1.960996369624641578e-01 -4.187458380216210196e-01
9.933896635341494044e-03 -1.843754033339839796e-02 -7.579929495654084137e-01 -8.891213423883024269e-01 -1.943817313403966851e-01 4.143416235797858782e-01
-5.260136706098905712e-02 2.031706009070689822e-01 -7.865004499018080075e-01 -8.612761382566777035e-01 -2.467390427495954608e-01 4.442108265820154944e-01
-1.439055570828404705e-02 2.194224039115257319e-01 -6.807064675498982753e-01 8.896131847668674597e-01 1.898044810547165895e-01 -4.154065965539077143e-01
-4.138504181696635309e-02 -4.784572485803134656e-02 -8.635004624991834410e-01 8.912841061559803046e-01 1.929533966232106490e-01 -4.103433060807759603e-01
5.946750083363446654e-02 -1.565130727351583817e-01 -7.157598362035083595e-01 -8.942127936515675835e-01 -1.869426992536498411e-01 4.067381305774250833e-01
6.150006992856874369e-03 1.213651035370457293e-01 -6.821130689695540372e-01 8.891213423883024269e-01 1.943817313403966851e-01 -4.143416235797858782e-01
-3.842419275991730554e-02 1.309549073547898179e-01 -7.915446761768284434e-01 -8.869204933222317733e-01 -1.968814771061707658e-01 4.178632820642915191e-01
-1.911138150642290034e-02 -1.154684850094441773e-01 -8.397751225050456014e-01 8.779055683872739602e-01 1.360957066748372524e-01 -4.590857998449678901e-01
-4.074876776032203274e-02 -5.368469928048583834e-02 -8.831004020204988869e-01 -8.867753141237176839e-01 -1.957038306010861206e-01 4.187237191142186843e-01
3.223615299923576066e-02 1.405584092278760189e-01 -6.400542166499866292e-01 -3.300136493608244459e-01 -9.439760151413317812e-01 -5.235202413148105569e-04
2.699607295727705220e-02 8.359852729770972379e-02 -6.550978017586706059e-01 8.891213423883024269e-01 1.943817313403966851e-01 -4.143416235797858782e-01
-4.629866119217989490e-02 -9.052783567476650750e-02 -9.119146949172143302e-01 -8.857401122918788783e-01 -1.945162252702150318e-01 4.214592407146825481e-01
-1.156754372667180564e-02 2.462334340515000553e-01 -6.785701791025412488e-01 -8.761057187237779598e-01 -2.434910632931987506e-01 4.161140128808930583e-01
-1.302067109623458816e-03 -1.374219948123857338e-01 -8.195100359057808648e-01 8.891213423883024269e-01 1.943817313403966851e-01 -4.143416235797858782e-01
-2.353509694502854341e-02 1.873147666036247549e-01 -7.149949946547189406e-01 8.892916114146898199e-01 1.907075277957387682e-01 -4.156814510048553735e-01
-4.192008055424750051e-02 -9.726216596008151194e-02 -9.058355041177428291e-01 -8.853793561846413640e-01 -1.951834478088244895e-01 4.219085414441497983e-01
-1.887442104049726413e-02 -9.545311275714531141e-02 -8.642651999668424789e-01 -8.900793746591733058e-01 -2.260682591714195111e-01 3.957926843709201892e-01
-1.357619101330616307e-02 -2.989426720928274259e-02 -8.084927315699469430e-01 -2.055821581550451235e-02 7.141412510305729100e-01 6.996996736736207367e-01
-3.997301877531642816e-02 8.863158520890077378e-05 -8.563009755622648100e-01 -8.870198011477163913e-01 -1.959079991341635685e-01 4.181099475581919189e-01
6.620079348227053163e-03 -2.696123083759920450e-02 -7.691027081085991535e-01 -8.891213423883024269e-01 -1.943817313403966851e-01 4.143416235797858782e-01
-3.527994073444477852e-02 -9.699161047133700309e-02 -8.651395548304231520e-01 8.971219498977329732e-01 2.871092033542548827e-01 -3.357685398618734385e-01
-1.214740547479298965e-02 -1.139280898153343796e-01 -8.367537037670075284e-01 2.380194173196932897e-02 -7.491041615889613148e-01 -6.620244879608963018e-01
-2.750118476728343614e-02 7.988993927593676658e-02 -7.737814046276778601e-01 8.891213423883024269e-01 1.943817313403966851e-01 -4.143416235797858782e-01
-3.250864889050932710e-02 2.031950795467591664e-01 -7.269765314467536710e-01 8.917707843168692916e-01 1.911795030592138012e-01 -4.101161614090666485e-01
5.351969767160457553e-02 -1.664018087881321273e-01 -7.167472156803430527e-01 8.722240297076875315e-01 2.221356466038206801e-01 -4.357533666059110744e-01
1.751515804847086216e-02 9.095461214599050159e-02 -6.904050082992518877e-01 -8.891213423883024269e-01 -1.943817313403966851e-01 4.143416235797858782e-01
-5.594537339409111354e-02 1.444790382973028531e-01 -8.049643555218609636e-01 8.917784768069919599e-01 1.913254085382865288e-01 -4.100313845932516132e-01
-1.416251271754494744e-02 1.574668270646930809e-02 -7.752501908480570192e-01 8.891213423883024269e-01 1.943817313403966851e-01 -4.143416235797858782e-01
-5.123600051764183073e-03 -1.802847675645327108e-01 -8.401472815380770509e-01 8.502973139518079648e-01 2.235306570320226560e-01 -4.764751024483571684e-01
3.713042641308546277e-02 -2.270115752718782770e-02 -6.832425906640539059e-01 8.870962783063410795e-01 1.960065790511174855e-01 -4.179014405140484834e-01
8.695079633005123668e-03 -1.517056603516467872e-01 -8.047584576268655976e-01 8.891213423883024269e-01 1.943817313403966851e-01 -4.143416235797858782e-01
5.347831917222683334e-02 -5.496160680275086891e-02 -6.605788433655561676e-01 2.834436583294177026e-01 -9.252524839485787300e-01 -2.521260270178806162e-01
-2.560458699381827977e-02 2.339364437909556560e-01 -7.149507074938989959e-01 -8.819873574275066686e-01 -2.105971338926795333e-01 4.216006979764530538e-01
-7.102352688493052124e-02 5.523027097263728813e-02 -8.799972185712652273e-01 9.004450590714142555e-01 1.853924043430409396e-01 -3.934823401447437030e-01
-1.291686525562825948e-02 5.764030077575103134e-02 -7.529234796767839688e-01 8.891213423883024269e-01 1.943817313403966851e-01 -4.143416235797858782e-01
2.544315884493929258e-02 -1.411787596236339926e-01 -7.908344592458951272e-01 -8.998077021224273331e-01 -7.230602255541933310e-02 4.302533420013983090e-01
3.019283388577335969e-02 1.779532010922233731e-01 -6.218518034212228152e-01 -8.898813465363547559e-01 -1.990473131449886079e-01 4.104769862201839148e-01
4.093329192262795679e-02 -3.457567439061037806e-02 -6.807395497297040743e-01 8.870962783063410795e-01 1.960065790511174855e-01 -4.179014405140484834e-01
-1.979766143212503132e-02 1.468330883579802293e-01 -7.442588041147557565e-01 -8.891213423883024269e-01 -1.943817313403966851e-01 4.143416235797858782e-01
-2.653829353534254559e-02 -2.461107097946304070e-02 -8.391535724575220900e-01 -8.891213423883024269e-01 -1.943817313403966851e-01 4.143416235797858782e-01
-4.246943167203537893e-03 1.079056057868059831e-01 -7.291512607648514832e-01 -8.891213423883024269e-01 -1.943817313403966851e-01 4.143416235797858782e-01
-4.547280861385054329e-03 -1.735415993386407174e-01 -8.520733214136668732e-01 6.596300639927755727e-01 -3.192146262629625975e-01 6.804338329747309233e-01
3.560672803850273294e-02 -1.672148440619473930e-01 -7.725281940944133119e-01 -8.898660151787419759e-01 -1.890879244934544068e-01 4.151918012685996695e-01
5.541509537810139496e-02 1.178062443070041071e-01 -5.953760391085827219e-01 -9.127296038925697408e-01 -2.065308955716585182e-01 3.525190198450030010e-01
5.281396022322731865e-02 -1.813405955082379450e-01 -7.261605332723266581e-01 8.455745303033057603e-01 2.734002732258630775e-01 -4.585368080125818979e-01
3.730904014922032958e-03 8.807914879969143407e-02 -7.289861310065139932e-01 -5.224158749933146551e-01 -3.621538714569043638e-01 7.719625813106135714e-01
5.669961144707681006e-02 -5.569101994561491409e-02 -6.747858747592495599e-01 -8.915892750207572437e-01 -1.922387200211436997e-01 4.100156572529797816e-01
-1.645239423513308180e-02 -1.165439058762900437e-01 -8.422259774895873852e-01 8.891213423883024269e-01 1.943817313403966851e-01 -4.143416235797858782e-01
4.851006378345816203e-03 1.979561899412486392e-01 -6.494021582834104134e-01 8.886188326221341471e-01 1.906259335226727358e-01 -4.171550356616652300e-01
-4.784378219294239259e-02 3.423368425451322333e-02 -8.389641701352065217e-01 8.911291456809276035e-01 1.926790442422207372e-01 -4.108085096828988925e-01
-2.028293905052361637e-02 2.333125427164488563e-01 -7.039712021272691578e-01 -8.869692406271031393e-01 -2.049543130379982148e-01 4.138590288353056756e-01
-4.698540461608199936e-02 2.362336946625196235e-02 -8.639629123638122854e-01 -5.805617193477879967e-01 3.602749424885874352e-01 7.301712510382650789e-01
2.645709082453656311e-02 -2.108483529823790281e-01 -8.121859310217321992e-01 -8.925534242623486270e-01 -1.794231929615683341e-01 4.137096840358368000e-01
-3.884983891979417597e-02 1.132615095599917299e-01 -7.824783513015006742e-01 8.891213423883024269e-01 1.943817313403966851e-01 -4.143416235797858782e-01
8.566615870677099509e-03 1.832636027047979399e-01 -6.737105905671113559e-01 -9.975253765650291538e-01 2.986085595017493044e-02 -6.365102034311544144e-02
-2.399500295354535170e-02 -1.753168575552996322e-01 -8.865946723200693880e-01 8.944439265617086798e-01 1.976688013443989866e-01 -4.011198165286046780e-01
-5.354634993191282472e-02 -6.775578525933668994e-02 -9.078299309141052431e-01 2.578587913813591426e-01 7.971209135684000913e-01 5.459918432167496505e-01
-4.572705362474334401e-02 1.755992258729944244e-01 -7.859330455363457979e-01 -8.862068049080342735e-01 -1.988426754835940780e-01 4.184484309221621623e-01
2.352578367876551405e-02 4.714202062923155551e-02 -6.714327776877951903e-01 8.724056676096961782e-01 3.033376724998183005e-01 -3.832683231952170866e-01
-5.618892547099456347e-02 8.206704976074198632e-02 -8.522292484865584550e-01 -8.866885901006958948e-01 -1.966601252356549312e-01 4.184592445239281866e-01
-2.445238315602985338e-02 -1.602859105729858291e-01 -8.801764532540149455e-01 8.903541912429860927e-01 1.984532267059215815e-01 -4.097386129547183065e-01
-4.203304437330769583e-02 1.933312235676737934e-01 -7.697035180845207547e-01 -8.856586059345405992e-01 -2.003407982121687414e-01 4.188942567114014581e-01
-2.912214064262334465e-02 2.074797711522514687e-01 -7.177496556678917283e-01 8.906113646380134918e-01 1.824392322526961208e-01 -4.165661096544726605e-01
-8.549921415114026743e-03 -1.226915749692492202e-01 -8.256821307083194172e-01 4.507844572728755272e-01 -6.817900826584353258e-01 -5.761559305169071665e-01
-4.502640756807562566e-02 2.971954149757613604e-03 -8.475227066958597177e-01 8.911747821815775294e-01 1.929304883695129869e-01 -4.105914444567967947e-01
4.943707282171231135e-03 -4.489096298033189159e-02 -7.626979944836809189e-01 8.891213423883024269e-01 1.943817313403966851e-01 -4.143416235797858782e-01
1.680692502397689025e-02 2.264186256623772486e-01 -6.265770367907613769e-01 -9.007730856912493644e-01 -2.267978602897033902e-01 3.703654663467928487e-01
-4.466687385081566028e-03 1.122958491492755395e-01 -7.091497611322061800e-01 8.891213423883024269e-01 1.943817313403966851e-01 -4.143416235797858782e-01
3.552923278558077491e-02 -1.031485704529107733e-01 -7.244142526831972573e-01 8.869383918051674254e-01 1.965390627085810971e-01 -4.179864662542269182e-01
6.934340863160655399e-02 -1.404620129940440942e-01 -6.859940789705069042e-01 -9.148470438187557008e-01 -1.521661554529673277e-01 3.740325487851921538e-01
-3.083803254480194794e-02 1.579375148272226578e-03 -8.360934055065845083e-01 -8.891213423883024269e-01 -1.943817313403966851e-01 4.143416235797858782e-01
6.389748446543275229e-02 -1.214408232951241368e-01 -6.736986811057091851e-01 8.622924186388399859e-01 2.283077725846757167e-01 -4.520258241908349794e-01
-3.368605015322199275e-02 -1.235227281350700368e-01 -9.005918655907887427e-01 -8.891213423883024269e-01 -1.943817313403966851e-01 4.143416235797858782e-01
-1.201551948837361293e-02 1.211436539532381590e-01 -7.211977327399284876e-01 8.891213423883024269e-01 1.943817313403966851e-01 -4.143416235797858782e-01
-3.576835079542359935e-02 -7.442796554137432775e-03 -8.290232369946951563e-01 7.515506267429234999e-01 6.501712721334166334e-01 1.115749628489006301e-01
9.792492352101420799e-03 4.916633736156663520e-02 -7.033484240633601781e-01 5.671238774707650920e-01 8.113448006212956587e-01 -1.417396278650210062e-01
4.481805666574463498e-02 -9.915254515399538060e-02 -7.028211336990453084e-01 8.869906812037499089e-01 1.966267748490481138e-01 -4.178342289355542194e-01
-6.139985714521506779e-03 2.535545700587626405e-01 -6.498741911630396828e-01 9.039644068965676516e-01 4.853969850399592750e-02 -4.248437933326527638e-01
-5.528894958877365873e-02 3.754253873296197613e-02 -8.535635977678579511e-01 8.911434541095815121e-01 1.927803234597565973e-01 -4.107299490959913646e-01
-5.029126695151425047e-02 -7.828251182998995084e-02 -8.888860288251854147e-01 8.952498673162726517e-01 2.828611017457325905e-01 -3.442633761952998417e-01
3.645520482077124064e-02 9.020278330041628378e-02 -6.501149262307870380e-01 -8.891213423883024269e-01 -1.943817313403966851e-01 4.143416235797858782e-01
-7.023274872761442467e-02 1.087464827937991985e-01 -8.683774117408599169e-01 -8.240085954711374727e-01 -2.503204530262675975e-01 5.082809315589239541e-01
3.300555427806772107e-02 -4.329578794984947909e-02 -7.201461267693628487e-01 -8.891213423883024269e-01 -1.943817313403966851e-01 4.143416235797858782e-01
-3.181354079946082519e-02 1.599487691115067042e-02 -8.130104844635965833e-01 8.891213423883024269e-01 1.943817313403966851e-01 -4.143416235797858782e-01
-2.957332541419673694e-02 9.407787102374738641e-02 -7.715718987234233550e-01 8.891213423883024269e-01 1.943817313403966851e-01 -4.143416235797858782e-01
-2.769118301125093190e-02 1.675118936916800694e-01 -7.513574976142001205e-01 -8.891785546068353696e-01 -1.977837689566377122e-01 4.126052335642464430e-01
-2.049852861724740793e-02 1.597158662607183477e-01 -7.130817392562449619e-01 8.936059852424952377e-01 3.032244278009538774e-01 -3.309430306315171988e-01
7.851815352726627256e-03 -3.796905590368767069e-01 -9.338436471265257888e-01 -6.736256580207620193e-01 3.177235038359272901e-01 -6.672932248766780816e-01
1.724027646880047643e-02 5.614705129446864729e-02 -6.862045423149147894e-01 7.373553433063644302e-01 -4.977309022328785248e-01 -4.566957922512516754e-01
2.542605445834992400e-02 1.005936869023785069e-01 -6.504938433715306001e-01 8.891213423883024269e-01 1.943817313403966851e-01 -4.143416235797858782e-01
-3.322939697472301196e-02 -9.709352253427064317e-02 -8.691023311409745711e-01 8.891213423883024269e-01 1.943817313403966851e-01 -4.143416235797858782e-01
1.562321521922059066e-02 -4.917303029358943700e-02 -7.417900714511772575e-01 8.891213423883024269e-01 1.943817313403966851e-01 -4.143416235797858782e-01
6.712660029915427928e-02 -6.633072963857844506e-02 -6.460122574881528301e-01 -2.632251339013552127e-01 7.264293042570402203e-01 -6.348330448230037337e-01
-2.072801557222177932e-02 1.370354022433312446e-01 -7.324382174074628438e-01 8.891213423883024269e-01 1.943817313403966851e-01 -4.143416235797858782e-01
-3.553274413576894969e-02 1.173311034797754199e-01 -7.918210894193588034e-01 -8.870151622564307337e-01 -1.965889366501662461e-01 4.178000621277538906e-01
3.253880813367509423e-02 4.869789076296551777e-02 -6.779903413302762472e-01 -8.891213423883024269e-01 -1.943817313403966851e-01 4.143416235797858782e-01
-6.247624900942761600e-02 -6.238400695938142726e-02 -9.245870785326486541e-01 4.101570427596131774e-01 6.325834435777698272e-02 9.098184336139831796e-01
-4.914734647684877028e-02 2.185586644988029292e-01 -7.570695699002347734e-01 9.216583865478920057e-01 1.040789714599226617e-01 -3.737825386582167564e-01
-1.515933399641863997e-03 -9.162011781927198451e-02 -7.984817477255787832e-01 8.891213423883024269e-01 1.943817313403966851e-01 -4.143416235797858782e-01
-7.039809014562920485e-03 -9.822444732666492373e-02 -8.318469852956633659e-01 -8.891213423883024269e-01 -1.943817313403966851e-01 4.143416235797858782e-01
