1.764150480355270584e-02 1.394189605580012092e-01 -5.673916341440875533e-01 8.047845368845719660e-01 2.710284006115990518e-01 -5.280771300230711063e-01
3.204651366207236177e-03 -9.734493256431331343e-02 -7.134824430866832934e-01 -3.806804962740374387e-01 4.222299029353886457e-01 -8.226811465104355570e-01
-1.761509618273170846e-02 8.078575128306209052e-02 -6.512150563541140302e-01 8.047845368845719660e-01 2.710284006115990518e-01 -5.280771300230711063e-01
9.964795630200348753e-03 -1.636155697090753772e-02 -6.734907021850257136e-01 -8.047845368845719660e-01 -2.710284006115990518e-01 5.280771300230711063e-01
1.860483576459638980e-02 1.866509392740993978e-01 -5.558336555026386350e-01 -8.059191001705946489e-01 -2.744273030929069157e-01 5.245798883843841853e-01
3.460196431239326992e-02 -1.801596760398508912e-01 -7.057588082215945358e-01 8.010494713028510905e-01 2.746722033005920549e-01 -5.318598737068070959e-01
8.958932794150829826e-02 -1.283400201020007680e-01 -6.084123993710770506e-01 -8.363581088331291102e-01 -2.371296610958592288e-01 4.942414770308486416e-01
-7.950571515885934692e-02 1.642488491469675238e-01 -7.161537270630148333e-01 -7.728900060470350608e-01 -3.065221849475778804e-01 5.555944462353602509e-01
-8.542516485790072056e-02 -3.158350545249832136e-02 -8.244649513094038928e-01 2.979623617003171465e-01 -1.080660938635445018e-01 9.484409050473544545e-01
5.255837883103913095e-03 2.130267206949355840e-01 -5.625194655985409353e-01 -8.050411050992708484e-01 -2.745780327332500437e-01 5.258476234051866482e-01
-1.616272062086679742e-02 -1.774894369197424840e-02 -7.210107231814142370e-01 -8.121175266331766007e-01 -3.293906028880668191e-01 4.816294775698925501e-01
1.161638678007110258e-02 1.700555305478023554e-02 -6.394008723884233580e-01 8.047845368845719660e-01 2.710284006115990518e-01 -5.280771300230711063e-01
3.894910482694705772e-02 1.282024176762532053e-01 -5.573949355259111282e-01 -7.014283900971234331e-01 4.178277594284667273e-01 5.774237412998749486e-01
4.799537950253028595e-03 -2.687815308053438379e-01 -8.179503221462791629e-01 -7.555154793512770528e-01 -2.991389942465857432e-01 5.828483701459163946e-01
7.377892815618082578e-02 -9.031266764834233957e-04 -5.680047546991379148e-01 -8.079121679840182146e-01 -2.693605441089172436e-01 5.241400825167940036e-01
2.204617662262996561e-02 1.536224018378688772e-01 -5.677842401472025236e-01 -8.050090247658463483e-01 -2.743649075148889560e-01 5.260079539036335294e-01
-5.285916153774727205e-02 -1.454130482033511307e-01 -8.228113380617796402e-01 8.507842934678560010e-01 3.166423414800302316e-01 -4.194087666828683614e-01
5.892892645350275571e-02 1.220404351073148819e-01 -5.190414420178441901e-01 -1.552467110278941687e-01 8.795396064907854417e-01 -4.497872156131783594e-01
3.045307082362606887e-02 -1.227882088704044215e-02 -6.401713564044845262e-01 -8.047845368845719660e-01 -2.710284006115990518e-01 5.280771300230711063e-01
6.682727747094835066e-03 -6.907748764873178349e-02 -6.911006711289283677e-01 8.047845368845719660e-01 2.710284006115990518e-01 -5.280771300230711063e-01
-8.739079151499741863e-04 -2.240821572338257128e-01 -7.836474170270402162e-01 7.979954435786315026e-01 3.272326704132927921e-01 -5.060850239257513872e-01
-5.382500334503913242e-02 2.196247897838491184e-02 -7.509589252839911078e-01 -8.021219331759152915e-01 -2.726125552695911058e-01 5.313029258601128513e-01
-3.990645306263267827e-02 9.220430983161007066e-02 -6.871553789610367335e-01 3.022529105843775512e-03 7.215032764097800699e-01 6.924044240527038596e-01
-3.909604108161730818e-02 1.701914685978578590e-01 -6.316317999604686984e-01 8.135412491160490811e-01 3.746413821243629316e-01 -4.447409029835752703e-01
5.734515090065423620e-02 6.098884564848528617e-02 -5.614766251475441505e-01 -8.076158796475819690e-01 -2.699492060147139494e-01 5.242938270789461175e-01
-4.248021079714658227e-02 2.152353836114698493e-01 -6.206835189844781553e-01 8.088689534108082224e-01 2.573540595286674115e-01 -5.286775049614073074e-01
-7.659892638861665048e-02 5.897277911731806793e-02 -7.526329969442762113e-01 8.079573756579603305e-01 2.689633836716981419e-01 -5.242743340692660459e-01
-6.344203645078957954e-02 8.554010517076055279e-04 -7.763004913860651612e-01 -8.020891266176126688e-01 -2.724399098088325921e-01 5.314409924960158405e-01
1.471280782506947764e-02 2.190829804007654591e-01 -5.324941138993998235e-01 7.883807563798786999e-01 2.413668899107671850e-01 -5.658602366527388794e-01
-1.224347904305029058e-03 8.192183682050711846e-02 -6.256526310166882210e-01 8.047845368845719660e-01 2.710284006115990518e-01 -5.280771300230711063e-01
-3.233173597736750671e-02 1.660008113805999108e-01 -6.355752854677900743e-01 2.777371113213774056e-01 8.127335290789438060e-01 5.121780039261175643e-01
2.415749299308021791e-02 -1.188360305227021685e-01 -7.044547950538382342e-01 -8.047845368845719660e-01 -2.710284006115990518e-01 5.280771300230711063e-01
3.083208596819568895e-02 1.684550728366364103e-01 -5.465959962669976191e-01 -8.057767007892230327e-01 -2.756179446584949289e-01 5.241742620994106483e-01
6.514600635298431475e-02 -6.290004164052662161e-02 -6.131244875442946052e-01 -8.074310410690832551e-01 -2.693257316435374582e-01 5.248988132895420211e-01
2.832516136534600146e-02 1.099989441288635045e-01 -5.662438533621185766e-01 8.013495794394516203e-01 2.726417268273970684e-01 -5.324521953422570730e-01
6.202598115023091885e-03 -1.014245348210262576e-01 -7.228816713068246802e-01 -8.047845368845719660e-01 -2.710284006115990518e-01 5.280771300230711063e-01
2.839959123610434621e-02 9.082564868110544476e-02 -5.903838739150086834e-01 -8.047845368845719660e-01 -2.710284006115990518e-01 5.280771300230711063e-01
9.212752969068635500e-03 -1.417249567602575089e-01 -7.389778669925329835e-01 -8.047845368845719660e-01 -2.710284006115990518e-01 5.280771300230711063e-01
1.426657370419501594e-02 2.334924847484866894e-01 -5.342040794449620655e-01 -2.850005655253544656e-01 -6.039630595925146173e-01 -7.443139796469474545e-01
-5.803452812239229611e-04 -1.300851404457551153e-01 -7.531188932184251783e-01 1.128216882875145675e-02 6.417430485735781120e-01 7.668367311716423051e-01
-8.167665820386577069e-02 3.138024961156719861e-02 -7.716587905102731959e-01 6.982635687600527996e-01 7.134256623225145866e-01 5.875213087332566142e-02
-6.990905000659422552e-02 6.105745975595379404e-02 -7.412569826212653812e-01 8.074092342615257767e-01 2.693217763588804381e-01 -5.249343856217782989e-01
7.405415085035754741e-02 -5.465171508232865433e-02 -5.814132666376865544e-01 8.015538852898038691e-01 2.731314633553867388e-01 -5.318933847136706472e-01
4.020982728237337128e-02 1.716443236165549613e-01 -5.174553461895873285e-01 7.958600033733975732e-01 2.534394896561191768e-01 -5.498866065957067617e-01
8.520297475596613768e-03 -4.275490401682580793e-02 -6.892381298660202882e-01 -8.047845368845719660e-01 -2.710284006115990518e-01 5.280771300230711063e-01
-7.119598657372489328e-03 1.256195858540080645e-01 -6.122096622150646761e-01 8.047845368845719660e-01 2.710284006115990518e-01 -5.280771300230711063e-01
-9.687028740068352739e-02 1.055177630449549153e-01 -7.615186445313736341e-01 8.964437024311985303e-01 1.889655733801058057e-01 -4.008499724941647635e-01
4.851436164043156085e-02 -2.080888528606664525e-02 -6.170240599975669316e-01 -8.047845368845719660e-01 -2.710284006115990518e-01 5.280771300230711063e-01
3.296339973956682878e-02 1.935264074312906812e-01 -5.300915749794643528e-01 -8.077352363725135431e-01 -2.766499430048477981e-01 5.206040692864916108e-01
-7.860650440683788348e-03 1.941491307844544767e-01 -5.924116729172224094e-01 -8.042964227990490045e-01 -2.743618497077105478e-01 5.270985104300877078e-01
-7.455317462612767038e-03 1.096807826137891767e-01 -6.149629828912499541e-01 8.490498189964600373e-01 2.412326786132699963e-01 -4.700225522580222526e-01
6.348629416601468678e-02 -1.402692721596472125e-01 -6.552830589804795602e-01 -8.079099801227888067e-01 -2.679009390116964817e-01 5.248909895346332011e-01
-6.620559662094491205e-02 -3.041450405546138741e-02 -7.825435432671593583e-01 8.075265312110083693e-01 2.698110120623556374e-01 -5.245025444744794152e-01
-8.349693329254735674e-02 1.124239906673388661e-01 -7.491872343867662654e-01 -7.997893727147761256e-01 -2.751470996208705277e-01 5.335082312980068409e-01
-5.117880398854201401e-02 -1.340177454076518504e-01 -8.261193748331214781e-01 -7.890711343642488051e-01 -2.562435183204690992e-01 5.583063712979327020e-01
-2.290972636005586538e-02 1.573536947411388331e-01 -6.135182036099987579e-01 8.017758002599254530e-01 2.739170913820518916e-01 -5.311543967306988634e-01
-1.039796209728867382e-02 -1.245553611485301637e-01 -7.600523494348478959e-01 -8.047845368845719660e-01 -2.710284006115990518e-01 5.280771300230711063e-01
7.267876370104138506e-02 -5.850758342957126240e-02 -6.043003695274439258e-01 -7.008625166708176701e-01 4.624967291014117632e-01 5.430363784281335704e-01
7.610148158121030071e-02 -5.892423892563320581e-02 -5.737524560448388211e-01 8.034487663665642598e-01 2.041724577009253472e-01 -5.592706744863438217e-01
3.145397125906550240e-02 3.725438700170699557e-02 -6.132237487623394268e-01 -8.047845368845719660e-01 -2.710284006115990518e-01 5.280771300230711063e-01
3.978231871267588066e-02 4.633098671194816297e-03 -6.028262531424870563e-01 8.047845368845719660e-01 2.710284006115990518e-01 -5.280771300230711063e-01
-6.406768834775745936e-02 -1.149457949392499317e-01 -8.297251783510235512e-01 4.640270257578330559e-01 2.675028764770683298e-01 8.444649965764322586e-01
-6.067959453548216892e-02 2.928596057757535190e-02 -7.642892477367765336e-01 -8.190107548548093419e-01 -3.552641713116651556e-01 4.505649254151847805e-01
6.023479678849469332e-02 2.372918577676521104e-02 -5.761964437064114319e-01 -8.074225589211574405e-01 -2.696912669134675089e-01 5.247241483825753061e-01
-1.580833787000880675e-02 -1.433752949162443169e-01 -7.779567856843154772e-01 -8.047845368845719660e-01 -2.710284006115990518e-01 5.280771300230711063e-01
8.405002784094120494e-02 -1.087639741820573130e-01 -5.946807216389223827e-01 7.885024245721633518e-01 2.846823336051798603e-01 -5.451787737769409059e-01
6.105588451335343392e-02 1.127477369592815165e-01 -5.290411615579473370e-01 -8.091159516097264914e-01 -2.700466799048931721e-01 5.219254424944532733e-01
1.014034698674003143e-02 1.397118477505094325e-01 -5.931206125449566269e-01 -8.047845368845719660e-01 -2.710284006115990518e-01 5.280771300230711063e-01
7.111977786633799647e-02 3.679359008303781375e-02 -5.527797246412321508e-01 -2.796872941977360250e-01 8.905006605203104053e-01 3.588643073325069044e-01
-1.020250064769206468e-02 1.623906307564985663e-01 -5.980357372093133561e-01 8.047845368845719660e-01 2.710284006115990518e-01 -5.280771300230711063e-01
3.178831043490105285e-02 1.874488132803290297e-01 -5.351589911221692475e-01 -8.062145676023306784e-01 -2.747389643061135533e-01 5.239623769678419807e-01
2.170790028819103226e-02 4.621629422482114585e-02 -6.049607828187930636e-01 4.844754343881712000e-01 8.543898127745332971e-01 -1.878872036661639044e-01
-5.211298603365049215e-02 5.393404070640662670e-03 -7.506359002378907297e-01 3.451383865412641083e-02 6.921095956001794836e-01 7.209667832983105429e-01
5.290553022183997617e-02 9.670085880825227131e-02 -5.357892461442043119e-01 8.016806306498192036e-01 2.717160555067474892e-01 -5.324270387769222124e-01
3.182097077168315191e-02 -6.902023312688851386e-02 -6.672084475221855548e-01 -8.047845368845719660e-01 -2.710284006115990518e-01 5.280771300230711063e-01
8.715301719637573441e-03 2.236212101424380760e-01 -5.562210782296841405e-01 -9.960035662710189364e-01 -5.650200807578555084e-02 6.916949514645907848e-02
3.773396957368983090e-02 -2.067855709937364284e-01 -7.152671907127834405e-01 7.938042025903072618e-01 3.014224386797943467e-01 -5.282228709647964759e-01
-4.015972454059128088e-02 -1.434642942088652506e-01 -8.008822969862232632e-01 8.084861740000354180e-01 2.700682037931613211e-01 -5.228893494332428338e-01
4.038112722778031821e-02 -1.965023653404307791e-01 -7.056139975025007560e-01 7.967843514773909064e-01 2.873822552154127186e-01 -5.315506905536451221e-01
-5.570896817145726265e-02 7.032634515126555408e-02 -7.289744785181648812e-01 -8.021487428713979240e-01 -2.728293354396971182e-01 5.311511536590777238e-01
6.397887484582613637e-02 9.116895123844005744e-02 -5.356826086132101539e-01 -8.085201743455929790e-01 -2.707395136767012378e-01 5.224894672720926669e-01
-4.356181235220780990e-02 1.400533446048460029e-01 -6.747718326183619331e-01 -8.016553475110160809e-01 -2.736373760092851160e-01 5.314802820968477226e-01
-7.891299826416177735e-03 -9.875598774814620118e-02 -7.227278782981748639e-01 8.490498189964600373e-01 2.412326786132699685e-01 -4.700225522580221971e-01
-1.819495518432516154e-02 2.035227482511858810e-01 -5.893957285415756253e-01 8.054263098248580777e-01 2.665333953647180953e-01 -5.293849342371452771e-01
-3.489374790140165744e-02 1.975566911977980067e-01 -6.178181145252434892e-01 8.054607246823827227e-01 2.670641018738415529e-01 -5.290650115859573122e-01
-4.643529507242431104e-02 1.810739649419835506e-01 -6.368203578983373525e-01 8.022281147024653558e-01 2.743656431700171594e-01 -5.302391402271535714e-01
7.240178563454474636e-02 -1.366454388732653846e-01 -6.261505796424913228e-01 7.866432993148863018e-01 2.877731065757604956e-01 -5.462407516605900515e-01
6.466818147950910423e-02 6.588563668615360358e-02 -5.338322097834644619e-01 8.013634038780769187e-01 2.716480186067817271e-01 -5.329390667908965318e-01
6.424490003591254612e-03 -9.691298184998961562e-02 -7.152823566897679175e-01 -7.748484903698242832e-01 2.886443681625975310e-01 -5.624004318095952026e-01
-7.730057489338648842e-03 2.078272513790219989e-01 -5.650869344461554311e-01 8.490498189964600373e-01 2.412326786132699685e-01 -4.700225522580221971e-01
5.991955033422600302e-02 -8.363119360509003314e-03 -5.789781005683075632e-01 8.021321500795944859e-01 2.724275757301101719e-01 -5.313823762513225635e-01
-6.115515470251109420e-02 -3.100955626219477693e-02 -7.891717949914229813e-01 -8.018686489325527189e-01 -2.720303479161351734e-01 5.319832325099250747e-01
7.146255757488528815e-02 -1.008838225003678840e-01 -6.228635158140279904e-01 -8.082440712212445311e-01 -2.682563819211809530e-01 5.241946536299900705e-01
-2.555128990363318350e-02 7.695533325088457777e-02 -6.708182064996555116e-01 2.755826269695265673e-01 8.135591259481806947e-01 5.120310188836286747e-01
-4.934556829967278596e-02 4.005767828179163624e-03 -7.389782765119314867e-01 8.047845368845719660e-01 2.710284006115990518e-01 -5.280771300230711063e-01
5.118912839477524762e-02 6.292898296140006509e-02 -5.556349385126515550e-01 8.019697527461325803e-01 2.718352201905428478e-01 -5.319305675971874869e-01
3.453069184104118339e-02 -2.097560219932244896e-01 -7.217760643331271320e-01 7.938042025903072618e-01 3.014224386797943467e-01 -5.282228709647964759e-01
-5.333241670733997186e-02 -1.025438581177655489e-01 -7.998809464595484364e-01 8.082547444658481073e-01 2.704688941160042215e-01 -5.230400035983024942e-01
1.153685698351445896e-02 1.384059194488248823e-01 -5.984398890359965417e-01 -8.411204659793782845e-01 -1.251608203254996332e-01 5.261664477768244197e-01
2.073687727305667527e-02 1.719388052621794172e-01 -5.602458906585852105e-01 -8.053308889481958222e-01 -2.739233837907470992e-01 5.257453177333448746e-01
-7.795372867007691053e-02 1.128465139322927802e-01 -7.271174627011682823e-01 8.080427768131210886e-01 2.683054104403068130e-01 -5.244798161689342431e-01
5.771969769530852640e-02 -1.730273753523928204e-01 -6.808558799284230023e-01 -8.095672334524126601e-01 -2.658263268178925331e-01 5.233901589547836908e-01
4.178758309734990906e-02 -8.100664420868483595e-02 -6.581712872497100797e-01 -8.047845368845719660e-01 -2.710284006115990518e-01 5.280771300230711063e-01
-5.298935271719262818e-02 1.381165987284303787e-01 -6.757681102732304712e-01 8.078769786121755558e-01 2.684236982689176543e-01 -5.246746664706608554e-01
-2.644799257746898585e-02 -6.515165129349329010e-02 -7.395766925455626861e-01 8.047845368845719660e-01 2.710284006115990518e-01 -5.280771300230711063e-01
9.336970501416136034e-03 -1.579992572720671784e-01 -7.326935185105036830e-01 8.047845368845719660e-01 2.710284006115990518e-01 -5.280771300230711063e-01
6.234208412184779474e-02 1.647869473970997589e-02 -5.766803604143289075e-01 -8.074225589211574405e-01 -2.696912669134675089e-01 5.247241483825753061e-01
-3.722150681241303410e-02 2.255529987403374209e-02 -7.109810269226147783e-01 8.047845368845719660e-01 2.710284006115990518e-01 -5.280771300230711063e-01
-2.890436801706522396e-02 -1.470893809470720237e-01 -7.854263120809142906e-01 8.060228827385482742e-01 2.751882201042442633e-01 -5.240215224756501478e-01
-9.385612573133395031e-02 1.100387857988786577e-01 -7.642352242281104102e-01 9.410773640652408956e-02 -5.216924776712428269e-01 8.479272921009676223e-01
5.306101518177838705e-02 1.646311196763621532e-01 -5.137059960527176061e-01 -8.339309609394247591e-01 -2.992575444022042008e-01 4.636853184057164734e-01
-8.042286445716081977e-02 -2.283393012889858495e-04 -8.023766737005453287e-01 -7.992769090374592933e-01 -2.731995970641263871e-01 5.352741380297801888e-01
-8.515578673084975986e-03 2.101695095695512161e-01 -5.850445444429621666e-01 -8.041278346920482933e-01 -2.754969643338616159e-01 5.267635599738318408e-01
1.211208719691673867e-02 4.847714768423825454e-02 -6.194569768209697846e-01 4.859615566604029713e-01 8.539024380085782351e-01 -1.862578637566855710e-01
2.569927775888559279e-02 -1.490186682342088398e-01 -7.031483523500892119e-01 8.047845368845719660e-01 2.710284006115990518e-01 -5.280771300230711063e-01
4.512589328385491205e-02 1.581491911669161143e-01 -5.300226540761222571e-01 -8.061661830292771169e-01 -2.767295110983490347e-01 5.229883966468803491e-01
6.981265199958802681e-02 3.545180939167959320e-03 -5.579570110034944852e-01 8.016013842647764509e-01 2.724620669297427855e-01 -5.321650522433493125e-01
7.472996411160594266e-02 -7.544940693981370960e-02 -5.910779505212603313e-01 8.014921935944457898e-01 2.734276690629615647e-01 -5.318341596757009127e-01
9.170587336862234817e-02 -1.253214280596154917e-01 -5.993876674612451660e-01 -5.730265225376380833e-01 5.867747887747992719e-01 -5.721328095177826700e-01
-9.288457320103640780e-02 4.643513526351362303e-02 -7.964554157297920600e-01 -7.166258311529305480e-01 -3.150236782759501808e-01 6.222599940939977925e-01
-2.332272896406642135e-02 2.430137844020381077e-01 -5.785126758223004817e-01 8.204177226870700279e-01 2.174921093535695793e-01 -5.287834553670308635e-01
-6.607734005542555134e-02 8.240217348900863437e-02 -7.244202302299007634e-01 8.074208943940152094e-01 2.691533590227864758e-01 -5.250028272521203299e-01
6.103670007461426284e-04 1.707511092130913066e-01 -5.916552441604071566e-01 -8.047379148380051639e-01 -2.740263002910258150e-01 5.265989699676520974e-01
-8.752171930328683791e-02 1.005503488512017179e-01 -7.612805466718750580e-01 -7.747992153926828163e-01 -2.923405160177703910e-01 5.605561510868888320e-01
-1.154719869883909233e-02 -6.213829187210740540e-02 -7.297690637148168680e-01 -8.047845368845719660e-01 -2.710284006115990518e-01 5.280771300230711063e-01
6.596731567344638059e-03 -2.224125353229534363e-01 -7.799306008519528710e-01 -7.748484903698243942e-01 2.886443681625975866e-01 -5.624004318095950916e-01
2.542082055583437528e-02 2.938645197994676703e-02 -6.264563237829865461e-01 -8.047845368845719660e-01 -2.710284006115990518e-01 5.280771300230711063e-01
1.920678481949273514e-02 1.245619894428186825e-01 -5.726313004906243842e-01 8.047845368845719660e-01 2.710284006115990518e-01 -5.280771300230711063e-01
-5.171107136326779513e-02 9.496820240275071975e-03 -7.397650728168413403e-01 8.047845368845719660e-01 2.710284006115990518e-01 -5.280771300230711063e-01
7.896598737694168757e-02 -4.803424178326506228e-02 -5.706130912965837743e-01 8.015538852898038691e-01 2.731314633553867388e-01 -5.318933847136706472e-01
-9.682522592683583682e-04 -2.971916134129052867e-01 -8.160086792864261751e-01 3.799028830035259818e-01 4.223759007855030778e-01 -8.229656116273900146e-01
-5.808746411853910746e-02 1.919045088674279365e-01 -6.613432813610526928e-01 3.595721345329601082e-01 7.467501781698638874e-01 5.595284188231079980e-01
-3.536615716617587390e-02 1.919268921819572427e-01 -6.354536653009295044e-01 -8.012981008430846153e-01 -2.741602454107798237e-01 5.317494837059708601e-01
2.118211839613100278e-02 2.132199795107790341e-01 -5.378929742978284523e-01 -8.071294871425562789e-01 -2.761165767179936670e-01 5.218252840238102319e-01
-2.732774860523729671e-02 -8.043115523655714263e-03 -7.329488760489456523e-01 -7.867854032966900002e-01 -2.133430299332136071e-01 5.791834603458395625e-01
5.237881222409822984e-02 -6.582650910769018149e-02 -6.198528753499572552e-01 8.021014156901646874e-01 2.729298070830323830e-01 -5.311710076363845845e-01
6.691896162064038533e-02 -2.430139614715911417e-02 -5.905883960269818767e-01 -8.074211826215303978e-01 -2.694629032897062904e-01 5.248435744150171667e-01
-5.842317914301864423e-02 -1.817806038894565629e-02 -7.784797237174422291e-01 -8.020123753012350365e-01 -2.722454048830299511e-01 5.316564580476248469e-01
-2.874580723259456683e-02 2.378848800489646864e-01 -6.009581534419661253e-01 -7.826796474229714695e-01 -3.338733574239192148e-01 5.253010096243226901e-01
-6.188799309088088146e-02 -2.366530184249204111e-02 -7.865163042401428495e-01 -8.020123753012350365e-01 -2.722454048830299511e-01 5.316564580476248469e-01
2.183718876663438141e-02 -3.528593237436213753e-02 -6.506623603984420523e-01 8.047845368845719660e-01 2.710284006115990518e-01 -5.280771300230711063e-01
6.573978498170018891e-02 1.176925973603113428e-02 -5.738726245122112157e-01 -8.074225589211574405e-01 -2.696912669134675089e-01 5.247241483825753061e-01
8.975546433152964063e-03 -1.431709984156379345e-01 -7.256339232953997742e-01 8.047845368845719660e-01 2.710284006115990518e-01 -5.280771300230711063e-01
2.720280920072487216e-02 -1.731119168273790865e-01 -7.276621945766832411e-01 -8.060284719561175981e-01 -2.652819974908432465e-01 5.290969327102119646e-01
-6.262162196427092410e-03 7.866734164382838124e-02 -6.404464599941366298e-01 7.710164761486207885e-01 -2.907759155910181192e-01 5.665535812432644924e-01
-5.429330078404084187e-02 8.920100942348121661e-03 -7.583579954922068378e-01 -8.021219331759152915e-01 -2.726125552695911058e-01 5.313029258601128513e-01
-7.807448174637668728e-03 2.271546651511024695e-01 -5.557166817638109491e-01 8.493283063473578975e-01 2.262487909210079140e-01 -4.769202371926677952e-01
1.535315891182532054e-02 -5.054519410125456885e-02 -6.683755688151615804e-01 8.047845368845719660e-01 2.710284006115990518e-01 -5.280771300230711063e-01
-7.979027523014663170e-02 1.957040582627051287e-02 -7.777835070511681659e-01 8.080521642072191479e-01 2.693664469461484745e-01 -5.239211936729006869e-01
6.369278947797729108e-03 -2.711005728972022966e-01 -8.169888312836101063e-01 -8.490498189964600373e-01 -2.412326786132699685e-01 4.700225522580221971e-01
2.605644512116107869e-02 1.826102651466016413e-01 -5.465089280159058927e-01 -8.055403724035983259e-01 -2.750486162583785088e-01 5.248361335904984104e-01
-1.463799462447563926e-02 6.824466023558888039e-02 -6.675621315424004054e-01 -8.047845368845719660e-01 -2.710284006115990518e-01 5.280771300230711063e-01
-7.064797791039990893e-02 1.043700584473631898e-01 -7.340183127408201891e-01 -8.016159053418473457e-01 -2.735025495384416083e-01 5.316091568990721772e-01
7.288010592841527580e-02 9.229872088322113588e-03 -5.504260053521886631e-01 8.016013842647764509e-01 2.724620669297427855e-01 -5.321650522433493125e-01
-3.314543616232074053e-02 -1.637749028366262682e-01 -8.142762895525484934e-01 -7.993847943107257326e-01 -2.622393998801156867e-01 5.405686337324017154e-01
7.776054489739986364e-02 -1.387360358916077119e-01 -6.195442918570429613e-01 7.858384131368111314e-01 2.920657278987548455e-01 -5.451198024522582175e-01
4.936730993382790200e-02 1.303980337852593818e-01 -5.446656751224454585e-01 -8.285473578372861692e-01 -1.366537768051164781e-01 5.429871279374395288e-01
-3.600122277477328658e-02 3.918750207467431614e-03 -7.397175210178741356e-01 -8.130731746209179933e-01 -3.293986114973068702e-01 4.800089243498585345e-01
-6.745194814508837476e-03 -3.355696203393935817e-01 -8.421989258031216119e-01 8.490498189964599263e-01 2.412326786132699963e-01 -4.700225522580221971e-01
2.695510270242289230e-02 -3.493698145761293256e-02 -6.571312192076913528e-01 -8.047845368845719660e-01 -2.710284006115990518e-01 5.280771300230711063e-01
3.689275723034059901e-02 -1.432389308457137356e-01 -6.764851186909315306e-01 7.822967222489942696e-01 3.830550687816433597e-01 -4.912032701837093507e-01
-5.325720016987217989e-03 -6.360658627934320797e-02 -7.065935659341108233e-01 8.047845368845719660e-01 2.710284006115990518e-01 -5.280771300230711063e-01
-2.516364653246665889e-02 8.800670880081848391e-02 -6.590129173034409149e-01 8.047845368845719660e-01 2.710284006115990518e-01 -5.280771300230711063e-01
-3.640904863399607033e-02 1.144889688382256798e-01 -6.625591438551557966e-01 8.047845368845719660e-01 2.710284006115990518e-01 -5.280771300230711063e-01
-2.690391872514130006e-02 8.318332317525714559e-02 -6.641406126500379870e-01 8.047845368845719660e-01 2.710284006115990518e-01 -5.280771300230711063e-01
-1.380323978994345974e-02 -1.296275080341149077e-01 -7.474757240556487714e-01 8.157371853320068977e-01 3.104532616193417804e-01 -4.880487852833235718e-01
-6.779425650600313935e-02 1.804996264499585112e-01 -6.770986122896803794e-01 8.084335432740402672e-01 2.626033751275864137e-01 -5.267586482260927516e-01
-8.343513395085804668e-03 2.195350195375307956e-01 -5.605965055771455763e-01 9.973829784821509614e-01 1.996337633874376710e-02 -6.948854466191344004e-02
1.620247279322645922e-02 1.191516395828710745e-01 -5.799866319586555186e-01 8.047845368845719660e-01 2.710284006115990518e-01 -5.280771300230711063e-01
4.827855964003928413e-02 8.454137678560717795e-02 -5.633138316671386647e-01 -8.047845368845719660e-01 -2.710284006115990518e-01 5.280771300230711063e-01
-4.098503978262012931e-02 3.226308751881568765e-02 -7.117342255692183928e-01 8.047845368845719660e-01 2.710284006115990518e-01 -5.280771300230711063e-01
-3.504637237193313631e-02 3.996103228998047069e-02 -6.987328873729466983e-01 8.047845368845719660e-01 2.710284006115990518e-01 -5.280771300230711063e-01
7.080889479068656900e-02 -5.975974341151910063e-02 -5.817719488801931238e-01 8.154786900377787306e-01 1.965552238915370675e-01 -5.443900715986798033e-01
5.946501753427017867e-02 -4.303252839981907413e-02 -5.974498404441805910e-01 8.021427203761368752e-01 2.727312169859585356e-01 -5.312106356511777649e-01
4.730914677110804878e-02 3.067926784632231049e-02 -5.924352021106626953e-01 -8.047845368845719660e-01 -2.710284006115990518e-01 5.280771300230711063e-01
7.598679253989272520e-02 4.175600412568852837e-02 -5.426371952719897251e-01 -8.079864314985464313e-01 -2.700407046151950818e-01 5.236754189048533625e-01
-3.626231845249301700e-02 -1.290192236186314123e-01 -8.015381349058080529e-01 -8.010323402545651561e-01 -2.719816467337026200e-01 5.332665128304214797e-01
-2.640733119395395623e-02 2.589049116747783527e-02 -7.072361897265795339e-01 -8.047845368845719660e-01 -2.710284006115990518e-01 5.280771300230711063e-01
-2.367752125252386292e-02 -3.886565614178637967e-02 -7.218635912297745039e-01 8.047845368845719660e-01 2.710284006115990518e-01 -5.280771300230711063e-01
3.294846464025906474e-02 -3.856225383110856858e-02 -6.498580141776130192e-01 -8.047845368845719660e-01 -2.710284006115990518e-01 5.280771300230711063e-01
2.335611081495901631e-02 1.233607360951738119e-01 -5.813718993756686881e-01 -8.047845368845719660e-01 -2.710284006115990518e-01 5.280771300230711063e-01
1.215481332608720107e-03 1.807318756950724581e-01 -5.698428538038287083e-01 -3.806804962740374387e-01 4.222299029353886457e-01 -8.226811465104355570e-01
5.282824169391985708e-02 -1.725880985696358616e-01 -6.742089214920083950e-01 7.950241087601809253e-01 2.813964927939298089e-01 -5.373571255071954988e-01
9.023111147887534142e-03 -3.309218925340116635e-01 -8.390107727477229549e-01 -9.959650487673721297e-01 -4.097704389730364577e-02 7.984048789457906525e-02
-8.175129404960347623e-02 -1.227893267951587868e-02 -7.972056424016191745e-01 8.208347404412218440e-01 2.643963784672482276e-01 -5.062853779620691830e-01
7.527406030581510789e-03 -2.295898821749539354e-01 -7.782181748487591033e-01 -2.850005655253545767e-01 9.568459209157270662e-01 5.674998922609895274e-02
3.008284469873200029e-02 7.098117532095295050e-03 -6.307906275556400821e-01 -8.047845368845719660e-01 -2.710284006115990518e-01 5.280771300230711063e-01
-3.164448696806528016e-02 -2.966294484268678158e-02 -7.437296104769390848e-01 -8.047845368845719660e-01 -2.710284006115990518e-01 5.280771300230711063e-01
-4.787643098143267578e-02 1.121186256992038610e-01 -6.812518721336906502e-01 8.047845368845719660e-01 2.710284006115990518e-01 -5.280771300230711063e-01
7.544954598206650431e-02 -2.264957725486928600e-02 -5.628885219324675226e-01 8.015882743536004718e-01 2.729060092362902146e-01 -5.319572807486881993e-01
-1.487344354920131645e-02 -1.051394827771787582e-01 -7.599915102821042101e-01 -2.614407884769684443e-01 -8.012076213268416458e-01 -5.382518570783801914e-01
-3.315117874617207888e-02 2.029877834806236014e-01 -6.263959250744840501e-01 -8.040913657614029431e-01 -2.750061211621641077e-01 5.270756196517752956e-01
-1.281621522620379240e-02 3.841761075484383808e-02 -6.656464788543726696e-01 8.047845368845719660e-01 2.710284006115990518e-01 -5.280771300230711063e-01
6.718789733363682293e-02 -1.054210010457811569e-01 -6.178609017797526137e-01 8.012810674171233494e-01 2.738036001625325788e-01 -5.319588701553076282e-01
8.832630520699276400e-02 -8.930870621920353192e-02 -5.908978120800197908e-01 -8.099824886449318306e-01 -2.671859712518362961e-01 5.220536608958659119e-01
4.099399007331304412e-02 -8.604587083801379377e-02 -6.619670299812749903e-01 -8.047845368845719660e-01 -2.710284006115990518e-01 5.280771300230711063e-01
1.676604458163892877e-02 -2.000910619043874683e-01 -7.570851990185391012e-01 -8.064699455157959829e-01 -2.639205234701882397e-01 5.291050786667719219e-01
-3.349387590952573185e-02 -5.451723085953971010e-02 -7.448565803387803275e-01 8.047845368845719660e-01 2.710284006115990518e-01 -5.280771300230711063e-01
-5.797873025457937063e-02 2.821929497848387619e-02 -7.540198091339420650e-01 -8.021306211688155052e-01 -2.725885632278335913e-01 5.313021191193529891e-01
-4.210856814229357176e-02 5.043020579870020892e-02 -7.041224459030041016e-01 8.047845368845719660e-01 2.710284006115990518e-01 -5.280771300230711063e-01
-7.709470511788872604e-02 -2.414370962647387556e-02 -7.961205857773547834e-01 8.083573624713921157e-01 2.699885176379999141e-01 -5.231295966411476650e-01
-6.478144975082361645e-02 -1.593802875613881467e-02 -7.729040307674903687e-01 8.075265312110083693e-01 2.698110120623556374e-01 -5.245025444744794152e-01
6.842387568757325733e-02 -7.426934311249834553e-02 -6.139113391831485522e-01 -8.074633901860958085e-01 -2.691127488573173410e-01 5.249582858776828953e-01
6.288891948932825993e-02 1.265732659713583452e-01 -5.065968813601965381e-01 7.506341674033307765e-01 2.545937134400012569e-01 -6.096969639120231044e-01
7.656808172649334776e-02 -1.219297870213742058e-01 -6.257484342396210097e-01 -8.083411927509933648e-01 -2.676305283512027122e-01 5.243647741757234693e-01
-1.048117453443514827e-03 -4.185829412704141633e-02 -6.889125252199598259e-01 8.047845368845719660e-01 2.710284006115990518e-01 -5.280771300230711063e-01
-9.978984304961625168e-03 2.141598506381508782e-01 -5.715304072221926157e-01 8.052055683503963612e-01 2.669044031467434630e-01 -5.295337876645791475e-01
6.395618013088737175e-02 -1.916942522960942211e-02 -5.784249933479593819e-01 8.021607592793186248e-01 2.724693849237862509e-01 -5.313177491404560415e-01
6.200946991169016369e-03 -4.686965259808080833e-03 -6.676406218384590696e-01 -7.748484903698243942e-01 2.886443681625976421e-01 -5.624004318095953137e-01
-6.165622577387732534e-02 2.376269925419651364e-03 -7.728255529996590489e-01 -8.020891266176126688e-01 -2.724399098088325921e-01 5.314409924960158405e-01
2.055389464970707597e-02 1.714613171674959358e-01 -5.467510725180074749e-01 8.040031794903521600e-01 2.669823955504537216e-01 -5.313184429657471508e-01
5.789627783800817967e-02 -6.030764075095988719e-02 -6.229462959490617013e-01 -8.074310410690832551e-01 -2.693257316435374582e-01 5.248988132895420211e-01
9.977392206691118939e-03 1.360631298837672309e-01 -5.997301500152572018e-01 -8.957770123937702778e-01 2.901358354499161130e-01 3.367562041814078921e-01
3.234323519292143373e-02 9.702522554322985660e-02 -5.667443440677503164e-01 8.047845368845719660e-01 2.710284006115990518e-01 -5.280771300230711063e-01
-6.167948138475575111e-03 5.323614942873505784e-02 -6.538033568420977826e-01 7.708083460582527691e-01 -2.836280748610768843e-01 5.704468501074750897e-01
1.012866315206956743e-03 -3.565686192729996540e-01 -8.661905369203352079e-01 -3.788199532095002930e-01 -4.169216954409926679e-01 8.262395190990079463e-01
4.394124017656646231e-02 -1.486754992723814672e-01 -6.896192532756214577e-01 -8.047845368845719660e-01 -2.710284006115990518e-01 5.280771300230711063e-01
-3.104894077974448482e-03 -1.362346945244399532e-01 -7.341787628621533335e-01 7.893415433984304341e-01 3.143987550959007060e-01 -5.273455704370062502e-01
3.842566741851156237e-02 8.154699240308008190e-02 -5.654187675757244014e-01 8.047845368845719660e-01 2.710284006115990518e-01 -5.280771300230711063e-01
8.261291794514182343e-03 -1.188521623503493996e-01 -7.354326880604010741e-01 -8.489868436641068161e-01 -2.412788847685461702e-01 4.701125812506022905e-01
-5.308084877727861639e-02 -6.870409688358543321e-02 -7.952254413724062498e-01 -2.786372371972143380e-01 -8.002940706862251563e-01 -5.309337910432661012e-01
4.988814171338738085e-02 2.495937370001363384e-02 -5.770396038933928162e-01 8.021425278383235158e-01 2.723540756906119298e-01 -5.314043869670788123e-01
-4.609161263086479325e-03 -2.558676645624196611e-01 -7.980614569374389067e-01 7.555154793512770528e-01 2.991389942465857987e-01 -5.828483701459163946e-01
-7.641163809466514079e-02 -3.415670894853699291e-02 -8.002328222109312827e-01 8.083573624713921157e-01 2.699885176379999141e-01 -5.231295966411476650e-01
-4.588792500567613619e-02 8.928970088529680771e-02 -7.043856482899701899e-01 -8.047845368845719660e-01 -2.710284006115990518e-01 5.280771300230711063e-01
3.943213694750636461e-02 -1.453416937979861434e-01 -6.803324481236971977e-01 8.047845368845719660e-01 2.710284006115990518e-01 -5.280771300230711063e-01
-3.833885071252769727e-02 4.311646469187707664e-02 -7.165787158014605973e-01 -8.047845368845719660e-01 -2.710284006115990518e-01 5.280771300230711063e-01
-1.127039395978362592e-02 6.394723754599897225e-02 -6.501879283788702946e-01 8.047845368845719660e-01 2.710284006115990518e-01 -5.280771300230711063e-01
5.844125468745352270e-02 1.051464494926841325e-01 -5.233301049753865675e-01 7.959631803429892960e-01 2.729491731482868722e-01 -5.403159857120095610e-01
-7.666417165075059548e-03 1.465115499719680560e-02 -6.844436508585705070e-01 -8.047845368845719660e-01 -2.710284006115990518e-01 5.280771300230711063e-01
-9.047108352783805093e-04 2.161844226686542303e-01 -5.567168411224218127e-01 8.045125062696946161e-01 2.674577476536442178e-01 -5.303074395816957942e-01
3.078243791143134983e-02 -1.446035280506613452e-01 -6.987057900370391428e-01 -2.711793484034511620e-02 9.852127787296742767e-01 1.691756431574842900e-01
7.306888328298859203e-02 2.074659546768107404e-02 -5.442494516173066454e-01 8.015013715959867779e-01 2.723551388782870508e-01 -5.323703876591380224e-01
-2.749321864690695144e-02 7.824726230639739155e-02 -6.675720662090164348e-01 8.047845368845719660e-01 2.710284006115990518e-01 -5.280771300230711063e-01
-2.962043137129057035e-02 -7.544481899366159428e-02 -7.641418928296900281e-01 -8.047845368845719660e-01 -2.710284006115990518e-01 5.280771300230711063e-01
-2.821897407730562801e-02 -9.880853108980486299e-02 -7.739971924944132331e-01 -8.047845368845719660e-01 -2.710284006115990518e-01 5.280771300230711063e-01
-2.633243217334762382e-02 -7.781288644167294599e-02 -7.458987862244153000e-01 8.047845368845719660e-01 2.710284006115990518e-01 -5.280771300230711063e-01
2.167725031502830413e-02 -1.505133227479126534e-01 -7.244926005199830987e-01 -8.047845368845719660e-01 -2.710284006115990518e-01 5.280771300230711063e-01
5.185288300031665881e-02 -6.886583683750446827e-02 -6.222087488594636451e-01 8.021014156901646874e-01 2.729298070830323830e-01 -5.311710076363845845e-01
-3.710848593890277158e-02 -5.691311768851806813e-02 -7.660424734550493886e-01 -8.047845368845719660e-01 -2.710284006115990518e-01 5.280771300230711063e-01
-6.531240954601615079e-02 2.018086279765790580e-02 -7.692150897046783342e-01 -8.015550273177881602e-01 -2.729249951059763979e-01 5.319976364872146535e-01
6.407776430901793163e-02 1.029353123482680127e-01 -5.161155689171991190e-01 7.903898124564918692e-01 2.678614900135987131e-01 -5.509393492324597963e-01
-2.899404176467377386e-02 -1.313560398050019062e-01 -7.918092964017563462e-01 -8.012074592584970123e-01 -2.725366834866170263e-01 5.327197794175277945e-01
2.201035850162575899e-02 -2.034715714507414064e-01 -7.507685633506872014e-01 -8.069058856999362650e-01 -2.635966557358711548e-01 5.286016408484427442e-01
-1.317686292530685643e-02 -2.778265835706370326e-02 -7.146200951664991585e-01 -8.047845368845719660e-01 -2.710284006115990518e-01 5.280771300230711063e-01
5.347177419245639080e-02 1.331472528512977760e-01 -5.234508006893100474e-01 5.397277681771082275e-02 -9.615828965052899413e-01 -2.691565947753878918e-01
1.055127308982058316e-02 2.255075390309386474e-01 -5.355686963097637809e-01 7.919180576543195516e-01 2.395730606819601871e-01 -5.616676406528039456e-01
2.957657815792074166e-02 1.587335722704064367e-01 -5.395033163327113135e-01 8.040945479941520313e-01 2.679098902636421475e-01 -5.307129625183497623e-01
5.400803452424598680e-03 -1.876953063855757442e-01 -7.540878365854911669e-01 8.034982595297233132e-01 2.763230653485937993e-01 -5.272912956697293207e-01
-2.923128664581754743e-02 7.304117233393180031e-02 -6.873404255920454453e-01 -8.047845368845719660e-01 -2.710284006115990518e-01 5.280771300230711063e-01
-2.694842017658843208e-02 -1.583875247671890918e-01 -8.023456141225638882e-01 -8.024006958990017591e-01 -2.651974656603902081e-01 5.346245668018856367e-01
1.744268952034792874e-02 5.739798008252274680e-02 -6.242383841996562710e-01 -8.047845368845719660e-01 -2.710284006115990518e-01 5.280771300230711063e-01
5.185478748404853677e-02 -1.007591247139693474e-01 -6.385970103222994299e-01 8.019573614706082543e-01 2.731303107383306616e-01 -5.312854446896538851e-01
-2.553709540832891853e-03 -1.876056967611783588e-01 -7.802007073115649893e-01 -8.035550002435359884e-01 -2.660060261860151543e-01 5.324848876882195547e-01
2.073407314296898604e-03 6.735547027476355975e-02 -6.281028727478485951e-01 8.047845368845719660e-01 2.710284006115990518e-01 -5.280771300230711063e-01
-8.692448312334176072e-03 -3.127603340269488053e-01 -8.375890849379120651e-01 9.959650487673723518e-01 4.097704389730353475e-02 -7.984048789457884321e-02
9.577067949738596320e-02 -9.962247255177286709e-02 -5.837928030296343218e-01 -8.837131020053158315e-01 -1.908607735072504752e-01 4.273444962560721261e-01
3.080472231079887588e-02 -2.188080832223154304e-01 -7.328670660482996535e-01 7.691760115810203358e-01 3.596441320463807378e-01 -5.282275660100667070e-01
-6.645312138976226801e-02 3.048930706560184015e-02 -7.516271451013579741e-01 8.074105010404705185e-01 2.694699786964370181e-01 -5.248563740595305616e-01
-2.950671886592799720e-02 -5.315263615033389427e-02 -7.525274365704940349e-01 -8.047845368845719660e-01 -2.710284006115990518e-01 5.280771300230711063e-01
-1.942882506148043212e-02 -1.575709521184528450e-01 -7.763536448770173015e-01 8.058816298380979681e-01 2.750102333692105439e-01 -5.243321182530240598e-01
-4.670216279580523960e-02 -9.678690835199962872e-02 -7.866802210046762722e-01 8.047845368845719660e-01 2.710284006115990518e-01 -5.280771300230711063e-01
-5.763921344276766792e-03 1.985033761052422685e-01 -5.730125240227753602e-01 8.049375201268745839e-01 2.671630525811223289e-01 -5.298108077677670114e-01
5.732710028289929316e-02 1.209487593992335935e-01 -5.226866367923415080e-01 -7.722624076483541877e-02 9.924245211725855054e-01 9.554934595640045270e-02
-5.869898154001980395e-02 1.463393281570004034e-01 -6.943814121444881193e-01 -8.009966433846318346e-01 -2.746029206922603882e-01 5.319751998296847750e-01
-5.766608535443885908e-02 1.230734228110012957e-01 -7.048082357271681087e-01 -8.019342860758604807e-01 -2.734666323622177431e-01 5.311472505816704492e-01
7.609468717732491283e-02 -5.784743651324509434e-02 -5.799792428803429711e-01 8.015538852898038691e-01 2.731314633553867388e-01 -5.318933847136706472e-01
4.218096313400840174e-03 -1.906552849493553803e-01 -7.618416645476342453e-01 -3.806804962740374387e-01 4.222299029353886457e-01 -8.226811465104355570e-01
9.243643870348471070e-02 -5.543283236394808827e-02 -5.671731095211344220e-01 -8.097913907875553541e-01 -2.676864441445639953e-01 5.220937377785678235e-01
1.325910716967382448e-02 1.349530309538131134e-01 -5.936806176452483763e-01 -6.963566475774060072e-01 4.429713094458439526e-01 5.646802974981425249e-01
5.144290645852854504e-02 -1.970649854812851764e-01 -6.894731281399364420e-01 7.883109502716063588e-01 3.035394511604903589e-01 -5.351912249570850433e-01
-4.106857362240317472e-02 3.505478428521809076e-02 -7.104287299742917394e-01 8.047845368845719660e-01 2.710284006115990518e-01 -5.280771300230711063e-01
4.146624821671081318e-02 -1.298142124379770244e-02 -6.237479785987056768e-01 -8.047845368845719660e-01 -2.710284006115990518e-01 5.280771300230711063e-01
-9.849725286793134527e-03 1.102505765608528948e-01 -6.387058895790330704e-01 -8.047845368845719660e-01 -2.710284006115990518e-01 5.280771300230711063e-01
5.493713707778388744e-03 -2.682778218744458557e-02 -6.856762362847642622e-01 -8.047845368845719660e-01 -2.710284006115990518e-01 5.280771300230711063e-01
8.425248144459705768e-02 -4.796500490945151268e-03 -5.538537090119310946e-01 -8.097090468872620850e-01 -2.685052198639460985e-01 5.218009259236089381e-01
3.490690696698733886e-02 1.082384696850272471e-01 -5.715135268008586511e-01 -8.046960516560427434e-01 -2.744738091250836232e-01 5.264298553022447313e-01
-6.496136147973836927e-02 9.384136407930345272e-03 -7.601683292027663352e-01 8.074512512870291037e-01 2.696177692813699900e-01 -5.247177672642205914e-01
-4.536085073191391953e-02 -1.181716028221309750e-01 -7.957974835098841071e-01 8.060163639831415816e-01 2.749037868557900888e-01 -5.241808170505115605e-01
1.641579375242279565e-02 2.008631981982478831e-01 -5.517580681795100084e-01 -8.054116281867893523e-01 -2.747012366989066701e-01 5.252155174188936071e-01
6.967265972985714484e-02 -1.779350553487703546e-01 -6.647809744089167028e-01 -8.129615686004821873e-01 -2.596334790088791755e-01 5.212331000199326159e-01
-7.864328236031388475e-02 1.068460658573898436e-01 -7.447877734911091396e-01 -7.997893727147761256e-01 -2.751470996208705277e-01 5.335082312980068409e-01
-3.371768691333974777e-02 1.696745681048201504e-01 -6.301793419005322638e-01 8.081924994816673813e-01 2.684053331208586246e-01 -5.241979215276003634e-01
1.174140132203258836e-02 1.647130633573041236e-01 -5.635255031002378567e-01 8.045837282452006356e-01 2.679503966075029719e-01 -5.299505724130645357e-01
-8.140581148858200278e-02 9.103108498793521797e-02 -7.436038687521272506e-01 8.079702297496922370e-01 2.686882700808093105e-01 -5.243955771735795413e-01
2.320910083372659111e-02 1.930169139252627675e-01 -5.320672704337252590e-01 7.954570894243567780e-01 2.539879209366500690e-01 -5.502164618609742819e-01
4.777788933983464353e-02 -2.120914472513298343e-01 -7.143315720427427795e-01 -8.994381096124548503e-01 6.461781399903496204e-02 4.322448670496385481e-01
-5.946085914217399959e-02 1.397576888261285455e-01 -6.989259826168897627e-01 -8.009966433846318346e-01 -2.746029206922603882e-01 5.319751998296847750e-01
2.105533941777408546e-02 4.099275505026715033e-02 -6.271524985213126069e-01 -8.047845368845719660e-01 -2.710284006115990518e-01 5.280771300230711063e-01
3.637130832510815370e-02 4.512005452613644663e-02 -5.997895207258657768e-01 -2.728870284223324783e-01 8.923165411966207383e-01 3.595884592499156152e-01
1.613832068043973694e-02 -2.062222612484763407e-01 -7.474857615815374556e-01 8.026048789239463854e-01 2.784777034408479346e-01 -5.275183191262540205e-01
5.251393357289918171e-03 9.729625844787591349e-02 -6.078929500856441459e-01 8.047845368845719660e-01 2.710284006115990518e-01 -5.280771300230711063e-01
5.361061938820257250e-02 -1.443877468386688678e-01 -6.519430800818600824e-01 8.189753829898387405e-01 1.570454894703796067e-01 -5.519203169785070751e-01
-3.608557319154508808e-02 3.779738840992897218e-03 -7.188861760514670962e-01 8.047845368845719660e-01 2.710284006115990518e-01 -5.280771300230711063e-01
7.771410474286422933e-03 5.027783347405609393e-02 -6.412123392727580029e-01 -7.595131074792192960e-01 4.125925321192527306e-01 -5.028988387406392313e-01
4.621859358468242973e-02 1.326346551492066650e-01 -5.486722220773933012e-01 -8.073629907458343968e-01 -2.707919594739021663e-01 5.242487156476648424e-01
7.524044444409866417e-02 -5.892121080210406536e-02 -6.006418902831985873e-01 -7.008625166708176701e-01 4.624967291014117632e-01 5.430363784281335704e-01
8.025087447400393315e-02 -1.343058917247537572e-02 -5.644668454104989630e-01 -8.079121679840182146e-01 -2.693605441089172436e-01 5.241400825167940036e-01
6.200429559810739094e-02 -1.739679050646641967e-01 -6.613378411031702875e-01 7.873461593889554688e-01 2.959985906181434867e-01 -5.408057503831982249e-01
-2.530417062047253529e-02 2.298351245927155173e-01 -6.002862281117077314e-01 -8.017564533369755386e-01 -2.803513568264698885e-01 5.278159776456862184e-01
-6.279478961196546197e-04 1.441007794975616464e-02 -6.738408199725672842e-01 -8.047845368845719660e-01 -2.710284006115990518e-01 5.280771300230711063e-01
6.012185209466089364e-02 -1.901247581202640258e-01 -6.856675587281004791e-01 -8.276936786742979946e-01 -2.254513722160275957e-01 5.139015986047504869e-01
4.318978223578710113e-02 1.738129319029375203e-02 -5.910904737037442347e-01 8.047845368845719660e-01 2.710284006115990518e-01 -5.280771300230711063e-01
-1.484758685962402069e-02 1.533926463183030997e-01 -6.241805030056800652e-01 -8.047845368845719660e-01 -2.710284006115990518e-01 5.280771300230711063e-01
-4.451400967245473100e-02 1.749741693240167428e-01 -6.433306732803286687e-01 2.620985886586920111e-01 8.120392468629816785e-01 5.214370445004106180e-01
5.028489146381825634e-03 -1.837281455672112179e-02 -6.675982316179650544e-01 8.047845368845719660e-01 2.710284006115990518e-01 -5.280771300230711063e-01
-2.806733557481167190e-03 -2.240851537514942093e-01 -7.867174914069113845e-01 8.085978856278754900e-01 3.205137844454994389e-01 -4.933967707013829362e-01
4.205118306874400247e-02 -1.594124126607944225e-01 -6.979196761598931431e-01 -8.057554274201967903e-01 -2.658309790416139573e-01 5.292372641497126162e-01
-5.679080498119833120e-02 5.842331834356266629e-02 -7.224331257096526793e-01 8.073926515663598646e-01 2.692303648239792180e-01 -5.250067779118565703e-01
4.574485934165183065e-02 -1.161168012836171354e-01 -6.557188989418237801e-01 8.017603716453943763e-01 2.734788090905392322e-01 -5.314034695384096674e-01
-8.699833335105042198e-02 -2.419581324233286129e-03 -8.129550176107170900e-01 -7.716082449737743376e-01 -2.826986048406995855e-01 5.698264780699592302e-01
-1.075866163500795170e-02 -9.915312020126182402e-02 -7.475646976306832281e-01 -8.047845368845719660e-01 -2.710284006115990518e-01 5.280771300230711063e-01
