4.264358470775652526e-02 2.193233553287494697e-01 -6.236475619894229494e-01 5.157434432272069991e-01 -4.164170161770765488e-01 7.487359811083778016e-01
-5.370360643661560573e-02 9.034235920920273555e-02 -6.170608336908725011e-01 -5.196943599352161769e-01 4.067076831365183387e-01 -7.513365642168969849e-01
-1.165491621482886014e-01 8.876511202951600094e-03 -6.275276546946423339e-01 5.242681630377064028e-01 -4.057261451938081187e-01 7.486849726896096513e-01
-1.268250200069969413e-01 -6.346019329756696914e-02 -6.594471347265061789e-01 5.270891383382135809e-01 -4.038940972125825146e-01 7.476941878085668902e-01
-9.069312692314906998e-02 1.147094782156827947e-01 -5.787239814734209675e-01 -5.143699674722054249e-01 4.021632649526140080e-01 -7.574221048301243986e-01
1.028427508165402487e-01 1.046029737286154893e-01 -7.275160202109556273e-01 5.150000889012024130e-01 -4.087412821914916394e-01 7.534623233209534199e-01
-8.768002687786603799e-02 1.251126650024122489e-01 -5.846339297835386750e-01 5.259471764143387462e-01 -4.065831398132653263e-01 7.470406401537811325e-01
2.906860978000697440e-02 1.820179722272835532e-01 -6.347507597181518690e-01 5.188961222801926620e-01 -4.101362584600186101e-01 7.500233754883883774e-01
-3.704367529263087599e-02 -1.562798034019398374e-01 -7.620839908317756928e-01 -5.196943599352161769e-01 4.067076831365183387e-01 -7.513365642168969849e-01
-1.035064793840498321e-01 1.267983824158795403e-01 -5.686771640483336832e-01 7.227926372657066389e-01 -2.595752021236529261e-01 -6.404619566820102250e-01
-5.021922266165235876e-02 -3.743546073653001433e-02 -6.936143653103814533e-01 -3.276302174619817320e-01 -8.312693314984723747e-01 -4.490542719047412867e-01
-1.346501683238971181e-01 -3.362282087806307829e-02 -6.376522811013453085e-01 5.613207676164818638e-01 -3.927345826792684735e-01 7.284768653911973812e-01
-7.793698511021176709e-03 2.231045046570663826e-01 -5.867063114305318683e-01 5.212842112722905208e-01 -4.121244750602603424e-01 7.472724992494577112e-01
9.955729355701765926e-02 7.231523319513545600e-02 -7.330042933016892581e-01 -5.242256485442806646e-01 4.051103863562726670e-01 -7.490480920972965029e-01
-8.166841797339658912e-03 1.998931908405678914e-01 -6.035681784823061502e-01 8.876575075164857553e-01 -2.192194254076299254e-01 4.049777683695346964e-01
6.482768899516738736e-03 -6.183535770606139043e-02 -7.512215031956310796e-01 5.196943599352161769e-01 -4.067076831365183387e-01 7.513365642168969849e-01
-7.658086469906143223e-02 1.661197189451665279e-01 -5.697859978330074293e-01 5.413519779934808929e-01 -4.241768867007681409e-01 7.259559247718759822e-01
-1.551728906263469092e-02 2.161561201441265512e-01 -5.851434779666685460e-01 5.219678464224690728e-01 -4.124654584810733549e-01 7.466068663366870473e-01
-8.955736506460915472e-03 -2.149563394297259178e-01 -8.139037860965070426e-01 -5.056932717575846059e-01 4.377466831059144137e-01 -7.434057817429723380e-01
7.754578621035472519e-02 -2.195317059842830792e-02 -7.686489294548247697e-01 -5.235768552504898032e-01 4.057691025728552003e-01 -7.491453210447406308e-01
3.838552986265621192e-02 1.330324806167247076e-01 -6.576495735818322919e-01 -5.196943599352161769e-01 4.067076831365183387e-01 -7.513365642168969849e-01
5.816498894449470547e-02 7.156020814400890218e-02 -7.147610877627506021e-01 5.196943599352161769e-01 -4.067076831365183387e-01 7.513365642168969849e-01
1.066447123038692657e-01 -9.412800596712136980e-02 -8.287299176462602501e-01 -5.864157795301585541e-01 4.172160331155835844e-01 -6.942962733799834529e-01
4.834906688578384515e-02 1.980416454149608874e-01 -6.296135115333136856e-01 -5.225612250225226685e-01 3.954967452466215394e-01 -7.553225076762172252e-01
5.503948118879176295e-03 9.020080722287458774e-02 -6.580909178324328979e-01 -5.196943599352161769e-01 4.067076831365183387e-01 -7.513365642168969849e-01
1.094253259703725639e-01 -3.963352443687884891e-02 -8.100672680118014002e-01 5.111150675903846086e-01 -4.072202713311895428e-01 7.569234031915178518e-01
1.115296704755071450e-01 3.312738864969343167e-02 -7.721826787333797570e-01 5.150748372844188294e-01 -4.079247629294719402e-01 7.538536328660647712e-01
-2.829467919930735327e-03 1.985922167382659920e-01 -6.036027187661691107e-01 5.200692840112498549e-01 -4.102666750330048462e-01 7.491389692075756113e-01
-8.405541940985374050e-02 -1.446017514365804946e-01 -7.234551599491909624e-01 -5.117751394473424309e-01 4.166214929676054779e-01 -7.513406273063480967e-01
-9.844992462321422444e-02 6.272764170285044516e-02 -6.013153829518509408e-01 -5.146960714645335555e-01 4.073218752050742908e-01 -7.544380981885774329e-01
1.772190047428931492e-02 -1.059766619496590734e-01 -7.828897621393661188e-01 5.196943599352161769e-01 -4.067076831365183387e-01 7.513365642168969849e-01
9.859932630410798982e-02 1.652073620236453877e-01 -6.823409018632562439e-01 -5.397926282811177368e-01 3.890234930993580753e-01 -7.465149966813371396e-01
3.722767709220294041e-02 -8.481564518946335673e-02 -7.747725530278637418e-01 -5.196943599352161769e-01 4.067076831365183387e-01 -7.513365642168969849e-01
2.153441382446015170e-02 -1.311413671196911823e-01 -7.889943108066592714e-01 -5.196943599352161769e-01 4.067076831365183387e-01 -7.513365642168969849e-01
4.491206446710846456e-02 7.965427937435595740e-02 -7.012127107163184103e-01 5.196943599352161769e-01 -4.067076831365183387e-01 7.513365642168969849e-01
2.629923502735282900e-02 -5.794315140357378380e-02 -7.526670144679882268e-01 -5.196943599352161769e-01 4.067076831365183387e-01 -7.513365642168969849e-01
-2.897611736735600241e-02 8.357853302624046465e-02 -6.479805144132899652e-01 5.196943599352161769e-01 -4.067076831365183387e-01 7.513365642168969849e-01
4.290659053279158308e-02 1.328157418574931747e-01 -6.710485874582565735e-01 5.196943599352161769e-01 -4.067076831365183387e-01 7.513365642168969849e-01
-2.075552075374302488e-04 -8.158276682437475349e-04 -7.182827784791264714e-01 4.508706965976123637e-01 -4.249101175696471389e-01 7.849630608739067705e-01
-1.235717142442442108e-02 -1.832012988251728314e-01 -8.037650343689115573e-01 5.209366675492246301e-01 -4.018771774052489754e-01 7.530735174493249362e-01
3.449805426509845035e-02 1.833270320178401191e-01 -6.278512011187226127e-01 -5.204816828234820614e-01 4.032889897123937417e-01 -7.526332497451816428e-01
-2.272120236215127709e-02 9.239107824737594066e-02 -6.475366576715482214e-01 5.196943599352161769e-01 -4.067076831365183387e-01 7.513365642168969849e-01
8.012339346709969334e-02 -8.177303644655342652e-02 -8.174953859123716970e-01 4.886705656211139392e-01 -3.147995758621327522e-01 8.136966912385485973e-01
1.285027648321446780e-01 3.700466754437998357e-02 -7.726434163856418236e-01 -5.411999391685607952e-01 4.009349352725598004e-01 -7.391574957490010256e-01
-4.565189419918891378e-02 -1.165589596946301765e-01 -7.447828694031890517e-01 5.196943599352161769e-01 -4.067076831365183387e-01 7.513365642168969849e-01
7.210806172730842289e-02 -1.299078689237234130e-01 -8.332703734901634185e-01 5.108747625130417580e-01 -4.059146217884391228e-01 7.577864454089896507e-01
-3.420621074663199312e-02 -1.258287089117742508e-01 -7.497693582821075564e-01 -2.850723164809320642e-01 -8.460268420494200248e-01 -4.505245353008880405e-01
-4.953629939718535991e-02 1.808624813394768896e-02 -6.590564492313846223e-01 -5.196943599352161769e-01 4.067076831365183387e-01 -7.513365642168969849e-01
-4.929207905444717153e-02 -9.628008713910998773e-02 -7.211332725935414301e-01 -5.196943599352161769e-01 4.067076831365183387e-01 -7.513365642168969849e-01
-3.079443036512074898e-03 1.529342861676730170e-01 -6.181954445160909861e-01 -5.196943599352161769e-01 4.067076831365183387e-01 -7.513365642168969849e-01
-7.010651769195236360e-02 -7.664002609548060951e-03 -6.689215998744527658e-01 5.196943599352161769e-01 -4.067076831365183387e-01 7.513365642168969849e-01
2.932956633212471798e-02 1.389755166171700029e-01 -6.583230912182234107e-01 5.196943599352161769e-01 -4.067076831365183387e-01 7.513365642168969849e-01
8.283907611337552879e-02 -2.025400921616282018e-02 -7.714280656699999961e-01 -5.235768552504898032e-01 4.057691025728552003e-01 -7.491453210447406308e-01
-2.599975592421617868e-02 7.545053462964468327e-02 -6.442845245191350934e-01 -5.196943599352161769e-01 4.067076831365183387e-01 -7.513365642168969849e-01
8.336912379073889434e-02 -6.719824619525686937e-02 -8.071735767837183717e-01 5.153300228162674967e-01 -4.073799647887944575e-01 7.539738270476407100e-01
-1.296428483473854691e-02 1.834821385389352466e-01 -5.949895311465672743e-01 -5.187518891134373922e-01 4.029323615171799267e-01 -7.540172342748066026e-01
-6.568528189569750042e-02 7.648131703853178198e-02 -6.264308464437720048e-01 5.196943599352161769e-01 -4.067076831365183387e-01 7.513365642168969849e-01
-1.011684577583253919e-01 -1.521971973576818349e-01 -7.252583990433402183e-01 5.310423663344637779e-01 -3.987175067278692642e-01 7.476753005059111334e-01
2.024324443332595203e-02 -1.057009658629779192e-01 -7.844845208338974141e-01 5.196943599352161769e-01 -4.067076831365183387e-01 7.513365642168969849e-01
-2.737334176607826922e-02 8.359045515571374499e-03 -6.796518692570520104e-01 -5.196943599352161769e-01 4.067076831365183387e-01 -7.513365642168969849e-01
-6.864403886978442948e-02 1.642954002903428135e-01 -5.765932347638674793e-01 5.217022940394593356e-01 -4.126133458351468053e-01 7.467107493753462055e-01
-8.453650529825558479e-02 -1.266687616780672911e-02 -6.615885432329143834e-01 5.234706075704889106e-01 -4.056448674311011748e-01 7.492868372903581653e-01
6.407088805376384699e-02 -1.018956435654061604e-01 -7.987431343718780496e-01 -5.390157208032786418e-01 8.124274684861362283e-01 -2.223143296688948611e-01
4.399934734839453659e-02 1.498432837027730835e-01 -6.524365411911887680e-01 -5.246103310904907113e-01 4.047802471979782268e-01 -7.489572430996775942e-01
2.395170595121196011e-02 -4.759514975488885608e-02 -7.555962484604933360e-01 5.196943599352161769e-01 -4.067076831365183387e-01 7.513365642168969849e-01
1.680757940209359541e-03 -2.078740592108983126e-02 -7.256802260985076858e-01 5.196943599352161769e-01 -4.067076831365183387e-01 7.513365642168969849e-01
4.237601643724683842e-02 2.615361507653873180e-02 -7.284191084064021160e-01 5.196943599352161769e-01 -4.067076831365183387e-01 7.513365642168969849e-01
3.288816874517663975e-03 1.546145297271032115e-01 -6.216907899022695583e-01 -5.196943599352161769e-01 4.067076831365183387e-01 -7.513365642168969849e-01
-6.535158796605122257e-03 -3.026310830873542579e-01 -8.647872706086453531e-01 7.028181051423222359e-01 3.386419147166356280e-01 -6.255944090872346264e-01
2.099775724332538299e-03 -1.691650588136840438e-01 -8.062557968769424876e-01 5.191383793650158340e-01 -4.024307022079553486e-01 7.540191463024509266e-01
1.003625851775748635e-03 2.101402664921593055e-01 -5.858836152727957547e-01 -4.508698552158402206e-01 4.248945274495732338e-01 -7.849719830675814247e-01
-1.158581690716530416e-01 5.085724127990611659e-02 -6.052242794129577552e-01 5.274638356423232421e-01 -4.061090983136406707e-01 7.462287198683591471e-01
8.812109850111678189e-02 -8.638490971899581705e-02 -8.207538094150870212e-01 5.137365372739682856e-01 -4.068817081978880479e-01 7.553290976810843604e-01
5.275359795113057637e-02 -6.527934761234940875e-02 -7.850909929225226014e-01 5.196943599352161769e-01 -4.067076831365183387e-01 7.513365642168969849e-01
1.275156102179994533e-01 2.426953343458399318e-02 -7.742231091321908343e-01 -8.555901872007815046e-01 3.183540220459989967e-01 -4.081864135574178043e-01
-1.120077752601404859e-02 -1.037059163602860601e-01 -7.515004574897150569e-01 -5.196943599352161769e-01 4.067076831365183387e-01 -7.513365642168969849e-01
-1.037105299253919116e-01 -1.476040871749845773e-01 -7.210059792159594361e-01 5.297832226173876391e-01 -3.990218307864845659e-01 7.484058495154467527e-01
-6.524592149210067804e-02 4.133191286963398825e-03 -6.658976754784065033e-01 5.196943599352161769e-01 -4.067076831365183387e-01 7.513365642168969849e-01
-8.681712733490827560e-02 -1.234147472706779991e-01 -7.198779668122136099e-01 5.242024592229906910e-01 -4.042264879080796347e-01 7.495416787731474795e-01
-2.610176469606055941e-02 1.290454313227634986e-01 -6.152023918424628368e-01 -5.196943599352161769e-01 4.067076831365183387e-01 -7.513365642168969849e-01
4.125158275453440215e-02 -1.174779122877534776e-01 -7.952363462031394326e-01 -5.196943599352161769e-01 4.067076831365183387e-01 -7.513365642168969849e-01
1.320522121385821201e-01 3.479478921424925680e-02 -7.850170932000221091e-01 4.767944900874018233e-01 -4.172109973608466582e-01 7.736937365026694824e-01
4.769377528978204633e-02 1.640605026413279321e-01 -6.473405035120569639e-01 -5.246103310904907113e-01 4.047802471979782268e-01 -7.489572430996775942e-01
3.673197121887242234e-02 6.895767655594739476e-02 -7.013447982914220447e-01 5.196943599352161769e-01 -4.067076831365183387e-01 7.513365642168969849e-01
-1.057919481895834291e-01 -1.699983990577915577e-02 -6.490754366026680877e-01 5.242496223266832622e-01 -4.054688878165251253e-01 7.488373084343221686e-01
-6.401216236948459315e-02 -2.936424417218453774e-03 -6.705779277764171153e-01 5.196943599352161769e-01 -4.067076831365183387e-01 7.513365642168969849e-01
4.722064261369465776e-02 1.589985445260808095e-01 -6.550041232303406291e-01 -1.078534170468007647e-01 7.103946512333990659e-01 6.954905318768231925e-01
-1.048142689205754652e-01 -4.597816040912191399e-02 -6.507636664382304703e-01 -4.876741397112837606e-01 5.102755883946202831e-01 -7.083733177819327986e-01
7.524396945210047594e-02 2.043963997128789012e-01 -6.451607600773735518e-01 -5.390918218860257793e-01 3.843963565106110480e-01 -7.494127358652057369e-01
1.059771092785489754e-01 1.486898643391751096e-01 -6.963544697004441231e-01 -5.447598460011326971e-01 3.916084060157461466e-01 -7.415386480303161054e-01
-4.133765270107332690e-02 -1.031048650882155082e-01 -7.303296307491863315e-01 -5.196943599352161769e-01 4.067076831365183387e-01 -7.513365642168969849e-01
6.608345169130555585e-02 3.270412505318020385e-02 -7.412715078689064985e-01 5.196943599352161769e-01 -4.067076831365183387e-01 7.513365642168969849e-01
1.623883293080483070e-02 6.911822265532899245e-02 -6.870829292062061722e-01 5.196943599352161769e-01 -4.067076831365183387e-01 7.513365642168969849e-01
8.991014576860509311e-02 -1.002286930399914067e-01 -8.198752492522456414e-01 -5.275299108290300021e-01 4.120593536058107520e-01 -7.429127016592710353e-01
-4.539078976789223674e-02 -1.263987711160970140e-01 -7.550410851941988799e-01 4.915885126171844477e-01 -5.067330241034071481e-01 7.082106865515656047e-01
7.359384257652364092e-02 5.413095178423543707e-02 -7.247132863403626946e-01 -5.196943599352161769e-01 4.067076831365183387e-01 -7.513365642168969849e-01
-7.261531560122083673e-02 1.477780269823338322e-01 -5.828767047901858289e-01 5.196943599352161769e-01 -4.067076831365183387e-01 7.513365642168969849e-01
8.416176443252182393e-03 1.388876272722871230e-01 -6.439050181249296179e-01 5.196943599352161769e-01 -4.067076831365183387e-01 7.513365642168969849e-01
3.092386408779004142e-02 -2.085551661681278590e-02 -7.508899322899671436e-01 4.851013563698497455e-01 -3.196003411317976384e-01 8.139608688361933408e-01
-8.514231503221211805e-03 -3.831515364442855676e-01 -9.116814775416138827e-01 9.602815490889230476e-01 1.365370746355831499e-01 -2.433453795109645490e-01
-6.329058591663128119e-02 -1.504278525185158977e-01 -7.408136391893341832e-01 -5.178947146729617756e-01 4.118166248105511462e-01 -7.497947266041933290e-01
-6.498102335576894095e-02 -1.229575012547557689e-01 -7.348766519418837850e-01 5.196943599352161769e-01 -4.067076831365183387e-01 7.513365642168969849e-01
-6.798069285871209677e-02 -1.032787441724754840e-01 -7.119949450729941010e-01 -5.196943599352161769e-01 4.067076831365183387e-01 -7.513365642168969849e-01
-7.281387010557910378e-02 1.544343088157276167e-01 -5.696758136783885984e-01 -5.083610189076589458e-01 3.957423985170128167e-01 -7.648248351558469826e-01
5.279760435252345979e-02 1.979751185781369882e-01 -6.424270337817945542e-01 5.166892223737633572e-01 -4.130215948636311030e-01 7.499636055563619896e-01
-5.827425532703478343e-03 1.385513764761575617e-01 -6.240803289786688302e-01 -5.196943599352161769e-01 4.067076831365183387e-01 -7.513365642168969849e-01
1.335814662178744783e-01 5.203045347440902330e-02 -7.682750910854981852e-01 -5.607664334432567177e-01 3.931381275985512680e-01 -7.286860913669443995e-01
-6.830365604181747041e-02 9.555378892844938743e-02 -6.041880700612983768e-01 -5.152198165821479936e-01 4.073239723444363469e-01 -7.540793871699493778e-01
-5.204528504492536567e-02 3.626075824134838282e-02 -6.576374199454582126e-01 5.196943599352161769e-01 -4.067076831365183387e-01 7.513365642168969849e-01
-1.112058350294463094e-01 -1.443345202324052175e-02 -6.342972075544923705e-01 -5.151030072968404427e-01 4.079401304608901713e-01 -7.538260686877994443e-01
9.274173446964208145e-02 -3.620712149237934746e-02 -7.968433567317553257e-01 5.146857340931072500e-01 -4.075385759741673719e-01 7.543281144263330740e-01
-7.519931401994377207e-02 1.435553821125820362e-01 -5.875655337852021542e-01 4.781137782510969103e-01 -6.017404778579067415e-01 6.397777835731707219e-01
7.998189092338539585e-02 -6.232909799936340450e-02 -8.022276011044111588e-01 5.153300228162674967e-01 -4.073799647887944575e-01 7.539738270476407100e-01
-3.786756247241657766e-03 6.717207185639655076e-02 -6.624154155517316678e-01 -8.720909747934844913e-04 4.760419686803134542e-01 -8.794221304426578234e-01
7.456870812072829979e-02 9.866829214949970894e-02 -7.147826453771587429e-01 2.503727691287119805e-01 2.285681269480630273e-01 9.407816366310913780e-01
-7.161607330525565640e-02 -1.593251938014614011e-01 -7.399498656314059675e-01 -5.178947146729617756e-01 4.118166248105511462e-01 -7.497947266041933290e-01
5.073821489491187053e-02 -1.749408712169932267e-01 -8.335838772061144875e-01 -5.391637358457637141e-01 4.254126274606549463e-01 -7.268607585678715788e-01
-2.683875653771972472e-02 -1.697758360151054302e-01 -7.764554002837131819e-01 -5.178823379864490040e-01 4.121057184740087864e-01 -7.496444229117631419e-01
5.976277973729694770e-02 9.510706882375394300e-02 -6.929655608727611771e-01 -5.196943599352161769e-01 4.067076831365183387e-01 -7.513365642168969849e-01
-1.237216839988646011e-01 -1.044289229230897231e-01 -6.837240194160379980e-01 5.277719223865811049e-01 -4.022469694556593534e-01 7.481003766234253227e-01
-1.298477755417508372e-01 -1.085256572967260857e-01 -6.754881560909206106e-01 8.247871848094072700e-01 4.681823897583087812e-01 -3.170667905889413829e-01
-2.795855286985668431e-02 -1.288763740614220221e-01 -7.636887997586726540e-01 5.196943599352161769e-01 -4.067076831365183387e-01 7.513365642168969849e-01
1.354873145405513860e-02 2.408916222957191711e-01 -5.833945594411945601e-01 -5.369894136040579413e-01 3.655057486015017565e-01 -7.602946254028275508e-01
-1.176057889681801812e-02 -3.923736324954427146e-02 -7.162156294266007750e-01 -5.196943599352161769e-01 4.067076831365183387e-01 -7.513365642168969849e-01
3.705066045667510920e-03 -3.126826865806439648e-01 -8.873889669677013092e-01 8.720909747936531932e-04 -4.760419686803134542e-01 8.794221304426578234e-01
-9.574399108211370524e-02 -4.959575578867062712e-02 -6.628044575396694338e-01 1.491511843339924093e-01 9.692673475434507857e-01 1.956392935937225352e-01
2.171638435679409951e-02 1.326978926441280959e-01 -6.564552600771630386e-01 5.196943599352161769e-01 -4.067076831365183387e-01 7.513365642168969849e-01
3.091932174337015324e-02 1.320255204089509082e-01 -6.530303284101314221e-01 -5.196943599352161769e-01 4.067076831365183387e-01 -7.513365642168969849e-01
-8.628318530031622163e-03 1.552840166527518218e-01 -6.268388894528723609e-01 8.870736137869101867e-01 -2.266735258526605401e-01 4.021436514487765068e-01
-8.419017266723442805e-02 3.506486138789671747e-02 -6.260004982134260709e-01 -5.157889507497133152e-01 4.073886055780625570e-01 -7.536552808344616494e-01
3.684258534356089909e-02 -1.624885036355843970e-01 -8.166725592308742288e-01 -5.214880441820145540e-01 4.110616072163247869e-01 -7.477155708208496065e-01
1.903435047106082903e-03 -6.812166437225821228e-03 -7.218160580083030631e-01 7.531718919641974515e-04 -4.760420146837971433e-01 8.794222154277731018e-01
3.896120527231462793e-02 2.884086321226542529e-02 -7.144479627629125584e-01 -5.196943599352161769e-01 4.067076831365183387e-01 -7.513365642168969849e-01
6.882794924853385954e-02 2.073952929604387652e-01 -6.481971703648832239e-01 5.035658151623868539e-01 -4.222459946306765244e-01 7.537438489421930399e-01
-5.957829822443293233e-02 6.313246470524089271e-02 -6.277263986923059536e-01 -5.196943599352161769e-01 4.067076831365183387e-01 -7.513365642168969849e-01
4.212895898632396281e-03 1.413754242695979269e-01 -6.294964589508690311e-01 -5.196943599352161769e-01 4.067076831365183387e-01 -7.513365642168969849e-01
6.988345130174725139e-02 -1.356925866171779793e-01 -8.251766987843991430e-01 -5.220221627855314850e-01 4.120276817212448761e-01 -7.468105857954430160e-01
1.348316100670909901e-01 1.990946707586221248e-02 -7.946818864537023019e-01 3.969529402183478162e-01 -4.260283658514796845e-01 8.129749041279974442e-01
-8.301956175824315443e-02 -1.290007055253158119e-01 -7.304391854059849587e-01 5.452211070402219750e-01 -2.926441780782525481e-01 7.855528813992975756e-01
3.514867307959436415e-02 -1.012998123251870053e-01 -7.943967698927177912e-01 2.847738376742848243e-01 -8.403881129379916493e-01 -4.611417146699929859e-01
-1.640513006591303585e-02 1.903819742366602563e-01 -5.889351442598084185e-01 -5.187518891134373922e-01 4.029323615171799267e-01 -7.540172342748066026e-01
4.541490682084182995e-02 1.025483573375398499e-01 -6.790131747624599257e-01 -5.196943599352161769e-01 4.067076831365183387e-01 -7.513365642168969849e-01
-7.218632316434520080e-02 -5.664901340593524875e-02 -6.838491974348260838e-01 -5.158010777138909431e-01 4.080207493856747303e-01 -7.533049291621164434e-01
9.483367252813151849e-03 -2.102243761103918529e-01 -8.224716450459665928e-01 -9.548798656799778461e-01 -1.413808656485620319e-01 2.611817239920328215e-01
1.124739595136213799e-01 1.713596779969746298e-01 -6.953054242503809990e-01 -7.641593000137157921e-01 -6.145617275192685192e-01 1.958939694607277349e-01
-1.287129649793269104e-01 -6.979950822818385865e-03 -6.275581441625295298e-01 5.268930090285907086e-01 -4.047784562450073009e-01 7.473541050912251293e-01
3.478472573490196118e-02 1.592192025707557523e-01 -6.511382325340441257e-01 5.196943599352161769e-01 -4.067076831365183387e-01 7.513365642168969849e-01
-2.417387767822520156e-02 2.101800638058010928e-01 -5.732886712766314119e-01 -5.092683370312054425e-01 3.900512695515781503e-01 -7.671412959935558495e-01
9.997583011095451111e-02 2.097763807048707782e-02 -7.757486189748779015e-01 5.324811738856064514e-01 -4.658596067137802943e-01 7.067097185477844157e-01
5.682518728208529185e-03 -3.065298517364497544e-01 -8.687219749414680781e-01 -5.853931962021655666e-01 3.859509507324980770e-01 -7.129913530113066722e-01
-7.602569136375548868e-03 2.314211501568296525e-01 -5.736053677915167182e-01 -5.077243655117078536e-01 3.748599567555921941e-01 -7.756906480594756292e-01
-9.750432653584382992e-02 -4.561513470012337063e-02 -6.605386821701967337e-01 -5.150341275941398012e-01 4.081397105789285051e-01 -7.537650987289684634e-01
-9.545763317799302317e-02 -1.324299289853252126e-01 -7.090431784944692950e-01 -5.140970390910876153e-01 4.101052399822273653e-01 -7.533378568324416991e-01
-1.358369771017924749e-02 -1.765901697314845586e-01 -7.993879667493047902e-01 5.215225184295153582e-01 -4.016916299035526161e-01 7.527669607762835779e-01
7.310564490273544283e-03 9.213330888703522015e-02 -6.542574119329274129e-01 -5.853931962021655666e-01 3.859509507324980770e-01 -7.129913530113066722e-01
-5.159529304497854907e-02 4.171835168869222898e-02 -6.448399103605179095e-01 -5.196943599352161769e-01 4.067076831365183387e-01 -7.513365642168969849e-01
-7.479984071008258240e-02 -1.070180964697114712e-01 -7.093572431533210487e-01 -5.153498912947029886e-01 4.085398984275372958e-01 -7.533323575523325211e-01
-4.162984577017005139e-02 -8.722754240984452109e-03 -6.790373303905578029e-01 -5.196943599352161769e-01 4.067076831365183387e-01 -7.513365642168969849e-01
6.181107336288614064e-03 1.790848795766072366e-01 -6.062621343406530139e-01 -5.853931962021655666e-01 3.859509507324980770e-01 -7.129913530113066722e-01
6.682196850995959954e-03 -1.011336080314206298e-01 -7.583592469349755838e-01 -5.853931962021655666e-01 3.859509507324980770e-01 -7.129913530113066722e-01
-2.243179181655103466e-02 1.954807759771127751e-01 -5.916816009314393998e-01 5.206210225161872485e-01 -4.104568257193321745e-01 7.486514176401520837e-01
6.785087768175102063e-02 -1.459612938431069651e-01 -8.293967167427266363e-01 -5.309212254637891704e-01 4.147613235801166920e-01 -7.389828799194864128e-01
4.525772846566367830e-02 -1.756025595761411262e-01 -8.299058839694350986e-01 -5.391637358457637141e-01 4.254126274606549463e-01 -7.268607585678715788e-01
-4.885574069345151966e-04 -4.996953284550781360e-02 -7.448411998710757764e-01 4.499061076565529227e-01 -4.162776243535676879e-01 7.901249481922970608e-01
-4.516651869390625462e-03 1.365120743594979702e-01 -6.362453851656837411e-01 5.196943599352161769e-01 -4.067076831365183387e-01 7.513365642168969849e-01
8.500021654486619380e-03 1.332530563102457266e-01 -6.405054082691002959e-01 -9.547086751088501577e-01 -1.323569546154908794e-01 2.664826115093005821e-01
-4.760024144638236136e-03 -1.906455990204985740e-01 -8.031711935877746678e-01 -5.183383101296035189e-01 4.115033006746252608e-01 -7.496602095522183484e-01
-7.333422893853275282e-03 6.090689960575464829e-02 -6.752230508847850698e-01 5.196943599352161769e-01 -4.067076831365183387e-01 7.513365642168969849e-01
1.097832534698003903e-02 1.075095725303719246e-01 -6.626625642782780767e-01 5.196943599352161769e-01 -4.067076831365183387e-01 7.513365642168969849e-01
-3.886874639730782122e-02 -1.974520463628907097e-01 -7.834547746444673333e-01 -5.095253491676128288e-01 4.171482230322632878e-01 -7.525764270668112710e-01
-3.137562452469107744e-03 7.334016903194136294e-02 -6.764582782951589213e-01 4.508706965976123082e-01 -4.249101175696471389e-01 7.849630608739067705e-01
-7.974584969119460909e-02 5.190172636870738626e-02 -6.151514782751809074e-01 -5.420764853492514579e-01 2.958670667782536956e-01 -7.865213047511397937e-01
-1.131428313155815740e-01 -1.291387882173560542e-01 -7.087435719394616918e-01 7.358991261947079865e-01 -2.991352447385142166e-01 6.074294867892853222e-01
-2.954659560889253203e-02 -3.693863133126585457e-02 -7.116230252084361219e-01 -1.498540813979106212e-01 -9.692480985653184611e-01 -1.951970228151627684e-01
4.478975523950739362e-02 8.876769629548462992e-02 -6.935728367381718273e-01 2.733422002239408455e-01 -8.471994947055925262e-01 -4.555623533033910655e-01
-1.112589560285730424e-02 2.225042032996147126e-02 -6.833705452820203474e-01 -5.196943599352161769e-01 4.067076831365183387e-01 -7.513365642168969849e-01
2.767544453380326244e-02 1.933086468029786009e-01 -6.177865732534451038e-01 -5.207959464111568959e-01 4.019139115564840381e-01 -7.531512397248472102e-01
-2.528986687617910088e-03 -2.274560006084425934e-01 -8.396322407778041841e-01 4.507643061861886791e-01 -4.249356965911737505e-01 7.850103146016987887e-01
-9.855952596865073800e-02 -4.862901525336817826e-02 -6.653898458407631056e-01 1.507671269120499091e-01 9.682507501690403862e-01 1.993984910669493460e-01
9.164567150353451763e-02 -8.484407689671720487e-02 -8.161918448300140572e-01 -3.019341094606288745e-01 8.389294272023347654e-01 4.528059294202977370e-01
1.144371110544913639e-01 3.728784232790571113e-02 -7.623686555930816455e-01 -5.242703880070862521e-01 4.052859399998473000e-01 -7.489218030591306974e-01
2.856031862198033996e-02 4.392652256938125999e-02 -6.990876884918842959e-01 -5.196943599352161769e-01 4.067076831365183387e-01 -7.513365642168969849e-01
-4.824297313231594442e-02 -3.547594908462883834e-02 -6.889449074395685990e-01 -5.196943599352161769e-01 4.067076831365183387e-01 -7.513365642168969849e-01
4.898358855357533292e-02 -7.598586733017834161e-02 -7.781243696524651199e-01 -5.196943599352161769e-01 4.067076831365183387e-01 -7.513365642168969849e-01
-7.995458915282766671e-03 -2.294574656769542975e-01 -8.363559723200842955e-01 8.876032307199245297e-01 -2.192648251590512964e-01 4.050721432825554191e-01
-4.200266820024709663e-02 1.429770690309821179e-01 -6.118104047025009207e-01 5.196943599352161769e-01 -4.067076831365183387e-01 7.513365642168969849e-01
-7.184170772299000585e-02 -1.302824433974449914e-01 -7.386766995026495808e-01 5.438070708133186937e-01 -2.988335923187895871e-01 7.842017303189822153e-01
-2.395702795408402586e-02 -2.086135604825365975e-01 -7.999669008735992293e-01 -5.033160664702349685e-01 4.421458467555211547e-01 -7.424149698314099766e-01
-7.421449516015943271e-02 1.727625924743669827e-01 -5.623885824968364311e-01 6.001028704058752883e-01 -4.521785874736758970e-01 -6.598568556595744150e-01
-1.348964682318055386e-01 3.793252984613165041e-02 -5.980093043862820812e-01 6.315670557398768148e-01 -3.900100988734924168e-01 6.700859473834323010e-01
-4.539196363719267407e-02 1.984166519714976040e-01 -5.740104585792488168e-01 5.239721626243991626e-01 -4.128412479793076018e-01 7.449934743080627308e-01
-1.094043347204425864e-01 6.515862807194837403e-02 -6.019964087800241392e-01 5.243127876934293718e-01 -4.063565426092089483e-01 7.483117404797514638e-01
-4.442681572070400486e-02 1.810687553614222234e-01 -5.747826084189964213e-01 -5.114632456834775631e-01 4.037978880105971835e-01 -7.585200155256971444e-01
4.320552748972592699e-02 -1.787398780983662505e-01 -8.394216830508641758e-01 5.130301958651651839e-01 -3.979615655861511447e-01 7.605436282336272003e-01
-3.681660203088919781e-02 -1.082048956675838725e-01 -7.362175195673581474e-01 -5.196943599352161769e-01 4.067076831365183387e-01 -7.513365642168969849e-01
7.377839467179442279e-02 1.575519029184722572e-02 -7.557569791427167782e-01 5.158807873516370046e-01 -4.077321063583944083e-01 7.534066250611297644e-01
1.773831176560727429e-03 -6.684252431283718709e-02 -7.543111148649263020e-01 7.531718919642529627e-04 -4.760420146837970878e-01 8.794222154277731018e-01
-1.231160498447381180e-01 3.440266544450836655e-02 -6.090498134767078353e-01 5.270273181089252246e-01 -4.057656595247211007e-01 7.467238013599015733e-01
-4.758312686104067962e-02 -1.246897468860025254e-01 -7.436174861524487145e-01 -1.255831005549452040e-01 -9.682507252153079724e-01 -2.161467510166101835e-01
-5.120615681331724782e-03 2.242055897721250968e-01 -5.931559348181904001e-01 5.653238605737944678e-01 -4.140760288693302038e-01 7.134072995013063245e-01
-6.789500207798772335e-02 1.105439468484571558e-01 -5.963775105584339098e-01 -5.152360145674860226e-01 4.067819062841167566e-01 -7.543608751867194595e-01
7.387356839517592033e-02 -6.661968660001173215e-02 -7.902891348571589036e-01 -5.240252049898920239e-01 4.060277712042414944e-01 -7.486915476658047019e-01
-2.242931355657661399e-02 -1.062622807679597658e-01 -7.451175473156127493e-01 -5.196943599352161769e-01 4.067076831365183387e-01 -7.513365642168969849e-01
9.473751952229765572e-02 1.568338481126286404e-02 -7.701471993362887236e-01 5.158807873516370046e-01 -4.077321063583944083e-01 7.534066250611297644e-01
-7.284943088827524650e-03 -3.526104832888174445e-01 -8.926840700407262519e-01 7.028181051423222359e-01 3.386419147166356280e-01 -6.255944090872346264e-01
-8.025270203494995480e-02 6.122373160218488874e-02 -6.145572588502540290e-01 -5.156179877394854172e-01 4.072098263176640587e-01 -7.538688533623216781e-01
-8.715141259889659653e-02 -1.520948738587068749e-01 -7.350842120545824088e-01 5.266013078676599068e-01 -4.024995910496708684e-01 7.487891170128728735e-01
-7.477889165597223498e-02 5.870307373780380561e-02 -6.297413460321252821e-01 5.236028667856950092e-01 -4.060355079827585589e-01 7.489827796091077516e-01
4.944832895685397772e-02 1.814317405097908009e-01 -6.491372718083926463e-01 5.146874697989506364e-01 -4.091233524500854646e-01 7.534685732742656405e-01
7.561971147506867628e-03 -3.376124746322888837e-01 -8.973610608010557099e-01 -6.985089358262011050e-01 -3.406563964875284345e-01 6.293158873753940119e-01
-7.570441686778513202e-03 1.823187261422815619e-01 -5.993300008752979746e-01 -5.192176422922487600e-01 4.039168219213985500e-01 -7.531694636012505883e-01
4.597713550833960883e-02 -8.442278580793619036e-02 -7.806118339459532374e-01 -5.196943599352161769e-01 4.067076831365183387e-01 -7.513365642168969849e-01
-4.644701504745132187e-03 -6.717522405220623105e-02 -7.352083143885834726e-01 7.028181051423223469e-01 3.386419147166356836e-01 -6.255944090872346264e-01
1.230790273324143319e-03 -2.332601098236639359e-01 -8.260318804216969513e-01 -4.507643061861886236e-01 4.249356965911736950e-01 -7.850103146016986777e-01
-8.750886189946449623e-02 -1.448219719667445393e-01 -7.309233966318591236e-01 5.266013078676599068e-01 -4.024995910496708684e-01 7.487891170128728735e-01
-4.028642663931122914e-02 1.821960424871906653e-02 -6.755368394261844767e-01 5.196943599352161769e-01 -4.067076831365183387e-01 7.513365642168969849e-01
2.499778966109280492e-02 -2.003776127290994857e-01 -8.295947407622006331e-01 -5.358114334075060325e-01 4.303297482523157358e-01 -7.264450533928167308e-01
2.172344481923439360e-02 -5.850824351525921174e-02 -7.498078629742197521e-01 -5.196943599352161769e-01 4.067076831365183387e-01 -7.513365642168969849e-01
6.515227757394569108e-02 9.741061404995475514e-02 -7.103238779170054640e-01 4.933176389137546303e-01 -3.136010887696707439e-01 8.113519977537709815e-01
1.236649011765015710e-01 8.190553620171205779e-03 -7.847465804160561609e-01 -5.416874820703841964e-01 4.020969870047785277e-01 -7.381684664153070896e-01
8.648836335472892545e-03 -1.484445060613816814e-01 -7.996023498453774803e-01 5.196943599352161769e-01 -4.067076831365183387e-01 7.513365642168969849e-01
-5.926559303234549747e-04 -1.035838872054718057e-02 -7.184623665564390249e-01 5.196943599352161769e-01 -4.067076831365183387e-01 7.513365642168969849e-01
-7.068338867788197255e-02 -3.649846263318954481e-02 -6.871733839368101560e-01 2.351305454126634831e-01 -9.070346698655562534e-01 3.492874665312578619e-01
1.004079964800391606e-01 8.780834601356406199e-02 -7.349605853181678805e-01 5.151427268642470025e-01 -4.085351926456693983e-01 7.534765871139150750e-01
-9.699178673789565774e-02 4.303316468835366448e-02 -6.227061762670402789e-01 5.242311105953930683e-01 -4.059034519399204455e-01 7.486148077530775380e-01
5.221511031850674389e-02 -9.462291188453400559e-02 -7.904480515913410166e-01 -5.196943599352161769e-01 4.067076831365183387e-01 -7.513365642168969849e-01
1.224393509244827011e-01 -4.294306505588409845e-02 -8.118681895339567856e-01 -5.436965924517570548e-01 4.057828400106314182e-01 -7.346661160753600317e-01
-8.989696711325300890e-03 1.709239612918814766e-01 -6.131332709977619366e-01 9.566561498879222469e-01 1.386329314796010126e-01 -2.561052931725334991e-01
6.006791246516398480e-02 -1.662733300948294746e-01 -8.353809055811041162e-01 -5.418679572333623407e-01 4.303021280217805278e-01 -7.219551201727639755e-01
9.874071025735903229e-02 9.706704335412570661e-02 -7.288003506428408773e-01 5.150000889012024130e-01 -4.087412821914916394e-01 7.534623233209534199e-01
-1.277327620057577551e-01 -1.164255853516014683e-01 -6.816514352278965072e-01 8.247871848094072700e-01 4.681823897583087812e-01 -3.170667905889413829e-01
4.254375712721805702e-02 1.050060663888462559e-01 -6.858513359651806640e-01 5.196943599352161769e-01 -4.067076831365183387e-01 7.513365642168969849e-01
-6.173716159094884935e-03 1.291092259723306268e-01 -6.440576021940684903e-01 5.859452076483456784e-01 -3.763202618976515534e-01 7.176707282028577106e-01
-1.017936058728288046e-01 3.532527785000652565e-02 -6.235228778477880374e-01 5.242311105953930683e-01 -4.059034519399204455e-01 7.486148077530775380e-01
-8.853131763620486483e-03 -3.892502255227786589e-01 -9.164407083733630000e-01 9.602815490889230476e-01 1.365370746355831499e-01 -2.433453795109645490e-01
-1.573247806503907768e-03 -3.711003508644630799e-02 -7.221105878418891955e-01 -5.196943599352161769e-01 4.067076831365183387e-01 -7.513365642168969849e-01
9.078083859612895434e-03 1.241464083517907074e-01 -6.403337160477090562e-01 -8.881375453158356637e-01 2.236694342206420605e-01 -4.014768795282984137e-01
1.177678153870467814e-01 5.984181763744390176e-02 -7.619739770577219629e-01 5.125108831619876737e-01 -4.089074205642834747e-01 7.550677559318658139e-01
5.877367907687536990e-04 -2.106280954693316443e-01 -8.134116432636019356e-01 -4.507643061861886236e-01 4.249356965911736950e-01 -7.850103146016986777e-01
2.591936906497849420e-03 1.335559675978565397e-01 -6.326080203626157639e-01 -5.196943599352161769e-01 4.067076831365183387e-01 -7.513365642168969849e-01
4.917394494188739862e-02 4.684081749156750879e-02 -7.219229530292508024e-01 5.196943599352161769e-01 -4.067076831365183387e-01 7.513365642168969849e-01
-1.322219105639010905e-01 -4.605777550472335384e-03 -6.237804306275210875e-01 5.608332425513896657e-01 -3.977565113844443445e-01 7.261238404711489736e-01
9.031851622055317441e-02 1.856760443404098515e-01 -6.656636496897255784e-01 -5.456181485715738688e-01 3.864258285451317998e-01 -7.436235035167572116e-01
-1.760244744353886559e-02 -1.004357265356890239e-01 -7.554567762212744952e-01 5.196943599352161769e-01 -4.067076831365183387e-01 7.513365642168969849e-01
-1.236366790468493432e-01 5.669693093904094178e-02 -5.880844964375423478e-01 -4.771891394036004153e-01 4.069783325405971763e-01 -7.788832788535945406e-01
-2.265409482237110139e-02 -9.346331873694516124e-02 -7.481883365725763291e-01 5.196943599352161769e-01 -4.067076831365183387e-01 7.513365642168969849e-01
-2.552249207941766421e-02 -1.504337836188002035e-02 -6.936001079523766988e-01 -5.196943599352161769e-01 4.067076831365183387e-01 -7.513365642168969849e-01
9.270044446912417690e-02 4.823290371625088557e-02 -7.412398690587376215e-01 -5.234545714675566952e-01 4.054395463888787465e-01 -7.494091578261482534e-01
-3.657633083480002489e-02 3.092350214130411973e-02 -6.712263118031238651e-01 5.196943599352161769e-01 -4.067076831365183387e-01 7.513365642168969849e-01
7.595884220325782588e-02 2.137033198463462180e-01 -6.490715975689602679e-01 3.518601503956720888e-01 -5.968043652526330289e-01 7.211234181323864512e-01
-1.106624352244858084e-01 -1.347761303678290112e-01 -7.105742694802217319e-01 6.561617596256337226e-01 2.907721355772110439e-01 6.963499912952250126e-01
-3.204504643472380621e-02 1.834066745231960061e-01 -5.819116153912330391e-01 -5.185784887316577940e-01 4.025560250291375097e-01 -7.543374561411693158e-01
-3.886916278956960985e-02 -1.658001109047550770e-01 -7.761225549939908541e-01 5.214961921727421235e-01 -4.012705507661841753e-01 7.530097387399009579e-01
-5.290564379490762803e-02 -5.389662568165734524e-02 -6.956911078727702202e-01 -5.196943599352161769e-01 4.067076831365183387e-01 -7.513365642168969849e-01
1.117617879747795778e-01 7.947933478091709358e-02 -7.376729445431096099e-01 -5.242890129122460552e-01 4.050165066189849172e-01 -7.490545109040172012e-01
-9.738005046903412676e-02 -1.009180676499813883e-01 -7.003438027290268542e-01 5.250320384548423647e-01 -4.041475356234155991e-01 7.490034232535074388e-01
8.457792305202461829e-04 -8.925519870516580856e-02 -7.478591796140536818e-01 -4.507643061861886236e-01 4.249356965911736950e-01 -7.850103146016986777e-01
-7.655252468690305900e-02 -1.374607595461916354e-01 -7.280410906828852502e-01 1.362250283219873792e-01 9.656886767458713328e-01 2.211065834919483664e-01
-1.312620979101833396e-02 -7.190479289779429239e-03 -7.080781649510596854e-01 5.196943599352161769e-01 -4.067076831365183387e-01 7.513365642168969849e-01
8.874007803363530289e-02 5.617662127231089209e-03 -7.615398856475394940e-01 -5.234926807817318339e-01 4.056579143620812067e-01 -7.492643523372523040e-01
-1.391719193968694000e-02 -4.111116525250330112e-02 -7.140434261206066724e-01 -5.468458903897897017e-01 -2.834617953716403460e-01 -7.877873969088896589e-01
1.125059872503134245e-01 -8.678872216053809541e-02 -8.292255739939407011e-01 -5.772344749976197065e-01 4.179009102798663111e-01 -7.015405833317709394e-01
-5.410745579638252811e-02 6.494319742734835921e-02 -6.305303711649621334e-01 -5.196943599352161769e-01 4.067076831365183387e-01 -7.513365642168969849e-01
-8.138814315361071750e-02 2.372130227538067019e-03 -6.455998495171531015e-01 -5.159240339776948181e-01 4.076201785710697467e-01 -7.534375761706284536e-01
-1.317896513018384543e-03 -2.322551160065312037e-01 -8.429254862535685566e-01 4.507643061861886791e-01 -4.249356965911737505e-01 7.850103146016987887e-01
9.535238552709308923e-02 7.851969148991617964e-02 -7.267111138361149747e-01 -5.235888075594021807e-01 4.051299860839577271e-01 -7.494827916464361639e-01
7.839079968622643391e-02 1.056993046067463971e-01 -7.001704743058347891e-01 -5.235851262270817541e-01 4.051117268566160057e-01 -7.494952330448951816e-01
5.834214596121903296e-02 -1.226713021114575336e-01 -8.099543075571595807e-01 -5.210948108742858853e-01 4.108057446778078381e-01 -7.481302281151349653e-01
-2.694145975776320381e-02 -7.967775986857519865e-02 -7.276059999467499040e-01 -5.196943599352161769e-01 4.067076831365183387e-01 -7.513365642168969849e-01
-1.198790662958220121e-01 8.161715374871653106e-02 -5.778427567554197397e-01 -3.557676239407602803e-01 3.835384437814582381e-01 -8.522485904342951279e-01
2.741635869458888819e-02 1.287068299530291782e-01 -6.625583044302036928e-01 5.196943599352161769e-01 -4.067076831365183387e-01 7.513365642168969849e-01
-2.738365228630135206e-03 -3.272249392777655252e-01 -8.935181608632032368e-01 4.507643061861886236e-01 -4.249356965911736950e-01 7.850103146016986777e-01
-1.202126242701232334e-01 2.897163795655620377e-02 -6.049238165302502912e-01 -4.975333287553532768e-01 4.093400927276762413e-01 -7.647883859364725812e-01
-5.463453818599583317e-02 -1.444077254799163434e-01 -7.536211199318154641e-01 5.211011708320217872e-01 -4.017598639343684108e-01 7.530222981352767686e-01
-7.957787335925491437e-03 -9.713927782226919327e-02 -7.501890097556298542e-01 -5.196943599352161769e-01 4.067076831365183387e-01 -7.513365642168969849e-01
6.282549566867232094e-02 2.075203447034320581e-01 -6.347178109739809448e-01 -5.256384297896592450e-01 3.939898097503182761e-01 -7.539736540099856166e-01
5.857825865931292481e-02 -1.634148322016255872e-01 -8.416200620250562370e-01 5.034391522832898369e-01 -3.975307379078085179e-01 7.671494850201985294e-01
7.897907945698171006e-02 2.131535030755257465e-01 -6.488924099485546826e-01 -6.001028704058752883e-01 -7.997244654655163432e-01 -1.781359779841570207e-02
-1.214358214834484612e-01 -1.239220205356308252e-01 -6.874745519304163999e-01 -4.616729861223302644e-01 4.437943714849129639e-01 -7.680524784955788942e-01
-1.119944491228073019e-01 -1.259844659225513586e-01 -6.945321194351806726e-01 -4.927729174268113410e-01 4.238150864663461914e-01 -7.599708049222630990e-01
1.227594700467896094e-02 1.404642067219957491e-01 -6.457213732461104527e-01 5.196943599352161769e-01 -4.067076831365183387e-01 7.513365642168969849e-01
-1.344346924085912665e-01 -4.152295401547309583e-03 -6.218229448443444163e-01 5.608332425513896657e-01 -3.977565113844443445e-01 7.261238404711489736e-01
-2.440183295834677524e-02 -1.024153780875235731e-01 -7.518252974180960058e-01 5.196943599352161769e-01 -4.067076831365183387e-01 7.513365642168969849e-01
-1.496617719823681303e-02 -3.998299697899341393e-02 -7.245564634916100699e-01 5.196943599352161769e-01 -4.067076831365183387e-01 7.513365642168969849e-01
-6.690901776005409030e-02 -2.348293237731037108e-03 -6.682558301167151882e-01 5.196943599352161769e-01 -4.067076831365183387e-01 7.513365642168969849e-01
1.160941972718035342e-02 -6.113724841445920127e-02 -7.543896773818712376e-01 5.196943599352161769e-01 -4.067076831365183387e-01 7.513365642168969849e-01
1.057512068798301119e-01 2.473491282786464962e-02 -7.630830110359234641e-01 -5.243197190563102517e-01 4.054731063833819094e-01 -7.487859455201616443e-01
1.770550415627233920e-02 -9.475997513498042590e-03 -7.306414295044720841e-01 5.196943599352161769e-01 -4.067076831365183387e-01 7.513365642168969849e-01
7.330531940770296240e-03 -1.406638360647513297e-01 -7.944787157650948783e-01 5.196943599352161769e-01 -4.067076831365183387e-01 7.513365642168969849e-01
5.885138782191591533e-02 1.024431925483956091e-01 -6.883640237108243909e-01 -5.196943599352161769e-01 4.067076831365183387e-01 -7.513365642168969849e-01
-5.988879407052910553e-02 4.424610349967663531e-02 -6.478895532495245746e-01 5.196943599352161769e-01 -4.067076831365183387e-01 7.513365642168969849e-01
-7.071724034244611379e-02 -8.829827388671100674e-02 -7.020012350840847404e-01 -5.156323081060875113e-01 4.082338268567080597e-01 -7.533050281573303586e-01
1.249790413786580623e-02 1.135782289050445426e-01 -6.604286085163304509e-01 5.196943599352161769e-01 -4.067076831365183387e-01 7.513365642168969849e-01
9.872371424691692154e-02 2.420746180548052212e-02 -7.584498791271493401e-01 -5.234803383187215386e-01 4.056798868219845811e-01 -7.492610792119248631e-01
-1.200685121058252779e-02 -2.122788034439480054e-01 -8.102516613208020635e-01 -5.056932717575846059e-01 4.377466831059144137e-01 -7.434057817429723380e-01
-1.066110527443227679e-01 1.209765046568835739e-01 -5.730486043964964082e-01 5.668696309768715969e-01 -4.223473717370361813e-01 7.073058172127266729e-01
2.465519889067596237e-03 4.898532565259038074e-03 -7.123189275136051490e-01 5.196943599352161769e-01 -4.067076831365183387e-01 7.513365642168969849e-01
-2.372504653076283263e-02 1.824321345482571577e-01 -5.979360071611553584e-01 5.203866015264395628e-01 -4.095048360886282546e-01 7.493354216716227034e-01
1.222831236705218321e-03 9.455211245366175465e-02 -6.629287875784181105e-01 5.196943599352161769e-01 -4.067076831365183387e-01 7.513365642168969849e-01
-1.147825422506501131e-01 -1.464329384611555984e-01 -7.064046880877774548e-01 7.656551980270690505e-01 6.119000497138563643e-01 -1.983694706710429634e-01
8.736923422174892873e-03 -3.493394544515782130e-01 -9.004993837902690590e-01 -9.548168124166610538e-01 -1.390520583617654293e-01 2.626582947326100426e-01
4.144534308078730300e-02 1.480247850357367390e-01 -6.516505074670162490e-01 -5.196943599352161769e-01 4.067076831365183387e-01 -7.513365642168969849e-01
-2.800149447095985969e-02 -2.731868127861652659e-02 -6.985301707555562345e-01 -5.196943599352161769e-01 4.067076831365183387e-01 -7.513365642168969849e-01
-8.263298792565413123e-03 -3.447533245461623097e-01 -8.895623128185861095e-01 9.566561498879221359e-01 1.386329314796009848e-01 -2.561052931725334436e-01
-6.675948322781223576e-02 7.561792810093048711e-02 -6.160116825483538117e-01 -5.152198165821479936e-01 4.073239723444363469e-01 -7.540793871699493778e-01
8.888272697833668468e-02 1.478472503260983006e-01 -6.847539334997319038e-01 -5.251356479101422225e-01 4.038831180143231392e-01 -7.490734131425460518e-01
-2.086232886884012427e-02 7.717883078206455583e-02 -6.570570035895968442e-01 5.196943599352161769e-01 -4.067076831365183387e-01 7.513365642168969849e-01
-1.199507321911111868e-01 -4.487412256200627725e-02 -6.399677725632620939e-01 -5.195851744623471991e-01 3.402347792261996573e-01 -7.837547712670280831e-01
-2.750089634834534946e-02 -1.789265991680015488e-01 -7.909946798690489222e-01 5.217402206832962852e-01 -4.014322358454827100e-01 7.527544766691475209e-01
-1.162598713324216881e-01 -2.510685997489323085e-02 -6.461366669681144481e-01 5.242496223266832622e-01 -4.054688878165251253e-01 7.488373084343221686e-01
-4.477818098540437691e-02 2.000352039442235275e-01 -5.649412922261595194e-01 -4.855557471181889406e-01 3.646490066667981700e-01 -7.945229501892406843e-01
-1.311758590575043404e-02 6.408800779909154532e-02 -6.695002120903906784e-01 5.196943599352161769e-01 -4.067076831365183387e-01 7.513365642168969849e-01
