-9.625457262458159136e-02 -6.261156145321897237e-02 -9.087348833008578319e-01 5.758182347537518231e-01 3.799238692637456616e-01 -7.239414438259058615e-01
-4.624656672868771717e-02 -2.234147599153380251e-02 -8.586840968927741402e-01 -5.706893324341977269e-01 -3.805764078368998327e-01 7.276505230148406778e-01
-4.868758112091601240e-04 9.065148176710320638e-02 -7.532124879138381024e-01 5.706893324341977269e-01 3.805764078368998327e-01 -7.276505230148406778e-01
-8.847137438557093128e-03 7.806147665745685749e-02 -7.768392434820644565e-01 -5.706893324341977269e-01 -3.805764078368998327e-01 7.276505230148406778e-01
5.190851766081251706e-02 -1.498210909493037923e-01 -8.379196740858089187e-01 5.693214879645499549e-01 3.855755033071914806e-01 -7.260885445944154082e-01
1.215743679505497943e-01 -2.556915922341516934e-02 -7.281457290868297294e-01 -5.911020502912086583e-01 -3.742434994538076931e-01 7.145209368927526450e-01
-5.803664815962911866e-02 -3.405710066096176436e-02 -8.740584609584711728e-01 -5.706893324341977269e-01 -3.805764078368998327e-01 7.276505230148406778e-01
-3.622746132905952515e-02 -1.374193810384976844e-01 -9.110143542727872079e-01 -5.706893324341977269e-01 -3.805764078368998327e-01 7.276505230148406778e-01
6.305804864412932476e-02 1.063036047862947336e-01 -7.056734727182722988e-01 -5.706893324341977269e-01 -3.805764078368998327e-01 7.276505230148406778e-01
7.541342274957056613e-02 1.666395741583849288e-01 -6.634442235859857595e-01 -6.320329262410967486e-01 -4.293128658183444912e-01 6.451548987568459514e-01
4.527776911426213864e-03 -2.606789460573498418e-02 -8.096004527858049471e-01 -6.532153803363183187e-01 3.436667629873184082e-01 -6.746872037543745204e-01
9.219046384064515098e-02 1.336495619915206434e-01 -6.592292422740487767e-01 3.894549066505750279e-01 3.116070019175806172e-01 -8.667329185174221795e-01
-7.092783586220842429e-02 -8.891995708004322985e-02 -8.986978548098416564e-01 2.946206754397651673e-01 -2.314005478875047761e-01 -9.271744409984450375e-01
-1.293583952530434969e-02 -2.045477694700328919e-01 -9.271589011660320567e-01 -5.568713683811378212e-01 -3.559347457822958360e-01 7.504696768172658405e-01
-1.155934895905830762e-01 3.509871605950096174e-02 -8.728916987480771494e-01 5.776864052346678546e-01 3.784815189198650343e-01 -7.232082390592344812e-01
5.502731488859285286e-02 -1.369959571951768207e-01 -8.287376011436664580e-01 5.706893324341977269e-01 3.805764078368998327e-01 -7.276505230148406778e-01
2.611147076460900232e-02 7.328091388583790611e-02 -7.519218761501341719e-01 -5.706893324341977269e-01 -3.805764078368998327e-01 7.276505230148406778e-01
2.685651297652912745e-02 9.222955159694574967e-02 -7.309419666562180229e-01 5.706893324341977269e-01 3.805764078368998327e-01 -7.276505230148406778e-01
8.305065610414625460e-03 6.751586316935133392e-02 -7.721897475986537751e-01 -9.139715550177862635e-01 -1.880613942160297702e-01 3.595676690469992720e-01
-2.896430963100544639e-02 1.276805092392912233e-01 -7.666651593892073180e-01 -5.706893324341977269e-01 -3.805764078368998327e-01 7.276505230148406778e-01
4.223092461296611838e-02 -9.936754754675257428e-02 -8.190932439547626842e-01 5.706893324341977269e-01 3.805764078368998327e-01 -7.276505230148406778e-01
7.041791153966986405e-02 5.011384925884813935e-02 -7.292863876656507927e-01 -5.744282168759187179e-01 -3.798331530852576687e-01 7.250924075413172076e-01
-5.740451491042142945e-02 -7.596051879729528999e-02 -8.954790470165062688e-01 -5.706893324341977269e-01 -3.805764078368998327e-01 7.276505230148406778e-01
4.070631614253431702e-02 -1.766002850469431118e-01 -8.710819251414226860e-01 -5.729214670229282325e-01 -3.748477629276670831e-01 7.288690878699817244e-01
-7.935192547201302959e-02 1.806338674662555099e-01 -7.711181304035696904e-01 3.909216158793301643e-01 7.999660435344455589e-01 4.552302927421890688e-01
-9.472830306620048935e-02 1.632010062796297734e-01 -7.992276186407625271e-01 -5.509758259335011399e-01 -3.984640887727642355e-01 7.332475770129667225e-01
-9.640180364503039834e-02 1.122900072574415237e-01 -8.126930640376638371e-01 5.578912267080617937e-01 2.786235961336821498e-01 -7.817456561054296760e-01
-2.094426709002604817e-02 -1.147931364017687472e-01 -8.916735896890534141e-01 -5.553541361220325490e-01 -3.181131261584762004e-01 7.683656827694950175e-01
6.024793744933120559e-02 7.800512746206718362e-02 -7.121930630698029008e-01 5.706893324341977269e-01 3.805764078368998327e-01 -7.276505230148406778e-01
-1.001865433384622854e-02 1.524045308185779657e-01 -7.339109871660453033e-01 -2.327150653862250784e-01 -8.216083615728191347e-01 -5.203877386487048007e-01
4.728237862980588097e-02 -9.362574984218534346e-02 -8.121283569584273332e-01 5.706893324341977269e-01 3.805764078368998327e-01 -7.276505230148406778e-01
-2.397873034937937284e-02 1.639881483160560705e-01 -7.437653644438763090e-01 -5.706893324341977269e-01 -3.805764078368998327e-01 7.276505230148406778e-01
1.060377262769940029e-02 2.183777955911597457e-01 -6.781364876858401169e-01 5.680619533809241339e-01 3.753330043604294897e-01 -7.324143314810424021e-01
-5.872246658178015277e-02 2.073986864195677959e-01 -7.381281222580089452e-01 5.735505663218120054e-01 3.741410842684818050e-01 -7.287373991598986578e-01
1.796478787880883068e-02 -1.552845342747811441e-01 -8.778557404653544172e-01 -5.706893324341977269e-01 -3.805764078368998327e-01 7.276505230148406778e-01
9.777092222114551479e-02 -3.381155997442389372e-03 -7.255583711665655189e-01 5.663388028892910597e-01 3.816916440802057831e-01 -7.304600257243882844e-01
-9.857103832604686977e-02 6.960321601720066698e-02 -8.513952535056642512e-01 -5.663189012864356942e-01 -3.822554796039699387e-01 7.301805601071991170e-01
2.547636694612103250e-02 1.226516024498114366e-01 -7.265980816236562445e-01 -5.706893324341977269e-01 -3.805764078368998327e-01 7.276505230148406778e-01
-8.311505092302698405e-02 -1.250268330458964572e-02 -8.720485998207467837e-01 5.744009550360580363e-01 3.796234080686086698e-01 -7.252238350330459937e-01
7.285640550402283123e-03 -1.894880072791949380e-02 -8.085894807389296668e-01 -6.536972312577020716e-01 3.507251075360283687e-01 -6.705757442600022156e-01
2.259870868909004404e-02 2.018742533769029290e-01 -6.772774264746561634e-01 5.690986189341962209e-01 3.769871420433374420e-01 -7.307581382791346059e-01
8.643045448757845362e-03 -3.556706721398685267e-01 -9.926094846158751706e-01 -9.144241019272670856e-01 -1.819407228978210389e-01 3.615606936130211224e-01
-1.244129196801094656e-01 1.356721690605147967e-01 -8.323456328165880214e-01 7.927494008906484924e-01 -4.864315576015168507e-01 3.673319032658065586e-01
9.713776104561248903e-03 -1.333680673412994400e-02 -7.996002592341281412e-01 5.706893324341977269e-01 3.805764078368998327e-01 -7.276505230148406778e-01
5.094939682271259346e-02 4.025836466819031345e-02 -7.392281640038006474e-01 5.706893324341977269e-01 3.805764078368998327e-01 -7.276505230148406778e-01
-1.597281678370971944e-02 -1.070768985042963861e-01 -8.792590791081920099e-01 -5.706893324341977269e-01 -3.805764078368998327e-01 7.276505230148406778e-01
8.497481920224703167e-03 1.892238413070562730e-01 -7.025632880384315992e-01 -9.350510776651740352e-01 1.643020820198826393e-01 -3.141405863640165386e-01
6.543963737207035558e-02 -2.020251718847660208e-02 -7.699709571691966126e-01 -5.706893324341977269e-01 -3.805764078368998327e-01 7.276505230148406778e-01
2.305992061970234611e-02 4.736188843007116400e-02 -7.678713688675858906e-01 -5.706893324341977269e-01 -3.805764078368998327e-01 7.276505230148406778e-01
1.693323109980764477e-02 9.130539769044401788e-02 -7.496931004110261032e-01 -5.706893324341977269e-01 -3.805764078368998327e-01 7.276505230148406778e-01
1.179936572006267531e-01 6.244538496781551484e-02 -6.845943809995085338e-01 -6.130273660567923111e-01 -3.774909954289459302e-01 6.940446648707376820e-01
1.066673564533192620e-01 2.903860262199859776e-03 -7.252796674685001443e-01 -5.750436010676297505e-01 -3.794453255114365042e-01 7.248076309053957944e-01
-1.128087813921038463e-01 -2.655797040873536866e-02 -9.124436982299981569e-01 -5.471619977475352670e-01 -3.816017426061362738e-01 7.449790992107672150e-01
-8.715983525465072213e-02 7.169058862215893502e-02 -8.414468948222548761e-01 -5.670253115340461170e-01 -3.819852340932230472e-01 7.297736477939330557e-01
-1.874534860371613459e-02 -1.983446147662583370e-02 -8.253188870517160769e-01 5.706893324341977269e-01 3.805764078368998327e-01 -7.276505230148406778e-01
-9.162872461466788077e-02 -8.226954169087154212e-02 -9.174792210601933062e-01 2.987281686609016829e-01 8.362598914236364367e-01 4.598161319969448213e-01
-1.110029845375363339e-01 8.521164463923165677e-02 -8.528211080272671829e-01 -5.500234422367317189e-01 -3.887014034237002424e-01 7.391788903685645451e-01
-5.334629596806921177e-03 2.419382494954909757e-01 -6.872701205575247885e-01 -5.591427456028136289e-01 -4.195011036488708323e-01 7.151071346848150156e-01
-8.035427102341477501e-02 -2.992132454941023867e-02 -8.892966161466451247e-01 -5.668776022499457667e-01 -3.813114042131549586e-01 7.302406432706575190e-01
1.316862550202278492e-01 -1.637340223631144481e-02 -7.147695998228859038e-01 -6.106873075795729022e-01 -3.682475590695803991e-01 7.010383353287520380e-01
8.870218297115203127e-03 -2.891162559705635626e-01 -9.538546043274016561e-01 -9.350510776651739242e-01 1.643020820198826393e-01 -3.141405863640164831e-01
1.015114624321905440e-01 -1.659712163645086225e-01 -8.160045626493013238e-01 -7.985989426936808133e-01 -7.424351158925919514e-02 5.972667994417825144e-01
-1.030814105303064915e-01 -3.673475595300714630e-02 -9.005795266315298475e-01 5.756200670203754921e-01 3.801541994435081451e-01 -7.239781233496793700e-01
7.488103049335191608e-02 5.862092986402010764e-02 -7.137351304841818012e-01 2.824107988459120255e-01 -8.499478198545671326e-01 -4.447840422268791727e-01
-8.327722502500365179e-03 8.391116431354081473e-02 -7.733723626121342676e-01 -5.706893324341977269e-01 -3.805764078368998327e-01 7.276505230148406778e-01
7.506585826921509386e-02 -4.535628748239319691e-02 -7.794829852119451452e-01 -5.790180250606542511e-01 3.277968343395035178e-01 7.465168196711039483e-01
-5.445089160566713576e-02 3.461364499444391507e-02 -8.353299534844333962e-01 -5.706893324341977269e-01 -3.805764078368998327e-01 7.276505230148406778e-01
-2.731126430751977009e-03 2.104353385113686692e-01 -7.025391705608117210e-01 -5.697231399119746520e-01 -3.846308847642392337e-01 7.262744841547984498e-01
-6.207493168738842902e-03 -3.677964181474345229e-01 -9.925171057810451281e-01 6.341781859558467405e-01 3.633395528289597998e-01 -6.824971778753393670e-01
1.007730730031555083e-01 1.091879364597419244e-01 -6.738614416875500224e-01 -5.945778309801090789e-01 -3.841180040650246097e-01 7.063501694344601622e-01
-7.419665132292792287e-02 1.691795466088606426e-01 -7.802643588046250800e-01 -5.664031325235527881e-01 -3.831666702576253525e-01 7.296374402887989552e-01
-7.143628450469159674e-02 6.396547286975902413e-02 -8.228147687995845949e-01 5.706893324341977269e-01 3.805764078368998327e-01 -7.276505230148406778e-01
-8.626613734572582959e-02 -7.246317985472006118e-02 -9.112773234436186698e-01 -3.011059044740862500e-01 -8.409250352880303092e-01 -4.496446589437790298e-01
1.019090173636954949e-01 -1.263447566107223363e-01 -7.867657820355341558e-01 5.620900522000011890e-01 3.865527982398284101e-01 -7.311851389290937586e-01
-6.198418345817059000e-02 5.085534920003287329e-02 -8.327434918715459489e-01 -5.706893324341977269e-01 -3.805764078368998327e-01 7.276505230148406778e-01
-4.598229482590862616e-02 -2.372180510437994078e-02 -8.465040033382352780e-01 5.816742766645209839e-01 7.985965666408847419e-01 -1.545915897330676081e-01
5.605528915102268167e-02 1.443753389073119953e-01 -6.809406468597619666e-01 5.706893324341977269e-01 3.805764078368998327e-01 -7.276505230148406778e-01
6.773977003038923750e-02 1.474002373648267417e-01 -6.702133126232689975e-01 5.631200030763842124e-01 3.804221270917684805e-01 -7.336040262663685585e-01
-1.172084539336095202e-02 6.298759884347623905e-02 -7.715816202272826052e-01 4.230913252491876331e-01 -7.647939281952545465e-02 -9.028536055047035047e-01
-7.929841240756846377e-02 1.755593456254224694e-01 -7.807765510116700947e-01 -5.585482506135051040e-01 -3.878594041376475787e-01 7.332045651512147932e-01
-8.218349152375811414e-03 -2.253308228995166140e-01 -9.200380397564712487e-01 9.139719886584095621e-01 1.880653728965113736e-01 -3.595644858229022356e-01
-2.613344769376193047e-02 1.730851189102064758e-01 -7.406656997402419895e-01 -5.703672357829996376e-01 -3.841276140872144640e-01 7.260352556459802598e-01
9.160031213232854019e-02 -1.313829230426831751e-01 -8.125535094030609251e-01 -6.003876540039780885e-01 -2.657940313388640341e-01 7.542467751500394613e-01
7.534518392510393577e-03 6.214005174408146481e-02 -7.723185052634041758e-01 -5.706893324341977269e-01 -3.805764078368998327e-01 7.276505230148406778e-01
9.314840603605131775e-02 5.971795916689325023e-02 -6.962041978180708579e-01 5.659058380582568937e-01 3.812814252929360714e-01 -7.310096149697136170e-01
6.407458106759883476e-02 -1.828886430976514876e-01 -8.558171965246171853e-01 -5.814678789056908492e-01 -3.655206539224628570e-01 7.268354403556638310e-01
5.208856933200573663e-02 -2.111142417482261557e-01 -8.739708619072455997e-01 -5.154864308530355821e-01 8.558024628563661862e-01 4.331147856372654509e-02
-1.302790218738653361e-01 2.888460952275438698e-02 -8.880989177990349370e-01 6.106115210743140453e-01 3.682722384243498626e-01 -7.010913840129765484e-01
3.484711913858687393e-02 -1.696354265907872583e-01 -8.721002236047867839e-01 -5.724120875077490789e-01 -3.750912284142800535e-01 7.291439997981791210e-01
-1.996515336560146167e-02 7.482120622253864628e-04 -8.259954475578844546e-01 -5.706893324341977269e-01 -3.805764078368998327e-01 7.276505230148406778e-01
1.165675120546027094e-01 5.884548290122294106e-02 -6.877360632121419792e-01 -5.912908247198946921e-01 -3.792296242385131411e-01 7.117303230170697326e-01
9.677650495567106936e-02 -8.109202288723915686e-03 -7.287999350612627270e-01 5.663388028892910597e-01 3.816916440802057831e-01 -7.304600257243882844e-01
-2.728212117326557148e-03 1.813412563006694747e-02 -8.055427661762712965e-01 -6.168480455833246640e-02 -4.625759517230050299e-01 8.844311583012869349e-01
7.770614831877126205e-02 1.371310442878181379e-01 -6.824602619123943947e-01 -6.028492837290114759e-01 -2.529492790967805549e-01 7.566963745861590152e-01
-7.588675213994690479e-03 1.706817768117712408e-01 -7.120485398795149967e-01 6.335226800285019833e-01 3.585890397441966471e-01 -6.856113435940504042e-01
-8.368758530528838668e-02 1.675602306905797922e-01 -7.883647779017828316e-01 -5.655686970081947873e-01 -3.883098469022728261e-01 7.275627201576410075e-01
1.551822199727991968e-03 3.746524466199835889e-03 -7.935324383341358923e-01 6.156611146043673016e-02 4.625793481534936080e-01 -8.844376521731363017e-01
8.768331509470393692e-03 2.273968778910167299e-01 -6.867580307951171026e-01 -9.213713061639561275e-01 -1.923999860950428853e-01 3.377234986321685506e-01
-3.240901099098942445e-02 -2.637662800015007358e-02 -8.394568561399112783e-01 5.706893324341977269e-01 3.805764078368998327e-01 -7.276505230148406778e-01
-4.990052389812871941e-02 -7.031103191466929470e-02 -8.761538921508893463e-01 5.706893324341977269e-01 3.805764078368998327e-01 -7.276505230148406778e-01
-1.152191304240201275e-01 -6.190179006329137729e-02 -9.307222932999974496e-01 6.051868031591715047e-01 -3.084418442858087236e-02 7.954857444158994761e-01
-2.279721564188385424e-02 2.198240941510317958e-01 -7.035112739190205744e-01 5.739525594511049045e-01 3.729646339588134074e-01 -7.290238962582048510e-01
1.060536071008966047e-01 -8.974771883206550394e-02 -7.741978092616341733e-01 -5.753779275189873088e-01 -3.783119767588479232e-01 7.251346693992556380e-01
-2.497237614968682642e-02 7.469950669332088566e-02 -7.953247593164857188e-01 -2.923113356019401698e-01 2.559182168420062187e-01 9.214444906596476192e-01
3.169178516762787001e-03 1.382660761554550810e-02 -7.905260918687334604e-01 5.706893324341977269e-01 3.805764078368998327e-01 -7.276505230148406778e-01
2.851725640071742229e-02 1.801253445197948388e-01 -6.939828733609094691e-01 -5.714455749185028965e-01 -3.835399555625851886e-01 7.254977997162441739e-01
9.660053178507202465e-02 -1.587321971576699797e-01 -8.173006925046238935e-01 -5.938968311917568466e-01 -3.582588406990100949e-01 7.203729290870047874e-01
5.103232746222476253e-03 7.341523795054612223e-02 -7.728346754824904075e-01 -6.336148952670205281e-01 -3.585540418107099336e-01 6.855444286090917050e-01
1.303595894441635095e-01 -7.373618877875537381e-02 -7.380605243461304532e-01 4.518803078634275883e-01 4.249871576421796471e-01 -7.843405530791295321e-01
-1.156964886388401892e-01 1.368486216410489675e-01 -8.288616818939029685e-01 -5.266783900539824259e-01 -4.053032909102652348e-01 7.472209283923019196e-01
-7.976581957004912071e-02 -1.350331312370194325e-01 -9.339426385705813516e-01 6.031434015622940681e-01 3.995273287220765246e-01 -6.903592910623184142e-01
-8.302431985906530768e-03 9.611874898380948218e-02 -7.669677059771078387e-01 -5.706893324341977269e-01 -3.805764078368998327e-01 7.276505230148406778e-01
-6.556231578007017113e-02 -4.422513789457047095e-02 -8.852788656133350198e-01 -5.706893324341977269e-01 -3.805764078368998327e-01 7.276505230148406778e-01
-9.014183990745382484e-04 -3.108814725048422711e-01 -9.586523332207164128e-01 5.042154891312410347e-01 4.002325270128787582e-01 -7.652324253722057046e-01
1.140379791617685684e-01 9.029890872950623038e-02 -6.681302240389973557e-01 -7.344765273127714655e-01 -1.597083553860942085e-01 -6.595737047869937308e-01
-6.488828193999103544e-02 -3.902911290518938647e-02 -8.715475507421185375e-01 5.706893324341977269e-01 3.805764078368998327e-01 -7.276505230148406778e-01
1.247360456327014783e-01 -7.165569557676682022e-02 -7.406294415767386008e-01 5.280621068247236538e-01 3.974220124653360386e-01 -7.504706225721539115e-01
-1.265892825390809995e-01 1.103134702113335586e-01 -8.426617426003126798e-01 6.109202135781519605e-01 3.593897823949732673e-01 -7.054186536743403124e-01
-1.746718855369256904e-02 -4.096841510940921194e-02 -8.458549842283540343e-01 -5.706893324341977269e-01 -3.805764078368998327e-01 7.276505230148406778e-01
1.019829714512823504e-01 -4.468678040112939592e-02 -7.538925301239769450e-01 -5.751526697574500524e-01 -3.790389203715486821e-01 7.249337233943858871e-01
4.281222491394841984e-02 7.632754534451481609e-02 -7.267451357868119910e-01 5.706893324341977269e-01 3.805764078368998327e-01 -7.276505230148406778e-01
1.009967015276435343e-01 -1.108326662635654436e-01 -7.793146954834909712e-01 5.657369248233065084e-01 3.833374783171317746e-01 -7.300644557906724730e-01
-8.541867294984614722e-02 -7.951454939397085975e-02 -9.216205206967036379e-01 -2.725833667387434489e-01 2.465936855827904894e-01 9.299945496657856525e-01
-7.465935522775697664e-02 -8.889393886336535711e-02 -9.156442254281288440e-01 -5.660759974869646882e-01 -3.811724889209961997e-01 7.309346747548037815e-01
-1.516092579102292946e-03 -1.490678576183782078e-01 -8.744249359907123598e-01 5.043184149058742571e-01 4.002046716298637841e-01 -7.651791667266295560e-01
-5.458204996992772201e-02 1.138837450074387803e-01 -7.834878561597745650e-01 5.706893324341977269e-01 3.805764078368998327e-01 -7.276505230148406778e-01
3.598934808838177152e-02 -1.325609380399992709e-01 -8.561290968058135054e-01 -5.996234557868862503e-01 1.543514330297119097e-01 7.852562297695359073e-01
-4.889243332499805528e-02 -1.232988043047523602e-01 -9.031326655846179108e-01 5.720404547187700750e-01 3.846997464624341001e-01 -7.244141241285134702e-01
-1.792222117805540235e-02 -1.192750295153923445e-01 -8.907749585567026340e-01 -3.760821578838783874e-01 8.235061822730149750e-02 9.229195989895255803e-01
-4.022180201399511851e-02 1.914563583080821085e-01 -7.318036629182317343e-01 5.716337230137150671e-01 3.767262838503339650e-01 -7.289116501811427895e-01
-4.305865891550859220e-02 2.377574835255846439e-02 -8.320635806567775461e-01 -5.706893324341977269e-01 -3.805764078368998327e-01 7.276505230148406778e-01
5.779300314641828452e-03 2.215650553010846679e-01 -6.946394058733326160e-01 -6.341056790804890930e-01 -3.728896630705511028e-01 6.773944839847769739e-01
2.023357830234866466e-03 -7.848289816481954229e-02 -8.365073184866480549e-01 6.156611146043673016e-02 4.625793481534936080e-01 -8.844376521731363017e-01
1.121601007097182134e-01 -7.851314791506819324e-02 -7.537247574206049627e-01 5.634325303412216490e-01 3.834837589023038507e-01 -7.317677161582408774e-01
9.301051115715618101e-02 -1.197645902455206912e-01 -8.002024063608295101e-01 -5.758416004500083174e-01 -3.778898942779325698e-01 7.249866750456765985e-01
-4.335861691258174888e-02 -1.420591205415787095e-01 -9.189536806753015874e-01 -5.655333537286121315e-01 -3.808833272290806371e-01 7.315052404866101421e-01
-3.418039980934218375e-02 9.251177619360638482e-02 -7.786650231099335739e-01 5.706893324341977269e-01 3.805764078368998327e-01 -7.276505230148406778e-01
8.241040141259137197e-02 -1.205176001232944293e-02 -7.420138071051788353e-01 5.670249624128292920e-01 3.816768984204860216e-01 -7.299352280941421300e-01
-3.231411018277378228e-02 -1.897558287608979155e-01 -9.344421023064626297e-01 -5.332163848410756968e-01 -3.308293787965209676e-01 7.786091503842745842e-01
3.153973351621593840e-02 -1.869801926520863189e-01 -8.836230857990463594e-01 -5.726456249497390294e-01 -3.752490621730398268e-01 7.288793655771689250e-01
-5.715127793020170072e-02 6.785161725474676830e-02 -8.095786404226226196e-01 5.706893324341977269e-01 3.805764078368998327e-01 -7.276505230148406778e-01
5.059956284917219160e-02 -2.085207026803141406e-01 -8.789127899863046212e-01 -6.199826807960895358e-01 -2.907296663363341804e-01 7.287645275566431158e-01
-8.598101877716569919e-03 -8.452436975083524318e-02 -8.473583765829350023e-01 9.140198033496114149e-01 1.880110201840716477e-01 -3.594713554291661950e-01
-6.962773461942446673e-02 -2.568835807936932503e-02 -8.682871648993590874e-01 5.706893324341977269e-01 3.805764078368998327e-01 -7.276505230148406778e-01
-1.290720965702698009e-01 -2.064123793203102505e-02 -9.143369710134657824e-01 9.673872284287218237e-01 1.559833343908278713e-01 1.995774277450101941e-01
-6.811457378040989283e-04 -7.869845844158521175e-02 -8.524234516985290666e-01 -5.706893324341977269e-01 -3.805764078368998327e-01 7.276505230148406778e-01
9.636772259592354603e-03 5.470707326790644198e-02 -7.745573305517167162e-01 -5.706893324341977269e-01 -3.805764078368998327e-01 7.276505230148406778e-01
-5.458195494791374253e-02 -3.368630152666488020e-02 -8.711550424924674463e-01 -5.706893324341977269e-01 -3.805764078368998327e-01 7.276505230148406778e-01
-2.887338130695188323e-03 -3.987670209635686414e-01 -1.007733796877490651e+00 4.814676066917426556e-01 6.300956711739782445e-01 -6.092359057658527366e-01
1.215558139179906127e-01 1.703610877327590631e-02 -6.965603609250385908e-01 5.304826876716631778e-01 3.860783888371137063e-01 -7.546731714812625613e-01
6.181820680060135789e-04 -2.933873705297843082e-01 -9.678909052401771795e-01 -5.042154891312410347e-01 -4.002325270128787582e-01 7.652324253722057046e-01
-5.617477291494845509e-02 -1.707270916528905724e-01 -9.411592420550434213e-01 2.888078228057336938e-01 3.616805898350232695e-01 8.864407438869229550e-01
-7.025562344045506447e-03 -1.229749387364778984e-01 -8.700717928923002997e-01 5.706893324341977269e-01 3.805764078368998327e-01 -7.276505230148406778e-01
-1.011141845987433979e-01 -8.829170435802588535e-02 -9.351026459533802182e-01 -5.023774143479792231e-01 -3.681233772548475613e-01 7.823695499388532149e-01
-1.079826048760472168e-01 -2.933658876521305289e-02 -9.005954148059819309e-01 5.753566596056078897e-01 3.798052000553664431e-01 -7.243705710880168347e-01
-1.743493725182272344e-02 8.156651146773610805e-02 -7.817413662350209957e-01 -5.706893324341977269e-01 -3.805764078368998327e-01 7.276505230148406778e-01
-4.315841029023470554e-02 1.977886148560262791e-01 -7.308419214995667268e-01 5.720720502320398859e-01 3.749232149941683634e-01 -7.294971913597384505e-01
8.250530911159710545e-02 1.582032552659748403e-01 -6.596304247213667926e-01 -6.415834743251777050e-01 -3.464185032819154797e-01 -6.843718770206381752e-01
-5.415593344600010128e-02 1.575832007335812857e-01 -7.707060872539771568e-01 -5.707989778776312306e-01 -3.839043300476617793e-01 7.258140204105366644e-01
7.826412832578782952e-02 5.728988769230140138e-02 -7.090416515116731988e-01 2.751178421781645400e-01 -8.558971267984895048e-01 -4.378930020602305739e-01
-5.152633243143478481e-02 1.704896387068755292e-01 -7.515917543554920810e-01 5.754827672752397261e-01 3.780393581143833281e-01 -7.251936488178153395e-01
-9.627506203212202185e-02 -7.849758567961077904e-02 -9.268657794531820482e-01 -5.426955152814568750e-01 -3.799569709482809032e-01 7.490756156231498375e-01
9.760704022287106096e-02 9.638681568057021524e-05 -7.238682905933567779e-01 5.663388028892910597e-01 3.816916440802057831e-01 -7.304600257243882844e-01
-3.336291823698793110e-03 -2.191146590091523072e-01 -9.179627752950565434e-01 5.719091657644196358e-01 3.892184099840454992e-01 -7.221003638304973604e-01
-5.468830813579151490e-02 9.872696000299241437e-02 -7.914985082636719627e-01 5.706893324341977269e-01 3.805764078368998327e-01 -7.276505230148406778e-01
-5.839176842116151206e-02 4.923477652476440647e-02 -8.307735885091928063e-01 -5.706893324341977269e-01 -3.805764078368998327e-01 7.276505230148406778e-01
4.911971494790941251e-02 2.011228397835586879e-01 -6.606599908413478550e-01 -5.129806654273173505e-01 -5.267135448102870932e-01 -6.778079953874315278e-01
4.600114075740712599e-02 1.087130046374288478e-01 -7.177908757242450477e-01 -5.706893324341977269e-01 -3.805764078368998327e-01 7.276505230148406778e-01
-6.247182955649403790e-03 1.754739557352277823e-01 -7.211919102187300812e-01 6.582557746117502218e-01 -3.488889599502570382e-01 6.670650858912586800e-01
6.146251227247467169e-02 -5.540909742151087225e-02 -7.915039544114534920e-01 -5.706893324341977269e-01 -3.805764078368998327e-01 7.276505230148406778e-01
-3.076583265382436868e-03 1.311859029318754033e-01 -7.288208174386809901e-01 5.278718902141380509e-01 3.936264515224333627e-01 -7.526018098460899308e-01
4.987734414796877146e-03 -1.056254815299226789e-02 -8.168635594370267095e-01 -6.336148952670206391e-01 -3.585540418107100447e-01 6.855444286090918160e-01
3.186792740720206102e-02 -8.103451102728702338e-02 -8.176322826933848376e-01 5.706893324341977269e-01 3.805764078368998327e-01 -7.276505230148406778e-01
2.972463875522678850e-02 -3.880091658798433263e-02 -7.972241922405483017e-01 5.706893324341977269e-01 3.805764078368998327e-01 -7.276505230148406778e-01
8.100767687097421010e-02 -1.569666358443744247e-01 -8.290495702309378379e-01 -5.839490788079175765e-01 -3.718051204723587522e-01 7.216400943336775953e-01
2.373503853002777858e-02 -2.562397109804596951e-02 -7.950299608392684680e-01 5.706893324341977269e-01 3.805764078368998327e-01 -7.276505230148406778e-01
3.294240321981877634e-02 -7.878248058421952194e-03 -7.785273294834483826e-01 5.706893324341977269e-01 3.805764078368998327e-01 -7.276505230148406778e-01
-2.043904841174834508e-02 2.168418745528916947e-01 -7.031927971160562008e-01 5.719786717837621604e-01 3.763294872826792314e-01 -7.288460166770746040e-01
8.756995972008124740e-02 -1.709191510854281837e-01 -8.308411895892308108e-01 -5.932485089198523687e-01 -3.606414531939541868e-01 7.197179648324227852e-01
-1.124169876842251725e-01 1.543385019478248354e-01 -8.169350880029304651e-01 -5.273883998745425572e-01 -4.105147846090855812e-01 7.438676544218905118e-01
8.549321885932971432e-02 -1.336591599628159273e-02 -7.505764104528869218e-01 -5.743257906384011680e-01 -3.794734131343054373e-01 7.253618510314530088e-01
9.489602022643517029e-03 -2.385007589592951505e-01 -9.292252617425069694e-01 -9.350510776651739242e-01 1.643020820198826393e-01 -3.141405863640164831e-01
1.211090669667757268e-02 6.033252527389912356e-02 -7.696746618326292255e-01 -5.706893324341977269e-01 -3.805764078368998327e-01 7.276505230148406778e-01
1.231116458432369998e-01 -1.215025851111588978e-01 -7.738166863414740471e-01 -7.927494008906486034e-01 4.864315576015160181e-01 -3.673319032658071692e-01
-3.215903586716834656e-02 -1.084774660751707531e-01 -8.926863016956889663e-01 -5.706893324341977269e-01 -3.805764078368998327e-01 7.276505230148406778e-01
4.983585289750325220e-02 1.158410593767824903e-01 -7.110250382030816052e-01 -5.705714349199316748e-01 -3.839776197641955879e-01 7.259541481206871483e-01
5.679156203043087686e-02 -4.162803093483139621e-02 -7.753622484504499868e-01 5.804228003338162134e-01 -3.211536183766438568e-01 -7.483112495855183122e-01
-1.929561271531672270e-02 1.555878177361579573e-01 -7.444859883476061535e-01 -5.706893324341977269e-01 -3.805764078368998327e-01 7.276505230148406778e-01
8.470357616126196476e-03 1.085429830854887367e-01 -7.446803240073049945e-01 -9.350510776651739242e-01 1.643020820198826393e-01 -3.141405863640164831e-01
-2.563107574444273978e-02 -1.174598580755042282e-01 -8.817794164914526389e-01 5.706893324341977269e-01 3.805764078368998327e-01 -7.276505230148406778e-01
-4.607708283274397285e-04 -1.479351216127307023e-01 -8.922423048602978746e-01 -6.168480455833245946e-02 -4.625759517230049744e-01 8.844311583012868239e-01
-5.092736802043824895e-02 -1.694884752728274824e-01 -9.291969455236239739e-01 5.859928731508364796e-01 3.893000736504881321e-01 -7.106741906613408544e-01
-4.554296000805403005e-02 3.154531423636083853e-02 -8.299483491084481690e-01 -5.706893324341977269e-01 -3.805764078368998327e-01 7.276505230148406778e-01
-8.585375589715875388e-02 -3.394602007689270264e-03 -8.694500557311057864e-01 5.744009550360580363e-01 3.796234080686086698e-01 -7.252238350330459937e-01
-3.726402937557083545e-02 -1.218572532445290485e-01 -8.932029599870486836e-01 5.706893324341977269e-01 3.805764078368998327e-01 -7.276505230148406778e-01
-3.742989856596552062e-02 1.919330502820203732e-01 -7.395639697596615436e-01 -5.697394254818806125e-01 -3.844024902299125190e-01 7.263826213206220350e-01
5.518839010472547518e-02 8.435447298336753996e-02 -7.233254244571596381e-01 -5.706893324341977269e-01 -3.805764078368998327e-01 7.276505230148406778e-01
1.004560371735421509e-01 -1.548992913131877480e-01 -8.121994748509882012e-01 -5.993670000447758328e-01 -3.567056847917859375e-01 7.166032749677805347e-01
-3.569538906972331144e-02 -3.468649666151327193e-02 -8.568656127833235159e-01 -5.706893324341977269e-01 -3.805764078368998327e-01 7.276505230148406778e-01
-2.576630021940347001e-02 -8.076865632066412837e-02 -8.731802546688143263e-01 -5.706893324341977269e-01 -3.805764078368998327e-01 7.276505230148406778e-01
-4.251136411698609036e-02 3.819347524051418252e-02 -8.136085234738786864e-01 5.706893324341977269e-01 3.805764078368998327e-01 -7.276505230148406778e-01
2.716917147858867801e-02 1.547134479449106537e-01 -6.980674439994443148e-01 5.703657449875341179e-01 3.772087215422565420e-01 -7.296550536639015982e-01
3.674760092511680093e-02 -1.487904391412482319e-01 -8.492429658184788011e-01 5.706893324341977269e-01 3.805764078368998327e-01 -7.276505230148406778e-01
-5.177198034074078498e-02 1.513354303026816783e-01 -7.617674174116404462e-01 5.705708776567210982e-01 3.772277490361445329e-01 -7.294848174754304804e-01
-4.507265996869253694e-02 1.647493312968294210e-02 -8.269765740037798851e-01 5.706893324341977269e-01 3.805764078368998327e-01 -7.276505230148406778e-01
2.289877839615627256e-02 8.748414995282208229e-02 -7.470129711387504257e-01 -5.706893324341977269e-01 -3.805764078368998327e-01 7.276505230148406778e-01
-8.659625862842756927e-02 1.705946686838921977e-01 -7.890063066880180775e-01 -5.655686970081947873e-01 -3.883098469022728261e-01 7.275627201576410075e-01
1.143453517895975241e-02 2.856874337424082644e-02 -7.763332072075933565e-01 5.706893324341977269e-01 3.805764078368998327e-01 -7.276505230148406778e-01
8.668301079048114366e-02 1.334939771886351489e-01 -6.724073578431765119e-01 -5.955654688496793137e-01 -3.847929860397225621e-01 7.051497218382033472e-01
-7.175938328938247235e-02 8.999616155405359974e-02 -8.198962004269224613e-01 -5.669348730867558306e-01 -3.822272157564443607e-01 7.297172090701850022e-01
2.047519770221559090e-03 1.821503674848625465e-01 -7.182329471481340155e-01 -5.042154891312410347e-01 -4.002325270128787582e-01 7.652324253722057046e-01
5.276586603745180709e-02 6.051333414970226643e-02 -7.313716590671677231e-01 2.759967534772237441e-01 -8.559584177071845046e-01 -4.372196006885388786e-01
-8.158570037475863790e-02 -3.222407331048907086e-02 -8.811616519318649088e-01 5.745059535387087024e-01 3.798297102515955648e-01 -7.250326203411593395e-01
-7.214903543747805403e-02 7.461932961211693860e-02 -8.282499432639137682e-01 -5.670396389294650730e-01 -3.820474997472901313e-01 7.297299197782601832e-01
1.074435110252781600e-01 -3.651665977357260173e-02 -7.353836841601808505e-01 5.662482114029905311e-01 3.821119661115639499e-01 -7.303104876949726432e-01
4.813756859073480693e-02 -9.483831542717360841e-02 -8.225768838627904866e-01 -5.706893324341977269e-01 -3.805764078368998327e-01 7.276505230148406778e-01
2.319750316761849153e-03 1.631003231733948455e-01 -7.235928433793774595e-01 -5.708593533432072542e-01 -3.834470346763946269e-01 7.260082439603938731e-01
4.917281895745955617e-02 -8.991942626517909765e-03 -7.663804554488232723e-01 5.706893324341977269e-01 3.805764078368998327e-01 -7.276505230148406778e-01
-7.872761440430886895e-03 1.643831525779592961e-01 -7.309239127388470481e-01 -5.705392353458276222e-01 -3.836323774936599151e-01 7.261619515435658867e-01
-8.025343585236699440e-02 1.402613900321918183e-01 -8.001468802229718680e-01 -5.668015952925009593e-01 -3.827450897422317588e-01 7.295492771924914077e-01
1.237958186812950293e-02 1.741612861127730116e-01 -6.995616443282560715e-01 5.700173941631194729e-01 3.777654741460551580e-01 -7.296392374966500505e-01
-1.219148033316706653e-01 1.113941054283679871e-01 -8.470135396751472534e-01 -5.289965433013309459e-01 -4.007881286163627044e-01 7.480184042758820651e-01
-2.592508972218911245e-02 -1.760230108618064948e-01 -9.228866411384555324e-01 -5.679522315521192688e-01 -3.749570616593849715e-01 7.326919302044535565e-01
-9.508854097424075669e-02 1.080515305185377473e-01 -8.236681784699000364e-01 8.618958276023755416e-02 7.109913578376019228e-01 6.978987354221665163e-01
8.166294374710635073e-02 2.202241494419086149e-02 -7.247853201419885982e-01 5.670229480680506473e-01 3.814491586473697793e-01 -7.300558305577938834e-01
-4.257429826577745213e-02 -1.845384996252615317e-01 -9.306485329688199970e-01 5.769845789978684802e-01 3.891901438768355925e-01 -7.180667291469368108e-01
-5.375287925480932288e-02 1.664989344942552074e-01 -7.656733218155666876e-01 -5.707989778776312306e-01 -3.839043300476617793e-01 7.258140204105366644e-01
-1.953253528773786149e-02 1.519002552753505320e-01 -7.466004765683073030e-01 -5.706893324341977269e-01 -3.805764078368998327e-01 7.276505230148406778e-01
1.216720629636195150e-01 -4.080881858044862337e-02 -7.266501240694182018e-01 5.637019781332165413e-01 3.830203401347354042e-01 -7.318029098683401790e-01
-1.539310293928576080e-02 -1.188815222609958810e-01 -8.849784796537596421e-01 -5.706893324341977269e-01 -3.805764078368998327e-01 7.276505230148406778e-01
4.701914997703284665e-02 -2.118550536224261815e-01 -8.832798400215807755e-01 -6.928421562839738312e-01 -6.364066317192969280e-02 7.182754433132252370e-01
3.199720674792954495e-02 8.692557292207728215e-02 -7.401693084120608557e-01 -5.706893324341977269e-01 -3.805764078368998327e-01 7.276505230148406778e-01
-5.482601797666988158e-02 8.760736524014670068e-02 -7.926939714896684697e-01 5.562039310995823271e-01 3.149898112282797924e-01 -7.690374541280440290e-01
-5.163899929806393257e-02 -2.607818651455633130e-02 -8.543826605716130507e-01 5.706893324341977269e-01 3.805764078368998327e-01 -7.276505230148406778e-01
-7.242881365975208097e-02 -3.609717430291567442e-02 -8.759341076153509542e-01 5.745991922568616239e-01 3.796711725784502889e-01 -7.250417705006149127e-01
7.359046183527195861e-02 -3.293582656591530905e-02 -7.702361584223511581e-01 -5.743394069247468314e-01 -3.793390901098410151e-01 7.254213261050213024e-01
8.287258493772833856e-03 -1.799056500301927652e-01 -8.949999770377505826e-01 -9.350510776651740352e-01 1.643020820198826393e-01 -3.141405863640165386e-01
-2.582358163363974307e-02 -2.352606248224757557e-02 -8.328010617500724022e-01 5.706893324341977269e-01 3.805764078368998327e-01 -7.276505230148406778e-01
-1.021620146937341350e-01 -9.607059838818000908e-02 -9.312730115812540843e-01 6.351883854622006886e-01 3.924805006815285657e-01 -6.652028048337583765e-01
-9.744949957110658756e-02 2.899788636989452978e-04 -8.867764369187025597e-01 -5.660847803859730965e-01 -3.817436880327449988e-01 7.306297133723228532e-01
4.167098006574431607e-02 -1.143691899060588629e-01 -8.273785750992163068e-01 5.706893324341977269e-01 3.805764078368998327e-01 -7.276505230148406778e-01
-8.567625531919423332e-02 2.308261071712372839e-02 -8.554577587142980777e-01 5.743181993869082014e-01 3.793656383808775567e-01 -7.254242333068621207e-01
6.088565636404520871e-03 1.348753514427186440e-01 -7.354104726025295635e-01 -5.706893324341977269e-01 -3.805764078368998327e-01 7.276505230148406778e-01
-3.306113090002810867e-02 6.479741771549060725e-02 -8.027674261368284991e-01 -5.706893324341977269e-01 -3.805764078368998327e-01 7.276505230148406778e-01
-7.090459047925808111e-02 1.752431585319619844e-01 -7.676285957150379424e-01 2.859745846020163018e-01 8.470901310562155562e-01 4.479473706015785206e-01
6.322127514415726290e-02 1.173511657542074954e-01 -6.893746735130464875e-01 5.703127492046428104e-01 3.772201162259555818e-01 -7.296905864879431602e-01
7.314958100319772505e-02 -1.688796744328492916e-01 -8.414552012639886502e-01 -5.729247855904443520e-01 -3.737861683790745237e-01 7.294114685036378054e-01
-6.811659399039428353e-02 5.540615135825749382e-02 -8.351729181947338265e-01 -5.706893324341977269e-01 -3.805764078368998327e-01 7.276505230148406778e-01
2.434278428519975196e-02 9.531533461886816661e-02 -7.312995310675649563e-01 5.706893324341977269e-01 3.805764078368998327e-01 -7.276505230148406778e-01
7.872335808116930067e-02 -7.418809506619516991e-02 -7.773850319212876059e-01 5.669294237736397513e-01 3.819753350452970708e-01 -7.298533221659824211e-01
5.031742120379233824e-02 1.843451762044986605e-02 -7.616231909339947759e-01 -5.706893324341977269e-01 -3.805764078368998327e-01 7.276505230148406778e-01
-2.932678001888400568e-02 2.195933351778437681e-01 -7.185343206947985006e-01 -5.690913227714299305e-01 -3.851972169441604255e-01 7.264696624118156532e-01
6.239753173613381970e-02 5.532065990196960437e-02 -7.328566538645671091e-01 -5.706893324341977269e-01 -3.805764078368998327e-01 7.276505230148406778e-01
4.666479273619483781e-02 -1.672486923086760890e-01 -8.615438975832513391e-01 -5.758216063241234917e-01 -3.775695656256598531e-01 7.251694290326615722e-01
1.140250682734755827e-01 1.239127498125239864e-03 -7.105624595693018630e-01 5.638176057528622165e-01 3.822197133139360603e-01 -7.321323638505009557e-01
-4.688515049733450735e-03 -1.362457362094706137e-01 -8.751797731020096727e-01 5.706893324341977269e-01 3.805764078368998327e-01 -7.276505230148406778e-01
-6.726636889843127382e-03 -2.022299876691700526e-01 -9.115787559464775258e-01 5.714697122451346534e-01 3.860557634726699550e-01 -7.241431595175061853e-01
7.903379255691393712e-03 -1.666073994603367581e-01 -8.811838545154634383e-01 5.706893324341977269e-01 3.805764078368998327e-01 -7.276505230148406778e-01
-7.145475876107734194e-03 2.190213368778069214e-01 -7.014549705288330994e-01 -5.700699393510865187e-01 -3.845977170807631240e-01 7.260198759431546467e-01
-1.145385607388383666e-02 -1.448874217671207998e-01 -8.954905942070569003e-01 -5.706893324341977269e-01 -3.805764078368998327e-01 7.276505230148406778e-01
4.783377148179879940e-02 -2.095274380312301121e-01 -8.816652256472202742e-01 -6.094032060478127288e-01 -2.963120322407434837e-01 7.354093499596041639e-01
-7.676602309098899506e-03 5.051681338760122264e-02 -7.903276376771679601e-01 -5.706893324341977269e-01 -3.805764078368998327e-01 7.276505230148406778e-01
-3.818316577053264965e-02 -1.814127303528976776e-01 -9.254232381596279033e-01 5.769681316737897969e-01 3.902497691737200625e-01 -7.175046290392240733e-01
-7.497866746470852051e-02 -7.227235446745107483e-02 -8.969078926119999906e-01 5.748699867709289313e-01 3.798109734775750868e-01 -7.247538359581191525e-01
2.464543977377077477e-02 -1.954795923575883554e-01 -8.933988624502202658e-01 -5.736537750327270757e-01 -3.735057334797459716e-01 7.289820391809787026e-01
-2.083650454755628921e-04 -8.423228524726071587e-02 -8.444619141373459481e-01 5.706893324341977269e-01 3.805764078368998327e-01 -7.276505230148406778e-01
2.602124611362798684e-02 -1.642205034173354061e-01 -8.657257887154011788e-01 5.706893324341977269e-01 3.805764078368998327e-01 -7.276505230148406778e-01
8.740457541304767763e-02 -8.388347840468900196e-02 -7.757187592544178001e-01 5.668601689658775422e-01 3.822923546229564096e-01 -7.297411215196880629e-01
-1.405180607363729853e-03 -8.757610685076513968e-02 -8.576345006815796479e-01 -5.706893324341977269e-01 -3.805764078368998327e-01 7.276505230148406778e-01
-3.507820029301012693e-02 9.651389988319920843e-02 -7.772759652217693382e-01 5.706893324341977269e-01 3.805764078368998327e-01 -7.276505230148406778e-01
-7.442032001176290823e-02 -2.419350849020956290e-02 -8.712803263325700209e-01 5.744372873021315051e-01 3.795571139087657309e-01 -7.252297568620692525e-01
-9.617072214057283130e-02 -6.544685002885505809e-02 -9.180333063289187745e-01 -2.939033564050890779e-01 -8.456291087531536688e-01 -4.455695540801350440e-01
-4.371949625152266733e-02 1.037351912942293120e-01 -7.907614118289125749e-01 -5.706893324341977269e-01 -3.805764078368998327e-01 7.276505230148406778e-01
8.504391560260348565e-03 -3.114377493480288694e-01 -9.644403143423511127e-01 -9.350510776651739242e-01 1.643020820198826393e-01 -3.141405863640164831e-01
5.683026430377259748e-03 7.099522581627751294e-02 -7.691391718414963830e-01 -5.706893324341977269e-01 -3.805764078368998327e-01 7.276505230148406778e-01
1.036806415858654989e-01 6.384509490689932454e-02 -6.859074929412147803e-01 5.631751983222713642e-01 3.812839701660118430e-01 -7.331140634915647158e-01
-1.622281367442313799e-02 -1.597534236835998489e-01 -8.965210240824074139e-01 5.706893324341977269e-01 3.805764078368998327e-01 -7.276505230148406778e-01
-1.119958213167419198e-01 -5.995204716726387772e-02 -9.262001960150895163e-01 5.262308087676648150e-01 -2.431242971449722734e-01 8.148445937977941700e-01
9.516740747052943039e-02 1.314961734643129709e-01 -6.597297060719962136e-01 -6.947166986996395899e-01 -2.486832524216620599e-01 -6.749261800470166550e-01
9.883471089372038165e-02 1.031899019266767081e-01 -6.787540107333145389e-01 -5.899805753507602057e-01 -3.859009795596066716e-01 7.092272940910564483e-01
-7.812019667787561961e-02 -7.856823817982418190e-02 -9.129458509365775409e-01 -5.663602568899729350e-01 -3.807914178199714450e-01 7.309130971122215215e-01
-1.695381370036442084e-02 2.115521600685183745e-01 -7.031889494154008879e-01 5.719786717837621604e-01 3.763294872826792314e-01 -7.288460166770746040e-01
-8.079160072692181949e-02 1.112915901310034261e-01 -8.106408676285924431e-01 -1.051680814388020330e-01 -7.331242893558856943e-01 -6.719140205434838142e-01
-1.038404230413920472e-02 -1.648022847928734894e-02 -8.274919078830487162e-01 -5.706893324341977269e-01 -3.805764078368998327e-01 7.276505230148406778e-01
-4.731079962600676786e-02 2.242179316000068312e-01 -7.297940148436083962e-01 -5.584091413789701308e-01 -4.025525619813060674e-01 7.253486511097182454e-01
-5.502675827060299341e-02 2.108129568204596960e-01 -7.334665055651815591e-01 5.735505663218120054e-01 3.741410842684818050e-01 -7.287373991598986578e-01
-1.013361505154075914e-01 -2.366220377874223013e-02 -9.022916893881302025e-01 -5.659816534459755077e-01 -3.813384394112083187e-01 7.309211739920959960e-01
3.823014771450100602e-02 1.220843670703096323e-01 -7.064078291707293067e-01 5.659246664471233590e-01 3.816009104160130172e-01 -7.308283088909335312e-01
-1.054893017061403759e-01 1.248145035499192007e-01 -8.321927753227962299e-01 -3.566662567738208001e-01 -5.966222533743553713e-01 7.189096383116987399e-01
-1.213120374352782277e-01 -2.967034818553808406e-02 -9.200475010960771360e-01 -5.242380898794681832e-01 -3.815754624546155438e-01 7.612979650387047270e-01
-3.048187696364544098e-03 -1.915057407439168524e-01 -9.029612835257407877e-01 5.712099122333572643e-01 3.848659805049713944e-01 -7.249809743822985819e-01
-4.391442480718538849e-02 -1.076274812107710643e-01 -9.014613807732361206e-01 -5.706893324341977269e-01 -3.805764078368998327e-01 7.276505230148406778e-01
2.549373886482196941e-02 -3.233162575451667409e-02 -8.076439194689214451e-01 -5.706893324341977269e-01 -3.805764078368998327e-01 7.276505230148406778e-01
1.087023444772152320e-01 -1.343225662187380876e-01 -7.839741845773821050e-01 3.205962970418196334e-01 4.619526268470751096e-01 -8.269327571647892006e-01
-1.035054766179655805e-01 1.114799450501448158e-01 -8.332809785197173857e-01 -5.662135422627699866e-01 -3.830162113859930662e-01 7.298635532575703522e-01
6.359274521166757843e-02 1.690249073690373582e-01 -6.624441996559563561e-01 5.491139914819571644e-01 3.628057990252082088e-01 -7.528916100956585256e-01
1.178938722414965140e-01 -3.920591879099027260e-02 -7.327895201517694579e-01 3.190191987045968292e-01 -8.439989596128897320e-01 -4.311525333686866412e-01
1.060083710837888410e-02 1.657910695204913021e-02 -7.832578986587900305e-01 5.706893324341977269e-01 3.805764078368998327e-01 -7.276505230148406778e-01
8.252717294155557937e-02 1.559827064373722205e-01 -6.633052841370138397e-01 -6.436328916447336956e-01 -4.164932866105378606e-01 6.420825826958636018e-01
5.839505696086427083e-02 2.713818087439828428e-02 -7.507357811081406540e-01 -5.706893324341977269e-01 -3.805764078368998327e-01 7.276505230148406778e-01
-5.065823471080155987e-02 6.328858415868582332e-02 -8.173578174659384965e-01 -5.706893324341977269e-01 -3.805764078368998327e-01 7.276505230148406778e-01
-1.257109327244930741e-01 1.698071980334421929e-02 -8.993145785915560575e-01 -5.286747566102745211e-01 -3.893964459366319186e-01 7.542369717900245796e-01
1.322384116519874087e-01 1.784436526444662090e-03 -7.047058803922934267e-01 -7.059936417053248592e-01 -3.413738206252004970e-01 6.205134103816021263e-01
-6.685639984317080786e-02 2.169333239715705020e-01 -7.487825365454233717e-01 -5.033377041711509792e-01 -4.717891001578140564e-01 7.239241676667487191e-01
1.279346543660977997e-01 -8.979440945398069196e-02 -7.560758031994009309e-01 -6.126992640437944893e-01 -3.583733666659650319e-01 7.043920370821167287e-01
-7.112389845857970683e-02 -8.944266200493401764e-02 -9.145297790642862301e-01 1.186504730151616699e-01 7.179220281026457151e-01 6.859373344688726171e-01
-6.303628657563081772e-02 2.212250180929188903e-01 -7.433483778161577016e-01 -5.096167501845969561e-01 -4.618109129486394626e-01 7.259624292019760672e-01
6.526971851649064627e-02 2.327913514503689683e-03 -7.478352903947619312e-01 5.706893324341977269e-01 3.805764078368998327e-01 -7.276505230148406778e-01
-3.144155797530762825e-02 1.761351098366213119e-01 -7.328467251681314298e-01 5.710040946480375856e-01 3.770031143631077941e-01 -7.292619389874203106e-01
1.147617896450765645e-01 -1.894418212641485076e-03 -7.116310183463894212e-01 5.638176057528622165e-01 3.822197133139360603e-01 -7.321323638505009557e-01
9.539821397936260050e-02 -1.390305948720482743e-01 -8.083242950479764266e-01 -5.764141451982245368e-01 -3.771622088907334303e-01 7.249106161452338881e-01
-8.792808340344361248e-03 -1.820942192116634384e-01 -9.127042059258803075e-01 -5.689180644851871138e-01 -3.766463575945596109e-01 7.310743855540139391e-01
