1.138357149869188498e-02 4.867835191707828302e-02 -7.338016406063307961e-01 -9.874323083309813898e-01 7.882553062948437217e-02 -1.369816490816563592e-01
6.749552887383570947e-03 1.360419258864654923e-01 -6.501243024600711351e-01 -9.874323083309813898e-01 7.882553062948437217e-02 -1.369816490816563592e-01
1.553716447230129444e-02 5.288120449885320984e-02 -8.309135631978626924e-01 7.010893437083860480e-01 3.840717451011341765e-01 6.008016534210887105e-01
1.007081965418164630e-02 -1.126421546298450038e-01 -8.716285451303968923e-01 9.848029900854449181e-01 -7.444108600794106800e-02 1.569127000364392843e-01
5.350981154613128170e-03 8.471843325730582519e-02 -7.252734680220914720e-01 9.874323083309813898e-01 -7.882553062948437217e-02 1.369816490816563592e-01
-2.829807441286467246e-02 -7.554688776663420757e-02 -5.695678549992705397e-01 9.940404844899732861e-01 -5.314753762601858583e-02 9.517801447409246496e-02
-5.470867255607821285e-03 -1.345416481561928779e-01 -7.734364851225624671e-01 9.874323083309813898e-01 -7.882553062948437217e-02 1.369816490816563592e-01
1.438395739173227482e-03 -1.004691346680999242e-01 -8.036350232476028310e-01 9.874323083309813898e-01 -7.882553062948437217e-02 1.369816490816563592e-01
-1.430728487719975378e-02 -1.301798683585623229e-01 -6.526774673268461724e-01 -9.864182804043495345e-01 8.291425034026037033e-02 -1.417892914667346627e-01
-1.963739632788409628e-02 4.362626071147818890e-02 -5.680170453353929894e-01 9.881770961391760366e-01 -7.713265263712495989e-02 1.325012474020778597e-01
-4.528962025912602885e-03 -1.748868359669066286e-01 -7.479786980976749211e-01 -9.864701966138640366e-01 8.243766872713974292e-02 -1.417059701192540100e-01
4.505850611369012319e-03 1.475846817676510110e-02 -7.594395201795406392e-01 9.874323083309813898e-01 -7.882553062948437217e-02 1.369816490816563592e-01
-6.886865445059610520e-03 -3.494811628858283253e-02 -7.059185699891389332e-01 9.874323083309813898e-01 -7.882553062948437217e-02 1.369816490816563592e-01
1.386099737297837899e-02 6.372179848695865012e-02 -7.979231440456441282e-01 9.867183457706978356e-01 -8.109159743708785339e-02 1.407517635578284798e-01
5.521737876634362843e-03 1.739153048871373564e-01 -6.198553274416315206e-01 -9.874548444676283232e-01 7.579199146205543858e-02 -1.385225763824361189e-01
-4.037713488428992629e-03 1.744229454532200407e-01 -5.523908702579035657e-01 -9.858527112718671326e-01 7.836433435534394254e-02 -1.481670097523485607e-01
1.903027751673942378e-02 1.398446088063386994e-01 -7.897606304398276933e-01 9.860346780644543285e-01 -8.424622022649971842e-02 1.436599736595968180e-01
-1.290884457606356235e-02 -7.647851333131705509e-02 -6.313278984327826970e-01 -9.867189352664846869e-01 8.107210779703211134e-02 -1.407588580655627641e-01
9.419510907047536769e-03 -2.747181519863062943e-02 -7.634640112519658350e-01 -9.874323083309813898e-01 7.882553062948437217e-02 -1.369816490816563592e-01
2.299094900627910582e-02 9.725638887709406322e-02 -8.377445896385586899e-01 9.572393317917518019e-01 -1.470279300276055579e-01 2.491498534269653564e-01
-1.416114858838082163e-02 -1.145282576436447985e-01 -6.445702634766221628e-01 -9.864859312516051082e-01 8.232308054033912748e-02 -1.416630433564181890e-01
-7.922586041084396860e-03 1.086506414824420091e-01 -5.608714012404624194e-01 -9.873533946055693677e-01 7.566530676528460120e-02 -1.393127255959562827e-01
-5.354832273458139287e-03 -1.609316475864644783e-02 -6.504153506948947561e-01 -9.874323083309813898e-01 7.882553062948437217e-02 -1.369816490816563592e-01
-4.902137735237209779e-05 -2.732730275758987401e-02 -7.508238074615524171e-01 9.874323083309813898e-01 -7.882553062948437217e-02 1.369816490816563592e-01
-2.370219151438947985e-02 -1.358732435891702728e-01 -6.084105100032144442e-01 1.525734149441527188e-01 7.014899122186099012e-01 -6.961560572944875958e-01
5.759756095241401128e-03 2.089636500650156603e-01 -5.964664935581656113e-01 -3.927866189705502831e-01 -4.586759098095199438e-01 7.970790937655388708e-01
1.943443714620564757e-03 2.036069444721623212e-01 -6.312338161483005416e-01 9.872146945714258548e-01 -8.384336900977251705e-02 1.355634032301411274e-01
1.713630709145245665e-02 -6.261800918354527845e-02 -8.881867459065253545e-01 9.275879470769564650e-01 -8.985551648826413385e-02 3.626383688941159367e-01
-1.039017756827215547e-02 5.305206240636996251e-02 -6.300255987229685939e-01 9.874323083309813898e-01 -7.882553062948437217e-02 1.369816490816563592e-01
-8.792811458137042232e-05 -1.662297790763801186e-01 -8.297191658925020530e-01 9.870764242284840728e-01 -7.547245027035415221e-02 1.413649248664563540e-01
-9.303190971494615033e-03 -1.337278407491613585e-01 -6.897505358760808170e-01 -9.866169634731293270e-01 8.189804572242510849e-02 -1.409953101840964451e-01
1.631232637026412994e-03 -1.402522175050576192e-01 -7.585445948536678751e-01 -8.225933310867440396e-01 5.684008997240233008e-01 1.614400336146414039e-02
-1.363406307655473312e-02 -1.592439246200189062e-01 -6.744430141567417936e-01 -9.863020100407244861e-01 8.378742680129754039e-02 -1.420845244903328197e-01
1.150800272381149320e-02 -7.928706733099152859e-02 -8.630430266244308868e-01 9.861156691037542554e-01 -8.065854684033590960e-02 1.451553856033610812e-01
-1.051951243451352928e-02 -1.008233430457355362e-01 -6.621483871983264713e-01 -9.866891423269078532e-01 8.158296878804718877e-02 -1.406725119485656150e-01
-6.414542761212799031e-03 -3.894609947473999800e-01 -9.282854177836085130e-01 9.581947882429492358e-01 2.051256049383859692e-01 1.994648690439266014e-01
1.067227833477316784e-02 -1.337152520144306855e-01 -8.801037857688167598e-01 2.700440566958665911e-02 2.639163992234273559e-01 9.641674627860933322e-01
-3.014474271666779844e-03 1.928904468477065856e-02 -7.026221515164107201e-01 9.874323083309813898e-01 -7.882553062948437217e-02 1.369816490816563592e-01
-6.519113738648278818e-03 -4.441775535340861808e-02 -7.140187735415691739e-01 9.874323083309813898e-01 -7.882553062948437217e-02 1.369816490816563592e-01
-6.401745505753249528e-03 -1.145555483406913710e-01 -6.995284525476890281e-01 -9.874323083309813898e-01 7.882553062948437217e-02 -1.369816490816563592e-01
-7.766255999079733560e-03 -2.776774884152995448e-01 -8.658829693705996089e-01 9.968147867021457387e-01 -3.977691741199210901e-02 6.912364178163188377e-02
1.869576375733960488e-02 1.276391748778560320e-01 -7.946119855338109605e-01 9.860746951652262782e-01 -8.396999852137082554e-02 1.435469780355101976e-01
-1.407407162534364282e-03 -7.757866985919181779e-02 -7.142519500747345207e-01 -9.874323083309813898e-01 7.882553062948437217e-02 -1.369816490816563592e-01
2.164434076634867352e-02 1.244136398727485882e-01 -7.407806396883399591e-01 -9.761832105523555736e-01 -2.976021575952857157e-03 -2.169273674096355853e-01
-1.110111013249815738e-02 -8.831139315788340272e-02 -6.508361935804208853e-01 -9.867028587885411373e-01 8.125459715422073126e-02 -1.407663272939445320e-01
6.160871958698694272e-03 -3.631084575848494422e-01 -9.113783013513602205e-01 -9.717201493806761903e-01 1.226410413844227082e-01 -2.017898071155745099e-01
1.411147056020617689e-04 2.366230666216451728e-01 -5.971715880089213391e-01 9.834725483505982746e-01 -1.231235378735280467e-01 1.327491659570270988e-01
-3.934709853248210144e-04 -1.733890152357405456e-01 -7.767360197777468667e-01 -9.871215207017941529e-01 8.429752143435263745e-02 -1.359596677231978135e-01
1.521918260125515107e-02 1.627211648442636605e-01 -7.499383738542543254e-01 9.865118731283317732e-01 -8.307773454369794808e-02 1.410404700783324528e-01
2.157830745245430375e-03 -1.152981713518286128e-01 -7.616575030141204961e-01 -9.874323083309813898e-01 7.882553062948437217e-02 -1.369816490816563592e-01
1.440529426781570962e-02 9.588708125807685057e-02 -7.284176606605495818e-01 -9.874323083309813898e-01 7.882553062948437217e-02 -1.369816490816563592e-01
-1.621374105111214950e-02 4.234917579952873073e-02 -6.205273843311328585e-01 9.818049840894400582e-01 -1.541711327656508645e-01 1.108613324784175624e-01
1.836207131947429141e-02 2.989540357910537571e-02 -8.486485545727938673e-01 9.860014014178087871e-01 -8.258227499160150642e-02 1.448495918507494984e-01
6.764904900253099033e-04 -1.144168014026322039e-01 -7.504720800626962784e-01 -9.874323083309813898e-01 7.882553062948437217e-02 -1.369816490816563592e-01
7.410284082699484902e-03 -3.272010079113833736e-02 -8.076974794297799853e-01 9.874323083309813898e-01 -7.882553062948437217e-02 1.369816490816563592e-01
5.829885368934081998e-03 1.164620110110867190e-01 -7.363882844642587466e-01 9.873025693635292255e-01 -1.359068207805319839e-01 8.223729441988056332e-02
9.363410340685270755e-03 -9.972185402337451279e-03 -7.529895197717324518e-01 -9.874323083309813898e-01 7.882553062948437217e-02 -1.369816490816563592e-01
-2.615804587754495141e-04 -7.825452950403924413e-02 -7.229005633022617117e-01 -9.874323083309813898e-01 7.882553062948437217e-02 -1.369816490816563592e-01
-1.590397039288594244e-02 -1.306253510391693629e-01 -6.418068258034129725e-01 -9.864579841519223180e-01 8.295743269186724167e-02 -1.414874901328744827e-01
2.081226028767345707e-02 -5.777692759232968406e-02 -8.883612858302967208e-01 -1.416348730730170036e-01 -5.680322739901044748e-02 9.882878912982018260e-01
-4.722355822003275472e-03 2.066719399982612226e-01 -5.807732982840284608e-01 9.876092292193413558e-01 -8.189409015549467541e-02 1.338707150887834540e-01
-1.698015596273526676e-02 -1.426117869311018527e-01 -7.213913908499578476e-01 9.765935312650262379e-01 -1.866691223567550906e-01 1.068630593323292438e-01
6.418593125792191982e-03 9.583572221093951404e-02 -6.708750745308116326e-01 -9.874323083309813898e-01 7.882553062948437217e-02 -1.369816490816563592e-01
1.283994879099910596e-03 -8.367855001651965108e-02 -7.371630746073677409e-01 -9.874323083309813898e-01 7.882553062948437217e-02 -1.369816490816563592e-01
-9.476480852521038806e-03 9.535387832852325329e-02 -6.122695748627502432e-01 9.874323083309813898e-01 -7.882553062948437217e-02 1.369816490816563592e-01
-7.694244793846356963e-03 6.934923587699491632e-02 -6.400810899891933303e-01 9.874323083309813898e-01 -7.882553062948437217e-02 1.369816490816563592e-01
1.976003112007402793e-02 7.860861981908467966e-02 -7.774572557817392982e-01 -9.881192184583913463e-01 7.648291050186543927e-02 -1.333070685085439022e-01
-8.419918881520256290e-03 -1.824637264231149802e-01 -7.250971137803976507e-01 -9.869723315843638156e-01 8.609588180136984459e-02 -1.359158409596519512e-01
-9.941234730756106849e-03 1.963177915821658504e-03 -6.070375908856648905e-01 -9.867211925004447659e-01 8.071569959437654984e-02 -1.409477353826262547e-01
-1.185399132385734147e-02 -3.513238162228250749e-02 -6.702190745286104034e-01 9.874323083309813898e-01 -7.882553062948437217e-02 1.369816490816563592e-01
1.268820951744651336e-02 1.532344927046196403e-01 -7.378388333994627679e-01 9.866702757372479704e-01 -8.206990264815341996e-02 1.405215216822883750e-01
-2.147719703105738231e-02 8.927503569955953788e-02 -5.159313966767512527e-01 1.337059340823809062e-01 -4.545798496960663099e-02 -9.899779264173828031e-01
-2.059854218551678343e-02 -1.729507231316154692e-01 -6.849244312392072098e-01 9.885597097562799362e-01 -7.269970034835859796e-02 1.321531453119394461e-01
-7.811324288871010144e-03 2.437943750281866898e-02 -6.914216226277180022e-01 9.968052741012141116e-01 -3.983617488440322624e-02 6.922661839627010372e-02
-6.575481092957094487e-03 1.117748695671693694e-02 -6.937454073332737225e-01 9.260333619816514261e-01 1.882533936250126716e-01 -3.271435041165050017e-01
1.760341209263145690e-02 2.190341527357458646e-03 -8.591634804758109256e-01 9.859322812124408086e-01 -8.218882261759641317e-02 1.455422079671927771e-01
-2.288437011999937265e-02 3.151328425827888691e-02 -5.727889748147253490e-01 7.096995557388308118e-01 -6.986389676799562576e-01 -9.072008279973817202e-02
1.124159260519652084e-03 8.047404918198568236e-02 -6.726111084573965782e-01 9.215257338348015193e-02 -4.966392754502074736e-01 8.630511765237881550e-01
1.403506428258124647e-02 -7.879852113505532440e-02 -8.262709741729750146e-01 -9.874323083309813898e-01 7.882553062948437217e-02 -1.369816490816563592e-01
2.599615800111387126e-02 -3.175468385775686436e-02 -8.719156437505718449e-01 -7.711797778798914482e-01 -4.798129142294295102e-01 -4.184032953118118070e-01
6.993803478294824578e-03 -1.969253275944061743e-01 -8.499644590932885491e-01 -9.906838136320540444e-01 1.155013692536667053e-01 -7.214579064628470761e-02
-7.895618019541032068e-03 6.022251330478341907e-02 -5.881845496344818569e-01 -9.874323083309813898e-01 7.882553062948437217e-02 -1.369816490816563592e-01
-1.845185313527836560e-03 1.263810007286585713e-01 -5.731381141291922443e-01 -4.847225411246802174e-01 -8.178175933635776218e-01 -3.101909768362688391e-01
5.904308007159923301e-03 -1.359281624952419498e-01 -8.553289894397929638e-01 9.869790074151849613e-01 -7.526394220683524372e-02 1.421540640475061901e-01
1.026781777273445481e-02 8.777702728392040854e-02 -7.159685896198002553e-01 -2.062736035694253400e-01 7.296575687918310793e-01 6.519593796972917854e-01
6.236904004534438563e-05 -8.675631547001319555e-02 -7.858249480593126890e-01 9.874323083309813898e-01 -7.882553062948437217e-02 1.369816490816563592e-01
2.415027657475567625e-03 2.260013618310457995e-01 -6.207486291911232801e-01 9.868496526938939084e-01 -8.765517999306707275e-02 1.358099127395507033e-01
3.239582506467243543e-03 5.744064873487418621e-02 -7.257503391860008479e-01 9.874323083309813898e-01 -7.882553062948437217e-02 1.369816490816563592e-01
4.159496239191633020e-03 1.518563772424453007e-01 -6.223535159343973611e-01 -9.874323083309813898e-01 7.882553062948437217e-02 -1.369816490816563592e-01
1.694624500032406150e-03 -2.728017195363435093e-02 -7.076688821365618720e-01 -9.874323083309813898e-01 7.882553062948437217e-02 -1.369816490816563592e-01
8.210945459677789632e-03 -2.352754955723431254e-02 -8.081792314254111487e-01 9.874323083309813898e-01 -7.882553062948437217e-02 1.369816490816563592e-01
8.356426805188801182e-03 -3.201764712072116548e-02 -7.384486384408511794e-01 -7.277094140373552289e-01 -4.016852044450366366e-01 -5.559568375794635697e-01
6.222344682318727872e-03 -2.160637470610266841e-01 -8.265863837879123821e-01 -9.719104357638792546e-01 1.173840434105666020e-01 -2.039879682869866206e-01
7.955037898418056835e-03 -5.977279665443809703e-02 -8.271917010427635164e-01 9.874323083309813898e-01 -7.882553062948437217e-02 1.369816490816563592e-01
5.438532516316161962e-03 -1.491764926890803457e-02 -7.511308641715547241e-01 -1.475873858436567987e-01 -6.667215045779454341e-01 -7.305480127090594467e-01
-1.507077055248728058e-02 1.390189893810474080e-02 -5.643951581609745194e-01 -9.865573415276174263e-01 8.051849527594835687e-02 -1.422019120703273132e-01
-2.151231005012912978e-02 2.579956656592560099e-02 -5.455983957607611901e-01 1.400236838513195803e-01 -9.209891820770520487e-01 -3.635550776123862571e-01
5.043817372914924336e-04 -1.241424027676548553e-01 -7.689377450340832976e-01 -8.613704316173617648e-02 4.969078083205207830e-01 -8.635178283193981619e-01
1.828857653511361397e-02 1.781586371084726839e-01 -7.098664979595069591e-01 -9.882413088550897617e-01 7.506744259510621242e-02 -1.332065859280594233e-01
-8.981899542132996267e-03 -1.028375159707243386e-01 -6.741863165845081163e-01 -9.874323083309813898e-01 7.882553062948437217e-02 -1.369816490816563592e-01
6.875343863877672428e-03 -5.456617836146605144e-02 -7.367645131663563829e-01 -9.719104357638792546e-01 1.173840434105666020e-01 -2.039879682869866206e-01
-1.623467130383040484e-03 -1.597369539584254927e-01 -8.155308954731987914e-01 9.870764242284840728e-01 -7.547245027035415221e-02 1.413649248664563540e-01
1.129275399138150813e-03 -1.933003783694948463e-01 -8.001329577953103511e-01 -9.869501113547346494e-01 8.615559464270496071e-02 -1.360393002357743464e-01
5.964183863315065774e-03 1.144386770351204230e-01 -7.125913472289630013e-01 9.874323083309813898e-01 -7.882553062948437217e-02 1.369816490816563592e-01
-1.863911669840497345e-02 -2.015294308816589774e-01 -7.141982609930632719e-01 9.924293812500788459e-01 -3.303975742038860186e-02 1.182890428619136763e-01
2.248344025033470819e-02 1.302607898020049504e-01 -7.681678241710762078e-01 -9.882878709140787699e-01 7.543450372438584295e-02 -1.326526285151294338e-01
-2.049995854113393842e-02 1.104618664689881180e-01 -5.376826241971124354e-01 9.931896525953279875e-01 9.651426487665143439e-02 -6.526339443279879915e-02
-1.059576859141684885e-03 -8.081470405754191677e-02 -7.186214477134278411e-01 -9.874323083309813898e-01 7.882553062948437217e-02 -1.369816490816563592e-01
-1.968976852474430689e-02 -2.578212451795977578e-02 -6.078524482029279419e-01 9.881223108970023095e-01 -7.681648604104621136e-02 1.330921717452756003e-01
-1.202540513987784311e-02 1.628822365949729178e-01 -5.535800034887932153e-01 9.876820690036920425e-01 -8.307204348985869347e-02 1.326015315107834103e-01
-3.824063068286369122e-03 -1.075273487680189072e-01 -7.140653293632055476e-01 -9.874323083309813898e-01 7.882553062948437217e-02 -1.369816490816563592e-01
2.036643957522145734e-02 1.728745687248677554e-01 -7.767288734951025564e-01 9.555542410323084601e-01 -1.773475849412672889e-01 2.355078057319316687e-01
1.246620728948603582e-02 -3.926337619779874527e-02 -7.922115297758289820e-01 -9.874323083309813898e-01 7.882553062948437217e-02 -1.369816490816563592e-01
4.139450193064535093e-03 7.968480784126999450e-02 -7.194367254735279937e-01 9.874323083309813898e-01 -7.882553062948437217e-02 1.369816490816563592e-01
7.200420174220914515e-03 2.278263514156937120e-01 -6.037635275403170354e-01 -9.884308957804253115e-01 5.580597081574378837e-02 -1.410321165125822951e-01
-6.317488465351052407e-03 4.746077188488922322e-02 -6.719216977526384360e-01 3.726839166549951732e-01 6.445084210684608461e-01 -6.676193477113527841e-01
-1.459485676103354848e-02 -1.564418769647230589e-01 -6.994726502424922776e-01 1.942108794633650992e-01 9.404758684532230628e-01 2.789037022974458213e-01
2.986550561758556915e-03 -7.218652098931450933e-02 -7.428229071974149500e-01 -9.874323083309813898e-01 7.882553062948437217e-02 -1.369816490816563592e-01
1.579575180529309633e-02 -1.208693814973477998e-01 -8.833267982856032319e-01 -1.110101441219294716e-01 2.709932679361755636e-01 9.561586670816200062e-01
1.568917537721525868e-02 1.838439885603481705e-01 -6.693904902419723912e-01 -4.171117555695536550e-01 -6.071283541039037557e-01 -6.763231069605485368e-01
-4.492431840421066795e-03 -2.448685636355372452e-01 -8.395587233522898707e-01 3.983336029566916237e-01 4.574843553708845545e-01 -7.950084309907829994e-01
4.194391160736564254e-03 6.678742434419540630e-02 -7.272545141452120276e-01 9.874323083309813898e-01 -7.882553062948437217e-02 1.369816490816563592e-01
-6.307271803672137231e-03 1.429639720221431154e-01 -6.360218696393280524e-01 9.874323083309813898e-01 -7.882553062948437217e-02 1.369816490816563592e-01
-2.078992254519573465e-02 -6.464925722047221157e-02 -6.220690516648624824e-01 9.881269932383930366e-01 -7.655611204486469090e-02 1.332073832121435375e-01
-1.238761484393584127e-02 8.518468014515154230e-02 -5.430766960806137078e-01 -9.849941304685992938e-01 8.269588874954673929e-02 -1.514858175748839131e-01
-9.482433204596449339e-03 1.571505872076645327e-01 -5.759664307000207373e-01 9.875723222318316674e-01 -8.152213319310158690e-02 1.343690818651131769e-01
9.274075578720852170e-03 1.449458802950835956e-01 -6.409305445691374503e-01 -9.832930524207258438e-01 1.774931249522900267e-01 -4.038519104575988283e-02
5.292976894485329140e-03 -9.193272882833106174e-02 -8.266004366232326817e-01 1.131381753823790526e-01 6.870964327142403683e-01 7.177034522854904841e-01
-1.924053050790454312e-03 -1.242763002609247325e-01 -7.930965451422646861e-01 9.874323083309813898e-01 -7.882553062948437217e-02 1.369816490816563592e-01
-1.610942198420491425e-02 -1.529332528963407434e-01 -6.535147895464502588e-01 -9.814991296715719349e-01 1.044352186504873686e-01 -1.604766137459651409e-01
3.778069824226913936e-03 -1.514982999086789302e-02 -7.157070433880901028e-01 -9.874323083309813898e-01 7.882553062948437217e-02 -1.369816490816563592e-01
-7.676668763880111282e-03 1.526049653004728779e-01 -5.919867399725826651e-01 9.874741629986989455e-01 -8.180244569030276081e-02 1.349190026983014823e-01
6.375728641992826733e-03 -1.497754949089125098e-01 -8.119020578629122520e-01 -9.874323083309813898e-01 7.882553062948437217e-02 -1.369816490816563592e-01
-1.016022147540854639e-02 -1.006151995604249831e-02 -6.680016906309798053e-01 9.874323083309813898e-01 -7.882553062948437217e-02 1.369816490816563592e-01
1.537819008109413805e-04 8.128296736054856086e-02 -6.340895020127408355e-01 -9.874323083309813898e-01 7.882553062948437217e-02 -1.369816490816563592e-01
7.526978060118085997e-03 2.395843825210867972e-02 -6.984789891420214447e-01 -9.260782404654641642e-01 -1.881984671379894336e-01 3.270480538136574244e-01
5.144958763251476601e-03 -1.353152773237613904e-01 -7.947089792107986383e-01 -9.874323083309813898e-01 7.882553062948437217e-02 -1.369816490816563592e-01
-6.568269445647788481e-03 -8.930276661849405329e-02 -7.394933310494176126e-01 9.874323083309813898e-01 -7.882553062948437217e-02 1.369816490816563592e-01
1.002720456830958132e-02 1.289345844487355119e-01 -7.558095588079883909e-01 7.094403720771615962e-01 4.251869091404342771e-01 5.620591167863240312e-01
2.438448161821848634e-02 -1.104569861417700923e-02 -8.645065746148162811e-01 -9.916981255299931464e-01 6.977357640962293661e-02 -1.080114616849015691e-01
-1.474235379078383049e-02 2.915039498860397260e-02 -6.124070504524307124e-01 9.874323083309813898e-01 -7.882553062948437217e-02 1.369816490816563592e-01
-5.017228658686805065e-03 -7.193199999138540079e-02 -7.403060298518914228e-01 3.983336029566916792e-01 4.574843553708845545e-01 -7.950084309907829994e-01
-1.081941525878295576e-02 1.260777802257833369e-01 -5.665243091720530977e-01 4.242679907921668991e-02 -9.615406751178502409e-01 -2.713659831552221458e-01
-9.262067781303997757e-03 6.222693675746130554e-02 -5.773727201227552008e-01 -9.865921396007266697e-01 8.073766107800746383e-02 -1.418357506474054175e-01
-1.613096804753342758e-02 -9.910845181772978772e-04 -5.655088568696430285e-01 -9.865461635178978117e-01 8.086202543266597653e-02 -1.420844822316790768e-01
1.055969225509946138e-02 1.184577086883468189e-01 -6.877084606067093153e-01 -9.874323083309813898e-01 7.882553062948437217e-02 -1.369816490816563592e-01
7.392923688335380043e-03 1.189768867183697704e-01 -6.645820484137214823e-01 -9.874323083309813898e-01 7.882553062948437217e-02 -1.369816490816563592e-01
5.625150050765646663e-03 -1.041751017239097611e-02 -7.262985283110005019e-01 -9.874323083309813898e-01 7.882553062948437217e-02 -1.369816490816563592e-01
-3.396474269816391906e-03 -1.271872798130580517e-01 -7.284608305436480746e-01 -9.874323083309813898e-01 7.882553062948437217e-02 -1.369816490816563592e-01
-9.900081364930992788e-04 -1.184179559635576973e-01 -7.964584482223244777e-01 9.874323083309813898e-01 -7.882553062948437217e-02 1.369816490816563592e-01
2.639523199370429063e-02 1.428999187424870587e-01 -7.704737279874079858e-01 -7.584038494179853318e-01 5.404742371512638588e-01 3.642954846875558483e-01
-6.605867438531744414e-03 -3.616878721160000920e-02 -6.529496978431938992e-01 -9.874323083309813898e-01 7.882553062948437217e-02 -1.369816490816563592e-01
1.456973520166926321e-02 6.099126464661005359e-02 -8.274927800867708516e-01 7.586371585985051125e-01 -5.389193199395336809e-01 -3.661087655185233936e-01
-9.097296855942673885e-03 3.745310338500054681e-02 -5.926389415368482627e-01 -9.867011557403418953e-01 8.061395353066157232e-02 -1.411460936647920827e-01
-2.297584590570559554e-02 -6.002477550340948320e-02 -6.031396897247824906e-01 9.882710548641411297e-01 -7.605495571983471315e-02 1.324234338331844452e-01
-1.918918588657507474e-02 -7.152987272880326382e-03 -6.008119194690723086e-01 9.881296873165601458e-01 -7.685085504794027245e-02 1.330175444145540176e-01
-3.476276921565283218e-03 -1.407421224018168271e-01 -7.994178380202827672e-01 9.215257338348015193e-02 -4.966392754502074736e-01 8.630511765237881550e-01
-3.784448560065150659e-03 1.392214745729083158e-01 -5.727153381851479708e-01 -9.872419633340842049e-01 7.594375177217170536e-02 -1.399494637325545687e-01
4.588947790115865434e-03 2.402380954118641110e-01 -5.813195136096129811e-01 -9.886638582164464228e-01 3.720421222185709559e-02 -1.454634732485149407e-01
9.446706726020017569e-03 7.118869168789361546e-02 -7.068862665017964231e-01 -9.874323083309813898e-01 7.882553062948437217e-02 -1.369816490816563592e-01
-1.765576856368778272e-02 -5.639313244006960435e-02 -6.405741668873051742e-01 9.881292302856711229e-01 -7.656712202117048338e-02 1.331844588547870800e-01
-1.505254792620211793e-02 -4.169190266373078851e-02 -6.509369267364001344e-01 9.874323083309813898e-01 -7.882553062948437217e-02 1.369816490816563592e-01
7.764460153101625066e-03 1.144044163709911632e-01 -6.698914786573261226e-01 -9.874323083309813898e-01 7.882553062948437217e-02 -1.369816490816563592e-01
6.419416099587308723e-03 -1.560701407952733433e-01 -7.930022642305112335e-01 -9.719104357638791436e-01 1.173840434105665881e-01 -2.039879682869865929e-01
-7.295198239397231339e-03 -6.545897137713649339e-02 -6.648355731855978279e-01 -9.874323083309813898e-01 7.882553062948437217e-02 -1.369816490816563592e-01
4.238311081632899040e-03 -2.773072924714356166e-02 -7.819611964641087765e-01 9.874323083309813898e-01 -7.882553062948437217e-02 1.369816490816563592e-01
-7.088643103798160545e-03 -8.756364797434847136e-02 -6.790445719059323704e-01 -9.874323083309813898e-01 7.882553062948437217e-02 -1.369816490816563592e-01
3.089308417280425736e-03 -1.718754388691275392e-01 -8.011068930410173428e-01 -9.873359803108913146e-01 8.341131378860425216e-02 -1.349452285765977699e-01
1.007823727532325929e-02 -1.161818153660491293e-01 -8.733543524405724678e-01 9.848029900854449181e-01 -7.444108600794106800e-02 1.569127000364392843e-01
8.355786867558244457e-03 -1.768167584333605880e-01 -8.640518833237808005e-01 -9.038664342189324519e-02 4.293347520592324940e-01 8.986111090817655578e-01
2.609794300658682328e-02 6.981768719701933468e-02 -8.305083824977500528e-01 -9.911234602339731303e-01 6.693169364078828398e-02 -1.148670316505642358e-01
1.962410074133776310e-03 -1.463715560707265495e-01 -7.781298653318262648e-01 -9.874323083309813898e-01 7.882553062948437217e-02 -1.369816490816563592e-01
-5.769520269312243717e-03 9.078465676247603894e-03 -6.886380366114273066e-01 9.874323083309813898e-01 -7.882553062948437217e-02 1.369816490816563592e-01
-3.379813177286657318e-03 -1.277200121542596545e-01 -7.845843672514870581e-01 9.874323083309813898e-01 -7.882553062948437217e-02 1.369816490816563592e-01
-3.564387917198886418e-04 9.422299144364602863e-02 -6.229652917910923904e-01 -9.874323083309813898e-01 7.882553062948437217e-02 -1.369816490816563592e-01
4.005271251889311844e-03 1.704840262193247913e-01 -6.661726764250398558e-01 9.865004422014906904e-01 -8.216566250164179797e-02 1.416533848587090139e-01
1.282332960980372928e-03 2.056757647931234945e-01 -6.251411440984545598e-01 9.871151569918098501e-01 -8.377927967496605344e-02 1.363257097328991196e-01
-2.347779562886222367e-03 2.576385133683895337e-02 -7.037021197177165677e-01 9.874323083309813898e-01 -7.882553062948437217e-02 1.369816490816563592e-01
-6.197187616307793696e-03 -5.486545560619908446e-02 -6.666545880968919313e-01 -9.874323083309813898e-01 7.882553062948437217e-02 -1.369816490816563592e-01
4.081721813492582285e-03 1.887315903075284518e-01 -6.014639316324432716e-01 -9.874602186640745183e-01 7.585681377619765686e-02 -1.384487643845964677e-01
2.515300262536503476e-02 1.463944828174047474e-01 -7.799478701600799369e-01 -9.910990479749171023e-01 6.096597320593404729e-02 -1.183462175748186268e-01
5.735202329219694917e-03 1.149589650178599737e-01 -7.305779716918276989e-01 7.669880028615974066e-01 -5.394496063254741181e-01 -3.474529114882611291e-01
6.162735950566777983e-03 -1.192197071296973027e-01 -8.478181142577265739e-01 9.864170483349660179e-01 -8.060444814163955640e-02 1.431234770885450036e-01
9.028337167444982353e-03 -4.444735467356442093e-02 -8.261096165261714308e-01 9.874323083309813898e-01 -7.882553062948437217e-02 1.369816490816563592e-01
2.370486566116943722e-02 1.664327768829554910e-01 -7.574412157960468406e-01 -9.912772372009635014e-01 5.775503202673017838e-02 -1.184643207164761958e-01
-2.674205891053197184e-02 -8.738598248859311135e-02 -5.905045398490316177e-01 9.887469045646309906e-01 -7.443814837928698636e-02 1.297633260198118310e-01
-1.806041638541497699e-02 3.101280786957270191e-02 -5.353747739355785296e-01 -9.827394486759040149e-01 8.728761470076000506e-02 -1.631074748012239783e-01
3.156970184478015591e-03 6.922427649535362049e-02 -6.579302782215076251e-01 -8.613704316173612097e-02 4.969078083205208385e-01 -8.635178283193981619e-01
2.619842228992694602e-02 1.262200731021058397e-01 -7.995603442276396633e-01 -9.910709708883324032e-01 6.340967550274699549e-02 -1.172925560941290718e-01
-1.352180134396516360e-02 1.014782336708444921e-01 -5.792662435730239201e-01 9.874031073683422477e-01 -8.220221627479581961e-02 1.351957809950211642e-01
2.930647196960057513e-04 1.586045231862559801e-01 -5.910506490485435416e-01 -9.873777786746339435e-01 7.586111980829066126e-02 -1.390331351907813651e-01
-1.479164197216236397e-02 -1.513614691074586238e-01 -6.712356943665487297e-01 -2.018174361004282658e-01 -9.355983803958567435e-01 -2.896987971782057913e-01
1.147122732256361174e-02 1.544706583547942290e-02 -7.535563155538740343e-01 -9.874323083309813898e-01 7.882553062948437217e-02 -1.369816490816563592e-01
-6.354311037243078920e-03 -1.837064030917202051e-01 -8.052960898016096047e-01 3.983336029566916237e-01 4.574843553708845545e-01 -7.950084309907829994e-01
-2.031611737673040714e-03 9.871275586646321987e-02 -6.640030664549302353e-01 9.874323083309813898e-01 -7.882553062948437217e-02 1.369816490816563592e-01
9.964857322700731296e-03 -8.501253028808206103e-02 -8.556228859469279246e-01 9.864812576708594793e-01 -8.015993253327191592e-02 1.429304498012261837e-01
2.421540860316236110e-02 1.691626269690481299e-01 -7.603824137512914527e-01 -9.912772372009635014e-01 5.775503202673017838e-02 -1.184643207164761958e-01
1.785348129726908872e-02 -1.112103944062980132e-01 -8.752522696012124959e-01 -9.916282172207686596e-01 8.802338153870142845e-02 -9.447413992226871837e-02
-1.732963409574504732e-02 -1.063819757096899493e-01 -6.177482689212282496e-01 -9.865323153883583940e-01 8.188070839220248920e-02 -1.415963992751076705e-01
-7.808642801538426964e-03 -1.711341501523769570e-01 -7.224767383593001524e-01 -9.870852658611312114e-01 8.438729660431543156e-02 -1.361670374638264125e-01
1.111917299664132164e-02 -4.182055032068841133e-02 -8.392023982861617215e-01 9.866131811679234032e-01 -8.076064424058394808e-02 1.416762121442980693e-01
-1.614373522654454288e-02 -2.361639658580520751e-04 -6.192155667993082258e-01 9.874323083309813898e-01 -7.882553062948437217e-02 1.369816490816563592e-01
8.926543816116499358e-03 1.167343141552144720e-01 -6.769276293472341610e-01 -9.874323083309813898e-01 7.882553062948437217e-02 -1.369816490816563592e-01
-1.245119507052594270e-02 -8.349003077952116270e-02 -6.385861782435473533e-01 -9.867100224683200693e-01 8.128590967438022175e-02 -1.406980186391257603e-01
7.811792252922838617e-03 1.796767604173221955e-01 -6.330605328869918225e-01 -9.874779497305286036e-01 7.554783693971107994e-02 -1.384912384583312506e-01
6.020803284598673323e-04 2.157385871238718389e-01 -5.641345789486729156e-01 -9.856683977069417013e-01 6.566408571945304973e-02 -1.553899533704113933e-01
2.615566114485977020e-02 2.935243158796007820e-02 -8.549619650668646154e-01 -9.913205263968726255e-01 6.929555333791877214e-02 -1.117217088654627599e-01
1.611237857754962283e-02 -1.251669606842830962e-01 -8.704052722165829259e-01 -9.896435640680787404e-01 8.317660182503586186e-02 -1.169926023621591787e-01
2.266592155700984657e-02 3.063421238465944066e-02 -8.266740687974526436e-01 -9.883012563842477061e-01 7.636832113536054512e-02 -1.320170676703740498e-01
4.719275185178640857e-03 -7.513424100601427680e-02 -7.570095072427298621e-01 -9.874323083309813898e-01 7.882553062948437217e-02 -1.369816490816563592e-01
9.618988732048818673e-04 4.261635492391453728e-02 -7.178622345455057951e-01 9.874323083309813898e-01 -7.882553062948437217e-02 1.369816490816563592e-01
-2.408743271674371536e-02 -1.020728408875041793e-01 -6.189499658090609202e-01 9.882973769784719753e-01 -7.578177819998760389e-02 1.323835969836145987e-01
-1.025876416836389929e-02 -2.615161505326073482e-03 -6.630063689985089548e-01 9.874323083309813898e-01 -7.882553062948437217e-02 1.369816490816563592e-01
1.223750111015383876e-02 -8.135339918700495998e-03 -8.277991822337894545e-01 9.866856996285076065e-01 -8.063932262987304200e-02 1.412396183597139365e-01
1.450891409863773115e-02 -3.224220471925966919e-02 -8.028960787075998251e-01 -9.874323083309813898e-01 7.882553062948437217e-02 -1.369816490816563592e-01
-2.814729058583640298e-03 -2.044667441981098677e-01 -7.786556049677728630e-01 -9.868772271858855527e-01 8.679449551373935590e-02 -1.361618669467104248e-01
1.869879657120307112e-02 1.893428966725237139e-01 -7.068189090254214380e-01 -9.896420977542684794e-01 6.821185808075572177e-02 -1.263157186168928359e-01
9.399306277318636438e-03 -5.765506859988982213e-02 -8.362455633977387004e-01 9.865822852481402894e-01 -8.027684919138090847e-02 1.421654737215121145e-01
1.748885501475645060e-02 5.424883453738755384e-02 -8.286755237057471524e-01 9.865647713255146778e-01 -8.137208933635521613e-02 1.416634570256962988e-01
1.800298853356939455e-02 2.048250923356078057e-01 -6.905453865660426960e-01 -3.795353007154146641e-02 -7.433432064020415453e-01 -6.678326190379144656e-01
1.023517707851819523e-02 -2.554039382829387250e-02 -7.458354829105261485e-01 -9.754971458851682264e-01 -8.825845682110697267e-04 -2.200103166089504014e-01
9.359514077274196792e-03 6.271197140147935500e-02 -7.668325088722524052e-01 9.874323083309813898e-01 -7.882553062948437217e-02 1.369816490816563592e-01
-1.943965824510497393e-03 1.501949804453976559e-03 -6.648775469266628990e-01 -9.874323083309813898e-01 7.882553062948437217e-02 -1.369816490816563592e-01
-2.760692140565915598e-03 7.582866105044155924e-02 -6.982447754223598535e-01 9.805851383745591843e-01 -2.772007945256502182e-02 1.941246599329680134e-01
6.624260065476168628e-03 1.039361931788356924e-01 -7.233931184208945986e-01 9.874323083309813898e-01 -7.882553062948437217e-02 1.369816490816563592e-01
-2.011491341160142818e-02 -1.402850602344281605e-01 -6.702963546287077357e-01 9.881938098895157729e-01 -7.564018417357262769e-02 1.332349677608385685e-01
-1.763158858550553307e-02 -8.600733192506827829e-02 -6.577593778264824165e-01 9.881444526411918838e-01 -7.638372536298163040e-02 1.331768268660570853e-01
-1.101504161422423370e-02 -7.659962130756672871e-02 -7.001287978218877495e-01 9.874323083309813898e-01 -7.882553062948437217e-02 1.369816490816563592e-01
-7.861890233612188472e-03 9.902412930783699441e-02 -5.665300458829023444e-01 -9.873533946055693677e-01 7.566530676528460120e-02 -1.393127255959562827e-01
-1.173172216136962945e-02 -4.496585171394457104e-04 -6.511424204760101198e-01 9.874323083309813898e-01 -7.882553062948437217e-02 1.369816490816563592e-01
-6.026669958482129726e-03 3.813452509913448085e-02 -6.143673055946776707e-01 -9.874323083309813898e-01 7.882553062948437217e-02 -1.369816490816563592e-01
-2.653851291976329699e-02 -4.925517730329147942e-02 -5.701318134519632874e-01 9.887321314319532650e-01 -7.483500935701728474e-02 1.296475747885852958e-01
1.739254733031260491e-02 9.289240882785851361e-02 -7.517261625828155491e-01 -9.881238648406979186e-01 7.634468148133341514e-02 -1.333518554118991173e-01
1.009986338196548414e-02 -5.828479888258509406e-02 -7.860995381618800515e-01 -9.874323083309813898e-01 7.882553062948437217e-02 -1.369816490816563592e-01
2.948018898169365003e-03 2.367645056576453688e-01 -5.713201672472599801e-01 -9.874575677348722547e-01 4.258900974550582086e-02 -1.520319971980497176e-01
-1.619076654085927890e-03 -1.962782770033102975e-01 -8.348418449276393538e-01 9.867490021023379576e-01 -7.173039688096963240e-02 1.455374763191213949e-01
7.244172307327815218e-03 -2.316681493650772083e-01 -8.412161209147954732e-01 -9.968147867021458497e-01 3.977691741199210901e-02 -6.912364178163188377e-02
6.054943985323111427e-03 8.620199213553660089e-02 -6.668294422834173396e-01 -9.260782404654641642e-01 -1.881984671379894336e-01 3.270480538136574244e-01
-2.219726760089072229e-02 -2.670641796693051795e-02 -5.897383035932811657e-01 9.882542190434754348e-01 -7.649203450402863869e-02 1.322972683021279849e-01
-1.697820231694288987e-02 -6.207152692455088216e-02 -5.946045746721561054e-01 -9.865607440547791152e-01 8.160644212062033442e-02 -1.415566561292492254e-01
1.561427951141786119e-02 -1.119251085563025133e-01 -8.849310017996263600e-01 -1.235513281876069874e-01 1.554690977530127083e-01 9.800838887293997770e-01
1.710933498055226820e-02 -1.170840238074398187e-01 -8.730919400858293544e-01 -9.896435640680787404e-01 8.317660182503586186e-02 -1.169926023621591787e-01
5.748658785971417964e-04 1.583013477745739139e-01 -6.418847715366569062e-01 1.087484815635655216e-01 -7.308200024194464461e-01 -6.738515354447588424e-01
-1.483106693818821674e-02 8.708221596673940135e-02 -5.263638118929415688e-01 -9.833135503016618983e-01 7.900287292458418875e-02 -1.638688739901610625e-01
7.716587044370069697e-03 1.486425270699829881e-01 -6.498442043233468857e-01 -9.874323083309813898e-01 7.882553062948437217e-02 -1.369816490816563592e-01
1.037120796340205119e-02 -1.717736507745666608e-01 -8.572830481399372760e-01 -9.901795958187030733e-01 9.864035652606839566e-02 -9.906789635760016033e-02
-5.571532174725239185e-03 -3.353510989279047672e-01 -9.089131184573185918e-01 7.620462022410786629e-01 -3.229594060319823656e-01 5.612332916937645688e-01
1.843665799534140171e-02 1.071289341062752060e-01 -7.513153787678787943e-01 -9.881433237113604884e-01 7.613888361560564033e-02 -1.333253247002782749e-01
6.893835409449078008e-03 -7.365461571120841822e-02 -7.564428465611224839e-01 -9.260782404654641642e-01 -1.881984671379894336e-01 3.270480538136574244e-01
-4.198930182769057724e-03 -5.343937297050178892e-02 -6.802383947033457945e-01 -9.874323083309813898e-01 7.882553062948437217e-02 -1.369816490816563592e-01
1.822564605981821101e-02 1.442013742256909592e-01 -7.816769775009433374e-01 9.860562151657912278e-01 -8.478665891680498001e-02 1.431934460882908211e-01
8.206390332213871902e-03 7.054618079410523990e-02 -7.540120517848543091e-01 9.874323083309813898e-01 -7.882553062948437217e-02 1.369816490816563592e-01
-4.108058812643843212e-03 -8.475610523045976064e-02 -7.546114033000197452e-01 9.874323083309813898e-01 -7.882553062948437217e-02 1.369816490816563592e-01
2.351753942695021526e-02 -4.948054808847972275e-02 -8.843758966278016942e-01 -9.954400146185655718e-01 7.361497514355325178e-02 -6.066310848286816937e-02
-5.056023796578761921e-03 -4.623700619866763506e-02 -6.932571515100225401e-01 -2.071105937160596377e-01 -9.432067629480700433e-01 -2.597425731365665125e-01
5.178573270551110712e-03 1.449827339303259022e-01 -6.457304385646486233e-01 -2.127254253398477291e-01 7.253598312155646877e-01 6.546762624938440300e-01
9.714212715173083795e-03 8.510881036557686741e-02 -7.008043081488538606e-01 -9.874323083309813898e-01 7.882553062948437217e-02 -1.369816490816563592e-01
1.546052908493970521e-02 1.371274893772012615e-01 -7.122926970842546890e-01 -9.874323083309813898e-01 7.882553062948437217e-02 -1.369816490816563592e-01
1.084937317744385198e-02 8.994438381257541248e-02 -7.616721416562025615e-01 9.867179006015153186e-01 -8.131613552241173659e-02 1.406252848396729038e-01
1.393944102360069812e-02 1.294217516026566900e-02 -7.727898647670335963e-01 -9.874323083309813898e-01 7.882553062948437217e-02 -1.369816490816563592e-01
2.533865206421388738e-02 7.768519951993752004e-02 -8.195149436691674394e-01 -9.882660387788144707e-01 7.609424136434740638e-02 -1.324382989456424631e-01
2.075085669933550078e-02 7.663738954290365279e-02 -8.382197982968233596e-01 9.860559042300161003e-01 -8.279200147599702353e-02 1.443580209919907986e-01
-2.259766572791773939e-02 -8.366732145892293027e-02 -6.195381056072245540e-01 9.882866389589501921e-01 -7.575367798747952020e-02 1.324798079957509034e-01
1.892431084735632027e-02 3.473735103133531593e-02 -8.497152467495204808e-01 9.860014014178087871e-01 -8.258227499160150642e-02 1.448495918507494984e-01
-8.370841991210967864e-03 -1.537584260526304002e-02 -6.282616625383660169e-01 -9.874323083309813898e-01 7.882553062948437217e-02 -1.369816490816563592e-01
5.610099490696861084e-03 -4.539576749143301587e-02 -7.463181316869462734e-01 -9.874323083309813898e-01 7.882553062948437217e-02 -1.369816490816563592e-01
-2.166862424480904201e-02 3.356966980166382203e-02 -5.791145506735493331e-01 7.096995557388308118e-01 -6.986389676799562576e-01 -9.072008279973817202e-02
6.534217145967978306e-03 -1.125348180597115083e-01 -7.916145269202915502e-01 -9.874323083309813898e-01 7.882553062948437217e-02 -1.369816490816563592e-01
9.533129659629695912e-03 7.381687035582257250e-02 -7.616937481540501098e-01 9.874323083309813898e-01 -7.882553062948437217e-02 1.369816490816563592e-01
3.475344216275526570e-03 5.529909265499000776e-02 -6.729853007684121202e-01 -9.874323083309813898e-01 7.882553062948437217e-02 -1.369816490816563592e-01
-7.542625856131958580e-03 -3.189416831319633050e-02 -7.276730715024037899e-01 9.968052741012141116e-01 -3.983617488440322624e-02 6.922661839627010372e-02
-2.139271884983789257e-02 -1.550312976243249374e-01 -6.690178228326855159e-01 9.884378456592398665e-01 -7.386280748211722369e-02 1.324194507592470482e-01
-2.167767171612019692e-02 -1.078955710008568242e-01 -5.920353562697542316e-01 -9.780778669225247413e-01 1.076103911652756678e-01 -1.782798080253076012e-01
-7.580244705269727906e-03 1.589302028605431016e-01 -6.173222864072718252e-01 9.968052741012141116e-01 -3.983617488440322624e-02 6.922661839627010372e-02
5.441940777376817577e-03 1.092048870832502440e-02 -7.683958763761324917e-01 9.874323083309813898e-01 -7.882553062948437217e-02 1.369816490816563592e-01
7.405083697094456616e-03 2.205894178715678833e-01 -6.080615545883075734e-01 -9.884308957804253115e-01 5.580597081574378837e-02 -1.410321165125822951e-01
-8.040814385044326579e-03 -1.874338732009027675e-01 -7.309348406576477997e-01 -9.862196576506347956e-01 8.407978089640014141e-02 -1.424829018088769883e-01
-7.671486112511037743e-03 -1.254362767678948443e-01 -6.966367972854088375e-01 -9.874323083309813898e-01 7.882553062948437217e-02 -1.369816490816563592e-01
-2.110748820809038237e-02 -1.376036333474126572e-01 -6.613676594883181048e-01 9.884016560860928724e-01 -7.475219642325633962e-02 1.321902998565628873e-01
-1.256915111957090415e-02 -1.667347049176818863e-01 -7.404596250515483868e-01 9.883627309735125710e-01 -7.519401896126572116e-02 1.322307510945654463e-01
-1.858265755953006707e-02 -1.422288981259520191e-02 -5.566316404762307046e-01 -9.831631220213649103e-01 8.805217371190313114e-02 -1.601158649285303881e-01
-5.994834847287139855e-03 -1.915739507107496603e-02 -7.264106077585236187e-01 7.629336999742079017e-01 -3.285854440205338012e-01 5.567439047008004849e-01
1.973009688698662903e-02 -5.672665245974323894e-02 -8.555701161915593156e-01 -9.885113220282473190e-01 7.690275214300755502e-02 -1.301204554818268522e-01
1.131089184485279189e-02 6.791651718829762319e-02 -7.776268800576607854e-01 9.867229122017728837e-01 -8.117730279680590577e-02 1.406703239730697219e-01
-6.475546144828148165e-03 1.197080005188645158e-01 -5.913222991908797521e-01 -1.387848385939936258e-01 9.570933529441477683e-01 2.543837304675125588e-01
3.097865304670220903e-03 -2.613356823320304306e-02 -7.171243359792215388e-01 -9.874323083309813898e-01 7.882553062948437217e-02 -1.369816490816563592e-01
1.420571138295267585e-02 1.541422400991715180e-01 -6.934562740196059671e-01 -9.874323083309813898e-01 7.882553062948437217e-02 -1.369816490816563592e-01
-2.583099288970634472e-03 -6.675177810058018080e-02 -6.995466819476637843e-01 -9.874323083309813898e-01 7.882553062948437217e-02 -1.369816490816563592e-01
2.013880616824044543e-03 1.004399457288333991e-01 -6.398533241302717389e-01 -8.613704316173612097e-02 4.969078083205207275e-01 -8.635178283193980509e-01
1.427323537078994606e-02 1.987093594070370450e-01 -7.219475557293861812e-01 9.854949511876355261e-01 -8.831604986954118275e-02 1.449136864451412710e-01
1.824700297920789013e-02 -9.977338717978138927e-02 -8.705849237806601026e-01 -9.894734498963486669e-01 8.143379478671791682e-02 -1.196278772563196674e-01
-9.251427622235190024e-03 7.756263759624017207e-02 -6.241297680554103167e-01 9.874323083309813898e-01 -7.882553062948437217e-02 1.369816490816563592e-01
5.650478687226105461e-03 8.483888276698053899e-02 -6.716662074453894071e-01 -9.874323083309813898e-01 7.882553062948437217e-02 -1.369816490816563592e-01
1.604122204135205454e-02 9.084950253570030221e-02 -7.975092860279937579e-01 9.865826861555815341e-01 -8.170087788095888037e-02 1.413491065819591219e-01
-2.861118899991109150e-03 -1.154973798729143908e-01 -7.255930348949822806e-01 -9.874323083309813898e-01 7.882553062948437217e-02 -1.369816490816563592e-01
-8.101785968483052672e-03 1.301579616214142698e-01 -5.478292075172411790e-01 -9.863047971171321482e-01 8.111263075535325717e-02 -1.436091512253961366e-01
6.194873290334872509e-03 1.547155085136423247e-01 -6.910264530840455333e-01 9.874471005002166679e-01 -8.206512454584789784e-02 1.349575453503414069e-01
-1.799237955409520653e-02 -5.493173391356583751e-02 -6.372366135272543586e-01 9.881292302856711229e-01 -7.656712202117048338e-02 1.331844588547870800e-01
8.030925100037179017e-04 1.264667381097724919e-01 -6.461129722464580283e-01 9.163074144991226189e-02 -4.875840650846388069e-01 8.682543329560052925e-01
-5.734050839962808593e-03 -1.471663111337214169e-01 -8.004029281467254231e-01 7.619691940274929687e-01 -3.230046024509108382e-01 5.613118332519116960e-01
-3.222318275335884466e-04 4.163912692917921127e-02 -6.383407208637867924e-01 -6.861914583920419863e-01 7.205303328016317010e-01 9.988654535307854576e-02
2.886157654630582253e-03 -1.004745263942293382e-01 -7.583774420621293144e-01 -9.874323083309813898e-01 7.882553062948437217e-02 -1.369816490816563592e-01
3.305767733505683963e-03 1.407353518929843894e-01 -6.225989620615476339e-01 -9.874323083309813898e-01 7.882553062948437217e-02 -1.369816490816563592e-01
-1.789040196754003095e-02 -9.127951687174097606e-02 -6.050977012618898865e-01 -9.865438203742813439e-01 8.190899423453927575e-02 -1.414998485681313589e-01
-1.926535194825736499e-02 -2.030908012823344922e-03 -5.972849508673102603e-01 9.881269777105597951e-01 -7.692515882061391752e-02 1.329947211772645743e-01
-1.152894831555565172e-02 -2.122916624713361844e-01 -7.266975341285506484e-01 -8.460006826511995426e-01 4.822905284500486611e-01 -2.273294770175599000e-01
3.999208818241432699e-03 1.547170995733817833e-01 -6.752487695307077820e-01 9.874323083309813898e-01 -7.882553062948437217e-02 1.369816490816563592e-01
3.537723711997588054e-03 -1.235553421988474510e-01 -8.320528941892997299e-01 9.874323083309813898e-01 -7.882553062948437217e-02 1.369816490816563592e-01
-7.759579767661305139e-04 8.361616832602407345e-02 -7.073583555369777898e-01 9.812811255636950669e-01 -2.566852057036378421e-02 1.908624626902217236e-01
1.946552265799690595e-02 -4.227575925167687682e-02 -8.590606254751358417e-01 -1.248518985113682145e-01 -6.957444615915461261e-01 -7.073553898874289647e-01
-6.326617770860230340e-03 4.703908604828371115e-02 -6.879483635037819678e-01 7.712343267299452965e-01 -3.112519483975434431e-01 5.552655561910364579e-01
9.320868279923292393e-03 -5.345735933657887184e-02 -8.510380129810725114e-01 7.714381889812080839e-01 -5.280359824765658017e-01 -3.550508721175062443e-01
