-5.110757666399376453e-02 -7.037860542143691001e-02 -8.196928175703260822e-01 -5.428638624572493798e-01 3.691198387267984327e-01 -7.543536117075988479e-01
2.668741990310333212e-02 -8.353998781981779309e-02 -8.821174138521397090e-01 -5.428638624572493798e-01 3.691198387267984327e-01 -7.543536117075988479e-01
2.287182026258431297e-02 -1.775554223807653820e-01 -9.353117393366531251e-01 5.400786936566517316e-01 -3.633529125661850157e-01 7.591374484161579339e-01
-1.980708248073424077e-02 6.275849478637740564e-02 -7.920633272308693629e-01 5.219934819900122758e-01 -4.737375923015145762e-01 7.092922517554428596e-01
3.180259228816028575e-03 -3.912610043413581457e-02 -8.535820099593248722e-01 5.428638624572493798e-01 -3.691198387267984327e-01 7.543536117075988479e-01
3.674770838319464661e-02 1.678620526502496713e-01 -7.705464471072374089e-01 1.544386640143598777e-01 -7.853228311200850520e-01 -5.995137612924275050e-01
-7.747519917550697854e-02 -9.871342049718143108e-02 -8.146555385820318795e-01 -5.388705380543685752e-01 3.706122691054973273e-01 -7.564820481713162570e-01
-1.626767494168419523e-02 -1.213769232722853274e-02 -8.263805262120972328e-01 5.428638624572493798e-01 -3.691198387267984327e-01 7.543536117075988479e-01
3.730976847795139384e-02 -1.285894212794478630e-01 -9.118052531379710057e-01 -5.428638624572493798e-01 3.691198387267984327e-01 -7.543536117075988479e-01
7.187467071952476083e-02 -8.056634291665211098e-03 -8.732318891990219489e-01 -5.632378027186902836e-01 4.590415538805434070e-01 -6.870546043798538838e-01
-8.635500837950564612e-02 1.249841732450619469e-01 -7.085998892184245390e-01 5.490094044258665429e-01 -3.690973107954131360e-01 7.499038931860196877e-01
-6.916523189580461861e-02 5.240185375013843572e-02 -7.540588980485043447e-01 2.853076592744617779e-01 8.540765949376115662e-01 4.349168995786465985e-01
7.971259080815402964e-02 -7.812775518959361176e-02 -9.276147351951005149e-01 5.384167925147681499e-01 -3.691830473717920280e-01 7.575032904690159885e-01
-1.211312208474429053e-01 -6.818267585606839487e-02 -7.689045801091038967e-01 -5.208874202673583476e-01 3.771745600641351892e-01 -7.657778050111158086e-01
1.836859534580834175e-02 8.342335700517765351e-02 -7.944324460614562433e-01 -5.428638624572493798e-01 3.691198387267984327e-01 -7.543536117075988479e-01
9.357351560443877281e-02 -8.489956942081813840e-02 -9.407365689369612261e-01 5.370065517670276067e-01 -3.692007613326884208e-01 7.584950633924057994e-01
3.134881801835819482e-03 -2.815798358338917895e-01 -9.747077855245759315e-01 2.821863146472955441e-02 -4.393471620043077341e-01 8.978740335242010318e-01
-7.375367989145135972e-02 -6.089557358215854505e-02 -7.987820703506376407e-01 -5.390364682630440774e-01 3.703973636355682997e-01 -7.564690865424210653e-01
-8.991488820701762363e-02 5.238353448162209880e-02 -7.271912476588683338e-01 -5.065093113288721138e-01 4.771211596346848771e-01 -7.181947622797070219e-01
-7.943651371914388359e-02 3.558406780986170248e-02 -7.475357532953410544e-01 -5.390245421858114172e-01 3.697515086684912133e-01 -7.567934756317279410e-01
-3.961321928944151749e-02 -1.156836387371040498e-01 -8.602471509187858967e-01 5.428638624572493798e-01 -3.691198387267984327e-01 7.543536117075988479e-01
7.698733838339334723e-02 1.230675328848950534e-01 -8.172900695815857874e-01 -5.468267252263251388e-01 3.670521220897925430e-01 -7.524980214243974785e-01
8.227466682603845616e-02 -1.723662874977192547e-02 -8.997016772553372288e-01 5.390189660996546062e-01 -3.700102759600607527e-01 7.566709653930292490e-01
7.706842537107737312e-02 -4.321796206674565627e-02 -8.986752698325586319e-01 -5.468448615541372515e-01 3.683466911600924987e-01 -7.518519884280735477e-01
5.584236988078418798e-03 1.634216302203428117e-01 -7.418269959055644458e-01 -6.073457294230666381e-01 3.491729721906330353e-01 -7.135890977608349006e-01
9.981129205980679431e-02 1.082023803980071419e-01 -8.472982500388360760e-01 -1.044046009145494780e-01 7.384779000987191644e-01 6.661456825452372055e-01
3.530325973138868922e-02 -8.638886570307960366e-02 -8.998256281762937459e-01 5.428638624572493798e-01 -3.691198387267984327e-01 7.543536117075988479e-01
-5.371693815139017003e-02 -1.854022183977571125e-01 -8.742878701148106835e-01 -5.365595471344400957e-01 3.725214492401531241e-01 -7.571866495355688009e-01
7.076955717595299379e-03 2.290793230392288993e-01 -7.155767759891699109e-01 -5.483739888324730138e-01 3.493628725321806239e-01 -7.597575611127709294e-01
1.257214517937255355e-03 7.602915995540315830e-02 -7.996641460675762980e-01 2.809975949986668817e-02 -4.393486338176805783e-01 8.978770414029901836e-01
-3.884515020876991298e-02 -5.424503649896964680e-02 -8.206228957444647865e-01 -5.428638624572493798e-01 3.691198387267984327e-01 -7.543536117075988479e-01
-1.075278526948833246e-01 1.169766704746058594e-02 -7.487892356526923976e-01 5.473594077154051440e-01 -3.681935161020804537e-01 7.515525354130790925e-01
-1.014651286515381029e-01 8.813891081003637218e-02 -7.156952464650132573e-01 5.476524652415307726e-01 -3.692422029813882678e-01 7.508241957025125757e-01
-3.056889537112712427e-02 1.192893409457237465e-02 -8.043125135913187229e-01 5.428638624572493798e-01 -3.691198387267984327e-01 7.543536117075988479e-01
8.791282212198416046e-02 -5.256081777497426111e-02 -9.209735646136412157e-01 5.387456348614477752e-01 -3.694820144096934156e-01 7.571236239515252153e-01
-2.304672479900244861e-02 -7.331436911834574022e-02 -8.514369766463415479e-01 5.428638624572493798e-01 -3.691198387267984327e-01 7.543536117075988479e-01
8.156461534640349620e-02 1.337521053252778702e-01 -8.154045927094442092e-01 -5.468267252263251388e-01 3.670521220897925430e-01 -7.524980214243974785e-01
-3.662214091157553475e-02 -1.636003022746274349e-01 -8.757323150342930518e-01 -5.428638624572493798e-01 3.691198387267984327e-01 -7.543536117075988479e-01
1.023877482233615521e-01 -7.705152124465093622e-02 -9.337388397047649002e-01 -5.483412809460174175e-01 3.693794578351782265e-01 -7.502537275747921397e-01
-1.492091698746684895e-02 -9.715560345305593315e-02 -8.689506198261298664e-01 5.428638624572493798e-01 -3.691198387267984327e-01 7.543536117075988479e-01
2.454557692817682657e-02 -1.173234829173391558e-01 -9.117845878570869367e-01 3.276574908442081435e-01 1.330954612494447964e-01 9.353748804027587349e-01
-3.636497927250076367e-02 2.177068978379893271e-01 -6.987166300472271718e-01 5.691206455114546925e-01 -4.042209462582447843e-01 7.160356956595906874e-01
1.167246419479622405e-01 -7.465916172604458723e-02 -9.477454795515829478e-01 -7.848016144695222351e-01 9.679852707995963146e-02 6.121408915283975682e-01
-1.025001451318000301e-01 4.666563297171566482e-02 -7.353105072524185326e-01 5.474621197711211362e-01 -3.685028255757829552e-01 7.513260909607588633e-01
1.155633467681475568e-01 1.461106162042702661e-01 -8.345511826142187894e-01 -5.910995745651389521e-01 3.366813726586620481e-01 -7.329713133906337053e-01
-1.131383799814409813e-01 -1.264502536105873431e-01 -8.033132635239995656e-01 -5.163828459935363435e-01 3.861791923794226089e-01 -7.643391836984366750e-01
-7.979937118782975958e-02 -2.545649767978465199e-03 -7.659191538078479189e-01 -5.391573538929156362e-01 3.699902172158266445e-01 -7.565821745902916451e-01
1.135309374447877499e-04 7.931364251283458400e-02 -7.833063143730240041e-01 -5.428638624572493798e-01 3.691198387267984327e-01 -7.543536117075988479e-01
6.902003153588512352e-02 7.808599994640426367e-02 -8.334949735135495086e-01 -5.428638624572493798e-01 3.691198387267984327e-01 -7.543536117075988479e-01
-2.655326164944727882e-02 -5.095240216801857902e-02 -8.279607746595720741e-01 1.483596254774044720e-01 9.771465892618265148e-01 1.522299728114785144e-01
1.952812874849467820e-02 1.049298486655669549e-01 -7.948572415995102114e-01 5.428638624572493798e-01 -3.691198387267984327e-01 7.543536117075988479e-01
1.254526031158186006e-01 9.877905051975859052e-02 -8.734503088328524623e-01 5.017923124246450595e-01 -3.870367152591374094e-01 7.735677450830954482e-01
-5.237845644985170829e-03 -3.946180488885058235e-01 -1.026022077033265312e+00 5.868782093941152800e-01 -3.481759746691159285e-01 7.309907372884882903e-01
-2.195048260507353674e-02 -1.844168531001371403e-01 -9.064784679658649535e-01 5.444324583826500863e-01 -3.639264605335472136e-01 7.557452147271250809e-01
3.512861669234237927e-02 -3.961504443943873049e-02 -8.666987200945102110e-01 -5.428638624572493798e-01 3.691198387267984327e-01 -7.543536117075988479e-01
9.473013911714391055e-02 1.153464282129691154e-01 -8.485068339698709217e-01 5.023236289802706089e-01 -2.759777368973896361e-01 8.194554658461231655e-01
4.700209875019964456e-02 -7.381389387866817142e-03 -8.594708137932148828e-01 -5.428638624572493798e-01 3.691198387267984327e-01 -7.543536117075988479e-01
5.372508818367193253e-03 -3.312863559770991007e-01 -9.978031403812667177e-01 -6.786782347876558763e-01 -3.228008045858921649e-01 6.596934850248347137e-01
-5.573197143827644112e-02 1.689008498942228265e-01 -6.995790975382816246e-01 -5.347073865554095029e-01 3.626958317587443692e-01 -7.632429130938042094e-01
-1.121548816363018286e-01 -8.108327061835704508e-02 -7.813689284777847188e-01 -5.195020661513625182e-01 3.791918189224060542e-01 -7.657226441256534955e-01
-5.836839509844068963e-02 5.699399165887804319e-02 -7.663448772369098050e-01 5.367964554241169139e-01 3.522217163608016843e-01 7.666742645791333466e-01
1.137295169939363387e-01 1.449375418295975604e-01 -8.425139841519123651e-01 4.925456482003207626e-01 -4.001423091640559093e-01 7.728421034440234871e-01
-7.989106642496813723e-03 1.371715656175650777e-01 -7.592782112435199071e-01 5.428638624572493798e-01 -3.691198387267984327e-01 7.543536117075988479e-01
-6.878747377765423443e-02 -1.944057090073124938e-01 -8.772316976717453585e-01 5.746741600518331383e-01 -3.257352298107424882e-01 7.507637243693002782e-01
9.423978737042892906e-02 3.922170007822176063e-02 -8.707981507996015447e-01 -5.465833324399030912e-01 3.679831130091106295e-01 -7.522201069095497683e-01
-1.218669916243410173e-01 -9.459687297231886283e-02 -7.902763453887993172e-01 5.505834282070305452e-01 -3.656871872959404079e-01 7.504203952661318011e-01
-5.129108251915493084e-03 2.121553648958634380e-02 -8.180759154709167369e-01 5.428638624572493798e-01 -3.691198387267984327e-01 7.543536117075988479e-01
-1.666411347735372028e-02 9.535266557138695476e-02 -7.633842271430826276e-01 -5.428638624572493798e-01 3.691198387267984327e-01 -7.543536117075988479e-01
-7.566627139174933458e-02 4.297102250510258931e-02 -7.566440363181732298e-01 5.466022777973925661e-01 -3.683591459884109631e-01 7.520222666074393159e-01
1.071452116157966261e-01 -4.474172986312725288e-03 -9.111571775467549594e-01 5.382359402151504213e-01 -3.700520127418661098e-01 7.572077525530273023e-01
8.324275103879964777e-02 7.342365776648403231e-02 -8.460838896163270784e-01 -5.465853098881766625e-01 3.677520962148458361e-01 -7.523316388030165669e-01
3.797703155930524238e-02 2.067794063396672100e-01 -7.484342241868275902e-01 -5.508876317584339155e-01 3.614366286761647729e-01 -7.522541994743480176e-01
-1.697880647831526146e-02 -1.249930999390550385e-01 -8.709772136572340173e-01 -5.428638624572493798e-01 3.691198387267984327e-01 -7.543536117075988479e-01
-5.168395936703890775e-02 -2.030960932974972821e-01 -8.848670021333017166e-01 -5.247814144663737190e-01 3.987963629808535804e-01 -7.520411743408168537e-01
8.213217221922973488e-02 2.119066540427462786e-01 -7.831338104243379394e-01 -6.561585053203783380e-01 -7.470482290280251458e-01 1.066534547111265691e-01
-5.882643785862709529e-02 8.615291141339186110e-02 -7.375441036384791094e-01 -5.428638624572493798e-01 3.691198387267984327e-01 -7.543536117075988479e-01
1.128642442513536903e-01 4.910510605437127390e-02 -8.890195371632115817e-01 5.383706942151917918e-01 -3.704794695505534419e-01 7.569028724029212007e-01
-8.119513061417591576e-03 -1.111151221454447086e-01 -8.760370348940881291e-01 9.483344106322304512e-01 1.394483086417124817e-01 -2.849842361040094141e-01
3.376285662587488745e-02 -4.892298585095204017e-02 -8.702704191041097381e-01 -5.428638624572493798e-01 3.691198387267984327e-01 -7.543536117075988479e-01
4.525020625246842232e-02 7.331480488168638787e-03 -8.510107876400524463e-01 -5.428638624572493798e-01 3.691198387267984327e-01 -7.543536117075988479e-01
7.969684112166186551e-02 -7.471428728838067079e-02 -9.160285122762500398e-01 -5.471206253051666968e-01 3.684975132742703829e-01 -7.515774105681743977e-01
8.923808462423102328e-02 1.496339007465772274e-02 -8.848446047633182765e-01 3.261461499084920557e-01 -8.452097351728842245e-01 -4.233783089257766585e-01
-9.677896416922897316e-02 1.294209929997084396e-01 -6.901680962978946621e-01 -4.835523336159154306e-01 3.464939817166152736e-01 -8.038153154106781884e-01
3.548117325540717931e-02 -1.145719299278056408e-01 -8.994725522591211497e-01 -5.252905562058386435e-01 3.081993432585022341e-01 -7.931475249762734991e-01
-8.907988996543741989e-02 3.862051469700970158e-02 -7.490235238755941216e-01 5.467091846948071154e-01 -3.684774455076395561e-01 7.518865868749778913e-01
-4.895122444894247325e-03 -3.100762266307687809e-01 -9.853924174581002449e-01 6.073457294230665271e-01 -3.491729721906330353e-01 7.135890977608349006e-01
5.388201382306910536e-02 -5.679637037622390500e-02 -8.987154818421047020e-01 5.428638624572493798e-01 -3.691198387267984327e-01 7.543536117075988479e-01
-8.283959753433442486e-02 -1.012674232475452435e-01 -8.120870676341048755e-01 -5.387643840314284560e-01 3.710758441877229918e-01 -7.563303883618615053e-01
-8.086672632111804870e-02 1.031493490810712066e-01 -7.233473095936339137e-01 5.472675684402380503e-01 -3.685504622469390479e-01 7.514444525785498596e-01
-1.148758344563969719e-01 5.589669447737363045e-02 -7.217363749489984492e-01 5.499562090191149055e-01 -3.689429738202391063e-01 7.492858267910863512e-01
-1.996358177398459971e-02 -2.032078686288923963e-01 -9.073610997734993244e-01 -5.397979674844372022e-01 3.761571741295136051e-01 -7.530763139619841562e-01
8.036740190623438418e-02 2.010250749743028587e-01 -7.911357730748014294e-01 5.161879529215047668e-01 -3.977243818445485024e-01 7.585283866442165124e-01
2.178317005508081938e-02 -1.531804412087553746e-01 -9.126645373114821158e-01 -5.428638624572493798e-01 3.691198387267984327e-01 -7.543536117075988479e-01
-9.863110459130791652e-02 4.477233195236205582e-02 -7.390583338552119130e-01 5.474621197711211362e-01 -3.685028255757829552e-01 7.513260909607588633e-01
-4.366026164674322030e-02 -7.576483320763667539e-03 -7.943219163255141879e-01 -5.428638624572493798e-01 3.691198387267984327e-01 -7.543536117075988479e-01
-6.223149483965141615e-02 3.339358082654614659e-03 -7.857298516763878693e-01 5.428638624572493798e-01 -3.691198387267984327e-01 7.543536117075988479e-01
1.171443986791345371e-01 7.065521750104163112e-02 -8.721060385714766161e-01 -5.636466266386895851e-01 3.613836299654157314e-01 -7.427680339593547565e-01
-1.115582656923297805e-01 -4.286753868424034858e-02 -7.725619400885257448e-01 5.473894507892816952e-01 -3.677115612429947555e-01 7.517665840490967977e-01
-9.852773554980905069e-02 -8.747717217581062882e-03 -7.653548804705789799e-01 5.473411884856236309e-01 -3.679304402440672361e-01 7.516946285087793278e-01
-1.339873765946050788e-01 -8.473945898203621985e-02 -7.739749829063777842e-01 8.271983496300922001e-01 3.901612361095028181e-01 -4.043724770638534305e-01
-4.928706235536346215e-03 -1.334051291228736946e-01 -8.837651299166281449e-01 -5.428638624572493798e-01 3.691198387267984327e-01 -7.543536117075988479e-01
6.107771903140432612e-02 -8.612098795698529263e-02 -9.081290199022750143e-01 -5.428638624572493798e-01 3.691198387267984327e-01 -7.543536117075988479e-01
-4.111666593596186026e-03 -3.703455425021686120e-01 -9.990355579544382136e-01 -2.705635578980230063e-02 4.450537974476230230e-01 -8.950950066829920226e-01
8.374152389427778898e-02 -9.181912627926726300e-02 -9.227332978926882090e-01 -5.610645934322777695e-01 4.592906532610698811e-01 -6.886643724077008422e-01
-9.620332723230397287e-02 3.999481113740299687e-02 -7.334460652186309826e-01 -5.382278341031306867e-01 3.697282630002750592e-01 -7.573716459806586476e-01
5.885653255447625097e-03 -1.504182736748114479e-01 -8.998724487495278757e-01 -5.428638624572493798e-01 3.691198387267984327e-01 -7.543536117075988479e-01
-1.282315726010389411e-03 1.621600185917595471e-01 -7.417780168234978655e-01 -5.428015256167216807e-01 3.661463389032996729e-01 -7.558461234245162919e-01
3.114681596129831049e-03 -1.365052708797588887e-01 -9.037194920633200290e-01 2.809975949986663959e-02 -4.393486338176806338e-01 8.978770414029902946e-01
5.861796207631217448e-02 1.139469284648375741e-01 -8.084617696385881791e-01 -5.428638624572493798e-01 3.691198387267984327e-01 -7.543536117075988479e-01
-8.339380787924005611e-02 1.102353564124212426e-01 -7.083594179982111161e-01 -5.376286548026883994e-01 3.643927915745985846e-01 -7.603770926214983294e-01
1.000325196137329294e-02 -4.789912663093585238e-02 -8.627849276566468273e-01 5.428638624572493798e-01 -3.691198387267984327e-01 7.543536117075988479e-01
4.063411500602457510e-02 -1.735787584441670639e-01 -9.460334668270869996e-01 5.392072462309750458e-01 -3.634588274623923865e-01 7.597060131074856448e-01
-8.290533936330791651e-03 1.067232338002647996e-01 -7.739602505060484416e-01 5.428638624572493798e-01 -3.691198387267984327e-01 7.543536117075988479e-01
-4.137779158501565802e-02 -2.113880694556256046e-01 -8.964666396005200877e-01 -5.229451702518649325e-01 4.067100391663653336e-01 -7.490762931447914053e-01
5.832447531576272215e-02 6.884588464734200941e-02 -8.404332698602384744e-01 5.428638624572493798e-01 -3.691198387267984327e-01 7.543536117075988479e-01
5.673041276427890321e-03 -1.691108298518448627e-01 -9.046171544198499115e-01 -6.073457294230665271e-01 3.491729721906329797e-01 -7.135890977608349006e-01
-3.109027530260012259e-02 1.237268800254072709e-01 -7.492324059991650742e-01 5.428638624572493798e-01 -3.691198387267984327e-01 7.543536117075988479e-01
7.792921252903468529e-03 -3.812579601948831720e-01 -1.019610246562097089e+00 -9.463327086242011577e-01 -1.395748588732801110e-01 2.915017381740395708e-01
-3.373422702509495941e-02 -7.929004868331156197e-02 -8.365559358626128983e-01 -5.428638624572493798e-01 3.691198387267984327e-01 -7.543536117075988479e-01
3.308889126116397461e-03 -1.427410792544763496e-01 -8.898591795724654085e-01 -4.750067208338834002e-01 3.867716900235746991e-01 -7.904279062374688358e-01
-4.717041782060424349e-02 1.855477998469480250e-01 -6.977623638895317226e-01 -5.399668402094175423e-01 3.593435361087344293e-01 -7.611228774193611324e-01
-1.285787211991514523e-01 -5.931069647828111219e-02 -7.595749674485617886e-01 -4.999468340835865332e-01 3.846932573064926753e-01 -7.759279997994138478e-01
1.250166424905201079e-01 1.545586533450480152e-02 -9.140626775381537339e-01 5.355548899930696605e-01 -3.705114759372883371e-01 7.588822082532197255e-01
-4.594315364006702762e-02 1.039012467003492049e-03 -7.985772151262092722e-01 5.428638624572493798e-01 -3.691198387267984327e-01 7.543536117075988479e-01
2.947373641507896810e-02 -1.961340383302614121e-01 -9.488446727577592998e-01 5.373969625285012208e-01 -3.608272759542947017e-01 7.622389268415407093e-01
-7.369927048503495078e-05 -1.397566917506621598e-01 -8.903669351295226964e-01 -5.428638624572493798e-01 3.691198387267984327e-01 -7.543536117075988479e-01
2.497567165114836923e-02 -1.755694192174193646e-01 -9.260425389039640409e-01 -5.448652842893838555e-01 3.732941989062577570e-01 -7.508483622138252267e-01
5.915318736920145704e-02 -1.042763728609973212e-01 -9.222222232720665991e-01 -1.296988945527539072e-01 7.387324841946336651e-01 6.614019304079926664e-01
3.009834242723673919e-02 -1.906470480249903288e-01 -9.466944094070585125e-01 5.375654851627947872e-01 -3.599356082598748063e-01 7.625416100569746281e-01
-9.943075178185344087e-03 1.362796688167615677e-01 -7.541481016913947899e-01 3.709316630496747313e-01 8.495749258524085690e-01 3.750095288257045967e-01
-1.061271931302413818e-01 -1.040221343551699651e-01 -7.968796698098372655e-01 -5.377765538401072520e-01 3.717533492844890541e-01 -7.567006181017845723e-01
4.256448490260097625e-03 -2.158929901453311151e-01 -9.263028898447920323e-01 -6.073457294230666381e-01 3.491729721906330353e-01 -7.135890977608350116e-01
2.759535166785275721e-03 -1.595741811156083101e-01 -9.122168193382181878e-01 5.428638624572493798e-01 -3.691198387267984327e-01 7.543536117075988479e-01
9.196892192445059802e-03 4.981392216527932154e-02 -8.143917499409371041e-01 5.428638624572493798e-01 -3.691198387267984327e-01 7.543536117075988479e-01
1.899791312015529712e-02 2.944692777338658168e-02 -8.314109324077172403e-01 5.428638624572493798e-01 -3.691198387267984327e-01 7.543536117075988479e-01
-1.017372560713604018e-01 -1.019035138034035948e-01 -8.085515675896519650e-01 5.479073844572289742e-01 -3.664842481763561088e-01 7.519885596841545672e-01
-1.070556740532665058e-01 9.013839964771362678e-02 -7.106088623138605564e-01 5.511578082923000999e-01 -3.693237630423142903e-01 7.482145604107770520e-01
-2.976324528749788034e-02 1.491227204709846127e-02 -7.933185967080380596e-01 -5.428638624572493798e-01 3.691198387267984327e-01 -7.543536117075988479e-01
-1.984813348793517274e-03 5.723237312994086667e-02 -7.882147937312552477e-01 -5.538046189076240022e-01 2.976349379166024489e-01 -7.776335176726639764e-01
1.932729395549936339e-03 1.214724126896115225e-01 -7.741002719557169565e-01 5.428638624572493798e-01 -3.691198387267984327e-01 7.543536117075988479e-01
7.229388015341314810e-02 1.856952691179032666e-01 -7.847564566642771799e-01 1.503595401389046515e-01 -7.844350931458472509e-01 -6.017088941759819454e-01
-2.061221712698754760e-02 1.330810506383324487e-01 -7.420817796455765336e-01 -5.428638624572493798e-01 3.691198387267984327e-01 -7.543536117075988479e-01
-9.482619106652934171e-02 -2.173754544958962295e-02 -7.744031712468080197e-01 5.466002914837071458e-01 -3.681282714578326676e-01 7.521367542564281194e-01
-4.653527635359866466e-02 -4.647999382350306158e-02 -8.235483893958465140e-01 5.643622976353814824e-01 3.399581374951214374e-01 7.522789786765021747e-01
-7.862655331719003993e-02 1.321172033049371891e-02 -7.590493591234650506e-01 -5.391170111880547733e-01 3.699416427104519345e-01 -7.566346735620508301e-01
-1.060572971552147525e-01 -1.312736766012778666e-01 -8.243247576032894930e-01 5.792030720632396212e-01 -2.487293127503115153e-01 7.763102023619573577e-01
9.159799761289331987e-02 3.614854872973643704e-03 -8.902592438352848747e-01 -3.233659664916987420e-01 8.446960902159479367e-01 4.265242863997089628e-01
1.086991737712692113e-01 1.470519146512660469e-01 -8.288804794730457726e-01 -5.674877731551422055e-01 3.541370284963116788e-01 -7.433334328329518348e-01
-6.750029625474636419e-02 -4.571378740862155204e-02 -7.911905583342350168e-01 -5.154163144948543662e-01 4.726280742969152793e-01 -7.148207650445883576e-01
5.978273706953549094e-02 3.909719052674030804e-03 -8.631433282653248051e-01 -5.428638624572493798e-01 3.691198387267984327e-01 -7.543536117075988479e-01
-7.499754336404929056e-02 4.889787567546897973e-02 -7.542263996515686797e-01 5.467091846948071154e-01 -3.684774455076395561e-01 7.518865868749778913e-01
-9.771094202936400630e-02 -5.196626254248511850e-02 -7.773419478064713672e-01 -5.382824204765538356e-01 3.705064676442131888e-01 -7.569524378979896051e-01
9.493496886279680080e-02 1.646345783359680626e-01 -8.101855964273363409e-01 -5.480523649842793388e-01 3.614313205611151547e-01 -7.543248675157053773e-01
2.624325874342787676e-03 2.371832134795688607e-01 -7.123516714897041302e-01 -1.542968833973796527e-01 -8.656827835220475276e-01 -4.762203167520000502e-01
3.904650107691112065e-02 -1.450848715772344311e-01 -9.312223027681422183e-01 5.375674761314669370e-01 -3.692470068104746761e-01 7.580750995562048900e-01
1.121297429401996865e-01 -7.170336559784046618e-03 -9.065319369741401401e-01 -5.474962819603724773e-01 3.681720979587161380e-01 -7.514633241378090300e-01
-1.681681121576656876e-02 -1.085502881065302516e-01 -8.731618964061634847e-01 5.428638624572493798e-01 -3.691198387267984327e-01 7.543536117075988479e-01
-8.537924242852341916e-02 3.243687748619995814e-02 -7.448407006589999879e-01 -5.390245421858114172e-01 3.697515086684912133e-01 -7.567934756317279410e-01
4.658700121398638705e-02 -9.951956626196503675e-02 -9.143709785087991149e-01 5.428638624572493798e-01 -3.691198387267984327e-01 7.543536117075988479e-01
-6.353984428026311637e-02 -1.292262121112996709e-01 -8.496552117615413513e-01 5.428638624572493798e-01 -3.691198387267984327e-01 7.543536117075988479e-01
-6.829293323495015666e-02 5.931460457491716243e-02 -7.586581240533660786e-01 5.590516723678069511e-01 -2.954853660888214217e-01 7.746932464208741154e-01
4.386271694241626606e-02 -8.870838767136643432e-02 -9.071203524164506149e-01 5.428638624572493798e-01 -3.691198387267984327e-01 7.543536117075988479e-01
3.954277823071380982e-02 1.152731329001240590e-01 -7.940855458378874854e-01 -5.428638624572493798e-01 3.691198387267984327e-01 -7.543536117075988479e-01
4.797479276144010762e-03 -1.634778558260099046e-01 -9.162827675850550024e-01 -6.786782347876558763e-01 -3.228008045858922204e-01 6.596934850248348248e-01
-1.027476724516547361e-02 1.276192585988669970e-01 -7.623074848463954334e-01 5.428638624572493798e-01 -3.691198387267984327e-01 7.543536117075988479e-01
1.038984568319134133e-01 1.143436813152764464e-01 -8.527838796296567381e-01 2.611768012592661226e-01 2.665102166326501210e-01 9.277709754645245832e-01
3.392575185184923403e-02 -3.551506914242778118e-02 -8.638268917634484012e-01 -5.428638624572493798e-01 3.691198387267984327e-01 -7.543536117075988479e-01
1.081373189404773449e-01 6.891751741945641163e-02 -8.759565921171670322e-01 5.383526208175332117e-01 -3.707524263037260126e-01 7.567820650945641381e-01
-3.569642626873145708e-02 -1.906625033828105581e-02 -8.056751852021738491e-01 -5.428638624572493798e-01 3.691198387267984327e-01 -7.543536117075988479e-01
-7.091294557143988653e-02 -1.129105202727060386e-01 -8.262921167414210011e-01 -5.385928686439832580e-01 3.709203266221257622e-01 -7.565288052310900069e-01
-5.726084310579239445e-02 -7.168607359426362735e-02 -8.260183343832824265e-01 5.428638624572493798e-01 -3.691198387267984327e-01 7.543536117075988479e-01
-1.950582049012569708e-02 1.306145162395389581e-01 -7.440849112111201924e-01 -5.428638624572493798e-01 3.691198387267984327e-01 -7.543536117075988479e-01
2.178550388224776216e-02 1.692839894800038936e-01 -7.549033739725992120e-01 -5.431370304353406731e-01 3.658107281490778351e-01 -7.557676080257218487e-01
8.457441557520535558e-02 -9.440014944658361995e-02 -9.292499607870623457e-01 -5.472747052589790329e-01 3.690460288268859745e-01 -7.511959967883234945e-01
-3.566772986482489400e-04 -2.501090503933006692e-01 -9.589652246553099779e-01 4.751109289358593779e-01 -3.867417244636786600e-01 7.903799363373064102e-01
-5.657163734674213601e-03 -1.954119059974996492e-02 -8.425797293678232158e-01 6.072510365378179786e-01 -3.492047863669400232e-01 7.136541149619788360e-01
8.643682795164185986e-03 2.724801968587072659e-02 -8.250355710470534953e-01 5.428638624572493798e-01 -3.691198387267984327e-01 7.543536117075988479e-01
-7.515244297571899157e-02 -5.352762898639867178e-02 -8.042517729674903970e-01 5.466973878610412729e-01 -3.678287663939365237e-01 7.522127124151976041e-01
9.964512515868825804e-02 -3.901824821949120836e-02 -9.130456710475226556e-01 -5.477913554874477287e-01 3.683363990254912568e-01 -7.511677096402363807e-01
2.020019041780419904e-03 -1.327389736707441092e-01 -8.840163307510758850e-01 -5.277434350773217986e-01 3.733318322085698582e-01 -7.629614733343883515e-01
-3.114756446491290221e-04 -1.441199238367306956e-01 -9.024447262100654399e-01 5.428638624572493798e-01 -3.691198387267984327e-01 7.543536117075988479e-01
5.608974439458760952e-02 -7.806529198720017770e-02 -9.005976602239939011e-01 -5.428638624572493798e-01 3.691198387267984327e-01 -7.543536117075988479e-01
-5.488085701499082619e-02 -1.700270292433485320e-01 -8.757195796402819088e-01 5.481374933676161909e-01 -3.662439686300618114e-01 7.519379255010142371e-01
-7.908351292642816499e-02 -5.099297122375043984e-02 -8.001556308293789055e-01 5.466602226159903433e-01 -3.677841916210054518e-01 7.522615166304329470e-01
-9.220230320061764684e-02 -9.322524318589874015e-02 -8.014771095032739989e-01 -5.379173453398865545e-01 3.711416952520197321e-01 -7.569007673585395057e-01
5.408761565738010035e-02 -4.102510047708610857e-02 -8.810323626937938135e-01 -5.428638624572493798e-01 3.691198387267984327e-01 -7.543536117075988479e-01
5.938818951344319169e-02 -9.326419680949746271e-02 -9.253046578050718729e-01 5.609745660294060965e-01 -4.579681368922094431e-01 6.896178085429622850e-01
-2.044829296694584617e-02 6.281926341597521279e-02 -7.866940908329829174e-01 5.428638624572493798e-01 -3.691198387267984327e-01 7.543536117075988479e-01
-5.340297075012123001e-02 6.344534864055256795e-02 -7.671925505467933615e-01 5.281763368814620385e-01 -4.410960279446197174e-01 7.255784253200748823e-01
8.018738589817296647e-02 9.735534753399410768e-02 -8.382327550466731614e-01 -1.032227196302476085e-01 7.436915751184582923e-01 6.605057995581581354e-01
7.242931676066961810e-02 6.836967687283047532e-03 -8.838854016701480631e-01 5.628737385754690736e-01 -8.015778447180323951e-01 2.016088125039878776e-01
-5.630266234247933987e-02 8.952672589615431886e-02 -7.478233341565735381e-01 5.428638624572493798e-01 -3.691198387267984327e-01 7.543536117075988479e-01
-5.082088357148639886e-03 5.587382410272805772e-02 -8.011507812441142073e-01 5.428638624572493798e-01 -3.691198387267984327e-01 7.543536117075988479e-01
-4.963492145737816164e-02 -1.415392192654500725e-01 -8.555728679595122621e-01 -5.428638624572493798e-01 3.691198387267984327e-01 -7.543536117075988479e-01
-1.921364805077970710e-03 -1.117763903654886946e-02 -8.232873274693132126e-01 -2.821863146472932543e-02 4.393471620043077341e-01 -8.978740335242010318e-01
-4.729359712713741837e-02 1.576551298450687422e-01 -7.208952329790250246e-01 5.438300599723486783e-01 -3.724302704392611352e-01 7.520269672897443858e-01
-4.265435799969960473e-02 -1.962442550274982184e-02 -8.009410974851238763e-01 -5.428638624572493798e-01 3.691198387267984327e-01 -7.543536117075988479e-01
-7.422071400960364440e-02 1.137914170122501269e-02 -7.731667664229238124e-01 5.465766575561680218e-01 -3.682382528005769817e-01 7.521000908051439504e-01
-9.224109423814694231e-02 -9.782011881418928301e-02 -8.037026106929529012e-01 -5.379173453398865545e-01 3.711416952520197321e-01 -7.569007673585395057e-01
1.073947983441305848e-01 3.668268930861803140e-02 -8.912095901416732247e-01 5.383710478123970855e-01 -3.704789389194760307e-01 7.569028806223957462e-01
7.933447976967011872e-02 1.856611586615469489e-01 -7.853706042050287994e-01 -6.230161054434487644e-01 1.888267234983914710e-04 -7.822089853118190383e-01
1.788849115860375802e-02 -1.847312630364633113e-01 -9.352034908206047215e-01 5.404334731936736302e-01 -3.636943915176760189e-01 7.587213260680170102e-01
-2.650896932019684848e-02 2.324129926413313341e-01 -6.979301085239567604e-01 5.994091282929484565e-01 -4.555123820682205893e-01 6.581923477993517624e-01
6.417473824688572914e-02 -1.404361056459004220e-01 -9.468828574149024124e-01 5.428638624572493798e-01 -3.691198387267984327e-01 7.543536117075988479e-01
-9.743025192618781638e-02 -8.376140040593221814e-02 -8.028361910366124121e-01 5.477690016106989690e-01 -3.670943247859666525e-01 7.517917780771170566e-01
-1.229324771963433705e-01 -4.502503545973695481e-02 -7.553102522492119997e-01 7.107759627891038212e-01 3.725434840297205952e-01 -5.966647997227755296e-01
1.793107291410331317e-02 2.436576619556010959e-01 -7.250121227880412800e-01 5.233761554000324612e-01 -4.131145434158646212e-01 7.452608764566824862e-01
1.153108926772899862e-01 1.178934677990060992e-01 -8.545346676005171060e-01 -1.952014177138944873e-01 7.095237031941441508e-01 6.771059895822467700e-01
-7.363180531148243169e-02 -1.463016291323877144e-02 -7.762260118773430806e-01 -5.391584661717913063e-01 3.701307528324215279e-01 -7.565126397906291045e-01
-1.210651481429637771e-01 6.911981690854711313e-02 -7.024020944913489384e-01 -4.986411344737074480e-01 3.638118551565126535e-01 -7.867642296510122257e-01
-8.175601252521476348e-02 8.502607400679103311e-02 -7.315949328329117707e-01 5.468447909003890661e-01 -3.689226098724342484e-01 7.515696126041960801e-01
1.085349915883176974e-01 1.630840801697636400e-01 -8.211536522628254398e-01 -5.673161904316941229e-01 3.502152864133047383e-01 -7.453197925967864901e-01
4.888282746673112966e-03 -2.172397402633529373e-01 -9.324493513927827326e-01 -5.464298013171606794e-01 3.953282736217565985e-01 -7.383292140418999949e-01
-1.005443589212856315e-01 -6.147822589615313527e-02 -7.896814579436808312e-01 5.475340230563676691e-01 -3.674751335468218194e-01 7.517769082782833623e-01
-8.364823447259722711e-03 -1.745268413146184583e-01 -9.078819305642890081e-01 9.483344106322303402e-01 1.394483086417125373e-01 -2.849842361040095251e-01
-1.202818101174562143e-01 -7.240505434280314345e-02 -7.715605674616589083e-01 -5.205518963798498877e-01 3.770705587366010025e-01 -7.660571237900013486e-01
-5.915728728823888699e-02 -3.646056628700342778e-02 -8.099622727729112182e-01 2.327044877807731282e-01 -9.049202785849734809e-01 3.563255685077652557e-01
-6.416823785260878342e-04 1.514584410858884622e-01 -7.575748747262895932e-01 5.428638624572493798e-01 -3.691198387267984327e-01 7.543536117075988479e-01
1.266006061968370788e-01 1.129228067641685901e-01 -8.671083804376350512e-01 5.002761714720286301e-01 -3.881573706574603655e-01 7.739881186824357773e-01
-8.218635334085395983e-02 -1.133694490057233495e-01 -8.184899759459194346e-01 -5.387643840314284560e-01 3.710758441877229918e-01 -7.563303883618615053e-01
5.627467809063364627e-03 -3.425019835348179220e-01 -9.894220173615061453e-01 -6.073457294230665271e-01 3.491729721906330353e-01 -7.135890977608349006e-01
3.473895019954623131e-02 -1.092858555276741556e-01 -9.005095778933743800e-01 -5.428638624572493798e-01 3.691198387267984327e-01 -7.543536117075988479e-01
5.243418109455593584e-03 2.120192483661788654e-02 -8.254566003892370718e-01 -6.786782347876558763e-01 -3.228008045858921649e-01 6.596934850248347137e-01
6.467386740371025566e-02 6.344896602928738749e-02 -8.375294794853177516e-01 -5.428638624572493798e-01 3.691198387267984327e-01 -7.543536117075988479e-01
5.459010751126024130e-02 1.598877994948286752e-01 -7.931080241879087112e-01 5.429767890284865617e-01 -3.725128720609814370e-01 7.526023961729015888e-01
-6.463887796901704452e-02 -2.319108826132757623e-02 -7.868653705610657578e-01 -5.428638624572493798e-01 3.691198387267984327e-01 -7.543536117075988479e-01
1.252505050493479821e-01 1.384610602718713834e-01 -8.514497572826715821e-01 -8.107585104637415885e-01 -4.645963853732457127e-01 3.561191323261492236e-01
-6.150041903970307478e-02 9.122268513590896244e-02 -7.331390583661275828e-01 -5.428638624572493798e-01 3.691198387267984327e-01 -7.543536117075988479e-01
4.766127589094118315e-03 -7.108121435734948701e-02 -8.558774771055361885e-01 -6.073457294230666381e-01 3.491729721906330353e-01 -7.135890977608349006e-01
9.871505855843724919e-02 -7.477092359249436215e-02 -9.284802003150016692e-01 1.206896690251373500e-01 -7.429598929387232209e-01 -6.583650972485429742e-01
1.801426578180702689e-02 2.400056809472183444e-02 -8.333680686763477174e-01 5.428638624572493798e-01 -3.691198387267984327e-01 7.543536117075988479e-01
7.159879372216727822e-02 2.119427836485792416e-01 -7.793864390524321006e-01 5.261929440803794211e-01 -3.923702398282267190e-01 7.544312960748397190e-01
1.373834488580140956e-01 3.849932051683562645e-02 -9.037447602637898036e-01 -6.852173548985136531e-01 3.247108820004685481e-01 -6.519509334730353434e-01
9.705886942262222095e-02 1.820304627915932671e-01 -8.035601862829601094e-01 -5.626183797672542619e-01 3.511810079426218589e-01 -7.484199746188456848e-01
1.193799870695157334e-01 1.457791131271083118e-01 -8.457251374273344613e-01 4.073203290662136267e-01 -4.511367569236859887e-01 7.940817187681443734e-01
1.201304754421477113e-02 1.175122260406751863e-02 -8.350431874807111576e-01 5.428638624572493798e-01 -3.691198387267984327e-01 7.543536117075988479e-01
-8.582296108095228623e-03 -3.177910974603656014e-01 -9.787075849650924697e-01 9.483344106322304512e-01 1.394483086417124817e-01 -2.849842361040094141e-01
1.178877864453026642e-01 -2.319762991024664975e-02 -9.187192702200612793e-01 -5.658041395173580845e-01 3.660369781076887041e-01 -7.388386876462368358e-01
-3.849257600739766638e-02 7.319001056258565840e-03 -7.907521461765143478e-01 -5.428638624572493798e-01 3.691198387267984327e-01 -7.543536117075988479e-01
8.365831532257958850e-03 8.213830766455779142e-02 -7.912681094173070750e-01 -9.464009319988597735e-01 -1.419631337883971722e-01 2.901236711415793867e-01
3.100247084931409547e-02 6.540077913004367638e-02 -8.123430986820006083e-01 -5.428638624572493798e-01 3.691198387267984327e-01 -7.543536117075988479e-01
-3.381664246970925158e-02 6.522865494006312159e-02 -7.657808244129573616e-01 -5.428638624572493798e-01 3.691198387267984327e-01 -7.543536117075988479e-01
-5.212384937389341610e-02 5.225271912690029885e-02 -7.548007660942614994e-01 -5.262732628203984353e-01 4.386899005784236638e-01 -7.284144589249066382e-01
4.664192419803810108e-02 1.749149630502514208e-01 -7.700667784294525919e-01 -5.477446718203511367e-01 3.667319346489993359e-01 -7.519863446905253879e-01
2.425964647892064896e-02 8.014435824742471848e-02 -8.146879162737985514e-01 5.379732189925856556e-01 -8.144052476773406823e-01 2.175520815859155466e-01
3.443986763085159220e-02 -1.371231346204394297e-01 -9.240295565552599788e-01 5.428638624572493798e-01 -3.691198387267984327e-01 7.543536117075988479e-01
8.118945222355214431e-02 -6.935737137270042707e-02 -9.144885885663702751e-01 -5.471206253051666968e-01 3.684975132742703829e-01 -7.515774105681743977e-01
-8.725608551380117060e-04 -1.284022328574794536e-01 -8.842360847576048455e-01 -5.428638624572493798e-01 3.691198387267984327e-01 -7.543536117075988479e-01
8.345218044211670516e-03 -3.944058621620524230e-01 -1.018593010578268787e+00 -9.073118493661285200e-01 1.890961869914940530e-01 -3.755367359727853627e-01
-4.239733092478457227e-02 -1.293886401976597489e-01 -8.697877874280676158e-01 5.150335291321992415e-01 -4.711682108434763205e-01 7.160593417868307275e-01
-8.458380538265171736e-03 -8.228523993336876730e-02 -8.562110789305049652e-01 -5.428638624572493798e-01 3.691198387267984327e-01 -7.543536117075988479e-01
-1.078001441644712982e-01 -8.166970440635215600e-02 -7.847223315062114013e-01 -5.380499198208010814e-01 3.712337915137081668e-01 -7.567613598877694914e-01
-4.966651071875338892e-03 1.130063795461768994e-01 -7.732777882678033565e-01 5.428638624572493798e-01 -3.691198387267984327e-01 7.543536117075988479e-01
-3.810469778075770836e-02 1.576203969521266235e-01 -7.275544030086728009e-01 5.431860906036616310e-01 -3.725391923011851514e-01 7.524383171890510758e-01
2.579402691978674445e-02 1.295303901863455731e-01 -7.772150270874270683e-01 -5.428638624572493798e-01 3.691198387267984327e-01 -7.543536117075988479e-01
7.119749695800878242e-02 -8.977594741770449083e-02 -9.168751971989116401e-01 1.220300734311604712e-01 -7.350798018582177518e-01 -6.669080491930418075e-01
8.776901259562992774e-02 -1.130899297088633210e-01 -9.409086673779032406e-01 -5.564307259304637210e-01 3.696690926767571272e-01 -7.441301023074124998e-01
4.609873013145519838e-02 -8.092148258583706233e-02 -9.049191958669567937e-01 5.428638624572493798e-01 -3.691198387267984327e-01 7.543536117075988479e-01
9.364400292897260419e-03 -1.202483938011745940e-01 -8.944223315191537349e-01 1.864230517927596142e-01 -8.551229751422907421e-01 -4.837469825684410085e-01
-1.043635631917426698e-01 7.340539993089742477e-02 -7.208258631292600027e-01 5.477365009261281337e-01 -3.685636229275763842e-01 7.510962530912405066e-01
3.894404370368058366e-02 1.862915952902995803e-02 -8.510583313587742893e-01 5.428638624572493798e-01 -3.691198387267984327e-01 7.543536117075988479e-01
7.315409851828554022e-02 1.447072345075804678e-01 -8.138854121263839891e-01 5.384448585582399804e-01 -3.710570744915940300e-01 7.565671032776511984e-01
-4.478161762616736721e-03 6.410464567978059469e-02 -8.026975762385683000e-01 5.428638624572493798e-01 -3.691198387267984327e-01 7.543536117075988479e-01
1.099188048425097236e-01 1.112827192623890016e-02 -9.055036847358375329e-01 5.382359402151504213e-01 -3.700520127418661098e-01 7.572077525530273023e-01
-5.219714970072648896e-02 -1.346736307171127467e-01 -8.458722505932012581e-01 -5.662177916373705155e-01 2.614852692519700206e-01 -7.816795164244255689e-01
-2.966143478944802125e-02 4.417981680448748033e-02 -7.790706869827342951e-01 -5.428638624572493798e-01 3.691198387267984327e-01 -7.543536117075988479e-01
1.492027993269461842e-03 -1.411211527340018035e-01 -9.022752447454082114e-01 5.428638624572493798e-01 -3.691198387267984327e-01 7.543536117075988479e-01
2.140690586155946998e-02 7.532778857471914002e-02 -8.156207549150936709e-01 5.204126575842535907e-01 -3.085607366950630093e-01 7.962166398639848319e-01
-2.361697916814854345e-02 1.467125869968592955e-01 -7.433631452482736268e-01 5.428638624572493798e-01 -3.691198387267984327e-01 7.543536117075988479e-01
1.175139927098114850e-01 -1.492424631148176785e-02 -9.235928162599351676e-01 5.352780325155072072e-01 -3.699498412600894515e-01 7.593513961651497945e-01
-5.000016421984466997e-02 1.253670465494041708e-01 -7.347601323550605468e-01 5.477177023968670122e-01 -3.682394089236193380e-01 7.512689639514467110e-01
3.894124701373843922e-02 -2.971144590103206098e-02 -8.612446809059338682e-01 -5.637563685802802205e-01 8.029508215195758636e-01 -1.935167566548524065e-01
-5.647758583572762975e-02 1.814195289943188460e-01 -6.931958337327482900e-01 -5.304943866318860834e-01 3.494071119178054352e-01 -7.723278940277354954e-01
-5.561589274589913423e-02 7.421595287824786502e-02 -7.558094196865849934e-01 5.428638624572493798e-01 -3.691198387267984327e-01 7.543536117075988479e-01
3.311280478964309659e-02 -8.233894647106219933e-02 -8.861536920923037686e-01 -5.428638624572493798e-01 3.691198387267984327e-01 -7.543536117075988479e-01
6.104355814072261882e-02 1.678386150823209522e-01 -7.795448682039555210e-01 -5.610027115122575569e-01 4.780094273912729452e-01 -6.758571927566962012e-01
2.349978200983459178e-02 1.190188104032586236e-01 -7.908214045498787037e-01 5.428638624572493798e-01 -3.691198387267984327e-01 7.543536117075988479e-01
5.761538037876383356e-02 1.903111900941776291e-01 -7.803214134708479355e-01 5.428638624572493798e-01 -3.691198387267984327e-01 7.543536117075988479e-01
-2.319654536762998098e-02 5.232349416689134614e-02 -7.829038373642315252e-01 1.006302597455017017e-01 9.787573473439971083e-01 1.786270020005232273e-01
-1.124786901883350204e-01 8.263794462236399851e-02 -7.103215044286880220e-01 5.503766006297600155e-01 -3.696738679022728569e-01 7.486166100677987822e-01
3.658080140644967559e-02 1.285199441132216791e-01 -7.854720641800698733e-01 -5.428638624572493798e-01 3.691198387267984327e-01 -7.543536117075988479e-01
1.065150990050602597e-01 -1.098993706858855841e-02 -9.043119500431259228e-01 -5.475553085321760438e-01 3.680898607766842079e-01 -7.514606034195236983e-01
7.368499662670360134e-03 1.163625730639253342e-01 -7.663725154858650468e-01 -6.073457294230666381e-01 3.491729721906330353e-01 -7.135890977608350116e-01
-9.591082490113513048e-03 -2.299709376189558452e-01 -9.390923905605711441e-01 9.483344106322303402e-01 1.394483086417125095e-01 -2.849842361040094696e-01
-7.368723563868015414e-02 1.110265699912901805e-01 -7.247099900078156631e-01 5.472509873530612134e-01 -3.691059410070350877e-01 7.511838397851825500e-01
-9.032805694764750593e-02 5.684080360281314886e-02 -7.437002025404598760e-01 5.590516723678069511e-01 -2.954853660888214217e-01 7.746932464208741154e-01
7.917518674505184817e-02 1.818349501811204749e-01 -7.859430365216077963e-01 -7.044068620998396035e-01 2.139773903868729676e-01 -6.767751835209985245e-01
-6.439099318110851240e-03 -1.740923881274072382e-01 -9.126775628164589538e-01 5.433069765042752852e-01 -3.644616713337452962e-01 7.562970444279123461e-01
4.646267764022940505e-02 -1.135051338040703878e-01 -9.110110286120099987e-01 -5.428638624572493798e-01 3.691198387267984327e-01 -7.543536117075988479e-01
1.600899230770116977e-02 3.924337894980103186e-02 -8.143524980402702118e-01 -5.428638624572493798e-01 3.691198387267984327e-01 -7.543536117075988479e-01
-9.053236586178906031e-02 -1.351788710470129273e-01 -8.356401223698685099e-01 5.543771611666270527e-01 3.627525689908148165e-01 7.490504234478448931e-01
8.224524874000802011e-02 1.216930647301118634e-01 -8.217813336893661225e-01 -5.468267252263251388e-01 3.670521220897925430e-01 -7.524980214243974785e-01
-4.992071261924620196e-02 -1.045097605639387639e-01 -8.473618599893782966e-01 5.428638624572493798e-01 -3.691198387267984327e-01 7.543536117075988479e-01
-7.054193129965651010e-02 -1.378157211850266906e-01 -8.463085333684338130e-01 2.989000893651894697e-01 8.605013596880337623e-01 4.125483566232293065e-01
5.499043618228176972e-02 2.286582944841029363e-01 -7.509434250345758954e-01 -5.799691190845053246e-01 3.047416034335320156e-01 -7.554921416170407023e-01
-1.184071866362036533e-02 9.403844173233266712e-02 -7.776123062079740578e-01 5.428638624572493798e-01 -3.691198387267984327e-01 7.543536117075988479e-01
-3.999661698189109493e-02 -2.029312114399666467e-01 -9.023304512808175692e-01 5.492901108534560262e-01 -3.553092640485623344e-01 7.563304178729473026e-01
-3.502421826355391066e-02 -2.545378006114116382e-02 -8.193983664988024884e-01 5.428638624572493798e-01 -3.691198387267984327e-01 7.543536117075988479e-01
-9.850760140928031816e-02 4.746869727560260044e-02 -7.281611594499197704e-01 -5.382870243655415443e-01 3.693914112693357787e-01 -7.574939370583364528e-01
-8.540264947031621368e-02 -1.393364666838565469e-01 -8.386980085892276060e-01 5.486932339752983445e-01 -3.658804684618534586e-01 7.517095301962474219e-01
-1.381233746378149052e-01 -4.955249264888391542e-02 -7.554551190334857225e-01 9.989896387306491654e-01 3.852271362890603151e-02 -2.314524235069173944e-02
-2.792835623654463598e-02 1.881421517770304197e-01 -7.197925780189974310e-01 5.439413861603147327e-01 -3.733485072749697653e-01 7.514909583870901244e-01
5.543161194612897247e-02 7.087036279911858305e-02 -8.272469393689281247e-01 -5.428638624572493798e-01 3.691198387267984327e-01 -7.543536117075988479e-01
1.096983867965198138e-02 1.663371850804134383e-02 -8.217894609272011763e-01 -5.428638624572493798e-01 3.691198387267984327e-01 -7.543536117075988479e-01
1.141766080015779172e-01 8.077131262946581070e-02 -8.649927860065871332e-01 -5.473798987221252244e-01 3.674690506768542586e-01 -7.518921087959411498e-01
-2.855833859319113419e-02 -1.095815087689293865e-01 -8.652168069870345146e-01 5.428638624572493798e-01 -3.691198387267984327e-01 7.543536117075988479e-01
4.556172122403756228e-03 -2.567865934949913331e-01 -9.621887924208818443e-01 -6.786782347876558763e-01 -3.228008045858922204e-01 6.596934850248348248e-01
-1.326059070847326535e-02 -1.870126834887366474e-01 -9.041056531931406237e-01 -5.410589826980185535e-01 3.741778488225493415e-01 -7.531574302178229985e-01
-1.109508926652959665e-01 -1.431415504476252773e-03 -7.432005651780315691e-01 -5.383319861407331874e-01 3.700396450598069098e-01 -7.571455169132189633e-01
-6.500206663674480689e-02 -9.142973252663325057e-02 -8.301083866438545567e-01 5.428638624572493798e-01 -3.691198387267984327e-01 7.543536117075988479e-01
-6.237863075555925840e-03 -3.052924240266134959e-01 -9.690902878624407801e-01 6.831015170883273369e-01 3.209933553410239115e-01 -6.559996823006368771e-01
4.823030784437714290e-03 -1.390475650229329452e-01 -8.935438338815876458e-01 -5.428638624572493798e-01 3.691198387267984327e-01 -7.543536117075988479e-01
