1.120512468897269381e-01 -6.469574370356462323e-02 -8.951490922143193751e-01 2.193567328055710461e-02 4.772145792536857667e-01 -8.785129888541525212e-01
4.153018162578836492e-02 -1.676336559917040725e-01 -9.531183060293515474e-01 2.570265505049391594e-02 4.814333621058323187e-01 -8.761057535336872482e-01
2.229796745316938930e-02 1.474440549693135094e-01 -7.824592339781802908e-01 2.375282447506185113e-01 -8.194234688226903485e-01 -5.216565073765300209e-01
-2.516076647779660891e-02 -1.212032446806106251e-01 -9.429040462212157081e-01 -1.104224826866267647e-02 -4.423975214049281623e-01 8.967510812973404910e-01
2.241920165165013981e-02 -1.865525220819781171e-01 -9.640675789545318786e-01 2.492339918271510926e-02 4.825566045561977546e-01 -8.755101070646601480e-01
-5.749169925726812375e-02 -1.044433876377773435e-01 -9.306020971831120425e-01 -2.781252822310263315e-02 -4.765326663212903213e-01 8.787167240940398916e-01
9.359272743116623869e-04 -1.062096980399109269e-01 -9.340577760220972747e-01 -1.063671099302156420e-01 -4.740126303151262488e-01 8.740698280039352897e-01
-8.801198977203911200e-02 3.784535313106256182e-02 -8.457348335319738730e-01 3.221771464933290835e-02 4.762958052147319155e-01 -8.786946709737258887e-01
-3.432119871169900509e-03 -6.730404057432749776e-02 -9.128357565732455603e-01 5.091445685312790542e-02 -4.760987875840934080e-01 8.779166603637883481e-01
-4.048032483188066834e-03 -5.871207353910121163e-02 -8.954277142621710484e-01 2.781252822310263315e-02 4.765326663212903213e-01 -8.787167240940398916e-01
-1.788787018438698848e-02 -2.019593214801212455e-01 -9.819199914400846829e-01 -2.287905797864557556e-02 -4.674407391726480565e-01 8.837282976502101040e-01
-4.360747912628273187e-02 -1.265450781955879123e-01 -9.421485057005252184e-01 -2.781252822310263315e-02 -4.765326663212903213e-01 8.787167240940398916e-01
-3.976841886575577939e-02 -1.279858695985519601e-01 -9.325727008311232025e-01 2.653364280775666884e-01 8.978666210588505114e-01 3.513290633058995804e-01
2.696880802826999782e-03 2.464678014095499359e-01 -7.355177455432166944e-01 -1.503942013480015216e-01 -8.670558966039130233e-01 -4.749691109591035465e-01
8.197946681676029912e-02 6.995720331649503410e-02 -8.190234594672987090e-01 3.036134978087772895e-03 5.747882698308443006e-01 -8.182965396170629457e-01
1.278609292664523445e-01 5.778276297540387019e-02 -8.365175848784639490e-01 -3.329518326500452430e-02 -4.771351634780948703e-01 8.781989902886939703e-01
-9.961703084815137776e-02 7.874337167492581613e-02 -8.324986874898490097e-01 -2.323271705054513747e-02 -4.770536911617619946e-01 8.785670245390433397e-01
7.691745174844791255e-03 1.375781805385459799e-01 -7.847635168256090754e-01 2.781252822310263315e-02 4.765326663212903213e-01 -8.787167240940398916e-01
-3.201213863766132466e-03 4.428059592858004517e-02 -8.359745436347381098e-01 1.064856224364470888e-01 4.740065832074868424e-01 -8.740586772581613317e-01
1.578854286509054627e-01 6.859340125418143808e-02 -8.247219122963016513e-01 -9.847271342235738301e-01 -1.380797683496009787e-01 -1.060492748506477040e-01
-7.512810665063567039e-02 -6.037566304436376569e-02 -9.072621553583168907e-01 -2.781252822310263315e-02 -4.765326663212903213e-01 8.787167240940398916e-01
-1.511338534149804791e-01 -5.866848537039628247e-02 -9.079639590831584117e-01 2.763567827832411061e-02 -4.635534430011235552e-01 8.856378914476848996e-01
-4.899381244165026917e-04 1.764876892899130967e-01 -7.763764203745139314e-01 -2.760063459140726927e-02 -4.794512489177928383e-01 8.771343710523037407e-01
1.254614261448221413e-01 8.887272755461123053e-02 -8.233756206138144185e-01 -1.672961643870548437e-02 -5.749189890795325386e-01 8.180392875220495741e-01
4.904096203084850475e-02 -1.074364340531876738e-01 -9.201708535198606098e-01 2.781252822310263315e-02 4.765326663212903213e-01 -8.787167240940398916e-01
4.605470958725282199e-02 1.041716825881863623e-01 -8.141916770065368292e-01 -2.781252822310263315e-02 -4.765326663212903213e-01 8.787167240940398916e-01
-1.338409204408247963e-03 -6.966750668491340781e-02 -9.142389005694436799e-01 5.091445685312791930e-02 -4.760987875840934636e-01 8.779166603637883481e-01
5.948264982069625256e-03 8.842847000830143800e-02 -8.128442273295903853e-01 -4.949740451724748413e-01 4.142231708569591997e-01 -7.638192582874586689e-01
-1.086094405073855240e-01 1.066735995493299227e-01 -8.092326774539982948e-01 3.419135942913195669e-02 4.752013665938937814e-01 -8.792124954342287468e-01
-8.284675993870673286e-03 2.378374460513190958e-01 -7.428216034957412228e-01 -1.429555043180283022e-02 -5.111556834802636340e-01 8.593692480439805159e-01
7.117298569674757047e-02 -1.391278032550267996e-01 -9.452390135886084011e-01 -2.991763983556728485e-02 -4.718813924200920829e-01 8.811542920024530989e-01
-5.544738953446489566e-02 1.904035877094517881e-01 -7.704393927581234536e-01 -2.611586486454373426e-02 -4.817021719197701057e-01 8.759457626874812552e-01
6.275210069566405924e-02 -1.002421744208132660e-02 -8.755922155231499193e-01 -2.781252822310263315e-02 -4.765326663212903213e-01 8.787167240940398916e-01
-8.150395413892247420e-02 -3.581807980708657385e-02 -8.941462536527530203e-01 -2.781252822310263315e-02 -4.765326663212903213e-01 8.787167240940398916e-01
5.258701090939270351e-02 -1.358213830353016127e-01 -9.354709412142316882e-01 2.184003355867735613e-02 4.772840355358895503e-01 -8.784776390761073195e-01
-6.345474837169731708e-02 1.220789795320409155e-01 -7.992640823569575614e-01 2.781252822310263315e-02 4.765326663212903213e-01 -8.787167240940398916e-01
-8.689250242847113004e-02 -4.746689379033264961e-02 -9.006244437966404170e-01 -2.324254050608475647e-02 -4.763960292806445618e-01 8.789235504846016900e-01
5.311506923459017281e-04 -2.582582619997288997e-01 -1.016563720180460706e+00 -1.064856224364471027e-01 -4.740065832074868424e-01 8.740586772581613317e-01
-4.714175111565017950e-02 6.258447577103280757e-02 -8.348386032917954891e-01 2.359168530974490585e-01 9.206261207423979132e-01 3.111121730684939246e-01
-3.862103210460093861e-02 -9.967001078773542189e-02 -9.274161888195658898e-01 -2.781252822310263315e-02 -4.765326663212903213e-01 8.787167240940398916e-01
2.863060032596141235e-03 1.032015900750759239e-02 -8.664549200781945792e-01 -2.781252822310263315e-02 -4.765326663212903213e-01 8.787167240940398916e-01
4.728402647865231206e-02 6.750019006417798395e-02 -8.253574184004150993e-01 2.781252822310263315e-02 4.765326663212903213e-01 -8.787167240940398916e-01
1.514985328645182261e-01 -6.435183732088044228e-02 -9.014235445655964796e-01 -8.316920740990768612e-02 -4.620837449147991438e-01 8.829277975147927782e-01
-8.667971687052111740e-02 -1.054711895136981048e-01 -9.228456867880664438e-01 -2.475881414094886768e-01 -7.558723306231645012e-01 -6.060999356803300486e-01
-6.505873113863451518e-02 -1.915343627768525681e-01 -9.718152375563677836e-01 6.111339189351246981e-01 7.806087486719829327e-01 1.310164669946383420e-01
-2.963643750465556198e-02 1.110751073430372021e-01 -8.128436370660588883e-01 -2.781252822310263315e-02 -4.765326663212903213e-01 8.787167240940398916e-01
-2.777191318178361124e-02 -1.535199599088028256e-02 -8.813467005233949214e-01 -2.781252822310263315e-02 -4.765326663212903213e-01 8.787167240940398916e-01
7.638725040293158075e-02 1.172605742875924839e-01 -8.061297004382020903e-01 -3.306283852387115196e-02 -4.771307268762354781e-01 8.782101788178610091e-01
1.330111075321073998e-02 1.939775024695649108e-01 -7.663689641363711225e-01 -2.938909817206561415e-02 -4.803019014151694299e-01 8.766107256961925831e-01
9.496309307947151807e-03 -1.149566207388981742e-01 -9.302590009970774787e-01 -9.751995807080109380e-01 -1.055105087926476587e-01 1.945592720001712017e-01
-1.096333937982011814e-01 1.072092394974458185e-02 -8.612319605031871772e-01 3.224578469530815783e-02 4.763959286146547401e-01 -8.786393620643027091e-01
-6.524314431338237852e-02 2.776673360607927535e-02 -8.591492016309800750e-01 -2.781252822310263315e-02 -4.765326663212903213e-01 8.787167240940398916e-01
1.245345664980858219e-01 9.754985801335762374e-02 -8.068939636695572348e-01 2.207478735225270119e-02 4.751333230612775349e-01 -8.796368734199929706e-01
1.169308758650965396e-01 8.809575298593508297e-02 -8.225811247024809036e-01 1.277250135219151483e-01 -9.358300080893778850e-01 3.284943178812405606e-01
-7.384489264601746053e-03 -8.282588313451474948e-02 -9.193506180242912995e-01 4.950773714203375309e-01 -4.141951074649856124e-01 7.637675099528640210e-01
-4.435758370633526015e-02 -1.956788640811584490e-01 -9.715021776691233901e-01 5.090189416454971028e-02 5.075082979881182510e-01 -8.601420374819873649e-01
1.525794900998766190e-01 -7.288821796073437220e-02 -9.017848331204972867e-01 -9.650212995701016316e-01 2.420517017190090270e-01 1.007217209491787779e-01
-1.159186460285496767e-02 5.493069499623978030e-02 -8.390379278512959393e-01 2.607108692918880810e-01 7.480055899094231187e-01 6.103421008723912689e-01
2.484794272484418080e-03 1.006876732792469642e-01 -8.087776270349062990e-01 2.781252822310263315e-02 4.765326663212903213e-01 -8.787167240940398916e-01
-4.590796826492997591e-03 -1.179609391191657891e-01 -9.362583534843702537e-01 -2.781252822310263315e-02 -4.765326663212903213e-01 8.787167240940398916e-01
-5.872611500577585436e-02 -7.758410550029612440e-02 -9.073927481968026010e-01 2.781252822310263315e-02 4.765326663212903213e-01 -8.787167240940398916e-01
-1.160478083131235849e-01 -6.239401313887879552e-03 -8.754822418167818032e-01 -2.816361033989412954e-01 -9.085849369265611708e-01 -3.084712590378847485e-01
-8.063667195513850305e-02 -6.799411952432140964e-03 -8.696993370446365335e-01 2.781252822310263315e-02 4.765326663212903213e-01 -8.787167240940398916e-01
-8.647590558462966981e-02 -1.717937424986044209e-02 -8.882917091608949489e-01 -5.714107285299116316e-03 -4.097169084791040805e-01 9.121948278105165286e-01
-4.167028994773267804e-03 -2.102255505323133433e-02 -8.877197163845541583e-01 2.369149684719418919e-02 -4.838681612751160599e-01 8.748201617940556396e-01
1.291800853905455092e-03 4.312822359352139201e-02 -8.400301768508470213e-01 2.781252822310263315e-02 4.765326663212903213e-01 -8.787167240940398916e-01
9.518606971848010689e-02 1.459448043751564450e-01 -7.898137757658788560e-01 -3.514517910949720852e-02 -4.781231073942404652e-01 8.775893746855855104e-01
7.286429976733718727e-02 3.782470672446546639e-02 -8.493234299147198740e-01 -2.781252822310263315e-02 -4.765326663212903213e-01 8.787167240940398916e-01
3.283773058216548496e-02 8.635327385277523360e-02 -8.242730276659595567e-01 -2.781252822310263315e-02 -4.765326663212903213e-01 8.787167240940398916e-01
1.136865449706530029e-01 -5.938270320762938786e-02 -8.922221784613436624e-01 2.193567328055710461e-02 4.772145792536857667e-01 -8.785129888541525212e-01
-6.681193517826029826e-02 -1.857265191655532721e-01 -9.741706049864476968e-01 2.058617839868191746e-02 -4.222677951800125618e-01 9.062373411048281202e-01
9.638682663834717557e-02 -1.478168176214179896e-01 -9.489986787464975704e-01 -3.669215959766382318e-02 -4.724627869350379039e-01 8.805865093138985911e-01
-1.201447679689308934e-01 3.596008129046237168e-03 -8.738193781714745922e-01 -2.241603210209810668e-02 -4.764848576826135607e-01 8.788968664775050899e-01
5.613654608729091999e-02 1.212073892368699807e-01 -8.046340211159864753e-01 -2.781252822310263315e-02 -4.765326663212903213e-01 8.787167240940398916e-01
-1.109651843592230624e-01 -1.721210233067354753e-02 -8.764295818908250935e-01 3.224793078752948017e-02 4.765431126034096465e-01 -8.785594645726472196e-01
-3.007298312873098525e-02 1.581482295930924098e-01 -7.786631080146948491e-01 2.819908360793014004e-02 4.730996078696617646e-01 -8.805575351544300267e-01
7.560377536741730298e-02 -7.524546645807769774e-02 -9.018727761369068618e-01 2.781252822310263315e-02 4.765326663212903213e-01 -8.787167240940398916e-01
7.439225164149884661e-02 1.606055731884600546e-01 -7.798207973129328563e-01 2.301629075561000271e-01 -8.943629241088673076e-01 -3.835883157302347746e-01
1.504540912691651744e-01 5.635792284660132850e-04 -8.590353473773277848e-01 2.445676118292268702e-03 4.773493892040437947e-01 -8.787101793508772518e-01
1.905845110246721583e-02 -1.970517649272734706e-01 -9.781413164824609430e-01 -3.091128367105573649e-02 -4.706934261500020922e-01 8.817551764072496523e-01
-9.700010579441020742e-02 5.221061604098827316e-03 -8.637505895001093004e-01 3.221640723138318591e-02 4.764336664958864764e-01 -8.786199773135073832e-01
-1.633961018115448471e-01 2.726920866627813994e-02 -8.569872024005801281e-01 9.993326850208800183e-01 -3.407735302823492601e-02 1.314985397439512489e-02
3.193189591200807503e-02 9.371925959787923144e-02 -8.203070859929331160e-01 -2.781252822310263315e-02 -4.765326663212903213e-01 8.787167240940398916e-01
-3.195661761040575338e-02 -1.365159612650406473e-01 -9.385045117576866769e-01 2.781252822310263315e-02 4.765326663212903213e-01 -8.787167240940398916e-01
8.001815514412695396e-02 -2.337393331261125931e-02 -8.736028520795026120e-01 2.781252822310263315e-02 4.765326663212903213e-01 -8.787167240940398916e-01
-1.499415627893344038e-01 -4.536187904642898644e-02 -9.009440915749263867e-01 2.608103326474826150e-02 -4.689062497814784902e-01 8.828627915025714090e-01
-7.381728877125404154e-02 -1.183493311273748627e-01 -9.268790890362779145e-01 1.794784202773324622e-01 9.034726071578115247e-01 -3.892617946449664079e-01
6.752284132911418046e-02 6.771938218878045812e-02 -8.245979645303500583e-01 2.781252822310263315e-02 4.765326663212903213e-01 -8.787167240940398916e-01
-1.308162619278207227e-02 1.357364581910693868e-01 -7.871963480492411014e-01 1.837634059511536189e-01 9.242960565416528107e-01 -3.345262478413034146e-01
7.866564171387632753e-02 -1.382343307368389396e-01 -9.360223910157722260e-01 2.571610084411814559e-02 4.811476499175978971e-01 -8.762623015605245369e-01
1.016596503416610647e-01 -1.546416733759209128e-01 -9.521664587139075930e-01 -9.485336803800058225e-02 -4.283524319472061803e-01 8.986195149320772568e-01
-2.759758165770582970e-05 -9.714756031750794441e-02 -9.248267183192944163e-01 -2.781252822310263315e-02 -4.765326663212903213e-01 8.787167240940398916e-01
-3.431660856744287585e-02 2.025152946983210522e-01 -7.631640816717948361e-01 -2.588449738312277940e-02 -4.806141770347949760e-01 8.765500588262999937e-01
2.265934358622039013e-02 1.321377260566829748e-01 -7.997660394424227492e-01 -2.781252822310263315e-02 -4.765326663212903213e-01 8.787167240940398916e-01
-3.220672615090833680e-03 5.022205228835029817e-02 -8.450084731247107239e-01 -2.781252822310263315e-02 -4.765326663212903213e-01 8.787167240940398916e-01
3.877028532167005326e-02 1.522725874990584483e-01 -7.926064337829888951e-01 -2.781252822310263315e-02 -4.765326663212903213e-01 8.787167240940398916e-01
8.058008074520399411e-02 -4.292695256456599898e-03 -8.719197023468344687e-01 -2.781252822310263315e-02 -4.765326663212903213e-01 8.787167240940398916e-01
-1.231294804842808926e-01 -1.233862023331214891e-01 -9.422720698337992973e-01 5.273807162296640511e-02 -4.437442504532131404e-01 8.946003219266170925e-01
-5.579845202507367763e-02 -1.508889963345146079e-01 -9.556730395392353250e-01 -2.152135961824877888e-02 -4.752686751256048892e-01 8.795774653346540850e-01
6.654712499028730965e-02 7.703925495130199697e-02 -8.321450329295014825e-01 -1.225478610262328329e-02 -5.432047158358701555e-01 8.395108438318414912e-01
1.115829831145141865e-01 -1.327530860104365051e-01 -9.402634124721150899e-01 -4.174494300763982590e-02 -4.701252874731417508e-01 8.816119179160321062e-01
9.636826462768462165e-02 1.575929437344450179e-01 -7.848876848524877214e-01 -3.335686943120194092e-01 1.566878833545185257e-01 9.296132708738917838e-01
-8.029977420700536161e-02 1.079141576484997887e-02 -8.688315670430705184e-01 -2.781252822310263315e-02 -4.765326663212903213e-01 8.787167240940398916e-01
9.873745309555755079e-02 4.511892750911800608e-03 -8.665092097547590910e-01 -3.223651463655072963e-02 -4.765054383479720990e-01 8.785803175287361100e-01
-1.271570498448371285e-02 -1.327441535619702795e-01 -9.411843467375802241e-01 2.773744464318987912e-01 7.650894041961814329e-01 5.811210029359890061e-01
-1.467144170676760728e-01 1.109501279588854250e-01 -8.151421038443665834e-01 8.426539420176440975e-01 -4.897865068201107119e-01 2.237040717981654270e-01
4.774114000689014259e-02 -1.016323091262089778e-01 -9.257468782787644512e-01 -2.781252822310263315e-02 -4.765326663212903213e-01 8.787167240940398916e-01
9.812081642805554893e-02 -1.301641039280635181e-01 -9.394394254785138898e-01 -3.591468797122304019e-02 -4.742209632205223180e-01 8.796730149493786621e-01
9.624184046562637984e-02 5.299070996254690198e-03 -8.575893312578114491e-01 2.340810928155574039e-02 4.765504983355678403e-01 -8.788354128936685106e-01
1.689131863015403204e-02 1.156267266138711336e-01 -8.002201151804327894e-01 2.781252822310263315e-02 4.765326663212903213e-01 -8.787167240940398916e-01
-2.515341528543688782e-02 1.155461932140569720e-01 -8.102770503702263483e-01 -2.781252822310263315e-02 -4.765326663212903213e-01 8.787167240940398916e-01
5.624178634673415722e-02 1.272460007975155794e-01 -7.927043176522081680e-01 2.795082223183100595e-02 4.731869009493025469e-01 -8.805185451235877370e-01
-3.536556339353596340e-02 5.855650044056514431e-02 -8.415060860255457742e-01 -2.781252822310263315e-02 -4.765326663212903213e-01 8.787167240940398916e-01
-5.137759978142168032e-02 -4.286385884279615005e-02 -8.970136780687021361e-01 -2.781252822310263315e-02 -4.765326663212903213e-01 8.787167240940398916e-01
4.368686578380297919e-02 2.185563420470447160e-01 -7.445019335973106500e-01 -4.533358637241218479e-03 4.336997347786450407e-01 -9.010460524925456571e-01
1.245794981534010214e-02 2.063351399186821866e-01 -7.514131019697459779e-01 2.622816782558918397e-02 4.727360832593944240e-01 -8.808136458962700921e-01
1.710217791725917235e-03 1.380956285189026966e-01 -7.846722252131905773e-01 2.781252822310263315e-02 4.765326663212903213e-01 -8.787167240940398916e-01
1.075414576015740475e-01 -7.338080491199866495e-02 -9.083985428784415728e-01 -3.270598476402353932e-02 -4.756775923709390952e-01 8.790114599234768455e-01
1.101950417670783389e-01 1.388342329966533173e-01 -7.850627700384210650e-01 2.160781853872241129e-02 4.705347267628342545e-01 -8.821168704249016113e-01
-1.148821541342742204e-02 1.977131231911507733e-02 -8.531012559083116509e-01 2.781252822310263315e-02 4.765326663212903213e-01 -8.787167240940398916e-01
1.241848241786141505e-01 2.632411493560568149e-03 -8.583018258342675066e-01 2.244930869164505835e-02 4.765083420860843355e-01 -8.788832848914800433e-01
-3.749635621450639333e-02 -1.226470360426072520e-01 -9.398411520978705580e-01 -2.781252822310263315e-02 -4.765326663212903213e-01 8.787167240940398916e-01
1.293633054998137299e-01 9.264964665386368758e-02 -8.175025050140369842e-01 -3.692819230407786563e-02 -4.780657834359270941e-01 8.775473863677940578e-01
7.755934523079247023e-02 1.917170746218130606e-01 -7.653406407145771917e-01 -5.714822038126044640e-02 -5.003874195969298944e-01 8.639134859558457169e-01
-8.496286632384249596e-03 1.701006853534565710e-01 -7.801783243540979518e-01 9.613842938195753529e-01 -1.311970441536256526e-01 2.419247304481052518e-01
5.101890468970546842e-03 -5.855816393381336332e-02 -9.037371322519123229e-01 -2.781252822310263315e-02 -4.765326663212903213e-01 8.787167240940398916e-01
2.178652854512227142e-03 1.151505856497042901e-01 -8.009440039353408203e-01 2.781252822310263315e-02 4.765326663212903213e-01 -8.787167240940398916e-01
-8.179109744370001434e-02 2.006504268625718679e-01 -7.648300344639155091e-01 1.508857751859073726e-01 -6.227447942662176494e-01 7.677384997906997466e-01
-1.067525440944212256e-01 1.105653452642687690e-01 -8.070570342451190982e-01 3.419135942913195669e-02 4.752013665938937814e-01 -8.792124954342287468e-01
4.338630353032400799e-02 1.115847545061768170e-01 -8.102559879350582639e-01 -2.781252822310263315e-02 -4.765326663212903213e-01 8.787167240940398916e-01
1.344459772347362247e-01 -8.041816313756700030e-02 -9.111387215474098245e-01 -3.781710293657009753e-02 -4.744332597267414409e-01 8.794787938265159477e-01
-3.106024154934155374e-02 1.133120126313304776e-01 -8.029931259584142111e-01 2.781252822310263315e-02 4.765326663212903213e-01 -8.787167240940398916e-01
-6.664415769135938195e-02 3.808439706466348190e-02 -8.535982227770861908e-01 -2.781252822310263315e-02 -4.765326663212903213e-01 8.787167240940398916e-01
4.294737410477315193e-02 -3.287958663359993178e-02 -8.926094625463982801e-01 -5.015691939658759729e-02 -4.092742232995408846e-01 9.110317741874879305e-01
-3.954769897260836282e-03 3.986637989343552735e-02 -8.419651525102320733e-01 2.781252822310263315e-02 4.765326663212903213e-01 -8.787167240940398916e-01
-5.709968827765227878e-02 1.346632270701688663e-03 -8.732192095117856656e-01 -2.781252822310263315e-02 -4.765326663212903213e-01 8.787167240940398916e-01
4.197998180631461879e-02 -2.077210907988403243e-01 -9.778840911439949934e-01 -5.716922317738136750e-01 7.286853755579593139e-01 3.770750794966858388e-01
9.788488301744127651e-03 -1.306170703109636178e-01 -9.301997188731423449e-01 3.137760588439053588e-02 4.436496031676186447e-01 -8.956508669443570270e-01
8.673886733573020480e-02 1.042774298345452572e-01 -8.042216011456370106e-01 2.258530387912320234e-02 4.759239868643994620e-01 -8.791963732726508773e-01
1.125711424173476971e-01 7.386087581758836451e-02 -8.219016230247679911e-01 -2.333452839242634025e-01 9.270813461594831217e-01 2.933771567000841851e-01
1.074939453160761588e-01 1.388343573814206644e-01 -7.931990112501712265e-01 -3.413367446114069087e-02 -4.784549102231061557e-01 8.774484549825023461e-01
9.698719258115448549e-02 2.452559144739894711e-02 -8.557173425084553253e-01 -3.223782802021531863e-02 -4.766438707768558269e-01 8.785051752240251588e-01
-6.252502249029953663e-02 6.595727715812821357e-02 -8.331540535975611173e-01 2.359168530974490585e-01 9.206261207423979132e-01 3.111121730684939246e-01
8.156096787475519694e-02 -1.134932267838448389e-01 -9.310760540505177429e-01 -3.344225762135002999e-02 -4.755725352338747158e-01 8.790406015289693453e-01
-7.577249605916586313e-03 -4.857228792530881439e-02 -9.008431032452656195e-01 4.830932301204961532e-01 -4.097411063411951493e-01 7.737784933597202652e-01
5.957127300475309473e-02 -1.103741463722431870e-01 -9.336091551424136048e-01 1.432102743884116069e-01 -9.196419061274990758e-01 3.657178992116411620e-01
3.602559147090912336e-03 -1.999943363562528276e-01 -9.683018420879706545e-01 -5.103349133702927282e-02 4.760958912613191263e-01 -8.779113196024093124e-01
9.968442264627586091e-02 1.662095731492417849e-01 -7.785464284109481214e-01 -5.847557487868013104e-02 -4.883049012279856993e-01 8.707117379358885190e-01
1.237070877851177003e-03 4.779706357842870151e-02 -8.505332170260955227e-01 -8.033141107602013997e-02 -4.751764315635013114e-01 8.762158542739983957e-01
3.127627037270055976e-02 1.453639034153089704e-01 -7.923206774708102529e-01 -2.781252822310263315e-02 -4.765326663212903213e-01 8.787167240940398916e-01
-5.844988658241419971e-02 8.562260866360985045e-02 -8.188761521879168725e-01 2.781252822310263315e-02 4.765326663212903213e-01 -8.787167240940398916e-01
1.219717241118427609e-01 5.389229810980895180e-02 -8.388525302184192123e-01 -3.312894628102213551e-02 -4.769725691295936265e-01 8.782935962514039074e-01
-1.362212044228849339e-01 -4.037917591273861018e-02 -8.980549022770004663e-01 -1.859489758981078614e-02 -4.754434660265297041e-01 8.795497373067112656e-01
6.116764127553958076e-03 -1.111756932267805170e-01 -9.354065400311262213e-01 -5.426225229548538032e-01 -4.004312238648219946e-01 7.383871833504628279e-01
3.314841798132398508e-03 9.307701666388287776e-02 -8.128786537598238215e-01 2.781252822310263315e-02 4.765326663212903213e-01 -8.787167240940398916e-01
-1.400819876033907174e-01 1.455698207607822054e-03 -8.771323973999360923e-01 -1.929812243065301969e-01 -9.248545036737244596e-01 3.277230448100671434e-01
1.240269526354288304e-01 5.046079702804268964e-03 -8.569972283417033321e-01 2.244930869164505835e-02 4.765083420860843355e-01 -8.788832848914800433e-01
-3.372641368276176749e-02 -7.825831700108744349e-02 -9.156495944665732356e-01 -2.781252822310263315e-02 -4.765326663212903213e-01 8.787167240940398916e-01
8.374950552285725935e-02 1.768424290343471872e-01 -7.652986092690483577e-01 1.643180621999998023e-02 4.676445423435469650e-01 -8.837638699113258278e-01
7.256606455063968619e-02 1.022018536462269006e-01 -8.144208066273079805e-01 -2.781252822310263315e-02 -4.765326663212903213e-01 8.787167240940398916e-01
-4.914792145591314471e-02 4.437078634217597739e-02 -8.409528114592360604e-01 2.781252822310263315e-02 4.765326663212903213e-01 -8.787167240940398916e-01
6.501113106133878800e-03 1.722520716758644266e-01 -7.814197350682308141e-01 -5.426225229548538032e-01 -4.004312238648219946e-01 7.383871833504628279e-01
-4.463464215145025726e-02 -1.699781429416917511e-01 -9.571491219318508659e-01 3.054282598990313083e-02 4.814458554876018814e-01 -8.759435050357767816e-01
6.104433943859723793e-02 -1.174706517466438532e-01 -9.339150305769627902e-01 -2.781252822310263315e-02 -4.765326663212903213e-01 8.787167240940398916e-01
-9.646815724099626344e-02 9.184687337616448399e-02 -8.252981422686533897e-01 -2.302807843192274453e-02 -4.772650845321778634e-01 8.784575952715228953e-01
-3.790583640382745568e-04 -2.189944658200534688e-01 -9.829369365672204761e-01 3.234967791140699878e-02 5.031298030781812258e-01 -8.636051757565715858e-01
-1.518268238541284620e-01 4.993030878408474815e-02 -8.419604317068909438e-01 7.664470691443772687e-02 4.716798171846452448e-01 -8.784325466207748567e-01
3.799794435418966509e-03 -3.643335794998970451e-02 -8.917799475113314944e-01 -2.781252822310263315e-02 -4.765326663212903213e-01 8.787167240940398916e-01
5.061930646412110546e-03 1.851328862358553873e-01 -7.598265507290563603e-01 -4.949740451724748413e-01 4.142231708569591442e-01 -7.638192582874585579e-01
4.262061136932129152e-02 -1.193752424048574179e-01 -9.244015108996428420e-01 1.381034848175145546e-01 -6.629337912397304314e-03 -9.903956175994024225e-01
9.102322392753195782e-03 -2.168393303652186577e-01 -9.837967437847774388e-01 -9.630289006403823793e-01 1.284266760986897959e-01 -2.368162270572239936e-01
1.126877463627656700e-01 1.018945078762497486e-01 -8.048445135543103035e-01 2.207478735225270119e-02 4.751333230612775349e-01 -8.796368734199929706e-01
6.374252049009218601e-02 1.123437466827322262e-01 -8.005175908046944233e-01 2.781252822310263315e-02 4.765326663212903213e-01 -8.787167240940398916e-01
-1.488676079641192661e-02 -2.188837051447531101e-01 -9.901442055891591654e-01 6.804813684346820712e-02 -3.154914310833979996e-01 9.464853976607785491e-01
-3.009633468487980801e-02 4.427996536869082539e-02 -8.490815475695595582e-01 -2.781252822310263315e-02 -4.765326663212903213e-01 8.787167240940398916e-01
2.553967247493713760e-02 -2.024556805032133866e-01 -9.728083596238611408e-01 8.498173693148461730e-03 5.051237420091648778e-01 -8.630050905426571717e-01
7.015728785479578844e-02 6.903323744944843410e-02 -8.198980931091874869e-01 5.806899189753846752e-02 3.723767897593537324e-01 -9.262632015947313002e-01
-2.246016722408929883e-02 1.517480911067521088e-01 -7.905593273642387286e-01 -2.781252822310263315e-02 -4.765326663212903213e-01 8.787167240940398916e-01
1.497268882403689043e-02 4.533547030642339978e-03 -8.692097444435380460e-01 -2.781252822310263315e-02 -4.765326663212903213e-01 8.787167240940398916e-01
-6.943500705650212934e-02 -5.445400776360106825e-03 -8.686105024397325902e-01 2.781252822310263315e-02 4.765326663212903213e-01 -8.787167240940398916e-01
9.182951123024306328e-02 9.064554884528372436e-02 -8.200148749990484598e-01 -3.259632457161480701e-02 -4.771381728625916918e-01 8.782235726862320790e-01
6.168095324972654170e-02 -9.014597006229160825e-02 -9.103940724657773043e-01 2.781252822310263315e-02 4.765326663212903213e-01 -8.787167240940398916e-01
9.478036111293527965e-02 4.492612362463693776e-02 -8.361483074172041396e-01 2.337632699962125318e-02 4.762880385986246745e-01 -8.789785273963648393e-01
-5.826556935698940648e-02 -1.293952301517157025e-02 -8.723210768052156450e-01 2.781252822310263315e-02 4.765326663212903213e-01 -8.787167240940398916e-01
5.199332344516981869e-02 1.318930929666451701e-01 -7.989548830959238845e-01 -3.360037232234414084e-02 -4.769444410921118149e-01 8.782909626605143183e-01
-3.769570836040057882e-02 1.397460094246052997e-01 -7.975503436210201746e-01 -2.781252822310263315e-02 -4.765326663212903213e-01 8.787167240940398916e-01
-5.351976012347286343e-02 2.988754815531010842e-02 -8.489455215145987887e-01 2.781252822310263315e-02 4.765326663212903213e-01 -8.787167240940398916e-01
1.323196054811655031e-01 -3.450618991753783699e-02 -8.782439231534614477e-01 2.228835039507520016e-02 4.769669878622700421e-01 -8.786385615975772501e-01
1.325974320046025834e-01 1.199123716975427911e-01 -8.024773779816634089e-01 -8.641205866270272595e-02 -4.921926155866703789e-01 8.661866919317253721e-01
8.512711976513249665e-03 3.374667145877661978e-02 -8.545465655922740433e-01 -9.751995807080108269e-01 -1.055105087926476587e-01 1.945592720001712017e-01
-3.565793180983347927e-03 4.870896146629937612e-02 -8.499930683724971070e-01 5.178189031341712267e-02 -4.687729722509609287e-01 8.817996009993251949e-01
4.241309760834543335e-02 1.405277207304032605e-01 -7.853216212286735498e-01 -2.258204493512040445e-01 9.286532406602773237e-01 2.942928528965415014e-01
-1.440309902302132905e-01 -1.684927661638985219e-02 -8.776260752386398911e-01 5.334732498571155557e-02 4.765703961079839623e-01 -8.775162223402758199e-01
1.255722817677186742e-01 8.786148737048381230e-02 -8.202561412681638187e-01 -3.322508083924401168e-02 -4.774479165369434619e-01 8.780316514783266246e-01
8.379072349337031086e-03 -2.081633266666425841e-02 -8.745513046144532954e-01 -9.630289006403823793e-01 1.284266760986898237e-01 -2.368162270572240213e-01
8.494519260402386140e-02 5.736909746285878686e-02 -8.296674557114704918e-01 2.337632699962125318e-02 4.762880385986246745e-01 -8.789785273963648393e-01
1.596167441663980113e-01 -4.317603755380326758e-02 -8.873026876822336373e-01 -9.845891422165641282e-01 1.648940968610855540e-01 5.825940138396284995e-02
3.144698269730527435e-02 9.760333439515453402e-02 -8.095335891454393806e-01 2.781252822310263315e-02 4.765326663212903213e-01 -8.787167240940398916e-01
-1.329860427055002126e-01 3.491872431065368154e-02 -8.489914577013508712e-01 3.319685061245039592e-02 4.761018735515827327e-01 -8.787633214410394134e-01
7.079357398458814218e-03 -2.092824757207303321e-01 -9.879029742438207862e-01 -5.426225229548538032e-01 -4.004312238648220501e-01 7.383871833504629389e-01
-1.431591990712221263e-01 -9.424881493819184386e-02 -9.228376804518719778e-01 9.341255924244311615e-01 3.005514986668594846e-01 1.925569376231619778e-01
-5.107229468160596336e-02 1.794638341200555376e-01 -7.763143867728764524e-01 -2.665666082564874598e-02 -4.800567108065339483e-01 8.768323538985307586e-01
-1.506281838070396700e-02 -1.260762300287275317e-01 -9.290825472210454405e-01 -9.633259853095202385e-02 9.155024305733996601e-03 -9.953070963226555712e-01
-9.147485972865485038e-02 1.662418721242882591e-01 -7.765295941510811373e-01 3.862713282629547801e-02 4.690043469061629389e-01 -8.823507619947654756e-01
7.275657479374887660e-02 1.587592467500642535e-01 -7.836006991172478342e-01 -2.781252822310263315e-02 -4.765326663212903213e-01 8.787167240940398916e-01
5.806060496952009792e-02 6.865319417546425496e-02 -8.243910455141679750e-01 2.781252822310263315e-02 4.765326663212903213e-01 -8.787167240940398916e-01
-1.055140369786829596e-01 -7.943060192282498655e-02 -9.100039185182483559e-01 3.268374388501882333e-02 4.772429020925906817e-01 -8.781634160495987995e-01
1.477228340083666658e-01 -3.321629135733993737e-02 -8.850816692474736680e-01 -3.648661121963030218e-02 -4.757486655078377868e-01 8.788241772215982239e-01
3.000689250160388719e-02 6.008775305292634455e-02 -8.386065564104654424e-01 -2.781252822310263315e-02 -4.765326663212903213e-01 8.787167240940398916e-01
-9.346767835739229480e-02 7.905131339160735571e-02 -8.356376351123434576e-01 1.387585549769020377e-01 2.137289856504769603e-01 9.669880992615886850e-01
1.283431947172287146e-01 7.704260931832759840e-02 -8.194758628760480113e-01 -2.303301898343454723e-01 9.308916194458305426e-01 2.835291810315005989e-01
2.656291506928863764e-03 2.208501985321208727e-01 -7.440248818634287442e-01 2.568165423565941727e-02 4.588944745502431810e-01 -8.881195380482159729e-01
3.268193837220325498e-02 1.528014208850936584e-01 -7.882427817015102978e-01 -2.781252822310263315e-02 -4.765326663212903213e-01 8.787167240940398916e-01
3.148400849458192485e-02 1.637318591844283688e-01 -7.737185299872186839e-01 2.688689357965220669e-02 4.733561237239157782e-01 -8.804607175148165821e-01
-1.805620563142141394e-02 -2.138356771336230588e-01 -9.879785223477144385e-01 6.895844232575591530e-03 -4.195911006733656912e-01 9.076870361352714633e-01
1.176647159446495353e-02 6.081849228257742851e-02 -8.428258536854849048e-01 -7.359909245862318594e-02 -4.066452235006993710e-01 9.106167337542909745e-01
1.150477370024444029e-01 8.996705731019292995e-02 -8.112333886447234965e-01 2.197455607032308342e-02 4.757786750750930826e-01 -8.792904930847946776e-01
7.884015935975284550e-02 -8.012484233495717478e-02 -9.044164513785156734e-01 2.781252822310263315e-02 4.765326663212903213e-01 -8.787167240940398916e-01
3.312765689289901591e-04 -2.666113250683022073e-01 -1.004238421259979530e+00 -5.103349133702928669e-02 4.760958912613191818e-01 -8.779113196024094234e-01
-6.213795968445229995e-02 -1.134628894946841104e-01 -9.269579893675055082e-01 2.781252822310263315e-02 4.765326663212903213e-01 -8.787167240940398916e-01
3.799057693757144222e-02 6.276506875083956438e-02 -8.282194491817731485e-01 2.781252822310263315e-02 4.765326663212903213e-01 -8.787167240940398916e-01
1.357017712310557012e-01 3.822688679352571894e-02 -8.387145635433820301e-01 2.242739430085726599e-02 4.762447178786499702e-01 -8.790267235286758352e-01
-5.434286138329357495e-03 1.111561616678371778e-01 -8.154172725739248229e-01 4.950773714203375309e-01 -4.141951074649856124e-01 7.637675099528640210e-01
9.737091522296223434e-02 -1.278795477359205013e-01 -9.299087176386122700e-01 1.156695320313363973e-02 4.810629558819817797e-01 -8.766097410317131855e-01
1.360352347952072938e-01 -2.716096537088943594e-02 -8.741623302983108079e-01 2.228835039507520016e-02 4.769669878622700421e-01 -8.786385615975772501e-01
2.099859194843812886e-03 -1.509872377929777909e-01 -9.581992286232432487e-01 -1.063671099302156281e-01 -4.740126303151262488e-01 8.740698280039352897e-01
-7.364916186226679040e-02 6.797847769107188964e-02 -8.376082243092567436e-01 -2.781252822310263315e-02 -4.765326663212903213e-01 8.787167240940398916e-01
6.854889569450970180e-03 1.758278650465391058e-01 -7.792205820636702862e-01 -5.426225229548538032e-01 -4.004312238648219946e-01 7.383871833504628279e-01
1.214571304972452137e-01 -1.084831964392824755e-01 -9.237518875617515279e-01 -2.624937867724231322e-01 7.635544607104919335e-01 5.899844043997972687e-01
1.283750716325597063e-01 -5.045076679600590808e-02 -8.951915457929208175e-01 -3.350515881932576018e-02 -4.757137166247396576e-01 8.789618104033695145e-01
8.204025640081505366e-02 1.657494454228940553e-02 -8.605568558958859304e-01 -2.781252822310263315e-02 -4.765326663212903213e-01 8.787167240940398916e-01
-7.385053964998260223e-02 -1.442061502116275540e-01 -9.525407213735329615e-01 -2.781252822310263315e-02 -4.765326663212903213e-01 8.787167240940398916e-01
2.168572814890621162e-02 1.999228545594179396e-01 -7.545783462823630883e-01 2.673630027747374641e-02 4.725022516554374663e-01 -8.809238289591300175e-01
-1.444034907667016976e-01 -4.278156862217560863e-02 -8.917924342787970637e-01 5.471834612723131680e-02 4.798123314155777752e-01 -8.756631939385419727e-01
-7.167830744478021800e-03 1.050656581699216802e-01 -8.048577624715860246e-01 5.425226298306420336e-01 4.004619827256857278e-01 -7.384439020758833960e-01
-1.119218582911860327e-01 6.622864362029279306e-02 -8.312373061723782319e-01 3.315321963593073629e-02 4.759353280826243426e-01 -8.788551800556544391e-01
3.139403555945999985e-02 2.112274448831903961e-01 -7.483374213311596579e-01 1.748072590908538587e-02 4.547486876451304894e-01 -8.904482328056599894e-01
-9.600043812987270331e-02 -1.229885379268660789e-01 -9.333357607670534906e-01 3.368167021859786586e-02 4.780300813150892281e-01 -8.776974344551629059e-01
-1.285796101237713651e-01 6.228056636623403863e-02 -8.421882579298886062e-01 -2.232901959920616242e-02 -4.772806168997002496e-01 8.784672034945755215e-01
3.576402215352489367e-02 2.266566231557127775e-01 -7.406302710106275056e-01 -7.729848044575030053e-02 3.128653397647759293e-01 -9.466468317670796440e-01
-1.318073121257774816e-01 -1.030623809800736285e-01 -9.242292206143587485e-01 5.896410174564860329e-02 4.854710281302912489e-01 -8.722620681603934223e-01
2.526873175759660611e-02 4.388406495266210933e-02 -8.475438700050970109e-01 -2.781252822310263315e-02 -4.765326663212903213e-01 8.787167240940398916e-01
4.843526932236047466e-02 4.847797200318279542e-02 -8.356368282149733151e-01 2.781252822310263315e-02 4.765326663212903213e-01 -8.787167240940398916e-01
2.750876047052517107e-02 -1.874116590061812582e-01 -9.727010724352588289e-01 -3.142487411439671280e-02 -4.704477834591294649e-01 8.818681082368761137e-01
7.331701169131780993e-02 -1.163473713871447102e-01 -9.242349327764914912e-01 2.781252822310263315e-02 4.765326663212903213e-01 -8.787167240940398916e-01
5.467182964474348594e-02 -4.322052588937522200e-02 -8.851680070294994929e-01 2.781252822310263315e-02 4.765326663212903213e-01 -8.787167240940398916e-01
-1.044050784812507460e-01 1.691931766842180718e-01 -7.832099981192687244e-01 2.882305030230095273e-03 -4.891187422253653883e-01 8.722124444890646533e-01
1.063900534472996678e-01 -1.347328782062508917e-02 -8.688283057403203280e-01 2.833775161736937220e-01 -7.563538909055991244e-01 -5.895981470791686885e-01
-6.631566979964745312e-02 -1.114972807147339012e-01 -9.387712398480779763e-01 6.770260572663442875e-03 -3.709578311097723180e-01 9.286250325670271089e-01
6.220342803159917278e-02 -5.519070575120516714e-02 -9.001036041034424784e-01 -2.781252822310263315e-02 -4.765326663212903213e-01 8.787167240940398916e-01
5.978709730964741620e-02 -8.821201633697652034e-02 -9.180877132161426868e-01 -2.781252822310263315e-02 -4.765326663212903213e-01 8.787167240940398916e-01
-3.077149920165334496e-03 -2.201652962515255330e-01 -9.957534647121869531e-01 5.091522080054707022e-02 -4.760936421909917615e-01 8.779194064127682218e-01
-4.213167489167645580e-02 8.779223197318195004e-02 -8.171830614989279429e-01 2.781252822310263315e-02 4.765326663212903213e-01 -8.787167240940398916e-01
8.939502599034036823e-02 1.738755878844831237e-01 -7.747640401629426465e-01 -4.093590881519787450e-02 -4.903771780938632752e-01 8.705483757805613232e-01
-1.215866810227578948e-01 1.289937272993052541e-03 -8.751063662767900597e-01 -2.241603210209810668e-02 -4.764848576826135607e-01 8.788968664775050899e-01
1.229989936298173936e-01 -1.013410932631482603e-01 -9.267425717686382791e-01 -7.610439579305595947e-02 -3.684629967859170407e-01 9.265220671632787841e-01
-6.657179642060201408e-02 1.646893815826047380e-01 -7.847953090285832989e-01 -2.196462833578846988e-02 -4.775770639645181004e-01 8.783152640579015014e-01
-6.034986484779548965e-03 4.476287376462059764e-02 -8.510940859739691833e-01 4.968819843776850487e-01 -4.035053029286793103e-01 7.683044735710763407e-01
-1.224292097602357604e-01 -1.125192308312575606e-01 -9.366564434435127318e-01 -1.595443785495472347e-02 -4.719343134504716541e-01 8.814893417964646538e-01
-1.043308185817775832e-03 -2.552174108603423308e-01 -9.981309807641092213e-01 1.064856224364471027e-01 4.740065832074868424e-01 -8.740586772581613317e-01
8.054985428055798369e-02 5.694699267454560870e-02 -8.387100566215527353e-01 -2.781252822310263315e-02 -4.765326663212903213e-01 8.787167240940398916e-01
-7.667349787809445150e-02 -5.075339588352631437e-02 -8.934103723486908066e-01 2.781252822310263315e-02 4.765326663212903213e-01 -8.787167240940398916e-01
-9.699625293673667936e-02 -9.992166246718200973e-02 -9.208226795795815267e-01 3.307172018781156381e-02 4.776176029978269066e-01 -8.779451501263786373e-01
-4.180065654294649186e-02 -1.971215926674098617e-01 -9.722021135717708873e-01 5.090189416454971028e-02 5.075082979881182510e-01 -8.601420374819873649e-01
-2.317471529314379594e-02 1.801778566403585691e-01 -7.750652422057058288e-01 -2.750665159511156421e-02 -4.797060917776254652e-01 8.769979758411428072e-01
1.391480863671271662e-01 6.916223508853482083e-02 -8.298859926961547062e-01 -3.641430072930091494e-02 -4.776025175944776380e-01 8.778210716825000093e-01
-4.037224378062578140e-02 -3.417619871398899778e-02 -8.832714898429109285e-01 2.781252822310263315e-02 4.765326663212903213e-01 -8.787167240940398916e-01
9.428419909981658117e-03 9.481711097054718040e-02 -8.161099260128477084e-01 -9.630289006403824903e-01 1.284266760986898237e-01 -2.368162270572239936e-01
-9.812382936006482093e-02 4.536746189651969657e-02 -8.420295186505486473e-01 3.224817852865501100e-02 4.761703637945455259e-01 -8.787615374066813922e-01
-1.906412204786788606e-02 8.255665173947793201e-02 -8.192922259124203466e-01 2.781252822310263315e-02 4.765326663212903213e-01 -8.787167240940398916e-01
-3.086847511131594196e-02 -3.639633950754436742e-02 -8.841746771339447086e-01 2.781252822310263315e-02 4.765326663212903213e-01 -8.787167240940398916e-01
-7.637052369229496707e-02 7.848295946951942825e-02 -8.319977236526464592e-01 -2.781252822310263315e-02 -4.765326663212903213e-01 8.787167240940398916e-01
-2.372141700461839059e-02 -1.031516693313740130e-01 -9.201502272629062951e-01 2.781252822310263315e-02 4.765326663212903213e-01 -8.787167240940398916e-01
2.734526439002520569e-04 -8.494820452945603395e-02 -9.095189244192232181e-01 2.781252822310263315e-02 4.765326663212903213e-01 -8.787167240940398916e-01
-6.156028918586187865e-02 7.735929762799707843e-02 -8.360861321153408854e-01 -4.319715664133739336e-02 -5.427943012365081810e-01 8.387540475033635756e-01
-1.404240484027182156e-01 -7.864434091908045765e-02 -9.112476532008652041e-01 5.614374578641676689e-02 4.822141311708988964e-01 -8.742524872759387389e-01
-4.075047294687634582e-03 -4.446706128566021987e-02 -8.877034248130287741e-01 2.781252822310263315e-02 4.765326663212903213e-01 -8.787167240940398916e-01
-5.635956793375055535e-02 1.084775097720735715e-01 -8.064156587092868866e-01 2.781252822310263315e-02 4.765326663212903213e-01 -8.787167240940398916e-01
1.058772910913539644e-01 -1.105462274269568557e-01 -9.202414452064827666e-01 2.082489699093928448e-02 4.781561945572774253e-01 -8.780278909418652855e-01
6.344331767016694879e-02 -1.892332061790777398e-01 -9.720335770880880188e-01 -9.132014383458085527e-02 -4.027458970611725864e-01 9.107449553691870925e-01
3.943185495061457546e-02 -1.866443076250462740e-01 -9.636415819768722191e-01 2.450213173295155700e-02 4.829922815401206937e-01 -8.752817269389382426e-01
-1.683608743842850142e-02 2.209267150755607756e-01 -7.446974153439793742e-01 3.735319816188324010e-02 4.581844624211143246e-01 -8.880719210643660544e-01
-9.551677340406526662e-02 7.315643090257457903e-02 -8.354239174665465395e-01 -2.323271705054513747e-02 -4.770536911617619946e-01 8.785670245390433397e-01
7.116187594013145823e-02 1.291420443855978428e-01 -7.998342710646059173e-01 -2.767319782093102462e-02 -4.798867710898515049e-01 8.768938824369343354e-01
1.402198717267929932e-02 -9.823568762880248439e-02 -9.249721277930665897e-01 -2.781252822310263315e-02 -4.765326663212903213e-01 8.787167240940398916e-01
1.218093696461633457e-01 -9.756682135459840421e-02 -9.246561881553302387e-01 -1.614531735274076993e-02 -5.695636447275871372e-01 8.217886488217067686e-01
-3.777217808719234016e-02 -4.500969813606121167e-02 -8.977467486105458194e-01 -2.781252822310263315e-02 -4.765326663212903213e-01 8.787167240940398916e-01
-1.429839329124472092e-01 1.109052254147781073e-02 -8.623947523640811408e-01 5.287091639482418420e-02 4.756342027166694519e-01 -8.780528295072284051e-01
-1.361715908038594880e-01 5.539383844108004135e-02 -8.380433045199598974e-01 5.281207660968006284e-02 4.729357539403550859e-01 -8.795127385143669541e-01
6.358111423455579947e-02 3.275417518421444574e-02 -8.436845395989178709e-01 2.781252822310263315e-02 4.765326663212903213e-01 -8.787167240940398916e-01
-5.924982329639017116e-03 -2.513495976013758668e-02 -8.859605690402998501e-01 -2.781252822310263315e-02 -4.765326663212903213e-01 8.787167240940398916e-01
-6.376960711136384075e-02 -3.213459001907210261e-02 -8.915873627432959747e-01 -2.781252822310263315e-02 -4.765326663212903213e-01 8.787167240940398916e-01
8.038912914616019867e-02 6.676899398760975657e-02 -8.242362025830778371e-01 -2.255507618579660756e-01 9.287020909617769160e-01 2.943455113782346699e-01
-1.413827226327042108e-01 2.698993353744523482e-02 -8.616599391381213335e-01 -1.936723041077062502e-02 -4.768027768981773495e-01 8.787969175687878609e-01
1.310386205487664157e-01 -1.845905636895130847e-02 -8.664686854227144908e-01 -1.741486466064053051e-01 9.292520069284234685e-01 -3.258265742763390982e-01
-4.576769264994135639e-02 -2.016614189910275190e-01 -9.817865897828453869e-01 1.203424997765350501e-01 -2.752754035824163115e-01 9.538035096025138104e-01
-5.465511049903978152e-02 2.057785615570737747e-01 -7.541683691481613216e-01 4.437262524878377717e-02 4.578107803401765818e-01 -8.879416419635076663e-01
-4.502784876774994921e-02 1.243907658879296468e-01 -8.061096441331555562e-01 -2.781252822310263315e-02 -4.765326663212903213e-01 8.787167240940398916e-01
-5.131683581833433594e-03 -4.779799018041542419e-02 -9.019599277406905591e-01 4.830932301204961532e-01 -4.097411063411951493e-01 7.737784933597202652e-01
-2.051108461180531362e-02 2.281251722803529225e-01 -7.411662702236182509e-01 4.617909660369625552e-02 4.409670302399889552e-01 -8.963345186247103635e-01
1.038705550867558974e-01 5.106951460697833900e-02 -8.325779530571842946e-01 2.324922271886124825e-02 4.761442503520320613e-01 -8.790597968850981658e-01
9.358204559472679818e-02 2.500497424755107265e-02 -8.469769006932326150e-01 2.340680050230099091e-02 4.764126717552299439e-01 -8.789101705415003352e-01
-1.171516616683983825e-01 -9.088608525230584823e-02 -9.249015520767044363e-01 -2.130683353098103416e-02 -4.748269656394358829e-01 8.798212156719849020e-01
1.631515611099742247e-01 1.008219082126003349e-02 -8.602764887076862488e-01 -1.618679672703998151e-01 -4.732132117285001160e-01 8.659492002521549381e-01
-1.464186354847755445e-01 -4.971640262780672309e-02 -8.957182407785998501e-01 5.471834612723131680e-02 4.798123314155777752e-01 -8.756631939385419727e-01
3.469213175263829302e-02 -1.017395015814398090e-01 -9.262180274051025064e-01 -2.781252822310263315e-02 -4.765326663212903213e-01 8.787167240940398916e-01
-3.945382311873373016e-02 6.652665704258517443e-02 -8.252619257878235359e-01 -1.386710237366690635e-01 -2.231081125815522481e-01 -9.648798460306452496e-01
-6.099647599923693070e-02 2.866721394755071886e-02 -8.585264538609329588e-01 -2.781252822310263315e-02 -4.765326663212903213e-01 8.787167240940398916e-01
1.298016878099045868e-01 -1.062493495679737859e-01 -9.220015739325584381e-01 -3.559657005859319101e-01 7.443760966277206403e-01 5.649713681025303469e-01
1.692819486941211579e-02 -2.057086451838264218e-01 -9.828109786108262247e-01 -3.308347883382153215e-02 -4.672488017966073826e-01 8.835066726674376536e-01
-1.061158715206805964e-01 3.304366483466944504e-02 -8.574777149862007342e-01 -2.333858558865188268e-02 -4.768207051229158000e-01 8.786906882338100244e-01
-5.809448411451393485e-02 -7.544314416552889979e-02 -9.148941926941275282e-01 -2.781252822310263315e-02 -4.765326663212903213e-01 8.787167240940398916e-01
