4.802274149735006985e-03 -3.542078410539785116e-01 -8.887352173302650593e-01 -7.718834614459055832e-01 2.751307914363294027e-01 -5.731482962985287033e-01
-2.185776748011178730e-02 -2.671342378326299269e-02 -6.963840597570287727e-01 -8.195757277489981174e-01 2.479566626020348608e-01 -5.165395628177581466e-01
6.479911153899689524e-02 1.460902857340928840e-01 -7.652973081721390347e-01 8.162725415515045269e-01 -2.514922852749442161e-01 5.200488134360402581e-01
-2.707753503386983729e-02 -1.996740944808313156e-01 -7.855764942722328614e-01 8.214462835697395882e-01 -2.401790562911610138e-01 5.172427129777182886e-01
-1.277464668087455353e-02 1.206121220594974786e-01 -6.400746356245176072e-01 -8.195757277489981174e-01 2.479566626020348608e-01 -5.165395628177581466e-01
-5.581587851644256859e-02 -1.194767015084945011e-01 -7.017000770521421016e-01 8.224740325436935562e-01 -2.455565868071405145e-01 5.130676646086191894e-01
-6.968528616945517118e-02 -9.399914580087558036e-02 -6.672778673675180405e-01 8.229296576764615345e-01 -2.452393419287349219e-01 5.124884815162802365e-01
-7.601990831415170180e-02 -9.602801988639693420e-02 -6.580802356052513069e-01 8.228401624776736645e-01 -2.451655319031876556e-01 5.126674643278456012e-01
-1.924541786844210373e-02 -2.887321072945792187e-03 -7.038619524516067649e-01 8.195757277489981174e-01 -2.479566626020348608e-01 5.165395628177581466e-01
-7.235317346131250882e-02 8.663027286719163222e-02 -5.629461365680159535e-01 -7.845359363796079455e-01 2.428792449750690474e-01 -5.705374982324230571e-01
5.576115366577052979e-02 -1.169917913368501011e-01 -8.632037078989928114e-01 -8.254204906084398052e-01 2.476901150175192801e-01 -5.072776563247495263e-01
4.579065371655067183e-03 -1.758281867931498210e-01 -8.099531426330673911e-01 -8.198722780458675974e-01 2.523054783532299172e-01 -5.139566064220083552e-01
-3.808242547383671714e-05 -4.506903405138389801e-02 -7.328994628661209543e-01 -8.080065554564266339e-01 1.888544158277849772e-01 -5.580854916245238106e-01
2.484791042198621763e-02 8.889404150672190752e-02 -7.203255170553404252e-01 1.004034135286883782e-02 -7.470270533995574391e-01 -6.647178145910431768e-01
-5.549999512928573651e-03 -4.077172016224701601e-01 -9.157443412498833535e-01 2.696250831278135807e-01 9.461845675699278591e-01 1.789890461476023320e-01
-1.471903983397942692e-02 -1.935513655690498103e-01 -8.023484885920909582e-01 8.207931821806579986e-01 -2.426215599224162967e-01 5.171395660231019598e-01
7.059644367293011445e-03 6.647758705375765576e-02 -6.902679497132464537e-01 -8.621118645877061670e-01 2.192853239770334028e-01 -4.568118645847499826e-01
-6.329546469512191409e-02 2.212403322042463816e-02 -6.074843582914483120e-01 -8.165164328915482939e-01 2.493091316761538445e-01 -5.207166904190257961e-01
-5.812293714597818045e-02 7.023974699069696764e-04 -6.258674065842503298e-01 -8.170032204371332485e-01 2.493020334140789718e-01 -5.199559923021932484e-01
4.676752903975121139e-02 1.734178689690492881e-01 -7.238003524673596312e-01 8.165789039251601933e-01 -2.510398331984888820e-01 5.197863944083750409e-01
3.681724375295150793e-03 -7.223321091708262420e-02 -7.587577566487784253e-01 -8.195757277489981174e-01 2.479566626020348608e-01 -5.165395628177581466e-01
5.840834873686660822e-03 -8.319343851716476390e-02 -7.600375714408681427e-01 -7.719592323187421945e-01 2.750909757655312093e-01 -5.730653528963568499e-01
-6.377208679082209397e-02 -1.440088505858236612e-01 -7.077318761030704231e-01 8.291234743149771269e-01 -1.381757430564077571e-01 5.417210798655254234e-01
8.740066028317233435e-03 2.064124437369701803e-01 -6.273595447006939940e-01 -9.979279256634370210e-01 2.784426819642810830e-02 -5.800475764689271702e-02
7.055933574462093516e-02 1.847697851733200863e-02 -8.216057558736288291e-01 -8.226697112536056622e-01 2.461230229130287606e-01 -5.124821984987008028e-01
-1.322001397866423393e-02 -5.180556089112794971e-02 -7.151587829348350356e-01 -8.042334478475949844e-01 3.223513189268862877e-01 -4.992976953173994259e-01
-6.906381341509222616e-02 2.172089328516320361e-02 -5.986347318799565276e-01 -8.164202891269720652e-01 2.491983592842613726e-01 -5.209204250476875409e-01
6.536936651970756684e-02 3.626452560848970885e-02 -8.259808426890593580e-01 8.358130929875479120e-01 -3.321933531384505534e-01 4.371087390126410233e-01
-8.551880445879263618e-03 5.343852043079578423e-02 -6.790203819585097778e-01 -8.195757277489981174e-01 2.479566626020348608e-01 -5.165395628177581466e-01
-4.421761249487946022e-02 1.915158626459209992e-02 -6.388896813787247053e-01 -8.195757277489981174e-01 2.479566626020348608e-01 -5.165395628177581466e-01
6.751560720567642560e-02 5.446961350939869689e-02 -7.994448589597203947e-01 -8.221204603964226143e-01 2.462984833182652600e-01 -5.132786823088372197e-01
-3.414099919943101857e-02 1.577932680178823766e-01 -6.029324170672116789e-01 8.202280862449821131e-01 -2.511325633273729374e-01 5.139633471090298000e-01
-2.497994323814358569e-02 -1.635471419423382700e-01 -7.718853870984585530e-01 8.195757277489981174e-01 -2.479566626020348608e-01 5.165395628177581466e-01
1.582235680032882197e-03 -2.054054724369077378e-01 -8.197243350008150964e-01 -8.190876799783384232e-01 2.540476495263274681e-01 -5.143492629311831044e-01
8.096235750080002513e-02 1.580282216672147244e-01 -7.715588981746173136e-01 -8.246811838108740744e-01 2.420406294065946817e-01 -5.111920175283989343e-01
1.527330357828362954e-02 -1.217603582850825261e-01 -8.009244457050868071e-01 -8.195757277489981174e-01 2.479566626020348608e-01 -5.165395628177581466e-01
-1.575317268554002564e-04 -3.033337934882266995e-01 -8.605337684370197859e-01 -4.032348368415132334e-01 3.960136394494039314e-01 -8.249696138206762397e-01
5.225052917022067478e-02 1.866426451784866103e-01 -7.050460982955656375e-01 -8.421115391222389057e-01 3.408025863204063310e-01 -4.179733877108635642e-01
2.044660919995325982e-02 -1.204566690551936020e-01 -8.232772490920133857e-01 8.195757277489981174e-01 -2.479566626020348608e-01 5.165395628177581466e-01
4.429320325469036229e-02 1.418121822352092810e-02 -7.964830352332078478e-01 8.195757277489981174e-01 -2.479566626020348608e-01 5.165395628177581466e-01
2.183233016217443062e-02 6.519463988248219710e-02 -7.363569453288406619e-01 8.195757277489981174e-01 -2.479566626020348608e-01 5.165395628177581466e-01
-8.426654800686095986e-03 -2.720464130420061077e-01 -8.550179147945566882e-01 9.979202671479854292e-01 -2.789562434402686683e-02 5.811174199548935909e-02
-6.773089302309748261e-02 -9.427969611372301328e-02 -6.705503898094583581e-01 8.229296576764615345e-01 -2.452393419287349219e-01 5.124884815162802365e-01
-8.410607077292395206e-03 1.673003936178243944e-01 -6.443919946859434367e-01 9.979202671479853182e-01 -2.789562434402683908e-02 5.811174199548929664e-02
-2.136210293957770817e-02 7.295151090065682409e-02 -6.640982463235459710e-01 8.195757277489981174e-01 -2.479566626020348608e-01 5.165395628177581466e-01
-2.107483611508239457e-02 -1.628078328023269128e-01 -7.777265938568976855e-01 8.195757277489981174e-01 -2.479566626020348608e-01 5.165395628177581466e-01
-1.721537638099353978e-02 2.393476181872417757e-02 -6.942074326676560547e-01 8.195757277489981174e-01 -2.479566626020348608e-01 5.165395628177581466e-01
-1.412580597110782432e-02 1.647982617941882721e-01 -6.314180917163877416e-01 8.197591723712329692e-01 -2.510780676608193596e-01 5.147375090790839991e-01
9.321414441638327386e-02 1.180859964761417913e-01 -8.114129700874639362e-01 -8.869534953493445339e-01 1.797269887465780258e-01 -4.254547057016381251e-01
8.088225619816175049e-02 -2.069605525708786281e-02 -8.697875498056472088e-01 7.846129577916862718e-01 -2.549972208663519035e-01 5.651185042235110645e-01
4.438067457605369276e-02 2.165006899196130624e-02 -7.930365190971733202e-01 8.195757277489981174e-01 -2.479566626020348608e-01 5.165395628177581466e-01
-3.783454251742948693e-02 -2.185799890177360036e-04 -6.583158235808723724e-01 -8.195757277489981174e-01 2.479566626020348608e-01 -5.165395628177581466e-01
3.642172039819317059e-02 7.483007434518905432e-02 -7.548800956095510495e-01 8.195757277489981174e-01 -2.479566626020348608e-01 5.165395628177581466e-01
-1.642635154963509661e-02 1.350051669312053726e-01 -6.273714459392696341e-01 -8.195757277489981174e-01 2.479566626020348608e-01 -5.165395628177581466e-01
-1.686681325988866748e-02 3.319898639433948445e-02 -6.903133411429978050e-01 8.195757277489981174e-01 -2.479566626020348608e-01 5.165395628177581466e-01
4.408748317495308025e-04 1.534630123799505252e-01 -6.665822344989085213e-01 8.195757277489981174e-01 -2.479566626020348608e-01 5.165395628177581466e-01
9.112967175523024876e-02 9.996648919060314997e-02 -8.158871848024253914e-01 -8.465983113574140351e-01 2.265962357327576393e-01 -4.815863839006659375e-01
7.407278100535908370e-03 9.779771666269825026e-02 -6.978186143215832082e-01 8.195757277489981174e-01 -2.479566626020348608e-01 5.165395628177581466e-01
-5.906086821590889567e-03 2.112826973658603613e-01 -6.287462329529278637e-01 7.719586330420650233e-01 -2.751074796107009779e-01 5.730582374716154392e-01
-1.449161262560743138e-02 2.041744320885877650e-01 -6.115990699507128925e-01 8.204749642549502564e-01 -2.513018705403160524e-01 5.134863220123555561e-01
3.283280070118913679e-02 -5.997659776798882486e-02 -8.138974937636611617e-01 8.195757277489981174e-01 -2.479566626020348608e-01 5.165395628177581466e-01
-3.063783225678848657e-02 -3.407437641342891694e-03 -6.712653593603941093e-01 -8.195757277489981174e-01 2.479566626020348608e-01 -5.165395628177581466e-01
2.330792507924504126e-02 -1.885957120101716122e-01 -8.589843300034596396e-01 7.901397056952775833e-01 -2.022327486822773079e-01 5.786027660184411836e-01
-6.855404893870480944e-03 -3.432250920300841668e-01 -8.835245925938615130e-01 7.546221208242714917e-01 2.839571038864621144e-01 -5.915351366699117541e-01
6.150532850588243117e-02 9.967207196098722133e-02 -7.681494016589885954e-01 -8.221944327372606720e-01 2.458702805957601045e-01 -5.133654837400117854e-01
-3.530180885238184789e-03 6.474671524511591697e-03 -7.095323958374123441e-01 -8.195757277489981174e-01 2.479566626020348608e-01 -5.165395628177581466e-01
-1.165336165300864812e-02 2.252561880944007056e-01 -5.926128635337601924e-01 -8.050430450298800000e-01 2.167375041075715880e-01 -5.522051701697827664e-01
1.990984134690723314e-02 -8.443301930323554583e-02 -7.903626824356138059e-01 -8.195757277489981174e-01 2.479566626020348608e-01 -5.165395628177581466e-01
1.035291576714434704e-02 1.871804200046366662e-01 -6.449747951851627636e-01 -8.197031839790801522e-01 2.448058698005720624e-01 -5.178385619918082217e-01
-3.707478048662235515e-02 -1.251921920203331595e-01 -7.195129216298246089e-01 -8.195757277489981174e-01 2.479566626020348608e-01 -5.165395628177581466e-01
-3.694778263236667137e-02 -1.124758638423656587e-01 -7.136101522076641057e-01 -8.195757277489981174e-01 2.479566626020348608e-01 -5.165395628177581466e-01
5.144845488399572148e-02 -5.280295035924058994e-02 -8.252419025745209025e-01 -8.224872171873368609e-01 2.467432318931121471e-01 -5.124768824819050383e-01
4.311091328706374154e-02 2.135111937027142637e-01 -6.845292519324137626e-01 -8.215614625714653396e-01 2.411133482363732317e-01 -5.166247347153252178e-01
-4.815981613143779233e-02 6.842272243036950918e-02 -6.237532011099283791e-01 8.195757277489981174e-01 -2.479566626020348608e-01 5.165395628177581466e-01
-3.170011612178320198e-02 -1.759391986132504415e-01 -7.525530751920086470e-01 -8.161219888713023840e-01 2.507821240235795779e-01 -5.206277226108610989e-01
6.198656201520738769e-03 -8.779902908063713651e-02 -7.702234119092798981e-01 -8.195757277489981174e-01 2.479566626020348608e-01 -5.165395628177581466e-01
5.359815097138376748e-03 9.102792955893911075e-02 -6.978197039491087494e-01 8.195757277489981174e-01 -2.479566626020348608e-01 5.165395628177581466e-01
-4.855799462755904829e-03 -9.853752655390753123e-02 -7.726088409017705105e-01 8.195757277489981174e-01 -2.479566626020348608e-01 5.165395628177581466e-01
3.247529476728167747e-02 1.507049362877754262e-01 -6.974443202463154190e-01 -8.228796757427904174e-01 2.453893919672803514e-01 -5.124969127315485151e-01
1.786266493636538485e-02 1.684522106946015341e-01 -6.872352083296359160e-01 8.224634618048188850e-01 -2.453546340021655892e-01 5.131812131885739037e-01
1.593357915428775945e-02 5.165577466256637829e-02 -7.334967165659356247e-01 8.195757277489981174e-01 -2.479566626020348608e-01 5.165395628177581466e-01
-2.731551789709004557e-02 -4.280701072599665466e-03 -6.917262697260856408e-01 8.195757277489981174e-01 -2.479566626020348608e-01 5.165395628177581466e-01
4.644751405817295481e-02 2.219956451719965473e-01 -6.859324154959798303e-01 -8.275003939210162640e-01 2.196399392868159661e-01 -5.167217772947514387e-01
-8.251157932235500536e-02 -9.355917925915444022e-02 -6.329417497084048883e-01 -8.143815768727343807e-01 2.524486702866064469e-01 -5.225440805528304145e-01
-3.952147725069489470e-02 1.714124703304069630e-01 -5.874975792155487930e-01 8.235140614188218855e-01 -2.566563035576739926e-01 5.059171201783825289e-01
-4.166214750831861990e-02 6.067318797847567197e-02 -6.230125612099810528e-01 -8.195757277489981174e-01 2.479566626020348608e-01 -5.165395628177581466e-01
6.410332181165654883e-03 -3.546560264239047577e-01 -8.912011681371146965e-01 -8.621722538948958237e-01 2.192408547256638474e-01 -4.567192269140368244e-01
7.926452320085843745e-03 -2.619194067933242054e-01 -8.495464754643892169e-01 -8.621722538948959347e-01 2.192408547256638751e-01 -4.567192269140368799e-01
3.004340051242191875e-02 9.894905190773072012e-02 -7.394865976548167241e-01 8.297965479762711150e-01 -3.397134875218681405e-01 4.427555029159923605e-01
5.535596502855352069e-02 9.557656762037926301e-02 -7.602622145714714730e-01 -8.221944327372606720e-01 2.458702805957601045e-01 -5.133654837400117854e-01
-6.097020469981929286e-02 -1.181465251260557653e-01 -6.928055088347058188e-01 8.223580122675241411e-01 -2.454244851885052370e-01 5.133167849674935557e-01
3.434065342094447942e-02 8.001944036065747334e-02 -7.490870642989083672e-01 8.195757277489981174e-01 -2.479566626020348608e-01 5.165395628177581466e-01
-5.037940408785009788e-02 -1.052118928363853650e-01 -7.035820124290751432e-01 8.195757277489981174e-01 -2.479566626020348608e-01 5.165395628177581466e-01
-3.107057101618157166e-02 -1.970149303827192500e-01 -7.779386588459399343e-01 8.239877321012373246e-01 -2.303248106496861014e-01 5.176820442567480196e-01
3.383644853655024681e-02 2.305432833332992509e-02 -7.756322623146948425e-01 8.195757277489981174e-01 -2.479566626020348608e-01 5.165395628177581466e-01
-2.510182802405368924e-02 -1.455939006740537278e-01 -7.472793865537437075e-01 5.094832448497475796e-02 9.863653253260961096e-01 1.564855048447572061e-01
5.771236451172059162e-02 -7.132028554901327644e-02 -8.585076810459993935e-01 8.155495998482925613e-01 -2.488466248842588768e-01 5.224501961632351810e-01
-3.940785431050233302e-03 7.696828064471855635e-02 -6.958691095347381284e-01 7.718834614459055832e-01 -2.751307914363294027e-01 5.731482962985287033e-01
-4.547848943334718841e-02 -1.489940063582152752e-01 -7.207250032088075020e-01 1.848291649202930473e-02 9.894160034743926246e-01 1.439248201899504254e-01
-4.778372877171756933e-02 -5.171698431741846708e-02 -6.820210957093735260e-01 8.195757277489981174e-01 -2.479566626020348608e-01 5.165395628177581466e-01
-4.987042391414361203e-02 -1.158859140116846008e-02 -6.594472060939626790e-01 8.195757277489981174e-01 -2.479566626020348608e-01 5.165395628177581466e-01
2.291481903751771063e-02 -3.478382179702005361e-02 -7.712972647101309365e-01 -8.195757277489981174e-01 2.479566626020348608e-01 -5.165395628177581466e-01
7.175377093973736922e-03 1.778089525942279647e-01 -6.370435002417852433e-01 -8.621118645877061670e-01 2.192853239770334028e-01 -4.568118645847500381e-01
8.560411199907486807e-03 2.003364742581850988e-01 -6.288434055391192157e-01 -8.621118645877061670e-01 2.192853239770334028e-01 -4.568118645847500381e-01
-7.705207174929861770e-03 -1.288862899438838472e-01 -7.826562275077599828e-01 8.195757277489981174e-01 -2.479566626020348608e-01 5.165395628177581466e-01
-2.831939733629954426e-03 -4.069378945377659096e-01 -9.201942182644154977e-01 1.658954944632518025e-01 8.984164072662426115e-01 4.066037924953606053e-01
-6.006789154937288051e-03 -8.942156899215085442e-02 -7.606076379459341119e-01 7.546221208242716028e-01 2.839571038864621699e-01 -5.915351366699118651e-01
-2.715195712650456464e-02 -1.041263060213637112e-02 -6.801590109698197884e-01 -8.195757277489981174e-01 2.479566626020348608e-01 -5.165395628177581466e-01
-6.088504170010740346e-02 -1.435044132029656416e-01 -6.908810361393379340e-01 -8.158280458549795888e-01 2.520853888873437754e-01 -5.204589861900380532e-01
-6.128707396376118638e-02 -1.070182540856537412e-01 -6.869754038759364745e-01 8.222866801148036586e-01 -2.459048137684534674e-01 5.132011674492537034e-01
-2.350157866887294528e-02 5.503935138803727617e-02 -6.755343946115905940e-01 8.274509735853420311e-01 -1.742825241882653975e-01 5.338075384211393715e-01
-4.159335524886001965e-03 -2.153451316253669201e-01 -8.358952175781467764e-01 7.718834614459055832e-01 -2.751307914363294027e-01 5.731482962985287033e-01
-3.059243443790480611e-03 -3.994976799384414301e-01 -9.239072941292119090e-01 7.377463001769227757e-01 -1.639709930930487863e-02 6.748789015145624237e-01
-1.504017423045092040e-02 7.080193949631032047e-02 -6.751609030595265848e-01 8.195757277489981174e-01 -2.479566626020348608e-01 5.165395628177581466e-01
-7.246423221632625200e-02 1.110037196353857031e-01 -5.629641794380171316e-01 8.563314819828136137e-01 -2.580006888500965823e-01 4.473611935762797920e-01
6.247674290090637211e-02 1.213999220183821920e-01 -7.750767577885464554e-01 1.779278201262030762e-02 7.280135835451592152e-01 6.853317729990249241e-01
7.037119737712747847e-02 1.560779028456656392e-01 -7.690280144795992312e-01 8.038728530208499867e-01 -2.655120593869398360e-01 5.322516157760582844e-01
-3.309418467998778007e-02 -7.876245807049193914e-02 -7.183112476143439507e-01 8.195757277489981174e-01 -2.479566626020348608e-01 5.165395628177581466e-01
-6.674582938072216864e-02 5.814952093808378741e-02 -5.988901613989897621e-01 8.229073972124862912e-01 -2.467252148352346575e-01 5.118105938503798580e-01
6.043282839970967601e-02 1.638192968535790925e-02 -8.063830840812895584e-01 -8.221299736432507999e-01 2.464252955368620435e-01 -5.132025722430840764e-01
1.796326772379777323e-02 1.221661347245828894e-01 -6.880994580375338066e-01 -8.195757277489981174e-01 2.479566626020348608e-01 -5.165395628177581466e-01
-5.277175846429859457e-02 -5.450967083491302378e-02 -6.607715387732885359e-01 -8.170050864363282983e-01 2.495976673659129341e-01 -5.198112091737371321e-01
8.458156169473511274e-03 2.693662883701642124e-03 -7.303688953520827143e-01 -8.195757277489981174e-01 2.479566626020348608e-01 -5.165395628177581466e-01
-7.529158557044170197e-02 3.976576621660472127e-02 -5.775170477055248108e-01 -6.518319983641991389e-01 1.918379723483892851e-01 -7.336983292019912950e-01
2.365774052516170928e-02 1.528319976552507953e-01 -6.971843316852092132e-01 8.195757277489981174e-01 -2.479566626020348608e-01 5.165395628177581466e-01
6.717063320777393043e-02 6.940246530991454887e-02 -7.917294384343923630e-01 -8.221317617469842132e-01 2.461273996477946757e-01 -5.133426433381653720e-01
-6.641249164968254792e-02 -1.562888747891811314e-01 -6.884327551600507578e-01 -8.130672131972014327e-01 2.550931512236902510e-01 -5.233060204340324040e-01
-1.197463378228028237e-02 -8.054865082776468954e-02 -7.379080421683930080e-01 -8.195757277489981174e-01 2.479566626020348608e-01 -5.165395628177581466e-01
5.325531002609975445e-02 1.532225583132320046e-01 -7.437389020387250582e-01 8.168581135075952959e-01 -2.505691737502664385e-01 5.195747410747767470e-01
-3.563027690887031148e-04 -8.348977516407668498e-02 -7.549039343677349523e-01 -4.031260115140375411e-01 3.960343883154225364e-01 -8.250128375440064499e-01
-7.127139076744833102e-02 -6.012491552521054272e-02 -6.344177989946452323e-01 -8.164576510343998228e-01 2.499683689751151794e-01 -5.204927651555888435e-01
1.877491084688772890e-02 -1.331927452549654944e-01 -8.119682635550994343e-01 -8.195757277489981174e-01 2.479566626020348608e-01 -5.165395628177581466e-01
1.881537114085105739e-02 1.155414842978263329e-01 -7.074018313823423609e-01 8.195757277489981174e-01 -2.479566626020348608e-01 5.165395628177581466e-01
9.256752905045019866e-03 1.533812425812486890e-01 -6.557088668185786506e-01 -9.040320302338936687e-01 -1.374840740956408958e-01 -4.047520446906333613e-01
-1.633872323870302207e-02 -9.158731260887460757e-02 -7.510529364444250566e-01 8.195757277489981174e-01 -2.479566626020348608e-01 5.165395628177581466e-01
6.696764153122015083e-03 -5.204960000451663155e-02 -7.686231047959146689e-01 8.195757277489981174e-01 -2.479566626020348608e-01 5.165395628177581466e-01
1.337122377060850215e-02 -1.943716485199896427e-01 -8.331494937826444680e-01 -8.213408408714858444e-01 2.527596999341122919e-01 -5.113822026681590360e-01
7.492612261540246288e-02 2.148804495622004887e-02 -8.411048482471362719e-01 8.163969695107894387e-01 -2.495349749830043096e-01 5.207958183720665657e-01
4.428814942826550527e-02 -9.813592292383245541e-02 -8.327774194746456748e-01 -7.039356611124412133e-01 7.094500758292362486e-01 3.398786430597668801e-02
1.742233649427083007e-03 5.558173105613482129e-02 -7.090951987112402710e-01 8.195757277489981174e-01 -2.479566626020348608e-01 5.165395628177581466e-01
-6.873312689467116210e-02 -2.109825662250286362e-03 -6.105635133978020157e-01 -8.164914218049577066e-01 2.494951913738076010e-01 -5.206667913361341382e-01
-2.907252886818203347e-02 7.710252994667989024e-02 -6.498717450064867007e-01 8.195757277489981174e-01 -2.479566626020348608e-01 5.165395628177581466e-01
-7.584996526183045151e-02 -1.422150305301169149e-01 -6.852290513441279263e-01 5.331736347439810508e-01 -8.127552558457400433e-01 2.348505254603823478e-01
6.756174012897751824e-02 9.407859008753050034e-02 -7.946978337179418928e-01 8.164772842766475636e-01 -2.502250406286847251e-01 5.203386140799118875e-01
3.266133255414292204e-03 1.197793128660019080e-01 -6.591354027366311819e-01 -7.719592323187421945e-01 2.750909757655312093e-01 -5.730653528963568499e-01
-4.516406546601386962e-02 1.365447066243619667e-01 -5.812780319300173693e-01 -8.195757277489981174e-01 2.479566626020348608e-01 -5.165395628177581466e-01
-6.871807123423617769e-02 -1.147804265329874403e-02 -6.292429941101631563e-01 8.226079637965968416e-01 -2.463532107776765789e-01 5.124707147125059370e-01
-6.501294192162720975e-02 -8.356549437679686165e-02 -6.555019537269194396e-01 -8.163709565917641742e-01 2.502395404876537888e-01 -5.204984472695145525e-01
-2.416690577653998057e-02 1.477944506366620815e-02 -6.875725430631128843e-01 8.195757277489981174e-01 -2.479566626020348608e-01 5.165395628177581466e-01
1.180818849855100848e-02 7.476981352233433298e-02 -7.158555702921870489e-01 8.195757277489981174e-01 -2.479566626020348608e-01 5.165395628177581466e-01
3.598367358857910286e-02 -3.952116961276846627e-03 -7.920032088739925591e-01 8.195757277489981174e-01 -2.479566626020348608e-01 5.165395628177581466e-01
3.000388042104498373e-02 1.780289002601341264e-01 -6.950390545182995039e-01 8.162592434437760947e-01 -2.505039280303106297e-01 5.205464720214511010e-01
4.802723412411192064e-03 -2.213707196993784654e-01 -8.328329269006840008e-01 -8.204043676711905153e-01 2.566263046963298544e-01 -5.109595025478439467e-01
-4.731852487008605251e-02 -2.853535987898250109e-02 -6.716312460453111033e-01 8.195757277489981174e-01 -2.479566626020348608e-01 5.165395628177581466e-01
6.153544386378451136e-02 1.895206045963876429e-01 -7.253144247811660339e-01 -8.238448860863003542e-01 2.421678279783597010e-01 -5.124786305415032217e-01
4.296310928378152538e-02 -8.250108557424465361e-02 -8.260131230448348738e-01 -8.195757277489981174e-01 2.479566626020348608e-01 -5.165395628177581466e-01
-5.651930062696809004e-02 -5.176465350869270676e-02 -6.748920886149369913e-01 8.305493189605077653e-01 -1.367614314100593920e-01 5.398927112426210595e-01
-1.010754728267390830e-02 4.572096790209317918e-02 -6.802567476399462576e-01 -8.195757277489981174e-01 2.479566626020348608e-01 -5.165395628177581466e-01
-3.528091809553642738e-02 -1.177076992922321125e-01 -7.335366804238483418e-01 8.195757277489981174e-01 -2.479566626020348608e-01 5.165395628177581466e-01
-4.849919573591127825e-02 8.683011614570182446e-02 -6.143528741086400347e-01 8.225602684538130260e-01 -2.467871503310855863e-01 5.123384693663486367e-01
2.663346775922961415e-02 1.145438154492055549e-01 -7.055151431082086200e-01 -8.195757277489981174e-01 2.479566626020348608e-01 -5.165395628177581466e-01
-1.758829215498337872e-02 1.849933654758063040e-01 -6.160521946778665381e-01 8.201833085721473848e-01 -2.517147091229273159e-01 5.137499835044335716e-01
8.495667432847955891e-02 3.645146506340032205e-02 -8.490229338793716662e-01 7.892801218389092766e-01 -2.617974998324276159e-01 5.554268253797673971e-01
5.098492130853538029e-02 1.976034436942385175e-01 -7.219855210932546452e-01 6.640175485509416387e-01 -2.996338886841645177e-01 6.850549087251353031e-01
-4.900888339549865774e-02 -4.036908316589376752e-03 -6.571891168379064840e-01 8.195757277489981174e-01 -2.479566626020348608e-01 5.165395628177581466e-01
-8.304004536132540693e-02 -8.996809807608323328e-02 -6.303888144703884144e-01 -8.145721137915050702e-01 2.516927986758204505e-01 -5.226117167917039286e-01
3.154638548476562752e-03 -1.554531380300359644e-01 -8.126401707798158736e-01 8.195757277489981174e-01 -2.479566626020348608e-01 5.165395628177581466e-01
-9.233226588926024894e-03 1.435958539561688896e-01 -6.494310196109077671e-01 8.195757277489981174e-01 -2.479566626020348608e-01 5.165395628177581466e-01
3.424899483211329976e-02 -1.687631933897215941e-01 -8.540508087515683577e-01 -8.220264007415081231e-01 2.531165909751191823e-01 -5.101025268091655684e-01
7.909661473691513567e-02 1.031193798718728176e-02 -8.392424780731985168e-01 -8.227150386536733473e-01 2.463779609225631162e-01 -5.122868976898831139e-01
6.392893488659676104e-02 3.165169896672518496e-02 -8.046509566033557270e-01 -8.221216883549292698e-01 2.464493827415271954e-01 -5.132042783168906386e-01
-1.950245401299550638e-02 1.361894625510797485e-01 -6.146589774718852484e-01 -8.195757277489981174e-01 2.479566626020348608e-01 -5.165395628177581466e-01
3.771406039539767878e-03 1.738902322939815948e-01 -6.408391989502100206e-01 -8.196925603331086663e-01 2.448872048022138759e-01 -5.178169207921962114e-01
1.490259759972609004e-02 -2.015828849542089796e-01 -8.519574809912142666e-01 7.942670416094584906e-01 -2.006759203470759312e-01 5.734710468766603952e-01
-8.700664186129443423e-02 2.836932256092985702e-03 -5.925508266754865305e-01 8.338318632906439598e-01 -2.408180929058776065e-01 4.967203135472000874e-01
4.044075028537916922e-02 -3.115275537927838373e-02 -8.121323376932186866e-01 8.195757277489981174e-01 -2.479566626020348608e-01 5.165395628177581466e-01
4.344198113696716435e-02 2.319300286088869512e-01 -6.768807368713527506e-01 -8.418523122186897245e-01 1.887066758778950526e-01 -5.056426355551527640e-01
-1.590953126731516759e-02 2.327005965338508481e-02 -6.965984524051858084e-01 8.195757277489981174e-01 -2.479566626020348608e-01 5.165395628177581466e-01
-8.436982166821241705e-03 1.304996440482755760e-01 -6.618577296820487010e-01 9.968085402325296274e-01 -3.454666537989279501e-02 7.196708991353700791e-02
-2.511344704766119498e-02 -3.067890563205135854e-02 -6.931219508551171860e-01 -8.195757277489981174e-01 2.479566626020348608e-01 -5.165395628177581466e-01
-5.206989931540079858e-02 7.365588795510129294e-02 -6.004471156270865251e-01 -8.168456605746980959e-01 2.486942770281299342e-01 -5.204943067640037668e-01
2.086019299275704286e-02 1.783536934861403300e-01 -6.657895987781236036e-01 -8.201028204384052112e-01 2.443432842857260479e-01 -5.174241232619886111e-01
4.368517873695118570e-02 1.204884831025253011e-01 -7.297168681689991665e-01 -8.195757277489981174e-01 2.479566626020348608e-01 -5.165395628177581466e-01
-1.419487002285399653e-02 -1.135130049958177900e-01 -7.502092867759445616e-01 -8.195757277489981174e-01 2.479566626020348608e-01 -5.165395628177581466e-01
-8.480322213783359278e-03 -3.031563237620520102e-02 -7.381125904772132262e-01 9.967186729981758475e-01 -3.879801186845779903e-02 7.103943392095968257e-02
2.037122919808218718e-02 1.097829436853659107e-01 -7.126347548713161117e-01 8.195757277489981174e-01 -2.479566626020348608e-01 5.165395628177581466e-01
1.615826741400570171e-02 -1.475482199285336159e-02 -7.657325802841566942e-01 8.195757277489981174e-01 -2.479566626020348608e-01 5.165395628177581466e-01
2.997685563269453929e-02 1.810969660720395391e-01 -6.935180808325399626e-01 8.162248765539334983e-01 -2.510132682801827220e-01 5.203549654243887490e-01
3.786693790823356109e-02 3.804899219294551743e-02 -7.600590398037102569e-01 -8.195757277489981174e-01 2.479566626020348608e-01 -5.165395628177581466e-01
2.667717715970274826e-03 4.502495576048566595e-02 -7.156312460743677883e-01 8.195757277489981174e-01 -2.479566626020348608e-01 5.165395628177581466e-01
-6.312006404432889128e-02 -1.102529197503904490e-01 -6.713178326192080769e-01 -8.162085167902589644e-01 2.506530020241594103e-01 -5.205542524034570961e-01
4.903206707309497314e-02 6.253718154492544923e-02 -7.807446195449452286e-01 8.170425769000831950e-01 -2.496955960160873733e-01 5.197052403648075858e-01
2.730090610829548348e-02 -9.879819709459233823e-02 -8.163718566524182929e-01 2.787359833831456468e-01 -8.130098479535526890e-01 -5.111958907287614817e-01
3.644901589833983435e-02 -1.282176824420470096e-01 -8.377396302854701604e-01 -8.229994499976146516e-01 2.465248861466103614e-01 -5.117591091656548130e-01
-5.760135283742343418e-03 -8.142774567254092155e-02 -7.564556726036325562e-01 7.546221208242716028e-01 2.839571038864621699e-01 -5.915351366699118651e-01
-6.283639637704988012e-02 9.068889760185368243e-02 -5.754734497235318713e-01 -8.159335854792350018e-01 2.481257065594480171e-01 -5.221934678176036737e-01
-6.808556559714018519e-02 4.084217315033131235e-02 -5.844202468240489168e-01 -8.202951225249633938e-01 1.383728349725087126e-01 -5.549494305821264239e-01
4.995049718319282198e-03 1.866344874729701231e-01 -6.512066446724126267e-01 8.191064535599837937e-01 -2.513049730924579173e-01 5.156650349164516589e-01
3.011436315058988594e-02 1.483956846894007864e-01 -7.095578927001742198e-01 8.196491866491679712e-01 -2.513315408926505290e-01 5.147889542112215056e-01
-6.812045519510458169e-02 -1.492078951236042450e-01 -6.961389597975814469e-01 8.235592890785390363e-01 -2.438885230865912579e-01 5.121215536170027338e-01
7.288022714466400875e-02 1.400648542529998042e-01 -7.670733537255995937e-01 -8.228923186448062754e-01 2.450502877038426008e-01 -5.126388479345264093e-01
5.711926583366179477e-02 8.866581905021252152e-02 -7.663978277655436600e-01 -8.221217861417421391e-01 2.460652949788499078e-01 -5.133883903616084377e-01
5.760210653197176019e-03 8.756526117124405206e-02 -6.853468862069405088e-01 -8.195757277489981174e-01 2.479566626020348608e-01 -5.165395628177581466e-01
-2.474459291793828369e-02 -1.973436277194795807e-01 -7.881993583347265409e-01 8.214462835697395882e-01 -2.401790562911610138e-01 5.172427129777182886e-01
1.789642911145758117e-02 -2.793256750426538135e-02 -7.600459199086896378e-01 -8.195757277489981174e-01 2.479566626020348608e-01 -5.165395628177581466e-01
5.791811793865139085e-02 -6.500580037843561865e-02 -8.531659155216212431e-01 2.794938285399606870e-01 -8.110142284362317211e-01 -5.139446673349756800e-01
-4.635145379884638567e-02 1.096674613600996141e-02 -6.542033023905688971e-01 8.195757277489981174e-01 -2.479566626020348608e-01 5.165395628177581466e-01
-2.027808099764529665e-02 -1.501892323256546757e-01 -7.729334181082930799e-01 8.195757277489981174e-01 -2.479566626020348608e-01 5.165395628177581466e-01
-2.292440148629596233e-02 -1.991449536348991953e-02 -6.914279496613525700e-01 -8.195757277489981174e-01 2.479566626020348608e-01 -5.165395628177581466e-01
8.893417738840418696e-02 1.477613525306493425e-01 -7.904043833965257448e-01 -8.901813059500335301e-01 1.635470018818036275e-01 -4.252406621109581231e-01
1.311438116120114232e-02 -6.246688430023997207e-02 -7.690360609226271071e-01 -8.195757277489981174e-01 2.479566626020348608e-01 -5.165395628177581466e-01
7.654420581656767864e-02 8.369462592441807847e-02 -7.999134322665418795e-01 -8.226363364565302261e-01 2.456914092912987901e-01 -5.127428101317791365e-01
-1.864526452262391457e-02 5.557773746278912158e-02 -6.564597425200425773e-01 -7.069792341937827240e-01 -4.393280943046378173e-01 -5.542302662011772130e-01
1.691797960906274087e-02 1.743431629062826629e-02 -7.367157910494627204e-01 -8.195757277489981174e-01 2.479566626020348608e-01 -5.165395628177581466e-01
-7.715661901149135915e-02 -6.272001734489315861e-02 -6.210505567648083591e-01 -4.981563859305808140e-01 8.228744868430658554e-01 -2.733455579652674383e-01
6.338935119256808304e-02 1.825806968726858270e-01 -7.452085634379442824e-01 8.056646824045387012e-01 -2.682393312374394823e-01 5.281591433491282794e-01
3.371075661398931222e-02 -8.844262851390953528e-02 -8.352421805177510095e-01 8.326167598080349563e-01 -3.330073254351896828e-01 4.425555925454682793e-01
-6.548919471615287889e-04 1.598698495362839145e-01 -6.552298962919370640e-01 8.195757277489981174e-01 -2.479566626020348608e-01 5.165395628177581466e-01
4.342559116244990719e-02 1.060810379587883712e-01 -7.509913670268020258e-01 8.195757277489981174e-01 -2.479566626020348608e-01 5.165395628177581466e-01
2.366808323344318440e-02 5.499280332493101248e-03 -7.531551761146163537e-01 -8.195757277489981174e-01 2.479566626020348608e-01 -5.165395628177581466e-01
2.744641306579283582e-02 -1.548304278729829148e-02 -7.854084303087016661e-01 -2.125934994185461197e-02 7.106528551368584967e-01 7.032215579217414581e-01
-1.360316350711091547e-02 2.284522974507069704e-01 -6.005621063571007223e-01 8.248297469943736138e-01 -2.630139711993655371e-01 5.004793096893584980e-01
8.579879219235621302e-02 1.290590285381087998e-01 -7.931279331560255885e-01 -8.244756873335624681e-01 2.436620910067655299e-01 -5.107529994058384037e-01
2.327894853397624239e-02 -1.055111367101494724e-01 -8.058265475407091483e-01 -8.195757277489981174e-01 2.479566626020348608e-01 -5.165395628177581466e-01
-7.526206161968626573e-02 4.497050029216768940e-02 -5.915568634257728498e-01 8.226799184945916554e-01 -2.470478593231336673e-01 5.120206118015063756e-01
2.102392614000195975e-02 -5.844591770710044071e-02 -7.944259759830579748e-01 8.195757277489981174e-01 -2.479566626020348608e-01 5.165395628177581466e-01
3.303622704526652104e-02 1.545685667905909444e-01 -6.964950185885606659e-01 -8.228796757427904174e-01 2.453893919672803514e-01 -5.124969127315485151e-01
6.965074379684386974e-02 1.041121136606088654e-01 -7.931478234475827227e-01 8.165024100828893738e-01 -2.503810545916238528e-01 5.202241265362648193e-01
-5.256666068779732026e-02 -8.587171230519337339e-02 -6.761615957148128242e-01 -8.169478279963400258e-01 2.497726254655082689e-01 -5.198171619907610008e-01
-1.493017497068765617e-02 -2.143242619825531381e-01 -8.115823376177793147e-01 8.275102459967349500e-01 -2.144685827647027088e-01 5.188737994708568779e-01
-1.209808054464499814e-02 1.896024790133943871e-01 -6.225588581469295724e-01 8.201833085721473848e-01 -2.517147091229273159e-01 5.137499835044335716e-01
1.861993107690764968e-02 8.788929615093715730e-02 -7.055954186440779319e-01 -8.195757277489981174e-01 2.479566626020348608e-01 -5.165395628177581466e-01
8.848798939316693604e-03 1.306680822171691625e-01 -6.643989373082253014e-01 -9.980171287289628657e-01 3.981323845204345901e-02 -4.875158261592107273e-02
-6.049083910950625066e-03 4.710407404664349040e-02 -7.008025459712542427e-01 8.195757277489981174e-01 -2.479566626020348608e-01 5.165395628177581466e-01
-8.936812117825568887e-04 -3.578073739123598940e-01 -8.866549013802215162e-01 3.514643060023740495e-01 4.051468489480725688e-01 -8.439957774738670038e-01
1.269269193312808595e-02 -5.189303070024216952e-02 -7.780614805227999975e-01 8.195757277489981174e-01 -2.479566626020348608e-01 5.165395628177581466e-01
-3.848764972653660743e-02 -1.549298257557848169e-01 -7.462819950250234591e-01 8.205081008224428540e-01 -2.427435436974447192e-01 5.175345674232346704e-01
-7.050143136000988631e-02 -3.028275342950294269e-02 -6.212989341300462209e-01 -8.165038373809764272e-01 2.497565477944577172e-01 -5.205219979750467241e-01
-1.898114706060863299e-02 -4.942160987298674368e-02 -7.313814137375989066e-01 7.208539720374083082e-01 4.543511477853488523e-01 5.233876054168912217e-01
-2.201714014084236396e-03 -2.426812961595698204e-01 -8.510423613854369851e-01 4.032348368415131223e-01 -3.960136394494040424e-01 8.249696138206764617e-01
-5.227497648150368666e-03 -1.943950072068393320e-01 -8.243999012148260919e-01 7.718834614459055832e-01 -2.751307914363294027e-01 5.731482962985287033e-01
-3.455857605101185503e-02 -1.457396025590097233e-01 -7.424924005875002120e-01 2.749953592046315287e-01 9.123319457521941178e-01 3.033611266723726385e-01
3.686438451278046396e-02 -1.301580872697113145e-01 -8.537095521365674067e-01 8.152612563867035478e-01 -2.489730049466260808e-01 5.228398671128864361e-01
2.169811913116949376e-02 9.081022326902736530e-02 -7.244485937405531484e-01 2.588780162194760925e-01 -8.217022435020761018e-01 -5.077278756794072478e-01
-2.785955139574044712e-02 -1.457116261790080136e-01 -7.394619766295492669e-01 -5.053753271082114251e-01 8.262734511210803046e-01 -2.487327134148790420e-01
4.093598441649856645e-02 1.363815567376336704e-02 -7.766466280484272122e-01 -8.195757277489981174e-01 2.479566626020348608e-01 -5.165395628177581466e-01
1.911656551150641564e-02 -1.640437430748550585e-01 -8.274128015089790011e-01 -8.209397692153094228e-01 2.518903831426371198e-01 -5.124540274024296238e-01
9.034200791843480238e-02 -1.891096225546660655e-03 -8.638498030400864058e-01 -8.482986073013215611e-01 2.371390006864422251e-01 -4.734496459013077252e-01
-2.755237000816029326e-03 -3.974569247491973045e-01 -9.066187696168435117e-01 3.395005046362898904e-01 4.108632390778633736e-01 -8.461269444510977067e-01
8.694401828598279092e-02 9.378181150236991614e-02 -8.243381576489736684e-01 7.905794315649494752e-01 -2.687199571178031654e-01 5.502488046629884222e-01
6.605435246575502850e-02 1.183482398687515785e-01 -7.664973200526098429e-01 -8.228923186448062754e-01 2.450502877038426008e-01 -5.126388479345264093e-01
-2.849933700706743650e-02 -1.292693128986647788e-01 -7.498467542041765688e-01 8.195757277489981174e-01 -2.479566626020348608e-01 5.165395628177581466e-01
-3.574802005831123532e-03 -7.935900031199151494e-02 -7.654350071738114103e-01 8.195757277489981174e-01 -2.479566626020348608e-01 5.165395628177581466e-01
-6.408601346069394376e-03 6.373349562217271724e-02 -6.987447388974957763e-01 8.344032959200677890e-01 -2.385154351958169994e-01 4.968717409262450868e-01
1.448297094940679229e-02 1.086342139044140093e-01 -7.038434856956423680e-01 8.195757277489981174e-01 -2.479566626020348608e-01 5.165395628177581466e-01
4.921237747269288643e-02 4.560092116940379220e-02 -7.744352779798434616e-01 -8.195757277489981174e-01 2.479566626020348608e-01 -5.165395628177581466e-01
2.502204922220388136e-02 -1.256957055244763977e-01 -8.182815496305013703e-01 -8.195757277489981174e-01 2.479566626020348608e-01 -5.165395628177581466e-01
-2.804423084884472006e-02 -1.751001080216191830e-01 -7.578797593441916058e-01 -8.161219888713023840e-01 2.507821240235795779e-01 -5.206277226108610989e-01
3.621546788778699094e-02 -1.701925254144733696e-02 -7.986436611386314999e-01 8.195757277489981174e-01 -2.479566626020348608e-01 5.165395628177581466e-01
7.746712444746685355e-02 -3.844943435071861843e-02 -8.730343146324553993e-01 7.834372019227179296e-01 -2.497695282052414256e-01 5.690705873822979877e-01
-6.911092378262057023e-02 -1.851261303911577207e-03 -6.239846407010581908e-01 8.226079637965968416e-01 -2.463532107776765789e-01 5.124707147125059370e-01
3.017183287895583085e-02 -1.151034618825934053e-01 -8.360853735663049680e-01 8.186195575055168483e-01 -2.439125765706884053e-01 5.199698789931199716e-01
4.276764448203621005e-02 1.369626753470887803e-01 -7.203528719121637947e-01 -8.195757277489981174e-01 2.479566626020348608e-01 -5.165395628177581466e-01
3.828758226767852574e-02 1.819497169487738486e-01 -7.061858801019532672e-01 8.193109238266239602e-01 -2.516322165938156830e-01 5.151803933288289228e-01
5.501732252144534048e-03 -1.534765405259593263e-01 -7.933190699918268862e-01 -7.719592323187421945e-01 2.750909757655312093e-01 -5.730653528963568499e-01
8.686966028548339866e-03 -3.627183565746739946e-01 -9.000428265256178451e-01 -9.979744033574151629e-01 3.311534502350808873e-02 -5.431817529505893194e-02
5.233007402077288067e-02 -1.111592227919358800e-01 -8.688837743337147757e-01 8.092101214402394049e-01 -2.461481295474857167e-01 5.334698470194420006e-01
-8.418137960056357172e-02 5.553042383037114921e-02 -5.712238286282987909e-01 8.479415410501400796e-01 -2.463924011333090414e-01 4.693462768844297583e-01
-8.695881150588323505e-02 -9.458918053203077547e-02 -6.393581665904721767e-01 8.346989907318492774e-01 -2.344028294966358228e-01 4.983301198956403000e-01
-3.237477175812245034e-02 -1.050232617908351540e-01 -7.172884888146405791e-01 -8.195757277489981174e-01 2.479566626020348608e-01 -5.165395628177581466e-01
-3.061444027209566168e-02 -1.573296165982489558e-01 -7.452329219508848634e-01 -8.186151369802653344e-01 2.531863359596890350e-01 -5.155249138403387166e-01
-1.667993704972458441e-03 -2.330683695673431421e-01 -8.466887035493017022e-01 4.032348368415131223e-01 -3.960136394494040424e-01 8.249696138206764617e-01
-3.738469740203517744e-02 4.001426711229053718e-03 -6.570038299050523500e-01 -8.195757277489981174e-01 2.479566626020348608e-01 -5.165395628177581466e-01
7.783195441896534339e-02 2.676658505924989911e-02 -8.292990964336991455e-01 -8.226697112536056622e-01 2.461230229130287606e-01 -5.124821984987008028e-01
-5.516889842378674275e-02 -1.582454883400200019e-01 -7.212544168666890076e-01 8.229247168262706635e-01 -2.442446208737514279e-01 5.129712229849152649e-01
3.122235475605003932e-02 8.297979083967652048e-02 -7.208186733075753194e-01 -8.079946446931138837e-01 1.820941475957819355e-01 -5.603448719838648451e-01
-1.653971796915568518e-02 -1.581103230013069239e-01 -7.678970348774685206e-01 -8.195757277489981174e-01 2.479566626020348608e-01 -5.165395628177581466e-01
-4.479558901489275394e-03 -6.881745240648197426e-02 -7.494231152107446725e-01 3.514643060023741050e-01 4.051468489480725688e-01 -8.439957774738670038e-01
6.146309319851845504e-03 -2.436670478922089156e-01 -8.503177243780012384e-01 -7.585712656726413261e-01 -2.819796056731279088e-01 5.874156423523585469e-01
-8.226227938168095832e-02 7.601233939091693592e-02 -5.633866971170050642e-01 9.158228276714970306e-01 -2.395288352575810908e-01 3.223266749680049892e-01
1.740224792003689652e-02 -8.887929154499964179e-02 -8.032886431925010395e-01 8.195757277489981174e-01 -2.479566626020348608e-01 5.165395628177581466e-01
2.069763840184215761e-02 -2.808519582397246347e-02 -7.645637700783594060e-01 -8.195757277489981174e-01 2.479566626020348608e-01 -5.165395628177581466e-01
-8.435667238998781695e-03 1.954377284331197950e-01 -6.113811467710374981e-01 -8.189527777884315629e-01 2.442102123892875842e-01 -5.193050355209265501e-01
-5.837924106665452056e-02 -8.414275584279957976e-02 -6.806765066516740070e-01 8.221746325943687372e-01 -2.461437955427977220e-01 5.132661156107037881e-01
-4.708091705521598447e-02 1.617165638810190986e-01 -5.800716754915551387e-01 8.250293641601120775e-01 -2.532344267778517399e-01 5.051721225167259410e-01
4.584149377730577929e-02 1.762270572567213867e-01 -7.065783202069918500e-01 -8.198290103455164735e-01 2.442604740122915064e-01 -5.178969150624299633e-01
2.110498615184101118e-02 -6.823101501553871170e-03 -7.697738731842179716e-01 8.195757277489981174e-01 -2.479566626020348608e-01 5.165395628177581466e-01
-4.539043841438375471e-02 5.444683737147241326e-03 -6.436085806156375266e-01 -8.195757277489981174e-01 2.479566626020348608e-01 -5.165395628177581466e-01
-7.224339371882618210e-03 1.275139430163085563e-01 -6.664915083028785103e-01 8.621722538948959347e-01 -2.192408547256638751e-01 4.567192269140368799e-01
-2.016190051925514839e-03 -3.579364176245124901e-02 -7.469951410527237989e-01 8.195757277489981174e-01 -2.479566626020348608e-01 5.165395628177581466e-01
-7.574745168051022493e-02 -3.678941116751854173e-02 -6.301183942635421031e-01 8.226378572636914299e-01 -2.461411499319621499e-01 5.125246239028654616e-01
4.412500837706717985e-03 7.518885172612707612e-02 -6.984205395339502243e-01 -3.571121288819019135e-01 -4.042208545269377340e-01 8.420667599252141811e-01
5.421149148488009495e-02 -7.228265584469452387e-02 -8.600144686969297680e-01 7.886750044186565667e-01 -1.552488573521061399e-01 5.948861485159133711e-01
5.581791477244066324e-02 -7.408936237285025650e-02 -8.568693577925463600e-01 8.155495998482925613e-01 -2.488466248842588768e-01 5.224501961632351810e-01
2.420014912793657866e-02 -5.847949460097917607e-02 -7.847113878278926258e-01 -8.195757277489981174e-01 2.479566626020348608e-01 -5.165395628177581466e-01
4.940993649104046676e-02 1.164852912600454066e-01 -7.407261709567588559e-01 -8.221919565594107970e-01 2.458519138639010670e-01 -5.133782455640919506e-01
-1.275980427269713703e-02 -1.392767404671720055e-01 -7.576022425802139137e-01 -8.132226515052087823e-01 2.850447082570093937e-01 -5.073642019038335782e-01
-3.870139915777959239e-02 1.957953060086738417e-01 -5.745005037596428998e-01 6.321009739308299791e-01 -5.370206421364548399e-01 -5.586207914811671671e-01
6.405105588181747578e-03 -1.717149341186157419e-01 -8.033732399487633069e-01 -8.621118645877061670e-01 2.192853239770334028e-01 -4.568118645847499826e-01
8.776289683525647159e-03 -6.970882203818484779e-02 -7.605303998072052707e-01 -9.979279256634370210e-01 2.784426819642810830e-02 -5.800475764689271702e-02
-7.776445678028343078e-02 9.078556362862191809e-02 -5.642452018377176470e-01 8.565867190164806466e-01 -2.526248709062122177e-01 4.499331810438084722e-01
1.720283483438681676e-02 1.386548152011251624e-02 -7.536512349483835971e-01 8.195757277489981174e-01 -2.479566626020348608e-01 5.165395628177581466e-01
-4.273710413838079786e-02 -1.421615834681000667e-01 -7.334449050830931238e-01 8.195757277489981174e-01 -2.479566626020348608e-01 5.165395628177581466e-01
4.924903322155696657e-03 -1.510105040270408872e-01 -7.985460622460286428e-01 -8.195757277489981174e-01 2.479566626020348608e-01 -5.165395628177581466e-01
-7.079663557000380643e-03 -1.156348157648481312e-01 -7.834843433431323279e-01 8.621722538948958237e-01 -2.192408547256638474e-01 4.567192269140368244e-01
-7.228434767279942434e-03 8.540061725807891746e-02 -6.657773481305369057e-01 -8.195757277489981174e-01 2.479566626020348608e-01 -5.165395628177581466e-01
1.806706018261397192e-02 -1.161575896801930463e-01 -8.170548922636684530e-01 -4.637607078551150841e-02 7.382611383733261867e-01 6.729188298942287982e-01
-6.665668330616925781e-08 6.719364931022459237e-04 -7.326893301969151784e-01 8.195757277489981174e-01 -2.479566626020348608e-01 5.165395628177581466e-01
4.624552219865761538e-03 2.058756230342661808e-01 -6.412292088600232143e-01 8.186541396466756604e-01 -2.524398170404377195e-01 5.158289817487493600e-01
-6.792396048755931781e-02 -9.451822897129984191e-02 -6.562063490862557469e-01 -8.162989107554390333e-01 2.507268715181180663e-01 -5.203769059040005418e-01
8.556827785346032486e-03 -1.247077458400835254e-01 -8.064528002614150815e-01 8.195757277489981174e-01 -2.479566626020348608e-01 5.165395628177581466e-01
7.927493662336256020e-02 -2.719068923856687858e-02 -8.576275386581145854e-01 -8.252680532442947525e-01 2.463846043911362416e-01 -5.081606704708613309e-01
