3.230464538561237525e-02 9.500080465836766019e-02 -9.145952678057323038e-01 3.157614343112100097e-01 -4.446850554082155682e-01 8.381825088238955557e-01
-4.654486531922860659e-02 3.099907990856693232e-02 -9.097437300612652988e-01 -3.157614343112100097e-01 4.446850554082155682e-01 -8.381825088238955557e-01
-7.912072525395924538e-02 1.128235379005404632e-01 -8.631168746950104165e-01 3.207183686918273491e-01 -4.445797047487852205e-01 8.363543591738706873e-01
-3.939433063361289303e-03 -2.025316699634899797e-01 -1.046605045049174842e+00 2.226003721816021408e-01 4.569036311895602887e-01 -8.612131827314342125e-01
1.432633676910395892e-01 -3.015400082666482712e-02 -1.021747982912214692e+00 2.641742229821865684e-01 -4.443267185321931878e-01 8.560290573982706208e-01
9.076967462528940517e-03 -9.960985223425478097e-02 -1.004213891935256342e+00 -8.439396502442400028e-01 -2.514084225160337360e-01 4.738772750761839903e-01
1.543709317142788195e-01 1.230619610272929744e-02 -1.001329540623558945e+00 -9.484549551090004638e-01 -1.228071727658477941e-01 2.921499554106467555e-01
3.639148406643577527e-02 -7.730857256542666978e-02 -9.984486294087963065e-01 -3.157614343112100097e-01 4.446850554082155682e-01 -8.381825088238955557e-01
-1.497898554968923601e-01 -5.764146133658417520e-02 -9.189080695608665694e-01 -1.745827533651561070e-01 4.735817216133729746e-01 -8.632735459755239704e-01
5.979164921589386061e-02 -2.570713883663499830e-02 -9.798876160944660629e-01 -3.157614343112100097e-01 4.446850554082155682e-01 -8.381825088238955557e-01
1.334574698846346670e-04 1.362086028950513228e-01 -8.715111398243845509e-01 -3.157614343112100097e-01 4.446850554082155682e-01 -8.381825088238955557e-01
7.996054794276306887e-02 -1.422815265029164500e-01 -1.058123429160921836e+00 3.025326013634000444e-01 -4.370281887387240660e-01 8.470421402504390018e-01
-1.127353487556210232e-01 -1.181241783420085012e-01 -9.642039461297366998e-01 -3.095794702089625927e-01 4.474274199585343004e-01 -8.390287572511372360e-01
-3.444547920210818542e-02 1.445401321761800861e-01 -8.631667146820216630e-01 3.157614343112100097e-01 -4.446850554082155682e-01 8.381825088238955557e-01
-7.260577357084115058e-02 1.512950454748664686e-01 -8.494696953502811620e-01 3.281682924280182045e-01 -4.480466586454032729e-01 8.316007236177517248e-01
8.326435715870729448e-02 7.548651136467178502e-02 -9.350611550457205157e-01 -3.199881109748086150e-01 4.437193207618883029e-01 -8.370906600944620912e-01
3.175912493166341971e-02 6.313625122563301661e-02 -9.182560451368061427e-01 -3.855559471676208716e-01 8.844498788832216851e-01 -2.628593223515822142e-01
-1.432505332405777376e-01 -1.326962083650987806e-02 -9.052517601172821449e-01 3.394559729707343210e-01 -4.412522664888545165e-01 8.307021606646639578e-01
1.163754077274425508e-01 -5.506387354698162075e-03 -9.993770171367908350e-01 3.105134092964376702e-01 -4.451257951300334192e-01 8.399074051090147375e-01
-7.193352075230367848e-02 -1.884711027546215889e-01 -1.017062483839266340e+00 -2.825802610381087931e-01 4.814529176497926444e-01 -8.296695029697885859e-01
-5.731046229361326516e-02 1.457826738841730141e-01 -8.579900115166942953e-01 3.383779855299866024e-01 -3.217271768814284894e-01 8.843030942864411603e-01
-2.556366036262130298e-02 1.245959666122337106e-01 -8.770937629108166433e-01 3.157614343112100097e-01 -4.446850554082155682e-01 8.381825088238955557e-01
-4.497931065330941502e-02 1.874225437977921072e-01 -8.275933016161785005e-01 -3.134492457584581171e-01 4.404616923128316652e-01 -8.412746685467061836e-01
1.445802239496857544e-01 3.760441704539500829e-02 -9.786723126468065415e-01 -3.237655444735666466e-01 4.432430808380820597e-01 -8.358896120307395261e-01
1.694561615891894066e-02 2.436491110221904455e-01 -8.283841541323445634e-01 2.283547754515226069e-01 -5.898434450255004569e-01 7.745571682509524436e-01
-2.742537314293120101e-02 2.122843269858681048e-01 -8.211487135099847512e-01 -3.119564876706655832e-01 4.387404957478701628e-01 -8.427276708350657231e-01
-1.105173761900549688e-02 2.079118416973499417e-01 -8.295254534786098422e-01 -3.142613303779250855e-01 4.410999634632227773e-01 -8.406370432367585854e-01
1.097253406634668416e-01 -1.179275236765869594e-01 -1.055788785685438880e+00 2.340575831077929270e-01 -4.109336932640874629e-01 8.811075686487295222e-01
-1.227054083714138044e-01 7.174273774030283379e-02 -8.682443370344874456e-01 3.209180494436822406e-01 -4.448769656925738447e-01 8.361196630491539716e-01
6.222425400486147895e-02 7.158150012253805539e-02 -9.291890145589843941e-01 -3.157614343112100097e-01 4.446850554082155682e-01 -8.381825088238955557e-01
6.035560297961406473e-02 4.077579381824725235e-02 -9.448285550514807785e-01 -3.157614343112100097e-01 4.446850554082155682e-01 -8.381825088238955557e-01
5.598101297480904265e-02 -1.152621723564026535e-01 -1.035066509224311204e+00 3.157614343112100097e-01 -4.446850554082155682e-01 8.381825088238955557e-01
-4.054195947096243813e-02 6.685644101573327835e-02 -9.057282257424872363e-01 8.182921771270602884e-02 -9.311856371820956824e-01 3.552425766068885715e-01
1.068737767249134524e-01 -1.433404889928666277e-02 -1.000543591974077051e+00 3.104463818998676183e-01 -4.452002660797672595e-01 8.398927116291616812e-01
-1.283218786188971283e-01 -4.626704586442165895e-02 -9.287508673053209707e-01 3.209997618865014779e-01 -4.434902920168029561e-01 8.368246612974908905e-01
-2.925682454987193343e-02 6.332733372444401820e-02 -9.082076149836456613e-01 3.157614343112100097e-01 -4.446850554082155682e-01 8.381825088238955557e-01
1.096239253599263922e-03 2.391043603567752640e-01 -8.255180298476408884e-01 3.107260248838792371e-01 -4.799640805541093846e-01 8.204168567488795416e-01
-8.987995817030457538e-03 -2.083729232548097443e-01 -1.055794285091243623e+00 9.970900193425317193e-01 3.572761742714961747e-02 -6.734263642365556635e-02
-8.618345041704757181e-02 -1.060137136737500929e-01 -9.765465340193764110e-01 3.205746718510603110e-01 -4.433437875794402627e-01 8.370652099940012469e-01
-5.793532239151275021e-02 -2.701583137050894354e-02 -9.362316330421881494e-01 -3.157614343112100097e-01 4.446850554082155682e-01 -8.381825088238955557e-01
6.564783177538169312e-02 -2.175317625137617936e-02 -9.799960513484919922e-01 -3.157614343112100097e-01 4.446850554082155682e-01 -8.381825088238955557e-01
3.743355060903675452e-02 6.542883023335439863e-02 -9.189573021986334744e-01 -3.346877677829351305e-01 5.047487199223456011e-01 -7.957467108529128197e-01
6.310051435024929822e-03 -2.237366164671584501e-01 -1.074962162096975593e+00 -2.224844351929626818e-01 -4.569160341298609818e-01 8.612365609122200061e-01
-9.892265354254581311e-03 -7.713660671397887247e-02 -9.809213085784306285e-01 -3.157614343112100097e-01 4.446850554082155682e-01 -8.381825088238955557e-01
1.028084721021377962e-01 1.367931853149711441e-01 -9.187598232557602218e-01 3.096993042305258848e-01 -4.468625733436263903e-01 8.392855184642711297e-01
-4.650275066900802501e-02 7.337178141948497156e-02 -8.872793995144019341e-01 -3.157614343112100097e-01 4.446850554082155682e-01 -8.381825088238955557e-01
-1.179282952845391447e-01 6.893634648842346391e-02 -8.715710864956234261e-01 3.209180494436822406e-01 -4.448769656925738447e-01 8.361196630491539716e-01
9.384423846124792870e-03 -2.953783254836312988e-01 -1.103432108869082384e+00 -9.975322479833015343e-01 -3.290469282828358683e-02 6.202173347510439583e-02
7.698660040368561497e-02 -1.674194746749774476e-01 -1.062301342256702696e+00 -3.690569480095806654e-01 4.881090833564532550e-01 -7.909149713280034799e-01
7.157363422266815878e-02 -7.684070536989240363e-02 -1.011454284538739756e+00 -3.157614343112100097e-01 4.446850554082155682e-01 -8.381825088238955557e-01
-2.902369683892810914e-02 -8.173571953762143183e-02 -9.761540753527888636e-01 -3.157614343112100097e-01 4.446850554082155682e-01 -8.381825088238955557e-01
9.504195349044227119e-04 -2.400514329138436764e-01 -1.084255767560275974e+00 2.400207766791922215e-01 -4.549624188726512641e-01 8.575542106338606141e-01
-1.195584166808352222e-01 -7.219906111563313689e-02 -9.458504947544705832e-01 3.211847447849239257e-01 -4.430884183900087314e-01 8.369665544130685531e-01
9.036532339982061499e-03 -2.704659103148363553e-01 -1.088582171340847671e+00 -7.623134349406157639e-01 3.033221158753516278e-01 -5.717288876118986618e-01
-5.743364498544073493e-02 -1.745786935440356569e-01 -1.023677016074328261e+00 3.183473650682921430e-01 -4.392888958767260932e-01 8.400477493056466294e-01
5.383732278380669659e-03 -9.153634521473621999e-02 -1.005064604574089859e+00 -2.224844351929627373e-01 -4.569160341298610373e-01 8.612365609122201171e-01
9.428065755542759663e-02 1.777509083317959093e-01 -8.902642453562781277e-01 -5.926397598063994909e-01 -6.761351247574390877e-01 4.377435415467089141e-01
8.798877398954738083e-02 1.281357598429077871e-01 -9.178862044331552728e-01 3.112732675879526512e-01 -4.462994952001113069e-01 8.390028089757773921e-01
-1.000359122944743800e-01 1.446444126483422965e-01 -8.379198724255185748e-01 3.447016223749421737e-01 -4.524018121488005972e-01 8.225043415670001412e-01
1.449280255373549264e-01 -1.345443126326232794e-02 -1.013599178200035089e+00 2.669571165898489973e-01 -4.478057619939023182e-01 8.533486376781148630e-01
-5.850337518909234751e-03 -1.032970928411587330e-01 -1.009091355522185651e+00 3.895388344107819090e-01 -4.316428473816164013e-01 8.135993785581329130e-01
7.885508756751172244e-02 1.663467665081761471e-01 -8.941299152783033222e-01 3.151948948307637943e-01 -4.492948801919555146e-01 8.359343807416466099e-01
-3.691660774474943979e-02 -1.047811920243103267e-01 -9.945094456679328676e-01 3.157614343112100097e-01 -4.446850554082155682e-01 8.381825088238955557e-01
-1.094212758209254233e-01 1.277196375504341353e-03 -9.107814485176776165e-01 3.199666600114844939e-01 -4.440979311735492319e-01 8.368980607030158669e-01
-2.789944911825170334e-02 1.700016762168763129e-01 -8.520502914229486358e-01 3.166376588896698818e-01 -4.477460813580413923e-01 8.362200904076553254e-01
2.217183860054039793e-02 -1.715242381720276377e-01 -1.052078465653763839e+00 3.139827893885849819e-01 -4.403148331182253350e-01 8.411525757577117401e-01
-5.364084929857877715e-02 6.883192835103175977e-02 -8.976029160490246461e-01 8.647903111300735135e-02 -9.254154161455023786e-01 3.689548546069051360e-01
1.281820591108506491e-01 1.498291635859397009e-01 -9.134451507827169303e-01 -4.552404059658955449e-01 3.514847529802732073e-01 -8.180554022793340430e-01
6.867595176066082496e-02 2.012097838357485360e-02 -9.589211099386747428e-01 -3.157614343112100097e-01 4.446850554082155682e-01 -8.381825088238955557e-01
-1.219340775326649834e-01 1.167670768697402911e-01 -8.366541672597085366e-01 -2.599067013936195991e-01 4.276805147815603281e-01 -8.657585597883902251e-01
1.031231449289716912e-01 -4.146114580756323637e-02 -1.004695965782028688e+00 -3.201752291820381124e-01 4.444785250364430840e-01 -8.366161983846938099e-01
3.833145239489289553e-03 -3.828103627280149412e-01 -1.144048437476076874e+00 -3.659240373033830762e-01 4.436874037340264310e-01 -8.180715657516468564e-01
-1.587998816482389872e-02 1.597825205650306446e-01 -8.530007876676030110e-01 -3.154453094753610354e-01 4.415419089286088949e-01 -8.399613082694189492e-01
1.210656529840523493e-01 -9.191755297688623816e-02 -1.046405841746384180e+00 2.500414914440730607e-01 -4.262466527981355058e-01 8.693635853512667877e-01
-6.949954906831999624e-03 1.289020022249261904e-02 -9.433697525242877857e-01 3.157614343112100097e-01 -4.446850554082155682e-01 8.381825088238955557e-01
1.022850463245970204e-02 8.854325466289300617e-02 -9.097046648074849085e-01 3.157614343112100097e-01 -4.446850554082155682e-01 8.381825088238955557e-01
9.206206892270175912e-03 1.525811184680217758e-01 -8.703686171585591769e-01 -9.975217498726789422e-01 -4.085818628469291974e-02 5.727972716829055760e-02
-1.215335467621986715e-01 -1.261525615095749620e-01 -9.733424004273202312e-01 3.475015410546593020e-01 -4.301712139253144329e-01 8.331838966726723417e-01
5.773650901758851928e-02 -1.813441188009492500e-01 -1.069737460932365991e+00 2.536826892814542656e-01 -3.809870940473692458e-01 8.890972541450513633e-01
2.596662233871602915e-02 -5.227020410546621282e-02 -9.903400045138122110e-01 3.157614343112100097e-01 -4.446850554082155682e-01 8.381825088238955557e-01
1.249205989550794399e-01 6.165785508687654515e-02 -9.583337947131858048e-01 -3.208448524625402976e-01 4.435325390190965056e-01 -8.368616776263352319e-01
-5.037765253317724734e-02 -7.139788039894662264e-02 -9.626249953146852611e-01 -3.157614343112100097e-01 4.446850554082155682e-01 -8.381825088238955557e-01
-8.985347736987414971e-03 -2.301240353930601445e-01 -1.067294800664124743e+00 9.970900193425317193e-01 3.572761742714961747e-02 -6.734263642365556635e-02
-9.052477911920868425e-02 -1.217512522893309940e-01 -9.832076834555153466e-01 3.207492316964146717e-01 -4.427324439171451687e-01 8.373218696948694362e-01
-1.119963794090797493e-01 -5.068468179821526004e-02 -9.286078071378431886e-01 -3.104705629343149642e-01 4.458071471286635945e-01 -8.395618006557061808e-01
1.446818879394358992e-01 2.989886055074967089e-02 -9.906913142263781280e-01 2.684373881067474987e-01 -4.502186179960150358e-01 8.516129195099061411e-01
-7.937982635514444218e-02 6.313069653343150733e-02 -8.927107275325572022e-01 3.822146354131668589e-01 2.658084397777966679e-01 8.850185567652655294e-01
-1.194170870092019221e-02 2.208734713710248654e-01 -8.224212082574023919e-01 -3.127402806143749214e-01 4.391064139852734471e-01 -8.422464449780929785e-01
2.175788811292272973e-02 -4.991224295586860205e-02 -9.784011297044681310e-01 -3.157614343112100097e-01 4.446850554082155682e-01 -8.381825088238955557e-01
-5.451636988298071834e-02 -8.850993131224318966e-02 -9.792467642436191166e-01 3.157614343112100097e-01 -4.446850554082155682e-01 8.381825088238955557e-01
-1.881194394253346558e-02 -1.514699330081836423e-02 -9.446734212028918831e-01 -3.157614343112100097e-01 4.446850554082155682e-01 -8.381825088238955557e-01
8.259734680519889571e-02 -1.150278300251353913e-01 -1.044859257918157480e+00 3.101839561035765191e-01 -4.439535835784967355e-01 8.406492306567260320e-01
-7.894941894720465536e-02 7.842424944331082004e-02 -8.724021958303741497e-01 -3.112166075696428669e-01 4.447102107954692407e-01 -8.398672821268203803e-01
6.588910640911720129e-02 -2.752033360695858161e-02 -9.922489960288063404e-01 3.157614343112100097e-01 -4.446850554082155682e-01 8.381825088238955557e-01
-4.239581971367669538e-02 -1.679775808625051103e-01 -1.025922308306424391e+00 3.177581015075694459e-01 -4.394598158285323297e-01 8.401814442120568716e-01
9.105203065154587883e-02 9.122384350148031451e-02 -9.297007737047159326e-01 -3.201049790413611484e-01 4.435347245484811962e-01 -8.371438051569354277e-01
1.223296457293754358e-02 1.446099855379715804e-01 -8.716120586700483175e-01 -3.157614343112100097e-01 4.446850554082155682e-01 -8.381825088238955557e-01
1.192818416343280341e-01 3.714707037541539053e-02 -9.778267884920366360e-01 3.106660688228930489e-01 -4.455620988984904107e-01 8.396195624848800110e-01
3.032951943142879817e-02 2.205006151154405569e-01 -8.468184629467122582e-01 3.058504141701683388e-01 -4.679097691524331526e-01 8.291658290617462956e-01
-9.482035672877310931e-03 -1.954841281329872116e-01 -1.044043849282819680e+00 -3.136369820080891491e-01 4.507935868070673258e-01 -8.357134590339423408e-01
3.728046806939214891e-02 5.352937495979700339e-02 -9.384718074736343452e-01 3.157614343112100097e-01 -4.446850554082155682e-01 8.381825088238955557e-01
6.133913539590683806e-02 -1.595197969922338421e-01 -1.051612479270597866e+00 -3.157614343112100097e-01 4.446850554082155682e-01 -8.381825088238955557e-01
-1.928171899093936159e-02 9.301351937845819817e-02 -8.871135223634973865e-01 -3.157614343112100097e-01 4.446850554082155682e-01 -8.381825088238955557e-01
9.573819248589911582e-03 -1.687755797477788755e-01 -1.045937749598575106e+00 3.143756287013836914e-01 -4.404316754281963342e-01 8.409446494021599605e-01
-8.752572302155232908e-02 5.676463604375511784e-02 -8.896937005814343769e-01 3.200893419136673357e-01 -4.444509398171683223e-01 8.366637169669252083e-01
1.171046308157040056e-02 1.040990494343770750e-02 -9.517154177210900290e-01 3.157614343112100097e-01 -4.446850554082155682e-01 8.381825088238955557e-01
2.415434798510687417e-02 -2.642230696455876576e-02 -9.753001796760885078e-01 3.258178199797994723e-01 -8.754312387057521239e-01 -3.570194595280814509e-01
-2.688572016242762527e-03 -1.358953187401565066e-01 -1.010266761771528188e+00 -2.921042085643422714e-01 4.822315362708768371e-01 -8.259103321576920509e-01
1.529664371988301991e-02 1.687964006685376273e-01 -8.599812651720183387e-01 -3.165318424568219768e-01 4.415473275664411057e-01 -8.395496115357471423e-01
3.467440443701487462e-02 -3.335688591665467162e-02 -9.699656832288853225e-01 -2.995392510435587741e-01 3.812252604550349644e-01 -8.746105063828439885e-01
6.529404946436972133e-03 -2.601922477754941010e-01 -1.093945470135199827e+00 -8.439396502442398917e-01 -2.514084225160337360e-01 4.738772750761839903e-01
-5.025825486987058749e-02 2.035188845629325449e-01 -8.172840034807831167e-01 -2.879755955808955270e-01 4.057982163226958594e-01 -8.674087064234178301e-01
-1.112678284278504487e-01 5.965273925321198240e-02 -8.672969698306863817e-01 -7.317488577015193729e-02 9.284287543330081993e-01 -3.642327335923882803e-01
4.152839212952663672e-02 3.814801959276459264e-02 -9.391300644187591251e-01 -3.157614343112100097e-01 4.446850554082155682e-01 -8.381825088238955557e-01
1.434979615939599717e-01 5.331861894711681371e-02 -9.778578968008079242e-01 2.916941483403453494e-01 -4.488072206295532496e-01 8.446813615410110332e-01
7.019234181195853350e-02 -1.468761424559517637e-01 -1.048239773407515729e+00 -3.157614343112100097e-01 4.446850554082155682e-01 -8.381825088238955557e-01
-7.536979128354526214e-02 -3.581223558242334348e-02 -9.467939067395101382e-01 4.116804192878317226e-01 2.565282577536145414e-01 8.744784075944302959e-01
3.975677063297069352e-02 2.310702718866113614e-01 -8.370023509551128837e-01 -3.459309850005314324e-01 3.964130998020863328e-01 -8.504048494228282351e-01
-1.320904401890768409e-01 7.049218872163826033e-02 -8.612137650102700270e-01 5.193876362192522134e-01 -7.693337411217947563e-01 -3.719705339326232485e-01
2.331634603662680050e-02 3.108239942751290022e-02 -9.360177516779242257e-01 -3.157614343112100097e-01 4.446850554082155682e-01 -8.381825088238955557e-01
-6.546044492246978763e-02 -1.721521492925877084e-01 -1.010546245238740815e+00 -3.157614343112100097e-01 4.446850554082155682e-01 -8.381825088238955557e-01
6.505255184558750292e-02 2.102141531872936744e-02 -9.570783838182803649e-01 -3.157614343112100097e-01 4.446850554082155682e-01 -8.381825088238955557e-01
1.063750330064106020e-02 -4.073422122054964900e-02 -9.693425801852464385e-01 -3.157614343112100097e-01 4.446850554082155682e-01 -8.381825088238955557e-01
2.190105597745128918e-02 -1.383514326153664764e-01 -1.025375138860885160e+00 -3.157614343112100097e-01 4.446850554082155682e-01 -8.381825088238955557e-01
-1.212077163143584629e-01 -1.024722979540435841e-01 -9.527423589790159353e-01 -3.062470567691688017e-01 4.480942076723147260e-01 -8.398954228180686155e-01
1.276746062135097337e-01 3.336758216212273864e-02 -9.743886612508466660e-01 -3.208246086054438728e-01 4.437992799117795872e-01 -8.367280141497293044e-01
2.667801910031952425e-02 -2.845906759663217878e-02 -9.819990122768551544e-01 3.355521639606994233e-01 -5.053985264933189558e-01 7.949698577176834702e-01
-4.049134162319231039e-02 -1.483953271679036290e-01 -1.016301586178955940e+00 3.157614343112100097e-01 -4.446850554082155682e-01 8.381825088238955557e-01
6.579460431260326925e-02 1.454357471052096229e-01 -9.004097059709433859e-01 3.158906117276152892e-01 -4.480182386396181493e-01 8.363568492387726261e-01
6.874173321767183820e-02 -1.544038558262944560e-01 -1.051687012351795625e+00 -3.157614343112100097e-01 4.446850554082155682e-01 -8.381825088238955557e-01
-2.298579755444762202e-02 1.487768020788223650e-02 -9.362742771837552214e-01 3.157614343112100097e-01 -4.446850554082155682e-01 8.381825088238955557e-01
1.300009863526959131e-01 -5.326338825841353541e-02 -1.029447448372671436e+00 2.887230269733418453e-01 -4.423991129906535424e-01 8.490712799997618410e-01
2.031564783744480712e-02 -1.311166088182505185e-01 -1.030041928240852611e+00 3.157614343112100097e-01 -4.446850554082155682e-01 8.381825088238955557e-01
9.502439093250124313e-02 8.071484149465178726e-02 -9.367876610511602919e-01 -3.201090883540788079e-01 4.435535849555369836e-01 -8.371322409429778899e-01
3.697446250498218762e-02 9.214575653233911257e-02 -9.178691912732476199e-01 3.157614343112100097e-01 -4.446850554082155682e-01 8.381825088238955557e-01
-1.112149242494946261e-01 -8.814833791853635137e-02 -9.488027521214718041e-01 -3.100455659705237399e-01 4.467401688136710125e-01 -8.392228360753479777e-01
5.243943068419239240e-02 -1.160667626390287366e-01 -1.027679864605198112e+00 -2.939916266112155285e-01 8.734328386037781833e-01 3.881803703576961473e-01
1.835868492312064948e-02 2.157826089862950880e-01 -8.449805482179048033e-01 3.142464573972335584e-01 -4.487579557562216270e-01 8.365796203343623949e-01
6.497940855497237947e-03 6.260331866664374002e-03 -9.526391183619592473e-01 -8.439396502442398917e-01 -2.514084225160336805e-01 4.738772750761839347e-01
-8.652512505509513119e-02 -1.220142054588843478e-01 -9.888866722397612330e-01 3.382258759399824899e-01 -3.409725937096994008e-01 8.771208281551133856e-01
-3.943111363315442847e-02 1.101315289659627883e-01 -8.795434827506097841e-01 3.157614343112100097e-01 -4.446850554082155682e-01 8.381825088238955557e-01
-1.191703611339140906e-01 -6.869847846808933844e-02 -9.355231117762565773e-01 -3.103522872215274120e-01 4.462596661496250894e-01 -8.393650982643917624e-01
1.883701245553317475e-03 -6.474621808990130289e-02 -9.915114528685514683e-01 2.400207766791922215e-01 -4.549624188726512086e-01 8.575542106338605031e-01
-2.505765697281733817e-02 -1.615441742444592155e-01 -1.019989336949416181e+00 -3.157614343112100097e-01 4.446850554082155682e-01 -8.381825088238955557e-01
4.389559966947357422e-02 8.704115464563369486e-02 -9.231847023034198685e-01 3.157614343112100097e-01 -4.446850554082155682e-01 8.381825088238955557e-01
8.374992105809872306e-04 1.578997462158395482e-01 -8.730971818655401950e-01 2.400207766791922492e-01 -4.549624188726512641e-01 8.575542106338606141e-01
3.910850462839284697e-03 8.385264029983126310e-02 -9.123951220709268783e-01 -2.224844351929627928e-01 -4.569160341298610373e-01 8.612365609122200061e-01
4.893733914367083548e-02 7.779091811466970485e-02 -9.183841242311221453e-01 -9.324490442865271400e-02 -2.092460394280972746e-01 -9.734071515978022227e-01
1.932559588075697526e-02 4.178735718157585571e-02 -9.379373697299095980e-01 3.157614343112100097e-01 -4.446850554082155682e-01 8.381825088238955557e-01
-8.234376698900196245e-02 8.329281403809467299e-02 -8.775819832018133537e-01 3.202782350647760956e-01 -4.446496378131880034e-01 8.364858347493954183e-01
-3.410589038029565589e-02 1.896385678954174130e-03 -9.298697546281257109e-01 -3.157614343112100097e-01 4.446850554082155682e-01 -8.381825088238955557e-01
8.238566633040771831e-03 -3.421591757480621498e-01 -1.125553983408081882e+00 -7.623134349406159860e-01 3.033221158753516833e-01 -5.717288876118987728e-01
1.198550927691381801e-01 4.063358570884564175e-02 -9.761887020600880094e-01 3.106660688228930489e-01 -4.455620988984904107e-01 8.396195624848800110e-01
5.394622289843464813e-02 1.535101979396401028e-01 -8.826580348894214056e-01 -3.212503921072846769e-01 4.433215545564042070e-01 -8.368178922780087348e-01
-3.254628778274098327e-02 2.025397232716842078e-01 -8.328359714739670405e-01 3.175955619724594170e-01 -4.484932657329041006e-01 8.354560728174955653e-01
1.681620888656230189e-02 7.679390678236228118e-02 -9.184198339746483253e-01 3.157614343112100097e-01 -4.446850554082155682e-01 8.381825088238955557e-01
1.178476574061508297e-01 2.452508699559653726e-02 -9.839942477839933588e-01 3.106664694639508784e-01 -4.455616113812849721e-01 8.396196729556286709e-01
8.129219146551289188e-02 -1.479789677351464328e-01 -1.053039923323541904e+00 -3.302252483832690544e-01 4.544631448356451497e-01 -8.272935001051947568e-01
-5.501824084311783027e-03 -1.687910337593434562e-01 -1.044005038361520032e+00 3.895388344107818535e-01 -4.316428473816163458e-01 8.135993785581328019e-01
1.532850341107478975e-01 6.093552911699624125e-02 -9.765058358653020409e-01 1.522532416459335403e-01 -4.764748342457085784e-01 8.659045459742255035e-01
2.374830313549178978e-02 1.585310846711057431e-01 -8.776668797004362199e-01 3.157614343112100097e-01 -4.446850554082155682e-01 8.381825088238955557e-01
-3.477463315327745247e-02 1.608072197784233826e-01 -8.543722277953514910e-01 3.161261378533843924e-01 -4.480654974185516726e-01 8.362425335923597824e-01
6.760385755668966989e-02 2.256555135628404013e-02 -9.663226708914601781e-01 3.157614343112100097e-01 -4.446850554082155682e-01 8.381825088238955557e-01
1.234304964299291207e-01 4.601404182523658289e-05 -9.990426738045348198e-01 3.105134092964376702e-01 -4.451257951300334192e-01 8.399074051090147375e-01
-4.479920910606052104e-02 1.447774431472391710e-01 -8.591403395051014913e-01 3.157614343112100097e-01 -4.446850554082155682e-01 8.381825088238955557e-01
-5.742447757761163368e-02 -1.255490644558946989e-01 -9.846426679608970556e-01 -3.187779618630559031e-01 4.115809950253221938e-01 -8.538042489730311990e-01
-2.729661629371576970e-03 -9.535346312499259902e-02 -9.932842936311815363e-01 -3.157614343112100097e-01 4.446850554082155682e-01 -8.381825088238955557e-01
1.313710019120810021e-02 -2.076656281060690612e-01 -1.059187142268140036e+00 -3.204217100695644360e-01 4.530963006742605992e-01 -8.318856111457849645e-01
1.184832662602227082e-01 8.484800594162669740e-02 -9.521982426421116141e-01 3.105282069497657393e-01 -4.461826292320915099e-01 8.393409879543006769e-01
-8.859673778118115628e-02 -1.255233456476975429e-01 -9.725980579485083988e-01 -3.392215469442999565e-01 3.386516195341190971e-01 -8.776353586060866574e-01
1.426983969217810420e-02 -2.167022532557510428e-01 -1.064699044723889543e+00 -3.446013668387173379e-01 4.924540659922900243e-01 -7.992114181244841520e-01
1.715556415573874166e-03 -2.236462290267780817e-01 -1.058464194470843722e+00 -2.400207766791922215e-01 4.549624188726512641e-01 -8.575542106338606141e-01
7.776287707035699215e-02 1.294659955072548774e-01 -9.043667190950028800e-01 -3.207409822361899088e-01 4.432237269911374344e-01 -8.370650811891806597e-01
1.374717760105094444e-01 1.452154230308123559e-02 -9.985568851946783342e-01 -2.763987948139926543e-01 1.448506504464608380e-01 9.500642058780078836e-01
-4.239203400896282559e-02 -5.631074424128418299e-02 -9.576290981502013633e-01 -3.157614343112100097e-01 4.446850554082155682e-01 -8.381825088238955557e-01
-7.193671433603893162e-02 -1.191054622769651544e-01 -9.822412348246060132e-01 -2.912084687676773087e-01 -8.059412381975487039e-01 -5.154186146139727587e-01
-1.783388026811206020e-02 1.801177238138958192e-01 -8.415747750662637694e-01 -3.149985104995357554e-01 4.417763587660242797e-01 -8.400057066582983234e-01
1.425793832919574622e-01 9.671288656266491257e-02 -9.467410139423245719e-01 -3.626874634645632645e-01 4.292511159777343543e-01 -8.271646047054425077e-01
-3.148974781460084360e-02 1.206976058707360799e-01 -8.678271210642156674e-01 -3.157614343112100097e-01 4.446850554082155682e-01 -8.381825088238955557e-01
1.129078448086744957e-01 9.740748612457382147e-03 -9.944231123318459931e-01 3.357330150993989570e-01 -5.052157994467042501e-01 7.950096468356180335e-01
-7.495255618833650268e-02 -1.270037245340647214e-01 -9.929826828442940290e-01 2.913576385309571970e-01 8.101100199563062709e-01 5.087558176925911502e-01
-8.226134732373381955e-03 1.040324805317760504e-01 -8.966383490090233943e-01 7.623134349406159860e-01 -3.033221158753516278e-01 5.717288876118986618e-01
2.660077208420800338e-02 -6.788221628970311783e-02 -9.988616193902762896e-01 3.157614343112100097e-01 -4.446850554082155682e-01 8.381825088238955557e-01
1.924810965136368457e-02 -1.166263469290372556e-01 -1.017422218300521042e+00 2.742023725885744390e-01 -8.787267345263641838e-01 -3.907075439448652321e-01
-5.500441010696342087e-02 1.649124720723851578e-01 -8.445143647717825441e-01 3.168506685096502129e-01 -4.480249975636156901e-01 8.359899852409177212e-01
-9.434343599558880911e-02 -2.747811053677402110e-02 -9.262646325366157285e-01 -3.179974970853696181e-01 -8.008334432989098195e-01 -5.074873278629253859e-01
-7.726365169302140679e-04 1.169541587605599509e-01 -8.813849488490036466e-01 -3.157614343112100097e-01 4.446850554082155682e-01 -8.381825088238955557e-01
-9.958660367664147472e-02 1.196031518887842073e-02 -9.088717454501404891e-01 3.199400470390655893e-01 -4.442031767079352433e-01 8.368523789194958207e-01
-2.881459864133856241e-02 -1.039950522605274097e-01 -9.880421995347165032e-01 -3.157614343112100097e-01 4.446850554082155682e-01 -8.381825088238955557e-01
6.370278150824919272e-02 1.894069439769285323e-01 -8.761493915191460591e-01 3.091337111332635446e-01 -4.468752001463849877e-01 8.394872864642468624e-01
5.318267687304315677e-02 -1.649588457359958960e-01 -1.060125957538835095e+00 3.081777398655429212e-01 -4.313076274021941381e-01 8.479388015629758524e-01
1.860473722390739923e-02 -2.057805082464566615e-01 -1.068335154138097876e+00 3.003716734128880628e-01 -4.193353333519096449e-01 8.566999101282690710e-01
-1.072953935982869644e-01 -8.262731958117981723e-02 -9.560813224520607889e-01 3.213337838192832918e-01 -4.431919806410916651e-01 8.368545080668493563e-01
3.721913071087220443e-02 -2.025528074279163079e-02 -9.789863895887997991e-01 4.182677204572342600e-01 -8.655620753720679739e-01 2.754167890690532028e-01
-6.079669258522551328e-02 1.551384817831989449e-01 -8.474957082694870580e-01 3.212810526599714778e-01 -4.447911369128259018e-01 8.360259145059417696e-01
-3.965910971662792162e-02 -2.898550367158747240e-02 -9.441616565088745139e-01 -3.157614343112100097e-01 4.446850554082155682e-01 -8.381825088238955557e-01
1.404423344830039444e-01 -4.196470063967859543e-02 -1.026975942667378572e+00 2.626535494154378925e-01 -4.391617688482817861e-01 8.591565944352174133e-01
-7.435205460440766356e-02 6.390743336089876880e-02 -8.818091326380277373e-01 -3.157614343112100097e-01 4.446850554082155682e-01 -8.381825088238955557e-01
-9.505663677980752402e-03 -7.510070172806801621e-03 -9.441276436722527698e-01 -3.157614343112100097e-01 4.446850554082155682e-01 -8.381825088238955557e-01
6.880238895290421985e-02 1.730781530258583001e-01 -8.867215146618699917e-01 3.151948948307637943e-01 -4.492948801919555146e-01 8.359343807416466099e-01
-3.203841249780248202e-02 2.303956454255324041e-02 -9.194314243232387662e-01 -3.157614343112100097e-01 4.446850554082155682e-01 -8.381825088238955557e-01
1.262140362030323981e-01 6.756404540713649431e-02 -9.642431472796331171e-01 3.106456123178117368e-01 -4.458298884414685914e-01 8.394849695616709573e-01
9.615707159210264143e-02 -1.187673417074635966e-02 -9.863230134373119906e-01 -3.200016773709089546e-01 4.440749321954222673e-01 -8.368968760100827797e-01
-1.334682603308169060e-03 -3.604886081026549283e-01 -1.130240041552068808e+00 -2.392971421464034909e-01 4.600319841442839786e-01 -8.550482157895175073e-01
8.182281589740759281e-03 -3.307996854443455703e-01 -1.128461529980755662e+00 -8.439396502442398917e-01 -2.514084225160337360e-01 4.738772750761839903e-01
-4.712173838487450361e-02 5.492954984556368270e-02 -8.983401539726920682e-01 1.675843759650685327e-01 9.552765057088820067e-01 2.436437451957812195e-01
3.387716619565252652e-03 -1.466507289201532116e-01 -1.031906203861619131e+00 3.157614343112100097e-01 -4.446850554082155682e-01 8.381825088238955557e-01
-1.004705158977907739e-04 2.310020561678888529e-01 -8.337277830085880748e-01 2.634894758089768030e-01 -4.736291335445401152e-01 8.403860660409351313e-01
1.607186182768451446e-02 6.538764358203007221e-02 -9.278418398010155332e-01 2.952388241530586876e-01 -3.478030489959261229e-01 8.898691340988611476e-01
-8.483540400557269823e-02 1.647836798043458562e-01 -8.247465884944704673e-01 -3.032309752520696011e-01 4.323423555550536257e-01 -8.491943612864998325e-01
5.015638477674703825e-03 2.036213311270094594e-03 -9.401734618341973659e-01 -3.894290569800606949e-01 4.316646038047472489e-01 -8.136403870271630145e-01
-1.530035134042386780e-01 -5.576221383757847677e-02 -9.204964308827814357e-01 9.450150331492696010e-01 2.266141961552181061e-01 -2.357808160618868332e-01
-5.852765699518166359e-02 -1.792404938124680380e-01 -1.016922187395077781e+00 -3.119908444374325240e-01 4.524763128928170342e-01 -8.354201932310107992e-01
-8.663259616140148167e-02 -6.465164943884982307e-02 -9.454275649928642888e-01 -3.114205449075957977e-01 4.455501117630509822e-01 -8.393463779140223346e-01
-7.020337817251071262e-03 -3.359195904809246513e-02 -9.587386552009964369e-01 8.435344139424809651e-01 2.444585530486390601e-01 -4.782151276738124124e-01
-6.568731395214495207e-03 -1.198925048884954547e-01 -1.003974480415709136e+00 8.406844142185997404e-01 2.537926166510914294e-01 -4.783712192673405528e-01
-9.077868572620401838e-03 -3.009983031254717112e-01 -1.106265955702569137e+00 9.970900193425317193e-01 3.572761742714961053e-02 -6.734263642365553859e-02
-8.762895976411963495e-02 1.409211039746932070e-01 -8.415945058702196668e-01 3.657243662701682996e-01 7.789571443162245368e-01 5.093834069097620265e-01
1.265559039933476099e-02 1.164117425107162040e-01 -8.958337955667019514e-01 3.157614343112100097e-01 -4.446850554082155682e-01 8.381825088238955557e-01
6.452878059216403395e-02 -1.767761232402144389e-01 -1.062323813535082540e+00 -3.484043479354144157e-01 4.712337320126990803e-01 -8.102796925463962019e-01
1.119196003120781074e-01 -1.081225672742612831e-01 -1.051666432809159613e+00 2.818867056968573093e-01 -4.354317379877101213e-01 8.549497568304090800e-01
-3.150429871225404743e-02 -7.773229323332558893e-02 -9.730956218221585852e-01 -3.157614343112100097e-01 4.446850554082155682e-01 -8.381825088238955557e-01
3.498678477446892643e-03 -1.374736140683008867e-01 -1.029922896482715622e+00 -2.224844351929627928e-01 -4.569160341298610373e-01 8.612365609122200061e-01
-9.702100602161911613e-02 -1.022714332939659299e-01 -9.704145738017868617e-01 3.203816701419158752e-01 -4.431738650052195472e-01 8.372290671097201153e-01
-1.588929515106443646e-02 -1.115819759496533004e-01 -9.969365678513903983e-01 -3.157614343112100097e-01 4.446850554082155682e-01 -8.381825088238955557e-01
4.275897825488519238e-02 2.109053026580204049e-01 -8.482462715595938674e-01 -3.200972218112816958e-01 4.353435972618587280e-01 -8.414355120339310767e-01
-6.697565406038866534e-03 1.157887079228371308e-01 -8.791637883314042945e-01 8.406844142185997404e-01 2.537926166510914294e-01 -4.783712192673406083e-01
-1.486797955087842960e-01 -2.570227682606442826e-02 -9.095308828670120027e-01 3.623116876714820855e-01 -4.355775206390625209e-01 8.240160583936271266e-01
-9.811608449682628075e-02 -3.841286112410820935e-02 -9.232646909979608241e-01 -5.627186789015482804e-02 9.224412753032834589e-01 -3.820151443346255782e-01
-1.002318112080184120e-01 -7.768378027050554246e-02 -9.473050496422577016e-01 -3.113406997718775604e-01 4.458564016842238020e-01 -8.392133445928714464e-01
1.784356911861365719e-02 1.011514671958974321e-01 -9.058843273862108303e-01 3.157614343112100097e-01 -4.446850554082155682e-01 8.381825088238955557e-01
9.652277037679116156e-02 5.901304253014571372e-02 -9.577854865395322159e-01 3.115311642581948259e-01 -4.455734812209769524e-01 8.392929205757388988e-01
-2.803063483795608518e-02 8.913037804999898728e-02 -8.949801321183747937e-01 3.157614343112100097e-01 -4.446850554082155682e-01 8.381825088238955557e-01
-5.646493867403900441e-02 -1.181694029190781398e-01 -9.957365561757502981e-01 1.669198236031279592e-01 -8.263859848519665707e-01 5.377954783452030263e-01
-4.147913978286657880e-03 -2.363010585616110437e-01 -1.080469692439340879e+00 3.895388344107819645e-01 -4.316428473816164568e-01 8.135993785581330240e-01
-1.369253768673132365e-01 2.184154297710864598e-02 -8.809442304210431951e-01 -3.077076055442113933e-01 4.452906464248141960e-01 -8.408521092896297233e-01
6.799995889596273380e-02 1.385042860149041655e-01 -8.958864339248068243e-01 -3.156270698752479675e-01 4.413301782051841093e-01 -8.400043015171683169e-01
9.940116426926259852e-02 1.209065248881369681e-01 -9.259610830917334168e-01 3.096993042305258848e-01 -4.468625733436263903e-01 8.392855184642711297e-01
5.135537137722758633e-02 -1.413731501686110725e-01 -1.038109891545615504e+00 -3.214501828533632977e-01 4.444760401312965459e-01 -8.361284767861584255e-01
-2.210931802374797427e-03 -1.475397368450637459e-01 -1.030268721925262865e+00 3.157614343112100097e-01 -4.446850554082155682e-01 8.381825088238955557e-01
-1.347036916690733943e-01 -3.519839650027459244e-02 -9.203607028246209021e-01 3.399046673668019158e-01 -4.402233181105249527e-01 8.310645265525556935e-01
-2.452034198033447437e-02 5.366085562569363615e-02 -9.151203539369106021e-01 3.157614343112100097e-01 -4.446850554082155682e-01 8.381825088238955557e-01
1.289330195101862919e-01 1.178767991835586310e-01 -9.301490201478213038e-01 -3.244015154104406551e-01 4.416331082575538636e-01 -8.364949817483554595e-01
-1.507373667706115306e-01 -3.855571066822096465e-02 -9.082828069412645089e-01 -2.684373881067474987e-01 4.527028620585946683e-01 -8.502949413882129326e-01
1.235107505449773296e-01 -1.265234802690049475e-02 -1.005802095684887654e+00 3.105134092964376702e-01 -4.451257951300334192e-01 8.399074051090147375e-01
-7.109303897502160241e-02 8.845746067653600941e-02 -8.791146015737624220e-01 3.157614343112100097e-01 -4.446850554082155682e-01 8.381825088238955557e-01
3.527364260333348128e-02 2.294289615801985982e-01 -8.435672847796457097e-01 2.882789093396942448e-01 -4.905627511841256783e-01 8.223402322521852215e-01
-2.919763523159592949e-02 -2.308607903655077870e-02 -9.540752423093648016e-01 3.157614343112100097e-01 -4.446850554082155682e-01 8.381825088238955557e-01
5.871678402709770012e-02 1.648616168307923402e-01 -8.915485951514170448e-01 2.867446107929260690e-01 -3.278006387068332361e-01 9.001801316651049101e-01
4.926440584704017828e-02 -1.054190882002400825e-01 -1.021578658443319076e+00 1.828999011600466740e-01 -7.325085117703251658e-01 -6.557277684677296214e-01
7.197801792086205852e-02 2.051276086476711558e-01 -8.705817324934090884e-01 2.876337526715285198e-01 -4.734228939274165993e-01 8.325488501160062116e-01
-7.975205348633949975e-02 4.108037603024602274e-02 -9.009877598372592056e-01 3.157614343112100097e-01 -4.446850554082155682e-01 8.381825088238955557e-01
6.514340134362120449e-02 1.711952465482921293e-01 -8.863743231266523193e-01 3.091337111332635446e-01 -4.468752001463849877e-01 8.394872864642468624e-01
-2.550028328735511746e-02 -9.604726209596067821e-02 -9.941765669381176229e-01 3.157614343112100097e-01 -4.446850554082155682e-01 8.381825088238955557e-01
7.421249072234360755e-02 -1.248797357225341076e-01 -1.046927814802793621e+00 3.137669043856173290e-01 -4.403709760781481242e-01 8.412037405648203903e-01
4.556826689941462227e-02 1.579371818643506842e-01 -8.770996437610664165e-01 -3.157614343112100097e-01 4.446850554082155682e-01 -8.381825088238955557e-01
1.043943423506979579e-01 7.893428192452502101e-02 -9.501268925521257902e-01 3.106870749477155802e-01 -4.459915034243827625e-01 8.393837741663175978e-01
-4.357442125333672867e-02 -3.447455419701327822e-02 -9.585641733244669727e-01 2.940934613278388121e-01 -5.118646296158468889e-01 8.071577522098408730e-01
-1.852110347492424503e-04 3.850108849301000363e-02 -9.323307079911169470e-01 3.157614343112100097e-01 -4.446850554082155682e-01 8.381825088238955557e-01
7.920891367939691952e-02 -1.298806666892247941e-01 -1.042602042453291800e+00 -3.177549875983651240e-01 4.490046321564767906e-01 -8.351207147223626004e-01
7.560052064710658104e-02 1.853177691244903003e-01 -8.827073741991396938e-01 3.091337111332635446e-01 -4.468752001463849877e-01 8.394872864642468624e-01
-1.118905509377452062e-01 -1.181983060159490229e-01 -9.731182202352312016e-01 3.219568564378907927e-01 -4.419093704102379228e-01 8.372931929355801328e-01
3.075470389536721916e-02 -1.818441816718655846e-01 -1.051970519815996541e+00 -3.188784640078295429e-01 4.506164446719401750e-01 -8.338233295987992344e-01
-2.784115260330721764e-02 -6.979042935695678462e-02 -9.702621722053353936e-01 -3.157614343112100097e-01 4.446850554082155682e-01 -8.381825088238955557e-01
1.201207882851459408e-01 -8.963407226285106597e-03 -1.002593799830657995e+00 3.105134092964376702e-01 -4.451257951300334192e-01 8.399074051090147375e-01
-1.357645618414715649e-01 9.504031077340131806e-02 -8.452211721968466707e-01 8.880739153986634271e-01 -1.725370423953939136e-01 -4.260935223515343595e-01
-5.805522660627898679e-02 -7.853834429442374532e-02 -9.635209526673401692e-01 -3.157614343112100097e-01 4.446850554082155682e-01 -8.381825088238955557e-01
4.427231391271468919e-02 -9.310395952990097035e-02 -1.009797511738329101e+00 -3.157614343112100097e-01 4.446850554082155682e-01 -8.381825088238955557e-01
-7.054627270733872246e-02 1.152607124529362037e-01 -8.651005203006106870e-01 3.157614343112100097e-01 -4.446850554082155682e-01 8.381825088238955557e-01
-6.155072206280276514e-02 1.781032375338730822e-01 -8.262938601462641586e-01 -3.124305834416598593e-01 4.397096095983417108e-01 -8.420466672086400761e-01
4.020085923711583936e-02 2.166156423773698408e-02 -9.564789669188085153e-01 3.157614343112100097e-01 -4.446850554082155682e-01 8.381825088238955557e-01
5.134419865556032192e-02 1.648315514006840621e-01 -8.787137612996580582e-01 1.971734086183972168e-01 -7.852521796613303184e-01 -5.869426388250664761e-01
1.201167176541590720e-01 -8.205191134496324368e-02 -1.044012614625896562e+00 -1.152679455368201128e-01 2.200384230014659215e-01 9.686570048963404345e-01
2.916288517052787604e-02 -1.076369038319357208e-01 -1.020918070987433257e+00 3.157614343112100097e-01 -4.446850554082155682e-01 8.381825088238955557e-01
-1.505093149498164945e-02 -6.380922620117832067e-02 -9.810096607424410031e-01 3.157614343112100097e-01 -4.446850554082155682e-01 8.381825088238955557e-01
4.259048081606878026e-03 3.191858337004247620e-02 -9.398580002759978624e-01 -2.224844351929627928e-01 -4.569160341298610373e-01 8.612365609122200061e-01
1.405440293172255661e-01 4.556521110885405207e-02 -9.809574569210933737e-01 2.916941483403453494e-01 -4.488072206295532496e-01 8.446813615410110332e-01
-5.528808500090347244e-03 -1.023823727056344668e-01 -1.005061249498981679e+00 3.157614343112100097e-01 -4.446850554082155682e-01 8.381825088238955557e-01
-4.808912292026806812e-02 1.052051706101968243e-01 -8.697930555985904366e-01 -3.157614343112100097e-01 4.446850554082155682e-01 -8.381825088238955557e-01
-7.398495594338430625e-02 -1.477683893863446229e-01 -1.003250340474374669e+00 3.177459491457173546e-01 -4.397503846916833159e-01 8.400339939341762152e-01
-4.290875770732154731e-02 -1.224673208647268086e-01 -1.001635181714308320e+00 3.157614343112100097e-01 -4.446850554082155682e-01 8.381825088238955557e-01
1.158021805831834818e-02 -1.720193733444977668e-01 -1.048386304642024092e+00 3.137267654779210546e-01 -4.405170647008219698e-01 8.411422188489494634e-01
1.191670146308813488e-01 -8.439687902161641109e-02 -1.041935766475458935e+00 2.836288133403707667e-01 -4.401331186133397022e-01 8.519609933223638576e-01
-1.002675166506256654e-01 6.919896361160984399e-04 -9.145916937557451165e-01 3.199666600114844939e-01 -4.440979311735492319e-01 8.368980607030158669e-01
9.128896323387925005e-02 -4.536134469374118738e-02 -1.011208108151013585e+00 3.113608092812830130e-01 -4.448809404624398667e-01 8.397234040188229498e-01
1.092312908942496153e-03 -1.361340932939503479e-01 -1.025462033758720359e+00 3.157614343112100097e-01 -4.446850554082155682e-01 8.381825088238955557e-01
-3.208739752323055364e-03 -1.986634921343758131e-01 -1.044363977288141010e+00 2.226003721816021408e-01 4.569036311895602887e-01 -8.612131827314342125e-01
-1.241363367211483770e-01 4.113312584301957731e-02 -8.839735069240339804e-01 3.209848820769053979e-01 -4.445517547619081133e-01 8.362669686267559799e-01
2.024798044900049873e-02 2.434983427860777649e-01 -8.293379809685454962e-01 -2.347969513060913505e-01 -9.545497657135535441e-01 1.835895869420844373e-01
8.600487145186218318e-02 3.543575138567279809e-03 -9.742587962651929612e-01 -3.199878909050297704e-01 4.440956439469634920e-01 -8.368911570219167428e-01
-2.019517141818465839e-02 2.341267949221410294e-01 -8.198869328530101752e-01 3.352406874854222951e-01 -4.769093333148267111e-01 8.125091810259801317e-01
1.198850805883691362e-01 2.446700319531740480e-03 -9.834816431988709917e-01 -3.495562233744902159e-01 5.334776876571836191e-01 -7.702025730105737100e-01
3.144161207282741843e-02 3.665218092253041959e-02 -9.361237513427848045e-01 -3.157614343112100097e-01 4.446850554082155682e-01 -8.381825088238955557e-01
-9.028425879788751912e-03 -1.499183234401567366e-01 -1.030298374808661377e+00 7.623134349406159860e-01 -3.033221158753516278e-01 5.717288876118986618e-01
-2.819434424322372207e-02 -1.274664843054280905e-01 -1.009830649288230076e+00 3.157614343112100097e-01 -4.446850554082155682e-01 8.381825088238955557e-01
1.045034688913610843e-01 5.528223920492431054e-02 -9.538903814824559735e-01 -3.200046879588810955e-01 4.437836551678100427e-01 -8.370502177828028634e-01
-1.368350520216214949e-01 -1.040600590184284774e-01 -9.481691711588708937e-01 -2.597543756134958470e-01 4.654874150615490591e-01 -8.460786788289610394e-01
1.887866831782844621e-03 -2.426907394637627946e-01 -1.085918393785778591e+00 2.400207766791922215e-01 -4.549624188726512086e-01 8.575542106338605031e-01
-1.180201306082388352e-01 -2.535783626250974823e-02 -9.216157216883763548e-01 3.209238161334000972e-01 -4.437813499699465036e-01 8.366994787002244305e-01
4.315160242362098275e-02 9.090980360963019091e-02 -9.117495960879101746e-01 -3.157614343112100097e-01 4.446850554082155682e-01 -8.381825088238955557e-01
-4.041731326128710639e-02 1.846780282655234029e-01 -8.394433924627451304e-01 3.169884424415828073e-01 -4.489741112866610373e-01 8.354283779910834928e-01
8.496453091022026019e-03 2.064243806935510961e-01 -8.376463699142385755e-01 -3.168772829480378528e-01 4.407861715259779878e-01 -8.398192296815668589e-01
3.648734934769518740e-02 -6.026420369450317255e-02 -9.985444849558884339e-01 3.157614343112100097e-01 -4.446850554082155682e-01 8.381825088238955557e-01
2.283580089519230555e-02 -1.002110007742661180e-01 -1.014594821262405633e+00 3.157614343112100097e-01 -4.446850554082155682e-01 8.381825088238955557e-01
1.984119031491530377e-02 5.688542679675342301e-02 -9.301215527492834312e-01 3.157614343112100097e-01 -4.446850554082155682e-01 8.381825088238955557e-01
5.411926277326540441e-02 1.373094489245757499e-01 -8.912985933958066376e-01 -3.156270698752479675e-01 4.413301782051841093e-01 -8.400043015171683169e-01
-2.307814547627073509e-03 1.927364769382554910e-01 -8.407665973383563474e-01 -3.155036787694663336e-01 4.410007287117765351e-01 -8.402236523441932725e-01
-3.555339379354038876e-03 3.938413319648792488e-02 -9.214902487270019149e-01 -3.157614343112100097e-01 4.446850554082155682e-01 -8.381825088238955557e-01
-7.540872587051800080e-02 -3.970422412426621861e-02 -9.363806598813331217e-01 -3.157614343112100097e-01 4.446850554082155682e-01 -8.381825088238955557e-01
-8.646150177727553177e-02 -7.723588813358790890e-03 -9.243351494198323026e-01 3.199388131118643397e-01 -4.440648715355955400e-01 8.369262486818337399e-01
-3.347668955901737364e-03 1.327872090778377812e-01 -8.811172663436002139e-01 3.157614343112100097e-01 -4.446850554082155682e-01 8.381825088238955557e-01
-9.745478058493871982e-04 -1.701859536499538209e-02 -9.653902892599351970e-01 2.400207766791922770e-01 -4.549624188726513196e-01 8.575542106338607251e-01
