3.662250158799381511e-02 -9.619702494450148300e-02 -8.441348042911653859e-01 7.159224088718613155e-01 3.191183979978794993e-01 -6.209819260931659368e-01
5.998204358622884896e-03 -1.870011791160559600e-01 -9.382344385939094256e-01 -7.163620454723326203e-01 -3.144226917916010944e-01 6.228673941484008658e-01
-6.937638749064370391e-02 -7.379954077616794617e-02 -9.549736361283019948e-01 7.195854422421842367e-01 3.185673669997625135e-01 -6.170183335979236849e-01
-5.458357399716915609e-02 1.178827085057567864e-01 -8.392710423701342792e-01 7.159224088718613155e-01 3.191183979978794993e-01 -6.209819260931659368e-01
-4.929012784557466886e-02 -2.349318968914725775e-02 -9.181065146605809080e-01 -7.159224088718613155e-01 -3.191183979978794993e-01 6.209819260931659368e-01
8.745106370199479118e-02 -1.028357689883895448e-01 -8.009270530070168315e-01 -7.199956720000784127e-01 -3.165812154582968718e-01 6.175617914995249480e-01
9.140926423201757231e-03 2.273652232102388870e-01 -7.106381351821962067e-01 7.010516667116299949e-01 2.868083795803769154e-01 -6.528916556392213577e-01
7.490702034955941391e-02 2.236591394714567901e-02 -7.392684217592528917e-01 7.127278225847812898e-01 3.201596041569154671e-01 -6.241128734288720059e-01
8.509592004173427426e-02 1.218745736183449724e-01 -6.867511675139421623e-01 -8.234455916218553773e-01 -3.524828160895874252e-01 4.446270594555470357e-01
2.057658274091130404e-02 2.449593221034761931e-02 -8.006106546700032522e-01 7.159224088718613155e-01 3.191183979978794993e-01 -6.209819260931659368e-01
-4.077086521336715369e-02 1.829613316932545419e-01 -8.020361032493115161e-01 -7.118255975920371181e-01 -3.220137110938827707e-01 6.241886641715661543e-01
-9.284620150737894761e-02 1.087444369486916251e-01 -8.884470904567182137e-01 7.197584675080522798e-01 3.166166044659414203e-01 -6.178200985941760814e-01
-3.666915916722056357e-02 1.645294369967043036e-01 -8.068566681371126537e-01 -7.118674431639168132e-01 -3.215103042065864947e-01 6.244004065119237445e-01
-4.055491518511221416e-02 7.084555742973164261e-02 -8.595557536612422611e-01 -7.159224088718613155e-01 -3.191183979978794993e-01 6.209819260931659368e-01
-2.101903409349576909e-02 -2.202860734748440449e-02 -8.905347019694765942e-01 -6.980852040916173396e-01 -2.592040533712710038e-01 6.674506023251969289e-01
3.610203978430406163e-02 -1.211513136532614693e-01 -8.575586779239847690e-01 7.159224088718613155e-01 3.191183979978794993e-01 -6.209819260931659368e-01
6.397047029602904999e-02 3.694247434383739898e-02 -7.564394451753106985e-01 -7.190276729967310931e-01 -3.179601078746505660e-01 6.179810476586207191e-01
5.154311690392926817e-03 -4.623015314630418704e-02 -8.732657433910117062e-01 -6.690137868854114656e-01 -2.527541754532491858e-01 6.989534174379500309e-01
3.225661720847533553e-02 -1.360026706043289402e-01 -8.874330569968092997e-01 -7.014798685038551307e-01 2.545506514559046640e-01 6.656800732538030729e-01
4.416612248452164019e-02 -5.418248371621135762e-02 -8.087884154313059737e-01 6.883639459488671841e-01 4.258221061789358997e-01 -5.872227957147438948e-01
7.222403973961476209e-02 7.604934919665042037e-02 -7.266819631488530273e-01 -7.192288021643385987e-01 -3.184917597212421625e-01 6.174730189465098551e-01
-5.612498363510334820e-02 -1.175532392872297160e-01 -9.621946225910750217e-01 7.173749970450752356e-01 3.230761646801660891e-01 -6.172478476512752721e-01
-9.523565380899817658e-04 -3.149006062595985367e-01 -9.955755064474969274e-01 2.496543633398431716e-01 4.425987341661678509e-01 -8.612659632075815308e-01
6.241311000946488802e-03 2.265862448268803897e-01 -7.190827149143724784e-01 -4.888877076506260577e-01 1.658430062253690995e-01 -8.564373337228170513e-01
1.046971251831026045e-01 -3.120983542220203549e-02 -7.333021847748525390e-01 6.809984872443022308e-01 3.336828600299768244e-01 -6.518410920563283417e-01
2.059565611087118588e-03 -6.339493564270398673e-02 -8.850819242878982251e-01 -6.587768324960829869e-01 -3.438727545026486476e-01 6.691521603321538558e-01
1.057093984092796479e-01 -2.509119790882356413e-02 -7.291128000318107816e-01 6.804375085098033349e-01 3.336914209869371040e-01 -6.524222808677595520e-01
2.241785326802121781e-02 6.643232920403564778e-03 -8.199483639681476310e-01 -7.159224088718613155e-01 -3.191183979978794993e-01 6.209819260931659368e-01
-2.216478429583072438e-02 9.253600951110628470e-02 -8.149213159085034741e-01 7.159224088718613155e-01 3.191183979978794993e-01 -6.209819260931659368e-01
-5.121321620776930067e-02 -1.180598147583971635e-01 -9.687314764011243362e-01 -7.144403252217740308e-01 -3.151323689044629450e-01 6.247132236199799404e-01
9.689273497742960373e-02 -9.283485713844438769e-02 -7.736395002263078968e-01 6.968564885432191325e-01 3.316697698138931782e-01 -6.359136719451887743e-01
-6.212942572730840302e-02 1.102466818389902931e-01 -8.543334302723697427e-01 -5.268283519540330195e-02 -7.288082308046265334e-01 -6.826881290803320512e-01
6.405506664680001190e-03 -1.660773433072728900e-01 -9.148826267250276256e-01 7.159224088718613155e-01 3.191183979978794993e-01 -6.209819260931659368e-01
6.119325585770513803e-03 -4.015705398449966879e-01 -1.046766244486023956e+00 -3.278118368043731468e-01 9.067774531844701169e-01 2.651302510978883475e-01
3.452206090517469239e-02 -3.155106641459969746e-02 -8.256213634216503783e-01 -7.159224088718613155e-01 -3.191183979978794993e-01 6.209819260931659368e-01
-8.650571732639745007e-03 -2.168023991554937635e-01 -9.549865827836864218e-01 9.742939592957903239e-01 1.029693652695680001e-01 -2.003711323911570863e-01
-5.021760301416193506e-02 2.298176620544506166e-01 -7.780982185170942644e-01 7.529105569187990454e-01 2.341861429686211971e-01 -6.150467817342873955e-01
3.620916968182998075e-02 -9.170502713793779459e-02 -8.545890287336167512e-01 -7.159224088718613155e-01 -3.191183979978794993e-01 6.209819260931659368e-01
-1.110252319133821775e-01 7.742014059442120510e-02 -9.264028489764725149e-01 7.496461064160004906e-01 3.012542307474332381e-01 -5.893017933046721391e-01
8.541852931041141184e-02 9.272993341715922433e-02 -6.917638300503110571e-01 6.949889596891941634e-01 3.170186530933902791e-01 -6.453599921756727475e-01
1.522418356729350435e-02 1.090453675561137425e-01 -7.756180949876499975e-01 -7.159224088718613155e-01 -3.191183979978794993e-01 6.209819260931659368e-01
-4.542039309224808752e-02 1.399849890309126654e-01 -8.296348184347381860e-01 -7.159224088718613155e-01 -3.191183979978794993e-01 6.209819260931659368e-01
6.866010744192199266e-04 -1.125421292953050073e-02 -8.419133263816976909e-01 7.159224088718613155e-01 3.191183979978794993e-01 -6.209819260931659368e-01
-2.051863623619300595e-02 -1.983824859309962219e-01 -9.738918692347900974e-01 -6.849607767284537907e-01 -2.716137909336723277e-01 6.760581949197808083e-01
-1.953982473214508839e-02 -1.548497743783767977e-01 -9.390249080260528736e-01 7.159224088718613155e-01 3.191183979978794993e-01 -6.209819260931659368e-01
-2.145397985946033079e-02 -8.594204305731860394e-02 -9.058204983440084623e-01 7.159224088718613155e-01 3.191183979978794993e-01 -6.209819260931659368e-01
1.114094760835443731e-01 -6.770206011669718804e-02 -7.546121498957006901e-01 -7.501130864859582026e-01 -2.982511405854204600e-01 5.902343726198981955e-01
6.051175929296431777e-02 8.626411948417228581e-02 -7.229518924062389162e-01 7.122617291738883027e-01 3.201456955540187277e-01 -6.246518732641852534e-01
-4.665061852791772129e-02 4.537668113092877681e-02 -8.673855912457588691e-01 7.159224088718613155e-01 3.191183979978794993e-01 -6.209819260931659368e-01
-1.914369456092274591e-03 -3.794446743655319546e-03 -8.361928379331334815e-01 6.586871570287717859e-01 3.439086409975129488e-01 -6.692219929235725395e-01
-7.998824511785172786e-02 3.055680291807939125e-02 -9.136072804381132340e-01 7.190134563085373021e-01 3.177380622597342219e-01 -6.181117806988312147e-01
7.378912440365152647e-02 -8.058779149179745582e-02 -8.054283643162509776e-01 -7.191066155969547680e-01 -3.174246177848423223e-01 6.181644501496666999e-01
-1.354918635813160896e-02 1.885035492676056385e-02 -8.428550571142822134e-01 7.159224088718613155e-01 3.191183979978794993e-01 -6.209819260931659368e-01
1.954767194078795359e-02 8.438004328423807932e-02 -7.710228349270307202e-01 7.159224088718613155e-01 3.191183979978794993e-01 -6.209819260931659368e-01
1.874146917617870939e-03 -3.549093364214483959e-01 -1.015316405462241889e+00 2.496543633398431716e-01 4.425987341661678509e-01 -8.612659632075815308e-01
-2.829553166418069185e-02 2.225466270431873395e-01 -7.556741536402054038e-01 7.228743298227966463e-01 2.936185580249636717e-01 -6.254924825020546919e-01
-2.524050651010303209e-02 1.863272094963770442e-01 -7.703968085252351772e-01 7.165637751324125393e-01 3.155901453427150116e-01 -6.220443845342140676e-01
8.617013171816833086e-03 -2.469903758274524241e-01 -9.659632549091571319e-01 -8.541132236654345178e-01 2.377172083211984976e-01 -4.625809442982009023e-01
-5.459489363847819937e-02 -8.453095659763301684e-02 -9.555436630188685054e-01 -7.119782936231493498e-01 -3.200682307591456444e-01 6.250145894842603633e-01
-5.974498230251688163e-02 -8.012153842463832793e-04 -9.005725923681355827e-01 6.857107545049015984e-01 2.307237303461903144e-01 -6.903385556460369665e-01
-5.660817796729012558e-02 2.075082757190307436e-01 -7.960183012722209517e-01 7.225942172917316775e-01 3.073229841690228170e-01 -6.192012439732303974e-01
2.123522722189459533e-02 2.218192913675576944e-02 -8.133265684165915665e-01 -7.159224088718613155e-01 -3.191183979978794993e-01 6.209819260931659368e-01
6.470584072548373269e-03 -2.280759144263686256e-01 -9.484612391955028476e-01 6.212996139424796782e-01 5.278825231657239270e-01 -5.790741156804667389e-01
1.011258921898455232e-01 -1.021087347411556434e-01 -7.845693699815076139e-01 -7.223285327271259382e-01 -3.148826978880969185e-01 6.157031568694368850e-01
-2.470899927820539507e-02 8.686533521790407164e-02 -8.207686310433069954e-01 7.159224088718613155e-01 3.191183979978794993e-01 -6.209819260931659368e-01
-5.701691139115509094e-02 3.409868083165020630e-02 -8.851324503454744974e-01 7.159224088718613155e-01 3.191183979978794993e-01 -6.209819260931659368e-01
-1.029937521263275535e-01 7.289668557648630587e-02 -9.299049939995471803e-01 -7.099989244767259677e-01 -3.220484735210993321e-01 6.262478007503273769e-01
-2.508725003853521859e-02 -1.437135262491958942e-01 -9.396976239428020961e-01 7.159224088718613155e-01 3.191183979978794993e-01 -6.209819260931659368e-01
-6.863376398922511890e-02 2.296284957470277888e-02 -9.213965806706202466e-01 -6.673366898864774299e-01 -7.421110277576918879e-01 6.271335433368190049e-02
-7.108539205193327437e-02 -2.918779297977987155e-03 -9.325162675937409551e-01 -7.127543210975053611e-01 -3.203472894446814379e-01 6.239862914377842795e-01
-1.669615299495529059e-02 -1.555794330947137677e-02 -8.764514535142696738e-01 -7.159224088718613155e-01 -3.191183979978794993e-01 6.209819260931659368e-01
1.992851450861292742e-02 -1.945287100722069007e-01 -9.259655725710449481e-01 -7.179111384027139220e-01 -3.121265819665443031e-01 6.222383740876171743e-01
4.335987384058694050e-02 -9.536817560029811625e-02 -8.482275371804185449e-01 -7.159224088718613155e-01 -3.191183979978794993e-01 6.209819260931659368e-01
-2.904350975890433728e-02 -1.716334769657270054e-01 -9.588473713519467534e-01 7.182108461404961286e-01 3.245316992411854673e-01 -6.155098347498446643e-01
1.066334650219182695e-01 -6.579468272890263980e-02 -7.595176145854524163e-01 -7.219544023197919103e-01 -3.156079069647969026e-01 6.157706472643624807e-01
1.085562710441908413e-01 -7.658540748996379988e-02 -7.526955670894170947e-01 6.799062315548889401e-01 3.391719491573869649e-01 -6.501460645098210422e-01
-2.670106087034322673e-02 -1.816937361404367957e-01 -9.728885167736355255e-01 -7.104464800339955755e-01 -3.108781680635246403e-01 6.313640499971251430e-01
-2.464280948066076976e-02 2.043298252020512018e-01 -7.723768850170434908e-01 -7.150107198935717889e-01 -3.240342021469460598e-01 6.194848717089612711e-01
-3.446034899594783985e-02 -3.951300928808550855e-02 -9.092419219902819760e-01 -7.159224088718613155e-01 -3.191183979978794993e-01 6.209819260931659368e-01
-7.602550604055168318e-03 -9.478160807188465431e-02 -9.066800551284653897e-01 -7.159224088718613155e-01 -3.191183979978794993e-01 6.209819260931659368e-01
-4.104106758004023164e-02 1.637466540737300968e-01 -7.950040779951430547e-01 7.285744918571589457e-01 4.248623338590246656e-01 -5.372813109377106988e-01
5.593313283402034930e-02 -1.402166303299029748e-01 -8.606731358668263665e-01 -6.576445836609972062e-01 3.808940946445647513e-01 6.499409898184994594e-01
5.578959064925595457e-02 8.650779398417106358e-02 -7.282114758669578913e-01 7.122617291738883027e-01 3.201456955540187277e-01 -6.246518732641852534e-01
-4.565887804160605190e-02 1.066510532682956314e-01 -8.470398481864946927e-01 -7.159224088718613155e-01 -3.191183979978794993e-01 6.209819260931659368e-01
7.510058644366762737e-02 5.273005020574718371e-02 -7.401039204394289639e-01 -4.318144965799384227e-01 -8.600993772000200543e-01 2.715976838700065454e-01
-6.666101482802933714e-03 -2.902373865892989291e-01 -9.997831147291735832e-01 8.509565548701893967e-01 -2.400706591028595460e-01 4.671605937591231661e-01
4.779242798809578419e-02 -1.976801006077461287e-01 -8.838953913442033627e-01 7.078231193027867407e-01 3.381227720472702036e-01 -6.202091766521538041e-01
-3.777404520330693294e-02 1.605379293512804451e-01 -8.101715974889082128e-01 -7.118674431639168132e-01 -3.215103042065864947e-01 6.244004065119237445e-01
5.469493408568722875e-02 1.752373379026943290e-01 -6.862877358363027591e-01 -3.096751398715478776e-01 -3.211517398827779535e-01 -8.949652885535850366e-01
4.704633194264697116e-02 4.111674614316646742e-02 -7.738387899379716162e-01 -7.159224088718613155e-01 -3.191183979978794993e-01 6.209819260931659368e-01
2.196255647136559439e-03 -1.403798693437121881e-01 -9.188157692233098750e-01 -7.159224088718613155e-01 -3.191183979978794993e-01 6.209819260931659368e-01
-6.899991116124162827e-02 1.227257566390492771e-01 -8.655203468966781166e-01 -7.125725277787985368e-01 -3.213632744150481391e-01 6.236714187071361604e-01
6.790490571690029238e-03 -1.639163027883509816e-01 -9.133282394652193492e-01 7.159224088718613155e-01 3.191183979978794993e-01 -6.209819260931659368e-01
-3.411677682246328641e-02 7.581713418833641027e-02 -8.351815448822436094e-01 6.283038745582080198e-01 7.770951128478079672e-01 -3.684327351357921665e-02
-8.263165130696914495e-02 4.274282260667661842e-02 -9.104201652657342159e-01 7.190119640534163858e-01 3.175898137357716089e-01 -6.181897004636410786e-01
6.711221257238887683e-02 -1.473082421841418908e-03 -7.725459912072880631e-01 -7.190064199633049435e-01 -3.178431765793883201e-01 6.180659213655734785e-01
2.543574393372829284e-02 1.971140147084682048e-01 -7.182205553805879328e-01 -7.172598243312727773e-01 -3.225932087564392092e-01 6.176341684723215542e-01
1.039385408177278119e-01 3.248507095587663263e-02 -7.019662425816439733e-01 6.808134006058194077e-01 3.232819993447297313e-01 -6.572532711635705738e-01
-4.316847160040730019e-02 -2.922429896645232367e-02 -9.017080044204077716e-01 7.159224088718613155e-01 3.191183979978794993e-01 -6.209819260931659368e-01
-1.073500796979298677e-02 2.255051296484337775e-01 -7.452652462382971521e-01 -7.140298947217734726e-01 -3.264917546557122296e-01 6.193257976101488316e-01
8.745397061064450611e-03 -3.059756164238043863e-01 -1.001134455827747516e+00 -9.742939592957905459e-01 -1.029693652695680695e-01 2.003711323911572251e-01
5.966239384430878541e-03 1.393768825067968464e-03 -8.293267844488542151e-01 7.159224088718613155e-01 3.191183979978794993e-01 -6.209819260931659368e-01
-8.000137550932789887e-02 1.976184332090847595e-01 -8.286278545934475659e-01 7.720353089225749921e-01 2.465320279602055131e-01 -5.858186075626590217e-01
6.425823004868074471e-03 -2.003939834459724234e-01 -9.327617219012847016e-01 7.137285635604710965e-01 3.260096560051136683e-01 -6.199268035416226619e-01
8.725201181016756236e-02 -1.177622901370160673e-02 -7.544051623232588266e-01 -7.196045042616527887e-01 -3.176626136219610763e-01 6.174624048095603834e-01
6.476311100265814968e-02 -8.149937981550463284e-02 -8.163958521331424745e-01 -7.191648787106537100e-01 -3.171008664725430415e-01 6.182628225208538497e-01
3.147703553668830534e-02 -6.820253772704154560e-02 -8.479668780385968274e-01 -7.159224088718613155e-01 -3.191183979978794993e-01 6.209819260931659368e-01
-3.526078694721421908e-02 -1.555891666417411751e-02 -8.855687850120460558e-01 7.159224088718613155e-01 3.191183979978794993e-01 -6.209819260931659368e-01
1.052862371625997231e-02 4.177078912688702433e-02 -8.033173910397720663e-01 7.159224088718613155e-01 3.191183979978794993e-01 -6.209819260931659368e-01
2.320982915619331302e-02 1.796787582987135201e-01 -7.299150390253316134e-01 -7.165666807350304923e-01 -3.220496056201500590e-01 6.187214588005545135e-01
4.279010155850106883e-02 -9.745246681923740162e-02 -8.376694173623419060e-01 7.159224088718613155e-01 3.191183979978794993e-01 -6.209819260931659368e-01
4.140753797160830890e-02 -9.458956587586912768e-02 -8.377921325134122243e-01 7.159224088718613155e-01 3.191183979978794993e-01 -6.209819260931659368e-01
-3.330086911926414400e-02 1.428882698656050165e-01 -8.018842859281957169e-01 7.159224088718613155e-01 3.191183979978794993e-01 -6.209819260931659368e-01
5.353131089831403983e-02 1.339515726100897475e-01 -7.184532120156922330e-01 -7.159224088718613155e-01 -3.191183979978794993e-01 6.209819260931659368e-01
5.559786856591766163e-02 2.569873011042805161e-02 -7.596169362074175480e-01 7.159224088718613155e-01 3.191183979978794993e-01 -6.209819260931659368e-01
3.359576836025248564e-02 -1.349485652589936524e-01 -8.675384413341340473e-01 7.159224088718613155e-01 3.191183979978794993e-01 -6.209819260931659368e-01
2.335568863715799248e-02 1.115957323680103197e-01 -7.649327678442345846e-01 -7.159224088718613155e-01 -3.191183979978794993e-01 6.209819260931659368e-01
-1.848869310673460428e-02 9.167653894163567407e-03 -8.535256279207493746e-01 7.159224088718613155e-01 3.191183979978794993e-01 -6.209819260931659368e-01
-3.230661041707666437e-02 -1.317986397799901510e-01 -9.541615691438197766e-01 -7.117191164520543234e-01 -3.203844555645512515e-01 6.251477424651815662e-01
-5.089472202805842699e-02 5.530138444129182457e-02 -8.671783281769368523e-01 7.159224088718613155e-01 3.191183979978794993e-01 -6.209819260931659368e-01
2.608794947240795567e-03 2.242274174468704140e-01 -7.305326726095461298e-01 -7.164995315423645650e-01 -3.247510493280810207e-01 6.173857604932934118e-01
2.827612375192835314e-02 8.070663361672408831e-02 -7.751337570886369654e-01 -7.159224088718613155e-01 -3.191183979978794993e-01 6.209819260931659368e-01
5.822662013562105582e-02 -2.064916540728761463e-01 -8.812899701130662011e-01 -4.904063063185635230e-01 8.629216672944909350e-01 -1.219337969419432011e-01
-9.854976949713876652e-03 2.461119076858836463e-01 -7.234912660175780719e-01 7.423262400181520615e-01 1.668097744356717149e-01 -6.489424107987034063e-01
-1.458835224900726854e-02 2.970566990197017615e-02 -8.384746259575307503e-01 7.159224088718613155e-01 3.191183979978794993e-01 -6.209819260931659368e-01
-3.294721270644106192e-02 4.404370259353064532e-03 -8.849286024742589740e-01 -7.159224088718613155e-01 -3.191183979978794993e-01 6.209819260931659368e-01
2.932369551279069564e-02 -5.670069475070706883e-02 -8.445387181547894251e-01 -7.159224088718613155e-01 -3.191183979978794993e-01 6.209819260931659368e-01
3.961000453659565407e-02 4.890582974577415386e-03 -7.887423132077963084e-01 7.159224088718613155e-01 3.191183979978794993e-01 -6.209819260931659368e-01
-6.936553179633377086e-02 1.706165036272343782e-01 -8.412088839577185340e-01 -7.114907629375991638e-01 -3.232213173123392735e-01 6.239462110545659357e-01
7.957774311839163617e-02 2.370953470659076939e-02 -7.450859209870479560e-01 -7.191163779509955889e-01 -3.180656604537142607e-01 6.178234946995648791e-01
-9.035670815129943911e-02 1.055918455464215644e-01 -8.987241829295294915e-01 -7.120817641079350002e-01 -3.215990038091114389e-01 6.241102802982162467e-01
-6.159468280305929744e-02 -1.091103518393087696e-01 -9.641324660902476085e-01 7.173749970450752356e-01 3.230761646801660891e-01 -6.172478476512752721e-01
2.380799167903326422e-02 -6.345088724019628569e-03 -8.127341945120218902e-01 7.159224088718613155e-01 3.191183979978794993e-01 -6.209819260931659368e-01
-8.037652954471742606e-02 9.093784373403912547e-02 -8.830514138708700500e-01 7.191018946922287380e-01 3.171721575707295293e-01 -6.182995127864607809e-01
-3.849467311083192272e-03 1.289055237927070607e-01 -7.751157661012952893e-01 7.159224088718613155e-01 3.191183979978794993e-01 -6.209819260931659368e-01
-1.204577436534272003e-02 1.593718014328469601e-01 -7.872365056275042461e-01 -7.159224088718613155e-01 -3.191183979978794993e-01 6.209819260931659368e-01
-6.747076325955433940e-02 -6.437380307612568242e-02 -9.599018904511712469e-01 -7.122214346011227493e-01 -3.196624884810530531e-01 6.249452148411245300e-01
4.116701531725784624e-02 1.899424543866281845e-01 -7.036446919088370500e-01 -7.190845896441412366e-01 -3.262937352806237201e-01 6.135550107797467234e-01
-8.141942678993462079e-02 9.549662721086922545e-02 -8.937259786345813639e-01 -7.121986274302688491e-01 -3.213776642725178490e-01 6.240909484948339303e-01
2.247741906005008145e-02 -1.746455338379650224e-01 -9.007725770591801240e-01 7.144364797305615689e-01 3.247420064640600401e-01 -6.197766901617863811e-01
-4.240114753473432641e-02 -5.946470706425171365e-02 -9.286498128539429908e-01 -7.159224088718613155e-01 -3.191183979978794993e-01 6.209819260931659368e-01
-1.230185114592815502e-04 -1.306724528365470206e-01 -9.165010563442221869e-01 -7.159224088718613155e-01 -3.191183979978794993e-01 6.209819260931659368e-01
9.620132380729916333e-02 3.246467272528134450e-03 -7.362444497617998129e-01 -7.196559275826029944e-01 -3.177140368937964032e-01 6.173760091353324153e-01
-4.944943063872834360e-02 9.437007768515673356e-02 -8.454349331996119377e-01 7.159224088718613155e-01 3.191183979978794993e-01 -6.209819260931659368e-01
9.898388324857432252e-02 -3.926721399683466562e-02 -7.548665906836423689e-01 -7.196411230624553124e-01 -3.174558038958053552e-01 6.175260857407367521e-01
5.673754650590890486e-02 -1.780921683921747045e-01 -8.751139435547811152e-01 -7.159224088718613155e-01 -3.191183979978794993e-01 6.209819260931659368e-01
-6.822452276834188589e-02 1.575491764628824121e-01 -8.347823167196870564e-01 7.195492299529892000e-01 3.161865956627479268e-01 -6.182838687829902424e-01
-3.032567534249079599e-02 -1.356678326372978416e-01 -9.538884189334605468e-01 -7.159224088718613155e-01 -3.191183979978794993e-01 6.209819260931659368e-01
1.914785635297474101e-02 1.228664864367961795e-01 -7.517058554132834969e-01 7.159224088718613155e-01 3.191183979978794993e-01 -6.209819260931659368e-01
1.667003641182359872e-02 -2.265251287048518358e-01 -9.362626133743734425e-01 5.916874808692887955e-01 5.574727139097274131e-01 -5.823487771333243357e-01
-7.520072263965692227e-03 1.660792096793142214e-01 -7.602758954821777770e-01 7.163054966501164467e-01 3.159760969487058757e-01 -6.221459166673777297e-01
8.751375773274574403e-04 -1.887815226460349549e-01 -9.330759924503848612e-01 7.155408303542174497e-01 3.237497533599705823e-01 -6.190213383198958086e-01
9.135511568141371774e-02 2.339988085306817997e-02 -7.315158026445990336e-01 -7.197410815779857751e-01 -3.180091790561591081e-01 6.171247341704744205e-01
4.364335585614367158e-02 4.595263773814644431e-02 -7.629908008767120053e-01 7.159224088718613155e-01 3.191183979978794993e-01 -6.209819260931659368e-01
-2.730062542278487853e-02 -1.075064518273136510e-01 -9.405277300369815352e-01 -4.931779296120237799e-01 1.569221800880888640e-01 8.556582022864031023e-01
-3.793133727240476094e-02 -8.387124493155476146e-02 -9.360389778873754452e-01 -7.159224088718613155e-01 -3.191183979978794993e-01 6.209819260931659368e-01
-2.678823864302536106e-02 4.492468679894395106e-02 -8.570048814776842772e-01 -7.159224088718613155e-01 -3.191183979978794993e-01 6.209819260931659368e-01
-8.615393034658462568e-03 -2.981124627128989291e-01 -9.966002181516679936e-01 9.742939592957905459e-01 1.029693652695679446e-01 -2.003711323911570585e-01
1.178123459632797812e-02 -8.561393806253601857e-02 -8.673354182979179372e-01 7.159224088718613155e-01 3.191183979978794993e-01 -6.209819260931659368e-01
9.911976403967522053e-02 -1.439460448751640753e-01 -8.077960975400112487e-01 -7.604739844268098015e-01 -2.746629918971869588e-01 5.884212435764855087e-01
-1.276274776688361354e-02 -1.321451639160184655e-01 -9.195439542725312165e-01 7.159224088718613155e-01 3.191183979978794993e-01 -6.209819260931659368e-01
7.236191439865468158e-03 -2.967185512158242999e-01 -9.992383074061400583e-01 -7.687063886179310579e-01 -2.923440254291046481e-01 5.688808828690634645e-01
4.472067420972626259e-03 -7.954316741805567137e-02 -8.849284455814676598e-01 -7.159224088718613155e-01 -3.191183979978794993e-01 6.209819260931659368e-01
-4.346643110133922155e-02 1.215573579700506696e-02 -8.807865991858075949e-01 7.159224088718613155e-01 3.191183979978794993e-01 -6.209819260931659368e-01
-8.328678412917954119e-03 -3.533835518176726698e-01 -1.023609521209894346e+00 9.742939592957905459e-01 1.029693652695679168e-01 -2.003711323911569753e-01
2.090034764706157067e-02 6.135201407587694694e-02 -7.935834060987282390e-01 -7.159224088718613155e-01 -3.191183979978794993e-01 6.209819260931659368e-01
3.408509436165041255e-03 -3.210936395228254359e-01 -9.984845889210833825e-01 -5.037204162846253830e-01 3.948492201581092487e-01 -7.683487720811273958e-01
-1.288009862930665668e-02 2.436196753380951568e-02 -8.515374001734546949e-01 -7.159224088718613155e-01 -3.191183979978794993e-01 6.209819260931659368e-01
-4.407136232948148159e-04 2.011228769619962387e-01 -7.343503106496204191e-01 7.157275252715735725e-01 3.154411342362846149e-01 -6.230818569019284103e-01
2.307923161441921209e-02 1.392789035887452842e-01 -7.345325734234862125e-01 4.894484448322874437e-01 -6.762191003659661082e-01 -5.506068907591863404e-01
-5.427539354780700626e-02 1.663287866468870502e-01 -8.141448591645780164e-01 7.162318536298195593e-01 3.154979905478360047e-01 -6.224732522817908453e-01
2.552818481416220531e-02 -9.755820428701320046e-02 -8.699109125611468318e-01 -7.159224088718613155e-01 -3.191183979978794993e-01 6.209819260931659368e-01
-1.063912414911535598e-01 3.977697872586764827e-02 -9.505605215388248652e-01 -6.805076411390221791e-01 -3.336640722093369704e-01 6.523631176485116256e-01
-4.849396697896389552e-02 -4.037078336130774797e-02 -9.258619114714745635e-01 -7.159224088718613155e-01 -3.191183979978794993e-01 6.209819260931659368e-01
4.571668239110594084e-02 -1.523413774906610119e-01 -8.625161874402660356e-01 7.147613956564270454e-01 3.242160680665709394e-01 -6.196774067906050121e-01
-5.152643441824165255e-02 -3.057462790000416587e-03 -8.978968371898469192e-01 7.159224088718613155e-01 3.191183979978794993e-01 -6.209819260931659368e-01
3.719768099233620312e-02 -4.165322836756066294e-02 -8.320152537868759079e-01 -3.864011350126056454e-01 -8.799004532736045547e-01 2.765309298973175345e-01
-3.224388863128165722e-02 -1.925743090120929646e-01 -9.745896608537435446e-01 7.459536223295016866e-01 3.633657028921482568e-01 -5.581384768094652671e-01
-4.900027345452006439e-02 -1.163473449912571372e-01 -9.653368464900810020e-01 -7.144403252217740308e-01 -3.151323689044629450e-01 6.247132236199799404e-01
6.440197122167747035e-02 -1.326894011810605678e-01 -8.450645907119012090e-01 -4.253897888271234717e-01 -8.590500532565206182e-01 2.847394134319733427e-01
-9.066029023002443454e-02 8.993649826626458343e-02 -8.955426084742010850e-01 7.196729276411020226e-01 3.169944495467586498e-01 -6.177259879404722875e-01
9.794197989968177198e-02 -1.817838605240625766e-02 -7.452395085741180258e-01 -7.196411230624553124e-01 -3.174558038958053552e-01 6.175260857407367521e-01
9.741435510225247146e-03 5.354849895943174232e-02 -7.927850152580719900e-01 7.014117899908893783e-01 3.897463203204665216e-01 -5.967573264388401633e-01
6.782315522426048127e-02 3.839141149188254887e-02 -7.512092165023149803e-01 -7.191163779509955889e-01 -3.180656604537142607e-01 6.178234946995648791e-01
-7.144188003291730704e-02 -4.220391273020897976e-02 -9.530753603423928189e-01 -7.124954688897663369e-01 -3.199229378678793978e-01 6.244994160425906271e-01
-3.452395949595107871e-02 1.733439777937259840e-01 -7.931050787763429533e-01 -1.081391627524017351e-01 -7.595431341507596912e-01 -6.414048244624066530e-01
-4.757797909382821544e-02 1.521255720548824186e-01 -8.136459407079275064e-01 7.158205009115828910e-01 3.157815266548499311e-01 -6.228025673503782000e-01
8.695984048173028419e-03 6.859754279181949632e-02 -7.916441320564204798e-01 7.159224088718613155e-01 3.191183979978794993e-01 -6.209819260931659368e-01
-3.059793797436869897e-02 -5.936805530846881590e-02 -9.027062629736710697e-01 7.159224088718613155e-01 3.191183979978794993e-01 -6.209819260931659368e-01
8.310517362250784135e-02 -6.855533056094373356e-02 -7.884119357619049362e-01 -7.198007965074361136e-01 -3.169837665208375399e-01 6.175824682659989406e-01
7.953762729673147236e-02 -8.038255229948602920e-02 -7.986358038397874948e-01 -7.190757678560444344e-01 -3.173845076906926521e-01 6.182209268216147802e-01
-2.048225409660291152e-02 1.545595105795310176e-01 -7.933941976290564968e-01 -7.159224088718613155e-01 -3.191183979978794993e-01 6.209819260931659368e-01
-2.775924903546398217e-02 -1.179311308127037466e-01 -9.243706856095401658e-01 7.254808159777170751e-01 3.787549336007943745e-01 -5.746497071445901828e-01
-3.250490792443808813e-02 -1.278754252188508411e-01 -9.401102576491366936e-01 7.159224088718613155e-01 3.191183979978794993e-01 -6.209819260931659368e-01
-2.744715574305820957e-02 9.897653651592691615e-02 -8.177015537197334094e-01 7.159224088718613155e-01 3.191183979978794993e-01 -6.209819260931659368e-01
3.780710347506434366e-02 2.512344596770580557e-02 -7.927094309967956942e-01 -7.159224088718613155e-01 -3.191183979978794993e-01 6.209819260931659368e-01
5.457943287774634500e-02 9.601894891590576075e-02 -7.247167192870632713e-01 7.122617291738883027e-01 3.201456955540187277e-01 -6.246518732641852534e-01
8.909176490886362362e-03 -2.001746722903229858e-01 -9.459690840668150136e-01 -9.743207425598957583e-01 -1.029164071926273044e-01 2.002680797034175897e-01
-1.082614026196470763e-01 -5.572613650248791142e-03 -9.660113660978777439e-01 7.524687490232025988e-01 3.087349326699989627e-01 -5.817847738577454075e-01
-6.477898034911618898e-03 -9.843722119286769934e-02 -9.015611332989806881e-01 8.509565548701895077e-01 -2.400706591028595460e-01 4.671605937591232771e-01
-1.147843572394742911e-01 4.049626064277862120e-02 -9.526596256978639987e-01 6.978975445584360005e-01 -3.018050848556179666e-01 6.495018922640630743e-01
-2.321959502981478518e-02 -6.834762013632769695e-02 -9.111005061379311432e-01 -7.159224088718613155e-01 -3.191183979978794993e-01 6.209819260931659368e-01
1.129571218411298261e-01 -8.412986947095757451e-02 -7.608214007546637569e-01 -8.096607449721486827e-01 -2.559356932288971986e-01 5.281537645256246805e-01
-4.043803825908957872e-02 -1.199718550256589217e-02 -9.019933311374206397e-01 -7.159224088718613155e-01 -3.191183979978794993e-01 6.209819260931659368e-01
3.459993279531294128e-03 1.398218015652480661e-01 -7.733650843780774942e-01 -7.159224088718613155e-01 -3.191183979978794993e-01 6.209819260931659368e-01
-6.226608845478726756e-02 -1.307952319719207501e-01 -9.763423402869154666e-01 7.255085363708362323e-01 3.242324198889488529e-01 -6.070508228690602026e-01
8.628880822765394587e-02 -1.376210113095009124e-01 -8.200701201852271804e-01 -7.204492318994577538e-01 -3.151795986477078371e-01 6.177497267111909940e-01
2.166930234259341684e-02 1.363170273112819797e-01 -7.418867697256201765e-01 7.159224088718613155e-01 3.191183979978794993e-01 -6.209819260931659368e-01
4.636069851290903349e-02 1.334223824908521427e-01 -7.091545036097631760e-01 7.066942428251379305e-01 3.179904717343760012e-01 -6.320326787785215394e-01
-5.772386856634872249e-02 9.428841915956329145e-02 -8.672787120039489039e-01 -7.128028337639708001e-01 -3.208776109091296957e-01 6.236583030757324453e-01
-1.668209411631723510e-02 7.452390323538704564e-02 -8.354562945660788387e-01 -4.136251640083318803e-01 2.977855344239814239e-01 8.603708498007729411e-01
1.022469535436699717e-01 -4.262667106449645471e-02 -7.418241754407155497e-01 6.981890468367411007e-01 3.268028756947232716e-01 -6.369709061761471558e-01
-8.914000958497382554e-02 1.369824206401430537e-02 -9.329366960459142266e-01 7.197694793642246402e-01 3.176779919025207177e-01 -6.172621728540756969e-01
5.613374474748134696e-02 -2.008842665849130960e-01 -8.871218660982214121e-01 -7.391406214119752294e-01 -2.749725291016203998e-01 6.148668555209144682e-01
3.523816455026064498e-02 1.308438953698153051e-01 -7.235270196599612458e-01 6.908612516310356222e-01 4.408850136547596832e-01 -5.730018636352252059e-01
1.513383165323596916e-02 1.179045639250686367e-01 -7.588834733244552710e-01 7.159224088718613155e-01 3.191183979978794993e-01 -6.209819260931659368e-01
3.645809444847868813e-02 1.827656970786269153e-01 -7.129188002839450533e-01 -7.176082514045950544e-01 -3.229247949484363445e-01 6.170558923821647390e-01
-1.031710145178157956e-01 6.741852332003056558e-02 -9.329231122227724660e-01 -7.099989244767259677e-01 -3.220484735210993321e-01 6.262478007503273769e-01
-1.490413567238613873e-02 2.466845752173388862e-01 -7.294429403445277238e-01 7.647062924250050964e-01 1.449579697480041507e-01 -6.278626229774624257e-01
2.343613561015663038e-02 2.110165445282864705e-01 -7.132348820087622832e-01 -7.186887723827422025e-01 -3.243640390506108417e-01 6.150401764289552542e-01
1.147647128585694426e-02 2.097557195251288642e-01 -7.278212143076000507e-01 -7.170162064494229881e-01 -3.224388011566718393e-01 6.179975559802207696e-01
-8.366940733043584655e-02 -1.003115292913529799e-01 -9.861989477924921754e-01 7.714633813006991359e-01 3.343374346852928669e-01 -5.413526864070681288e-01
8.684731457850775049e-02 4.661689869499398287e-02 -7.132376575304016919e-01 7.121133962579536680e-01 3.198828591065382976e-01 -6.249555722767730082e-01
-4.222801141485903187e-02 8.641496025442749196e-02 -8.534836352215823263e-01 -7.159224088718613155e-01 -3.191183979978794993e-01 6.209819260931659368e-01
-4.085300993995304164e-02 5.504718487378979647e-02 -8.680180998828859185e-01 -7.159224088718613155e-01 -3.191183979978794993e-01 6.209819260931659368e-01
-4.486883582976750745e-02 -1.082797126240744728e-01 -9.442943740123556084e-01 7.159224088718613155e-01 3.191183979978794993e-01 -6.209819260931659368e-01
2.325869802486085769e-02 5.479470948695677052e-02 -7.770292039845790866e-01 6.393070542133642009e-01 -4.002576237799454484e-01 -6.565670758110417893e-01
-8.219827017868197583e-02 2.988163149985227206e-03 -9.303529080175683141e-01 7.198184543293597581e-01 3.175901625787607707e-01 -6.172502583556263023e-01
9.096887499772966790e-02 -7.326475879790685097e-02 -7.700733409199377322e-01 7.120533514821805188e-01 3.212944429735486440e-01 -6.242995319214257322e-01
1.785135682831097761e-02 5.552243222429704278e-02 -7.878082262162785510e-01 7.159224088718613155e-01 3.191183979978794993e-01 -6.209819260931659368e-01
-3.792988492167214277e-03 2.387202660213097183e-01 -7.197897355563448452e-01 7.188758137948335625e-01 2.820908851206354595e-01 -6.353284952468858382e-01
6.271703182324278071e-03 -2.117439766500536780e-01 -9.441676153270387450e-01 -5.037204162846254940e-01 3.948492201581092487e-01 -7.683487720811273958e-01
5.978467703719120979e-02 -1.256381110232364373e-01 -8.326378274639927302e-01 7.123682756863914944e-01 3.213636936239016584e-01 -6.239044928640923304e-01
4.618849468328663221e-02 -3.542852051206734493e-02 -8.141638730591880257e-01 -7.159224088718613155e-01 -3.191183979978794993e-01 6.209819260931659368e-01
-4.474716797235338273e-02 -6.916115029859358498e-03 -9.043501460358902566e-01 -7.159224088718613155e-01 -3.191183979978794993e-01 6.209819260931659368e-01
-2.068251967181956169e-02 7.802861250624770761e-02 -8.385644121705249088e-01 -6.992617632975054454e-01 -2.601582456181879555e-01 6.658458332278797132e-01
-9.160824407694584393e-03 -2.274551124372654609e-01 -9.629420163085682383e-01 9.742939592957903239e-01 1.029693652695680001e-01 -2.003711323911570863e-01
1.083717793516537735e-02 -7.686835331140406957e-02 -8.762156193020415040e-01 -7.159224088718613155e-01 -3.191183979978794993e-01 6.209819260931659368e-01
-7.914808822913035891e-02 1.544311112602768099e-01 -8.491107865137792476e-01 7.203628309292428034e-01 3.157721498783339631e-01 -6.175478452531608653e-01
3.777611443249513645e-02 6.779437326746931558e-02 -7.708168578964635920e-01 -7.159224088718613155e-01 -3.191183979978794993e-01 6.209819260931659368e-01
8.330181428544645994e-02 4.466594015786098243e-02 -7.182762180132056251e-01 7.121133962579536680e-01 3.198828591065382976e-01 -6.249555722767730082e-01
-2.921090770316788106e-03 -2.926665743278013543e-01 -1.003698059639140272e+00 4.984938643218660981e-01 -3.962325430061107712e-01 7.710406209120004295e-01
-5.368877189527447580e-02 -1.518969557405911441e-01 -9.881475363772374010e-01 -6.734060956861768199e-01 -2.829454789150772642e-01 6.829832254559529137e-01
-4.910752578926667888e-02 -6.126797959665649523e-02 -9.373082032040650491e-01 -7.159224088718613155e-01 -3.191183979978794993e-01 6.209819260931659368e-01
2.491457716759094831e-02 -8.509259915025427223e-02 -8.642123433626124340e-01 -7.159224088718613155e-01 -3.191183979978794993e-01 6.209819260931659368e-01
-7.329001721170572831e-03 -2.464642468109212448e-01 -9.670123023317787059e-01 7.687063886179311689e-01 2.923440254291046481e-01 -5.688808828690635755e-01
8.448838062120395120e-02 -9.775229066688877200e-02 -7.900740637726260118e-01 7.119159424893817256e-01 3.217328515947865397e-01 -6.242304566697641777e-01
-1.471301950670794853e-03 -2.667580804097633429e-01 -9.907397357539942107e-01 -2.496543633398434214e-01 -4.425987341661678509e-01 8.612659632075814198e-01
3.869047832446032703e-02 -1.892272852962875174e-01 -8.897381060240785455e-01 7.140009883193936258e-01 3.250233691684692450e-01 -6.201309524393261441e-01
-8.946778004568100087e-03 -9.487194060429009201e-02 -8.937676347435399293e-01 9.742939592957905459e-01 1.029693652695680001e-01 -2.003711323911571140e-01
-7.004873224402294318e-02 1.961749698598605485e-01 -8.219647251905282115e-01 8.916685618831580173e-01 -4.521563469674580449e-01 2.195025389976497376e-02
-6.833574347090302925e-02 1.428617367443871522e-01 -8.424339270768753662e-01 7.192138117417131715e-01 3.166415594159788793e-01 -6.184412792259039726e-01
7.031568188100320582e-02 1.243875623452634499e-01 -6.925842702452152944e-01 6.940855925053699416e-01 3.163805379300491660e-01 -6.466440639915922439e-01
-1.095528962726357303e-01 1.150437003387588634e-02 -9.586114742079995255e-01 7.505908858365728520e-01 3.058815276578644160e-01 -5.857045442343433717e-01
-2.285507642278226687e-03 -1.100210446551904003e-01 -8.911472615341956560e-01 6.586871570287715638e-01 3.439086409975128378e-01 -6.692219929235723175e-01
-6.158063712531717387e-02 1.796444816143431544e-01 -8.158019021720780417e-01 7.163266591226515878e-01 3.143611518650065717e-01 -6.229391492178723011e-01
2.348762226691643654e-02 -1.151766863731468055e-01 -8.690313639876852125e-01 7.159224088718613155e-01 3.191183979978794993e-01 -6.209819260931659368e-01
7.695466426412764238e-02 -2.192408898502676284e-02 -7.596653973891440703e-01 7.128187654505357962e-01 3.204924872091592380e-01 -6.238380985993567940e-01
1.691155422534563330e-02 1.632266316874580181e-01 -7.336434314430769765e-01 7.152710277621526780e-01 3.161960396051239908e-01 -6.232234120940165489e-01
-1.991138667292294273e-02 -1.712183920285198779e-01 -9.480004972802683616e-01 7.172164436976232738e-01 3.231734679816067879e-01 -6.173811484670350680e-01
3.460019071724072109e-02 5.559392039576887407e-02 -7.664350580551252401e-01 6.457435020937402070e-01 -3.862191063394441737e-01 -6.586730079501307289e-01
-9.149390645815859424e-02 1.770416548505942822e-01 -8.624653917670901393e-01 -5.997556729275925758e-01 -4.290581893017546000e-01 6.754274224402427862e-01
-4.697533652265827031e-02 3.581373684434391996e-02 -8.849603931704113080e-01 -7.159224088718613155e-01 -3.191183979978794993e-01 6.209819260931659368e-01
9.263336518350599735e-02 9.683527600268854174e-02 -6.915498478050471354e-01 -7.550449302039848876e-01 -3.242727819987121229e-01 5.698721928889627364e-01
-7.242292470175512586e-02 -1.979475582049539800e-02 -9.427048332833704025e-01 -7.126642047993958506e-01 -3.201476497151432010e-01 6.241916481173986897e-01
4.087139671658297606e-03 -3.795590934058188926e-01 -1.045236461326394029e+00 -6.776261834947394647e-01 -3.285117427020898817e-01 6.579534864632826663e-01
1.522001368124522094e-02 1.605320666554465314e-01 -7.491250346169946450e-01 -7.161487899082186193e-01 -3.222190494289150497e-01 6.191169476747671041e-01
-9.212844436573300322e-02 -7.207866847861660320e-02 -9.812480732177035758e-01 7.616108211592020893e-01 3.233461896615129061e-01 -5.616014589765473408e-01
1.437388545680724728e-03 8.929822922395212748e-03 -8.306753136989780684e-01 7.159224088718613155e-01 3.191183979978794993e-01 -6.209819260931659368e-01
-1.120296371057414794e-02 8.832799026161594624e-02 -8.044460406000873975e-01 7.159224088718613155e-01 3.191183979978794993e-01 -6.209819260931659368e-01
-6.495217617111176574e-03 1.555639361245935715e-01 -7.711837128303324906e-01 4.980740677190060861e-01 -4.045460197518012668e-01 7.669841856054255835e-01
8.625030883280369876e-02 -1.522162166921716964e-01 -8.165554268797610149e-01 6.919778395494807777e-01 3.392539391357022871e-01 -6.372389146570868190e-01
-4.532668089510602516e-02 -1.738624676290121962e-01 -9.799408735383522417e-01 7.566214746194790397e-01 3.678761786970818348e-01 -5.405470019266384041e-01
-2.278347540910356447e-02 -5.049401995517977665e-02 -8.891367588457561588e-01 7.159224088718613155e-01 3.191183979978794993e-01 -6.209819260931659368e-01
-8.856894291249355067e-02 8.804541022904344150e-02 -9.057195262540809200e-01 -7.121681899596979948e-01 -3.212234443530669337e-01 6.242050688735867325e-01
4.062736686345304327e-02 -7.869502899992172895e-02 -8.428095938973763079e-01 -7.159224088718613155e-01 -3.191183979978794993e-01 6.209819260931659368e-01
6.301710970765245397e-03 -2.336197745349343213e-01 -9.554291121697164879e-01 -5.037204162846254940e-01 3.948492201581092487e-01 -7.683487720811273958e-01
6.302101867813143798e-02 -1.422676956678806670e-01 -8.375236411851049168e-01 7.122383048210663148e-01 3.220108769313983488e-01 -6.237191613887500541e-01
8.582097660082738111e-02 -6.952400098272890072e-02 -7.857438154171623168e-01 -7.198007965074361136e-01 -3.169837665208375399e-01 6.175824682659989406e-01
-1.095190581625406084e-01 5.499857288362094282e-02 -9.359709817197363613e-01 7.495827646443257164e-01 3.037907044959443081e-01 -5.880789800783794430e-01
5.212517757191783424e-02 4.396350464613946879e-02 -7.498055433937992342e-01 4.245473108379229643e-01 8.660410608894244522e-01 -2.640690472467537298e-01
1.204579405227084073e-02 2.225751591500567395e-01 -7.204317602156081746e-01 -7.181185376229403117e-01 -3.241476904237462486e-01 6.158198118891926587e-01
-1.245181883864786461e-02 -4.351234055002791562e-02 -8.859237880283655775e-01 -7.159224088718613155e-01 -3.191183979978794993e-01 6.209819260931659368e-01
3.643797980885429139e-02 -1.020998593578703456e-01 -8.473809637260045768e-01 7.159224088718613155e-01 3.191183979978794993e-01 -6.209819260931659368e-01
1.740050680121037197e-02 -1.612948073729380399e-02 -8.374355438889744541e-01 -7.159224088718613155e-01 -3.191183979978794993e-01 6.209819260931659368e-01
-6.436649028049536148e-02 -1.029790293795575656e-01 -9.641972958566757956e-01 7.200085726181973955e-01 3.187938684673445877e-01 -6.164074340758157744e-01
6.163001195588161535e-02 6.677090493417298100e-02 -7.438059528679814569e-01 -7.192554696943979087e-01 -3.182310644753283402e-01 6.175763587748401839e-01
-5.215946575563954607e-02 -1.807559089926345092e-02 -9.063443653427503133e-01 7.159224088718613155e-01 3.191183979978794993e-01 -6.209819260931659368e-01
2.755981457583136715e-02 -1.798050915850079312e-01 -8.976173702618077677e-01 7.144364797305615689e-01 3.247420064640600401e-01 -6.197766901617863811e-01
-6.349798406676787632e-02 1.115637613268121026e-01 -8.649836493624133427e-01 -7.127162328302706351e-01 -3.210849717557109351e-01 6.236505530927249907e-01
-5.443135173856904555e-03 1.505535011186852345e-01 -7.781144438612316305e-01 -7.159224088718613155e-01 -3.191183979978794993e-01 6.209819260931659368e-01
-9.126592284287270151e-02 5.719936659514155558e-02 -9.130542961309615624e-01 7.196580561497259998e-01 3.172680513619268172e-01 -6.176028382413759621e-01
-2.563557677258425718e-02 2.252324885264418708e-01 -7.513392783839216715e-01 7.228743298227966463e-01 2.936185580249636717e-01 -6.254924825020546919e-01
1.039184680749302356e-02 -1.960567224878565495e-01 -9.377354827010749849e-01 -7.174629132729414271e-01 -3.125520060487270713e-01 6.225417348201003342e-01
-3.110849402218505630e-02 5.815561865989931495e-02 -8.429002581811546602e-01 7.159224088718613155e-01 3.191183979978794993e-01 -6.209819260931659368e-01
-4.169563116351637094e-02 -1.465247037801647723e-01 -9.723740350265998034e-01 -7.159224088718613155e-01 -3.191183979978794993e-01 6.209819260931659368e-01
1.774617936163221110e-02 9.268384786354624816e-02 -7.811185910654421249e-01 -7.159224088718613155e-01 -3.191183979978794993e-01 6.209819260931659368e-01
-1.069190234313534792e-02 -1.708549480547203181e-01 -9.370990007973777347e-01 7.169290146827584920e-01 3.231308334238345292e-01 -6.177372033452630529e-01
6.076248279088793808e-02 3.799601140845584868e-02 -7.474032958431987561e-01 7.127278225847812898e-01 3.201596041569154671e-01 -6.241128734288720059e-01
-1.229342684453836251e-02 9.937681808685892848e-03 -8.459874696848398434e-01 7.159224088718613155e-01 3.191183979978794993e-01 -6.209819260931659368e-01
-2.093817892498778949e-02 -2.442758508365063322e-02 -8.744830797833796909e-01 -5.680111178377368619e-02 -6.837266825610197607e-01 -7.275241970231848265e-01
9.146498625962541651e-03 -1.319829730345217500e-01 -9.126183026652391339e-01 -7.323248358314363715e-01 -2.761209339005698538e-01 6.224608941020605135e-01
-7.734658195129025075e-03 1.754533577724846638e-01 -7.678972903906930991e-01 -7.153496871864877260e-01 -3.224179821679795110e-01 6.199366659723577477e-01
-1.836497519374276702e-02 -2.173784409638007675e-02 -8.876497324072741835e-01 -7.251957543172634635e-01 -3.779786044149944235e-01 5.755200192214936505e-01
-8.972261654557533647e-03 -2.638581903992442412e-01 -9.820262378831730032e-01 8.509565548701893967e-01 -2.400706591028595460e-01 4.671605937591231661e-01
4.016836038992840224e-02 1.978508163976579470e-01 -7.005934537213582836e-01 -7.348799170706363793e-01 -3.519421422183870996e-01 5.797311756469433197e-01
8.770706710900214031e-02 4.351351965750462764e-02 -7.295935025754637371e-01 -6.490668448235392685e-01 3.965767884237019758e-01 6.491833961480821813e-01
-2.699946407319130104e-02 4.886492858295474889e-02 -8.552235371573787548e-01 -7.159224088718613155e-01 -3.191183979978794993e-01 6.209819260931659368e-01
-1.086777735194099231e-01 7.833411008193363889e-02 -9.229583604784166173e-01 7.333290204763958098e-01 3.102213553669774804e-01 -6.049721137386460112e-01
-4.821004809596984159e-02 -1.321314473162586711e-01 -9.724878291886747128e-01 -7.159224088718613155e-01 -3.191183979978794993e-01 6.209819260931659368e-01
4.911103526758868465e-02 -5.495143822133954220e-02 -8.040044686025349385e-01 4.072241979211366214e-01 8.654841999228904958e-01 -2.917285593001159860e-01
-2.640458443589203605e-02 2.422473955137897927e-01 -7.539562100862450267e-01 -6.921156732664057731e-01 -3.721888997728932669e-01 6.184264852873240237e-01
