8.607393377319335140e-03 1.949156469580826112e-01 -5.661405212554549982e-01 -9.254552580414475704e-01 -1.763328247067104393e-01 3.353196986375691080e-01
4.521759513003437148e-02 6.892052682530561136e-02 -5.870968317169665829e-01 5.943808377015885602e-01 3.742942935919555403e-01 -7.117690647658527769e-01
1.140152608110110710e-01 -5.162814240416682687e-02 -6.033872536298249267e-01 -6.012319086065579521e-01 -3.717371034513789474e-01 7.073413023363576135e-01
-5.315525491362653454e-03 2.474862462497316451e-01 -5.377194953566099000e-01 4.281146374612829208e-01 -5.593757672738699505e-01 -7.098004002380974287e-01
8.109120860268576036e-02 -1.844752511385232552e-01 -7.004182291429367213e-01 -6.177899667883479662e-01 -3.455969099769840014e-01 7.063273552326937432e-01
-1.039399084626907582e-01 -4.645445590596768842e-02 -7.826263663754642330e-01 -5.862998039725046961e-01 -3.750888576138476371e-01 7.180256880890414362e-01
-5.253673289425998816e-02 -8.378180066296052678e-03 -7.234813618824925685e-01 -2.934273935477494377e-01 2.307263457326318712e-01 9.277207112599352712e-01
8.911126430474451687e-02 -1.161142614335192585e-01 -6.582711817344318872e-01 -5.994029517695627085e-01 -3.715452510088673166e-01 7.089924032475192206e-01
-6.136388954020116637e-02 4.855063461731127378e-02 -6.868122170430445150e-01 5.943808377015885602e-01 3.742942935919555403e-01 -7.117690647658527769e-01
1.982488510999336206e-02 -1.389694556661540681e-01 -7.283426786796787233e-01 -5.943808377015885602e-01 -3.742942935919555403e-01 7.117690647658527769e-01
-8.875058601758890886e-03 -7.317160634470828984e-02 -7.046279015887760844e-01 9.254101981654928588e-01 1.763840464659646168e-01 -3.354171034452409494e-01
-7.903680746103099175e-02 6.480068534166895378e-02 -6.930886760225901666e-01 5.979575986842606827e-01 3.728240764823145814e-01 -7.095413435247179823e-01
-7.318839831471191971e-03 -4.558542439891113615e-03 -6.696087719710794861e-01 5.943808377015885602e-01 3.742942935919555403e-01 -7.117690647658527769e-01
-6.366484067548458525e-02 9.435396230668660622e-02 -6.601490667460043760e-01 5.657147993713809164e-01 2.789984474656798663e-01 -7.759681901237566182e-01
4.688236016741456624e-02 7.294622599439530564e-02 -5.835896539148185402e-01 5.943808377015885602e-01 3.742942935919555403e-01 -7.117690647658527769e-01
5.443863898044087879e-02 -4.073735239690980114e-02 -6.477807793765805178e-01 -5.943808377015885602e-01 -3.742942935919555403e-01 7.117690647658527769e-01
-3.229766870976402693e-02 5.921985729070955440e-02 -6.676481587480739277e-01 -5.943808377015885602e-01 -3.742942935919555403e-01 7.117690647658527769e-01
-1.265995434020561472e-03 -3.781376731277207026e-02 -6.927609388667053114e-01 -5.943808377015885602e-01 -3.742942935919555403e-01 7.117690647658527769e-01
1.688732749062149541e-02 1.987582938768185994e-02 -6.472646174688790888e-01 -5.943808377015885602e-01 -3.742942935919555403e-01 7.117690647658527769e-01
-1.164228724218080296e-01 7.571448225103873109e-02 -7.287555775610055075e-01 -5.876499812655743282e-01 -3.771391192500909706e-01 7.158446648888540098e-01
-7.367746234357029980e-03 2.008429630280225975e-01 -5.573394561283718796e-01 6.558947088139424064e-01 3.513338344539766456e-01 -6.681067786796802688e-01
-3.860122085452868251e-02 1.733864331973605233e-01 -6.176754900412249061e-01 -6.182678563637279412e-01 -5.414600020154147764e-01 5.697068755113173788e-01
8.789874161409823305e-02 6.553671305765654265e-02 -5.534671114815017390e-01 5.896742145368744081e-01 3.750745566783569851e-01 -7.152645647890395475e-01
-1.277908888921212372e-03 2.186332358656847830e-01 -5.575803039798152838e-01 -5.940183745615214006e-01 -3.781099897864426684e-01 7.100528193782377206e-01
3.761050118511704426e-02 -1.795044529957892654e-01 -7.346988245662663397e-01 -5.960749911891058961e-01 -3.687641633855641143e-01 7.132374055540360303e-01
-2.825892230032978070e-02 -7.322574051718218346e-02 -7.232049818164856259e-01 5.943808377015885602e-01 3.742942935919555403e-01 -7.117690647658527769e-01
-2.836464642149396850e-02 2.399096849642459173e-01 -5.683200499789514692e-01 -5.726836059940737522e-01 -4.232024146597750391e-01 7.020920193619638594e-01
1.156259780769860329e-01 1.903171484192540605e-02 -5.648285304087274916e-01 -6.010882913442001652e-01 -3.730144889850622869e-01 7.067906741151319672e-01
-7.732758929878383314e-02 -1.362155346136518508e-01 -7.980634006563441796e-01 6.177899667883479662e-01 3.860749302045613507e-01 -6.850413894088405176e-01
-1.082942481966083642e-01 8.695824342430420739e-02 -7.161589228649797301e-01 -5.876499812655743282e-01 -3.771391192500909706e-01 7.158446648888540098e-01
-9.990016385575860303e-02 1.200835327948588105e-01 -6.952838900721257653e-01 -3.042314499100408076e-01 2.504609242305421146e-01 9.190824502291494724e-01
-1.034994355831216628e-01 2.914680950515943433e-02 -7.476448869271129505e-01 -5.578442766061871838e-01 -3.179421620583118280e-01 7.666306442110213393e-01
8.004598568771850720e-02 8.752324375559322744e-02 -5.588028300589621411e-01 -5.981919580204548836e-01 -3.739026150885044752e-01 7.087758572282438774e-01
-6.803688575217485199e-03 -5.289220250339343732e-02 -7.016965512114787806e-01 6.364778509328530287e-01 -3.501710392467787814e-01 6.872235360817670058e-01
8.009184508200482486e-03 4.480118644637810094e-02 -6.308521721576615393e-01 5.943808377015885602e-01 3.742942935919555403e-01 -7.117690647658527769e-01
5.130252780845931393e-02 8.789310478082212885e-02 -5.827574396316216321e-01 -5.943808377015885602e-01 -3.742942935919555403e-01 7.117690647658527769e-01
-6.341857344654959483e-02 1.822548339870035949e-01 -6.333733846371829568e-01 -5.471523541270517654e-01 -2.751722682814109477e-01 7.905090285013121054e-01
-3.872139277642648592e-02 2.065435538710488350e-01 -5.952856866067377517e-01 -5.930052182805719552e-01 -3.799479625076220835e-01 7.099185565107576368e-01
-1.962677996633086647e-02 1.944076115557544504e-01 -5.858164239044321153e-01 -5.936287309201352391e-01 -3.777709044669939065e-01 7.105589866888877282e-01
-2.043975887030685668e-02 1.848647718180842017e-02 -6.791661605207475194e-01 -5.943808377015885602e-01 -3.742942935919555403e-01 7.117690647658527769e-01
-8.477168634786456936e-02 1.543094547860007770e-01 -6.612050641995406153e-01 -5.892593727439204843e-01 -3.772831931332987221e-01 7.144443881874804614e-01
-5.910684508137351717e-02 -8.446766547515091594e-02 -7.678339389057298181e-01 -5.820829231195395748e-01 -7.980883930881932375e-01 1.556739780134037965e-01
5.600824850405490551e-02 -1.745373747461205494e-01 -7.166545777066641865e-01 -5.943808377015885602e-01 -3.742942935919555403e-01 7.117690647658527769e-01
-1.059594732135723388e-01 -9.784757491399568435e-03 -7.550312767421848426e-01 5.989718755232283920e-01 3.734492324801517715e-01 -7.083560990717675532e-01
7.293316745108738590e-04 2.077666231669634822e-01 -5.515272269127802218e-01 5.940166954657981613e-01 3.707014238667561412e-01 -7.139500121514478215e-01
2.513330845223460397e-02 -9.600685430744664017e-02 -7.013172253526306354e-01 -5.943808377015885602e-01 -3.742942935919555403e-01 7.117690647658527769e-01
-3.945838895057842961e-04 1.304500404196878571e-01 -5.885344293122510839e-01 5.241431718764829606e-01 4.392463749226437897e-01 -7.296139784108963688e-01
-1.002607555527178229e-01 -8.878806322298724019e-02 -7.923264786267386617e-01 6.224385553114082370e-01 3.783939926733606574e-01 -6.851191364796049843e-01
-6.771787553488584077e-02 2.171064381705584828e-02 -7.062324807200114352e-01 5.943808377015885602e-01 3.742942935919555403e-01 -7.117690647658527769e-01
-7.180758028986973518e-02 -2.099649340987442409e-02 -7.427818545256981153e-01 -5.906983151553768518e-01 -3.753614703236414218e-01 7.142683438799963813e-01
1.699643752611118552e-02 -1.975912994695571134e-01 -7.612762507583769045e-01 -5.966777784757266723e-01 -3.674760005255578998e-01 7.133982181860366589e-01
4.143381298850566663e-02 1.887038185640693144e-01 -5.376568746543445299e-01 -5.963264093044653436e-01 -3.782002577695541268e-01 7.080673545568147986e-01
1.426025881366244086e-02 1.144243808960374031e-01 -5.997386632084475977e-01 -5.943808377015885602e-01 -3.742942935919555403e-01 7.117690647658527769e-01
-4.071064037310168082e-02 -2.279047814169989159e-04 -7.059351096767272349e-01 -5.943808377015885602e-01 -3.742942935919555403e-01 7.117690647658527769e-01
2.172311358425483424e-02 1.440354590489683062e-01 -5.832062005988110087e-01 -5.943808377015885602e-01 -3.742942935919555403e-01 7.117690647658527769e-01
-7.021653274450642690e-02 1.114585136652944675e-01 -6.717821644196825259e-01 -5.906903200530336795e-01 -3.760262437459144236e-01 7.139252130370400407e-01
1.325474743603283038e-02 3.572032958058172364e-02 -6.312470345258707205e-01 5.943808377015885602e-01 3.742942935919555403e-01 -7.117690647658527769e-01
2.127707112805253542e-02 5.143633377482788316e-02 -6.233740072626311468e-01 -2.908530115743293010e-01 8.465935544359536324e-01 4.457396989787211217e-01
3.039649264053029265e-02 1.268257462426232787e-02 -6.397661253984116003e-01 -5.943808377015885602e-01 -3.742942935919555403e-01 7.117690647658527769e-01
-1.842240772897213224e-03 -2.602464785587969565e-01 -7.950699997840861011e-01 5.291713833736827466e-01 3.949275651401996101e-01 -7.510059023142336976e-01
-1.236104999140325185e-02 1.013576845103335428e-01 -6.181217826347458200e-01 5.943808377015885602e-01 3.742942935919555403e-01 -7.117690647658527769e-01
-1.079205751437135874e-01 1.157403203935255392e-01 -7.006647059470393346e-01 -5.874373381162091290e-01 -3.778712233038480361e-01 7.156330850273734390e-01
-5.608308565975985566e-02 -1.287608827720153615e-01 -7.757980130407637898e-01 5.956975251942335792e-01 3.783736618355181269e-01 -7.085039382435684985e-01
-6.150499343326010226e-03 7.454721363466290662e-02 -6.377531836778371765e-01 -5.943808377015885602e-01 -3.742942935919555403e-01 7.117690647658527769e-01
3.938290456613130486e-02 3.641229091150412212e-02 -6.197831714499706379e-01 -5.943808377015885602e-01 -3.742942935919555403e-01 7.117690647658527769e-01
6.504275386592456298e-02 1.328418960573691555e-02 -5.997985204081026644e-01 5.943808377015885602e-01 3.742942935919555403e-01 -7.117690647658527769e-01
2.509131802717923243e-02 -7.757308098915464967e-02 -6.809396217500410797e-01 5.943808377015885602e-01 3.742942935919555403e-01 -7.117690647658527769e-01
-3.687549830740307483e-02 7.464441151507415773e-02 -6.480022933080742398e-01 6.070428652179117313e-01 4.336630243334715917e-01 -6.659094090895359974e-01
5.904858623609229862e-02 -1.569308276144422074e-02 -6.307612260931115822e-01 -5.943808377015885602e-01 -3.742942935919555403e-01 7.117690647658527769e-01
-3.439583653512957861e-02 1.759639231018837735e-01 -6.079721713457085785e-01 -5.940636678548333327e-01 -3.778624206775356154e-01 7.101467098949167944e-01
5.682390884419901561e-02 -3.958426072310956834e-02 -6.394113982933570250e-01 3.262312640575035783e-01 -8.503129600857759485e-01 -4.129661393644872280e-01
4.945118528345566339e-02 -1.736032671106494674e-01 -7.217016414572052785e-01 -5.994291244429587051e-01 -3.711989075496106572e-01 7.091516733418342655e-01
2.981859546292933705e-02 5.851510964281021656e-04 -6.358913259243069716e-01 5.943808377015885602e-01 3.742942935919555403e-01 -7.117690647658527769e-01
-9.222426668519760617e-02 -6.506814174567764064e-02 -7.874464838576359371e-01 -6.000567409534897090e-01 -4.652615003316065700e-01 6.507408423830942645e-01
-1.137159380528669911e-01 2.804947378994050722e-02 -7.365335037653364392e-01 5.916042970924194622e-01 3.084231057400588782e-01 -7.449023717960903124e-01
7.059082388323174861e-02 -3.952336930077796767e-02 -6.291654528681855929e-01 1.232701323652857922e-01 -9.772485004960097532e-01 -1.725973428096313489e-01
-2.812271934678950425e-02 8.058556204230374331e-02 -6.422072929347000247e-01 5.943808377015885602e-01 3.742942935919555403e-01 -7.117690647658527769e-01
-1.173360433208140291e-01 -3.042647910350390617e-02 -7.759454110622983070e-01 6.169286638050793803e-01 3.725943051021252672e-01 -6.932333716585948880e-01
-1.021367924547757211e-01 -8.913753237092970905e-02 -7.943034582942259947e-01 6.476543476060333537e-01 3.816885641811640362e-01 -6.594374011233550270e-01
-5.044452357981221713e-02 2.311579383494234974e-01 -5.912068579370444166e-01 -4.607670621381265152e-01 -5.674039480279533532e-01 6.824562068080936017e-01
5.031080745985859297e-03 -1.868600724730191676e-01 -7.712550530692944273e-01 -6.558053111929268431e-01 -3.513648221275171291e-01 6.681782363879014142e-01
3.820450238929799791e-02 1.185754881103265324e-01 -5.668499171304425266e-01 5.897353652058551221e-01 3.753849157269011916e-01 -7.150513017051463027e-01
3.326293930191170228e-02 -1.712477642707708192e-01 -7.340632746143697096e-01 -5.960749911891058961e-01 -3.687641633855641143e-01 7.132374055540360303e-01
7.556210206688952769e-02 -5.213038242531842920e-02 -6.224039472942023421e-01 2.797840791088932466e-01 9.061097560523767580e-01 -3.173105404235589955e-01
-2.179884215428951055e-02 -9.650845778717297152e-02 -7.407728854858632861e-01 -5.943808377015885602e-01 -3.742942935919555403e-01 7.117690647658527769e-01
-1.121625780770530052e-02 -1.050580119375817273e-01 -7.257125428152482183e-01 5.943808377015885602e-01 3.742942935919555403e-01 -7.117690647658527769e-01
6.763430575396666040e-03 1.851605030462577794e-01 -5.686625287333934020e-01 -5.944345897178958671e-01 -3.772305815006794516e-01 7.101722375083215910e-01
3.998147192841203235e-02 -9.601897835598387221e-02 -6.782052685432554684e-01 5.943808377015885602e-01 3.742942935919555403e-01 -7.117690647658527769e-01
2.220531818243387523e-02 -1.085832109500824844e-01 -6.996567848760181230e-01 5.943808377015885602e-01 3.742942935919555403e-01 -7.117690647658527769e-01
6.059365974873665017e-03 -1.268772790862999697e-02 -6.734308101756690812e-01 -5.943808377015885602e-01 -3.742942935919555403e-01 7.117690647658527769e-01
-1.147309260170912421e-01 6.681199395868191171e-02 -7.222117143793641558e-01 6.142583695743558669e-01 3.656317150180442010e-01 -6.992854241158025230e-01
-6.062088180076761340e-02 1.585245921757574283e-01 -6.390113264594166065e-01 -5.940117662167830881e-01 -3.778858838740194459e-01 7.101776400061952099e-01
-5.120844922575013003e-02 1.853008718108333300e-02 -7.048374040168214893e-01 -5.943808377015885602e-01 -3.742942935919555403e-01 7.117690647658527769e-01
8.985261508263760188e-02 -1.256800044048976828e-01 -6.524157380419556285e-01 5.891097321343199411e-01 3.778953355854250407e-01 -7.142442431321436302e-01
4.087413691906913171e-02 -7.734666970004853981e-02 -6.783597125369660308e-01 -5.943808377015885602e-01 -3.742942935919555403e-01 7.117690647658527769e-01
-4.766539611466728138e-02 -1.081662262785022949e-01 -7.532618847356223890e-01 6.156188926728165534e-01 4.665328291989204734e-01 -6.351066825848596942e-01
8.473792725068846066e-02 1.331572034317672903e-01 -5.211418496872475270e-01 5.750482884032686037e-01 3.687753140021289844e-01 -7.302905132802303134e-01
-5.918459705314602776e-02 1.734136313337346913e-01 -6.195193446709286178e-01 5.948495299258794722e-01 3.695885736146924394e-01 -7.138335401201160169e-01
7.485617497208758853e-02 -4.930581835659687828e-02 -6.245767257664713856e-01 5.907948188020881730e-01 3.755781723666522520e-01 -7.140745889039413763e-01
4.202958990868006089e-02 -1.594414812471742771e-01 -7.099006346632555919e-01 5.895656164026908952e-01 3.766257336319586702e-01 -7.145386208749698875e-01
3.193076934228689101e-02 -1.305353279502380059e-01 -7.137981416956110658e-01 -5.943808377015885602e-01 -3.742942935919555403e-01 7.117690647658527769e-01
-6.096639545073700983e-02 -1.034434248365799641e-01 -7.770883377137007830e-01 -5.896258443549755590e-01 -3.743166255258271735e-01 7.157013535851666219e-01
-9.369759380623143841e-02 -5.516676966851796066e-02 -7.787800932806446808e-01 -5.893346579178559974e-01 -3.750088161348311688e-01 7.155788208143082363e-01
-4.805886473662879244e-02 -2.354936841231519001e-02 -7.136163714492778087e-01 5.943808377015885602e-01 3.742942935919555403e-01 -7.117690647658527769e-01
8.276120609620360447e-02 -1.338030988681452871e-01 -6.728992541188690835e-01 -5.986226538503555128e-01 -3.716514675247728494e-01 7.095957334876249467e-01
-3.534847417781380920e-03 -2.074989231645606724e-01 -7.858601917749623578e-01 -9.063097371149636539e-02 -4.635183518775169986e-01 8.814401647740226498e-01
9.219130128616308262e-02 1.781275746437017277e-02 -5.852941275596633686e-01 -5.979598717120424567e-01 -3.733594624750558033e-01 7.092578540999423531e-01
-7.536273808742099956e-02 1.777947273038311127e-01 -6.410247258430191719e-01 -5.884640046189707485e-01 -3.780261578361079344e-01 7.147071702868761367e-01
8.528093554342948412e-02 -7.820321930971439739e-02 -6.416095824874079590e-01 -5.981181380695900218e-01 -3.725140403683137591e-01 7.095688709636583935e-01
1.051750030846940187e-01 7.339838423024544478e-02 -5.354494170709916956e-01 5.725641548333589848e-01 3.735778578431164787e-01 -7.298012556369776194e-01
-1.015252310640833155e-01 1.166272541942992569e-01 -6.933316431347750219e-01 7.773242068389545067e-02 7.083208618843434001e-01 7.015976249917346141e-01
2.228171495548464387e-02 1.058507960343232218e-01 -5.975486889471897101e-01 -5.943808377015885602e-01 -3.742942935919555403e-01 7.117690647658527769e-01
-2.343646538351734296e-02 2.072570852548117348e-01 -5.821465472125862961e-01 -5.928225764748609183e-01 -3.789128516204326447e-01 7.106239819331878760e-01
1.042979886802250511e-01 -1.526724007019868434e-01 -6.642543341662094925e-01 -6.476543476060333537e-01 -3.269878572408906336e-01 6.882025771849551443e-01
-7.014531143259555845e-02 -3.247371848093257712e-02 -7.474356852208573487e-01 -5.905386249688038269e-01 -3.752492693066536988e-01 7.144593188592172073e-01
-9.677352430558322505e-02 -7.363374773575590004e-02 -7.883200317203700180e-01 1.098128671307235515e-01 7.118416457913702144e-01 6.937021014308399902e-01
4.720230785023370179e-02 -1.659795018995874338e-01 -7.090787479242935953e-01 5.895656164026908952e-01 3.766257336319586702e-01 -7.145386208749698875e-01
3.307148226136169544e-02 3.444858494910748204e-04 -6.333014775551415454e-01 5.943808377015885602e-01 3.742942935919555403e-01 -7.117690647658527769e-01
3.513462595922407089e-02 -2.120308018690805207e-01 -7.534419925045415800e-01 -6.321403998077723685e-01 -2.895286161432538696e-01 7.187292225623236330e-01
-2.031418885277336273e-02 -1.439597266614875692e-01 -7.644860398301790427e-01 -5.943808377015885602e-01 -3.742942935919555403e-01 7.117690647658527769e-01
-4.731141779105446643e-02 -8.689750801706778993e-02 -7.570237497008757144e-01 -5.943808377015885602e-01 -3.742942935919555403e-01 7.117690647658527769e-01
-6.129993919733110058e-02 2.010838728013488175e-01 -6.069005291699037796e-01 6.020871252948780672e-01 3.630240106148986401e-01 -7.111291452832064763e-01
-3.210370439245228275e-02 -2.083055313363861918e-02 -7.140103113680307256e-01 -2.709051496592492780e-01 2.518810135308547915e-01 9.290674652094802477e-01
-1.046860394487034440e-01 1.699189313493833231e-02 -7.398589178861834093e-01 5.987513432420127346e-01 3.728736280490519972e-01 -7.088456012922859095e-01
-9.650043891078015357e-02 1.560671697194664087e-02 -7.439589403918603905e-01 -5.900126845010353893e-01 -3.756974734390531312e-01 7.146582683908397904e-01
-7.839494292768878214e-02 -5.691148070912421114e-02 -7.670794781788733419e-01 -5.904364401644649485e-01 -3.748543892635201047e-01 7.147510034800842460e-01
1.018987543827940684e-01 -4.682080179492298377e-02 -6.110992121412348599e-01 -5.987315177854396486e-01 -3.726981324039445043e-01 7.089546330428736498e-01
6.496041386920657634e-02 7.507756144265365084e-02 -5.674080707751897323e-01 5.905730863129731167e-01 3.746754046884058775e-01 -7.147319573408963400e-01
-6.007183119604322247e-02 1.486145217847584798e-01 -6.331450521548500632e-01 5.942651217827150667e-01 3.709665342774963182e-01 -7.136054900844848170e-01
4.371982437126367693e-02 1.140542719833934938e-02 -6.185927493309247849e-01 5.943808377015885602e-01 3.742942935919555403e-01 -7.117690647658527769e-01
1.592911675115660231e-02 -2.412308783450740554e-02 -6.712022772885187782e-01 -5.943808377015885602e-01 -3.742942935919555403e-01 7.117690647658527769e-01
3.422381609637337868e-02 -1.861664682083799816e-01 -7.409749741931599409e-01 -5.963047732866112449e-01 -3.689189752734524097e-01 7.129652214791327713e-01
-4.946744553876453176e-02 -1.079794755554731867e-01 -7.557338676552954881e-01 6.002401048819931972e-01 7.806457930530471545e-01 -1.740803328346789691e-01
-9.756143937933661747e-02 -1.472569570761077772e-02 -7.505349556178274595e-01 5.989718755232283920e-01 3.734492324801517715e-01 -7.083560990717675532e-01
1.228624550366775314e-01 -8.471479096469143599e-02 -6.043128419476686553e-01 5.516258404868567000e-01 3.960653774239903391e-01 -7.340580010552033574e-01
4.945762627085615454e-02 1.613616455662499893e-01 -5.351489241076489156e-01 5.886752710619236328e-01 3.651877996020430062e-01 -7.211791013763424463e-01
1.112368470559828709e-01 8.846266896747292940e-03 -5.640843494952340054e-01 5.738074728005087000e-01 3.792891296784641209e-01 -7.258682664685420782e-01
-2.142651599571250478e-03 -2.621282571374672909e-01 -8.144444915383443062e-01 -9.074940278622370404e-02 -4.635133322679352852e-01 8.814306193364388475e-01
-9.169804309037965506e-02 4.504907056536588961e-02 -7.141393518667691342e-01 5.979417418809692686e-01 3.729898770224754911e-01 -7.094675644137024006e-01
-7.340001902333935513e-02 3.603148053973641296e-02 -7.141189729283397014e-01 -5.908157217115774795e-01 -3.755514198787543445e-01 7.140713647846967937e-01
-1.727562177537659421e-02 2.193048133556886603e-01 -5.705820824622362952e-01 -5.934966030763052514e-01 -3.786416133955054497e-01 7.102058228021894681e-01
7.158534754795618793e-02 -1.981061571065004245e-01 -7.095005496675811374e-01 -5.648641338055527816e-01 8.242976357906883766e-01 -3.823503589620684540e-02
-6.305069017011796784e-02 -6.892405947363804131e-02 -7.607103124937927285e-01 -5.902713879639914785e-01 -3.751124209110088814e-01 7.147519571357219270e-01
-1.210859808665533111e-01 3.506586077583172950e-02 -7.477884310294056203e-01 9.054118712815167891e-01 -1.306344993146524858e-01 4.039356024557779201e-01
-4.766008775386269478e-03 1.196444549097183119e-01 -6.127514374339538827e-01 6.313628625827246710e-01 -3.609381344629775668e-01 6.863705987596884217e-01
4.168350786059882296e-02 4.534217505444477353e-02 -6.024470861923403309e-01 5.943808377015885602e-01 3.742942935919555403e-01 -7.117690647658527769e-01
-2.795342719226306949e-02 -7.069801061011039833e-02 -7.216206261960623758e-01 5.943808377015885602e-01 3.742942935919555403e-01 -7.117690647658527769e-01
-6.719608330471010804e-02 -8.763550426009800165e-02 -7.772130930300488183e-01 -2.948425122713342339e-01 2.549668688415401840e-01 9.209016173026677299e-01
1.092749428963943475e-01 -7.339080405219858272e-02 -6.088747238909255621e-01 5.729896398872079688e-01 3.832190994290561314e-01 -7.244487520968690974e-01
8.532617388330512864e-02 -3.614944981601786456e-02 -6.194698105458991133e-01 -5.979597034329345862e-01 -3.729825650061084352e-01 7.094562701617772582e-01
-2.650945637017926293e-02 8.388804746332615206e-03 -6.788258297080408399e-01 5.943808377015885602e-01 3.742942935919555403e-01 -7.117690647658527769e-01
-8.342933217990530651e-04 1.777235109069353058e-01 -5.789716845001113832e-01 -5.943204437568456733e-01 -3.772698485280215341e-01 7.102469088453040591e-01
-5.509023502828509777e-02 -9.765927726800689712e-02 -7.544363327516644402e-01 3.291361678345131048e-01 -2.062064735634045742e-01 -9.214924162920475892e-01
6.242213272953237024e-02 -1.390381761863678511e-01 -6.821205441423426885e-01 5.898623346986024973e-01 3.767189648134066093e-01 -7.142445293131962636e-01
-1.508377932360999325e-02 -7.763334195308878305e-02 -7.145205464294449582e-01 5.943808377015885602e-01 3.742942935919555403e-01 -7.117690647658527769e-01
-6.253661291621114005e-02 1.169297997693500568e-01 -6.625461809537469549e-01 -5.906903200530336795e-01 -3.760262437459144236e-01 7.139252130370400407e-01
6.218555320035861617e-02 -1.609963223174930014e-01 -7.044104149911182278e-01 -5.960652350202029215e-01 -3.690582260227190381e-01 7.130934450724348839e-01
7.414000615758992857e-03 7.943063953851671466e-02 -6.288834268236878078e-01 -6.558047337273767985e-01 -3.513702175817338125e-01 6.681759659081801805e-01
-1.123557582655027205e-02 -5.604980636469052840e-02 -6.999569848226829816e-01 5.943808377015885602e-01 3.742942935919555403e-01 -7.117690647658527769e-01
-1.149347439195452791e-02 1.155952117621774911e-01 -6.206292735774606717e-01 -5.943808377015885602e-01 -3.742942935919555403e-01 7.117690647658527769e-01
-7.966541030392121359e-02 -2.231487501013454042e-02 -7.394305399426647218e-01 5.980342565732836846e-01 3.732241808796210036e-01 -7.092663383888846429e-01
9.865074065040069229e-02 -2.485326429236289075e-02 -6.022920226207499894e-01 -5.986671090046030708e-01 -3.729003265159249736e-01 7.089027007145530801e-01
1.210379344175846299e-02 2.163397622876666870e-01 -5.378294539599171031e-01 5.877620206750734377e-01 3.569656437560491113e-01 -7.260243358385337631e-01
-1.283569635409518572e-01 6.356011776507621003e-02 -7.360618818328202861e-01 6.335079652920305726e-01 3.588754617330826013e-01 -6.854750621849186043e-01
-1.346095376214290207e-02 -1.232619469134024065e-01 -7.478788380719025852e-01 -5.943808377015885602e-01 -3.742942935919555403e-01 7.117690647658527769e-01
6.854919165972445105e-03 1.466184817688346853e-01 -5.821862027199805611e-01 -6.313959394077552911e-01 3.064305023308317999e-01 -7.123478889844989670e-01
-1.129634302519918641e-03 8.171825193941073540e-02 -6.335237536233059297e-01 -9.063097371149636539e-02 -4.635183518775169986e-01 8.814401647740226498e-01
-6.211436227618327699e-02 1.279230900987935772e-02 -7.062429629427694477e-01 5.943808377015885602e-01 3.742942935919555403e-01 -7.117690647658527769e-01
-1.010363696335232070e-01 -2.860257949542024253e-02 -7.607882694641828758e-01 5.990979308193450370e-01 3.732779556564111978e-01 -7.083397751848681256e-01
9.897797214272309463e-02 2.382652084443745780e-02 -5.662010817977790600e-01 5.899403804065500578e-01 3.751225270363146014e-01 -7.150198859302197008e-01
6.848765810880017013e-02 -7.720505801869391449e-02 -6.552258716383079218e-01 -5.943808377015885602e-01 -3.742942935919555403e-01 7.117690647658527769e-01
4.439421981032112829e-02 -1.666124934826027637e-01 -7.117293437355890484e-01 5.895656164026908952e-01 3.766257336319586702e-01 -7.145386208749698875e-01
-6.168649510647171430e-02 2.115300323936483151e-01 -6.019192526030835433e-01 6.057437146381340343e-01 3.474711216556230498e-01 -7.157781582248636809e-01
3.099632239564720226e-03 -1.280421526745188776e-01 -7.365632419879503123e-01 -5.943808377015885602e-01 -3.742942935919555403e-01 7.117690647658527769e-01
1.285510887718387639e-03 -1.640801901005023433e-01 -7.463103089413081204e-01 5.943808377015885602e-01 3.742942935919555403e-01 -7.117690647658527769e-01
-4.082046925080682481e-02 1.898673346744586543e-01 -5.954843093420427724e-01 5.953012112543152323e-01 3.704518723611506248e-01 -7.130090308988117354e-01
8.401029111567782925e-02 -1.771002211628254774e-01 -6.943075143571038055e-01 -6.248777558877017801e-01 -3.378355665855959367e-01 7.038429655445446187e-01
6.493397139739641444e-02 -4.398398004790097376e-02 -6.268038715501873526e-01 5.977208257860187057e-01 -3.354659742140947420e-01 -7.281431140691149162e-01
-7.614402093849598208e-02 1.280572102457823436e-01 -6.679361383990471968e-01 -5.905556677998815562e-01 -3.765295535638086277e-01 7.137713208881922844e-01
-4.140584421710228474e-02 1.853456620592752735e-01 -5.983223330209596069e-01 5.953012112543152323e-01 3.704518723611506248e-01 -7.130090308988117354e-01
-9.273572480395522732e-02 1.087877086858052289e-02 -7.279318810619583857e-01 6.171539817666654715e-01 4.612405731557338018e-01 -6.374779184132736143e-01
-4.957024217171457359e-02 -8.391699850811727701e-02 -7.466236970151997054e-01 5.943808377015885602e-01 3.742942935919555403e-01 -7.117690647658527769e-01
-1.469280502551600920e-02 7.996894318775879529e-02 -6.420355563251552988e-01 -5.943808377015885602e-01 -3.742942935919555403e-01 7.117690647658527769e-01
-6.213880346108317104e-03 -5.993096043559151959e-02 -7.058519915458009164e-01 6.313628625827246710e-01 -3.609381344629775668e-01 6.863705987596884217e-01
7.957734070126207260e-02 -5.769137600249763659e-02 -6.250816080121519569e-01 5.907507145221296829e-01 3.757840539282228942e-01 -7.140027577711891560e-01
6.924670208572532466e-03 5.279108881972812556e-02 -6.434936707026622793e-01 -6.358408342148161863e-01 -3.592312308092502349e-01 6.831247004436874493e-01
-2.109171445009655477e-02 1.472844388952235239e-01 -6.012612824684989699e-01 5.943808377015885602e-01 3.742942935919555403e-01 -7.117690647658527769e-01
3.430670501467350531e-02 -2.494771964310905574e-02 -6.562892502237335224e-01 -5.943808377015885602e-01 -3.742942935919555403e-01 7.117690647658527769e-01
1.029505267632804810e-01 -1.218666272894299851e-01 -6.495855940859620592e-01 -5.992089268760679710e-01 -3.714471244868100541e-01 7.092077944174832727e-01
8.284182063611644775e-02 -1.611631327838736472e-01 -6.771187072934417017e-01 5.869181742629552279e-01 3.845297301518698641e-01 -7.125053988210681144e-01
-2.877614795852323493e-02 -1.252764417387001172e-01 -7.510085355873732382e-01 5.943808377015885602e-01 3.742942935919555403e-01 -7.117690647658527769e-01
5.703492433830762570e-02 -1.738301571994401440e-01 -7.051206989173998130e-01 5.921603587120056744e-01 3.810903113317770097e-01 -7.100114676391628965e-01
5.028328305061691150e-02 7.402463676464292319e-02 -5.909015249526303748e-01 -5.943808377015885602e-01 -3.742942935919555403e-01 7.117690647658527769e-01
-8.864661918645912186e-02 1.935588113718479386e-01 -6.433007159889683191e-01 -5.373362587535089885e-01 -4.312413313104873636e-01 7.247762821714991421e-01
6.134885766740647006e-02 -2.217543542198125925e-02 -6.322491670588410440e-01 -5.943808377015885602e-01 -3.742942935919555403e-01 7.117690647658527769e-01
-1.179728396144462677e-01 1.256568687743653268e-01 -6.944651362687671581e-01 6.357912647884589319e-01 3.478352781364483226e-01 -6.890428774049049965e-01
-1.231422911500246464e-01 5.983427740466124717e-02 -7.332722790903448695e-01 6.145037746566800463e-01 3.666598921857107674e-01 -6.985310547105655354e-01
-5.560229171466746223e-02 5.542095168151973950e-02 -6.891069868869632575e-01 -5.943808377015885602e-01 -3.742942935919555403e-01 7.117690647658527769e-01
1.180707066704544950e-02 -1.293370185605408895e-01 -7.299727987292239373e-01 -5.943808377015885602e-01 -3.742942935919555403e-01 7.117690647658527769e-01
-5.050694610521189176e-02 -9.826244932396509257e-02 -7.688898092386545757e-01 -3.108345961126760537e-01 2.339702341730911239e-01 9.212164693384820024e-01
-8.269251616438870467e-02 -1.248924638766902573e-01 -7.964633213951584079e-01 6.232859955553295972e-01 3.829751249011800196e-01 -6.817951462510768446e-01
-4.354747140159570540e-02 3.867698078036561904e-02 -6.878453678027601770e-01 -5.943808377015885602e-01 -3.742942935919555403e-01 7.117690647658527769e-01
-1.262492729903425814e-01 1.157007010925316659e-01 -7.130249074371322049e-01 7.922079683581901843e-01 -4.247023055319175122e-01 4.382173964434350477e-01
-1.120011490420413924e-01 -6.494624326783209924e-03 -7.683216348088395264e-01 -5.871138035893146423e-01 -3.754857795814113275e-01 7.171525716101333492e-01
4.194616995629651610e-03 -4.868218920052176657e-02 -6.993333053943059374e-01 -5.512765895602848021e-01 -3.883219360471852344e-01 7.384444432639106770e-01
8.398947949296928228e-02 1.475416408045701899e-01 -5.167127402598308272e-01 -6.283150274174345018e-01 -3.362758310029321240e-01 -7.015260449938520715e-01
-5.188177787719078227e-02 -3.000304474517081349e-02 -7.202025533600736606e-01 5.943808377015885602e-01 3.742942935919555403e-01 -7.117690647658527769e-01
5.971346029395921406e-02 -3.150573673515501272e-02 -6.385213241682367036e-01 -5.943808377015885602e-01 -3.742942935919555403e-01 7.117690647658527769e-01
-9.615087428387368573e-02 -5.163392716310595543e-02 -7.688059713329435940e-01 5.994258276681129205e-01 3.735612498737267972e-01 -7.079128969846336661e-01
1.056707128962330010e-03 2.489972148444258987e-02 -6.471234947978994345e-01 5.943808377015885602e-01 3.742942935919555403e-01 -7.117690647658527769e-01
-7.728452054867068766e-02 1.629018567926435457e-01 -6.504842565469503013e-01 -5.884640046189707485e-01 -3.780261578361079344e-01 7.147071702868761367e-01
9.810135568282839225e-02 -1.354821190583245794e-01 -6.508949121707153784e-01 5.669438938526240035e-01 3.926474460336904504e-01 -7.241564778046555295e-01
1.780299689414509799e-03 1.451958615042389378e-01 -5.832597353947869268e-01 5.943808377015885602e-01 3.742942935919555403e-01 -7.117690647658527769e-01
7.732957154494236873e-02 -1.351710114627869830e-01 -6.781978854882910746e-01 -5.986226538503555128e-01 -3.716514675247728494e-01 7.095957334876249467e-01
7.920727663800221363e-02 1.449176568400776244e-01 -5.195893020376656235e-01 5.749645491404580255e-01 3.646300128261238949e-01 -7.324347895738775316e-01
-6.854276744478922379e-02 4.219688381306065800e-02 -7.068575283304014967e-01 -5.907918972837301608e-01 -3.755972502289986470e-01 7.140669714559729764e-01
-6.023360020715724100e-02 1.512067645307547115e-01 -6.425729315761340432e-01 -5.901635562825976455e-01 -3.769586264367166817e-01 7.138691552314200273e-01
-9.343339007541098806e-02 -4.412327350266533055e-02 -7.727757889428635840e-01 -5.895301757719294544e-01 -3.747766841203418187e-01 7.155393831887099099e-01
-6.554759230936925418e-02 8.979055581138674358e-02 -6.662096465783997612e-01 5.651908513622349028e-01 8.129257648760231936e-01 -1.403958772085729667e-01
8.141521852886846738e-03 -1.459234739471110820e-01 -7.380980627444388986e-01 -9.266090094977387226e-01 1.750153371826530246e-01 -3.328143255156872926e-01
-7.333109467738657683e-02 2.111054856290310242e-02 -7.219091044626437803e-01 -5.907901569091491556e-01 -3.754489403100582101e-01 7.141464021608713297e-01
-1.101424514929465331e-01 1.276774735377547154e-01 -6.961740254808778117e-01 -5.875470999428712426e-01 -3.784539782059714308e-01 7.152349206580979057e-01
9.148924868131272717e-03 -2.608148632499739383e-01 -8.013201728977257243e-01 -9.266090094977387226e-01 1.750153371826529969e-01 -3.328143255156872371e-01
1.157470024117049773e-01 -1.085485009180217203e-01 -6.225456956947538201e-01 5.488318404042678011e-01 4.020297586737938134e-01 -7.329090558174019554e-01
-1.190875036739961479e-01 3.097748139718522337e-02 -7.448844196244119864e-01 6.147365578758310356e-01 3.676385654322983920e-01 -6.978114714003036401e-01
1.244435295646844214e-01 -2.253553546951932163e-02 -5.792286591744055801e-01 -6.011530178758002219e-01 -3.721202724364708336e-01 7.072068664405233296e-01
5.826765074933125919e-03 1.211817077943499743e-01 -5.925088297139424753e-01 5.943808377015885602e-01 3.742942935919555403e-01 -7.117690647658527769e-01
1.158077153292336008e-02 1.965611392068739721e-02 -6.410925361063822825e-01 5.943808377015885602e-01 3.742942935919555403e-01 -7.117690647658527769e-01
-5.982772368158723042e-02 8.383763597024279646e-02 -6.776922073157309878e-01 -5.943808377015885602e-01 -3.742942935919555403e-01 7.117690647658527769e-01
-1.797860820202366178e-02 -1.997658049299980698e-01 -7.815861627827115354e-01 6.063586460205767636e-01 3.984252220885945439e-01 -6.881762381830303088e-01
-5.794340527282321879e-02 1.470920367879732238e-01 -6.428523828123388073e-01 -5.901482996853293361e-01 -3.764212046311778970e-01 7.141652897491779228e-01
8.688788652292843417e-02 -1.721853864581959770e-01 -6.893894723362886667e-01 -6.055197388233587441e-01 -3.641851884575922904e-01 7.076121779643133047e-01
-1.136752015046516157e-01 1.775481692364356753e-02 -7.470848446786563235e-01 6.150468155377445401e-01 3.689481587607162938e-01 -6.968462318502963715e-01
1.606699691051061141e-02 -1.791756319612264614e-01 -7.525376143861878253e-01 -5.961057986244353568e-01 -3.691848001060691331e-01 7.129940113471963103e-01
3.633346725972553854e-04 -3.688755166917417339e-01 -8.511037319400476253e-01 7.340131217398292163e-02 4.684173276756919968e-01 -8.804529825631239870e-01
7.211038849834667391e-03 7.022285825689161820e-02 -6.229215640784225849e-01 -6.360349422195326063e-01 3.591567841960384144e-01 -6.829831305689446630e-01
-9.171566563774692649e-02 1.942350538769670731e-01 -6.452144756072000220e-01 -5.475871508232778018e-01 -4.198409231940050113e-01 7.237968716876649333e-01
-7.698404410585660274e-02 2.109054018034440259e-01 -6.156064543182554472e-01 6.655686056664702477e-01 2.825042419509928293e-01 -6.908037235212947103e-01
-1.135963851741130376e-01 2.999732016966958834e-02 -7.517243193309082194e-01 1.442429862375533556e-01 6.939484265561290943e-01 7.054286230381822120e-01
1.383870938331450669e-03 -1.602133948735558200e-01 -7.599504676428338046e-01 -5.292725136318388035e-01 -3.948982066619693421e-01 7.509500733663959648e-01
8.467019003593431736e-02 -1.089604813428635410e-01 -6.582677501807356890e-01 -5.983105160287440771e-01 -3.721456508253697115e-01 7.095999865989146560e-01
1.623413051943163295e-03 1.594690539101216095e-02 -6.671451371849987932e-01 -5.292725136318388035e-01 -3.948982066619693421e-01 7.509500733663959648e-01
1.932806644917306471e-02 2.036301840325981452e-02 -6.449702208505553314e-01 -5.943808377015885602e-01 -3.742942935919555403e-01 7.117690647658527769e-01
4.387482426472533170e-02 -1.004622675002534854e-01 -6.880095914533127521e-01 -5.943808377015885602e-01 -3.742942935919555403e-01 7.117690647658527769e-01
4.183342155882951996e-02 5.744414199261164977e-02 -6.066768949228711350e-01 -5.943808377015885602e-01 -3.742942935919555403e-01 7.117690647658527769e-01
-3.750693173075492215e-02 7.576683504853430617e-02 -6.632968130855012578e-01 -5.943808377015885602e-01 -3.742942935919555403e-01 7.117690647658527769e-01
-5.257704620169113829e-02 1.935145772030650302e-01 -6.137859219091943430e-01 -5.943808377015885602e-01 -3.742942935919555403e-01 7.117690647658527769e-01
9.969529772413325552e-02 1.045925293289928365e-01 -5.239810869816617922e-01 5.373506605844318162e-01 3.629898299309942677e-01 -7.612441467335840928e-01
4.659659893158905192e-02 -2.024268065934622107e-01 -7.389405249178386814e-01 -6.005255993327783814e-01 -3.603636354349868953e-01 7.137976287450716883e-01
-7.941503710479096492e-03 -1.998944296023753286e-01 -7.770540289760975439e-01 9.243210810177008296e-01 -1.776168525066752213e-01 3.377614437615561460e-01
1.476110659218970826e-02 5.851900217385464648e-02 -6.180000917504762104e-01 5.943808377015885602e-01 3.742942935919555403e-01 -7.117690647658527769e-01
-8.854381816717294199e-03 -1.944974295429631184e-01 -7.683718338723907193e-01 9.254101981654928588e-01 1.763840464659646445e-01 -3.354171034452410050e-01
9.638745550935368112e-02 9.055665673529220139e-02 -5.433712612127886699e-01 -5.989649208875468256e-01 -3.741773624396977915e-01 7.079776302849162262e-01
2.153942431924382728e-02 1.233744170739352469e-01 -5.889535022063605574e-01 -5.943808377015885602e-01 -3.742942935919555403e-01 7.117690647658527769e-01
7.099275346120194298e-04 -3.936136012463916506e-02 -6.812057224374138409e-01 5.943808377015885602e-01 3.742942935919555403e-01 -7.117690647658527769e-01
3.835305217383620791e-02 1.349940006197108411e-01 -5.712900018777056221e-01 -5.732197196996370314e-01 3.342837343878819478e-01 7.481133188703176229e-01
2.095957057743180751e-02 -4.881589152423964489e-02 -6.692675488581950605e-01 5.943808377015885602e-01 3.742942935919555403e-01 -7.117690647658527769e-01
-1.154289766409441892e-01 1.142963013831406610e-01 -7.075905576476764214e-01 -5.874373381162091290e-01 -3.778712233038480361e-01 7.156330850273734390e-01
-9.807739355005064621e-03 -1.240571336227971749e-01 -7.345272929396655659e-01 5.943808377015885602e-01 3.742942935919555403e-01 -7.117690647658527769e-01
1.059437082101930688e-01 -1.345952377571955905e-01 -6.536608596342420308e-01 -6.027318374471405393e-01 -3.681488230137137663e-01 7.079412237193218882e-01
-1.197105882548489889e-02 1.769478211568245307e-01 -5.886952170844863552e-01 -5.937225772123564393e-01 -3.775375293893117878e-01 7.106046124329140623e-01
1.775022351958110978e-02 7.357199132651794093e-02 -6.075881166710699333e-01 5.943808377015885602e-01 3.742942935919555403e-01 -7.117690647658527769e-01
-1.486397517442999971e-02 2.633061860351517194e-02 -6.703850028873691302e-01 -5.943808377015885602e-01 -3.742942935919555403e-01 7.117690647658527769e-01
-2.669632141164611505e-02 2.160540478697087485e-01 -5.801753698021844263e-01 -5.928225764748609183e-01 -3.789128516204326447e-01 7.106239819331878760e-01
3.750151018072771930e-02 1.514806242873362185e-01 -5.501961049597267062e-01 5.934502712281355397e-01 3.710886089740614291e-01 -7.142198680161090385e-01
-8.357133586474241663e-03 -3.126338436359725748e-01 -8.291237155150150695e-01 9.254101981654929698e-01 1.763840464659645890e-01 -3.354171034452408939e-01
-4.157458019704157737e-02 5.773822418714459614e-02 -6.761742180239841415e-01 -5.943808377015885602e-01 -3.742942935919555403e-01 7.117690647658527769e-01
-1.899801733182060470e-02 1.208991477722061031e-01 -6.133879832234595542e-01 5.943808377015885602e-01 3.742942935919555403e-01 -7.117690647658527769e-01
1.166146807561948689e-01 4.034947883864998391e-02 -5.527322218005960019e-01 -6.011693935385722387e-01 -3.737678117383813614e-01 7.063235683316585467e-01
-4.970290291280771156e-02 -7.736270093518531066e-02 -7.432878043848953897e-01 5.943808377015885602e-01 3.742942935919555403e-01 -7.117690647658527769e-01
8.988256217893665634e-02 -8.224988523143104968e-02 -6.398551700071777315e-01 -5.981181380695900218e-01 -3.725140403683137591e-01 7.095688709636583935e-01
-7.043441956721020226e-03 6.843233055990564917e-02 -6.309954634864581857e-01 5.943808377015885602e-01 3.742942935919555403e-01 -7.117690647658527769e-01
3.846750405573639252e-03 -1.002168110776608806e-01 -7.105879780806781953e-01 5.943808377015885602e-01 3.742942935919555403e-01 -7.117690647658527769e-01
-3.562382515833528891e-03 2.027351924682874729e-01 -5.679571466651787137e-01 -5.934268624271566983e-01 -3.783442424671265014e-01 7.104225454909468551e-01
4.916168511080604153e-02 -6.501146716513860058e-02 -6.649523361445205394e-01 -5.943808377015885602e-01 -3.742942935919555403e-01 7.117690647658527769e-01
-2.220969195801054258e-02 2.312471424582755453e-01 -5.682777443449477106e-01 -5.911444591200188947e-01 -3.819204182645051238e-01 7.104118682597901913e-01
5.181584390879617752e-02 -1.323194241331054344e-01 -6.874118020977919574e-01 5.943808377015885602e-01 3.742942935919555403e-01 -7.117690647658527769e-01
-3.422493417307993259e-03 -2.710153154516938695e-02 -6.782095932767923108e-01 5.943808377015885602e-01 3.742942935919555403e-01 -7.117690647658527769e-01
-8.402172397929038097e-03 -3.094816208630101761e-01 -8.275903338617215388e-01 9.254101981654929698e-01 1.763840464659645890e-01 -3.354171034452408939e-01
-1.025777763666890635e-01 -1.168449542985376156e-02 -7.633059983430717788e-01 -5.897909267011950396e-01 -3.751230824167513522e-01 7.151428779055978291e-01
-3.690134802210309761e-02 1.075864694021373170e-02 -6.862576262237150004e-01 5.943808377015885602e-01 3.742942935919555403e-01 -7.117690647658527769e-01
-9.770713808271890011e-02 1.781869606743884393e-01 -6.498180005781223345e-01 6.177569015446778833e-01 3.544376784985416862e-01 -7.019617814770856556e-01
2.846477034471400769e-02 1.163469219196513749e-01 -5.868658283932430830e-01 -5.943808377015885602e-01 -3.742942935919555403e-01 7.117690647658527769e-01
-9.038007611134281361e-02 1.557235205029786629e-01 -6.650840127236651300e-01 -5.892593727439204843e-01 -3.772831931332987221e-01 7.144443881874804614e-01
1.046273252057335901e-01 -4.961134901007730608e-02 -6.001306847564222835e-01 5.900111438434222366e-01 3.759027068495640056e-01 -7.145516112386474106e-01
4.125200776561724347e-02 -9.408263635815060366e-02 -6.868450175699198912e-01 -5.943808377015885602e-01 -3.742942935919555403e-01 7.117690647658527769e-01
-1.149641063019113570e-02 -1.459231713955148613e-01 -7.474360402620355837e-01 5.943808377015885602e-01 3.742942935919555403e-01 -7.117690647658527769e-01
4.623220024991941957e-02 -4.626277401166422470e-02 -6.468204028632538183e-01 5.943808377015885602e-01 3.742942935919555403e-01 -7.117690647658527769e-01
-1.616195910991863327e-02 1.120185754781646281e-01 -6.156896410966137267e-01 5.943808377015885602e-01 3.742942935919555403e-01 -7.117690647658527769e-01
-8.747260569493635340e-02 -6.978768298688792227e-02 -7.864404830361848564e-01 -6.002213321242260147e-01 -4.657195171217496377e-01 6.502612427593266187e-01
1.290632623622462449e-01 -4.590440184947134489e-02 -5.872727061134799253e-01 -6.334339900683579883e-01 -3.589060811161073894e-01 6.855273919866059495e-01
5.869572424033148161e-02 6.806983996457979802e-02 -5.762889239074920900e-01 5.943808377015885602e-01 3.742942935919555403e-01 -7.117690647658527769e-01
-3.502974843871576628e-03 -1.339773795364848086e-01 -7.344790472700846173e-01 5.943808377015885602e-01 3.742942935919555403e-01 -7.117690647658527769e-01
1.479315851935269870e-02 2.981824330715313748e-02 -6.330660446628518789e-01 5.943808377015885602e-01 3.742942935919555403e-01 -7.117690647658527769e-01
3.705095565715799122e-02 6.939083802731199624e-02 -6.043882676913868712e-01 -5.943808377015885602e-01 -3.742942935919555403e-01 7.117690647658527769e-01
6.665082865190172234e-02 1.303083668556030417e-01 -5.449920741247727962e-01 -2.857264971510362628e-01 8.540105686530267137e-01 4.347715692806199961e-01
-5.445981867895541284e-02 2.183717409561387324e-01 -5.924678411348107687e-01 6.060385651438784382e-01 3.519191559411835590e-01 -7.133513617005253771e-01
5.172979789986392740e-02 -5.590022944853089565e-02 -6.472974928283218299e-01 5.943808377015885602e-01 3.742942935919555403e-01 -7.117690647658527769e-01
-4.112446982569530757e-02 2.174805967591110778e-01 -5.914469953157300841e-01 -5.924158034170723397e-01 -3.795455341761090895e-01 7.106255718370094732e-01
-6.068167417409757458e-02 2.235940269736083341e-01 -6.039601877393107054e-01 -5.549220460273053268e-01 -4.296236442935790212e-01 7.123798474808039627e-01
9.121958595716306295e-02 -7.123713995465288940e-02 -6.225824285667499458e-01 5.898709534199301219e-01 3.761432049737648553e-01 -7.145407949610202980e-01
1.177421028001536746e-03 -1.845861927413206538e-01 -7.677644981471299923e-01 -5.938588043686239271e-01 -3.700294310536604292e-01 7.144298010497410756e-01
-8.109639605438741239e-02 5.180432036077545210e-02 -7.121902355406424245e-01 -5.908146498691602133e-01 -3.756911850832112543e-01 7.139987275554164903e-01
-3.952316168757944587e-02 1.739410098159864526e-01 -6.133092196913538796e-01 -5.896660932357650209e-01 -3.768879114786777840e-01 7.143174369069470453e-01
-1.138474627862879618e-01 1.588395487268035589e-01 -6.803222486067029839e-01 7.526828632170864397e-01 -5.705741832183601758e-01 3.285020682796838676e-01
7.154894410596873700e-02 -2.246115394252308148e-02 -6.238815750897687140e-01 -5.943808377015885602e-01 -3.742942935919555403e-01 7.117690647658527769e-01
9.483721432564572174e-02 -1.534449643317982725e-01 -6.729167202271973958e-01 -6.050516387226486659e-01 -3.658872197800384640e-01 7.071343980324187317e-01
-5.074613877746440155e-03 -6.814707385412173239e-03 -6.789679863447765085e-01 6.313628625827247820e-01 -3.609381344629775668e-01 6.863705987596885327e-01
-7.065111419486755362e-02 9.901490890847179649e-03 -7.225026873299179586e-01 -3.249550617873418479e-01 -8.230558265523233441e-01 -4.658146779536436188e-01
-7.366763593908935703e-02 1.121011286321165201e-01 -6.637234096282534912e-01 5.982052271934791277e-01 3.722958417015718724e-01 -7.096099720340154349e-01
6.310549131015313895e-02 1.544620440478792489e-01 -5.275735578384448399e-01 5.851581820132719658e-01 3.683543793088446261e-01 -7.224298950534356889e-01
9.322624279491854848e-02 5.557637688976392598e-02 -5.565404844315232635e-01 2.787792212676074577e-01 -8.503480536954572955e-01 -4.463074426511101644e-01
