-5.211285262981906613e-02 -1.059656794270167068e-01 -8.175633413777715353e-01 9.544141181819755237e-01 -6.816041720922193584e-03 2.984078293044282182e-01
1.132708807045454576e-02 1.951044275380484083e-02 -8.387389168734610267e-01 -7.443653854627014788e-01 3.453187341797914756e-01 -5.715550233787034529e-01
-1.933437350830624971e-02 -2.831210408246024879e-01 -1.022401621841638963e+00 3.866014706878166951e-01 2.813344000539081402e-01 8.782882546227774867e-01
-9.720515515538251730e-03 1.086350206880414004e-01 -7.648323744936151858e-01 -3.431178763067704307e-01 5.179333146509976782e-01 -7.835912228537035285e-01
3.423148438473496563e-02 -1.081599252502001562e-01 -9.429951213967425749e-01 5.009237336281275876e-01 -3.765983332157475938e-01 7.792618998174988265e-01
-1.953381522418093375e-02 -1.201846192950733194e-01 -8.960939439075653601e-01 7.624080677281035445e-01 -3.278311583698597653e-01 5.579074025902283074e-01
-5.549828238996696445e-02 -6.302258803156095268e-02 -8.038275642464134396e-01 -8.892147483086687565e-01 -8.637474700427244523e-02 -4.492622112645340282e-01
8.503748580489949071e-04 -1.380231283593036417e-03 -8.371320291036041805e-01 -3.033209207639406615e-02 5.319932282231059073e-01 -8.462051579345445385e-01
1.162305825933272890e-01 4.987313576647994101e-02 -9.031240037202503679e-01 -7.756731869160088388e-02 5.058290227099828673e-01 -8.591392848981236341e-01
-3.339839984352534208e-02 -6.387158956224724127e-02 -8.458932900821999334e-01 8.114825910646698004e-01 -1.694632295750407580e-01 5.592657849546734949e-01
-3.492594944950285635e-02 1.402288778875707687e-01 -7.347023181703340455e-01 3.032093527490258289e-01 -5.344392448518257011e-01 7.889478955975021135e-01
-6.997699343444888087e-02 1.560862192264818316e-01 -6.758272607939503906e-01 6.776484867264463974e-01 -7.337679376793835306e-01 -4.875594395662306152e-02
1.002353015869977965e-01 5.213311060028525540e-03 -9.195343246983940233e-01 -1.205793061250151621e-01 3.482583606617653538e-01 -9.296110719884901341e-01
6.277681398113883759e-02 1.943270437450146104e-01 -7.988818507613909548e-01 4.881755220006874230e-01 -5.345014459259422868e-01 6.899223608656509521e-01
-4.618841223158453441e-02 -1.219806342811029926e-01 -8.394440721310487685e-01 9.596450594971800419e-01 -5.683770639827376986e-02 2.754103028465656466e-01
-4.379277941642246291e-02 -1.272665311451360026e-01 -8.480115495169520123e-01 9.761332760870788938e-01 3.164333538573245452e-02 2.148546639967876815e-01
8.230453644808326252e-02 -1.249524478827622118e-02 -9.247072039320869408e-01 3.057168298454228106e-01 -3.701346554446153791e-01 8.772328976891831109e-01
-5.510944474130224230e-02 -1.140388296873062340e-01 -7.838205295909345116e-01 9.265126520469419980e-01 3.651429075067758045e-01 -9.080177693437714581e-02
-8.461025902261335579e-03 -3.693707955773987278e-02 -8.531478373679127758e-01 -5.692638493780943776e-01 4.675497977912112524e-01 -6.762661135800254186e-01
-1.213967476144841261e-02 -4.551361950252255650e-03 -8.316205276118802114e-01 -5.639147814150475835e-01 4.195158796915553490e-01 -7.113413709241434013e-01
1.416491306056989578e-02 1.471687139284592327e-01 -7.811483677434101214e-01 8.064466396710753271e-01 -2.591397560784791110e-01 5.314982635746020589e-01
6.629614418712698187e-02 1.977381938780393283e-02 -8.994121353024550070e-01 5.677490444003457926e-01 -4.128604871689691147e-01 7.121848360623075358e-01
1.023285251960410480e-01 -3.824257328146830892e-02 -9.339284661970568280e-01 -2.402112472883816685e-01 -2.625886792888527110e-01 9.345296903713097292e-01
-6.870776822511344938e-03 1.712762655660563238e-01 -7.216713990818603985e-01 -7.795262643715284989e-01 3.782782866082492479e-01 -4.992437691505994812e-01
-4.322478085500679884e-02 -6.754942090904340890e-02 -8.313605635664488291e-01 8.798857884953013020e-01 1.233219894384535338e-02 4.750251741468142774e-01
-8.552251018071804767e-02 -3.552705460121691194e-02 -7.397968308301680063e-01 -9.305582158134670934e-01 -3.135661313328886868e-01 -1.890441436886700910e-01
-3.568024860694562345e-02 -1.111322960974205215e-01 -8.590264572554313638e-01 -8.583656157905764639e-01 1.719844974496133327e-01 -4.833526686235095071e-01
9.695143830309467525e-02 4.466192663043117711e-02 -9.014440828546471662e-01 -3.829529688067664916e-01 4.471948010141539309e-01 -8.083092438095675902e-01
-1.099572649113932932e-01 8.526403171420215976e-02 -7.132691597825298047e-01 7.162144131682722792e-01 -3.271213075799430103e-01 6.164645687281757880e-01
-1.127757711153045683e-01 5.517968587532850328e-02 -7.140127630939094860e-01 -8.418800867331962534e-01 -2.036096663036918511e-02 -5.392804007193130467e-01
6.246304101200674842e-03 6.268463830491995126e-02 -8.082879067221875324e-01 -7.623362715902024522e-01 3.181329366764379940e-01 -5.635910251410810590e-01
-1.189963316274599281e-01 1.070477240829440096e-01 -6.810442953306256042e-01 7.049260273608252136e-01 -6.283328736370945578e-01 3.290548523517561885e-01
5.684524698946721161e-02 -7.599100885877610456e-02 -9.388704841514502464e-01 4.309383371621316461e-01 -4.093996164761891654e-01 8.041667138057171371e-01
-1.192228624283018200e-02 -1.620640042299583989e-03 -8.300244665970237801e-01 -5.447500922876609142e-01 4.389372357693875903e-01 -7.145498163233363620e-01
1.767734667928686984e-02 -9.589565389125459527e-02 -9.176264348822045225e-01 -7.344551843698854388e-01 3.021717063676432891e-01 -6.076741248589282440e-01
6.705253272317356072e-02 7.032121673379046478e-02 -8.722026436933980609e-01 -5.852690930808277514e-01 4.163646884254449398e-01 -6.957733358765105791e-01
3.696579707416564053e-02 2.019644090335332431e-01 -7.666251537764150470e-01 5.913343075308326036e-01 -6.766855827806436130e-01 4.386574504027619392e-01
1.106426398197213751e-01 -7.079252551646830760e-02 -9.329313598803824492e-01 8.067026374883915496e-01 -7.947987175017301453e-02 -5.855884259920518531e-01
3.760372028080975065e-02 4.736998371777507988e-02 -8.549775591032827693e-01 -7.298435223092124557e-01 4.024919699050261146e-01 -5.525655138580889414e-01
1.638913523740490041e-02 -1.145948436384273267e-01 -9.316164909631770019e-01 6.346139745006569299e-01 -4.378284151581445238e-01 6.368448651348198597e-01
4.074321697788151758e-02 -4.970627771093005104e-02 -9.162478463170949938e-01 -5.829451731933122938e-01 4.154536709718373300e-01 -6.982644000138081841e-01
1.515488462579965903e-02 -3.903463377994225575e-02 -8.789593182976007668e-01 -7.451447696321366054e-01 4.033890526512996511e-01 -5.310711294082525180e-01
7.151627019007190944e-02 8.625908091504541630e-02 -8.696989745737869759e-01 5.450237473201765548e-01 -3.860901687867781540e-01 7.442334959025086460e-01
-3.908114966491118419e-02 1.273160860940523442e-01 -7.384752256912413548e-01 -4.020486851159488229e-01 4.840636063039439607e-01 -7.771996396348606062e-01
-4.891929129197753606e-02 -1.969478211121559325e-02 -8.055919053616997783e-01 -7.193406418630792221e-01 2.358617730385686728e-01 -6.533898262011093028e-01
1.021632110411440780e-01 -2.297074268698187302e-02 -9.276263857571636073e-01 2.677622546419639732e-02 2.406384157242938693e-01 -9.702454259761251754e-01
-9.035898326133313951e-02 4.393115429310775685e-03 -7.513361487186609455e-01 8.298240184332892344e-01 -2.922387625667306754e-02 5.572594220717694835e-01
-4.256179678179624476e-02 -1.058942775799437269e-01 -8.460165023634647063e-01 9.220705157393682683e-01 -1.673567180040541613e-01 3.489666072033923983e-01
1.270113229049766625e-02 3.970664350513885416e-02 -8.297712687536374920e-01 -7.419980605401422791e-01 3.011533150933175529e-01 -5.989537202179916475e-01
-7.511845386724357032e-02 2.849121108058256385e-02 -7.646029391982631651e-01 7.031030201762030751e-01 -9.033086280810721791e-02 7.053272135990816816e-01
9.982256153060050860e-03 1.539940528216834636e-01 -7.666498369308738514e-01 -8.286168269487397264e-01 2.738014611087887240e-01 -4.882897848533130913e-01
-7.522707265030832702e-02 1.232799579712449273e-01 -7.178920412341597279e-01 -5.700468966687007866e-01 5.053591955676935976e-01 -6.478106351809584940e-01
-1.191096785238579016e-02 -9.572335263551004503e-02 -8.860149049781929076e-01 -6.437187796954024765e-01 4.501507770803470088e-01 -6.188621902826362264e-01
2.213247907596588987e-02 1.954073889525247132e-02 -8.579287823933027246e-01 7.409724309421336086e-01 -3.779234572030029660e-01 5.550979346740850806e-01
-5.449792208561861362e-02 1.387816581046175668e-01 -7.231338437491390270e-01 -4.333714927594715660e-01 5.261461690569098071e-01 -7.316825527851303912e-01
9.266764497473294060e-02 1.311258150522102983e-01 -8.561785048869551273e-01 1.654006165003228113e-01 -4.378180047632180272e-01 8.837182983091773636e-01
5.661090561972661681e-03 1.718908028422941880e-01 -7.445157146744678656e-01 -8.287818576889096622e-01 4.089702567849708426e-01 -3.819214074007304949e-01
-5.086636928930164669e-02 1.284620334089066618e-01 -7.318789140373211932e-01 -4.245341011423198752e-01 4.657034549666805301e-01 -7.764606165153385975e-01
8.200217929114001977e-03 -5.528910355038860192e-02 -8.841061779914304308e-01 7.390780287799182391e-01 -3.496753881067276026e-01 5.757523689288649438e-01
7.494139125625309816e-02 1.300508564409298129e-01 -8.490938669025929197e-01 -3.981922840487273074e-01 4.316960300996134925e-01 -8.093710166050493982e-01
-5.233252585048708827e-02 -1.119008720822053105e-01 -7.770144219325113566e-01 -9.025442912531627115e-01 -4.049150623939762328e-01 1.464841103082797358e-01
9.671180151813583981e-02 9.683319664593889597e-02 -8.735889943899073362e-01 -2.500292432058516812e-01 4.768367761006098715e-01 -8.426814739270622745e-01
-1.612222452297320044e-02 -2.786033250285949170e-01 -1.024172870543696767e+00 -9.797357391687973038e-01 -5.220731762300864776e-02 1.933708286737700899e-01
-6.611250272781946102e-02 3.332855816949273006e-03 -7.776267917340872193e-01 -7.190808226126580438e-01 1.792338019537389471e-01 -6.714149348859547173e-01
9.717423057884955195e-02 -1.051863234734282671e-01 -9.494043490343613279e-01 -6.047091795493568789e-01 -6.583529404054108691e-02 7.937206827513941798e-01
3.623132516613598170e-02 1.837970274325328723e-01 -7.861852353689255946e-01 6.188041445365141113e-01 -4.879221100339949935e-01 6.156406786790548091e-01
-7.112614483886588179e-02 -6.268846714399407827e-02 -7.581360476715008900e-01 -9.465552413502534845e-01 -2.780852129853864096e-01 -1.634068217402054879e-01
-1.467061003559545426e-02 -1.728343480553109490e-01 -9.385511119567504501e-01 -5.726388169842518971e-01 5.477733794740808904e-01 -6.099418906932209117e-01
3.884355782647378602e-02 1.748653609162553746e-01 -7.917393103895870032e-01 -6.165340562210278597e-01 4.228044485426764587e-01 -6.641702762185084374e-01
-5.521515004677514382e-02 -1.771681475046026771e-02 -8.006982220397808048e-01 7.598039009601266214e-01 -1.748946674542234403e-01 6.261867831420996344e-01
3.700316503486821701e-02 2.137877153767130944e-01 -7.425273238603260495e-01 -6.236193069029164482e-01 6.625325976491688307e-01 -4.149090467923908232e-01
9.174060181197186969e-02 -4.828121561908403636e-02 -9.377566086541109236e-01 6.086346099855043795e-02 -3.637905588293905979e-01 9.294902196483176837e-01
8.124046470771919062e-03 4.007924611966980771e-02 -8.282364908547336091e-01 7.614614778793917793e-01 -2.443523122505849854e-01 6.003901774708884087e-01
-4.134753813868736333e-02 -1.616212567371417275e-01 -8.463438254247318548e-01 9.858183683623430449e-01 9.596505984022930813e-02 1.376693571179467002e-01
-4.266222564550441881e-02 -1.273636171881977475e-01 -8.451163064043156758e-01 -9.592208050412106557e-01 4.684563742575911099e-02 -2.787488716215115736e-01
5.753792867019826007e-02 8.351270998367127385e-02 -8.593374442403872715e-01 6.066140623564333367e-01 -3.008388864667209672e-01 7.358772613288772080e-01
8.628731862529671892e-02 1.934281103082630682e-01 -8.120398271817623748e-01 -3.195725430686919277e-01 5.310879356022117914e-01 -7.847413550810166116e-01
-3.411694910502711953e-02 1.582040009933877167e-01 -7.212361161499389883e-01 3.106203752537518015e-01 -6.115729551156817712e-01 7.276630422443418622e-01
1.335426479173072375e-02 8.361959680578504028e-02 -8.109897484606554130e-01 8.059268177459765203e-01 -2.804116796415162538e-01 5.213935695407712068e-01
2.513575337553108913e-02 1.573040366551294866e-01 -7.906202100570896008e-01 6.940681449921333179e-01 -2.872905009139354315e-01 6.601011878430452784e-01
1.760969327797929501e-02 1.936675205118637833e-01 -7.391402447819440669e-01 -7.400337204908830069e-01 5.532367181659475497e-01 -3.824646731521664234e-01
-8.856601881058544234e-03 -2.712136479438009493e-02 -8.467886581203002416e-01 -6.069498649918716460e-01 4.103181679529806503e-01 -6.806253465997709196e-01
-3.004581174640489488e-02 5.608173017577256642e-02 -7.839032555676308522e-01 -4.638371782072638894e-01 4.748305524463345417e-01 -7.479244738449409846e-01
-7.758227489651634001e-02 -4.408679982786510576e-02 -7.647245153066551948e-01 9.429316319517325740e-01 1.738995952105586162e-01 2.839698368673093110e-01
-3.114624215192371426e-02 4.108070610274031954e-03 -8.134798733713616281e-01 6.047212965855062183e-01 -4.046920399411508273e-01 6.859566358482251935e-01
9.913110053600476812e-02 1.242953475379232342e-01 -8.606472965149749577e-01 -3.505089265924889175e-02 -5.211893702113067350e-01 8.527209832662331346e-01
-1.294911943908749231e-02 7.910624953749451072e-02 -7.840928504026662971e-01 4.710426802630433563e-01 -4.501496012322572793e-01 7.586067030293418556e-01
-8.967753499961844676e-02 3.269063928710387590e-02 -7.486537263597393688e-01 7.795516921073918359e-01 7.762569536284899714e-03 6.262897906294627726e-01
-1.186723862981212824e-01 9.772950137138904092e-02 -6.937276289699439991e-01 7.238839999374571121e-01 -4.584151208480417017e-01 5.156040453801954415e-01
-2.583656758600405209e-02 -1.707515651566907378e-01 -9.196462462823274953e-01 -8.035660412210324788e-01 4.720171480586111690e-01 -3.626036808072596873e-01
-1.689632393241002201e-02 5.434635310732968683e-02 -7.962191371281488461e-01 4.810672709820984494e-01 -4.514831804258104264e-01 7.514899989902936728e-01
-4.859905752174764615e-02 -7.267683076485985383e-02 -8.207433686938064854e-01 8.855764035863951111e-01 6.682792864605813232e-02 4.596612463150044903e-01
-6.134704003053357418e-02 4.046869194233045780e-02 -7.743954206889258618e-01 5.959081979599260004e-01 -2.808795085297917660e-01 7.523297955632332057e-01
-2.689087093529711481e-02 4.470561051264435037e-02 -7.955578623688110973e-01 4.754072756429224000e-01 -4.417679469440336515e-01 7.608081251660159250e-01
4.587001688079611617e-02 1.362353314115779812e-01 -8.221362242205590976e-01 -7.195126923318656553e-01 3.791109275468294570e-01 -5.818731736280103872e-01
-7.597950540237527473e-03 -2.285479602126415377e-01 -9.951362308392178724e-01 -6.447215823377484556e-01 5.979637723873527655e-01 -4.762073163866722969e-01
1.105582610961222505e-02 8.065866300897550634e-02 -8.052063267471000207e-01 -7.759792072498884474e-01 3.009076703591080926e-01 -5.543562427130130921e-01
-1.157454952755550409e-01 3.779891702080978577e-02 -7.091118267755608384e-01 9.582602871200809336e-01 1.820817540459404027e-01 2.204165533078072670e-01
-2.935475482417425775e-03 -2.119974187439387647e-01 -9.823794239531034034e-01 -5.404634033722800490e-01 5.314738932463966004e-01 -6.522536396316772622e-01
-5.760434541871169156e-02 5.075555169686841311e-02 -7.725399028625752340e-01 5.014926580334537753e-01 -3.677847992536482091e-01 7.830960703365169584e-01
4.973499829075228584e-02 6.236450408200305134e-02 -8.597027393812980423e-01 -6.740050122909647667e-01 3.783239956979408958e-01 -6.344983827290663347e-01
-6.080828880009143955e-02 4.920181555244543953e-02 -7.683948410903572723e-01 -5.851049189491523972e-01 3.178759831629828780e-01 -7.460610518916483969e-01
9.325994185639722989e-02 -2.972782046305249767e-02 -9.315708464456884386e-01 3.897504056141949669e-02 -2.508307703804177335e-01 9.672460239482000288e-01
-9.520983336045196754e-02 6.302802619865072176e-02 -7.377899244370788034e-01 7.201103394338840280e-01 -2.227290530889246001e-01 6.571399150489394270e-01
-6.930106153581520878e-02 1.243576137485936234e-01 -7.221051127270653458e-01 -5.302098850002778807e-01 4.228476427978047902e-01 -7.348995501620152471e-01
1.108271778536534385e-01 3.472565820197062031e-02 -9.100666427397194891e-01 -1.103673177281862400e-01 4.051812674624064026e-01 -9.075501064266608964e-01
-3.559264997162486094e-02 -8.578220923339124893e-02 -8.492426520655000921e-01 7.971920019612194208e-01 -2.300592184489756165e-01 5.581735106718248574e-01
5.076143651388020928e-02 -1.541144878728691325e-01 -9.658931400902490694e-01 -1.974487143974225645e-01 3.663365632919821646e-01 -9.092917725231129955e-01
-3.534288544963261336e-02 1.207832215892959138e-01 -7.439062520356315433e-01 -3.986569006163491746e-01 4.525729176294857048e-01 -7.976530761047068152e-01
-4.095433386097585560e-02 -1.347506826295981341e-01 -8.574386372604343443e-01 9.720424027586981319e-01 -2.013963934924947741e-02 2.339400824270583545e-01
-3.508250694936255760e-03 -5.166905134493782192e-02 -8.659964553042807101e-01 -4.055786223005499735e-01 5.054797947959581705e-01 -7.615747883076383618e-01
-4.788708976067681568e-03 -2.097000809333693094e-01 -9.746354491830437894e-01 -8.120905325767746596e-01 6.331081481818763568e-02 5.800868104225673783e-01
5.553566162883647600e-02 1.981619476606098773e-01 -7.870414169747962374e-01 -5.391522634790544277e-01 6.045471665690267393e-01 -5.863766367947940150e-01
1.132522390101216997e-01 6.363096790916496215e-02 -8.949551163976947610e-01 -2.981264676659920940e-02 5.045440401680820752e-01 -8.628710898063736146e-01
6.215398879881021965e-02 -3.000516678079881080e-02 -9.213718478630843478e-01 -4.619996796368904257e-01 4.134294120026719144e-01 -7.846224680102754645e-01
-7.920015408623405639e-02 8.613532664772657887e-02 -7.394424414540875512e-01 -6.047516287217825637e-01 3.593854738882306665e-01 -7.107162223535375967e-01
2.017710154568908357e-02 -1.675213379069048492e-01 -9.640351018752953971e-01 -4.345031283934489563e-01 4.410316905931049303e-01 -7.853012665906594636e-01
-1.517444796244926675e-02 -1.184900226751587488e-01 -8.975076481605814838e-01 -7.721596467117447515e-01 3.191967349274471011e-01 -5.494387358037751135e-01
1.207113323925090333e-02 -1.299424255349471424e-01 -9.368563285184311473e-01 6.206617018066210578e-01 -4.287439785159100070e-01 6.564736497353552691e-01
8.803534211265266751e-02 1.552340454809806106e-02 -9.144377220298727238e-01 2.426495842084641641e-01 -3.944242210682511462e-01 8.863129882373173007e-01
2.721457702642815155e-02 -3.161757033116891023e-03 -8.728165357023062176e-01 -6.983516781605580981e-01 3.282379223238205412e-01 -6.360540857182459540e-01
2.350126016090732062e-04 1.858306086887777653e-01 -7.205868956629457589e-01 8.016544743599135492e-01 -5.144549133496205684e-01 3.044441588685273814e-01
-4.771178473275861087e-02 1.645888386216022292e-01 -6.997686762857606713e-01 -5.274476800648978392e-01 7.178399626158767921e-01 -4.544279182288361585e-01
-8.754671867674740371e-02 1.260619628179648066e-01 -7.008159208475800428e-01 -6.982133896901739911e-01 5.886103674280946940e-01 -4.074750272268481410e-01
-5.894808313859645210e-02 -6.147338887351737335e-02 -7.971279346189185100e-01 -8.910994541671329872e-01 -1.389107575707000386e-01 -4.320249578602743390e-01
8.593671673595333627e-02 5.471956205381734231e-03 -9.183300821797425462e-01 3.157780527710764562e-01 -4.133505774556642809e-01 8.540641202539632770e-01
-1.868694007267208274e-02 -4.515819872467186080e-02 -8.494368159469950497e-01 -6.182294812784867588e-01 4.343716047150571469e-01 -6.550676434502006318e-01
-1.956183257130558392e-02 6.101012486040337940e-02 -7.899832412149294658e-01 4.870325672581191090e-01 -4.895666275084631369e-01 7.232729745123588350e-01
-3.114637559914595205e-02 -1.511871478563734938e-01 -8.862261379620276491e-01 -9.389020166171033743e-01 1.438419107841495959e-01 -3.126859573026923855e-01
9.140060935914523163e-03 6.210343690173665554e-02 -8.169663837547630481e-01 7.705654325942007388e-01 -3.050646272485620925e-01 5.596110142702771517e-01
-2.345906146996273520e-02 -1.791437514962518074e-01 -9.370361561881889179e-01 7.505827068428171378e-01 -4.522005209405000059e-01 4.818093907860764302e-01
-1.110326494907720035e-01 6.979873079319331985e-02 -7.178180903338456931e-01 7.477505844473558705e-01 -1.368375787361539864e-01 6.497265120835569174e-01
4.495655648439077917e-02 -3.993494545326441852e-02 -9.167145732488164445e-01 5.419294913399514968e-01 -4.118806243998270888e-01 7.325754416167866712e-01
2.046695443554248303e-03 -1.938854960808037431e-01 -9.746813334229290637e-01 5.841982468951090191e-01 -4.838395395662533072e-01 6.516223663111918585e-01
1.351142859520309235e-02 9.971831345264144109e-03 -8.523286967125602853e-01 7.441123340998548885e-01 -3.461328797811710212e-01 5.713920403495827971e-01
-2.901490945967154580e-02 -5.287061498620840988e-02 -8.463916541552829464e-01 7.216924873606782587e-01 -3.517342829958801653e-01 5.961903620929569492e-01
-6.194478753164346652e-02 -7.003343695513861156e-02 -7.916760999893098782e-01 9.045846632438249157e-01 2.583312084833843669e-01 3.391040750972624807e-01
-1.712380261810604598e-02 -2.028669329194430215e-01 -9.600242755368691983e-01 -3.034697850248149753e-01 5.991224881969696714e-01 -7.409172246031703324e-01
-3.977313496804238402e-02 -1.322041537200147610e-01 -8.547293986497913609e-01 -9.478091869326513708e-01 6.779984539818202649e-02 -3.115460257009367573e-01
-3.655949995126812208e-02 -2.326648352791553867e-02 -8.196954767728187319e-01 -6.993020092933998066e-01 2.081975681265530453e-01 -6.838351207889246108e-01
4.368619645618515047e-03 1.678154927518178130e-01 -7.458595430169169260e-01 -8.439882870008886817e-01 3.560853767727511499e-01 -4.011071874872267351e-01
6.715594798095932128e-02 -7.563519453812959925e-02 -9.409377298214933738e-01 -3.320702239593807947e-01 3.610551837546180920e-01 -8.714175351939422720e-01
-1.059650471039559061e-01 9.136824763625880919e-02 -7.108396792012461329e-01 -6.980432021492205541e-01 3.627872127726868845e-01 -6.173500839733383483e-01
4.863753855150797570e-03 1.646580833088372164e-01 -7.543327601279715688e-01 8.453654651193786007e-01 -3.068844169645668640e-01 4.372404201441288385e-01
3.331401917368458435e-03 -7.746111097632453479e-02 -8.939280113786487458e-01 5.340014230255177852e-01 -4.112782731706232098e-01 7.387101341016732992e-01
1.852423253046238394e-02 1.204894738817416239e-01 -7.972019485191166321e-01 8.096263807687186231e-01 -3.010385517753011442e-01 5.038659681982653460e-01
-2.570082439894655346e-02 -2.137692814793875073e-01 -9.668160295878831523e-01 6.229498744346491090e-01 -5.491606403077662346e-01 5.570960824477401152e-01
-1.581450252591913228e-02 8.040463110181232664e-02 -7.815431976446524098e-01 4.710426802630433563e-01 -4.501496012322572793e-01 7.586067030293418556e-01
2.128622454123653418e-02 1.780996780163150439e-01 -7.682767618416374011e-01 -7.480895329948339390e-01 4.350753897631883249e-01 -5.010703102818813148e-01
-9.769355547229724435e-02 4.705218425550482253e-02 -7.385547069162176070e-01 7.626026843992718129e-01 -5.239675620657899269e-02 6.447415960569420346e-01
7.468746636034835629e-02 -7.063886067890512432e-02 -9.436017358023384149e-01 2.641319662872109175e-01 -3.368815134768541331e-01 9.037395367376575006e-01
-9.184553515266513646e-02 1.095199836642937602e-01 -7.138030191670561297e-01 -6.503399093732893377e-01 4.756310098889834914e-01 -5.923116955694250896e-01
-5.748201845964305556e-02 1.661676974179797928e-01 -6.790041913028428411e-01 6.002242722738325709e-01 -7.966463307847714281e-01 7.131231745293907520e-02
-1.077340557287761180e-01 8.228832862559886524e-03 -7.178291562900237510e-01 9.448262492253232114e-01 2.321238186960757899e-01 2.311317623537679777e-01
1.144117056163739404e-01 7.561454008576275199e-02 -8.904602743827786382e-01 -8.252501888774409211e-02 -5.393774326544500397e-01 8.380105049464904310e-01
3.709026577310680500e-02 1.309366198063350029e-01 -8.182627732051268588e-01 7.172200286105069322e-01 -3.686370703186800935e-01 5.913561878823995199e-01
-1.365620764406699598e-02 1.759670505125435491e-01 -7.109872634965143101e-01 -4.589740103187570641e-01 6.532936405166076543e-01 -6.021214803612928712e-01
1.047301216177678462e-01 1.617324671415336090e-01 -8.355257366160810939e-01 1.909946933094539556e-01 4.830250678607209136e-01 -8.545219780355410855e-01
5.009222315464696013e-02 3.270949527915058969e-02 -8.808207705873972726e-01 6.145587217172786554e-01 -3.726360253807499134e-01 6.953128577479792405e-01
-1.862084504566458368e-02 -2.016752449004046571e-02 -8.350685815468247286e-01 -6.228908744669040543e-01 3.293452962044247090e-01 -7.096045619736920385e-01
-7.614260882324243307e-02 7.388132522766494015e-02 -7.501785010129338183e-01 5.122282805803516359e-01 -3.752298826183141922e-01 7.725443183170417338e-01
-9.135684808566805560e-04 5.813707921539589679e-02 -8.069931340343706738e-01 5.471087537792973521e-01 -4.497405223250075523e-01 7.059783807716024651e-01
1.934718678873349751e-02 -4.742862238008829778e-02 -8.935529181024389755e-01 7.372217660346920276e-01 -3.475111328984358261e-01 5.794308243408659020e-01
-4.323292640391652314e-02 -1.557072379223604364e-01 -8.241445537437710467e-01 9.779674618772458139e-01 2.084745636512152778e-01 -1.086277219741879282e-02
-5.242926120251271277e-02 -1.135916255422822346e-01 -7.731789970386240274e-01 7.671449268380082787e-01 5.472067199442016694e-01 -3.347438825051393674e-01
9.101407582797693078e-04 -2.002171423868650824e-01 -9.757975410343764366e-01 -6.583728316942406567e-01 5.111195790042707410e-01 -5.525413925177046215e-01
-1.601665981255169513e-02 3.775098280540636203e-02 -8.040524016612775604e-01 -5.024821561791845692e-01 4.489460177431893739e-01 -7.388904897710143471e-01
3.869727665874465178e-02 3.299494516887958862e-02 -8.692699732089117504e-01 6.903595207179143989e-01 -3.929146050327632644e-01 6.074716827195152380e-01
1.697321256596346153e-02 2.888299723662878654e-02 -8.402205043197371603e-01 -7.300352867331532103e-01 3.686876982402511604e-01 -5.754284154356197334e-01
-2.807421139321376186e-02 1.308136265658793596e-01 -7.414383012377037119e-01 -3.339064944180591965e-01 5.337262545803314051e-01 -7.769444884656137029e-01
8.709686483438706939e-02 5.550724268552043733e-02 -8.922480992725408955e-01 -3.081935807020280693e-01 3.912858565207796291e-01 -8.671286497982076957e-01
-2.989523429141085348e-02 -2.622743097560341630e-01 -9.999666522952811443e-01 6.491764815464174943e-01 2.426462662472185228e-01 -7.208971391837379894e-01
1.544412799496749054e-02 1.900929400432193883e-01 -7.402926111855522295e-01 -7.340561424728089257e-01 5.716272379404045978e-01 -3.666113480820843429e-01
7.050558088777145183e-02 2.048051743836259986e-01 -7.967803083940196984e-01 5.429528419543692142e-01 -5.303027188730887742e-01 6.511384167513720733e-01
1.367375319493029616e-02 8.963800854313820621e-02 -8.080638402059099334e-01 8.039232457809887267e-01 -3.007108352855757394e-01 5.131085737295872917e-01
-1.841731516930887602e-02 -2.332880975798277134e-01 -9.917806401257209803e-01 5.405923995477931454e-01 -5.761229091909708666e-01 6.130597450954448080e-01
8.404253735877477427e-03 1.693239677722427894e-01 -7.528781225712654068e-01 -8.378655929680680625e-01 3.558712454212507037e-01 -4.139286228356232056e-01
5.688530499373541105e-02 -1.106828872420292653e-01 -9.539849154187334257e-01 2.197777776806040251e-01 -2.993313403413207507e-01 9.284925832376064170e-01
-1.512745734835623662e-02 -4.764837995331495935e-02 -8.543674196332153858e-01 -6.226846805010439745e-01 3.937959064266904896e-01 -6.761572100857122791e-01
6.022389623660864832e-02 5.300095858432077311e-02 -8.787098440991071291e-01 6.026956715312490331e-01 -3.944214211518148883e-01 6.936783621060120808e-01
-3.419097866792071561e-02 -1.674779754511023233e-01 -8.861194220070505168e-01 -9.448231818000359938e-01 2.447067948424815620e-01 -2.177791075635487072e-01
9.020973168737733694e-02 5.979879700066939585e-02 -8.914179353464564137e-01 -3.081935807020280693e-01 3.912858565207796291e-01 -8.671286497982076957e-01
8.990009523775052691e-02 1.591328359301577289e-01 -8.369346516342548448e-01 -2.263689104492362381e-01 5.342130346144934316e-01 -8.144774705478352583e-01
-3.619820977673825213e-02 -1.678619262609974960e-01 -8.874239129858095820e-01 9.517380734196551062e-01 -2.290141463906221753e-01 2.043212185663000058e-01
-7.783450811982579876e-02 1.084215335049414260e-02 -7.624671217542923207e-01 -6.867282265313717771e-01 2.291906562285065951e-01 -6.898376519026948595e-01
1.803914546779534361e-02 -7.817575440973148840e-03 -8.648816527460427839e-01 -7.438796646001928359e-01 3.312880192271177027e-01 -5.804233738495353512e-01
-3.731177316396655508e-02 -1.673631775036663327e-01 -8.694856268553941003e-01 -9.948026469639994485e-01 6.283996221031146190e-02 -8.011761817994153545e-02
-2.118241873482889712e-02 -6.446234273029613493e-02 -8.578049352055114873e-01 -6.982025905644060337e-01 3.132364003129974317e-01 -6.437360484298731977e-01
-4.397649025260080835e-02 -1.270076491143028175e-01 -8.400649054140220118e-01 -9.710138443858135071e-01 1.781678032375020801e-02 -2.383582940658419691e-01
-8.682811698541179068e-02 1.318566761449805613e-01 -6.993726965748828794e-01 7.017922387413403351e-01 -6.034335585396475299e-01 3.786232878080733610e-01
6.647318101985182082e-02 -1.037539491069128239e-01 -9.537805728066250932e-01 1.687879224449316817e-01 -3.095041369130241971e-01 9.357979624205472469e-01
-2.666847207865497005e-02 -2.172003267836669915e-01 -9.692033782306831435e-01 5.979257788938663332e-01 -5.760850000922548286e-01 5.573247128944401885e-01
8.269224446051012811e-02 5.404457531152711408e-02 -8.910263452731452816e-01 -4.289847496310739694e-01 3.909294022935351776e-01 -8.143379439804976361e-01
1.042185346018901088e-01 -1.006587484121626713e-01 -9.397948128849795690e-01 2.280705486183391140e-01 1.962853778868827170e-01 -9.536539599250525301e-01
6.892547461116589613e-02 1.184336098284812233e-01 -8.533569011531477733e-01 4.549193724659538196e-01 -2.985443448688229751e-01 8.389991887374075308e-01
4.631058738709675771e-02 1.936824501876331373e-01 -7.870132469350836768e-01 5.273505480915526844e-01 -5.916023584879553932e-01 6.098426427030401165e-01
2.347738391497234192e-02 -8.942111026971089061e-02 -9.206804245795784380e-01 -6.332543528399414701e-01 3.032390205105793823e-01 -7.120639164071237426e-01
-7.536313017395093738e-02 1.256289431471684093e-01 -7.159398651516032386e-01 -5.700468966687007866e-01 5.053591955676935976e-01 -6.478106351809584940e-01
9.706289410924860694e-02 -8.397881064959654418e-02 -9.465960988054930025e-01 -4.370218474614273041e-01 -1.656784725414629511e-01 8.840602629785644373e-01
2.758833890073655176e-02 -1.008798731385681380e-01 -9.333134505506394119e-01 6.328951624343553961e-01 -4.394089513460439078e-01 6.374664593875986052e-01
3.118874542726715951e-02 2.127416840214195748e-01 -7.406965939371642493e-01 6.314706918356317589e-01 -6.214666102599435415e-01 4.637068229869428793e-01
-2.481398164120571237e-02 -1.227232023732386379e-01 -8.851192194138319813e-01 -8.326970634236290358e-01 2.670458417030107112e-01 -4.850794976030167183e-01
7.395658623698229961e-02 -8.127553122646145878e-02 -9.470543912536784070e-01 1.412445126753358315e-01 -3.443475614215749103e-01 9.281566379561813074e-01
-4.189640830007570343e-02 -3.574841838550981560e-02 -8.193243797493352520e-01 -6.905565793879507863e-01 3.373934982570970798e-01 -6.397634234604624437e-01
6.649299976001617207e-03 -1.061257186793861246e-01 -9.067458992032725318e-01 -9.775863234060885310e-01 1.365859865504253368e-01 -1.602162556278650118e-01
6.527625087620096689e-02 -1.500781856931821256e-01 -9.651122620938502594e-01 1.368530761988093480e-01 2.249612335986977407e-01 -9.647091162172539702e-01
2.494744817913655335e-02 7.105148949887980792e-02 -8.331742491003680806e-01 7.572282949296911259e-01 -2.771290413123655427e-01 5.914429844195987496e-01
1.504542387231923815e-03 -1.366011728488888410e-01 -9.308328880283067708e-01 3.089574259242875431e-01 -5.086626882767210089e-01 8.036215393587567979e-01
-1.262023169835137628e-03 1.307158099608419499e-01 -7.593775146758983130e-01 -8.336632748478773891e-01 3.126756142861617516e-01 -4.552356580944466047e-01
7.038695628706834184e-02 -5.115989754495014682e-03 -9.131843684891249868e-01 -4.535769544063446013e-01 3.836965175146890283e-01 -8.043910298347222154e-01
-3.618505089715561701e-02 -1.891679323450663475e-01 -8.795141090335246714e-01 -9.822062738369196078e-01 -1.863358878945253483e-01 2.344722836397818491e-02
-3.754121502736309374e-02 -1.828340921659762364e-01 -8.983981477129171500e-01 9.789167290629883222e-01 -1.852904490622442057e-01 8.596212565386908422e-02
-3.384172186178957542e-02 -1.880959660946551482e-01 -9.154538828487805979e-01 -9.382296073871759789e-01 2.420479347488637134e-01 -2.472609979473413544e-01
-4.568232803821959537e-02 -1.085640193197399683e-01 -8.380545674784876109e-01 9.450283094084468427e-01 -1.035093217531857235e-01 3.101730399741540745e-01
3.196501383604703067e-02 -1.217415689664859135e-01 -9.482073067475261796e-01 4.376315046728197489e-01 -3.915878351102757837e-01 8.094057286129444639e-01
2.789210091502694264e-02 -4.784380291541787816e-02 -9.008777840094098766e-01 -7.233984563985710325e-01 3.442996493131817992e-01 -5.984583734588270199e-01
-4.716835804713925828e-02 -5.064243076936942450e-02 -8.174455908226815337e-01 -8.483632048843017248e-01 6.713442837211669456e-02 -5.251407821961507905e-01
7.076678268946139105e-02 1.760554388619583188e-01 -8.150147693963326612e-01 -4.864204065925745724e-01 5.559318165254844013e-01 -6.740437696655831035e-01
-6.955448738340865023e-02 -6.355138792089445876e-02 -7.658946997209944429e-01 -9.268322598008548185e-01 -3.088218096730792062e-01 -2.135674414855529835e-01
-1.082772824585528232e-02 7.856093245885899246e-02 -7.826404544960630094e-01 -3.981936844187142777e-01 4.908101166628658918e-01 -7.749498171303953464e-01
3.631162250651074480e-02 5.048070537819212764e-03 -8.810491959344380897e-01 6.530057212449437154e-01 -3.017159753593376958e-01 6.946589078348699431e-01
-4.633618642125014037e-02 -1.633473728787901771e-02 -8.099671207965141173e-01 6.800414498045884715e-01 -2.870876467408056687e-01 6.746290163019227348e-01
5.743413279801989901e-02 2.485595836745903287e-02 -8.879665822196748382e-01 -5.591783220833203005e-01 3.258350022010156333e-01 -7.623327065348478593e-01
7.979963519600347110e-02 -8.318585814568905945e-02 -9.464210692985132178e-01 -9.695289498342138379e-02 3.776634839044204495e-01 -9.208530985339133945e-01
4.223487729715703215e-02 -2.450713270869612700e-02 -9.053601932358742443e-01 6.384713347910945247e-01 -4.086530648719156056e-01 6.521940104147446737e-01
-4.560719496878726936e-02 -1.293591091276249938e-01 -8.322035903024993519e-01 -9.780800406025021987e-01 -5.663086454751708326e-02 -2.003805862742402966e-01
1.002343634603337641e-01 2.778335264835165089e-02 -9.133003850552532388e-01 2.206352824062882967e-01 -3.394235024013261826e-01 9.143914687786158790e-01
-4.207823412286687548e-02 1.481470109705957383e-01 -7.227820400742592799e-01 -3.952065493804935437e-01 5.922122461446334141e-01 -7.022082588827133209e-01
2.782450682900206376e-02 -1.859020816875822657e-02 -8.851980456246907325e-01 7.380383515298859498e-01 -4.065068730202399117e-01 5.385643451421149308e-01
-1.947194038997121859e-02 1.574044633128863779e-01 -7.285269015892363864e-01 3.381614113071709782e-01 -5.777619587256246358e-01 7.428579803382823199e-01
6.781612017862037600e-02 8.054098806313760017e-02 -8.668900152475204068e-01 -5.824250071349520441e-01 4.025120272668618049e-01 -7.062330911033356529e-01
-3.720777180714215232e-02 1.690714410354394737e-01 -7.026925648678420400e-01 -3.571497960606369038e-01 8.437903773824981801e-01 -4.005768618012612858e-01
1.349579329250070407e-03 -1.955483010101665212e-02 -8.566496411395726485e-01 4.827262437727544153e-01 -4.611589987805037039e-01 7.445184694934108283e-01
1.066096554244778394e-01 7.874159431923610786e-02 -8.859000614955457875e-01 -1.119366973070480692e-01 5.029137450736232973e-01 -8.570577231505547289e-01
-2.942609912757210983e-02 -1.318098508565324900e-01 -8.869551356390487085e-01 8.953358611936482747e-01 -2.330876843550908351e-01 3.795310620523826839e-01
-2.934526572630482069e-02 -1.800312268716560415e-01 -9.214832718141774404e-01 -8.839954120157801354e-01 3.401517299872495181e-01 -3.207006581248817434e-01
2.876079875814409673e-02 3.868919129359103121e-02 -8.532555007734772268e-01 7.390450466837692467e-01 -4.031824641394077258e-01 5.396816835715851912e-01
-1.006083675404382122e-01 4.630180212300676057e-02 -7.316466507293437616e-01 -8.020928975536106842e-01 6.753893591973807176e-03 -5.971610910092866042e-01
-3.303230693281242192e-02 2.449636399125966132e-02 -7.985456762062576042e-01 -5.324321049359499458e-01 3.121774846088569699e-01 -7.868044685541386585e-01
1.002897820527003936e-01 -1.276897302194713972e-02 -9.272675541308016411e-01 1.244986863360763620e-02 -3.162555428532931590e-01 9.485923425716521473e-01
-7.298371937062461678e-02 6.538735470060988431e-02 -7.532989157461260632e-01 -5.651512193223786618e-01 3.399186370734323948e-01 -7.517043431220605809e-01
-3.335974018524053009e-02 1.272362590495589307e-01 -7.413187101941420831e-01 -3.911461585118842788e-01 4.453663895701696074e-01 -8.053902543007507298e-01
1.080160509347666692e-01 -5.184078610418069166e-02 -9.335063486134974609e-01 3.840721196473914079e-01 2.311966032764568024e-01 -8.938885487257283158e-01
-9.674870205626377728e-02 6.510389391102831824e-02 -7.354000052237802398e-01 7.201103394338840280e-01 -2.227290530889246001e-01 6.571399150489394270e-01
2.449940370042020046e-02 -8.568005269508111033e-02 -9.227038325476093483e-01 6.405436436023529412e-01 -2.797362069179507027e-01 7.151583706982526101e-01
-4.523070571345816360e-02 1.044123340990799481e-01 -7.525391219575444657e-01 3.724258846576553039e-01 -4.930380471927987007e-01 7.862648691486059382e-01
-1.032657248633073732e-01 3.111483044493619510e-02 -7.271026160236796487e-01 -8.380103137660069867e-01 -5.945666613168994891e-02 -5.424054008528153004e-01
-4.282918139013436321e-02 -7.258996981556058159e-02 -8.272830184383226371e-01 -8.890526808626294519e-01 -3.844765290102247768e-02 -4.561875805382844540e-01
-4.946293893175153500e-02 -1.306783766235353195e-01 -8.192658772874131801e-01 9.776228533402684384e-01 1.820266056558662304e-01 1.054508011360529157e-01
5.464940681525215505e-02 7.112388160271572446e-02 -8.628853565922629532e-01 6.440960668428071800e-01 -3.779939581473452104e-01 6.650269350046876804e-01
4.615947443715565091e-02 1.091950958976357494e-01 -8.404484272160833713e-01 6.609481083858307349e-01 -2.919427154755238618e-01 6.913154481869833168e-01
-1.443741197770188542e-02 -5.249296036985997421e-02 -8.606069759836958433e-01 6.109817107931118096e-01 -4.040846684475503658e-01 6.807473318360899306e-01
-4.242096593674921090e-02 -1.297604621630946142e-01 -8.529332804312610428e-01 9.508525347542345907e-01 -4.234001373198243573e-02 3.067356848960070548e-01
6.810550369271350934e-02 1.896401727085150202e-01 -8.061907456299840513e-01 4.922115756575576873e-01 -5.180026201418882481e-01 6.995720479799368841e-01
-1.235516547365507062e-01 8.595857019729100101e-02 -6.949755081215164276e-01 8.056802509461932216e-01 -2.687913266519461053e-01 5.278546731364281985e-01
-3.004877162169385541e-03 1.390456561309347250e-01 -7.514769565177283894e-01 -8.311823123328601071e-01 3.172620685946655472e-01 -4.565969157758664188e-01
-6.917109024709768017e-02 8.675180908292706716e-02 -7.489667631713424756e-01 5.100802068298916359e-01 -3.795487887066166244e-01 7.718554913918245219e-01
7.681401548496377685e-02 4.713323079562989348e-02 -8.934165939791264277e-01 4.975940310926343924e-01 -3.501550743997057791e-01 7.935941053795190214e-01
1.234146984828791462e-02 4.957256479316389519e-02 -8.283044131936116994e-01 7.203166611794104002e-01 -3.487906236284964989e-01 5.995740225328236583e-01
-1.724890795515375899e-02 -2.283560451103222866e-01 -9.881791775348306439e-01 5.406721202259227033e-01 -5.752585209462045546e-01 6.138006944352462080e-01
4.469787395665415775e-02 -2.444216353279221599e-02 -9.047796412744600891e-01 -6.413194700277522475e-01 4.224416362128151081e-01 -6.405094857667315011e-01
-5.307007643860682522e-02 -1.077272743485714196e-01 -7.715537091712018070e-01 -4.637049622541330463e-01 -6.292554260825136137e-01 6.237109240077546302e-01
-8.293432378265319649e-02 -2.230933332482164938e-02 -7.561888058067328666e-01 -8.591160114659197600e-01 -1.025308753870951828e-01 -5.014051240616169691e-01
5.374907945954045252e-02 -1.385059010079202624e-01 -9.626051812564504484e-01 8.696546571936208947e-02 -2.859583562112232302e-01 9.542876014520934591e-01
-2.410494680061563144e-02 1.761688459822834674e-01 -7.061945978718452421e-01 4.318090097742628974e-01 -7.271675740586552861e-01 5.336368599669824020e-01
-3.069251313176072846e-02 -1.203321201898302911e-01 -8.727350311347397138e-01 -8.934142811013834340e-01 1.853814336967767595e-01 -4.092000077769130106e-01
-4.820114582226090599e-02 -7.941861984197774726e-02 -8.209616734279276962e-01 8.981621998404551999e-01 4.372468870222865137e-03 4.396425187510109023e-01
2.065478210086151706e-02 1.141900994794317198e-01 -8.001235529570611682e-01 -8.090436862327291534e-01 3.484971754092994756e-01 -4.732843040907835919e-01
-4.007326231851329051e-02 -1.649533895022294305e-01 -8.204868308460130377e-01 9.141909287837286513e-01 3.698813167239131117e-01 -1.656585562780494014e-01
1.289890910777168921e-02 4.786542106504521749e-02 -8.257893482665605855e-01 -7.428830332893680000e-01 3.106166350020769240e-01 -5.929941862369091377e-01
-2.738407207556511555e-02 3.600790784289354535e-02 -8.003707811879177125e-01 5.216875125601312391e-01 -4.375866608057609741e-01 7.323660652458489073e-01
-4.313748911393663205e-02 -9.680971202597969671e-02 -8.401442662462501598e-01 9.004284744765699289e-01 -2.214592160477163729e-01 3.744120430479333517e-01
-9.895625159800301718e-02 -1.377259526643569154e-02 -7.231633394788302693e-01 8.378695232430822815e-01 4.773296931263207865e-01 -2.648226313598258108e-01
-1.426128493650580427e-02 1.578187805512802078e-01 -7.308132125563648884e-01 4.065722441547071075e-01 -5.637556573195844356e-01 7.189426744345955855e-01
3.656301519107101744e-02 1.950552727202397307e-01 -7.758774357561991630e-01 6.186149910414935338e-01 -6.261897001584529887e-01 4.745544776674217036e-01
-3.086181790839831809e-02 -1.033164803245643498e-01 -8.687735607593966014e-01 8.243218535326045648e-01 -2.545906539488365650e-01 5.056452122886904155e-01
-1.057276939050848380e-01 6.691536015995053210e-02 -7.249880434230890902e-01 7.474481939526522734e-01 -2.251732995260154191e-01 6.249945460061918645e-01
6.154894236432281035e-03 -1.245294281707518408e-01 -9.200965245587492403e-01 -6.413165140971479605e-01 -1.681682676982497460e-01 -7.486204395323790006e-01
6.201528316339881275e-02 1.360178532702685517e-01 -8.409922809312292413e-01 5.305538720526548069e-01 -4.256742860752598112e-01 7.330170468851684440e-01
-6.003269153511686662e-02 1.248170632155066878e-01 -7.284276033414618379e-01 -4.509405023576975036e-01 4.408738397254030605e-01 -7.760688891968078318e-01
7.211560879518534584e-02 -1.300367884258443463e-01 -9.590481556450694001e-01 6.550823173594580440e-02 2.141630786342394177e-01 -9.745988135252036111e-01
3.423397736718335194e-02 -8.658271434742542683e-02 -9.273569810360771104e-01 -5.300149613132569826e-01 3.001149575791285384e-01 -7.931047553894660096e-01
-4.857171697820684975e-02 -1.099441133146119992e-01 -8.211442115398751573e-01 -9.531506253395080064e-01 -2.426925195324803469e-02 -3.015209591795147137e-01
3.050449995015144106e-02 -1.062471331631952842e-01 -9.365904064754799752e-01 -5.864246518469717895e-01 4.396735646706358414e-01 -6.802891181225625417e-01
8.384448329271357303e-02 1.753909857400698380e-01 -8.230774407569115825e-01 -3.015214470917026990e-01 5.469345686970638054e-01 -7.809912896491756351e-01
-2.898274307861318719e-02 -1.105109477457349165e-01 -8.759544171696287407e-01 8.506953907269415582e-01 -2.363593474803507288e-01 4.695227481758461052e-01
3.061633669426255117e-02 -1.668680108363404246e-01 -9.674400097954057864e-01 -2.998516183287772696e-01 4.309860066973861259e-01 -8.510817052531762794e-01
8.587159665239700590e-02 6.756387149164906625e-02 -8.856944189406491530e-01 -3.634235738292411200e-01 4.743011131799332314e-01 -8.018489633474987777e-01
-1.036662737895645975e-01 7.593142356914671376e-02 -7.243935967443368984e-01 7.182301223608085206e-01 -2.157596652905858781e-01 6.615083205578539127e-01
1.196470109036860963e-03 -6.757627452724503103e-02 -8.775893288492107036e-01 -2.443317859905883016e-02 5.029089316986441460e-01 -8.639939966233997071e-01
7.365734345801785987e-02 1.570712429765984131e-01 -8.347116739022542031e-01 4.034904243451241102e-01 -5.312132209993002396e-01 7.449885846758597108e-01
9.571258765800085000e-02 1.764193746021656406e-01 -8.288924077779269428e-01 9.802788356288290317e-02 -5.802176022866820659e-01 8.085407027731353891e-01
6.543944472143162217e-02 1.511575014341564882e-01 -8.307393623167144137e-01 -5.055498610387125780e-01 5.197408511181379476e-01 -6.886862752245990205e-01
9.065446285283228212e-02 3.054979739895112567e-02 -9.091808266278346151e-01 3.645680501287930086e-01 -4.050950322255736369e-01 8.384438870261096133e-01
-4.226584326113524276e-02 -4.895488450202211544e-02 -8.279375908666719575e-01 8.151179361500044962e-01 -1.754756626982372503e-01 5.520788367318307799e-01
-3.006694071939138360e-02 -7.693473106482705270e-02 -8.504049443745217429e-01 -8.340757104540417188e-01 6.072041689417451843e-02 -5.482980395759070591e-01
-2.851880327674070556e-02 -2.113784896752711751e-01 -9.567258585730596954e-01 -7.205570857321246248e-01 5.043985334075105076e-01 -4.757936587404040241e-01
-8.799619797857070880e-02 1.105271037315129490e-01 -7.170357067003253482e-01 -5.856702259815682599e-01 4.759283293716162211e-01 -6.561117372065837783e-01
3.244542707422330696e-02 1.795765988576804306e-01 -7.854463315852425742e-01 6.493110182371112371e-01 -4.544639068436001073e-01 6.098014094542070218e-01
-1.068660853813392791e-01 6.222205174182622589e-02 -7.213868866416665027e-01 -8.015598241805453883e-01 1.216898180347117941e-01 -5.854002361174207580e-01
3.346975590195769984e-02 1.514614878984173740e-01 -8.013980105061310200e-01 6.763927107806418926e-01 -3.121769002710249596e-01 6.671120473653503469e-01
-9.199780927594160274e-02 2.913469831280790512e-02 -7.457293805436788769e-01 7.708002527044952590e-01 -5.304597804142952011e-02 6.348646270224183041e-01
5.990167823236479394e-02 9.336323661561300724e-02 -8.544324889478153162e-01 -5.468487981910946649e-01 2.862109411498692246e-01 -7.867907530487769918e-01
-5.473699885295561784e-02 -9.549700763219402116e-03 -7.952522328015489972e-01 -7.056508094073579151e-01 2.897031954379381546e-01 -6.466289459464279465e-01
-1.138306102084508664e-01 8.103920678087891960e-02 -7.068138456052923679e-01 -7.718542288530723106e-01 2.540873842215439771e-01 -5.828212852848482228e-01
3.958648393911653324e-02 1.614627712967896256e-02 -8.792946219535221486e-01 6.797031743157710970e-01 -3.235799825316116318e-01 6.582549579987275745e-01
-5.028865452395149538e-02 1.074814374331664185e-01 -7.455759805077263325e-01 -4.019719919726988944e-01 5.293106045803226412e-01 -7.471604924969693640e-01
-2.845467023335963852e-02 -2.755051390554532631e-01 -1.003545422455863978e+00 -8.071400209198038855e-02 5.201334668551820251e-01 -8.502625632847217174e-01
-3.489360823365959818e-02 -7.936355859384837397e-02 -8.424065227307427906e-01 -8.724671029636877906e-01 3.508023521919882010e-02 -4.874120754998949590e-01
-6.581711981510690590e-02 -8.069872614545818557e-02 -7.701547167281501682e-01 9.347332209921509483e-01 3.500882688214317917e-01 6.092626369022909050e-02
-1.248488996447798816e-01 8.200870460920801908e-02 -6.945172579706022642e-01 8.310926011963668536e-01 -2.083872523012601230e-01 5.156159824084080023e-01
3.770273190403187341e-02 -1.455987935095623409e-01 -9.624639580222976720e-01 2.543139573859324876e-01 -3.461846077836723823e-01 9.030396604869417310e-01
