-8.282866430317478712e-02 -9.365521845711365090e-02 -7.423729263927153488e-01 -1.944725632636954415e-01 6.175563765775126113e-01 -7.621053364765930649e-01
-4.300987844291367934e-02 4.933237775641857205e-03 -7.122347263008464990e-01 -6.623637019795834968e-01 3.035406469790121742e-01 -6.849360568195138610e-01
1.196637124775799532e-01 1.577342885872621281e-01 -7.525388991555218565e-01 -6.903767871844811443e-01 2.983656229383865321e-01 -6.590583030092421746e-01
-2.224832696971647955e-02 -6.920456869995296467e-02 -7.729525431944709313e-01 6.941533352736793949e-01 -3.234739969178307972e-01 6.430518800582343264e-01
1.787004886711322099e-02 4.092676751046021855e-02 -7.519782124967981929e-01 4.548583234522709517e-01 -4.139179094968064021e-01 7.885276594920326287e-01
2.616173875033339993e-02 -2.879916002495350735e-01 -8.869074718858818152e-01 -4.401627985524496078e-01 2.121425992848217090e-01 -8.724976953202541186e-01
-9.336202709577044734e-02 -2.677001336460170956e-03 -6.836770585191739302e-01 2.325535417021295514e-01 -4.608855351045588744e-01 8.564481150502815110e-01
-1.054565805293814079e-01 -3.581458132017993363e-03 -6.782239723928565889e-01 -1.480029984173304447e-01 4.541649807488016277e-01 -8.785381509763363628e-01
7.015123008427708029e-02 2.256802178145159155e-01 -7.184875284343885671e-01 -6.899064287768099657e-01 -5.208940089515560201e-01 -5.026913078329529050e-01
3.989364673227109581e-02 -1.304313333301625466e-01 -8.842061343486747882e-01 9.595309275196812759e-01 -1.022777045182877292e-01 2.623731508590201322e-01
9.700555813050996956e-02 1.729617935563162456e-01 -7.311501661111685646e-01 5.947089914803157518e-01 -5.640208842516207521e-02 8.019601111487690837e-01
5.643292063711863316e-03 -5.970102022038026313e-02 -7.917254722797509858e-01 -5.527979295782963209e-01 3.490126831248366313e-01 -7.567064133942246196e-01
7.182556962449612725e-02 1.705476102180804032e-01 -7.129834582035502466e-01 5.640684224981880046e-01 -2.605583895868157640e-01 7.835407713427110510e-01
-6.299004898969697008e-02 7.201554817802983087e-03 -6.963043162786801688e-01 6.046509597306839456e-01 -3.610248491285497630e-01 7.099706157359406689e-01
5.195632716938582661e-03 -2.191954013442078131e-01 -8.687402748972459232e-01 2.273075923602591031e-01 -2.599967300426188621e-01 9.384737390159234582e-01
5.178419588077084502e-03 -2.732019768009113364e-02 -7.787932571855162855e-01 5.393148544133752331e-01 -4.095934467870123719e-01 7.357803314564846930e-01
-6.564686778137657740e-03 -1.600166210382293619e-02 -7.598271482285238188e-01 -5.942362215536243220e-01 3.450118025430216062e-01 -7.265329786731546946e-01
8.311988522702536131e-02 5.141820681000618815e-02 -8.537668349436507986e-01 7.317920582676100683e-01 1.336429965139571963e-01 -6.682962912804659705e-01
5.247029401759435024e-03 -1.937319499558850522e-01 -8.568887126224514761e-01 1.363119793535456648e-01 -4.278188111426620699e-01 8.935267814213503357e-01
7.938323957632395511e-02 1.854112356198857614e-01 -7.157776388720992200e-01 6.369840589888915439e-01 -4.240391759686840817e-02 7.697098260815397053e-01
6.699861549703514663e-02 1.369298193502350340e-03 -8.774760510342628494e-01 -9.262187031271218451e-01 1.185931904825276301e-01 3.578471309773037512e-01
6.025697831627926243e-02 -2.700249819622452599e-02 -8.562194628371142535e-01 -9.632814849590167761e-01 2.143186210620003362e-01 -1.617291235406735361e-01
7.898206377544278456e-02 4.198979026489036565e-02 -8.064084916784713952e-01 -7.697867143452987726e-01 4.503104401516154209e-01 -4.523813898779743270e-01
-6.871535857353416876e-02 1.035691635923382536e-01 -6.381799226312213635e-01 4.779106364894510350e-01 -2.738313931097985376e-01 8.346363230040944048e-01
4.606013690236981234e-02 7.741602658190469000e-02 -7.481733648051067664e-01 4.032018680902257901e-01 -4.170235780606480480e-01 8.145671174986420793e-01
-1.681574963858601876e-02 1.021844265459774387e-01 -6.858923282405423594e-01 -6.930127577007338946e-01 4.365004786542390214e-01 -5.737600977748839037e-01
9.915673329153693732e-03 2.681965592773896331e-02 -7.548075511921278347e-01 4.388668986673981975e-01 -4.606324705751932980e-01 7.715008569702649366e-01
2.574947879552615115e-02 2.362553490851662108e-01 -6.922418805279721976e-01 5.186014713595583636e-01 1.231521721505779432e-01 8.461005001761288113e-01
-6.769217654937717890e-03 2.139015757708921314e-02 -7.412573681229639444e-01 -6.628590520652649642e-01 3.006894520075313881e-01 -6.857140297139534546e-01
-1.156420152949458324e-02 2.240642546064768731e-02 -7.352714285276182871e-01 -7.154939735875316398e-01 3.720908742198252850e-01 -5.912839885218023062e-01
-1.011632153435299136e-01 -1.055042761752738173e-01 -7.541558825776008002e-01 -5.645334843506885636e-02 -5.983213987920706911e-01 7.992649893483190215e-01
5.956754588039688859e-03 -1.748896234394874682e-01 -8.403044500948602114e-01 -6.316281630754713161e-01 2.455984630559998882e-01 -7.353415931078809420e-01
2.443055601002215235e-02 -6.497577358687316174e-02 -8.114178975897320401e-01 -7.624783455398872478e-01 4.231852064406818603e-01 -4.894293142349709358e-01
8.181262125124355578e-02 7.078886314480209441e-02 -7.858975628662293600e-01 6.376424590750315868e-01 -4.866659650492538569e-01 5.971334296850455692e-01
1.096613981931125574e-02 -7.147973009446108306e-02 -8.045840549143358222e-01 6.233319824208393145e-01 -3.817075583901268776e-01 6.824636104285375371e-01
-3.358312953381034638e-02 -1.421303147198762218e-01 -7.972927876080693199e-01 -5.461055500613986036e-01 3.635975848939583255e-01 -7.546956502136592526e-01
-1.061505019583691145e-01 -1.305098782302618332e-01 -7.785384598701015069e-01 5.505231879730823064e-01 6.507144628945611409e-01 -5.229674055653918963e-01
8.817278220750716933e-02 7.502167230027315115e-02 -7.859968810286841467e-01 -6.989396830160712337e-01 4.778855567680437844e-01 -5.320796125937269361e-01
1.195893487054233012e-02 1.464444284349294134e-01 -6.988388385329115104e-01 2.579949221810745041e-01 -3.785712273825513341e-01 8.888883202781155957e-01
-5.361670543084839924e-02 -1.555916848962306809e-01 -7.961771649037241438e-01 -3.146147597341460989e-01 5.315742558890883540e-01 -7.864136083724565518e-01
5.690944648215549156e-02 -1.501955017157283537e-02 -8.351098074212921496e-01 8.684163320670394981e-01 -4.873519911229600154e-01 9.132968273083887090e-02
3.098243789602170631e-02 6.027630277995125324e-02 -7.465844892189064108e-01 -4.296138175319839658e-01 3.864579095083979787e-01 -8.161386230071420167e-01
-1.046447834239230407e-01 -1.391915507835790045e-01 -7.876676260853562317e-01 5.582159976712435245e-01 6.833227865633946241e-01 -4.706005411249922776e-01
1.065578998046143172e-01 1.374616381014880373e-01 -7.533825352398701991e-01 6.480539669862094287e-01 -4.358348640089139137e-01 6.245590662121306424e-01
-5.508136141286795046e-02 1.499829839398634790e-01 -6.288475996239988319e-01 4.698544822462844550e-01 -1.622632812195186902e-01 8.677023643398414920e-01
1.184617782297977540e-01 1.465231653701214443e-01 -7.611349519070199632e-01 7.461527597456536487e-01 -4.006942579184384901e-01 5.316955621360185402e-01
9.320724299618537295e-03 4.988370432025684975e-02 -7.397237520403043831e-01 -5.031441730521091227e-01 3.974441569284716813e-01 -7.673878310522818103e-01
9.638213307005184804e-02 2.042980682677787707e-01 -7.318635984555288410e-01 -5.976857964270673174e-01 -3.205368215934945586e-01 -7.348658617408229121e-01
-5.557647134094265834e-02 7.051376773360347808e-03 -7.028179400098882867e-01 6.126081863081022094e-01 -3.683990609317237541e-01 6.992805888718217622e-01
7.947410266479899843e-02 4.011726579010970600e-02 -8.626776259071351483e-01 -7.250704000372245606e-01 -3.873279812925273236e-02 6.875846750320557810e-01
-4.037035642201656019e-03 6.389557410714949426e-02 -7.260231749223408082e-01 7.507856589577108775e-01 -2.854753579451868584e-01 5.956716497446419289e-01
7.269082999463023775e-02 2.057983518628653252e-01 -7.127922733515837939e-01 6.516839805526372098e-01 2.109742266296081026e-01 7.285587589131767849e-01
2.304996670367446404e-02 -2.896854009450561818e-01 -9.014539112232115015e-01 2.718093615713590983e-01 -4.004540232044319081e-01 8.750749946499181142e-01
6.188006645347934181e-02 -9.593755168112927043e-03 -8.486900624237625479e-01 9.073217529865201803e-01 -3.611235707929065786e-01 2.153067652797944487e-01
1.005569398966106032e-01 1.503715007500265599e-01 -7.375293444261051823e-01 -6.237891908601131963e-01 2.874797551750987723e-01 -7.268028864352082952e-01
-2.781881222868206466e-02 -8.315944932732848016e-02 -7.707608585346794605e-01 -6.855200534134469059e-01 3.169088094405694833e-01 -6.554624801367243681e-01
-4.980126574802693634e-02 -1.740845344897614666e-01 -8.126671415029080858e-01 1.457001052418775700e-01 -5.602756021128686426e-01 8.153911509266997815e-01
-1.816894981563732872e-02 -6.426890969053845881e-02 -7.719439181678849904e-01 -6.804621185923741544e-01 3.225991842936288823e-01 -6.579521802181849122e-01
5.333854542749277838e-02 5.841818676149775069e-02 -7.649050588712477117e-01 5.578571571749588731e-01 -5.358561785726725368e-01 6.337614283578364427e-01
-3.480617311142538556e-02 7.430286282646844653e-02 -6.806756045476589634e-01 7.424706675081081952e-01 -3.181335443180386413e-01 5.895153567717357213e-01
5.600314111606196493e-02 3.254028406504841896e-03 -8.094194725920521583e-01 7.575117577586516493e-01 -4.192569928269454516e-01 5.003993513416105099e-01
-1.246756127361262484e-01 -2.169150140741746974e-02 -6.878619743770497674e-01 2.460146722540077213e-01 4.059770160778518600e-01 -8.801473987078963779e-01
-4.219852803031967636e-02 -1.273378408999014666e-01 -7.874883308711658758e-01 4.663364140113562817e-01 -3.749044111930255885e-01 8.012346918569112075e-01
9.356737243894688860e-02 6.157407135599114734e-02 -8.371597056432625861e-01 9.014686519821460964e-01 -3.825131679179172295e-01 -2.025782462726235245e-01
3.108706884889702801e-02 -1.565846367168517439e-01 -8.661214241004125958e-01 8.413258095943981774e-01 -4.239905920768360925e-02 5.388628785587609160e-01
4.417357217194174679e-02 -7.347195008117995974e-02 -8.526249768153976172e-01 9.265998371013111079e-01 -2.469995139165847564e-01 2.835559592193302447e-01
-2.493621271827001218e-02 -5.244717810584223310e-03 -7.379007576014056102e-01 7.106262189548561148e-01 -2.721641517742217076e-01 6.487966179188539018e-01
3.748830947407093273e-02 -1.590172883493724543e-01 -8.999308853081208204e-01 9.828131603414456130e-01 -9.150228562948757582e-02 -1.603297339367834029e-01
4.254605846253597251e-02 3.508670456421853628e-02 -7.735536862108430833e-01 5.580747468340240269e-01 -3.851784943399980676e-01 7.349762611432507642e-01
3.698653183173469111e-03 1.721509196482552129e-01 -6.782580888923049889e-01 -8.099713799629881805e-01 9.694436944782321153e-02 -5.784013769634516189e-01
4.592608978276760401e-02 -6.468908260187256065e-02 -8.448445685622991697e-01 -8.961400156420143981e-01 2.288204775076314312e-01 -3.802292222308927827e-01
2.007823589287469068e-02 -5.922593968490418720e-02 -8.029027118826840281e-01 -6.315851331742683428e-01 3.984626771485964003e-01 -6.650772244430077640e-01
4.103197300953159016e-02 9.573465158068453218e-02 -7.331867735897475979e-01 -3.597754267039189324e-01 5.364474501506766302e-01 -7.634040709655995904e-01
6.117909134046127517e-02 1.022934941990356061e-01 -7.383103321020385579e-01 -3.800398169887240218e-01 5.156472973565975337e-01 -7.679046830382101341e-01
1.568552627401837568e-02 2.330663805950841938e-01 -6.850749143803934738e-01 7.571552380494095402e-01 -6.150515992507399332e-01 2.200624360345247166e-01
-4.074792237910485060e-02 1.541033034370978827e-01 -6.338328664237509180e-01 -5.370816514561377319e-01 1.798467480284038078e-01 -8.241349688568950782e-01
-4.583096733967712694e-02 1.186055483890379736e-01 -6.476250832107507405e-01 5.044255268324540076e-01 -4.458573308529816259e-01 7.394363585897411051e-01
-7.804433631958847262e-02 -1.628047609676908369e-01 -7.983131981355764406e-01 1.120856997058826132e-01 7.278652809742320873e-01 -6.764975452089572183e-01
1.460589353489482982e-02 -3.032934649718702635e-01 -8.908807548378914198e-01 9.367890915636443161e-01 1.064907504227977225e-01 -3.332955415269628907e-01
4.108769149871613346e-02 -1.531516223125102827e-01 -8.930936748874203079e-01 -9.969403785992072553e-01 7.756292090391911365e-02 9.688901863574666401e-03
8.101787220024919689e-02 3.673189485312328140e-02 -8.486615970727549030e-01 8.987195441535339446e-01 -3.843687674430856238e-01 -2.111014722135955701e-01
6.744386917711108495e-04 3.799610322325505662e-02 -7.452477760018942909e-01 2.203067303946033284e-01 -4.218797862884263727e-01 8.794784764075077588e-01
6.552125990963336699e-02 4.435674436916807982e-03 -8.763080417160109548e-01 9.225546622956802834e-01 -1.186256807211597819e-01 -3.671795786123530636e-01
5.858382924831071620e-02 -2.948438329359613641e-02 -8.518732680440425087e-01 -9.105097271016850957e-01 2.625726707475330435e-01 -3.194176410746950578e-01
1.026863994392340912e-01 1.002931147402962020e-01 -7.854809786821743689e-01 7.559061441101058154e-01 -5.835159517556942621e-01 2.968417681918070761e-01
1.476645816430524269e-02 1.148868250028751425e-01 -7.106122312925289286e-01 -3.190553299811205168e-01 3.994464102395313132e-01 -8.594453221452720282e-01
2.602372357940426623e-02 -9.526483324034967781e-02 -8.277784138170577455e-01 -7.185289628090041347e-01 2.880773886513116055e-01 -6.330304477293788867e-01
1.018777569114267395e-01 1.998432303754092421e-01 -7.345256741094955411e-01 -6.116744423040364476e-01 -2.907691261455988552e-01 -7.357361564532294285e-01
6.977568055671009434e-03 3.270210491832177546e-02 -7.465022566667844917e-01 -5.009641118819745387e-01 4.174500327500019203e-01 -7.581361545021624293e-01
4.338809495947321127e-02 1.365347366600705159e-01 -7.123994969838767233e-01 -3.357066087964437062e-01 3.361866500236886379e-01 -8.799315934527188743e-01
-6.723267618361254694e-02 5.250441883090962991e-03 -6.911441164298001150e-01 -5.629921337676080384e-01 4.150198462906700136e-01 -7.147016052176351497e-01
-1.249175242191531005e-02 2.149515465101385081e-01 -6.607351011066678881e-01 -5.637352764263700022e-01 -6.745903532229761135e-01 -4.765819902713325784e-01
1.149510756237185141e-02 8.007623043863962287e-02 -7.293904887214226473e-01 4.489321024770028812e-01 -4.248615125742768450e-01 7.860996517609427636e-01
-4.249626206795895783e-02 1.002925572634650875e-01 -6.571808343332431468e-01 -6.877108924879768992e-01 3.005930239949042293e-01 -6.608309634687141720e-01
5.313665657446342561e-02 6.113435717705111710e-02 -7.590911161759397174e-01 -5.518432524266719819e-01 4.753310533415814887e-01 -6.852221643236118265e-01
4.764360854911679072e-02 -6.997546078414572379e-02 -8.534809489973830265e-01 -9.327918012497529165e-01 2.395418336363989709e-01 -2.692938273695725804e-01
1.046808719478085070e-01 1.385768465696496921e-01 -7.506563448139201844e-01 6.487266199144202661e-01 -4.352617715084109440e-01 6.242603326159456012e-01
-4.664245025308436793e-02 1.525864509023621696e-01 -6.304252834209074230e-01 -4.580791207246894259e-01 1.191040899384530755e-01 -8.808959841638671628e-01
-2.392870907210547030e-02 -2.402648288117487443e-02 -7.483578696144019826e-01 6.966997550994497024e-01 -3.274176527111650192e-01 6.382845227149702705e-01
-4.093250346493646635e-02 -1.192126167502592232e-01 -7.806674836655644878e-01 -4.042699828776103455e-01 5.634581363101862639e-01 -7.204725599007834047e-01
3.289554737500975656e-02 1.100309894346119532e-01 -7.238248252980380437e-01 3.435036079018768396e-01 -4.363789977129983177e-01 8.316120740545995815e-01
-3.335566338456703167e-02 -2.806711036379091334e-02 -7.382108819445242220e-01 -6.326287089758985127e-01 4.057577282163949417e-01 -6.596526226523758973e-01
-9.391710374309784892e-02 -9.193727226083939219e-02 -7.401632466988425918e-01 1.232866995600840482e-02 6.767904941605661362e-01 -7.360724359130780270e-01
-6.859920464319659017e-02 1.490751080148928764e-01 -6.191360004081938317e-01 -4.768689026360218297e-01 2.342531028300783857e-01 -8.471844743107590503e-01
5.175274528460583126e-03 1.692500106340228960e-01 -6.850784231961586368e-01 8.134099654847737337e-01 -1.985483424203197400e-01 5.467566037755765551e-01
-8.637939761369990699e-02 1.852429659191567532e-02 -6.716481223460285532e-01 -4.432618597204786015e-01 4.515146583650964107e-01 -7.743729314733264202e-01
-3.871401873419402090e-02 -1.826647622002594840e-01 -8.187410329368549622e-01 -2.776386525325054699e-01 5.437115247637306359e-01 -7.920192904589090643e-01
4.686048261041501732e-03 2.051011862968888655e-01 -6.781442243448203566e-01 -7.069639862155046028e-01 -6.954065642236915146e-01 -1.288861227164682655e-01
-5.586318783564427765e-02 1.633168228539823574e-01 -6.263276804072861470e-01 5.139633890553060303e-01 -1.274826185601432293e-01 8.482864001478703786e-01
8.473855480581687916e-02 4.984152672264695327e-02 -8.521000120272543832e-01 8.680448203807893393e-01 -1.989979860718968097e-01 -4.548604086413898240e-01
-2.063957563145017715e-02 1.796494437858490306e-02 -7.319786867089985716e-01 6.529828374940603863e-01 -4.144312522577910940e-01 6.339244048703637224e-01
1.026061239704783995e-01 1.906873317923657996e-01 -7.358572281297853790e-01 6.212327239273562896e-01 8.171048800516406141e-02 7.793544115944649464e-01
-7.709804616414617229e-02 -1.667454019077229677e-01 -8.054762248952382908e-01 -1.132227919249645526e-01 -6.981758118351168996e-01 7.069166394682554477e-01
-1.658183467338784564e-02 -1.518242660912036968e-01 -8.148215794864470674e-01 -5.811930997548563349e-01 3.934002039324868139e-01 -7.123558523260823394e-01
-5.134027836385773348e-03 1.659239782717223111e-01 -6.673964335110275092e-01 -8.076484885151344884e-01 1.356802580654018486e-01 -5.738421268698599143e-01
-1.445533479695970853e-02 -1.488260025161264044e-01 -8.177667637674661538e-01 6.265811325460395320e-01 -3.126826168102078141e-01 7.138807081593137038e-01
3.013669887368923897e-02 1.311748977275954131e-01 -7.123401698572349172e-01 2.921455282873073878e-01 -3.674246232166927806e-01 8.829779932454722147e-01
5.635990278052914471e-02 1.792297727532594920e-02 -7.965946995885889725e-01 7.189191347979934088e-01 -4.611092692583027008e-01 5.201283682182491486e-01
2.761443482917110958e-03 -1.479334328559075984e-01 -8.270585265648512374e-01 -4.852632356189683360e-01 3.496374912095369658e-01 -8.014195011960406623e-01
6.767565098150772618e-02 2.018300511488447385e-02 -8.091263469191662949e-01 -8.065075837531016090e-01 4.329202347682148400e-01 -4.026482182711949021e-01
3.171240989226813828e-02 1.058421390392871586e-01 -7.255854077068979446e-01 3.879750355286755159e-01 -4.543322723665552121e-01 8.019086968556740080e-01
-9.709019488840124612e-02 -8.588285765961536922e-02 -7.373421061237990237e-01 -3.269291329232320350e-03 -6.804374880818581106e-01 7.327988377085870031e-01
-1.252647483731691158e-01 -2.434546755801715590e-02 -6.891467184827831938e-01 2.321116948174567207e-01 3.756212908944200346e-01 -8.972362046617251563e-01
4.941517968002191036e-02 -6.346476487766625207e-02 -8.629133465975377115e-01 9.555821075634455264e-01 -2.185819861114351448e-01 1.976986369507486574e-01
3.774090940195043431e-02 5.580538797647555810e-02 -7.525186768112321900e-01 -4.223951548540490486e-01 4.441066832952939580e-01 -7.901592162395357777e-01
-2.621228545014824690e-02 1.524679806993965714e-01 -6.459894519678593960e-01 -6.664828337810042580e-01 2.286440848328193942e-01 -7.095932037063239495e-01
4.285995280297590776e-02 2.002495690117140625e-01 -6.928856646102008465e-01 4.124654009484652883e-01 2.357104329648625554e-02 9.106682705235408237e-01
2.664990648387688746e-02 -7.770270894910777382e-02 -8.240190314527172655e-01 7.050032245981465717e-01 -2.423693295172141826e-01 6.665039845459227452e-01
2.637362234422116133e-02 -1.008322128152484148e-01 -8.350299284147607581e-01 8.053786597019069182e-01 -3.034841892156185383e-01 5.091783198378525555e-01
-9.647589966289128738e-02 -7.583201060614100375e-02 -7.290656569550548749e-01 3.191857527466026440e-02 -6.569029314155744315e-01 7.532992388487198543e-01
6.441538064438481759e-02 -7.020051468296230161e-03 -8.610433955892365931e-01 9.604961349676318649e-01 -2.782894406114142516e-01 1.470359285007738839e-03
-9.168408484680005618e-03 1.683732889406813760e-01 -6.614392262347809082e-01 -7.831693730094391181e-01 1.020017319663285293e-01 -6.133851806620953528e-01
1.175813377460179082e-01 1.283734471963982327e-01 -7.717005767176512432e-01 -7.718080047847111214e-01 5.096867673252839515e-01 -3.801733853963810694e-01
-4.589962394167927673e-02 1.964095775642010766e-01 -6.292947961766910403e-01 -4.884280873231816034e-01 -5.396315412045881582e-02 -8.709339708101813127e-01
1.168594499869385350e-01 1.356966452290686020e-01 -7.632569600194233361e-01 -7.252118036443329085e-01 4.630511424680810451e-01 -5.095600841058278707e-01
7.050036226523222205e-02 2.309117980504707748e-02 -8.691977753380777383e-01 5.718805222374626629e-01 1.703733483197577003e-01 -8.024497432660322449e-01
-8.663594311189595082e-03 -1.630029187240264188e-01 -8.293518304813278785e-01 6.105949281359879244e-01 -2.702421367127786911e-01 7.444078326290768377e-01
2.167979865916452170e-02 2.403715597647661587e-02 -7.645272772077184031e-01 5.190431618919369994e-01 -3.215784145723536436e-01 7.919479271860945246e-01
1.943601409257689552e-02 -1.579774082678443159e-01 -8.506080735908781998e-01 7.616899626649809019e-01 -2.831543155817075608e-01 5.827967350139111602e-01
4.758725312394084667e-02 -5.814666422338594237e-02 -9.040964311810620879e-01 9.080420541250174837e-01 -1.052713750308394008e-01 -4.054350324522233429e-01
-5.584384538438159212e-02 1.120506782334346474e-01 -6.436678786316519796e-01 5.702206597595556037e-01 -2.916595212424341610e-01 7.679733868123368445e-01
-8.440048051685854202e-02 -6.991641398930331652e-02 -7.251757022264566643e-01 -2.699829651457149038e-01 5.487253684908696139e-01 -7.912077277843582168e-01
3.688579401067949154e-02 -1.159350800134868603e-01 -8.674498361583967698e-01 9.650579704999621145e-01 -2.190808471981332550e-01 1.437591595879800233e-01
-5.156510241760158680e-02 4.098617594051113394e-02 -6.812761168169084725e-01 -5.622777138222776472e-01 4.906885566845179403e-01 -6.656339180643195963e-01
-4.417788261197264088e-02 -9.086788161877623615e-02 -7.597520421859743633e-01 -4.883352919339279952e-01 4.075170524309382203e-01 -7.716595717217568096e-01
6.713253754966351516e-02 1.618085616921536435e-02 -8.767857356854245054e-01 -3.586194717579440638e-01 -3.100027557177774118e-01 8.805057444011579193e-01
7.010263687007256550e-02 1.272999853443297115e-02 -8.728537732516987724e-01 -9.196677822641496913e-01 1.323348943951288548e-01 3.697277998619664663e-01
1.254268760980205115e-02 2.092787219780791255e-02 -7.598109828802982468e-01 5.242719469973188273e-01 -3.363348750661901421e-01 7.823156507483731703e-01
-9.552023915839270851e-02 -1.621435947660791188e-01 -8.066421821234434075e-01 7.156934043477076735e-01 5.847420444752505775e-01 -3.819158184680139789e-01
-5.141675000206265972e-02 1.895446975751405305e-01 -6.254729718978551123e-01 -4.342518304581941546e-01 -2.100837295791702919e-01 -8.759510113641137963e-01
2.107186217622659258e-02 -1.466055995107666543e-01 -8.477793925831716981e-01 7.996091090467277729e-01 -2.968732624154762911e-01 5.220072210154665937e-01
-1.236426393539049109e-02 -8.745638482022240201e-02 -7.892021015472487910e-01 -7.032304649392771001e-01 2.931101674147593705e-01 -6.477293747695714865e-01
-2.208407905198627591e-02 1.514576097056205273e-01 -6.504337759131401109e-01 -7.112903530901756310e-01 2.166273025271082397e-01 -6.686842643585103607e-01
-8.351819553435715915e-02 -1.131596136510073375e-01 -7.609294592804280999e-01 1.768756284010525037e-01 -5.538336469553591934e-01 8.136235638044532203e-01
-3.210935271027355598e-02 -1.625839138453447630e-01 -8.099134981284132895e-01 -4.806785749215122805e-01 4.415799006927851322e-01 -7.575983757345139402e-01
6.087768403316651256e-02 2.217524199185851586e-01 -7.102675716692293806e-01 5.967400093648778103e-01 4.240449542225561141e-01 6.812394865402296995e-01
5.992073335610140911e-02 -2.245568065248327791e-02 -8.614897460587669364e-01 9.642688062981048525e-01 -2.554923622036103792e-01 7.006655447535053982e-02
-7.046670283733549867e-02 1.675729551671834294e-01 -6.174263767231190636e-01 5.119493494316306181e-01 -1.023292963786178594e-01 8.528989264380550939e-01
-3.801386906123816606e-02 -6.043542478097975457e-02 -7.531998567507132147e-01 6.489236840064391831e-01 -2.815910916037713818e-01 7.068270718251440377e-01
-4.757773379245621749e-03 -1.624410334756194174e-01 -8.344673973861983507e-01 9.949171767057192195e-01 1.132861478465197955e-02 1.000573534678064203e-01
5.637419865673656133e-02 -1.653132337467062840e-02 -8.380874562998099631e-01 8.684163320670394981e-01 -4.873519911229600154e-01 9.132968273083887090e-02
7.254030301458067043e-02 1.438134664824264677e-02 -8.430172119438492651e-01 9.064816801299480087e-01 -4.210056733379359262e-01 -3.232934589591924396e-02
-1.062471270513135752e-01 -3.125388738044593273e-02 -6.965187633757898844e-01 2.188498122929969925e-01 -4.697682822114122025e-01 8.552324366436637737e-01
-1.137991202450728961e-01 3.576682690173312029e-02 -6.613489877646494541e-01 -1.125773980836775739e-01 -4.013661917691701553e-01 9.089727771200976081e-01
1.098295291873444823e-01 1.877267428504596214e-01 -7.386994206404268182e-01 -6.812754448226920889e-01 -8.429929026976237805e-02 -7.271570655241256231e-01
7.630513098498544616e-03 -1.543058767560464006e-01 -8.345175556908451808e-01 -7.621381142261937081e-01 1.881402451337066406e-01 -6.194745701033819163e-01
5.672893095906855060e-02 -2.890348766967209757e-02 -8.462054529801673608e-01 -8.945384995508384174e-01 2.803683834891141369e-01 -3.481299216686719600e-01
4.730019331914837172e-02 2.264842711223719329e-01 -7.020497852877071177e-01 5.602145020668898301e-01 3.874971502960883329e-01 7.321240811408658011e-01
2.749374675748730151e-02 2.073900623201463123e-01 -6.851355681800118669e-01 -4.337847969675072135e-01 1.480564823437063512e-02 -9.008948566287957593e-01
5.106907777527017883e-02 1.289042216755773851e-01 -7.184102847440850814e-01 -3.046139850831701135e-01 3.962808810537059023e-01 -8.661245772999681680e-01
-2.241148228649288837e-02 -1.152227878664365129e-01 -7.943662617841223961e-01 6.233387876877265477e-01 -4.250427463976807485e-01 6.563439795554706357e-01
-1.303843921307184517e-01 -1.955877201967815351e-02 -6.908578398042586333e-01 9.005235744759757521e-01 -2.147410177780973983e-01 3.780788106951230021e-01
-4.377037540554601369e-02 1.332326712156832182e-01 -6.385610409937765297e-01 -5.432812538726564666e-01 3.471770707752293572e-01 -7.644040559275476765e-01
5.384549745858371178e-02 -6.103056474493655931e-02 -8.787599136312731485e-01 -9.780995616727456987e-01 1.993632524589264154e-01 5.979582781918554163e-02
-9.803607053965629481e-03 8.601222291034216205e-02 -7.070375045969143901e-01 7.308304694747869146e-01 -3.056966085510149367e-01 6.102756823007696729e-01
1.888715274144102049e-02 -2.841584082113048082e-02 -7.893555954741853231e-01 5.562754168865963189e-01 -3.327603049745488373e-01 7.614645362726282229e-01
1.145968749905638406e-01 1.147387754204907684e-01 -8.095433946644898793e-01 9.369974368599572889e-01 -1.700994731508943814e-01 -3.051261584191996556e-01
-4.577529005661617328e-02 -6.041317352395651763e-03 -7.146964528087242918e-01 -6.399789880929873664e-01 3.150444734571887229e-01 -7.008379802376285550e-01
3.854741502449881424e-02 -1.585487942056389155e-01 -8.881228593673570204e-01 9.909019126274427602e-01 -3.378558221784076082e-02 1.302763753927682067e-01
-1.146458025267554914e-02 5.661814911151131363e-02 -7.208235892327664596e-01 7.342982324348087397e-01 -3.301599576609207110e-01 5.931277334608917595e-01
4.200006665158627361e-02 -5.762167597928294360e-02 -8.373248461098814488e-01 8.186945716429554487e-01 -2.234368525210604917e-01 5.289755866746966850e-01
4.472766213803670149e-02 6.672976690895959795e-02 -7.531043617546669955e-01 4.548321949450793711e-01 -4.271540465471287962e-01 7.814519146818021955e-01
5.885540571926504289e-02 1.234238795873352917e-01 -7.266746716807868101e-01 4.126027527988962440e-01 -4.002654104525724121e-01 8.182582535960187808e-01
-6.169457876680937980e-02 -1.082782016459752413e-03 -7.015556405870726486e-01 5.837433137207803657e-01 -3.698778007552342428e-01 7.227960681926498543e-01
-7.416719335785014466e-02 -7.244222499441221874e-02 -7.314094930218794088e-01 -4.099753019771342766e-01 4.577993960077986202e-01 -7.888852671863331167e-01
1.369573534314867539e-03 -7.579091948309148175e-02 -7.948893239219271267e-01 -7.868916661883137431e-01 2.399801939198970002e-01 -5.685165012640774895e-01
6.053643740879857682e-02 2.133815823549179147e-01 -7.056394800901596431e-01 6.045152579388836100e-01 3.061474231876717966e-01 7.354148884776763317e-01
1.266900066464856332e-02 1.375876760491449580e-01 -7.026129120584975185e-01 3.128136496411261791e-01 -3.778664103743546998e-01 8.714152836099434696e-01
-1.208698578671505430e-01 5.580312278611417043e-02 -6.550654450717843247e-01 9.040505845626266579e-01 7.349778138729155808e-02 -4.210589230536730954e-01
-7.614307067037141309e-03 1.991792701150269657e-02 -7.452053531465833158e-01 7.165974996036563738e-01 -3.690249459858800374e-01 5.918687462621304851e-01
2.357782847995362058e-02 -4.061388647523107853e-02 -7.958477048806489318e-01 -6.126091517668416087e-01 3.417543388109990921e-01 -7.126808535911201004e-01
-3.584911473343312116e-02 -1.774995515386290357e-01 -8.162689972517456205e-01 -2.740683939308520278e-01 5.226087751108239310e-01 -8.073206200917496522e-01
-2.605380836186554916e-02 6.282059416357804738e-02 -6.988772839942564152e-01 7.339304709151976969e-01 -3.624716591590710357e-01 5.744217615730330406e-01
1.116998315780550061e-01 1.592203932393320975e-01 -7.441343912725181253e-01 -6.596602167313019294e-01 2.536160650275359196e-01 -7.074795332883915266e-01
3.541438429278309652e-02 -2.180836066529825978e-01 -8.803882832006653114e-01 -8.134142333963781946e-01 1.933727129108285883e-02 -5.813633587070977660e-01
7.065615437421141065e-02 6.477999784715643417e-02 -7.784645004147079383e-01 6.579117518261562436e-01 -4.855204726237971613e-01 5.756926241252382503e-01
-2.987082861379796979e-04 1.265060639620268212e-01 -6.970964291034712490e-01 7.813998271416050523e-01 -2.969968224410003965e-01 5.488234667021980595e-01
5.062394932893483218e-02 -6.868998943212310804e-02 -8.637042763629904085e-01 -9.630263741677280720e-01 2.278847441082577918e-01 -1.436967155507494209e-01
7.743683690679912905e-03 -1.886935194469267496e-01 -8.548235828089409960e-01 -1.500177730773890883e-01 -4.228052246844996032e-01 8.937171866649934460e-01
6.474590593623349988e-02 1.074762152052285633e-02 -8.183398957758413195e-01 8.056186812172833056e-01 -4.241682554895639390e-01 4.135938001332532532e-01
-4.775074998085954148e-02 -1.713145682613555765e-01 -8.111396513157581589e-01 1.880997852570236162e-01 -5.376235179798874997e-01 8.219363866511759653e-01
-1.011970940742969033e-01 -6.231101087662036658e-02 -7.182892256268486042e-01 8.918667800428897730e-02 -5.618910512661802192e-01 8.223893135088429229e-01
8.457018855639959753e-02 2.114832170510101139e-01 -7.281541962283183400e-01 6.326934066292885239e-01 4.923502169721938881e-01 5.977376657491638712e-01
8.307819549356665334e-03 1.846556066377198491e-01 -6.830630141931834931e-01 4.474985598031157030e-01 -2.299852486478261848e-01 8.642058923535146375e-01
-4.906876240529546573e-02 -1.029655502157870300e-02 -7.139413760460765479e-01 -6.040614698351769452e-01 3.526744551473227074e-01 -7.146540906950050731e-01
4.504043436601833789e-02 2.292415911918678495e-02 -7.818966764256071178e-01 6.087271012594920316e-01 -3.904222178565268098e-01 6.906676537932021631e-01
-3.927739235288102426e-02 1.792820129565718401e-01 -6.361182899666095736e-01 5.773792818985792330e-01 4.350538835105343533e-03 8.164644742094570029e-01
3.083473408679043848e-02 -1.446363342131989360e-01 -8.640630034739205101e-01 8.902485879220036757e-01 -3.022888220190908526e-02 4.544707541566360143e-01
7.698144181899939202e-03 5.276790804665038720e-02 -7.408088336000555607e-01 3.502492750875615402e-01 -3.321783609179137509e-01 8.757756458354649665e-01
2.363148401846733998e-02 1.669128657720902742e-01 -6.922627887255560220e-01 -2.734388807924735265e-01 3.328166019921255381e-01 -9.024767520049337133e-01
3.357195335974497152e-02 1.909434612032515910e-01 -6.878708014617938016e-01 -3.053752931041636143e-01 1.369676085334521620e-01 -9.423299870927237532e-01
2.908059798464147395e-03 1.248774814203639921e-01 -7.025800110540417753e-01 7.953861457226678588e-01 -3.117004200560830607e-01 5.198112420189663352e-01
2.492813338460055095e-02 2.247279293554145241e-01 -6.890598543711080604e-01 3.450706600046284933e-01 2.439955849237743779e-01 9.063070087678208875e-01
-5.977338568410810182e-02 -2.821860179574264132e-02 -7.154813436337357224e-01 -5.141682640058244935e-01 4.534494611888073567e-01 -7.280210041178873936e-01
-1.222879551214540172e-01 -2.645573566921156916e-02 -6.898388264063605169e-01 5.414260073335323831e-02 4.603848835748934332e-01 -8.860667795158334581e-01
2.713187742053319550e-03 9.413030330217901642e-02 -7.130662264899210179e-01 -6.622454599387913587e-01 2.949940257127344201e-01 -6.887738929316739034e-01
-6.435867029795545868e-02 8.365580196367725097e-02 -6.482881097630397438e-01 5.227495351869154705e-01 -3.600138166730355582e-01 7.727373261764813872e-01
-2.645014421042379479e-02 8.510238092459188053e-02 -6.822172494216642846e-01 -7.511158565580998703e-01 2.814565720138901828e-01 -5.971659468666830062e-01
-1.130653243564683497e-01 5.153313905246088150e-02 -6.520596266054569101e-01 2.664555074447080285e-01 3.031711240458212497e-01 -9.149255336349381151e-01
4.736897220508937134e-02 2.265336061181310034e-01 -6.989784783645800470e-01 -5.252459353369007822e-01 -4.068194017978436494e-01 -7.474052995081778006e-01
4.634316966000899540e-02 -8.672189727520972224e-02 -8.673560466870012808e-01 -9.554401247199465486e-01 2.592323570562835022e-01 -1.411834024599798176e-01
-1.089206994852294080e-01 -9.731138744603762269e-02 -7.471564948240257964e-01 3.743360540291666427e-01 6.440661844203700026e-01 -6.671216296448937433e-01
8.132280942131926704e-02 1.757134370237538601e-01 -7.157216178913479165e-01 -6.260823118241819474e-01 2.216080598693693227e-01 -7.476033752076174377e-01
-4.554144205762462871e-02 -1.821019627751361281e-01 -8.192423983290164635e-01 1.483283216822313677e-01 -5.984594018011777372e-01 7.873023900527096330e-01
-5.863319826285673386e-02 5.334296213573855999e-02 -6.668152605699924074e-01 -5.542160082788966102e-01 4.758761625858461963e-01 -6.829249549181632961e-01
1.874320915453843786e-02 -7.119476195066222479e-02 -8.127340744986578658e-01 7.231229977081615745e-01 -3.623742657458687288e-01 5.880289293144552731e-01
-9.740886314629361442e-03 5.711072961437940743e-02 -7.226809210845096532e-01 7.262027278615286185e-01 -3.344790166358060368e-01 6.006274931076820423e-01
-6.766959721959493398e-03 -3.366115811255378232e-02 -7.689005807113459268e-01 -6.347312900459850527e-01 3.483111644263033879e-01 -6.897793286062959828e-01
2.302036470760512182e-02 -1.685086086551015883e-01 -8.540428992298810806e-01 -7.224636480180038900e-01 1.323868730980186093e-01 -6.786162340556308736e-01
7.883038959979261906e-02 8.994526524820212199e-02 -7.581130123380046548e-01 -5.372045855003506620e-01 5.142887750518776446e-01 -6.685194755375760689e-01
3.895690766362266272e-02 -8.308655083724329760e-02 -8.465935558967536689e-01 8.911586819630314960e-01 -2.862096460668599462e-01 3.520230703522078675e-01
2.576109871407439647e-02 1.530402193374955644e-01 -6.983161021108317268e-01 -2.865074778539176137e-01 3.744186607479280671e-01 -8.818866886496896651e-01
-7.897111240035885327e-02 -1.002724348831309509e-01 -7.490356002900696586e-01 -1.459723890530371937e-01 6.731503853036716611e-01 -7.249555989160072489e-01
-9.707724796512590126e-02 -1.491294674472521953e-01 -7.958130727063641441e-01 -5.526602114636358642e-01 -6.490967144727790572e-01 5.227237759329615985e-01
-2.322079436934989735e-02 -6.714646302930894761e-02 -7.709500059400085092e-01 6.911456678445604407e-01 -2.945474363783022187e-01 6.599692974242561405e-01
-8.977922037659118171e-02 -1.603249457912073184e-01 -7.997957793040744168e-01 3.157969134030958469e-01 6.856075174528641902e-01 -6.559074946188663269e-01
1.157109603634684097e-01 1.058440717214253063e-01 -8.112172907350084783e-01 -9.490667062247712948e-01 3.094748993943749471e-01 5.914113442017357447e-02
1.541763254464031431e-02 -1.491588902647513204e-01 -8.390180089758528803e-01 -5.874096925469488584e-01 3.017798775655089472e-01 -7.509186098362761186e-01
-2.840352651357379472e-03 -2.256485454000917434e-01 -8.535683183820107489e-01 -5.326699425120066111e-01 3.017354547142475085e-01 -7.907075614363641147e-01
7.035008180514573661e-02 1.574474012543453094e-01 -7.176278281620659394e-01 4.840285814072227133e-01 -3.397023015609664243e-01 8.064233867486072516e-01
-9.644677641885850139e-02 -1.540682536325411467e-01 -7.973214314826136961e-01 4.858541863370958169e-01 6.103050983402988905e-01 -6.256783491208215420e-01
2.544984063566441135e-02 -8.933392238331278046e-02 -8.277230554654392281e-01 7.526502226970483989e-01 -2.798344549129535563e-01 5.959952349789834347e-01
-5.890110611662754958e-02 6.822348403256175628e-03 -7.000260354801974838e-01 6.126081863081022094e-01 -3.683990609317237541e-01 6.992805888718217622e-01
-1.517814884987918854e-02 6.837775103781301711e-02 -7.057792048399451623e-01 -7.651745471562745315e-01 2.909889512076980767e-01 -5.743111897388333276e-01
1.140897747771950355e-01 1.543524673705304051e-01 -7.515664237637394995e-01 6.807869151960297405e-01 -2.989586807095577226e-01 6.686949104982589098e-01
5.766607415429800786e-03 -2.730947717715953918e-02 -7.759735307936068693e-01 -5.316930311934620068e-01 3.790047140242044921e-01 -7.574021041215417416e-01
-2.669036743209824911e-03 -1.291616770411380399e-01 -8.259491168637463909e-01 1.595205371318595966e-01 -4.034970349037667048e-01 9.009680022381657549e-01
-6.744364468216265673e-02 1.276635723732587324e-01 -6.299155062666489391e-01 4.416801862976255100e-01 -3.541749646457059142e-01 8.243049844871178644e-01
8.700049110056511104e-02 9.635508390221984854e-02 -7.606006672985510253e-01 -6.622808309275727279e-01 4.593544704705661563e-01 -5.919269984082409231e-01
-5.710268045001195419e-02 -2.046669438681693320e-01 -8.377781592059204696e-01 -3.173655262800040844e-01 -7.553912173362897775e-01 5.732915763380918017e-01
-3.935771372061662443e-02 -1.450890079090290108e-01 -7.978494669498422676e-01 4.839276863167981113e-01 -4.335225797482493704e-01 7.601790363226897940e-01
1.305819394558065949e-01 1.715872763184666527e-01 -7.588863511650160154e-01 -7.723027889273569313e-01 1.788888546312561723e-01 -6.095467003468590939e-01
2.407774480616571913e-02 -1.487553297375472094e-01 -8.491532112531993137e-01 -7.952573230785340286e-01 3.117268598212636355e-01 -5.199924566336884268e-01
-1.415702614988730533e-02 7.584853017386114591e-04 -7.435424392674779837e-01 -7.008321005827035100e-01 2.867528705730170713e-01 -6.531517113282102605e-01
6.818104350504249067e-02 -1.774977627273357237e-03 -8.600164830680104844e-01 -9.508394044295370717e-01 3.090887585498497403e-01 1.919808121131109241e-02
9.476777747412876152e-02 9.963223046026478680e-02 -7.667783021951828371e-01 -6.740630291398516105e-01 5.297025790375347043e-01 -5.148341582566098307e-01
1.745839751776170293e-03 -1.866658909462695914e-01 -8.531165627714318855e-01 2.973640207840497762e-01 -4.048790436136167625e-01 8.646661778892857919e-01
-3.559594598135853993e-02 1.040452082534110423e-01 -6.628012370173982371e-01 -6.991935873581592853e-01 2.985016001438562383e-01 -6.496346066126597041e-01
-3.508946482914827164e-02 1.476390718140956904e-01 -6.423876121545486484e-01 6.102582686592502581e-01 -2.499090662098989724e-01 7.517514909590206074e-01
-6.510994668982791889e-02 -1.913362901708291486e-01 -8.232755804065067240e-01 8.096107161592892842e-02 6.514797553087943172e-01 -7.543337678412612712e-01
1.269420663229230140e-01 1.815517741366393656e-01 -7.545285091381419562e-01 -9.710715829565697010e-01 -1.570484041596079405e-01 -1.798771234069037883e-01
2.478600748787052402e-03 -1.393586402278328695e-01 -8.312339997131750202e-01 -8.755745069386484947e-02 -4.246772200302035283e-01 9.011009663824633975e-01
1.406297954374143358e-02 2.084987711087365747e-01 -6.817219881140901272e-01 3.926605806245804797e-01 -2.781383885825005481e-02 9.192627800534158844e-01
-1.055914312599999516e-01 -1.709532656546986287e-02 -6.855704610403114962e-01 -2.484264938034969616e-01 5.155529312035913581e-01 -8.200545422737965939e-01
4.319775332730473733e-02 1.476101797450124486e-01 -7.093728577257372159e-01 3.381177825814188354e-01 -4.545491541110192601e-01 8.240518379320448394e-01
1.140769523706650357e-01 1.902067219666669085e-01 -7.424880069914329139e-01 -6.858835250430668218e-01 -1.302908612231092889e-01 -7.159525693481636477e-01
9.889162820727425210e-03 -2.343167456374218582e-01 -8.761804624346327675e-01 2.561899802155174211e-01 -3.481134717201503914e-01 9.017669903273887178e-01
1.881503600157545877e-02 -2.963142323519692423e-01 -8.867905823661681453e-01 4.901668136534663156e-01 2.387799289079882703e-01 -8.382843433725239990e-01
-1.060321831597665632e-01 8.091092054116975907e-02 -6.352946509742301018e-01 6.008148093589753963e-02 3.926207564986924359e-01 -9.177358864155544804e-01
1.969807302077213745e-02 -2.332133489645271673e-01 -8.697455948178619556e-01 -5.637953053889270816e-01 1.766884686636407964e-01 -8.067936778772525352e-01
1.148285026575328500e-02 -2.733349027018479038e-01 -8.885406344753339347e-01 9.075813978348240552e-01 -5.711119272363216794e-03 4.198373368589835564e-01
2.286454439731139612e-02 -2.570468236410823962e-02 -7.885231557551178883e-01 -5.719678048047268648e-01 3.688776178968317665e-01 -7.326541703161326691e-01
1.700207243503831442e-02 -1.959865951553892982e-01 -8.595113983221800424e-01 3.582411015846084790e-01 -3.170559598082450803e-01 8.781451084447937649e-01
-1.746578482290752840e-02 -4.948812443561185354e-02 -7.698452587233843847e-01 7.082946217168963887e-01 -2.953570680858863540e-01 6.411574932718384634e-01
6.893660006879410475e-03 -1.338828174388383974e-01 -8.255902407382069708e-01 -8.133824542018485149e-01 2.215491000475534322e-01 -5.378893747460501418e-01
1.363142140497691779e-02 -1.781124499282490392e-01 -8.484062301955667129e-01 -6.741991419395554352e-01 2.141228166392019905e-01 -7.068287886061673797e-01
-4.477880867038848411e-02 1.688649515098601950e-01 -6.300214361840357213e-01 -5.507838865827260344e-01 2.311705825698618516e-02 -8.343277005459963647e-01
3.076550392053042579e-02 2.045931445243655555e-01 -6.865229451759293777e-01 -3.532346024501254456e-01 -5.852556492549403078e-02 -9.337023475830258379e-01
-1.080360369453256392e-01 2.757627049764214619e-02 -6.619950366708313716e-01 -5.390698014317453490e-02 4.210556484026791724e-01 -9.054314874357102250e-01
-1.206965297469755546e-02 -1.284164312638851058e-01 -8.134790157953002421e-01 8.348332206411768208e-01 -3.523359574060052624e-01 4.229809296323815415e-01
4.518078197055484801e-02 -8.697956032626871781e-02 -9.070513157289692430e-01 -9.187720915172371550e-01 1.761343514874609550e-01 3.533193089474922499e-01
1.746752897901435782e-03 -4.508568093565676164e-03 -7.659227071640709594e-01 1.688436152962237979e-01 -4.783508730950309373e-01 8.617843557311319902e-01
-4.993484471558849030e-02 1.843922878318978997e-01 -6.288259345815927492e-01 5.524115762692354270e-01 1.589345964344396345e-02 8.334199711695783330e-01
-7.171629895027290674e-03 1.714435481170223374e-01 -6.672362521222201526e-01 7.824711368613681550e-01 -2.439959774960174035e-02 6.222086302909465294e-01
-3.226895405041474429e-02 -1.073449195741537771e-01 -7.805403475145250569e-01 5.780536668448750248e-01 -4.285788906840604651e-01 6.943875666421556181e-01
4.508657024929339091e-02 -6.386848556254194620e-02 -8.483064838324276824e-01 9.168893966198958800e-01 -2.443299275319596731e-01 3.156211667145134570e-01
-1.379140763096079955e-02 7.001983541911496745e-02 -7.105467586558020798e-01 7.368181352412683793e-01 -3.225062165803962988e-01 5.942127361867789448e-01
-1.184939974971499360e-01 6.436846618442598755e-02 -6.516074956872788260e-01 4.138388508100664942e-01 -4.410100419541387318e-01 7.963966024888680106e-01
3.458175480928746270e-02 -1.576400562509990000e-01 -8.727951373941346125e-01 9.106840344583848612e-01 -4.283533551134296319e-02 4.108767740019262926e-01
3.542058507890459562e-02 1.155950913653874534e-01 -7.194233456124037307e-01 -3.036957371328383726e-01 4.487662236365543289e-01 -8.404628342587957546e-01
-2.390377899357098296e-02 -1.568257492869568615e-01 -8.120067900789331716e-01 -5.300738264607605110e-01 4.054228234391990537e-01 -7.447510139206494628e-01
1.813594373888250191e-02 4.619028230266885443e-02 -7.466047409906844123e-01 -4.487281581879362657e-01 3.852729184051733591e-01 -8.063546480258069193e-01
3.234938434800984502e-02 -2.374867086185300791e-01 -8.813226126387357917e-01 4.793546082119660157e-01 -6.372625015120803038e-02 8.753045896301574480e-01
-8.573477733243865806e-02 -1.652943732205975902e-01 -8.031727249508947564e-01 3.205662519334849803e-01 7.219308472593012338e-01 -6.132317097939283812e-01
9.342864910950432478e-02 1.965784551137254033e-01 -7.256179920970747821e-01 -7.165007390760996797e-01 -8.098166549861390839e-02 -6.928698728884620239e-01
9.616258544482102211e-02 6.565219684395309785e-02 -8.255534424038084573e-01 8.670808382857955188e-01 -4.963484560867255646e-01 4.253269351835332890e-02
-4.899338189961335854e-02 -2.107792345905795672e-01 -8.389447093750295181e-01 1.863171035210476056e-01 7.221999069513026503e-01 -6.661180310838739071e-01
1.883438099687904932e-03 1.855557540758211860e-02 -7.491339002479938669e-01 -5.104743160034641569e-01 3.896663038161520265e-01 -7.665351553393059403e-01
-8.968648229637191105e-02 -1.745057237048288912e-01 -8.190488301697395057e-01 6.150284480072524262e-01 6.998232421709316142e-01 -3.633007540030107063e-01
-8.586503258525887000e-03 -1.062243013811654258e-01 -8.017080851616610326e-01 -6.990393995340612454e-01 2.863402880478407853e-01 -6.552504539027337316e-01
1.276103255150218552e-01 1.716050354272087575e-01 -7.590990550890160948e-01 7.498215875179762291e-01 -1.541694476346098241e-01 6.434278268058206685e-01
3.457046404932685724e-02 1.711670315794132646e-01 -6.939580183371477640e-01 -2.376824725736237653e-01 3.436542818699051538e-01 -9.085201025754842119e-01
-5.918746250766258876e-02 1.335449673200707066e-01 -6.316701107911015800e-01 4.183321020530313961e-01 -3.017570215156501479e-01 8.567035381962043727e-01
9.995063222498044506e-03 -2.820736691151987108e-02 -7.826454919776397734e-01 -5.507997168215741368e-01 3.716353635688204871e-01 -7.473331442498347688e-01
2.088136271174578437e-02 2.054616921079838732e-01 -6.824003756242966734e-01 -3.830021954914103466e-01 4.125711571628821323e-02 -9.228256436898206738e-01
2.961808838379152015e-02 1.996261991217048448e-01 -6.885769708252552634e-01 3.779642558045252509e-01 -2.896846016183276390e-02 9.253668730022613920e-01
-5.290945823155844552e-02 -6.813329950790719680e-02 -7.418883049938743701e-01 -5.491400903847948323e-01 3.915109583387463843e-01 -7.383524433716297519e-01
3.121287915728453849e-02 -1.106550328459544874e-01 -8.486162314462939449e-01 8.515069980489688994e-01 -2.543047580885792747e-01 4.585465323030393781e-01
4.952901398866947635e-02 2.298444306225141121e-01 -7.023025492379674217e-01 -5.289341794307463873e-01 -4.073546586263063207e-01 -7.445070959536708166e-01
4.585896854307908860e-02 2.617451397549936873e-02 -7.807807318599316870e-01 6.087271012594920316e-01 -3.904222178565268098e-01 6.906676537932021631e-01
7.961672740872528797e-02 1.174441393290118069e-01 -7.394817137407375673e-01 -5.191925370985549515e-01 4.663469523299541564e-01 -7.162120003698129178e-01
7.928496378878475970e-02 3.324983168844170695e-02 -8.506712955578941138e-01 9.290085780363248613e-01 -3.311240096786515208e-01 -1.652269716155877755e-01
4.469095121548927879e-02 -4.142745630624461439e-02 -8.341061192501710853e-01 8.461117512632064797e-01 -2.527140333433353647e-01 4.692872486288687250e-01
