-1.021000990101550432e-02 3.495974956302987102e-02 -7.569340213665638473e-01 -9.869785001034493410e-01 -1.110227747227830464e-01 -1.163932292979271005e-01
-1.160929540553975667e-02 1.108722082626438371e-01 -9.229870226319325521e-01 -9.939212084013663295e-01 3.537786380207724041e-02 -1.042546797164021072e-01
-1.131847909546468064e-02 6.129131346245285383e-02 -6.642006616582473155e-01 9.255389584864313068e-01 2.818805793796808623e-01 -2.528259782783957021e-01
3.257665895172123793e-03 -5.399242228666527310e-02 -8.118257202998011568e-01 -9.304773341546207499e-01 -2.750274445874983931e-01 2.420161881944697113e-01
-1.145786410966037009e-03 -1.859371323675454157e-01 -9.034508623534756033e-01 -8.823260453317259833e-01 7.428367168553498372e-03 4.705800347342485312e-01
-5.805203724966926000e-03 5.884141391785874253e-02 -7.831182531099429855e-01 -9.773846667800136778e-01 1.305348078689120839e-01 -1.663727053273708623e-01
-6.243534649590906475e-03 -4.931331584981227950e-02 -8.839353145176145343e-01 9.700210676579280600e-01 8.429130460950004511e-02 -2.279344297533882069e-01
-2.279039726991925491e-03 1.559340938132772192e-01 -7.409628780736589038e-01 -9.500112994422614809e-01 2.228706952198354352e-01 -2.186485402289557733e-01
1.230023737704180435e-02 -1.788501846842630028e-01 -8.790289188973160472e-01 7.892665728245997769e-01 2.441721729934570317e-01 -5.634165661012856541e-01
-1.724539844300210928e-02 1.327719572711743845e-01 -9.074281357726490249e-01 9.748118278655580893e-01 5.832852456375537537e-02 2.152665405389911635e-01
4.106524996786133167e-05 2.372011481293583718e-02 -6.908148080274811864e-01 -7.888699927929788691e-01 -5.167526456774146348e-01 3.326422066668600630e-01
2.889873622624174881e-02 -6.716314977523499263e-02 -7.640648782770584901e-01 6.336281914164417772e-01 6.000808693683189476e-01 -4.882809286266376891e-01
-5.951726646432490934e-03 -2.269645384752509709e-01 -9.220616346156348397e-01 -6.898244634585557478e-01 -2.218986965543387202e-01 6.891321920224023900e-01
4.742199260101517128e-02 -6.515084074420240956e-02 -7.527766165958621469e-01 -6.251632694219492192e-01 5.295900162692805946e-01 -5.733282665572685399e-01
-1.463692948969333787e-02 9.281300824039713515e-02 -7.303879041334672140e-01 -9.925084457048090059e-01 6.431415652957876705e-02 -1.038781713090536907e-01
-5.330269710047742283e-03 2.249257783219437423e-01 -8.136711982432216494e-01 9.257423249046826674e-01 -3.117188692656381876e-01 -2.140852503649543770e-01
-1.854657942993638477e-03 6.522754375965675311e-02 -8.052799150861222888e-01 -9.918710958435965619e-01 3.448305832619360536e-04 -1.272462585771862442e-01
-4.100722284088626976e-03 1.210805824451563623e-01 -8.053116848275414519e-01 9.632085201752412784e-01 1.602478867765679271e-01 -2.157544007557353483e-01
-1.131050210435535081e-02 1.317532966759804025e-01 -7.353950621244893515e-01 9.702918205094471782e-01 -1.715709091063249148e-01 1.705790321255587216e-01
-8.648930344123218622e-03 5.506901052554733639e-02 -7.700723128829551900e-01 -9.744555614662053777e-01 5.968605147983771508e-02 -2.165038890789926229e-01
-1.361739414298797878e-02 6.565969676055880000e-02 -7.440425130932434294e-01 -9.866449278198233808e-01 -3.560629725135999041e-02 -1.589464626956624826e-01
5.145515729102755759e-02 -1.037212259026189937e-01 -7.876386115907755281e-01 -2.875944469231740963e-01 -6.465189255270928914e-01 7.066135528237813546e-01
-1.381187747597546409e-02 1.807090593560160274e-01 -8.940945660488897051e-01 9.444931463074821565e-01 -2.581646894005904525e-01 2.031838815577896307e-01
8.149958948975277381e-03 5.610948536974484646e-02 -9.933171042552718655e-01 6.502128033811140906e-01 -1.441327755776357633e-01 7.459551282239165193e-01
-2.930380964988774008e-03 -8.047565892586139302e-02 -8.947886480866128478e-01 -9.890615930807130640e-01 6.366619358405453677e-02 -1.330555556418443752e-01
-1.814769052551667636e-02 9.143743350712423001e-02 -7.104526637068702133e-01 9.984120582778553965e-01 -5.195664670290249532e-02 2.176852656397584851e-02
-3.806962339096974998e-03 1.453611877498936222e-01 -6.885919225858380122e-01 8.779757416933500203e-01 -3.744280648989050664e-01 -2.982653536937763250e-01
-3.100577692596260919e-03 -5.529248455607942841e-02 -8.747208352102239237e-01 -9.966734122995136724e-01 5.150613104850058910e-02 -6.316033311864949207e-02
4.164613752121532758e-02 -9.582989704584413126e-02 -7.826982633598875694e-01 5.317554897341223441e-01 6.146835568302100317e-01 -5.825806588792540319e-01
-3.586158976427646517e-03 -1.713048055072668163e-01 -9.927079493664365817e-01 -8.994875536557066509e-01 1.126980033576251428e-01 -4.221626473975133020e-01
-5.509211284778030987e-03 -4.830786214488232838e-03 -8.291124204661374231e-01 9.996629408620224533e-01 -2.594406861193811892e-02 -9.539239759177862207e-04
-4.636246810571970772e-03 -1.090913037255646229e-01 -9.059100522934767641e-01 -9.708505518507827281e-01 1.547525408267257929e-01 -1.830323935228497234e-01
1.085673296030102421e-04 1.511674863265215496e-01 -7.719401955598669263e-01 9.953355866995671208e-01 1.637954621026551510e-02 -9.507250031094460763e-02
-1.013038647253765127e-02 1.347843661243139923e-01 -7.084215273341967212e-01 -9.636968222620626578e-01 2.476634932792336763e-01 9.975584623835236087e-02
4.436373586911779993e-02 -1.681202118846940041e-01 -8.467860700612865887e-01 -4.013785394789144423e-01 -5.691607704386459909e-01 7.176010628750911780e-01
1.637842486782543558e-03 7.709545979560517709e-03 -8.574701767981650624e-01 -9.475359502793376798e-01 1.389902554763906561e-01 -2.878494950678917585e-01
-2.726312281988492285e-03 2.251810269955533406e-01 -8.124437814362669430e-01 -9.300761458857647046e-01 3.143479268386433212e-01 1.901150802712109622e-01
-5.275105293303453124e-03 -1.501359928137968314e-01 -9.849882009049317766e-01 -9.154025129018754647e-01 4.400584006406541709e-02 -4.001271365618529474e-01
-1.076810934627738664e-02 -1.383949374818561340e-01 -9.435416568218069067e-01 9.927441753475187980e-01 5.708161240741831642e-03 -1.201100295929717621e-01
-1.289190112178322314e-02 1.481722073824764396e-01 -8.212357551224217511e-01 9.731789334106717426e-01 1.588016352672469989e-01 -1.664476019716591704e-01
-1.383062599542029571e-02 1.092825956600117776e-01 -9.234027567761510236e-01 9.965029763739858826e-01 -6.135779281378680311e-02 5.671895043817206522e-02
1.242445453384876872e-02 -2.459053671495870994e-02 -1.002144406529452692e+00 -6.311131769676039394e-01 1.266013765227203547e-01 -7.652896506032275115e-01
3.990415030809061486e-02 -6.210656833859791448e-02 -7.480141731800203919e-01 4.004794568728822224e-01 7.261594029555187291e-01 -5.588458876310047341e-01
-9.261284028847904803e-03 -1.092569077521683280e-01 -9.324208414233066122e-01 9.864559707328349747e-01 3.683953387879685543e-02 -1.598357486582194231e-01
-1.015443593494259195e-02 -1.253953990233437621e-01 -9.261745339909894792e-01 9.747771600255601410e-01 -1.179142221229816101e-01 1.894880590265156928e-01
-1.191904225285145454e-02 7.897347403093812890e-02 -8.858295466615825342e-01 -9.855056840028377785e-01 -1.670696280876129147e-01 2.943273974277367186e-02
-4.867315118072704054e-03 -2.940890422538056451e-03 -9.764135254821256771e-01 -9.346417840281548983e-01 8.289811233669654167e-02 -3.457927681714589307e-01
5.493618960438416757e-03 1.602294608114639141e-01 -6.861617729456509496e-01 7.157720649236138932e-01 -4.696105390339095909e-01 -5.168522929263900112e-01
-1.310296700775437882e-02 -1.973128271183840488e-01 -9.819922436398857979e-01 -9.488485411086914345e-01 2.088542817161886389e-01 -2.367833082054622562e-01
-7.970377729077172610e-03 -2.014216013967826124e-01 -9.188175733474253093e-01 -8.901980592407565673e-01 -6.529860665970009526e-02 4.508697231931777516e-01
-5.399573545829965820e-03 -1.565297706969980690e-02 -8.233930754758290727e-01 9.988793513249912825e-01 4.188314881820291713e-02 -2.204185431485999533e-02
3.760212734979922599e-03 -4.899004699086818848e-02 -9.990918847847114481e-01 8.041447375395839314e-01 -4.685081643556344988e-02 5.925843754999913227e-01
-1.154994916915913538e-03 1.509777150762069420e-01 -6.886945112696220006e-01 8.036458879028847146e-01 -4.355861159771217128e-01 -4.054849225615543284e-01
1.298156459307477258e-02 -7.491953287733913065e-03 -7.016415375257194498e-01 6.420042795845883887e-01 5.842653936413743088e-01 -4.964518655299456906e-01
3.354071169178327733e-03 -1.784707270935375345e-01 -8.920435152915416888e-01 8.226894113002930498e-01 9.162373220253623718e-02 -5.610590202747438582e-01
-1.388692763367355143e-02 1.188475831353553308e-01 -7.285406190543998184e-01 9.829269905149795594e-01 -6.953878668048089906e-02 1.703493130722049664e-01
-1.308110575651033960e-02 2.880661026240177378e-02 -9.278293349984872984e-01 9.976136705941670568e-01 6.176357805052688082e-02 3.085813782504551878e-02
2.705832398279425094e-02 -1.248345394118333118e-01 -8.272756686114790536e-01 -7.283770430374989502e-01 -4.230026655699264948e-01 5.390135694921661669e-01
-4.581931775667002008e-03 -5.970131702589905054e-02 -9.048398859455570875e-01 -9.792547671752568350e-01 -9.166416712929649491e-02 1.807146408817668082e-01
-1.270438838647091652e-02 7.198449208008179945e-02 -9.409285337872480559e-01 9.905790888401442285e-01 -2.902559996439999651e-02 1.338304274047449338e-01
-1.023810086698378682e-02 6.057143910460273395e-02 -9.535747925266925273e-01 9.712448824700610217e-01 -4.613747468982445400e-03 2.380380045497149932e-01
-1.217102142202419615e-03 -3.896472059364027019e-02 -9.837354380015679300e-01 -8.912494160106401164e-01 2.194540563476820444e-02 -4.529822045425388466e-01
-2.778027616284596546e-02 -2.613666568003331636e-01 -9.717437145091000206e-01 9.813383099176166136e-01 -1.860376695046882245e-01 -4.863236590276528992e-02
-2.547287192835384888e-03 5.056953615143190174e-03 -8.384598490539638682e-01 -9.930448466495316318e-01 7.469680291650068749e-02 -9.100725342994522848e-02
1.075658592623695599e-02 1.715567554167721775e-01 -6.900585993579890776e-01 7.789090812562049493e-01 -5.275413923473233346e-01 -3.391175644180969284e-01
-9.439981266578913524e-03 2.543769970865187094e-02 -9.487540690606237614e-01 -9.986054397097470225e-01 2.532123628959630224e-02 -4.632505558409499152e-02
-1.132239266237352118e-02 1.887360842606715106e-01 -8.954898939637234712e-01 9.409249175832782308e-01 -2.503972731502722149e-01 2.279506636748607207e-01
-9.819898980602752292e-03 -1.149897304025070677e-01 -9.385421208877872123e-01 9.974677715132606037e-01 -5.253624972807675918e-04 -7.111799200354528006e-02
-1.397849216641598377e-02 8.513914280397195944e-02 -8.730831170011659204e-01 9.831738629274876518e-01 1.557622829685706423e-01 -9.543199914421358898e-02
-9.603657583187034941e-03 -1.392272978880232936e-01 -9.209728838528894457e-01 9.343764317085763160e-01 1.069377723641022349e-01 -3.398602605621195427e-01
-6.146808091802596040e-03 2.111362127186909021e-01 -8.912294689878944576e-01 -9.637276589355385781e-01 -2.520573840998913129e-01 8.772727354333084704e-02
-1.198547546359270306e-02 7.665294530959300412e-02 -9.133898158283889623e-01 -9.987595500169945684e-01 -2.758855269756681911e-02 4.145157427534432865e-02
2.907947708701524164e-02 -4.324478117216749851e-02 -7.353247527992008425e-01 -5.717970622946862980e-01 -6.471054877094729596e-01 5.042842525079004323e-01
-1.112679841881365414e-02 3.517278462149589502e-02 -7.281992539628477923e-01 -9.575415773097749605e-01 -2.798372234287827554e-01 6.931995460744419524e-02
-1.002971523498904713e-02 2.260533477348156406e-01 -8.487689157486897340e-01 9.812807942981089937e-01 -1.909344507392156387e-01 -2.514037117042150493e-02
-3.539488012861823941e-03 1.292125085664877493e-01 -7.610363193118733216e-01 -9.554223740551673894e-01 1.606390207099659406e-01 -2.477159505969107056e-01
-7.376696628449176674e-03 2.393391665796592779e-02 -8.853645414630475496e-01 -9.782711269290875755e-01 -3.544010349784829095e-02 2.042782447568884663e-01
1.355483795400486309e-02 -4.465788738266474739e-02 -7.586750061275544521e-01 7.983962257727715839e-01 4.894543104541861367e-01 -3.507106280819142219e-01
-1.139090997068368735e-02 7.692108575109839197e-02 -8.906713196447998415e-01 -9.863874467491506870e-01 -1.487612364547021560e-01 -7.007067449482501376e-02
-1.162669470417286924e-02 2.070091088294586656e-01 -8.309313538516979181e-01 -9.388319223791380397e-01 3.341412573026088517e-01 8.333211679853141929e-02
-1.376890202644600117e-02 1.511088477495569071e-01 -8.235515373134684181e-01 9.727271306070403023e-01 1.619062495279668668e-01 -1.660972478543264186e-01
-1.643801672507028133e-02 7.629390775908043154e-02 -7.063480783791916684e-01 -9.965111678549251062e-01 -7.742933975594754048e-02 3.114786807104676439e-02
-2.245095634529984882e-03 1.210894753653171119e-01 -7.719814449667224965e-01 -9.705092631624203658e-01 1.273985978480620951e-01 -2.046493766965442884e-01
-3.476038255022024202e-03 -3.998996650222897548e-02 -8.350803813300727851e-01 9.941314971389610955e-01 9.506100270665118757e-02 -5.163305298598996201e-02
4.498400273154302270e-02 -1.239057805033388776e-01 -8.055799302381216886e-01 4.975335744623391454e-01 5.947072650606446409e-01 -6.314931600316951998e-01
-1.605411719822450595e-02 -1.947397769009446000e-01 -9.617918685987444372e-01 9.700424930050838279e-01 -2.299395760333999561e-01 -7.839230279856818084e-02
-6.828671426953689984e-03 -3.820544522793560549e-02 -8.983118208344784694e-01 9.879009529260283085e-01 5.507313047130861505e-02 -1.449781276880602598e-01
1.951700886544793095e-02 -1.432611629827664490e-01 -1.015760028976763651e+00 -4.709361800733193881e-01 2.212278447095540890e-01 8.539773738355808108e-01
-3.176369658522781164e-02 -2.753748715737958097e-01 -9.842811120148395876e-01 9.562623201416557972e-01 -1.617460131974048643e-01 -2.437223877530390881e-01
-6.976673697125818085e-03 2.761419582556218569e-02 -8.704514973390911070e-01 9.916180203975624163e-01 8.891902676533716340e-03 -1.288977722445621699e-01
4.067204116713524741e-03 2.241083585119735613e-02 -6.806949627018994420e-01 5.616665310425800195e-01 6.115418775680639962e-01 -5.572676555185323011e-01
-1.096208870325677404e-03 4.476597641124348270e-02 -9.837066669408008890e-01 8.303111642956435556e-01 -7.764276043318192599e-02 5.518649945397230416e-01
8.854086107293168001e-03 1.864022039201349012e-01 -7.438396208956884470e-01 -9.606154602338122794e-01 2.649229513168681049e-01 -8.386755883738163109e-02
5.466863571698082729e-03 1.045738878358697804e-01 -9.673726427736961675e-01 4.927223428843935937e-01 -4.622590993710715135e-01 7.372524790539262129e-01
-1.375734990162124326e-02 1.835433954307277293e-01 -8.684069804835848894e-01 -9.894239164183026292e-01 1.417606173695393490e-01 -3.072850439698339778e-02
1.463737339883078390e-03 -1.612573930668113886e-01 -8.891873176456148720e-01 8.462559514358556356e-01 2.281873045176571746e-01 -4.814368273370461804e-01
-7.521625404571435046e-03 2.277451124660582679e-02 -8.748906808015564085e-01 9.822908982794886779e-01 3.986500385781486383e-02 -1.830720421710857471e-01
-1.663806995231157521e-02 1.932909717366490532e-01 -8.351907878734687873e-01 9.918092294605078685e-01 -1.253115558843376776e-01 -2.472784500922894577e-02
-1.095459509516332787e-02 5.354400805813603476e-02 -9.398714943121867504e-01 -9.876118652201870685e-01 -6.274693985846541144e-03 -1.567910453172864094e-01
-4.461045989316538701e-03 -1.514096965556461366e-02 -8.619864629101350317e-01 9.812902524984473684e-01 9.317453665927193096e-02 -1.684872282099262042e-01
-1.196138208624946547e-02 5.885298010709797550e-02 -9.295684211470628400e-01 -9.977344266513471505e-01 -7.506551597826687655e-03 -6.685555741908687233e-02
-1.143401384445766854e-02 6.020853425333063530e-02 -9.365371756478733101e-01 -9.957066449632235861e-01 6.283716941651999385e-03 -9.235145953085185933e-02
-4.848442398542013310e-03 1.363810032546917787e-02 -8.755891346455797475e-01 -9.817474971050330623e-01 -5.929955623957609834e-02 1.807080921203936263e-01
1.226234634174516161e-03 -2.337016994789178795e-04 -8.607143398161259951e-01 -9.122404700622639417e-01 2.301220761663413383e-01 -3.389117213102441073e-01
7.045024345332835669e-03 -9.345380768882379993e-03 -7.167500603887270172e-01 8.222485486709166791e-01 4.966591893056129248e-01 -2.779154077896054398e-01
-9.275681290534883508e-03 -1.241593929092751902e-01 -9.311493818882965456e-01 9.981928392671978179e-01 -4.839544443219085529e-02 3.562213629053588571e-02
-5.219847022165135728e-03 5.633943504581042077e-04 -8.388890563847661852e-01 9.991006448049748467e-01 -3.872323707660693670e-02 1.727461897098763605e-02
-5.585966493397304285e-03 7.776848431917332549e-02 -7.915008872811084562e-01 9.871739700502480952e-01 -2.907042903892368552e-02 1.569791801823571531e-01
-1.230279137140556991e-02 -1.183678793393551235e-03 -9.382436205669059115e-01 9.986104564302764608e-01 -3.317247882175548140e-02 -4.094805193089470080e-02
-1.137168067629724076e-02 1.320001059249082120e-01 -7.164992092164965687e-01 -9.844053639519780852e-01 1.732832387503605853e-01 3.031498953916117109e-02
-1.485583860087728858e-02 1.666890668913705298e-01 -8.943266775831384408e-01 -9.514295071257161673e-01 1.988917894910481599e-01 -2.349977639118411565e-01
-1.708937050860396840e-03 1.058732361131790173e-01 -9.543254977591342225e-01 -7.943710158900245677e-01 2.818317446931904446e-01 -5.380943753627636106e-01
-1.268419458913074352e-02 -2.358224277907136970e-02 -9.436652227497567269e-01 9.998762399122781419e-01 2.554055938065624264e-03 1.552358390159598589e-02
3.728542323691506899e-02 -1.493859627236120424e-01 -8.340781301180435481e-01 5.335223309099644817e-01 5.531587897402461262e-01 -6.398197212914776832e-01
-1.083861697200154059e-02 -2.805217290421904014e-02 -9.450382763385236640e-01 -9.998245726426263635e-01 -1.589484210346148521e-02 9.908477910139540726e-03
1.531710565614360052e-02 -1.739012832656614271e-01 -8.767299556458131304e-01 -7.841323553850585437e-01 -2.044854324409020319e-01 5.859369907743815498e-01
-2.865069286173248589e-02 -2.973618624257148846e-01 -1.001660612569125641e+00 -4.426721852400059554e-01 -2.673078977436904591e-01 8.559134443497697919e-01
-7.947866221213833321e-03 1.011898300703261977e-01 -8.334801538805013399e-01 9.506432732711533884e-01 1.420558264034239571e-01 -2.758577698183388716e-01
-1.018931317084349926e-02 4.336718879122912484e-02 -9.573601317446778225e-01 9.917011724668475248e-01 -4.429885721247031616e-02 1.206913243673692349e-01
-8.280215353454379104e-03 8.075472418802891184e-02 -7.679239050494363061e-01 -9.598564826564813801e-01 5.964491725180153664e-02 -2.740766618089795492e-01
1.477360262036447533e-02 -3.113410345748826580e-02 -1.004702363769685469e+00 -4.735328600804843968e-01 1.445481589731430483e-01 -8.688339658194029758e-01
-3.975409661187066963e-03 -1.337291933945347448e-02 -8.826333328935059841e-01 -9.619685305576535228e-01 -1.684451912571306165e-01 2.150413070995839948e-01
-5.665377305686078099e-03 1.568341930850544394e-02 -8.160001800076703837e-01 9.908326620664157369e-01 1.297365478465723476e-01 3.767046502546093217e-02
-1.073930042568062640e-02 9.481824620286913308e-02 -6.722823055205654486e-01 -9.587359245097611948e-01 1.329876485547495935e-01 2.512761675652747662e-01
3.629525681992949726e-02 -1.640474333702914289e-01 -8.460734597600768625e-01 5.149592477271660584e-01 5.131695263209538060e-01 -6.866396510803897124e-01
-1.461482229188071011e-02 1.761286983652362303e-01 -8.956571658770565714e-01 9.574449837344766179e-01 -1.576298239360695574e-01 2.417683637856114787e-01
-8.830581972453292045e-03 7.820568017331634703e-02 -8.499106992967064844e-01 9.511486347062375613e-01 1.131711550367861946e-01 -2.872430405842761325e-01
-1.307038460926594411e-02 4.855237529249166462e-02 -9.065924490470804731e-01 9.951733665608317736e-01 6.135856143972923289e-03 -9.794039900552166389e-02
2.011804693394857874e-03 1.683369967715357962e-01 -7.718156540081253514e-01 -9.317751390334015893e-01 -4.729756707262176146e-02 3.599417042081899942e-01
-1.788295461015113746e-02 1.119411624258110083e-01 -8.916598912760547169e-01 9.960950526035612373e-01 8.672413769326192678e-02 1.653995526200305669e-02
-1.139401818789463616e-02 1.184170388877192753e-01 -7.420311028223347538e-01 9.729258332251985442e-01 -7.264345424733580081e-02 2.194043108010150511e-01
9.090905582776993149e-03 -1.720062516744007286e-01 -8.815696380088366979e-01 8.137769149860130113e-01 1.856421513767905207e-01 -5.507305368944456214e-01
-4.103334386452770106e-03 1.115124093720064463e-01 -8.115521973266734967e-01 9.749546157799140467e-01 1.107249463632897224e-01 -1.928820453600780804e-01
-2.865942799789591294e-02 -2.718887482622784346e-01 -9.690250094079383425e-01 -5.072914093405356262e-01 4.905731818827981372e-01 -7.085149110828085073e-01
3.871046771130030872e-02 -1.861529112168667233e-01 -8.628431700898855361e-01 1.430443178922449765e-01 6.589998075718295212e-01 -7.384155853847030881e-01
1.391764248501894084e-02 1.981950143171506695e-01 -7.376477424688592244e-01 7.689886971986035213e-01 -6.264318206678696210e-01 -1.274345229344560071e-01
-1.453965834294962400e-02 -2.070758481823472275e-01 -9.833493517124137773e-01 -9.453421353839562835e-01 1.536465719372672178e-01 -2.876125484043212110e-01
5.517827884433908897e-02 -1.499717943283028765e-01 -8.233425745525950745e-01 3.512133247930636637e-01 6.588009805191549217e-01 -6.653047937260049283e-01
-1.359855270199108318e-02 8.821998835243741177e-02 -7.536627647915433714e-01 9.605734153087359672e-01 -1.200034869798259213e-01 2.507944913964293976e-01
-4.537632926913930803e-03 3.796174170968968226e-02 -8.379076697883431901e-01 9.926225695465119570e-01 6.908612665608478143e-02 -9.963704898550387878e-02
-1.092868401294259419e-02 9.400083280770898941e-02 -7.533164373188699914e-01 -9.713177487684019340e-01 1.075486139438352196e-01 -2.120733990066733798e-01
6.830457410581809718e-03 -5.842840882510131478e-02 -7.964352914129710914e-01 8.932847966809680518e-01 3.696958172999936232e-01 -2.556702459996695320e-01
-8.753617309328805621e-03 -3.905876736710017783e-02 -9.086650429675562357e-01 9.824463039477338011e-01 5.336781455584389128e-02 -1.787488076295060402e-01
-1.175367038529269610e-02 9.566614545316122487e-02 -9.251997300415401027e-01 -9.965247826651665308e-01 3.574645267873933357e-02 -7.523661778036991321e-02
-1.531552550042057821e-02 5.055664162729716499e-02 -7.037390899209420292e-01 9.734393103371821176e-01 2.159223749789500602e-01 -7.611463114093833249e-02
-1.399975792621841429e-02 -2.197947592093313085e-01 -9.289417042047980466e-01 9.072753665868125150e-01 2.866450475475260107e-02 -4.195590010379113277e-01
-7.908028133166395551e-03 -4.684000324749410665e-02 -9.671170453195115924e-01 -9.666673344431664372e-01 -7.798804905538452015e-02 -2.438690811174690776e-01
-8.301960016093391098e-03 6.994029431695518439e-02 -8.508485764398409090e-01 9.683761776004224942e-01 1.029668896633158942e-01 -2.272562392742120685e-01
-1.795165180643932060e-02 6.641341415964249761e-02 -7.204757761638816982e-01 9.977972952766239745e-01 6.544484035530685750e-02 1.084114429026204925e-02
1.081891335913896931e-03 3.015253887325161294e-02 -8.454877978425754392e-01 -8.619952843545822807e-01 -3.774825729879153768e-01 3.383356866203832136e-01
-2.872729503068543935e-03 -1.542706937860124361e-01 -8.938065261474034129e-01 8.977242019619425806e-01 1.638511157690664966e-01 -4.089548496753957485e-01
1.822480619670422894e-02 -4.853083814423585912e-02 -7.601206431048920242e-01 -7.412758839922042320e-01 -5.002233869697541024e-01 4.475339394281553362e-01
-6.031521279357610586e-03 1.990391009277607884e-02 -7.876994821413489944e-01 -9.826680572616870446e-01 -1.722964090234332946e-01 -6.839178806824375290e-02
-5.977200724438830326e-03 1.024419069567433782e-01 -9.463407993574457500e-01 -9.233015730234682694e-01 1.331732886926796644e-01 -3.602486369594831705e-01
-1.654407145608998916e-02 1.494049739010514244e-01 -8.650551515687330273e-01 -9.925592166567057673e-01 7.392221727227520425e-03 1.215382922694012297e-01
-7.682518141603552828e-03 2.087322179611263984e-01 -8.852572844921940964e-01 -9.446366964064871752e-01 2.013425292580043879e-01 -2.590804850123377134e-01
-1.513982975918421250e-02 6.265409065874372185e-02 -7.046761559529692853e-01 -9.869901466480477392e-01 -1.498717806913844319e-01 5.821425746377663357e-02
-9.195600459383387187e-03 1.273029555463809082e-01 -8.236156547437865072e-01 9.706479200932710549e-01 1.969576830207138141e-01 -1.380227746341863571e-01
-1.324155255314643335e-02 6.159868543531332730e-02 -6.837483913002618818e-01 -9.709605793093798454e-01 -1.617889157208101947e-01 1.762381915961411805e-01
-1.273389981825431144e-02 -1.684344764365844349e-02 -9.402462783978304817e-01 9.987786415428763220e-01 -9.652537791267744999e-03 -4.845671998758232374e-02
-4.168982294321238284e-03 1.485128720181878581e-01 -7.015085120860378165e-01 -9.185477246183186839e-01 3.319976670731894508e-01 2.145871073864152878e-01
8.449103662031587011e-03 2.207906984598215216e-01 -7.712105409380388688e-01 -9.024207155256148694e-01 2.315583337748326753e-01 3.633422494696435523e-01
-1.862915759422559617e-02 -2.277651642752968331e-01 -9.744721896732196909e-01 -9.746232124817159059e-01 1.519030245917404875e-01 1.644234314558042920e-01
9.870982438074550960e-03 -1.107458922606847918e-01 -1.006609947501960978e+00 -7.476071406627134985e-01 -5.243427868352121962e-02 -6.620681306701453606e-01
1.350419086534759665e-03 6.847252088660898961e-02 -9.772537205953608641e-01 -8.577260993775764897e-01 2.086327743633893395e-01 -4.698705182366341160e-01
3.478734576450256272e-03 -9.424341504888866794e-02 -9.983269670549784758e-01 -8.403370691964795469e-01 2.107019898928536028e-02 -5.416545549045288510e-01
-1.223076952295264717e-02 2.069934976295904200e-03 -9.466651444730332932e-01 9.990699358191824642e-01 -4.308429963428723336e-02 -1.733916744793175977e-03
-8.118852886213483860e-03 -4.045301080064481886e-02 -9.735266682865133525e-01 9.161327000454528857e-01 6.850887346577302917e-02 3.949777337570806179e-01
-8.674430362349851847e-03 -8.866367481322465216e-02 -9.226633163322184306e-01 9.819859571503062323e-01 3.702865184884856359e-02 -1.852902018506486226e-01
-1.353928257935030528e-02 6.004089161604943964e-02 -6.884472075726019158e-01 -9.802637848573962920e-01 -1.748122757653486070e-01 9.232323834654135308e-02
1.413629596765120754e-02 -3.774864629364266255e-02 -7.465264858782443280e-01 7.731937199924405757e-01 5.411231233027524734e-01 -3.306920573453887013e-01
3.277373758301179319e-03 2.284825374701938139e-01 -7.924424972853579829e-01 -9.266419446150134798e-01 2.975237526675561517e-01 2.298136703477872689e-01
-1.314091439925765999e-02 2.024234515072609042e-01 -8.413110477960985545e-01 -9.825598435815674492e-01 1.812919252933184733e-01 -4.134478932595936351e-02
2.708067794428305544e-02 -5.968308677786081373e-02 -7.567101893260727019e-01 6.251678518316818867e-01 6.248990294383357513e-01 -4.676177499231461421e-01
-2.087541729094361323e-02 -2.355940867763426649e-01 -9.873953809690471095e-01 -8.899613566702889722e-01 4.265151398858029741e-01 1.614113350473654340e-01
3.699750270916443273e-03 -1.336385784362855711e-01 -9.990827933575830988e-01 -7.861118568360143666e-01 8.871765571612441614e-03 -6.180205824383813162e-01
-1.912155772899814740e-02 1.426882207708631833e-01 -8.970659145326131956e-01 9.785342969809510683e-01 -4.861063572310755920e-02 2.002689085369747934e-01
8.580500910489665886e-03 -1.405342792366217619e-01 -1.009571763355750162e+00 7.599111529703607149e-01 -5.252103325010694379e-02 6.479016751464671264e-01
-5.819655101355984336e-03 -2.084965446519295232e-02 -8.994088252220684421e-01 -9.905894538084371037e-01 -1.145842996411420289e-01 7.485300447711830396e-02
-1.405256389749800052e-03 1.669980014604179330e-01 -7.110359975122926279e-01 8.451186015102961635e-01 -5.031244705721263921e-01 -1.806663125565998729e-01
2.191075067059278236e-02 1.727317671456224946e-01 -6.852789257543738799e-01 1.065808350728147114e-01 5.708833431758507659e-01 8.140839846597800467e-01
-1.868020605837873369e-02 7.976170736579327181e-02 -7.082058189857460828e-01 9.998794286909443718e-01 -7.148746293054176505e-03 -1.378490141816667881e-02
-5.209915265416801243e-03 -2.975860131913583492e-02 -9.007784564824891094e-01 -9.801830588454387705e-01 -5.542399892555457258e-02 1.901824163678111357e-01
2.357194244005051190e-02 -9.482758015002908103e-02 -1.014780496845644420e+00 -2.828104857540590378e-01 1.267621580746572107e-01 -9.507626330624320277e-01
-1.037465075825057259e-02 -1.056880089013428059e-01 -9.655933002032026646e-01 9.874172965783278855e-01 -3.405129520719288316e-02 1.544266547998084660e-01
-4.047233770000191119e-03 4.006295407799427034e-03 -7.439937915308842964e-01 9.641344262751834204e-01 2.465207786004379176e-01 -9.834792214000839805e-02
-8.598601823292506205e-03 1.441851038237901839e-01 -8.064406995590142069e-01 9.418071765016544639e-01 1.721883704313157959e-01 -2.887047061933518122e-01
-1.271880937817986348e-02 1.777533362384914051e-01 -8.147583272149711009e-01 -9.832250753378417585e-01 -2.264445853194218747e-02 1.809853025101515189e-01
-4.563787377484488685e-03 -7.287465215685770548e-02 -8.628746297824185785e-01 9.841588857661387468e-01 1.432766041072540131e-01 -1.044179212733421097e-01
-1.014014014305080966e-02 1.773633984994743285e-01 -7.965037896012422403e-01 9.506990105019426096e-01 3.921531421610419121e-02 -3.076256662919394924e-01
-6.017004667997108425e-03 1.373736567205460501e-01 -7.531946751555529396e-01 9.485276388830221617e-01 -2.057151664004173430e-01 2.407832813711280606e-01
-4.083841636762017627e-03 1.449521840578842612e-02 -7.979287167161834837e-01 -9.747336906507476639e-01 -1.982691705674647920e-01 -1.028764711334063664e-01
-5.877716187678603404e-03 2.435899248709144649e-02 -8.654541040757021131e-01 9.839125874488006129e-01 6.717981953236690229e-02 -1.655381892718565950e-01
-1.804867090876533658e-02 1.473590406064839708e-01 -9.010340226689960152e-01 9.783643249343140225e-01 -7.704045758078273409e-02 1.920104569849466758e-01
-1.237254030865274357e-02 1.969632777713871755e-02 -9.265160358984092515e-01 9.956887761544447324e-01 8.619427140356931971e-02 3.426964571266959830e-02
1.182335665083754199e-02 1.530726366943836736e-01 -6.777252772190552887e-01 -5.827596505708401153e-01 4.532382259487268694e-01 6.745118977493302914e-01
-1.101532465816595571e-02 5.653525970303951292e-02 -9.396478819089648660e-01 -9.876634638950660960e-01 -8.712311345314522129e-03 -1.563488973988046149e-01
-8.273719755903095885e-03 -1.847237080021648433e-03 -9.136123120097084938e-01 -9.964890646231948645e-01 -8.082173102462439362e-02 2.184929931539529580e-02
2.533809255468161964e-03 4.175276743247614136e-02 -9.856122778838118936e-01 -8.401044308766174584e-01 7.631460994498120987e-02 -5.370294456828417218e-01
-2.950680866216789499e-03 -1.607352843591293712e-01 -9.021471697030889469e-01 -8.777921844514352534e-01 -2.023841804583820514e-01 4.341906544551215608e-01
-3.018836774892680840e-03 2.797797123614179440e-02 -6.930863717372126587e-01 -8.404577764672090945e-01 -4.743205013308899876e-01 2.620129538648960921e-01
-3.922506488193734653e-03 1.673720439131105159e-02 -8.037782127179345926e-01 -9.747336906507476639e-01 -1.982691705674647920e-01 -1.028764711334063664e-01
-8.667642734143788871e-03 2.325612281867225906e-02 -7.921656881270128236e-01 9.846331108301792367e-01 9.545713490342308538e-02 1.462380677283235675e-01
-6.766139727008638194e-04 -5.340042537593775451e-02 -8.200283286808881522e-01 9.435650802028539008e-01 2.572156448265400797e-01 -2.086265838244233672e-01
-1.664636431183561666e-02 1.201277242352379038e-01 -8.762423753087499323e-01 -9.969782907445530196e-01 -6.068448847549830910e-02 4.849412998020528193e-02
-1.101256506650107568e-02 -1.642031602151876601e-01 -9.588786535857545257e-01 -9.942562831056878103e-01 7.602489350371421928e-02 7.533033301805831805e-02
-1.786101326613574736e-02 7.363575933545976615e-02 -7.270073891006941791e-01 9.978074868016775234e-01 6.220742972817772110e-03 6.589022415644649189e-02
-1.452585806952778891e-02 1.106497025662180611e-01 -9.167811138753085842e-01 9.921694893546357807e-01 -2.147124392441707857e-02 1.230393842560173479e-01
1.950556940317688115e-02 -1.843781606416145663e-02 -7.075045966035425904e-01 5.208064661813056606e-01 6.443055930029285561e-01 -5.600276132557081565e-01
-4.836921236091975933e-03 2.690756764669372664e-02 -9.715206311050753607e-01 -9.193208469121464388e-01 8.834161167141868151e-03 -3.934096313376263532e-01
-2.614351275623920043e-02 -2.796331402597959093e-01 -9.915245431413403088e-01 3.173135602609360520e-03 -3.895411956358192929e-01 9.210035766016674286e-01
3.175051392790927129e-02 -1.868918098975629050e-01 -8.694569625768114873e-01 -4.936595627143473553e-01 -5.209096566210044132e-01 6.963859316353731010e-01
-1.527606801844154198e-02 -2.089943812084159025e-01 -9.876177265958778762e-01 8.732556661064685422e-01 -1.694338178212822232e-01 4.568552538730977219e-01
-1.059360085842555969e-02 1.696898377074850528e-01 -9.121342325000824092e-01 8.807719694276516798e-01 -2.129914466742702239e-01 4.229366164263119177e-01
5.495056357231075566e-04 -1.050776309694383820e-01 -8.679925317863242951e-01 -9.521639888111881334e-01 -1.085751183026816419e-01 2.856487039997319122e-01
-3.190516773100709764e-03 1.197209048779074858e-01 -7.794929284076318465e-01 9.813946540342497471e-01 -1.385475094344907898e-01 1.329252446395912113e-01
-1.491823438699738276e-02 7.599461051777128828e-02 -7.370505138624684482e-01 -9.897317670084467833e-01 -1.053776661399568118e-03 -1.429332673980619473e-01
-1.196530131963706271e-02 4.432954627286980059e-02 -6.897499544311088693e-01 9.552708136775689418e-01 2.345757366754338269e-01 -1.800885790353546623e-01
-6.931722381504191489e-03 7.826030410747424060e-02 -9.609429479864149970e-01 9.395463020377871066e-01 -9.138475334707601982e-02 3.300023836017155765e-01
3.081931594890374021e-02 -1.931086916372343198e-01 -8.743851275659323408e-01 -2.867576282916362018e-01 -6.302579314419239909e-01 7.214880473515153936e-01
-1.202810823909897242e-02 1.241575352203080074e-01 -9.170701659757685142e-01 -9.629411905624919443e-01 6.932689049211955556e-02 -2.606492773302558907e-01
5.692723894293471969e-03 -1.623133397434815550e-01 -1.005323235746667931e+00 -6.737747351324080425e-01 -2.424951271270043077e-02 -7.385388056361360531e-01
-1.169440378995004540e-02 -1.535207366313069421e-01 -9.710506810277300671e-01 9.834498760288065133e-01 -8.799556412499874580e-02 1.583765198293242416e-01
-1.686981809137757041e-02 1.042029741346125055e-01 -7.051652311160636621e-01 9.913779546772747420e-01 -1.299381950876140335e-01 -1.690610650850580404e-02
-1.915291859451729792e-03 6.359037375515608735e-03 -8.465325176216925707e-01 -9.915900433326156893e-01 1.098562410208314410e-01 -6.841631583470901556e-02
-4.536984724600797748e-03 -5.200891186952359864e-03 -8.556141914771658863e-01 9.956570529225396982e-01 -2.867342619290504102e-02 8.857125716598761300e-02
-3.437547033817286296e-02 -2.887085376157415562e-01 -9.918359017254263499e-01 8.818470160829894322e-01 -2.650245887016918767e-01 3.900100096267108407e-01
3.198927178472010802e-02 -1.501367595592515980e-01 -8.392620320448680449e-01 5.390928244157103810e-01 5.612235144751449578e-01 -6.280183862465005262e-01
-4.618045555289236777e-03 4.226025048355559061e-02 -8.199736374679571504e-01 9.919929784104432047e-01 -8.119927263857043553e-02 9.672956583871010483e-02
-1.229649477359607591e-02 5.363493917816157530e-02 -8.989660451660859142e-01 9.900195482816046555e-01 1.712717162084476802e-02 -1.398855032251661024e-01
4.313784906656525225e-02 -1.602246702083230945e-01 -8.410541914102289685e-01 -4.272019898361110180e-01 -5.887127932022865329e-01 6.862329830312944301e-01
1.193787916780473775e-03 2.122176669257422321e-01 -7.863706159941725726e-01 -9.297637985057856103e-01 2.138669167037418606e-01 2.996668498978956596e-01
-1.631685421010735382e-02 1.620960795877867955e-01 -8.705132468214407115e-01 -9.932449605076796306e-01 1.080049471267169325e-01 4.241909737669054270e-02
-1.277137758990638285e-02 1.508567559584507722e-01 -8.179553949424277492e-01 9.727271306070403023e-01 1.619062495279668668e-01 -1.660972478543264186e-01
-7.094010670135078925e-03 1.389003570539512622e-02 -7.445624345602824823e-01 9.482430782252226908e-01 3.153267666597759922e-01 -3.747125332632469941e-02
3.920558403150736955e-03 2.081223638899158956e-01 -7.754675674273240338e-01 -9.218879428824685585e-01 2.070007346507236612e-01 3.275260548750151268e-01
-1.462146977573036168e-02 -2.220207251161401552e-01 -9.551094440324575663e-01 -6.672274204099934991e-01 3.247451735675982998e-01 -6.703343506770156335e-01
-1.018069641834723829e-02 2.261465685051130825e-01 -8.606856353638099311e-01 9.715785460549564156e-01 -2.325364636848002431e-01 4.429358760255020649e-02
7.353765784406757385e-03 -9.567190270995963586e-02 -1.006621341602684350e+00 7.023340352936654485e-01 -1.276590203683815872e-01 7.003071307552861668e-01
6.126317810697481415e-03 -8.533852368490389695e-02 -1.001546209240550267e+00 -8.084921234873101437e-01 -1.369093838654355903e-02 -5.883477241097104793e-01
-4.519192228051739819e-03 4.710789885443059793e-02 -8.577569833439037117e-01 -9.827094575134217580e-01 -1.025086490001342610e-01 1.541885177107674976e-01
-1.687690051863080520e-02 1.465830339810783867e-01 -9.058230125274785438e-01 9.595932415169632357e-01 -1.049344238631030324e-01 2.610930438052420088e-01
-1.411332610379041098e-02 8.332152010917792673e-02 -7.530032814138035713e-01 9.715498587024993249e-01 -5.217838274366504159e-02 2.310157752825759414e-01
-1.436199867051010486e-02 1.997870964491149925e-01 -8.592149750448813128e-01 9.838648152398093982e-01 -1.573509394854960552e-01 8.515108440981550286e-02
-8.165605083346441986e-03 2.436256165133123680e-02 -7.622806304871769800e-01 -9.697321574953290391e-01 -2.441697570027263620e-01 -8.200516349474565097e-04
-1.375100646409357745e-02 1.711179018976339006e-01 -8.208839662254292513e-01 -9.815209544060748970e-01 -5.230838630604945499e-02 1.840664249227577098e-01
1.237397018808795816e-02 4.957626911402079201e-02 -9.962930390214027598e-01 4.497041100405785863e-01 -5.048434772081888261e-02 8.917497093062686231e-01
-3.859273855051950121e-03 1.168036285692278520e-01 -6.648931698339185514e-01 7.733603240657473954e-01 -4.346425373539732351e-01 -4.615188770607570601e-01
-1.702620080570061908e-02 -2.187764961556683263e-01 -9.826085306468028691e-01 -9.305268983783943071e-01 2.412386811014102517e-01 -2.755423563351696581e-01
5.945229709597209776e-03 9.062355897283200235e-02 -9.757360053351741280e-01 6.391015102480492871e-01 -3.995305052186496897e-01 6.572097344062950430e-01
-2.084817837301437479e-03 1.485689502065289103e-01 -7.495469958677988265e-01 -9.458786958605300832e-01 2.396545741190608536e-01 -2.188131116295243261e-01
-2.885879042901562993e-03 1.020769733075129332e-01 -7.992489970427334445e-01 9.996524110359550352e-01 -2.519388975975258432e-02 7.766918872736347859e-03
2.793190078840189147e-02 -1.092896148255295963e-01 -8.092372025520879752e-01 7.007430488107706523e-01 4.433966436979271397e-01 -5.588905043931230443e-01
-6.696447545351113129e-04 1.115299611703341465e-01 -9.579578919761539968e-01 8.075465648613140424e-01 -2.918398445411726216e-01 5.125407795667344946e-01
-2.649108989591362345e-02 -2.690033576533051307e-01 -9.695435182715782529e-01 -7.270545298113247901e-01 3.287381420958995215e-01 -6.027627598086744420e-01
5.785606642748702781e-03 -5.720233545856911669e-03 -9.935402035669231857e-01 -7.470167549511846916e-01 1.377965256470987249e-02 -6.646623872293344615e-01
-1.108098130359526021e-02 4.675330900305398746e-02 -9.506004006117202421e-01 9.849838937334695066e-01 -2.955148160659367210e-03 1.726209610244432979e-01
-1.415456511822866213e-02 8.164216243086147573e-02 -9.168073539993413235e-01 9.987168339040224385e-01 9.253163107890373731e-03 -4.979020635852256932e-02
-1.791792409995405415e-03 -1.296750363632257208e-01 -9.251118932856585708e-01 -9.919169277448687261e-01 7.112040721711704316e-02 -1.050842335008107115e-01
4.496775556937118550e-03 -1.586253021440055810e-01 -8.866822370788262075e-01 -8.403925749538635470e-01 -2.643294255401126280e-01 4.731493154978129723e-01
1.289646285356539288e-02 1.533286427123987661e-01 -6.738326006120727296e-01 6.241796940299466634e-01 -3.701639401347542879e-01 -6.880249755529201927e-01
-1.732576490410458331e-02 1.275865493495194902e-01 -8.609670340338148042e-01 9.793574400270697033e-01 6.626627064057470651e-02 -1.909654053461378731e-01
-1.775369248550961662e-02 -2.152817842097619894e-01 -9.466721672474227578e-01 9.878677541984930421e-01 -1.513502666302342370e-01 -3.479076035074251533e-02
6.403475956045233050e-03 2.144072359203345601e-01 -7.669786745099285152e-01 8.324786274856372792e-01 -2.715878479514521326e-01 -4.829279196989219591e-01
-1.505538042779329747e-02 5.945013099934107204e-02 -7.241979572982852886e-01 -9.945821579967077941e-01 -1.025894167118668737e-01 -1.678518910620585905e-02
-1.560157931999330699e-02 1.660651292586892702e-01 -8.638004599434003783e-01 -9.940800259746682688e-01 8.652684225280238284e-02 6.571154790416784686e-02
4.942691497110275611e-02 -1.645436831618412310e-01 -8.381556335171858052e-01 3.182608097042274875e-01 6.728712248270846130e-01 -6.677981519936307953e-01
1.649439113567324408e-02 -1.763756497426015868e-01 -8.760657001028974156e-01 -7.670220826947974357e-01 -2.499038488929719859e-01 5.909527823498372801e-01
-5.655709457508650839e-03 7.097083611055372832e-02 -8.499234929922693249e-01 -9.698932918078725374e-01 -1.229708915792454282e-01 2.102026696554887830e-01
-1.460819272171498019e-02 -2.191358377628797316e-01 -9.932077252130228073e-01 7.942130069329269570e-01 -2.754866064452509145e-01 5.416020949810276264e-01
-4.425483740413904687e-03 9.784755567070906740e-03 -8.399718915897818050e-01 9.991656986437097432e-01 -2.835342500457057810e-02 2.939370586261191159e-02
1.398463110867498999e-02 -8.063433892534475900e-02 -8.100082989509868048e-01 7.800146027128923576e-01 5.237598434493271338e-01 -3.424220290001581679e-01
-2.419407135898964112e-03 1.127162165330805460e-01 -6.640121314098971217e-01 -8.265267670380900267e-01 3.838724371776753297e-01 4.116982576412423489e-01
-1.856071691193824508e-02 8.092198324031907308e-02 -7.154856253316488335e-01 9.963841614471912189e-01 -4.256160057669777091e-02 7.353307401113715058e-02
-6.240190505424774575e-03 1.166551216982757433e-01 -8.296369489641878259e-01 -9.597401544301145115e-01 -5.416514820597715524e-02 2.756174390242472350e-01
-2.553209000536975706e-03 -1.056749022011579248e-01 -9.867782738132994114e-01 -9.175457689393329286e-01 1.585069635083856746e-02 -3.973141292815068337e-01
-1.084020762045462966e-02 -1.750569106276968490e-01 -9.548197117107943832e-01 -9.553887753408583094e-01 7.301234269597401891e-03 2.952608675914163983e-01
6.000115396802007360e-03 -7.100528039321464535e-02 -8.157070957598477889e-01 8.936012981078570450e-01 3.449691438860187920e-01 -2.871811445525289663e-01
3.135956870960141321e-03 -3.311096708859698895e-02 -7.752891485422083173e-01 9.007209971039918939e-01 3.865838116421211335e-01 -1.981278424458303156e-01
-4.124328104123657635e-03 -1.145153018164582481e-01 -9.116389515939969934e-01 -7.805617589731050909e-01 2.832386597849657073e-01 -5.572245526105510383e-01
-2.364802378864734253e-02 -2.536030998518269963e-01 -9.602683379117088469e-01 -9.399984511290342404e-01 3.269675281134216682e-01 -9.744304713223829462e-02
-6.975689324854756138e-03 -1.418095100766747496e-01 -9.178326433210979296e-01 -9.944130553215297930e-01 1.002254978952141773e-01 -3.312891452729425229e-02
-3.522030516223072748e-03 -1.359989295806070253e-01 -9.240782490242560598e-01 -9.131375046461499556e-01 2.000729760592019346e-01 -3.551770007466934498e-01
-4.235140416846387354e-03 -4.636157846769144164e-02 -8.457263530657471717e-01 9.976337982342355915e-01 -1.425798174930023067e-02 -6.725707826815854884e-02
-2.023516938450434233e-02 -2.879644200526690900e-01 -9.844876802702453578e-01 -9.773841375230191142e-01 1.933001633954730680e-01 8.576301387933935039e-02
-7.927977085957540679e-03 -2.262153427363109565e-02 -8.987247553100253805e-01 9.911369389722977097e-01 8.077394447254922227e-02 -1.054662889219559058e-01
-1.106060579228573988e-02 6.463033583801734705e-02 -7.662157331938403981e-01 9.676792830088386532e-01 1.774332841254327997e-02 2.515590974946936287e-01
-9.802897298906742760e-03 -4.999183325053051935e-02 -9.666788442443045026e-01 9.584713062150014284e-01 6.872104106940543633e-02 2.767854289460456862e-01
9.561177757556382772e-03 -9.938499047779278395e-02 -8.403206977985400172e-01 -8.790911606491762509e-01 -1.895690225442615007e-01 4.373354741615383401e-01
1.411072391392740244e-03 -4.878574150866037649e-03 -9.918546014435767333e-01 8.034750695602904669e-01 1.910712198912924153e-02 5.950317054446587761e-01
-4.857213735035334663e-03 1.857485456087850373e-01 -9.125016827686159848e-01 7.647453479549669586e-01 -3.149471043405453474e-01 5.621146451114240605e-01
-5.640387533838523045e-03 5.531902650276805666e-02 -9.705851590233541826e-01 9.455996420882626374e-01 -9.641402656881671585e-02 3.107179627304111902e-01
-1.116842520040526102e-02 4.106332096169950339e-03 -9.216988278678317492e-01 9.955157982103668424e-01 9.284687681563180695e-02 -1.810394926967960963e-02
-1.070591829035146166e-02 5.899923056819521977e-02 -6.736447895629996685e-01 -9.493653320996341405e-01 -2.400647371035830591e-01 2.026681726535750350e-01
-5.298428967944906511e-03 3.112015442789509492e-02 -8.215619116923862375e-01 9.933934947690523654e-01 -6.507525468006450375e-02 9.452288494779126360e-02
-4.395514751635023858e-03 4.166578138567709338e-02 -8.414487978483764508e-01 9.982759941090081357e-01 -5.750346644907114446e-02 1.176396752853185040e-02
2.109161108059283071e-02 -3.802151800246858504e-02 -7.318415066489158960e-01 6.038019841767772178e-01 6.708659080293096766e-01 -4.305369872010961219e-01
2.714497244827417805e-02 -9.734912489012707837e-02 -1.014035473386122765e+00 2.137829448514455832e-01 -2.505536361470995371e-02 -9.765598195936480153e-01
2.047544635801333210e-02 -4.922109027874222581e-02 -7.517677787964175407e-01 7.187461965022052812e-01 5.945709224607172994e-01 -3.604016137281087495e-01
-8.092196006866411370e-03 8.114380515124379467e-02 -8.441856292327695188e-01 9.738850871219462135e-01 1.239753807360465948e-01 -1.902050000731632939e-01
-3.715611811864030821e-04 2.358508337065700344e-01 -8.209227385359605389e-01 -9.556667846805756428e-01 1.419978120644040387e-01 2.579488670787537519e-01
-6.080889102435071622e-03 7.428632553252903503e-02 -8.395685880196696038e-01 9.710617384926091278e-01 1.150334487901803898e-01 -2.092997986027430313e-01
3.961584270064497787e-02 -1.500171021669019777e-01 -8.358824075871519321e-01 -5.418787673892493384e-01 -5.247228525976892488e-01 6.565312859372743892e-01
2.723131167646747775e-03 1.233639655685520899e-02 -7.023067068126278567e-01 -8.700438346838346160e-01 -4.461323409909467852e-01 2.097371212985098266e-01
-5.323010670557687049e-03 1.132728648648677859e-02 -8.094883618085249033e-01 9.931142294178543217e-01 1.092814760005158675e-01 4.221002642655587167e-02
6.998655723302188436e-03 1.606020850757378660e-01 -6.894277707587892490e-01 -7.622664368051307315e-01 4.552873093774220670e-01 4.600688483697604747e-01
-1.301570654799463767e-02 7.271617944391808863e-02 -8.985545922850280975e-01 9.933293868269844618e-01 1.142883843042808850e-01 -1.532626761623197623e-02
2.336783043838618068e-02 -1.481109882668882882e-01 -8.475291511243636666e-01 7.041415030120443674e-01 4.759861998280726647e-01 -5.268983595620403415e-01
2.460527747144405919e-02 -1.935107721012486320e-02 -7.089698436114036939e-01 -8.812868157026704230e-01 -4.634761470676634354e-01 -9.232231348899973267e-02
-4.841368568191118694e-03 -7.235361228781863295e-03 -7.950460915862206379e-01 9.979231032601323381e-01 4.771893035120508553e-02 -4.327104881793501084e-02
-1.271312010592243365e-02 8.412599586609133262e-02 -6.641695404102229139e-01 9.827981470053456237e-01 -9.706195176068091457e-02 -1.571202716496720442e-01
-3.548740760476613854e-02 -2.974444125105840109e-01 -9.799263155287394333e-01 9.281099912207669833e-01 -2.004754213798192602e-02 -3.717659751112439293e-01
