5.717965515650630381e-02 -7.342636871150091948e-02 -9.564376444985956960e-01 2.331322602289670753e-01 -4.377622885307959066e-01 8.683395234473744173e-01
4.748129882791732315e-02 4.915229128960834498e-02 -8.701577215303371027e-01 -2.499857427351203087e-01 -4.927475898122720688e-01 8.334908164841213773e-01
5.975334440637172090e-02 9.996061017904278589e-02 -8.330059288759233960e-01 -2.950866128505767461e-01 -4.509363944485388909e-01 8.423658700814781186e-01
-8.319349398262651518e-02 2.366071307042384372e-02 -8.994115036585083045e-01 -1.015004998315178902e-01 -4.850304458771361737e-01 8.685868494895478964e-01
-9.667602712364969930e-02 -4.176479227646055087e-02 -9.403591931203756360e-01 2.972727604028954640e-01 5.064953677124522935e-01 -8.093771360795104508e-01
-3.763062082473600176e-03 -7.419483575960095223e-02 -9.482445621882913400e-01 -1.809972292840682784e-01 4.400839004156908429e-01 -8.795261017084158306e-01
7.601750812710966754e-02 1.857759964652188345e-01 -8.028581280434287093e-01 1.125013479795945320e-01 1.464433462270152697e-01 9.828009936139709968e-01
1.532276803110084636e-02 1.301190717084030057e-01 -8.384056047314561999e-01 -3.942694884701137270e-01 -3.934231537202615425e-01 8.305238061478541489e-01
-1.375468186856858288e-01 9.998019200106672555e-02 -8.884519721749329912e-01 9.470925292961184239e-01 -2.559767199111849800e-01 1.936276318478119263e-01
-1.060614427609249052e-02 2.263347626768196993e-02 -9.004236402395368044e-01 7.532511123328432256e-02 -5.371402542785208567e-01 8.401228927075488073e-01
2.413756684948291376e-02 -4.832809813874510557e-02 -9.313918020854564661e-01 6.537089933323737834e-02 4.686570773605233109e-01 -8.809581087431208601e-01
-5.000275726533701809e-02 -1.595535819504280695e-01 -1.000806354973508450e+00 4.295957873978407671e-01 5.220177311861545766e-01 -7.368479814570225717e-01
-3.863225649010326723e-02 7.250805440797356005e-02 -8.679581579908137723e-01 1.005720693707675972e-01 -5.378929298478830612e-01 8.369925058697610387e-01
1.204940345007855657e-01 1.152235246234198235e-01 -8.116429339612903915e-01 2.465683768859142566e-04 4.012585298683523094e-01 -9.159648090466817605e-01
2.874813086183729272e-02 -2.257431153870825824e-01 -1.016746177312638499e+00 -2.604795758199980327e-01 2.397573519842930712e-01 -9.352362283135282617e-01
8.123369241675322538e-02 3.700154384981203803e-02 -8.758463246603535035e-01 5.448796017002794680e-03 -6.290703905778471938e-01 7.773292444776537247e-01
-1.008032118156250261e-03 1.242991552699081736e-01 -8.429694545546567719e-01 1.711224865523441052e-01 -4.935063814938284721e-01 8.527417815616933350e-01
7.580302096661793720e-02 -8.861982829233039372e-02 -9.741882018833682988e-01 -5.667657778848070871e-01 5.174434549291058172e-01 -6.411152969393726364e-01
1.928323959505949320e-03 -1.871422325620900884e-01 -1.008163135499720697e+00 -7.675187542846380051e-01 -2.835831763884165690e-01 5.748874184488766970e-01
8.384351008349559542e-02 -1.496653429830947617e-02 -9.187063711914220665e-01 2.301792717928250465e-01 -6.312872043770783037e-01 7.406037863977592561e-01
-6.004891138984422977e-02 -1.494715576032205340e-01 -1.002714417289819915e+00 -5.071251427072381857e-01 -5.071253101996232582e-01 6.968845021874855439e-01
-1.215509409217303965e-01 -2.244969507101229195e-02 -9.440421446868187960e-01 -5.888184081954253024e-01 -4.977940293389106485e-01 6.367840972611809036e-01
1.066912003934917530e-01 1.745008106471604981e-01 -8.073450217739851498e-01 2.714034557883259757e-01 3.026144042743208473e-01 9.136545772401362120e-01
1.487698863762951761e-02 1.773572539016408378e-01 -8.187851072615570658e-01 -2.441739972751628129e-01 -2.983591253300617585e-01 9.226921975322807112e-01
-6.925319673731411552e-02 9.950343785496761767e-03 -9.033364471521422301e-01 7.625693472027418596e-02 4.760249817697738695e-01 -8.761193392672907976e-01
5.133488754314616265e-02 5.621800990639210134e-03 -8.991106618430867448e-01 -7.013132168547671352e-02 -5.149046112011020915e-01 8.543739456950276701e-01
-5.003052880307804623e-02 1.912476582587864515e-01 -8.092401672397838697e-01 -4.746783276685750258e-02 -1.232330691576271620e-01 9.912418552091155632e-01
3.807235135667297321e-02 -1.538046534506384844e-01 -9.962545597729712821e-01 3.894212237999674642e-01 -2.844174921399167388e-01 8.760466886068207781e-01
8.269893304410075655e-03 4.894623990481347664e-02 -8.835637625288432773e-01 -3.549032285783150775e-01 -3.622068341727677221e-01 8.618874100619113854e-01
2.636229286894548399e-02 1.549649654802670029e-01 -8.197487480667214887e-01 4.283184209518938745e-01 3.358453637450080631e-01 -8.388988150690520618e-01
3.853411896325138752e-02 1.747106954677402346e-01 -8.071978597946567469e-01 3.682437008436091896e-01 1.586528842134395934e-01 -9.160927022522117324e-01
4.126436900915277095e-03 1.213145694515943562e-01 -8.457506034247047610e-01 1.942033482950636381e-01 -5.140662033773275574e-01 8.354765095777416661e-01
4.305399616465709067e-02 2.092832884075291611e-01 -8.085492614419241830e-01 -2.012872522766616656e-01 1.849043257006197927e-01 9.619219471496170959e-01
-8.181663481490550338e-02 -3.576967009768038715e-03 -9.132021507056906628e-01 1.821069662321603277e-01 5.407955294043461647e-01 -8.212047541423466157e-01
-1.431766648689127008e-01 2.031941593996234793e-02 -9.284542775201455322e-01 7.026954639199539665e-01 3.507633855770002640e-01 -6.190186849561825078e-01
7.934718315638582655e-04 9.161552592503635628e-02 -8.584881781142417179e-01 -1.055229958405520666e-04 4.424924954625520934e-01 -8.967722009095846492e-01
-9.075830241152725575e-02 1.083569600279979811e-01 -8.465487165254975688e-01 -1.735686939495581504e-01 -4.521918468575934491e-01 8.748693857463316625e-01
-4.195681640824088648e-02 9.487631672727292464e-02 -8.517470507647840749e-01 -1.247108636818932553e-01 4.654245856598407394e-01 -8.762574710341032302e-01
-1.347762838566531896e-01 9.363878700538838529e-02 -8.821045972451337924e-01 8.307293713912227151e-01 1.313564197214170115e-01 -5.409567473522397529e-01
6.624349007540557277e-02 2.029511324647782500e-01 -8.033164810392611210e-01 -7.676597409884083900e-02 -2.680211704338191225e-01 -9.603497474461800687e-01
6.925832113835087012e-02 -1.044967175738037019e-01 -9.820559520342374560e-01 -5.530209488708786036e-01 5.447136446026230594e-01 -6.304402235689601230e-01
-1.209866730205293867e-01 -5.507084052161442117e-02 -9.765004586090396677e-01 8.693243862933816013e-01 4.359854940173488735e-01 -2.327912378120875203e-01
8.604297501225290079e-02 1.427575273376392451e-01 -8.040882761764305275e-01 3.926694829677283144e-02 3.571897310312406315e-01 -9.332060880734160957e-01
-5.690752828393143975e-02 -1.609598013226974933e-01 -1.009426749185686090e+00 -5.350197724707980163e-01 -5.541043175533347798e-01 6.377477936724271768e-01
-8.479096901969258859e-02 7.654594782256829433e-02 -8.622762414464516523e-01 1.323969328343188867e-01 5.783047895842217123e-01 -8.050059766983187481e-01
2.115259001250997806e-02 -7.683520862489993941e-02 -9.519380312468966876e-01 8.449682603711065887e-02 -5.332776688142284449e-01 8.417096971840805075e-01
-1.413908834443505270e-02 6.005572645685964411e-02 -8.784629835676527332e-01 8.787618552465883970e-02 -5.070491001573637080e-01 8.574257904024367161e-01
-1.233155424255982617e-02 -2.990689958209560850e-02 -9.262970249352373564e-01 3.731893760843875418e-02 4.837306740447534503e-01 -8.744209123093901193e-01
1.905035104405186294e-02 -1.730251631127195100e-01 -9.959581524151293053e-01 -1.006849282013452807e-01 3.095415828611571274e-01 -9.455403501241496089e-01
8.302778293052930081e-02 5.957365185736741148e-02 -8.513193384788207974e-01 1.483427716021934739e-01 6.100502539846002215e-01 -7.783528182814682950e-01
5.260633038765762104e-02 -9.712903982975931716e-02 -9.691221914628816991e-01 3.724909790227516337e-01 -5.336179013699311469e-01 7.592775552353846491e-01
2.729712991407139480e-02 1.407459557028963304e-01 -8.252781261005944780e-01 4.190778164916137416e-01 3.808402564302232896e-01 -8.242174972704615632e-01
-9.836453428012702227e-02 -6.774360378997251741e-02 -9.611083659707523319e-01 5.228040137453038305e-01 6.283681843018810165e-01 -5.760463420324422046e-01
-9.924123303198705004e-02 -1.113769526691301970e-01 -1.015865429137130294e+00 -9.192698694348431232e-01 -3.934176949727174466e-01 1.286174294567359738e-02
-3.363800711563749019e-02 -5.627345602238341404e-02 -9.420143475821785017e-01 3.884107966271765910e-02 -4.536059709492121228e-01 8.903555433925578466e-01
-9.484227078886876827e-02 -1.245999998821914340e-01 -1.016377334852279546e+00 8.315540630284862234e-01 4.950195296158894087e-01 -2.519394878927873060e-01
1.467569049660333858e-01 5.863127396196072399e-02 -8.705735291831862011e-01 -6.509544048861686250e-01 6.048434254853084502e-01 -4.587186429680963351e-01
1.040210219022093090e-02 -1.511979779890035014e-01 -9.856265384748739145e-01 9.458280953634198851e-02 4.199433140633536676e-01 -9.026082788860845252e-01
-1.798805895869860436e-02 -2.184442986910072326e-01 -1.018301666201283373e+00 1.589800834086949610e-01 3.991480793783342418e-01 -9.029984184969269689e-01
7.338984244696697412e-02 1.289660160192804550e-01 -8.144504624083569455e-01 -2.162085236117131382e-01 -4.179533612540947685e-01 8.823654923749272294e-01
-9.938493592984114222e-02 -1.163496098321222944e-01 -1.017387362042692756e+00 9.180995531825322242e-01 3.709532239195656445e-01 -1.395955447344769951e-01
2.947764467360625140e-02 -9.722704007172522367e-02 -9.625937467358551825e-01 1.270429832003496240e-01 -4.644812252010966924e-01 8.764229982464197821e-01
-7.959609484263535650e-02 3.031758821207463164e-02 -8.954898967226881945e-01 -6.559271397685119409e-02 -4.947676234817190433e-01 8.665463603451364349e-01
-2.473372175827238950e-02 7.369789885359150083e-02 -8.664703823998757271e-01 -1.457936296016712485e-01 4.806768816033148983e-01 -8.646929819650924776e-01
1.251783328088906799e-01 1.093065487761020055e-01 -8.169050992848787551e-01 2.460415399765144770e-02 -4.537486063202108566e-01 8.907900077282672191e-01
3.150636176303945896e-03 -2.852001100351738913e-02 -9.238806022356046421e-01 1.636248056524243766e-01 4.741398859879100702e-01 -8.651117219703925443e-01
-4.743863607013066620e-03 -1.254950102487612240e-01 -9.828392004814340277e-01 -5.342227439074501705e-01 -3.655323226374553869e-01 7.622284309832993987e-01
-9.048733106215105237e-02 1.522079599889952783e-01 -8.275547738184744206e-01 -2.628472300402387440e-01 -4.164970188207836044e-01 8.703111897324851132e-01
9.256059295444374335e-02 6.277436909862395276e-02 -8.477268876298141853e-01 -7.124815437152036413e-03 6.046220886009282536e-01 -7.964806130602539724e-01
-6.151442333204905355e-02 -1.798443526306478524e-01 -1.034095865020943528e+00 -8.053144831229289702e-01 -5.664147651973518993e-01 1.750511269283305249e-01
-5.360851497926195919e-02 -1.264941310950044862e-01 -9.835986845266379008e-01 -2.176163291111100073e-01 -5.097913706606572726e-01 8.323195850778314364e-01
1.470835109777324512e-01 1.196471049451213464e-01 -8.109178177711268143e-01 -1.645135752867407652e-01 3.747076604036767566e-01 -9.124305194266448815e-01
2.297739469101511139e-02 -1.543852978977894308e-01 -9.887226232609538368e-01 -1.939921247720398645e-01 5.140358010400940536e-01 -8.355442841498577078e-01
-2.231801593359846250e-02 6.823103943465186685e-03 -9.054754568874376908e-01 -5.248122543141288399e-02 4.499138132620496555e-01 -8.915286207482172598e-01
1.071513592075002824e-01 -3.097626002116470739e-02 -9.519627456081622974e-01 -6.288695211177274258e-01 6.020973048710158704e-01 -4.919369480697898811e-01
1.030114887251950412e-01 6.287958334127949356e-02 -8.477630489347053322e-01 -3.993198084106609064e-02 6.804831054327684647e-01 -7.316749142390249760e-01
-2.949043140188553191e-03 -1.831533103900896131e-01 -1.009979482586903954e+00 -4.100845596873176624e-01 -4.143626332029651804e-01 8.124864688788139278e-01
-5.447064831737328389e-02 1.171471265700972236e-01 -8.388291184681645474e-01 -4.974849254982327551e-02 4.607170015744764258e-01 -8.861517544694271775e-01
-5.283986898761429407e-02 1.595908707884523270e-01 -8.161737288477945995e-01 -6.217389567826096808e-02 -3.784147827155223687e-01 9.235456994207448256e-01
-7.199092644783641748e-02 -1.635985018142857572e-01 -1.025237950696210154e+00 7.033677451119056956e-01 5.319447830283735579e-01 -4.714960900634170837e-01
1.448267623107480917e-01 1.305475380138536035e-01 -8.081576864896118373e-01 -6.687084272294446796e-01 1.545000157827615128e-01 -7.272955276058346019e-01
-8.832708685452657837e-04 -1.371737138617442342e-01 -9.855056442441622044e-01 -7.256874311727533611e-01 -3.051184069240062691e-01 6.166688819731759308e-01
2.565629832626351720e-02 1.980617141750143084e-01 -8.111334069980501438e-01 -2.560796991048490123e-01 -8.585381083004940683e-02 9.628355575446558845e-01
-1.303430612261703980e-01 2.402860906199659127e-02 -9.140963314808246976e-01 4.541408320119136866e-01 5.060819311432234180e-01 -7.332374674482152743e-01
4.520779364715844101e-02 1.291360980467121389e-01 -8.248383208616703044e-01 -3.707832744155342142e-01 -4.774522129521205915e-01 7.965922092016828326e-01
1.307405264819655466e-01 1.437833643492310021e-01 -8.047249277906000087e-01 -1.313113317153635495e-01 4.724798045634715643e-02 -9.902146042681528870e-01
2.220104908857805075e-03 -2.324315918771504563e-01 -1.030321360897567429e+00 -4.454697331937202409e-01 -3.447076394744003625e-01 8.262768059774537877e-01
-3.730542533151255669e-03 -2.945666428271773718e-01 -1.042143351186054723e+00 9.334174995442540146e-01 3.561283937264334443e-03 -3.587744260691815290e-01
-1.304406316194372528e-01 1.202875895004074380e-01 -8.605493896732709924e-01 7.051580716660482695e-01 2.826037693501444181e-01 -6.502977806461517352e-01
6.107437863790809995e-03 -2.341054478965049757e-01 -1.019324698981348476e+00 1.070750666440703769e-01 2.901980733837395410e-01 -9.509574166636135528e-01
-1.189220139134731678e-03 -2.706483749245501835e-01 -1.044659571018691446e+00 4.302632987671847764e-01 -2.695078849457974712e-01 8.615329324442699832e-01
2.382968199043147828e-02 -3.349846114117439877e-02 -9.238798626064776975e-01 1.158168900873452339e-01 4.795269358131168391e-01 -8.698507721443826668e-01
9.398460645132396263e-03 -1.973763518133661854e-01 -1.007578164760356998e+00 -3.457115777116573918e-01 -3.503749010710154321e-01 8.704716731379562589e-01
-2.460325130510030225e-02 -4.141694734984779913e-02 -9.353950681131750766e-01 6.251185738862359564e-02 -4.613409841641296638e-01 8.850179455899731540e-01
7.644788536779275777e-04 -1.330296990553032077e-01 -9.776671838740780274e-01 -2.244802481625979562e-01 4.335944528668229103e-01 -8.726995294074466614e-01
5.777492923960763326e-03 -1.786071872260255877e-01 -9.981559480072116353e-01 -2.304694126636637128e-02 3.688053437698974313e-01 -9.292208870365714635e-01
-6.091235863235959502e-02 1.836685353581063995e-01 -8.089318616249548954e-01 8.626241516005987708e-02 1.391527640813351174e-01 -9.865066162876343636e-01
3.979662512103245009e-02 1.885911288839734468e-01 -8.058763545286848906e-01 2.678004658614352995e-01 -9.433512034705673899e-03 -9.634282118222869951e-01
-1.324554430060655708e-01 6.868249544398720430e-02 -8.904553376453896441e-01 6.212505051374095366e-01 3.473998393143074015e-01 -7.023967265804325066e-01
-1.889896470145115484e-02 -1.208108689759182508e-01 -9.781357622709573318e-01 2.683933803822310393e-01 -5.723778844184551629e-01 7.748216251471383709e-01
9.169318319932108496e-02 -1.073018915956253372e-01 -1.014704686813937995e+00 -8.421809503083587112e-01 4.910784371037517637e-01 -2.226504335262934064e-01
1.165305975769555377e-03 -4.973258812683577050e-03 -9.150110663813025846e-01 -5.269597021284717631e-01 -4.420329424325988854e-01 7.258927952094931246e-01
-6.074689981027646402e-02 2.000720519633252814e-01 -8.088350556384635848e-01 -7.262849332267497238e-02 -1.029738533538924472e-01 9.920289751227679975e-01
-1.005616570760452418e-02 1.711096979180233846e-01 -8.167941020544412511e-01 2.117163577444275135e-01 -2.314387584584170765e-01 9.495326666032403162e-01
-4.700376276728063241e-02 -9.193611083414053586e-02 -9.604342113535464520e-01 -1.069022753318460139e-01 -5.406221298339757286e-01 8.344456940164829417e-01
6.405634875904361869e-02 -8.113274598848704833e-02 -9.643413357791924545e-01 4.259482709947919332e-01 -5.052037151660681014e-01 7.505579768538535035e-01
-2.038721815439398580e-02 7.444167108080143591e-02 -8.692817470162423898e-01 1.032468724320642489e-01 -4.996904211317063638e-01 8.600288171696430783e-01
-1.351968606063616851e-01 1.075381396207359119e-01 -8.831300966804949137e-01 -2.936923434629308827e-01 -4.913682347899249736e-01 8.199402815026745062e-01
4.206045774800602766e-02 -1.679290682373293653e-01 -1.002886529938515014e+00 4.265576061601195623e-01 -3.061782476454613100e-01 8.510602148471652084e-01
3.555671857804833247e-02 1.007404682513471372e-01 -8.417796164205741949e-01 4.044539194197814269e-01 4.595879740630612886e-01 -7.906933167559897502e-01
-3.727618751003915210e-02 -1.436341020663078616e-01 -9.876584221342415981e-01 1.654301603179846036e-01 4.994549182974213908e-01 -8.503985222504105712e-01
1.749344970014092213e-02 3.892085701276611770e-02 -8.830914620069332255e-01 2.564689130111388882e-01 4.494356288934088228e-01 -8.557051549103061872e-01
2.109505803650285963e-02 -2.431068274411780084e-01 -1.021911401613511572e+00 -1.762327490440538380e-01 -1.511652531444150349e-01 9.726721361312664627e-01
-9.133924431350508299e-02 -1.308504710432319140e-01 -1.017434172679408055e+00 8.210472543633230424e-01 5.308716656977050530e-01 -2.098968333772397998e-01
1.072883407376072212e-01 1.577562786005584083e-01 -8.022146559855520831e-01 -1.528080139088351663e-01 1.054014161983071324e-01 -9.826190779486365656e-01
1.283294544829515493e-01 2.603884939707630519e-02 -8.988792519698084460e-01 4.727819769610462353e-01 -7.468108660833834289e-01 4.677079564863011463e-01
-5.661903465132726854e-02 -1.883307180876004627e-01 -1.031180658141919393e+00 7.517986858218059787e-01 5.708770969990387689e-01 -3.299970850152398327e-01
-1.597876801232326824e-03 1.796869392263842832e-02 -8.982817788417097882e-01 1.881339137664384265e-01 4.766120188745377462e-01 -8.587471187464095213e-01
-8.775026613520593710e-02 -1.394246772172388349e-01 -1.033747292886973090e+00 8.874894050938871848e-01 4.327597099642979672e-01 1.583716807946260741e-01
-1.646703333831553082e-02 -1.001512214172002174e-01 -9.636291278834343554e-01 -5.002874769314877290e-02 4.487862662921472401e-01 -8.922376430031460082e-01
1.449899893780887683e-01 1.206147132484930162e-01 -8.128038053748414260e-01 1.352566069861300957e-01 -3.415819139717338748e-01 9.300685169996921742e-01
3.684427245246204435e-02 1.552915492094465999e-01 -8.142121009453732183e-01 4.619424437873239087e-01 3.339834662932882892e-01 -8.216229201224338752e-01
-8.148284454726884007e-02 1.549368258736064929e-01 -8.233946654973778312e-01 -2.834439522301892000e-01 -3.570874153095223158e-01 8.900270241805554594e-01
9.972407828072375399e-03 -3.123613306365781786e-02 -9.269280967826363238e-01 1.411478880136759484e-01 4.741536948237097260e-01 -8.690543984091578800e-01
3.023445921055378099e-02 1.929304580854560858e-01 -8.081526249936981099e-01 2.695019350255061785e-01 9.512127925366210823e-02 -9.582904827090032995e-01
3.863504964085771876e-02 1.841298266862421151e-01 -8.088686204793360535e-01 -2.710271726394669067e-01 -8.170963187845754760e-02 9.590973922127739026e-01
-7.327970566145979026e-02 -4.539375909900909140e-02 -9.359200058376663245e-01 1.431530588072999211e-01 4.930160034863377283e-01 -8.581622352798293774e-01
3.960534165401432410e-02 -1.207489375984954483e-01 -9.789790223680183701e-01 2.897788629580983488e-01 -4.827521276865564537e-01 8.264251894738048332e-01
7.082671227532488789e-02 2.051234240000618103e-01 -8.042921912056735234e-01 -8.139686031510733055e-02 -2.671113498351943560e-01 -9.602218899400614127e-01
5.228009725073262670e-02 8.502348797940250183e-03 -8.972970576681992272e-01 -7.013132168547671352e-02 -5.149046112011020915e-01 8.543739456950276701e-01
8.101612370881473846e-02 8.662142829339236627e-02 -8.321281241523375005e-01 1.753179959281116473e-01 5.554631861833819739e-01 -8.128494627535630679e-01
1.206245819764743543e-01 -8.777234920644535945e-04 -9.332566714638326211e-01 6.918398934047931270e-01 -6.265858308121501352e-01 3.588143789190897937e-01
6.222974641985567351e-02 -5.879679445780289920e-02 -9.500873729658445566e-01 2.798979753418830985e-01 -4.787019347880360765e-01 8.321667988028035312e-01
-2.643811097803856064e-02 3.295456966769536727e-02 -8.931542671001908573e-01 4.119928921841611164e-02 -5.184344910759299818e-01 8.541242866414341384e-01
8.266749042102862488e-02 2.083624082425936386e-01 -8.119212297043383320e-01 -6.645495214621285340e-01 -7.147580815841002577e-01 -2.179330592972819614e-01
1.477003449931138246e-01 1.091344827451488086e-01 -8.198742735860056197e-01 1.834251317693357253e-01 -5.622934246496814614e-01 8.063382203710393048e-01
2.773520157491652510e-02 -4.311477124909082748e-02 -9.284349161195449840e-01 9.044588453001127515e-02 4.612351964959086614e-01 -8.826560119802983051e-01
-9.526138818266140229e-02 -9.711645627520769375e-02 -9.839321472693658421e-01 5.137121657891707827e-01 6.198767240582373494e-01 -5.931716932651350804e-01
-6.235814191892265906e-02 1.444506164865711484e-01 -8.241775310085851514e-01 -1.223385044120318538e-01 -4.552048557270578777e-01 8.819420784046625439e-01
1.252279918806942748e-02 -2.555459018038347963e-01 -1.026891647812773201e+00 -3.457157322170915092e-01 -2.480037477458937323e-01 9.049722501831709565e-01
-7.319525251164747670e-02 -9.472287248860981890e-02 -9.693402538268736102e-01 3.430415462544739724e-01 5.197010401347419428e-01 -7.824534020797705436e-01
9.190492509660339038e-02 -1.502463701812447282e-02 -9.188329514963314848e-01 -3.156654515686635465e-01 6.511665450926785725e-01 -6.901720461146020336e-01
4.861805074223145978e-02 2.079530856646527592e-01 -8.050546891264510618e-01 9.345020049875212009e-02 -1.589238862896368287e-01 -9.828582086920482075e-01
-2.169157593911908571e-02 -2.279321923899981298e-02 -9.242275081053862307e-01 1.450809977049734301e-01 -4.828113567210646773e-01 8.636230068300024820e-01
-8.797946774816918503e-02 8.717324771813982076e-02 -8.578967239913851683e-01 -1.142952183079079531e-01 -5.420967068647000175e-01 8.325069149733204110e-01
8.711393748238094314e-02 2.028040171404073000e-01 -8.111480190734657869e-01 5.837558883104919660e-01 7.969562158562233378e-01 1.552090618197186356e-01
3.648619321944018140e-02 -1.395546342903695169e-01 -9.883587528687790558e-01 4.118492025894263109e-01 -4.790367734594735416e-01 7.751799816816677957e-01
8.318794438832562144e-02 -3.268227292575939802e-02 -9.363155399123187506e-01 4.394626267796962193e-01 -6.877022505706170685e-01 5.778738739759720078e-01
-1.224421782396750702e-01 1.527180452293952495e-01 -8.385838935213270062e-01 6.989954697153959451e-01 3.738443634484546196e-01 -6.096275299190259123e-01
9.397130005281546794e-02 1.380691387145211724e-01 -8.051744863755797565e-01 7.799394355316707772e-02 3.011222539827254630e-01 -9.503906212318113944e-01
-9.420747761280523491e-02 1.533760380534278933e-01 -8.258338014564604590e-01 2.654051388950476875e-01 3.824422982315309194e-01 -8.850412424127394040e-01
-3.045939423883702035e-02 1.960721171831732723e-01 -8.090080223788319591e-01 5.194587186774855814e-02 -1.828210178612915127e-01 9.817729380177786513e-01
-8.228843602892699227e-02 3.916142000282336194e-02 -8.884871080920397901e-01 8.760569854829070024e-02 4.915551858700773491e-01 -8.664287280706358674e-01
1.509072176430032060e-02 -3.080401571144169015e-01 -1.050458471363368229e+00 -2.744570043065374110e-01 9.614352516896129686e-01 -1.776540445956197034e-02
7.319851583035787666e-03 -1.901664515828287161e-01 -1.002894972984691879e+00 1.246328459244249870e-01 3.776849127176171717e-01 -9.175079075529891659e-01
1.412890391917156208e-01 1.251989944509639963e-01 -8.107574371661266932e-01 4.322639944393011358e-02 -3.192325029691714389e-01 9.466900693675582845e-01
5.777062200851545287e-02 2.026808882698395362e-02 -8.898471096634344990e-01 -1.062565949333749149e-01 -5.125007309805819089e-01 8.520871650116166318e-01
8.034622999466145554e-02 -6.761877707607792665e-02 -9.615551484870302756e-01 -4.828133903600904664e-01 5.493897990415307353e-01 -6.819546017134142657e-01
-9.230200353799764001e-02 1.706503491595701694e-01 -8.201550538827151460e-01 -1.957374302676609112e-01 -3.266242453409116120e-01 9.246639718014824094e-01
1.232854499545736754e-01 1.584769282418977895e-02 -9.045318948656999591e-01 -4.093721475064987514e-01 7.568540675615574864e-01 -5.094961876809706025e-01
2.988609051093217214e-02 -1.439133075989839361e-01 -9.878272723546610568e-01 3.545986993662038622e-01 -4.855173155392166207e-01 7.990824104680251949e-01
5.284203922715847296e-02 -1.107078861863677738e-01 -9.785766614345388081e-01 3.268276033460016938e-01 -5.397647243762182523e-01 7.757820312498696635e-01
-1.332248651150878815e-01 5.083916399851130807e-02 -9.006699573985598173e-01 5.462067819201027463e-01 4.185287506418944870e-01 -7.255975718472467140e-01
-6.029296062943739071e-02 1.825721803635217411e-01 -8.113151565295879664e-01 -1.304359587931696318e-01 -1.396469868531963754e-01 9.815728091774597042e-01
1.541248448299570133e-02 -1.468071002593393792e-01 -9.858657814174268674e-01 3.258512079177213611e-02 -4.364439019900943628e-01 8.991412182291761424e-01
9.904684325051885119e-02 3.902008762496487343e-02 -8.713006191763379427e-01 -6.417432446223461651e-02 6.384492435938518007e-01 -7.669838456149218331e-01
-3.021564100364418012e-02 1.141761853448262642e-01 -8.444035699077073742e-01 5.048456573502917155e-02 -6.031000659106922068e-01 7.960663409044903549e-01
1.306607448592799967e-02 6.684092624890750067e-02 -8.725916094039649629e-01 -2.709957252075945733e-01 -4.139857724840935727e-01 8.690092618033240512e-01
1.448463493798155532e-01 6.593717581295970021e-02 -8.648458078150617068e-01 6.201427153671140724e-01 -6.164683757787817742e-01 4.851698200030309938e-01
-7.975752772690297698e-02 -1.538640063872938335e-01 -1.026283726031641308e+00 8.067158705296222365e-01 5.708721898685646945e-01 -1.526906908436246602e-01
4.217507101679623949e-02 1.689657462721274317e-01 -8.091236244761006446e-01 -3.755026442875988302e-01 -1.709118733192748485e-01 9.109263942226712985e-01
-9.837427134555388683e-03 2.105113988225913724e-01 -8.062102283700877114e-01 -2.341679484703766689e-01 1.549734646362042056e-01 -9.597648655623033376e-01
-8.437429356608223963e-02 1.355480204858913740e-01 -8.314281349839977020e-01 1.888696274031476940e-01 3.966939024341047393e-01 -8.983107544809856293e-01
2.365235798315952140e-02 -2.050212466637824360e-01 -1.010357745480883640e+00 1.169000469053499830e-01 -3.771051214438683186e-01 9.187633571351941919e-01
1.068588644317272629e-01 -6.634254804567525643e-02 -9.952894137701178146e-01 -9.447514086954272861e-01 3.148942666978186145e-01 -9.102953679355302308e-02
5.594224588670369119e-02 -4.958467760496398750e-03 -9.054179886332812677e-01 -5.889390412892836490e-02 -5.511507655918392867e-01 8.323246612013739387e-01
1.127037088420567851e-01 -1.040441300871943787e-02 -9.354011684611029942e-01 6.316777320330577705e-01 -6.590967293943761351e-01 4.081356933119291153e-01
-1.250250715172186444e-01 1.010761082401583077e-01 -8.687100461387646799e-01 -6.905446163755367683e-01 -3.896818697031191880e-01 6.093407693724782748e-01
8.997259183724673481e-02 -7.790035950846968538e-02 -9.789079772213918895e-01 -6.548837113884355965e-01 4.968096589111902772e-01 -5.694800149001324474e-01
1.056367835125797683e-01 9.411788497542838972e-02 -8.237978319116968651e-01 8.657583291857652574e-02 5.891843621323509250e-01 -8.033470063261265448e-01
-1.427356724359485907e-01 3.284570092263925517e-02 -9.213889000623689540e-01 7.507968332021928148e-01 3.516139915807277028e-01 -5.591705609008994493e-01
-2.196344218583827848e-02 -5.956163072620550281e-02 -9.444680069266832012e-01 5.716898436692666174e-02 -4.755007968401267493e-01 8.778557395329021906e-01
6.877584744732569144e-02 -2.956379258543211097e-02 -9.264437176593406376e-01 2.655277181380843454e-01 -6.167995193322313163e-01 7.409813653877610484e-01
5.338387045964228944e-02 -3.061198421030348824e-02 -9.233213856232574956e-01 9.684541847983778318e-02 -5.573069187556956017e-01 8.246392927980680243e-01
-6.756266953310061107e-02 -1.028007132083374048e-01 -9.748580940162580033e-01 -2.628344417532978983e-01 -4.538573384286218038e-01 8.514291353851592969e-01
8.937683686604265543e-02 1.496173116295640981e-01 -8.045163008684301786e-01 1.044834377082197105e-02 -1.901608267388553986e-01 9.816973525921528498e-01
5.328335886532523102e-02 -1.355355893623658159e-01 -9.961800823913070646e-01 4.926837645600418147e-01 -3.822438463934478281e-01 7.817623360288517009e-01
4.662301909561977764e-02 -1.499772549112142472e-01 -9.989128501594058962e-01 4.442283901153601389e-01 -3.354152398930988488e-01 8.307573377725713248e-01
1.718314334946522554e-02 1.593321500746104624e-01 -8.250983720237642371e-01 -4.189432135936920765e-01 -3.740823715037627228e-01 8.273747416460760506e-01
-1.122019207114047651e-01 -8.476129281624876499e-02 -9.984124044275334287e-01 8.875623202232958420e-01 4.490586963811097898e-01 -1.028562828627305747e-01
6.567303234323094985e-02 1.639085468043719185e-01 -8.015946307045567210e-01 7.247983886319821212e-02 2.349360893377997750e-01 -9.693047543910151553e-01
-3.849114681287003903e-02 -1.858213898715015966e-01 -1.014698581722620174e+00 -4.881802414667617551e-01 -4.351699911927568998e-01 7.565098351024591716e-01
1.171988537473891631e-02 6.695893845585084228e-03 -9.025369174090378532e-01 2.327718201427440292e-01 3.628808565945600972e-01 -9.022941669237545259e-01
-1.028261523055522403e-01 -1.028254876235435572e-01 -1.011656694737540496e+00 -9.023992801194355984e-01 -4.255198367523174152e-01 6.788525443869036780e-02
-3.095475936749676749e-02 4.656554914791333905e-02 -8.818773989236881050e-01 -1.583589089629247604e-02 5.174834213680253869e-01 -8.555466867265419939e-01
-8.356893192009642868e-02 6.675101175214030735e-02 -8.691702064870364675e-01 1.721912765210994178e-01 5.881227332424194820e-01 -7.902289636133950079e-01
-7.447665007972165130e-02 -1.435893379521661073e-01 -1.007337994355892219e+00 5.875789117986049970e-01 5.558840764646788557e-01 -5.879999285225961936e-01
7.028159067562309015e-02 -2.438893317425402940e-02 -9.195636762634774586e-01 -1.531433536817030927e-01 6.027814545680190150e-01 -7.830719195910322838e-01
1.160773758474248352e-02 -1.347726356671958281e-01 -9.780329781940351186e-01 5.006881183159447857e-02 4.160038666049671319e-01 -9.079834233351891104e-01
1.107510208822390790e-01 1.308613581185592289e-01 -8.084253231995928157e-01 -2.192916956542016738e-02 -2.594118203870112160e-01 9.655177983681442200e-01
-1.075106061284799019e-01 5.800827475245250164e-02 -8.843105516850470194e-01 -2.413743380281710427e-01 -4.873766306884286803e-01 8.391677119624284531e-01
1.147130518322280190e-01 8.254165194551568718e-02 -8.346373121931559558e-01 6.750561246803045423e-02 -6.287656900759878154e-01 7.746590858362036869e-01
2.652986921262364198e-02 -1.849472707942815819e-01 -1.001510878119134640e+00 -2.246305331681844597e-01 3.965680870155869897e-01 -8.900982394822355426e-01
-5.198081262763789429e-02 -1.611387099352178387e-01 -1.005801739550540308e+00 -4.740876610986828332e-01 -5.629622390908043394e-01 6.769892221829298951e-01
-8.721196830861958904e-02 -1.290310326853167100e-01 -1.010878325090023955e+00 -7.508007567893935086e-01 -5.582022867994788085e-01 3.531408084833957406e-01
-4.677052109590001949e-02 9.959364462650320896e-03 -9.049253142228363966e-01 4.580893734013120888e-02 -4.506137799898826124e-01 8.915429112179613647e-01
3.308437519677114719e-02 -1.234601507114086449e-01 -9.756467447222657574e-01 -1.849283708629181344e-01 4.509037228411673648e-01 -8.732052051940384363e-01
-7.054014228579773282e-02 1.748823604055078224e-02 -8.993761512948049708e-01 6.623549784578740274e-02 4.639277637227928741e-01 -8.833933941751485053e-01
1.007016403543432720e-01 1.906641085629864341e-01 -8.116589281842323533e-01 4.345326764755065296e-01 4.380362917501413045e-01 7.869596941297679615e-01
-1.986906256229586248e-02 -4.520504187871990376e-02 -9.346819207651668737e-01 -1.048323131163805474e-02 4.856339133735073088e-01 -8.740994245752594649e-01
-9.270707270602021599e-02 1.602889058312381432e-01 -8.224483422847631564e-01 2.599584889576738722e-01 3.751696749026419142e-01 -8.897580002743943339e-01
8.515907289430851845e-02 1.518251678211363642e-01 -8.041660602013812609e-01 -3.429183223192966423e-02 -2.058666025413977696e-01 9.779790448676493053e-01
4.840049971788026872e-02 1.227854221790846967e-01 -8.244253706234424550e-01 3.663052461074638444e-01 4.229563338128584649e-01 -8.288114419828773727e-01
8.594373403341293294e-02 1.164940882275230932e-01 -8.167012447763659644e-01 -2.024572795131062142e-01 -4.104383795426752024e-01 8.891295668070738900e-01
1.227023094420869598e-01 1.475243553471066449e-01 -8.038721103141186486e-01 -1.072549528714179662e-01 8.827580301162311904e-02 -9.903048811791261841e-01
8.543792071592812287e-02 1.921038569318884448e-01 -8.054792816086723262e-01 1.208828202775212857e-01 2.786243417127868272e-01 9.527622053623187037e-01
-4.578123641561715473e-02 -1.111665285808044884e-01 -9.741098345428398364e-01 -2.053723882496784059e-01 -5.304024284234887254e-01 8.224934322334065406e-01
-7.014061135784213641e-02 -1.237629054270789203e-01 -9.896892601763551678e-01 -4.306745739397219164e-01 -5.150092240142764011e-01 7.411375786870154636e-01
-7.146403883906904397e-02 -2.150340722068965968e-03 -9.128792544455589519e-01 -1.278739753466724138e-01 -5.469128044945724687e-01 8.273660802262322589e-01
2.682034054108608460e-03 -7.162486416693411573e-02 -9.498017900321308327e-01 -1.911908831176845347e-01 -4.814710415594618542e-01 8.553547114223005732e-01
-2.787946280025640697e-02 1.217431678315549631e-01 -8.390860031714398870e-01 9.320891675102674356e-02 -5.688539581678545565e-01 8.171396894747342543e-01
-1.440492119826105866e-01 4.436931847358484976e-02 -9.178567075592967139e-01 8.951180993978362643e-01 1.685258583290412948e-01 -4.127500735370802643e-01
1.280718983110132048e-01 1.287828159355166799e-02 -9.144183731010723237e-01 -5.879244598803696764e-01 7.323092216137027100e-01 -3.436102929394119765e-01
5.327393624970084077e-03 -2.213591416166657208e-02 -9.227567810374149859e-01 -2.057871706261099887e-01 -4.679044346559049217e-01 8.594865213806661686e-01
-1.368434082841190891e-01 3.306753512113858040e-02 -9.177364222223458601e-01 -6.872649059616160461e-01 -3.494363924918631459e-01 6.368368367453657308e-01
3.197535522412590231e-02 2.179919798869752595e-02 -8.902045648959990842e-01 1.108126642508118903e-01 5.992464319376243909e-01 -7.928582895143767573e-01
5.969467359017602281e-02 1.901058213113422934e-01 -8.015226209773125277e-01 1.157987565138042102e-01 -1.531320342346117747e-01 -9.813975891966651988e-01
1.325852340803776175e-01 5.614739317340272651e-02 -8.665693523370102680e-01 3.757315705526875771e-01 -6.656065590919370001e-01 6.448206691660889334e-01
-9.291989562584927753e-02 6.744715051379505943e-02 -8.740180847717291535e-01 -2.679550750695068317e-01 -5.894539170929121719e-01 7.620657172241231958e-01
2.267629772899265247e-02 2.833916440004172546e-02 -8.905460853681892441e-01 -1.866232947514044060e-01 -5.532710395046028795e-01 8.118268920783707765e-01
3.571876748243626304e-02 1.783181636302427209e-01 -8.103023738712648028e-01 -4.024207254027883929e-01 -1.337550064272990114e-01 9.056308066877621910e-01
3.864959089271711827e-03 2.098439942433788508e-01 -8.110382081478915151e-01 -4.352463132857182226e-01 -2.974346464818796235e-02 -8.998199670389140925e-01
-8.340831337211943031e-02 -4.112442453861935021e-02 -9.356826319203375153e-01 2.333351661591764881e-01 5.243363269619716327e-01 -8.189176493772116761e-01
-9.851938207493568522e-02 -8.420062199716854545e-02 -9.785301448238044042e-01 -5.477280743612668035e-01 -4.906075418586696157e-01 6.777154243691760893e-01
-1.050371639525721074e-01 1.900369431776023632e-02 -9.045084827613661949e-01 2.497756026970435195e-01 5.170302607801499084e-01 -8.187135382628889513e-01
6.476116852066955698e-03 1.368948915316672010e-01 -8.345213315965704926e-01 -9.036813623239739468e-02 4.559708078248272956e-01 -8.853949527558068189e-01
-8.879413477746017636e-02 -1.022307563656817825e-01 -9.857104041412998452e-01 -5.072808403591421156e-01 -5.271763162245182155e-01 6.817266905560244172e-01
-1.209344054460434470e-01 -4.788926848395427122e-02 -9.664497122870007173e-01 7.046709265684845125e-01 6.246364162998241376e-01 -3.365534618470387707e-01
2.752909754143430254e-02 -1.817708551211018042e-01 -1.002546631709815506e+00 1.789155457729603160e-01 -3.779378107326082925e-01 9.083789070092980200e-01
5.291363187640852478e-02 6.601686804107691209e-02 -8.560520121083742273e-01 3.434350168658769076e-01 5.275266597448843298e-01 -7.770251041303233297e-01
2.498936440436083303e-02 -1.614364819947787799e-01 -9.951066389885241392e-01 2.057434105579255545e-01 -3.275591702172051534e-01 9.221575998811749608e-01
1.298167373882503639e-01 1.628418845140285898e-01 -8.084254800523931195e-01 -7.226577911112096464e-01 -5.768692180684923398e-01 3.807724020872752524e-01
1.259769746028602255e-02 4.124761649126312130e-02 -8.833367329914787458e-01 2.564689130111388882e-01 4.494356288934088228e-01 -8.557051549103061872e-01
-9.692562292071060792e-02 1.452652828304075716e-01 -8.302389409655578367e-01 2.415316900899627250e-01 3.786999137090692469e-01 -8.934477142166908914e-01
-1.142259729836618276e-01 1.308882518680113960e-01 -8.451217505045275358e-01 -4.418107890489437750e-01 -3.170975563761382898e-01 8.391974537736822670e-01
6.491876786305168789e-02 -9.081405151119918695e-02 -9.712393081614805190e-01 4.649993957883098439e-01 -4.949305147247909931e-01 7.340431509868887705e-01
-4.437098077256987350e-02 2.122832753902650083e-01 -8.061444499939295349e-01 -2.911435946384323750e-02 -2.056545257199124677e-01 9.781914792738320985e-01
1.327770617186425483e-03 -3.141227842859142111e-02 -9.252985806496687449e-01 3.147415445333083539e-02 5.009167835440920813e-01 -8.649229755101255357e-01
-5.949659756249697090e-02 8.032935998324890192e-02 -8.605823450747559500e-01 2.006938321452670163e-02 -5.310135599474277157e-01 8.471256217405704891e-01
6.869663802016630350e-02 -6.433820671729365004e-02 -9.557944456007632095e-01 3.102179356210741368e-01 -5.163334958233296579e-01 7.982258787522857890e-01
-8.250400221975671966e-02 1.932917070824680394e-01 -8.126215662558187169e-01 -2.009277073140421921e-01 -1.169316780573925463e-01 9.726021998228283616e-01
-4.560496528927771714e-02 -1.287145811371838144e-01 -9.805930484385614321e-01 1.504454269842440406e-01 4.832752472915060049e-01 -8.624449019240951753e-01
-4.497316137292414057e-02 1.285326075285523895e-01 -8.331253705834008594e-01 -1.030860874588005599e-02 -5.974622605579387180e-01 8.018307675530556011e-01
-4.059427404079692797e-02 6.240200579625949928e-02 -8.711654973572415805e-01 -1.013102328623364939e-01 5.103129037196832973e-01 -8.540005720223872165e-01
4.954835920818972950e-02 -1.231560578477095824e-01 -9.851195328186216349e-01 4.040706351145584851e-01 -4.944879791754101528e-01 7.695508821963212842e-01
-6.690886913663805780e-02 -1.750716614480257449e-01 -1.039557859170837428e+00 4.050587654305605745e-01 3.414969739673988092e-01 8.481198107101258765e-01
-7.132170334969673009e-02 3.880883057085232624e-02 -8.902024250109611403e-01 -9.574894262497865571e-02 -5.029919435011935835e-01 8.589710383703810237e-01
-9.601494270839180944e-02 -8.842572081718653998e-02 -9.797185211489959356e-01 -5.014284127257598866e-01 -5.531541386606876332e-01 6.652744139029229675e-01
-8.036009606790199544e-02 -9.127767050158461237e-02 -9.700377894888463359e-01 4.037056115010217994e-01 5.724539287409385890e-01 -7.136653828732696381e-01
3.559498099206041821e-02 -5.400973419074335535e-02 -9.370838823032525688e-01 5.739525670595708312e-02 -5.346308687137628635e-01 8.431344013418172745e-01
-7.417939587572489057e-03 3.716243817593902453e-03 -9.125865928990191112e-01 7.328765747011944942e-01 -3.859894788900711249e-01 5.602714060528308782e-01
6.697517417058647220e-03 -2.456294703468402674e-01 -1.031437066103216615e+00 -9.022231002663838595e-01 -2.594963713778618564e-01 3.444635112569077173e-01
1.206894408352753162e-01 -4.266198420436233263e-03 -9.332546371481187375e-01 -6.893196505107164196e-01 6.140134659707536802e-01 -3.844813168755615296e-01
1.314161592273116741e-01 6.752169873329155747e-02 -8.496844708524754486e-01 -2.840051150175363914e-01 7.191666205821438673e-01 -6.341454616129763577e-01
9.794236541999164214e-02 -8.474644686118366910e-02 -1.005630021682156761e+00 8.360424644309258913e-01 -4.748189391482530164e-01 2.749181199819168975e-01
1.152544957936127434e-01 4.938921490955107928e-03 -9.167448886766764726e-01 4.691115761295238107e-01 -7.007958358586783287e-01 5.374193200699155515e-01
-9.620201683548626481e-02 1.587409593462536239e-01 -8.241069255024432438e-01 2.239598976273289299e-01 4.068324221188077128e-01 -8.856237037069980556e-01
8.430674034341413547e-02 1.911281065642556412e-02 -8.892612201384341164e-01 6.310339641309311090e-03 -5.655060818777044584e-01 8.247199833718945605e-01
4.710768782176060626e-02 -1.790004239485493143e-01 -1.010700332263442469e+00 6.373097809970955652e-01 -3.688538070504061017e-01 6.765967130202864555e-01
2.078209367259224380e-02 5.907362042096658827e-02 -8.715805140304963006e-01 2.735901121739642838e-01 4.146287931453571107e-01 -8.678890565132516555e-01
1.212768222785596817e-01 9.328632987663258713e-02 -8.269324534361541801e-01 6.764047775886138092e-02 -6.325871403333636067e-01 7.715298281034961292e-01
2.234094438825226861e-02 -1.855537813390683091e-02 -9.148803417616407918e-01 8.977272623862657397e-02 5.628367569840321272e-01 -8.216785518749909478e-01
9.805786870570680491e-02 -3.956947921921342287e-02 -9.553525760062941963e-01 5.662628145622394804e-01 -5.904807469415730425e-01 5.750468783806869100e-01
-1.770787324844078081e-02 -7.636791568006805198e-02 -9.512120716559661071e-01 2.431393344621608082e-02 4.502718461746759160e-01 -8.925604165449091409e-01
-1.987411314752362407e-02 4.465373232742268078e-02 -8.864925295301792074e-01 7.144802321322835104e-02 -5.090477695264559177e-01 8.577677706227148091e-01
8.775094927487646357e-02 -2.446446404852820056e-02 -9.262282930387366608e-01 -2.892240959110387588e-01 6.803717077783538736e-01 -6.733823294378969981e-01
-5.991814140418254969e-02 -4.118174789030044219e-02 -9.322966962382805978e-01 5.231336328795754831e-02 4.325121458678770070e-01 -9.001091909864415985e-01
3.059037815364424803e-02 -1.371753319393482218e-01 -9.819124022761949178e-01 -3.154967119877968296e-01 4.402324943145173863e-01 -8.406290357074919228e-01
-9.612269385623208040e-02 -6.822650896505015605e-02 -9.596875733210714632e-01 5.061710133377450571e-01 6.306861454257690625e-01 -5.882396545835941737e-01
8.222425675493652553e-02 -5.823641632689412900e-02 -9.556719379661052782e-01 -3.790930814108542379e-01 5.294990689757660407e-01 -7.588933861750413179e-01
1.180963372420153062e-01 1.054131873572220629e-02 -9.118278675880472361e-01 4.553232737771991112e-01 -7.139048170351692812e-01 5.319968313540929250e-01
-8.600050677800198662e-02 -1.284870217691214123e-01 -1.008118902033423137e+00 -6.983719421780966163e-01 -5.022995553506299782e-01 5.098742855576781086e-01
-1.260212351271100539e-01 -4.618652418161143386e-02 -9.846947864482984425e-01 9.972307964562868721e-01 5.554713757402956337e-02 4.944951068000238287e-02
-4.793922542387520080e-02 -1.531334985919823866e-01 -9.983783554764027457e-01 -3.829423037816798714e-01 -5.075627031000182754e-01 7.718389044329020399e-01
9.728420030319935574e-02 1.899910854107049740e-01 -8.059616309294637126e-01 -3.458678979929641351e-01 -3.300720202789090840e-01 -8.783096598392438059e-01
-9.669604982234143026e-03 8.270611832933096041e-02 -8.656625454573334544e-01 8.764201002290772369e-02 -5.014147402792956676e-01 8.607567230697596994e-01
7.902433561374304360e-02 7.052188480000912141e-02 -8.433842210682633844e-01 2.387199322304175975e-01 5.492609962447754235e-01 -8.008277917006263458e-01
-1.770704236797566999e-02 -2.241758021420487412e-01 -1.020248831556402225e+00 2.736356038641396538e-01 3.797713808775772804e-01 -8.836839110022577382e-01
8.082419234102108940e-02 -5.557432754488542820e-02 -9.557503828504729793e-01 4.398993538817443927e-01 -5.438857958038190166e-01 7.146165402348803042e-01
-7.146846309896162652e-02 5.202882908682290169e-02 -8.782838242663515427e-01 7.898473688087381817e-02 6.044119519382048500e-01 -7.927468723962954877e-01
-8.465507142584481615e-02 1.931223810200920765e-01 -8.107061749828704533e-01 2.700964915266337307e-01 -1.111909736811493160e-01 -9.563913700137831597e-01
-1.844632517538018560e-02 -1.494759689689520443e-01 -9.905413447501087987e-01 5.548951173879155402e-02 -4.382655551621277290e-01 8.971311037108358200e-01
8.473172237002388196e-02 -1.835784631814107309e-02 -9.221674559825643325e-01 2.956960451067236484e-01 -6.529504460400024080e-01 6.972944599840187330e-01
-3.480467314725729788e-02 1.024299364959029152e-01 -8.490586071189666351e-01 -1.002344037841598340e-01 4.955445171026157669e-01 -8.627796334334563166e-01
-9.139617957092682765e-02 -6.692174507633667779e-02 -9.578370054653146948e-01 -3.812429593788991822e-01 -6.139585739350925664e-01 6.911647237928210119e-01
-1.327743781269927204e-01 1.274593524114054355e-01 -8.605711416003262171e-01 7.744287636976817657e-01 3.608632861066314312e-01 -5.196515935682328724e-01
-1.084267171571671462e-01 -9.423269491913111029e-02 -1.005232507381330631e+00 8.945901003038394528e-01 4.246733947557396194e-01 -1.391440269109752714e-01
-5.638377368161272968e-02 -1.330688351855478513e-01 -9.866785606838057721e-01 3.319321399561793728e-01 5.567149251856665648e-01 -7.615047908842261792e-01
-1.063545452304719974e-01 -9.059950583960513226e-02 -1.016793663352609345e+00 5.899314560886343983e-01 -1.447047142523570917e-01 7.943811571218739598e-01
1.102503876589507603e-01 -4.887454839779702132e-02 -9.859558584208458765e-01 9.749517038577998340e-01 -2.211757319164132096e-01 -2.346211320430723751e-02
1.388694406162735706e-01 3.444918886900695532e-02 -9.013750163128054771e-01 7.538481044477866044e-01 -5.889729323271993833e-01 2.912454641816403234e-01
1.005981068449013360e-01 -5.505287623972686395e-02 -9.692303545393963216e-01 -7.206086989763809125e-01 5.084341048840225197e-01 -4.713998981229745588e-01
6.622616990453862595e-02 4.315870324202088909e-02 -8.701028121865106435e-01 -1.389637812007396001e-01 -6.145967688633892090e-01 7.765049125517975437e-01
6.499400018055567774e-02 -1.554512704648324806e-01 -1.012439385201327813e+00 -7.454630893109507328e-01 4.111349619254418553e-01 -5.246454284157434644e-01
5.110020570828306685e-02 8.123083168482866934e-02 -8.465522434148791131e-01 3.346964750801910138e-01 5.498098730284625146e-01 -7.653021449658434783e-01
7.591634854618689934e-03 -2.634740959032890184e-01 -1.040028182689050729e+00 -8.722382929396427231e-01 -2.647152380498536406e-01 4.112495630076065667e-01
-1.607949304379234848e-02 1.835572541376030431e-01 -8.127571514633253891e-01 1.510291903414893999e-01 -2.217185376621734760e-01 9.633436944942037616e-01
1.333682770365423043e-01 1.208188076750225382e-01 -8.119534454372532295e-01 6.076700309686720869e-02 -3.799738995095511829e-01 9.229990287243703406e-01
-5.192649245051705886e-02 -1.748043092543562771e-01 -1.016862722924194884e+00 -5.422304769875916364e-01 -4.676343841650689725e-01 6.980717674941204764e-01
-3.757320402058197256e-02 -2.075619623729642038e-01 -1.027197157639489600e+00 -6.778019630272801299e-01 -4.925588369768910124e-01 5.458665505710513788e-01
-5.226539947596233610e-02 -1.974672595063059199e-01 -1.037365632520288905e+00 8.113916106890850521e-01 5.785386105169678661e-01 8.328703527241383686e-02
-7.980216238287906813e-03 1.184424344352580788e-01 -8.451701873473969062e-01 1.739627534305990264e-01 -5.160694596100205978e-01 8.386949822651057485e-01
