3.845265195110129236e-02 -9.270980495040602454e-02 -6.707551527278027281e-01 4.483101974926797517e-01 4.387923824060431799e-01 -7.787677522641158756e-01
-8.038154735520541827e-02 1.158086436794158042e-01 -6.904215182303777842e-01 9.144326216415761266e-01 2.940500803435185384e-01 -2.781142404259159817e-01
9.250151800728874385e-02 3.511650938922410148e-02 -5.135520428834116080e-01 9.960309688417018359e-02 -6.479530738571512849e-01 7.551397467821115983e-01
-8.388232433763097295e-02 1.298188946234344054e-01 -6.921566983564165776e-01 9.745280346033561303e-01 1.740308128654030617e-01 -1.414510019247899042e-01
8.596357212852720475e-02 -1.459595404182564560e-01 -7.006386964125452810e-01 -2.565287158350101349e-01 6.614194364929270042e-01 -7.047817725944814926e-01
5.323336123111667428e-02 -1.720724129759252374e-01 -7.157350677683261830e-01 7.881036061177268404e-02 4.725193502755506980e-01 -8.777894910941996809e-01
-6.712356683260749246e-02 1.396775384306450096e-01 -6.498768750267828187e-01 -7.579217038073292612e-01 -2.837622433241793196e-01 5.873956759812116735e-01
-7.734597258646515316e-02 3.294869538981642920e-02 -7.799084714814172870e-01 -9.047741566092314391e-01 -7.169352016258810634e-02 -4.198139643922657038e-01
-4.590943092348923060e-02 -1.040324427009469005e-01 -7.737352589718715645e-01 9.204309314529727226e-01 2.665543526944053609e-01 -2.859294974015093027e-01
-4.181486564436632733e-03 -5.519783107246612613e-02 -7.022033600460753089e-01 -7.886596057957412365e-01 -2.316647240316066503e-01 5.695151287063985324e-01
-3.569680799459663822e-02 -5.434358759650381038e-02 -7.274453617994088850e-01 -6.631120309876800123e-01 -3.024906866821018281e-01 6.846764336750499336e-01
4.460655281703022196e-02 -7.154093958285474841e-02 -6.516930867959092044e-01 3.245469453044668162e-01 6.718683450426110593e-01 -6.657793983169217888e-01
-5.576111577078114723e-02 1.661435864924862560e-01 -6.195398633954427581e-01 8.256458178025800621e-01 2.897327769079467430e-01 -4.841114556900290578e-01
-4.785308657015464005e-03 -1.021600269601541516e-01 -7.272203502877776504e-01 -9.398422975529049372e-01 -1.365233866423294362e-01 3.131418538461217538e-01
-2.273273975821409054e-02 1.476618713799652538e-01 -5.965110641077617792e-01 -5.511716006035184412e-01 -4.441971518988003798e-01 7.063276555063874307e-01
-7.338727104580605731e-02 2.220985454568246212e-02 -7.435910378561209066e-01 -8.839202444248747126e-01 -3.170366052150835334e-01 3.437626978739329320e-01
-4.726312125318170645e-03 1.165366798994357522e-01 -5.988285229075448468e-01 5.900765468311558459e-01 4.383094230852402906e-01 -6.780077569722212649e-01
-1.453999189898024305e-02 -2.344051517330993095e-01 -7.743238419033406927e-01 7.433197538850941921e-01 1.274296582485285045e-01 -6.566867028369510750e-01
-1.550381756423861897e-02 -7.925014019191616021e-02 -7.204651314115193550e-01 -6.093330606619488110e-01 -3.610143169422101450e-01 7.059616732848116305e-01
-1.098764830421205922e-02 2.167733634888182881e-01 -5.696628558403847853e-01 -5.940464548380427479e-01 -4.491883562479689895e-02 8.031756393843539898e-01
6.600291248786613156e-03 1.824411609127997089e-02 -6.347281874101647903e-01 8.066956691973869997e-01 3.761148449494636226e-01 -4.558286089165761168e-01
6.743475626650405341e-02 9.697423504975263842e-02 -4.926370124897010427e-01 -6.517926544306681391e-01 -9.765683652782503055e-02 7.520834248337090466e-01
2.056144643997021362e-02 -1.031331570865729880e-01 -6.885654786413797357e-01 6.014299183737519261e-01 3.559248169685178542e-01 -7.152618946587810944e-01
-2.241313895274681459e-02 1.627684170316554269e-01 -5.850309116597374182e-01 5.660493539613556946e-01 3.190178104509364676e-01 -7.601419377294099666e-01
6.783188980702620219e-02 -1.603627455043118433e-01 -7.094626803115711144e-01 -5.178846217856149237e-02 5.378607041287676305e-01 -8.414415120133341697e-01
-2.540492294814012276e-03 -6.119111968763402826e-02 -7.009608899343541255e-01 -9.601613641481008266e-01 -1.178564942611288469e-01 2.533771922603427762e-01
3.517747536595673685e-02 1.361227258661311668e-01 -5.201983381455009825e-01 -7.773940205897691413e-01 -3.202552141433487320e-02 6.281981397054703375e-01
2.154652879778887545e-02 -8.112626888714746798e-02 -6.758126107968251972e-01 4.960545618814115598e-01 5.655701405197411935e-01 -6.588325187702267494e-01
1.069540367884418142e-01 -4.691433174887717911e-02 -6.081457463349392301e-01 -2.203768316925763804e-01 7.728326872686397397e-01 -5.951165344218517506e-01
3.734870841965336891e-02 1.652704665530937700e-01 -5.204783421356043993e-01 -6.958622051436632594e-01 2.402914806946867543e-01 6.767834186489453119e-01
-1.903086957251439240e-02 6.405647122351336951e-03 -6.779000444063365549e-01 -6.513615637247898160e-01 -3.489295855934099189e-01 6.737776024769654981e-01
-8.730204816147463243e-02 9.281896843838741140e-02 -7.372874822679730267e-01 9.902309028183368111e-01 -7.470174343382285365e-02 1.177387303801462060e-01
-7.815239752674751905e-02 1.771845067577023369e-01 -6.538315951603697052e-01 9.248892812957665299e-01 9.978786773699419022e-02 -3.669089788989967627e-01
-5.654345751871052428e-02 3.459393406374706992e-02 -7.041148278612989753e-01 -7.644676955648455063e-01 -3.172322369566751288e-01 5.612066021290543771e-01
-5.336748811041920615e-02 2.238659593434748352e-01 -6.071997947455580746e-01 7.343150427230057398e-01 -3.109875877403848743e-01 -6.033805915855486868e-01
-2.063287703936456455e-02 1.437319581714578409e-01 -5.973439234104472861e-01 -5.511716006035184412e-01 -4.441971518988003798e-01 7.063276555063874307e-01
3.025153119664732160e-02 9.284320629730728747e-02 -5.390108207941828322e-01 8.729375582622707075e-01 1.794834739820222458e-01 -4.536140451335799462e-01
-2.712184872535414008e-03 1.933697013872172077e-01 -5.659473985023597553e-01 -6.072638388339429705e-01 -1.203313778680343005e-01 7.853349537267797498e-01
-6.290433676941746544e-02 -1.559934378569940300e-02 -7.415524574234803046e-01 8.464010759722373489e-01 2.623748584757134017e-01 -4.634270732627607803e-01
6.116006772886471016e-02 5.220932492972934352e-02 -5.170914551871583775e-01 6.680185989461185914e-01 4.808398877582040210e-01 -5.679297085051482341e-01
-7.328686738296769088e-02 1.020158291043342103e-01 -6.897409422572591264e-01 -8.894727844010577034e-01 -3.524915634611622828e-01 2.908399276209082673e-01
4.970918524715548653e-02 1.563319839670682387e-01 -5.083656660312487752e-01 -5.457123999069338760e-01 1.335901535578335186e-01 8.272554910426459518e-01
-8.625844582608156730e-02 8.418371734166303633e-02 -7.315361791126093749e-01 9.725765128569322515e-01 1.034477359139442387e-01 -2.083110476506910835e-01
-7.978529822196457622e-02 1.465910423088532255e-01 -6.707937607284597537e-01 -9.230049567750331363e-01 -1.518917242849481819e-01 3.535403143383572533e-01
-8.500364703875869232e-02 4.695867219840608314e-02 -7.542974572705353209e-01 9.693567385665526892e-01 1.902527546856606910e-01 -1.554072158238916646e-01
1.014273376632408574e-01 1.807637961382527886e-02 -5.277014756066161771e-01 -4.270478037422242856e-01 5.267452807845406371e-01 -7.349623000468517020e-01
3.117202374229522538e-02 1.938073749181938032e-01 -5.350104569362846840e-01 6.467988073670238869e-01 -4.256483626753309601e-01 -6.328307626375359041e-01
3.186656636640990831e-02 -6.517103908961592584e-02 -6.573662305948345663e-01 -5.119616411075492701e-01 -5.161200253423280371e-01 6.866697877984001552e-01
-8.284190830811154205e-02 1.843239467268745491e-01 -6.657707087470569052e-01 9.692240558382373417e-01 4.724679483208753250e-02 -2.416039527047768587e-01
-8.620575974404351416e-02 1.163285349065833613e-01 -7.205072579934672650e-01 9.956584501028634682e-01 -8.748256304999127431e-02 3.179704233050422574e-02
-5.763568937104949358e-02 -4.719849587176995487e-02 -8.101972249563538231e-01 8.823523731539132386e-01 2.817200397575606030e-02 4.697452796800065111e-01
1.001239338756315933e-01 -4.987101937709841060e-02 -6.133402814676857107e-01 1.386177380907772753e-02 -7.436196740204329414e-01 6.684591473206206169e-01
-3.656644717131279226e-02 1.310410722418624274e-01 -6.225343253127864074e-01 -6.847458116404062656e-01 -4.655959732684366581e-01 5.606635025727449984e-01
-2.296018364269501733e-02 -2.327351057662494782e-01 -7.858172592513814614e-01 7.683858888787162833e-01 9.623777388859502957e-02 -6.327095831809665949e-01
4.734013623517475261e-02 -2.000180997298316443e-01 -7.362657709627509206e-01 -5.728472528492136728e-01 7.610560782716325745e-01 -3.043676570020407701e-01
2.196354152750429681e-02 2.721236592181539016e-02 -6.056981416734148471e-01 -8.473678750516314695e-01 -3.046612695908947899e-01 4.349128592508467173e-01
1.457215154966283455e-02 -1.222156945099204250e-01 -7.041020618370869011e-01 5.699983953355765021e-01 4.148699089956982000e-01 -7.092142045424421060e-01
-5.747785402006494460e-02 -7.598607770893051061e-02 -7.988282426114357015e-01 9.686370454339420233e-01 2.126409137728438037e-01 1.285539419965537888e-01
7.538355398449503308e-02 -2.096553089691153074e-02 -5.816727601166632455e-01 4.002684541044855826e-01 7.091292257495523943e-01 -5.804488830522853693e-01
-2.860092942860597079e-02 -1.721596709483523002e-01 -8.186517595505639067e-01 -2.885963093931864787e-01 2.126559536499419700e-01 9.335360815639993648e-01
-7.900458204021063024e-03 -3.476506987080141275e-02 -6.831058826769337289e-01 7.735031886890437747e-01 2.849220664847706419e-01 -5.661379982989389603e-01
8.960116681121145510e-02 -2.349191510508602532e-02 -5.764224830963112778e-01 2.930677581663956865e-01 7.654538073229147921e-01 -5.728802300465404285e-01
-5.322880392774737013e-02 -4.095455438630395129e-02 -7.438253967421177837e-01 -8.185609905433973710e-01 -2.924886385759063456e-01 4.943766793292587725e-01
-3.382577798449102474e-02 4.837599689647124196e-02 -6.705884839312914458e-01 -6.920501884468657217e-01 -4.362789674593011147e-01 5.750888620233431947e-01
2.142327704075470962e-02 1.349882798353628233e-01 -5.409879849405166974e-01 9.233513131136931174e-01 8.813117626089808643e-02 -3.737047609304556817e-01
3.990758140170757445e-02 1.975959884856206411e-02 -5.822514718616841334e-01 -7.066858934811794946e-01 -5.324505691559997533e-01 4.659307237778582134e-01
7.910099783626389769e-02 4.326379583714601990e-02 -5.071009169976383735e-01 4.720790738345569948e-01 6.292720938052817070e-01 -6.173799316510243385e-01
1.912962382150197246e-02 1.546498594639640067e-01 -5.431944438568232503e-01 9.364047902878459562e-01 7.900449041973063580e-02 -3.419127947583914251e-01
6.441487569055291684e-02 -1.706625762950078617e-01 -7.189914430928006084e-01 2.285129766138130347e-01 -6.043509940331585062e-01 7.632441912849571297e-01
-2.096846499276436640e-02 1.624291024417751361e-01 -5.869304139144897459e-01 -5.234189267867711548e-01 -3.543488348931900789e-01 7.748996904704655853e-01
-6.390158525639962062e-02 -3.533758627644043721e-02 -7.774546126216401731e-01 -9.639174920192797869e-01 -2.598768315637697279e-01 5.768102803901497405e-02
-3.813312595500890911e-02 8.300373119863674320e-02 -6.478031620225406240e-01 5.976127650514738709e-01 3.845950649136128940e-01 -7.035237160832789050e-01
3.473196931988770109e-02 1.171327827286852002e-01 -5.208609174200243830e-01 8.022364949380725863e-01 2.168942522593857725e-01 -5.562135287156525498e-01
6.149409634505381000e-02 -1.017270427219613693e-01 -6.686445340673393689e-01 -2.538088547239206183e-01 -5.309536162432800799e-01 8.084981896466532092e-01
-3.529285678893308385e-03 1.988744338376849385e-01 -5.657893234877926503e-01 -5.936100108686291899e-01 -7.250355666216799777e-02 8.014801240629002566e-01
-3.026325080898429731e-03 -2.196454530509985570e-01 -7.599926465733611858e-01 -7.695986901374225475e-01 -1.350264056808912483e-01 6.240879152071949765e-01
4.688010243875309624e-02 6.245681918362137180e-02 -5.319813120818186469e-01 -7.723289717793490050e-01 -3.851866252569263738e-01 5.051130794915469346e-01
-9.556634587696226368e-03 1.791489326662457360e-01 -5.710093916889499299e-01 4.690171150871456085e-01 1.962933999837365440e-01 -8.610992084993204232e-01
-4.459102670083295999e-02 -1.171231794385355768e-01 -7.946177760328371198e-01 -9.536195384678334275e-01 -2.752590167654719866e-01 1.218287714035648228e-01
4.478924921249613500e-02 -1.313401698036446201e-03 -5.951095298915248799e-01 -6.937970773844808203e-01 -4.510538491358009328e-01 5.614232276923810661e-01
-5.671713367273380907e-02 2.419577600101059569e-03 -7.222681543102231760e-01 7.704554612132519242e-01 2.594598528357481282e-01 -5.823048746602823567e-01
4.547184761264579794e-02 1.657418918503998084e-01 -5.105072721922460088e-01 5.535898108203344270e-01 -2.237155353449309658e-01 -8.021780853409281598e-01
-8.359081248934646657e-02 1.082280327592489710e-01 -7.036040485007117873e-01 9.383701030817938049e-01 1.987549716726632054e-01 -2.827684757494415835e-01
-1.747598460157936962e-02 -7.692018911617544419e-02 -7.178650793894624238e-01 6.510590189306859621e-01 3.378112919342244336e-01 -6.797100005963889746e-01
-8.303024377259962674e-02 1.477300226530806060e-01 -6.846018269245118804e-01 -9.782320636865742269e-01 -1.336698144660901089e-01 1.587274717120743528e-01
-3.476848551021497619e-02 1.664913066016273646e-01 -5.938307368775345152e-01 6.347207458284821469e-01 3.228862121527670270e-01 -7.020499047906590961e-01
3.983119440310629866e-02 9.541719360149025775e-02 -5.249880756590495912e-01 -8.296607068237129567e-01 -2.236882759203026594e-01 5.114945422666595798e-01
5.792811604627665090e-02 -1.667343353734893063e-01 -7.126122909401122474e-01 -1.105996423797866307e-01 5.496579981550075988e-01 -8.280361128415192340e-01
3.675230806196568695e-02 3.237308925696401329e-02 -5.745130020540053506e-01 -7.945762065310718603e-01 -3.764023191184763806e-01 4.764136292938356276e-01
-5.053666266288136394e-02 -9.544619535980064517e-02 -7.920173950922846373e-01 -9.549673771182848325e-01 -2.876942737415077445e-01 7.259003716881477775e-02
8.004785793907397140e-02 8.420992019747558510e-02 -4.806987442477360095e-01 6.272009886501438425e-01 1.268348040109568697e-01 -7.684607031773220687e-01
3.348581117022476992e-03 2.279728554230978088e-02 -6.375503008319486353e-01 8.487956657294576379e-01 2.623118405584901613e-01 -4.590625405559726757e-01
-9.977644977933754190e-05 -3.065098454611426410e-02 -6.771167264186811474e-01 -8.691503922499476120e-01 -1.780805099951867920e-01 4.613728726438264260e-01
6.728728952627779925e-02 6.257171421342359874e-02 -5.022408473201740442e-01 6.704693150834021287e-01 3.768540374103089285e-01 -6.391024425075709781e-01
-6.588359846498066663e-02 -2.983587843276324161e-02 -7.961753545493928108e-01 9.452373529795865537e-01 1.015623116373613744e-01 3.101796953171183091e-01
2.492515840025041549e-02 -7.172455546055831084e-03 -6.221158732572495964e-01 7.622330013063456366e-01 3.449441068496291729e-01 -5.477357162621696585e-01
-1.432425587156062850e-02 -2.539988324053248786e-02 -6.913113339308603056e-01 -6.360791017361046018e-01 -4.668045350393474346e-01 6.144077655769734081e-01
-6.078436931549161676e-02 -1.980466813430449211e-02 -8.025104329710258666e-01 -7.050002530638623810e-01 6.035884942142043935e-02 -7.066338885706037187e-01
3.138919341769823377e-03 1.518628359755257451e-01 -5.731082920852085261e-01 5.947758132396657738e-01 3.411963865566031706e-01 -7.278919959621835689e-01
4.754129924371285759e-02 1.320218058605026334e-01 -5.073777301978901200e-01 -6.563648423640662255e-01 3.523648198888765931e-02 7.536203182275814649e-01
3.942947447315287013e-02 2.421135043595983721e-02 -5.730935746603309511e-01 6.958099484782976907e-01 5.367218231358208413e-01 -4.772611446246061706e-01
1.781843968218021351e-02 1.112348671053489529e-01 -5.606692568253597297e-01 9.048287262994334501e-01 1.681412421011620750e-01 -3.911693990690264799e-01
-7.561300113253162369e-02 7.609072513823349204e-02 -7.103274582227644407e-01 -8.727172140510583986e-01 -2.906561120234457674e-01 3.922801152778116474e-01
-6.522018250948997953e-02 8.114772699056037319e-02 -6.858886829391179774e-01 7.651504315101236298e-01 3.312033194936273017e-01 -5.521314864380350018e-01
5.539279660656670073e-02 1.697282015740403660e-01 -5.091148234063644917e-01 -3.513573695914062878e-01 3.328365053501224913e-01 8.750816302152193416e-01
5.456944877878539685e-02 -1.120482879881868205e-01 -6.779128122610997842e-01 -2.750273122234712098e-01 -5.365267572461569490e-01 7.978088845645031624e-01
-1.926013606814278023e-02 6.374111122407319363e-02 -6.455006122406652391e-01 -6.340183556526407527e-01 -3.710890250268846779e-01 6.784641922755524357e-01
-2.144414075038309636e-02 -2.890746316045662567e-01 -7.931598293909154496e-01 8.264252391952282562e-01 -9.130599316924555703e-03 -5.629724293224522835e-01
6.307612224629581543e-02 1.269140510234550712e-01 -4.931650363273242244e-01 3.671931583434969171e-01 -2.437888970845741021e-01 -8.976280733822971092e-01
9.073355348195113329e-03 6.597369317843466974e-02 -6.104813531408361804e-01 -8.812088221919388564e-01 -2.559359377486995490e-01 3.974516416619631731e-01
-6.897007170243540930e-02 1.061970827270075114e-02 -7.417664712078297917e-01 -8.882136532199962353e-01 -2.811522439222288727e-01 3.633592189157772157e-01
-1.806936764358079957e-03 -1.596765441805842595e-02 -6.773885277061021393e-01 -9.821958942957358385e-01 -5.349165318994972274e-02 1.800829482977379659e-01
4.584143615981752656e-02 3.199857377589112456e-02 -5.550792245473121778e-01 6.905742844396690616e-01 5.218710550451980401e-01 -5.007571862456404732e-01
5.191062727175742297e-02 1.171665266344248252e-01 -5.014130063795380066e-01 6.160491528515625870e-01 5.603953879602793786e-02 -7.857117864474227886e-01
8.608984990837575957e-02 -1.004537673917504231e-01 -6.633975561649009256e-01 2.294031833149317787e-02 -6.856978136018090364e-01 7.275247419961392570e-01
-3.321270756965647580e-02 -4.097651887587319686e-02 -7.149133690945179698e-01 6.664892032087301743e-01 3.444890677976583104e-01 -6.611500768918449067e-01
1.325771343181449125e-02 1.441787401922820511e-01 -5.659650112369818409e-01 -9.257739457270760530e-01 -8.278200190741853703e-02 3.689034312298017926e-01
-2.345497463328090337e-02 4.808649631461385521e-02 -6.554099885709069317e-01 6.573574382695721585e-01 3.704107638050060936e-01 -6.562599061416578561e-01
3.239341846319315071e-02 5.648592624047509697e-02 -5.580753584824630353e-01 8.593463675422029491e-01 2.889600263647094103e-01 -4.219311836725598841e-01
-4.045707271139092204e-02 -5.160319818148616233e-02 -7.313491426205743773e-01 -7.074166710269091940e-01 -2.934334700160035059e-01 6.430073500571925615e-01
-4.100508705485009925e-02 -9.956715833927180792e-02 -8.268073964912571183e-01 6.741164449844646578e-01 3.472943399462799507e-02 7.378081627468754400e-01
7.650547052607437060e-02 2.358369585339803801e-02 -5.349629328925435967e-01 -4.279345600266146743e-01 -7.034335916798184485e-01 5.674973078625643597e-01
-6.955883450978304905e-02 -1.534084046017819775e-03 -7.938479981749932968e-01 9.170546495583844493e-01 9.779879500440055717e-02 3.865826760461931744e-01
-3.098728125346785281e-02 1.734078917247999230e-01 -5.875131439547863765e-01 6.339522919420815805e-01 2.733972557320719643e-01 -7.234351609505540459e-01
2.389248635172770696e-02 1.944192723751552929e-02 -6.030700778922282179e-01 7.618751080600567605e-01 4.795653135181706106e-01 -4.353888259805196448e-01
-5.419589229617898657e-02 5.150040578093650900e-02 -6.922209061287402099e-01 -7.370462223023086512e-01 -3.111622168492590990e-01 5.999507821441275590e-01
-1.771055930392813338e-02 1.538465408690793679e-01 -5.891419236339038301e-01 -5.270362007844758834e-01 -4.048918488656516046e-01 7.471916981503607946e-01
2.971118153853110396e-03 2.037213754120702769e-01 -5.591524121302331451e-01 3.958687649820750165e-01 2.628730997313255546e-03 -9.183033326112405303e-01
-2.927474533752955771e-02 -1.735409557103499700e-01 -7.861442260491331435e-01 -9.565949884383193602e-01 -1.493476760976635842e-01 2.502424818829105391e-01
1.696077145444181700e-02 8.252457900407758618e-02 -5.774660348342838256e-01 9.172659944403754873e-01 2.335330800561488118e-01 -3.226226835837760487e-01
-6.147715204157917085e-02 1.053579627934541074e-01 -6.586808056061852490e-01 7.702303136612073109e-01 4.146747126186741128e-01 -4.845514901762023596e-01
-1.894249380046353348e-02 -6.800732158831494789e-02 -7.148512969194164013e-01 6.536006468362219879e-01 3.335052875772714920e-01 -6.793970986199997508e-01
3.164169579868966308e-03 5.941996261523124073e-02 -6.255438560161182826e-01 -9.581215354581001931e-01 -1.185811654804502790e-01 2.606561537441819953e-01
-6.479350253918814140e-02 3.709973877663517300e-02 -7.153250366394037218e-01 -8.126582474818341284e-01 -3.390263635863537406e-01 4.739701442002094978e-01
1.511924967274376301e-02 7.080349818142746277e-02 -5.897421046732831407e-01 8.844911178162878640e-01 2.722928652205733879e-01 -3.788562498548282975e-01
-5.551341384613898283e-02 -5.438232063981279091e-02 -7.648053524298278338e-01 -9.165340154338464940e-01 -3.569590076987602667e-01 1.804041722783206736e-01
-8.291474207863190615e-02 5.266220986230506218e-02 -7.730254901254542954e-01 -8.555476317112469253e-01 -1.945225630989242185e-02 -5.173585406637556394e-01
6.583202684751644773e-02 1.313331349327520325e-01 -4.929154736457589392e-01 4.102147433741637483e-01 -1.200095736534199931e-01 -9.040583866930239632e-01
1.913805963265740109e-02 1.565701780408976229e-01 -5.490547867971214968e-01 -9.333331284704389219e-01 -1.885464104123557583e-02 3.585160719002561946e-01
-4.777062409900812573e-02 2.010576401783262246e-01 -6.032430257535935647e-01 -7.581971369157778362e-01 -3.894174530900559872e-02 6.508614614839366430e-01
-3.988732157539753853e-02 -9.132040172988303839e-02 -7.578097092353487385e-01 -8.434942001037665227e-01 -2.312335151336339101e-01 4.848181059637217682e-01
7.300575907692868904e-02 1.860074284366357647e-02 -5.402447604559591499e-01 4.696994928786002443e-01 6.997042305803894413e-01 -5.383273874674138204e-01
-3.896682784993895504e-02 8.737889873923691819e-02 -6.489871447915661618e-01 -5.927285684176857306e-01 -4.130447959422454685e-01 6.914237779586045463e-01
-5.214057419842318269e-02 -6.594576924165905518e-02 -8.127775066503776236e-01 -8.262604766033581072e-01 -9.688353541641629707e-02 -5.548938685626356726e-01
-5.145197234327843205e-02 8.028917984377918760e-02 -6.644893222056211801e-01 7.083945581276529513e-01 4.442489841154202423e-01 -5.484705918529675372e-01
7.994795431753115578e-02 1.193606279306897722e-01 -4.835136878303706864e-01 3.772435467684176480e-01 -2.547879866936995641e-01 -8.903765429626703254e-01
2.369648574805536395e-02 9.689574794905791988e-02 -5.567802903815528559e-01 -9.180332657073702052e-01 -1.214231948959913487e-01 3.774537465649415724e-01
2.248959541204413951e-02 -1.333688735612964527e-01 -7.045923300229851582e-01 4.310469581320573451e-01 4.262359208837915858e-01 -7.953121774708635794e-01
-3.843584380354544278e-02 2.110042594564154605e-01 -5.933106951252958838e-01 -6.893303868021600778e-01 1.090927083146170026e-02 7.243649671547558455e-01
-3.147311670775535669e-02 1.304150364161256979e-02 -6.832365825149565586e-01 6.758699339151887919e-01 3.680702009689562626e-01 -6.385328179413730654e-01
-3.961238150197892577e-02 -1.304947444905645570e-01 -7.847611803826632926e-01 -9.418188698483398458e-01 -2.486055551073469427e-01 2.262133823790357656e-01
2.399524387591071752e-03 3.637600740021994933e-02 -6.377965820640054684e-01 -9.479934511289886956e-01 -1.429932808614239603e-01 2.843612811988219802e-01
2.522482838955214524e-02 6.834231288683098593e-02 -5.713325077556236087e-01 -8.944748067687469106e-01 -3.096661420930493791e-01 3.225239533696997452e-01
-4.775840963082967489e-02 -2.209001444442472428e-02 -7.254268400404090267e-01 -7.398215083417749582e-01 -3.078435155690574243e-01 5.982445200058120749e-01
-6.921142917867839639e-02 9.315364109259774428e-02 -6.835793165655075221e-01 8.001974101291317032e-01 3.503748074485504849e-01 -4.867459287225947007e-01
-1.181188986359672658e-03 -1.276670880660064900e-01 -7.220251260945999006e-01 7.326705570760677633e-01 2.542329078698349343e-01 -6.313156764645501129e-01
2.131336369492739177e-02 4.731348780102772461e-02 -5.903317526089858491e-01 8.823761972102178719e-01 2.553153461200939889e-01 -3.952547540921059754e-01
1.311935690235164695e-02 5.426391977060808502e-02 -6.037562633590493055e-01 8.684446391827115308e-01 2.123116961958557702e-01 -4.480263969156820791e-01
3.076127094398871734e-02 -1.217735906542648516e-01 -6.957718272004207449e-01 -4.312447240027086903e-01 -4.821375820730804951e-01 7.626082480360090177e-01
-3.683928727262965330e-02 -2.417189997236506710e-02 -7.106238090879815061e-01 6.930992500760553288e-01 2.616967486221503658e-01 -6.716608082243632483e-01
-1.635908967881353690e-02 3.757847410420011441e-02 -6.583913678041322104e-01 -6.558658782163344636e-01 -4.005327374767300719e-01 6.398542615321969329e-01
4.723280380153742526e-03 1.875853849497070847e-01 -5.615350394885141316e-01 -5.618380084636236393e-01 -1.152398802561780400e-01 8.191811901186275557e-01
-9.231848953212938233e-03 1.715113491069933660e-01 -5.754437909003631280e-01 -5.197973647549455345e-01 -2.658104351317637226e-01 8.118839277685427902e-01
4.769177027718513560e-03 2.121706523135991410e-02 -6.358314260861033240e-01 8.477623734097100572e-01 2.958449466897716817e-01 -4.401985072088063222e-01
-6.848162731030123240e-02 -1.554379318725952405e-02 -7.846766008974869200e-01 -9.770849700246759806e-01 -1.947160499797833677e-01 -8.596872240616540428e-02
2.757030913569675362e-02 5.495443365143242581e-02 -5.705716539838434631e-01 9.038184118018933733e-01 2.499370571943639596e-01 -3.473380859176323221e-01
-6.408185849301020753e-02 -4.134983798740930055e-02 -7.978007299865733648e-01 9.652046202984587708e-01 1.013829956277527838e-01 2.410425878388530729e-01
-5.360872365035270620e-02 -7.955848917196318981e-02 -7.846146968606800831e-01 -9.485565738705888927e-01 -2.587938876915751307e-01 1.823901035154328887e-01
1.019009093149988165e-01 -2.306541476576632818e-02 -5.738577376209457181e-01 -2.485229819428009523e-01 8.006647534445835435e-01 -5.451351025551212093e-01
1.475749826173174302e-02 4.583520990860368710e-02 -6.044547739306659340e-01 8.707442216771894561e-01 2.039687694445427302e-01 -4.474385337753829517e-01
-8.116017668607175550e-02 8.448319555126061753e-02 -7.116428992322465508e-01 9.042238869368076637e-01 2.925013719129844203e-01 -3.111625133622513140e-01
-7.797049240593222075e-02 1.737030962226306097e-01 -6.540548118272344613e-01 9.063737179153752432e-01 1.161249959259549741e-01 -4.062039743693515170e-01
5.482127487919382508e-02 -1.847416397642812069e-01 -7.274572979049043209e-01 1.847893138432135374e-01 -5.861238736322297305e-01 7.888673616316651538e-01
4.614334118600544460e-02 5.259886156379296046e-02 -5.363023253316864247e-01 7.634592787753100573e-01 3.983641490046731515e-01 -5.083659453972756426e-01
1.651214569641781121e-02 -1.735308657050686210e-01 -7.279637095747786280e-01 4.278214601868826628e-01 2.760371496345133124e-01 -8.606812942229064012e-01
2.334150694910116022e-02 8.717628830822878039e-02 -5.624558465423523668e-01 -9.308706735735936544e-01 -1.837220241371182172e-01 3.157942477747247567e-01
1.880997278395001027e-02 1.057577216520935726e-01 -5.602723330003620550e-01 9.289145041463087171e-01 1.210463344741270209e-01 -3.499508949795606672e-01
5.173911179896174134e-02 1.461487015304712422e-01 -5.023422238907387927e-01 5.905779265477174578e-01 -1.482669818089533131e-01 -7.932430994215219355e-01
-6.779559386387129516e-02 -2.924926566694176222e-02 -7.691029030930824906e-01 9.347326240699528332e-01 3.311566759513376312e-01 -1.288804774671512554e-01
-2.137628899007396402e-02 1.911488915830044932e-01 -5.795789814987927224e-01 -5.599055585579082450e-01 -5.158003891457376561e-02 8.269493727438989028e-01
9.842409153830614099e-02 -7.147871613537733204e-02 -6.341873799290439484e-01 -5.667460506758795332e-04 7.066777207450358755e-01 -7.075353544534119798e-01
1.093718373093030133e-01 -5.205776030153299455e-02 -6.159690780775152197e-01 -4.018087771902138505e-01 7.069892095439884727e-01 -5.819930963175349303e-01
2.412060443319306857e-02 4.738753409164993269e-02 -5.840592646753987038e-01 8.833528366989463754e-01 2.367566493311905607e-01 -4.045170637851910334e-01
-5.732590314578809437e-02 1.054846801334867190e-01 -6.533032152667450632e-01 7.033546582056461327e-01 3.811954009456826054e-01 -5.999852423837431781e-01
9.898026695337634739e-02 -5.607215765951050618e-02 -6.169252882674688410e-01 -9.033149589846363459e-02 7.555524176713981355e-01 -6.488303052414020611e-01
7.042566516653671338e-02 -4.624565899646827100e-02 -6.136513982121802879e-01 -4.047719852663199669e-01 -6.342312703419383801e-01 6.587187075406416570e-01
4.567656856456490944e-02 9.507432385863752444e-02 -5.162313034973525783e-01 -7.952644312912242608e-01 -2.179851943748024046e-01 5.657180740938239083e-01
-5.392195488973505757e-02 -3.893370567483368794e-02 -8.106431538950670257e-01 -3.543983525354623132e-01 2.541991652356075937e-01 -8.998803209947813242e-01
-1.895510838135738493e-02 -2.153717064424481575e-01 -7.768438004016328113e-01 8.753086957446198912e-01 1.063300104484489056e-01 -4.717293885607352633e-01
7.421904814356878590e-04 3.831710292986446192e-02 -6.338378047148127692e-01 6.977524883706990311e-01 3.308239998061640597e-01 -6.353715024493533647e-01
1.007119594596167685e-02 1.611407146805980406e-01 -5.623833891786935713e-01 8.138929209997557424e-01 1.708533722563055635e-01 -5.553264250286795711e-01
5.480545996015676047e-02 -1.091406994380118567e-01 -6.758760981951920099e-01 -2.750273122234712098e-01 -5.365267572461569490e-01 7.978088845645031624e-01
1.006458097989436501e-01 -3.355409019733227721e-02 -5.921406041846185575e-01 -3.430970310171752025e-02 -8.080132579522123493e-01 5.881644491522109996e-01
2.267982447536903701e-02 -3.805532495053510350e-02 -6.496903638703754869e-01 -7.344669738762837907e-01 -3.096233503833301093e-01 6.038970484961949658e-01
-1.727105244866650527e-02 -2.012716696103905301e-01 -7.693402222602060414e-01 8.917365874620161170e-01 1.138731239768893955e-01 -4.379940298877850191e-01
1.103890877119491076e-01 -9.497599863181079016e-02 -6.635590773792255925e-01 -7.386083607934055273e-01 5.611468030345680980e-01 -3.735933013454096896e-01
-5.924365038290124730e-02 -2.567802569499794477e-02 -8.077776745964941885e-01 6.642519384375059621e-01 -8.803122490446808890e-02 7.423071235841905979e-01
-2.375136182184370628e-02 1.395307069674627254e-01 -5.992976343598577227e-01 5.726695212532623147e-01 4.390475840598137003e-01 -6.923054516315756413e-01
-2.696166257862306348e-02 -1.225315502630908021e-01 -7.508465826067175497e-01 7.697254960921878775e-01 2.872897736905306032e-01 -5.700765269667564805e-01
-2.313883174040819168e-02 -1.926775380268442861e-01 -7.756696208641150614e-01 8.489477395634208445e-01 8.677559656657198028e-02 -5.213038761899564388e-01
9.172417365075105633e-02 -8.395076788493832654e-02 -6.458890473534575349e-01 1.868622137907251278e-03 6.630088987554217939e-01 -7.486091826997772758e-01
6.624879651030869676e-02 5.162477960328305804e-02 -5.120601643846173223e-01 6.491535102351098097e-01 5.071071059441331075e-01 -5.669586433333569930e-01
-1.310199762430308383e-02 -7.788965887588858439e-03 -6.799030038954653188e-01 -6.348303538235455790e-01 -3.722562540784987162e-01 6.770640318047593809e-01
-7.688558674461022646e-02 1.994105526302660525e-01 -6.479141804181196562e-01 -9.454098327087362419e-01 -1.924042237914522779e-01 2.630225520461091371e-01
5.988238376361269821e-02 1.345256214393422411e-01 -4.988749195212726639e-01 -4.250085515129682356e-01 9.897570088602535010e-02 8.997619361669889626e-01
2.043573559213897328e-02 -5.139904564670935705e-02 -6.561653665275766212e-01 6.848611798237501658e-01 3.710911861739935036e-01 -6.271016631411524545e-01
2.930776326788761196e-02 -1.411410268116595201e-01 -7.081993332827430931e-01 -3.496645891735662426e-01 -4.928134658851021088e-01 7.967870248193018590e-01
9.187365004990756534e-02 4.997358286834252539e-02 -4.960553908419517710e-01 -9.150102317081942882e-01 -4.034303926954524444e-01 4.405892753472603657e-04
4.209225595423589372e-02 -1.709471430740026054e-01 -7.197075982556165874e-01 -2.027225559976905400e-01 -4.436638110064013985e-01 8.729639099602225505e-01
-9.019737870864266011e-03 -6.782624381940478842e-02 -7.108135992705485462e-01 -2.266271027952626235e-02 -4.649617143858169599e-01 8.850406802617540869e-01
-1.720004239837441204e-02 -3.300103245483725772e-03 -6.778462663639586161e-01 6.507738454854880006e-01 3.530183146745151657e-01 -6.722138584828456498e-01
-4.399999252321102478e-02 -9.509643341763032720e-02 -7.671938690423284468e-01 -8.962547939451074308e-01 -2.273332807065718553e-01 3.808502642950376549e-01
2.264421173990065900e-02 -3.274327017872559475e-02 -6.460331271484099913e-01 -7.232855786440784973e-01 -4.280676494684505506e-01 5.418635060640790702e-01
-5.029770644970580490e-02 9.015606739684989268e-02 -6.587732743420705583e-01 -7.144378359187995020e-01 -4.395291173925424677e-01 5.444196300389940735e-01
7.414744421577199041e-02 -1.204942834612327852e-02 -5.756022091524065631e-01 -4.488808475896672867e-01 -7.091497191182939419e-01 5.437027317768661216e-01
7.576957457623083314e-02 1.629246413780554847e-01 -5.040605483730813408e-01 1.011082567669193688e-01 3.786512237519927826e-01 9.200002017199088167e-01
3.396740996381524252e-03 5.454393428675573946e-02 -6.267198774788209636e-01 -8.960665865667716279e-01 -2.325752016746409911e-01 3.781182989549363715e-01
2.085165317183675787e-02 -3.372135136096270080e-02 -6.491985307133849581e-01 -7.232855786440784973e-01 -4.280676494684505506e-01 5.418635060640790702e-01
5.469053593591677309e-02 1.783953106699017466e-01 -5.126036420833508522e-01 -4.257388578879727770e-01 3.025691722388025862e-01 8.527592397007318636e-01
1.005122425393178628e-02 1.798701176274373204e-01 -5.596229249559363517e-01 -5.484926858500542846e-01 -9.917366996201278095e-02 8.302531883439290272e-01
8.477077012614644969e-02 -5.062956682251409934e-02 -6.143723843141549734e-01 -3.549393570407530923e-02 -7.672860956899492102e-01 6.403219720493036338e-01
3.040293564686897057e-02 -1.104413427960225791e-01 -6.885446914770544380e-01 -4.680236289353320589e-01 -4.673634464279509126e-01 7.500168609445995171e-01
1.575264791994998928e-02 6.671474013864699126e-02 -5.912020370861178487e-01 8.844911178162878640e-01 2.722928652205733879e-01 -3.788562498548282975e-01
-7.520860542100772650e-02 2.648972998472418072e-02 -7.443271187274179690e-01 -8.839202444248747126e-01 -3.170366052150835334e-01 3.437626978739329320e-01
-7.809963661508667609e-02 2.966501603199726139e-02 -7.515009360920743564e-01 -9.348166054360380617e-01 -3.056581518710680956e-01 1.808065496485291579e-01
-5.986548413082679737e-02 7.145247729191059327e-02 -6.881209440927859022e-01 -7.491360199458497737e-01 -3.300404419507466658e-01 5.743418235655898263e-01
3.383679152861722439e-02 -6.058848996062055070e-02 -6.524134522197045927e-01 -5.265513787837833304e-01 -5.166958224122384369e-01 6.751067120112476116e-01
-1.124549290501795223e-02 -3.958631707677118944e-02 -6.908023346345602000e-01 7.607684580400690955e-01 2.272266532502939806e-01 -6.079468737513221699e-01
7.529927068536553664e-03 6.645590412307827988e-02 -6.132184676679930391e-01 -8.543637071982551623e-01 -2.679285079422977223e-01 4.452830228677804314e-01
-2.118623791805481632e-02 1.321003303189022260e-01 -6.020390204489930452e-01 5.743656897230976499e-01 4.764889529331871043e-01 -6.656292753489326808e-01
-5.551379973146253893e-02 4.792381459854112846e-02 -6.956901798393047009e-01 -7.416708319446915221e-01 -3.047217029739045513e-01 5.975525590097934270e-01
2.372647293242331756e-02 4.273826988877125338e-02 -5.879000378790780745e-01 8.823761972102178719e-01 2.553153461200939889e-01 -3.952547540921059754e-01
2.716120885939501614e-02 1.997292314122086354e-01 -5.424958478329462430e-01 6.954983465805930631e-01 -3.247326873348592158e-01 -6.409607879425557320e-01
1.514075071858631168e-02 1.203630003074745575e-01 -5.630786590523909618e-01 9.267646388397047241e-01 1.546652508230624279e-01 -3.423243555228738799e-01
-3.380591662479941889e-02 -1.547606207044954774e-01 -8.226457329613942049e-01 5.755114008032137241e-01 2.560080140191580700e-01 7.766894645245867590e-01
-8.470010155675941621e-02 7.122634435477034898e-02 -7.468948037831041331e-01 -9.923568690316209029e-01 -5.033769990741736311e-02 1.126674773561089082e-01
-5.613384875416791570e-02 -2.777470254327716465e-02 -8.077230777379726945e-01 -1.038512883128243081e-01 2.453221436849618575e-01 -9.638630378500784301e-01
1.396662399411329261e-02 1.410590369659046883e-01 -5.648895700380414109e-01 -9.255641839369348478e-01 -8.375022660459754964e-02 3.692111062208645600e-01
-2.393630534127362194e-02 2.020645786434841218e-01 -5.780245083217703250e-01 5.633779494865039927e-01 5.616190890423408688e-02 -8.242882542051748196e-01
-1.717373567819642857e-02 2.124043725864749599e-01 -5.748010442321460634e-01 -6.467583933918363837e-01 -8.923881179326334512e-02 7.574562792973185132e-01
-6.893918364620969796e-02 2.080230588470579345e-01 -6.263246958345416449e-01 8.187952690976501025e-01 1.540193549215934654e-01 -5.530391899430301406e-01
-5.769915376574077936e-02 1.507025109586990208e-01 -6.308451303945881161e-01 7.436052981573713083e-01 2.863910449059318686e-01 -6.041782269744379041e-01
1.315921453735918387e-02 -1.112534702202109677e-01 -6.991839325894032564e-01 6.345085656196958190e-01 3.466427600562329570e-01 -6.908239117574268562e-01
1.030257082357838583e-01 -1.780249933993074962e-02 -5.669708536896425066e-01 -2.030201697775244063e-01 7.815532467842590814e-01 -5.898790834607446909e-01
-5.930287219751496919e-02 6.461534251851389250e-03 -7.272697064182407356e-01 -7.740961488060026374e-01 -2.751333899803807825e-01 5.701550404246364945e-01
-6.162191798571250295e-02 1.326167158475478614e-01 -6.428848754053723136e-01 7.438252008428336559e-01 2.816778407265713713e-01 -6.061201734266353780e-01
-6.372780723716973961e-02 -2.119249711830602234e-02 -7.978848163637856095e-01 -8.954135615971613449e-01 -3.555927927979660175e-02 -4.438131266253716456e-01
7.970956990116014051e-02 1.453218271948487905e-01 -4.936884077356177847e-01 -2.568035420042666939e-01 -5.199885609421257548e-01 -8.146556556628081758e-01
-3.777228881942749916e-02 -9.488068297919202698e-02 -8.251188873446603234e-01 -7.876767951485518227e-01 -1.373675521163960668e-02 -6.159355225514777654e-01
4.450738487125489168e-02 -7.751865172696270623e-02 -6.610257112160273785e-01 -4.244889781502773074e-01 -5.626382456164916723e-01 7.093992613461970187e-01
-5.667641324686185922e-02 5.269350421859873845e-02 -6.910992872207122328e-01 7.324675138717381406e-01 3.176077466550282780e-01 -6.021766023246591937e-01
3.053780997953511531e-02 4.655313336001039998e-02 -5.698360899878003316e-01 8.838811243052143718e-01 2.893149728115845254e-01 -3.674928633374837106e-01
1.304332754409812285e-02 -2.156034831237218230e-01 -7.474576334544230649e-01 -3.664817688346280189e-01 -3.489732218638253447e-01 8.625014803081927361e-01
-3.745712459000596212e-02 -1.122148428349369759e-01 -7.647732347537200548e-01 -8.322226645353054675e-01 -3.045272337286515918e-01 4.633234297457141104e-01
-1.590436660912915995e-02 1.200501326245714401e-01 -6.060920647020157093e-01 5.551016383676757870e-01 4.657104940762534784e-01 -6.891849583303266691e-01
7.711415277681842040e-03 -1.295425079343267075e-02 -6.541291879794042252e-01 -8.165582798138950604e-01 -2.661640043432244029e-01 5.122394932639936505e-01
8.493210311538455792e-02 -3.290724017262201123e-02 -5.941967787433090065e-01 -2.241410233004314523e-01 -7.475651927754832782e-01 6.252256266536025953e-01
-7.640629358422906803e-02 4.506598107213134752e-02 -7.353263836507712981e-01 -8.907625068801917623e-01 -2.381556175879831760e-01 3.870711280214562122e-01
1.304042556957662330e-02 -1.143499612128231618e-01 -7.037022868083511185e-01 -6.135336581734124328e-01 -3.375586241983267177e-01 7.138841821455937930e-01
7.308711796410484463e-02 1.228262894534553479e-01 -4.875167332946623300e-01 4.657847794827824628e-01 -2.113465385517216133e-01 -8.592887639463124838e-01
-2.178249672840424506e-02 1.403109558556339398e-01 -5.972434289298481636e-01 5.291796147709114662e-01 4.408598318944325078e-01 -7.249907198943462694e-01
3.038890491445940534e-02 1.127799100028944040e-01 -5.303057790867959920e-01 8.444811917841902327e-01 2.445543759153344099e-01 -4.764920502415703196e-01
-6.707061773129247007e-02 -2.065855447517548488e-02 -7.886853841404600773e-01 -9.721384198893873174e-01 -2.198140517247367531e-01 -8.141667666590099439e-02
5.180218756735302521e-02 7.765612209815801747e-03 -5.792800390924343068e-01 -6.881151004579634245e-01 -4.577743574897920609e-01 5.629744631389019816e-01
3.878978835761409671e-03 7.637572987510034273e-02 -6.162316628459008072e-01 -9.592945029367110354e-01 -1.392797421519069989e-01 2.456729738117458539e-01
7.086692154049409331e-02 5.844878699092110469e-02 -5.013290591876198299e-01 6.248206895043122433e-01 4.413548327964943452e-01 -6.440535828132116780e-01
-3.976458875368866358e-02 6.700960560816413003e-02 -6.602787151658231490e-01 6.702287902537528153e-01 4.199666322505256066e-01 -6.118998255524695784e-01
6.937251616865840187e-02 1.141471777968446899e-01 -4.910231341305190123e-01 -5.748162993146320732e-01 5.190060554869713877e-02 8.166348934413162342e-01
-3.297933438817978596e-02 -1.487540275154692337e-01 -7.781041974228343205e-01 -8.803466520807663453e-01 -2.209687880903127843e-01 4.197172463219547844e-01
1.073439820602339369e-02 4.115782850330135245e-02 -6.144726846878781901e-01 8.638770465895320161e-01 2.382181797021010738e-01 -4.438113870048457921e-01
6.959583481412137673e-02 8.881323907180597999e-02 -4.894495781345838403e-01 6.725413235888109131e-01 1.429222883194334326e-01 -7.261276661627398266e-01
-6.996809165298016608e-02 1.643317533967922628e-01 -6.459729527281077299e-01 -8.258684145157658696e-01 -1.444699812023940710e-01 5.450410869251925972e-01
7.688098641096621777e-02 1.271712547394797665e-01 -4.897259772165964975e-01 -3.837985880287043683e-01 2.293946758972426059e-01 8.944700813873944778e-01
-2.597669975794047667e-02 -6.120695008201997023e-02 -7.182612842864914970e-01 6.440117055731334750e-01 3.317728176128195150e-01 -6.893299069226828113e-01
1.621974326147665804e-02 9.454306156631384073e-02 -5.778279422197484250e-01 -9.060870609992234259e-01 -2.121502146504883335e-01 3.660580887148119911e-01
4.650518531111423604e-02 2.206918595785369031e-02 -5.699540240171107053e-01 -6.953659044436645287e-01 -5.430885877858592226e-01 4.706602221921941664e-01
5.499197698206251261e-02 -1.194076602228472950e-01 -6.803846349507622904e-01 1.985572597809518725e-01 6.021122666676415047e-01 -7.733277655151370444e-01
-2.728653053067910464e-02 3.408882507350182584e-02 -6.687137297372370837e-01 7.005349981494156664e-01 3.206337397759567720e-01 -6.375301728428877102e-01
2.479960447926840908e-02 1.363156929060300726e-01 -5.329424646651281794e-01 9.052882458695693524e-01 8.674661107498556067e-02 -4.158463867312099937e-01
-5.282415873121014405e-02 2.662114652286595370e-02 -7.037758445506547833e-01 -7.508154807255406071e-01 -3.383618234295121541e-01 5.672630697906669850e-01
6.811796537910598526e-02 -7.183131110989957047e-02 -6.407238742979951551e-01 3.039807539369455136e-01 6.172765300788913834e-01 -7.256482527021544948e-01
2.993342709787499140e-02 2.560826553822777296e-02 -5.921759421241098442e-01 -8.010277530456285655e-01 -3.778471943813686562e-01 4.643124341957686751e-01
1.871929570923872369e-02 8.404767038708541027e-02 -5.776343021439847014e-01 -9.084232441833597349e-01 -2.090998309711720460e-01 3.620006493298146832e-01
-2.499770454697958916e-02 -2.884088227485439096e-02 -7.042770049558697565e-01 -6.451061434301138542e-01 -3.449209061840058932e-01 6.818120211509397510e-01
3.961512228573292604e-02 1.149337206125401328e-01 -5.149800420264382117e-01 7.622223062353205014e-01 2.447986231759239628e-01 -5.992418459757973270e-01
6.291576408680417398e-02 2.372048624879899079e-02 -5.479418132860759405e-01 -5.437870388866077320e-01 -6.500685170643855093e-01 5.307603785708252531e-01
-6.996770924162790117e-02 1.038017407523589286e-01 -6.804355211682665550e-01 -8.535282201516047884e-01 -3.671440311535311696e-01 3.697226498243902926e-01
-5.966075869693348438e-02 -2.094237141255183426e-02 -7.387253579478983978e-01 8.148461912590413414e-01 2.967229070686240866e-01 -4.979771089230694558e-01
-3.100611241407203941e-02 1.962949928591053717e-01 -5.837878637158621098e-01 6.440621361912181042e-01 2.085882387146618250e-02 -7.646887433403894985e-01
-8.286728418144623243e-02 1.029453085474245078e-01 -7.412056021398455430e-01 -9.030733385656382062e-01 2.568687447186189798e-01 -3.442048709106152460e-01
4.545450909452623117e-02 -5.359258417532681423e-02 -6.378995970405727522e-01 -5.042815322049560844e-01 -5.563980605593009665e-01 6.603948322654183967e-01
1.400970831283278838e-03 -1.701508857330723268e-01 -7.399275313761588535e-01 -6.070640742637716247e-01 -2.696245324899202433e-01 7.475130910009950558e-01
9.037891346046477217e-03 9.561603199037334300e-02 -5.885079081434323456e-01 8.760337650718635905e-01 2.391080588674201757e-01 -4.187984940740228645e-01
-1.315144616673365012e-02 -6.750381613205343190e-02 -7.083934784761086734e-01 8.645540796910569092e-01 2.174045729649956016e-01 -4.530800094281998147e-01
6.068941760425543980e-02 1.415676601765960274e-01 -4.967682817733196643e-01 3.873831424357203068e-01 -1.161839126164175284e-01 -9.145685318256729923e-01
4.512253692266240956e-02 1.522522008249121983e-01 -5.109932454258186985e-01 -6.215319804719192653e-01 7.762319454149631259e-02 7.795336021749330602e-01
2.667042930112699731e-02 -4.361756111595888746e-02 -6.476906990023301169e-01 -7.277109648831194821e-01 -3.309129140801477242e-01 6.007773255407230506e-01
5.029368862991414474e-02 1.321429499992045342e-01 -5.022490341173885264e-01 6.319983831886488712e-01 -1.988233206770158995e-02 -7.747146161771335526e-01
1.839800477080648020e-02 1.671160394503522773e-01 -5.508959782422814255e-01 -9.031956519848221010e-01 5.498301463336800927e-03 4.291938756747705197e-01
-7.085076359033647131e-02 -1.330091497350010220e-02 -7.838130686397654090e-01 9.782056851686762311e-01 1.624610042550101441e-01 1.293060694636348484e-01
-8.809522528543943173e-03 -2.463975931571889544e-01 -7.723961273528020532e-01 -8.361645053282096285e-01 -1.514479963270106422e-01 5.271550288461303024e-01
2.959123999950635797e-02 -2.845410175911724029e-02 -6.302391349793240449e-01 6.855519080984370239e-01 4.754019357621298014e-01 -5.513724519562180904e-01
1.550347813667465706e-02 1.177749965329703830e-01 -5.691561000407522330e-01 -9.074500554747336745e-01 -1.765929287918562851e-01 3.812470777850200387e-01
-7.402654219178586570e-02 1.404834939125502169e-01 -6.603090069468239287e-01 -8.593939967280603831e-01 -1.718260887962908545e-01 4.815783981832446048e-01
-7.436143603985390094e-02 1.643834282691401250e-01 -6.529897176879667642e-01 -8.728663904475237878e-01 -7.881785170987784528e-02 4.815516697914674626e-01
3.819764471305891335e-02 -7.696385887162934814e-02 -6.639123679256010435e-01 -3.580346108800773197e-01 -6.436330810232903099e-01 6.764227039539836284e-01
-4.335277691199139471e-02 8.501458440401111344e-03 -7.032864855168745599e-01 -7.226276454991422682e-01 -4.022961550996979052e-01 5.621094996104991637e-01
3.529280756033001485e-03 -1.477829764523392875e-01 -7.281144859028816363e-01 -7.300968567204203508e-01 -2.465582044376384285e-01 6.373128208591520849e-01
9.020289787888641220e-02 -7.996059743622979665e-02 -6.422896701624656313e-01 2.454365106274953440e-02 6.683588046488044832e-01 -7.434340034198942959e-01
-8.494987384615253212e-02 1.102568874503019047e-01 -7.077214407358847215e-01 9.847278106686636612e-01 9.270784108193702577e-02 -1.473648367068171594e-01
-6.858672555405467830e-02 9.984673285925451183e-03 -7.950743865246389097e-01 7.237215527494211820e-01 -5.286658111075618477e-02 6.880641239649301077e-01
-1.731204823391582770e-02 -1.918707657943148903e-01 -7.675620472428732466e-01 7.772680315806905771e-01 7.320696320591127404e-02 -6.248961094620825163e-01
