-2.277475105242177458e-02 3.455096552732495052e-02 -7.050220897628564076e-01 -7.404604520367152887e-01 -2.869413734609642663e-01 6.077688435301029646e-01
-4.159346796904768440e-02 2.216805624671233932e-01 -6.361710766848797105e-01 7.942917098807037446e-01 3.672353661122293444e-02 -6.064256438126214288e-01
-3.324533650035767923e-02 -8.467748282343817712e-02 -7.853178609603790328e-01 -9.096779768473799432e-01 -2.622521808039874336e-01 3.220400163060647691e-01
-6.919037818969495102e-02 1.089395758612176218e-01 -7.755117378442494269e-01 -8.871208358757228796e-01 2.443240568585161310e-01 -3.915640149392630165e-01
1.681982693029158288e-02 1.322716583014668101e-01 -5.754146432921233290e-01 -9.620929578821753037e-01 -6.614378358607482522e-02 2.645791758367339597e-01
-5.889852793118533630e-03 9.527390268420893316e-02 -6.477289417645217817e-01 -7.110669598847039197e-01 -3.079898801473340275e-01 6.320807007709979830e-01
-3.733214858769928757e-02 -7.315632164141910865e-02 -8.532688674610673374e-01 7.549832031804974974e-01 -4.286056364475369918e-02 6.543419098601048756e-01
-4.159212581936470171e-02 -8.354734832178922765e-02 -8.075727485427586227e-01 -9.466443928345091852e-01 -1.423389007578192977e-01 2.891436162982663483e-01
-2.303398616989450060e-02 -1.234074714213878043e-01 -8.608763587311795140e-01 -9.616960212114339379e-01 -2.841683269578523449e-02 -2.726412412046961276e-01
-2.348893132800326453e-02 -8.537976802100093188e-02 -7.635296457272359172e-01 7.276046296821419013e-01 3.212259361022858917e-01 -6.061397535555009819e-01
-3.121490815579745434e-02 1.335200194976575994e-01 -6.544886562473396507e-01 -7.679686624858194088e-01 -4.204273894416269419e-01 4.831821019522971605e-01
-6.057281789004811956e-02 1.631176410519483977e-01 -6.835357795103711442e-01 -8.869730519098898425e-01 -9.150766805327002762e-02 4.526645025547164636e-01
4.874941163483839657e-02 3.494061930962574086e-02 -5.543411320102158424e-01 7.186250276669156056e-01 4.936055368908868757e-01 -4.898281775902486590e-01
5.033017604892132263e-02 1.193172603527657694e-02 -5.804261857293120386e-01 6.563951867463475587e-01 5.795233772970831421e-01 -4.830093311545960999e-01
-2.490480244871857290e-02 1.398561642118193449e-01 -6.403084381277602821e-01 -7.113860067272795851e-01 -4.142083143865297190e-01 5.677688101029191303e-01
8.065118677106011824e-02 -8.234078690937504663e-02 -6.612627223174046831e-01 1.447255699894563763e-01 6.613813347116069830e-01 -7.359546449926928080e-01
6.231069768964009326e-03 8.330402112814593030e-02 -6.263673097862114680e-01 9.399448268875993939e-01 1.620243009372086818e-01 -3.004194539523861174e-01
2.227614684959956445e-02 -2.028465459251854175e-01 -7.620204140727649955e-01 3.532336323250330756e-01 4.416063913949546116e-01 -8.247483228680065892e-01
6.111366001676370868e-02 2.542094613765907146e-02 -5.536343416844295984e-01 -5.937468453814912506e-01 -6.154871690335421697e-01 5.183051498437998283e-01
-4.485312011142961186e-02 -4.580950610260522970e-02 -7.758199302818855614e-01 8.928718007489021558e-01 2.255105667797024371e-01 -3.897754888369847626e-01
-1.169934035234472189e-02 -2.580093355428456636e-01 -8.246796503940562184e-01 -9.617532013119282075e-01 6.588096202270744828e-02 2.658768109655679224e-01
7.361923836576532432e-02 -1.148391853547270358e-01 -6.909839205852273958e-01 1.617607734844208889e-01 6.080772506468040683e-01 -7.772229470412886920e-01
2.184039374079911611e-03 -6.205393657412425212e-02 -7.172270389419479475e-01 -8.667125767820400561e-01 -2.376095587496565298e-01 4.385783930366726757e-01
-3.640597701725364899e-02 6.691770027086663131e-02 -6.978611312422989821e-01 7.844023640610705561e-01 3.874814619508272218e-01 -4.843253533523236842e-01
5.742559760326466228e-02 -1.667606679618512389e-01 -7.345292527436659835e-01 1.257453292165036304e-02 5.505173151428679468e-01 -8.347290379816020289e-01
1.947344394319228122e-02 -1.219508949800959946e-01 -7.279162832190010368e-01 -6.102278505137617159e-01 -4.110944573993012829e-01 6.772173340611774561e-01
-9.364931595461463074e-03 -8.933348665122163579e-02 -7.436352629437853468e-01 8.725064454628749244e-01 2.067617433893280676e-01 -4.426986380104924734e-01
-6.815913721509971046e-02 1.151419965069032519e-01 -7.739779778555591072e-01 -8.871208358757228796e-01 2.443240568585161310e-01 -3.915640149392630165e-01
-1.308606994978338094e-02 1.552458032709136924e-02 -7.018653983834327592e-01 -7.285592160512349702e-01 -2.785268023524967718e-01 6.257989206431272544e-01
5.109146407445275956e-02 -1.764162082557213518e-02 -6.111082423519121898e-01 6.384564041587776906e-01 5.665890246720621803e-01 -5.209129458074592822e-01
2.704152192209954841e-02 8.103550406909379444e-02 -5.654524457317195996e-01 -9.067392218060909004e-01 -1.948373528479924732e-01 3.739818038002274414e-01
-1.096317238351152135e-02 -9.926171573712193330e-02 -7.513342089667770507e-01 8.459618411226796919e-01 2.117568270386013529e-01 -4.893951466523446259e-01
-2.872414854264426082e-02 -1.438426922982669054e-01 -8.081547522460909017e-01 -9.305892250989509229e-01 -1.739386192577592749e-01 3.221009948144192836e-01
6.759156359215535981e-02 -6.477309578389117695e-02 -6.481111375911705608e-01 2.599427357500950220e-01 7.721228990606601172e-01 -5.798758512620764138e-01
6.932506376492330105e-03 -7.519124601849702660e-02 -7.127262534856556586e-01 8.003062156320024378e-01 3.328993718182984285e-01 -4.986862435076438449e-01
7.603052062121161414e-02 6.767846008333125093e-03 -5.578405219849298380e-01 4.861908032128772206e-01 6.574472053874459432e-01 -5.756576022250161628e-01
7.199567488206710941e-02 5.381985435574104804e-02 -5.137991858691560720e-01 -5.419234953693913281e-01 -5.980430878995945942e-01 5.904772562784609269e-01
-3.925337042186012593e-02 -1.106428519625541826e-03 -7.444593309655537228e-01 7.899451575722292729e-01 2.693393458328399159e-01 -5.508565737236179594e-01
-3.757041420116671165e-02 -8.865423205778166782e-02 -7.930817198054810335e-01 8.779150647336597668e-01 2.005658928891193016e-01 -4.347855353197533357e-01
9.829423032716963146e-03 6.299373832587926159e-02 -6.352061145082888993e-01 -9.066704289914822024e-01 -2.510556259691169023e-01 3.389982387294315780e-01
-1.834188607035740562e-02 -2.137836401558718402e-01 -8.048068914408212926e-01 9.561710517577099999e-01 2.717197319280131862e-02 -2.915452000177064518e-01
1.051676665684468936e-01 -7.278071130592253524e-02 -6.553709059436299000e-01 -8.328808906874247686e-01 3.303325448261673625e-01 -4.440606172093964910e-01
-1.284090141335425539e-02 -1.603238427752627093e-01 -7.790317413215062103e-01 7.943654985005895730e-01 2.289626306961347613e-01 -5.626362666382389577e-01
1.037764912947677573e-02 9.526610865698496855e-02 -6.064449119398716004e-01 9.549254733828372865e-01 1.663994224113786446e-01 -2.458222376143458510e-01
-3.847050732271150436e-02 1.797037403061762240e-01 -6.325600532114789010e-01 8.253337940837791598e-01 1.933760351888732798e-01 -5.304996110817669086e-01
-6.860646720659939468e-02 1.154819472322239637e-01 -7.368237612485651900e-01 -9.459656052971928686e-01 -1.692202902511688867e-01 2.766108583588607894e-01
5.222698011971427245e-02 -1.776385746869127702e-01 -7.442576803667617646e-01 -3.813626307842059304e-02 -5.608808703915143523e-01 8.270176991257628396e-01
-2.674512067728128731e-02 -1.227852393889951842e-02 -7.352011671013725103e-01 -7.923026420097766254e-01 -3.404408503657802565e-01 5.063166507893576140e-01
-3.414170516889530882e-02 -1.374218497267662431e-01 -8.160774011399599681e-01 9.578373164906019976e-01 1.648736562005140849e-01 -2.352963081502925380e-01
1.399334600279932006e-02 1.275433445053467951e-01 -5.879574994914836816e-01 -9.712634706733450640e-01 -4.085015241685272663e-02 2.344750212348603868e-01
-3.830314623866622192e-02 -9.136276850487384804e-02 -7.959490314145279966e-01 9.081735152540186817e-01 1.754903786668252641e-01 -3.800315686709898055e-01
-4.496306759344401854e-02 -4.819878613642870208e-02 -7.775815220114448145e-01 8.924618252057217038e-01 2.460642512475899324e-01 -3.781061686992623350e-01
4.381585384298065065e-03 1.324278075949337219e-01 -6.157517319911709475e-01 -6.711353607869695592e-01 -3.560013268751748838e-01 6.502617801812274889e-01
-5.107246943367083764e-02 8.868401085394389538e-02 -7.050790757118676755e-01 8.194457865464398472e-01 3.827340655089475630e-01 -4.266418146528530575e-01
1.363614372504420857e-02 -1.422703239144323395e-01 -7.434269857457250774e-01 -6.001615344306283628e-01 -3.191393264000843000e-01 7.334549903946213645e-01
6.619382115473948502e-02 -3.122672219743602776e-02 -6.146909021303647025e-01 -4.642396513921336898e-01 -6.465725170375595798e-01 6.053309229562165994e-01
3.220740315948690535e-03 -2.904522908420725108e-02 -6.939695498930427142e-01 8.391520645660995870e-01 3.179524652407719199e-01 -4.412822706406506201e-01
-2.481340083440258110e-02 -1.043826443969412543e-01 -8.611046805034406892e-01 -8.802536197227066594e-01 -5.778760647473978745e-02 4.709715039182237328e-01
2.296315748247835381e-02 1.451360066813202343e-01 -5.568598908643457301e-01 -9.105352309986779469e-01 1.363988031297640874e-02 4.132064215077397851e-01
3.613509045166408279e-02 1.634184170097621215e-03 -6.189596961954768606e-01 -8.184435431052835552e-01 -3.229179354755840614e-01 4.752622157267041292e-01
2.517291419119313100e-03 3.657739301885241240e-02 -6.595432448762861277e-01 9.082125402942096137e-01 1.765131606370206330e-01 -3.794642088185234408e-01
-7.118550696430279989e-02 7.854783419455894922e-02 -7.625292038163862252e-01 9.755149818561883457e-01 1.008003816056388391e-01 -1.954732801235970208e-01
-3.878812116339810934e-02 1.136251450148787756e-01 -6.735262624866887871e-01 -7.065124986184126987e-01 -3.411325815471002998e-01 6.200553613210507686e-01
-3.319055695020402263e-02 -2.509508261273639754e-02 -7.463704481553319336e-01 7.759248699369329927e-01 2.157573050932177217e-01 -5.927810569782623329e-01
1.443267625949059760e-02 7.039940070004664652e-02 -6.081793595253971452e-01 9.517219264714532612e-01 2.025234432737723633e-01 -2.306721257499509126e-01
-7.089856809967536033e-02 1.501988269471845605e-01 -7.206091095266102808e-01 -9.959061559391823026e-01 -7.381370345924363752e-02 5.217725312885148486e-02
3.349761117022808515e-02 1.305766713663223354e-02 -6.068774004177230896e-01 7.490910643303827499e-01 5.031161988933054996e-01 -4.309717714091332308e-01
-5.086824079262608489e-02 6.525051047644739310e-02 -7.278218630345497653e-01 -8.251691855914995433e-01 -2.811758166679008131e-01 4.899346642884136460e-01
2.189178970497318577e-02 -1.625662977121775099e-01 -7.491086756836424776e-01 -4.270923827772059589e-01 -4.466006367494912421e-01 7.862187786034099402e-01
-1.078338624004105718e-02 -9.486435157856243361e-02 -7.491207336066342259e-01 8.459618411226796919e-01 2.117568270386013529e-01 -4.893951466523446259e-01
-4.280331131158739838e-02 -5.425238996014538490e-02 -8.442109974900817715e-01 -8.940946708087608163e-01 -2.265076178970316934e-02 -4.473048877686451874e-01
-1.564513999158292923e-02 1.222450308433182947e-01 -6.423781135885170412e-01 -6.673942706985308559e-01 -4.361087784605875428e-01 6.036505783881848108e-01
9.978534528172315621e-04 7.245398617399473329e-02 -6.540816270335174654e-01 -6.015096532013330943e-01 -3.898912774711844054e-01 6.972595849879009711e-01
5.297770198215576848e-02 -4.729870715017076011e-02 -6.421857694463397603e-01 -5.340776878077606593e-01 -5.942239933919981620e-01 6.013808020407557242e-01
3.176389427178057806e-02 1.090583272217104521e-01 -5.406946015113945903e-01 8.517056014184695156e-01 1.271018295959132349e-01 -5.083725931103828533e-01
-4.769338417345424415e-03 -2.267884157571440351e-01 -7.901998351183056046e-01 -7.443326759581975205e-01 -1.417871606045960076e-01 6.525835338013022957e-01
3.843674592353258507e-02 2.521518904861327556e-02 -5.873385078519026692e-01 -7.631478779818572367e-01 -5.047195349321477176e-01 4.035635109740037807e-01
-6.335155706328444991e-02 1.953291608847662064e-01 -6.765522435042159444e-01 9.044806959896025678e-01 1.273733263938967852e-01 -4.070512330229673625e-01
3.615347340563941636e-02 1.779092650702611689e-01 -5.458942656454685016e-01 6.614164878979823525e-01 -3.450277823126654542e-01 -6.659459880268838727e-01
2.389885668621322470e-02 -1.971907413238237761e-01 -7.583188902790417574e-01 2.881435781860104961e-01 4.530532736121667958e-01 -8.436326271662694110e-01
-8.522385025616250817e-03 4.522849562127934098e-02 -6.751803739826737205e-01 7.520844828714980945e-01 3.421737768911113364e-01 -5.632814900491435184e-01
1.949527271120862423e-02 1.494506206587083164e-01 -5.598023691347369102e-01 9.299840149414551060e-01 -4.171893377104544075e-03 -3.675762876723983053e-01
1.661984918396409300e-03 5.055189328152819711e-02 -6.642052162294129758e-01 -9.714878188808456771e-01 -2.993394611996903765e-02 2.351922121070854632e-01
-6.551360589621008090e-02 3.290836440300367455e-02 -8.091522246752885783e-01 -9.807278847883544870e-01 -1.157177082368081311e-01 -1.574237212080222270e-01
-1.234592168971231606e-03 6.449456423203936417e-02 -6.525351255736780987e-01 8.065726978002046854e-01 2.726359353409315012e-01 -5.245094183368635976e-01
-3.004354777054634926e-02 7.672758340625652693e-03 -7.274692884064323239e-01 -7.854802603997281807e-01 -3.286295744364168825e-01 5.244266996712836360e-01
5.723203043613988433e-02 2.947141693350827096e-02 -5.532593316914294901e-01 -5.939857852355828749e-01 -6.172815152513224657e-01 5.158918664479014149e-01
-4.075423263674161217e-02 -1.056547218651016778e-01 -8.375961186341248643e-01 9.704925040447773821e-01 2.106036832789557889e-01 1.174324835053534022e-01
-6.806235850825859308e-03 2.728443101032392362e-02 -6.825871950756163820e-01 9.242531378895245675e-01 1.630553364627101709e-01 -3.452087692287089671e-01
-1.670854324289704207e-02 -3.008821117572000325e-01 -8.404612835166813678e-01 -6.864450597349659455e-01 -3.043042139594411832e-01 6.604484274581823300e-01
-2.376064032417307334e-02 -1.832690431970185885e-01 -8.090180030311155956e-01 8.912915397803330420e-01 9.610868587380935746e-02 -4.431280984270941081e-01
-7.102330375712784249e-02 8.254603307491160946e-02 -7.794267156066807534e-01 -9.994779050042980062e-01 -3.220613310870870660e-02 -2.585033540157901516e-03
-5.895180885398333681e-02 7.853007432903369792e-03 -7.825557454296622195e-01 -9.424868834589269495e-01 -2.027955921580803789e-01 2.656923452211837344e-01
3.403520282526137364e-02 5.781605036564469585e-02 -5.644592906391496800e-01 -8.440513029038569925e-01 -3.352294870105108071e-01 4.185673053464300519e-01
-3.417752506940448937e-02 8.965877279834505442e-02 -6.797332528769800541e-01 6.806016908707084312e-01 3.650167783481382822e-01 -6.352512022092352550e-01
-2.929823034384878861e-03 -1.191955295837796858e-01 -7.544579248185513398e-01 -9.042613235873160349e-01 -1.425227575946590997e-01 4.024906486264366867e-01
-2.366706275256124856e-02 7.509092997204939481e-03 -7.188258299128751361e-01 -7.437207441396920249e-01 -3.043120044732275931e-01 5.952089201866762602e-01
6.389880962713114648e-03 2.041596506698225011e-01 -5.885971752851343330e-01 4.919207797117094993e-01 -2.642780558925941423e-02 -8.702387704415153191e-01
-1.567585368866061465e-02 -1.533284467126963257e-01 -7.889571661510959011e-01 -7.052154788926363604e-01 -2.758147643172074170e-01 6.531441985617518764e-01
2.833045264061453614e-02 -7.506341634635506355e-02 -6.872964253917218658e-01 5.585801716358439473e-01 5.377925694171080684e-01 -6.314802800840387809e-01
-6.260306268791800653e-03 -1.887106561205458555e-01 -7.912977178897577790e-01 -9.951590782286883208e-01 -1.893533520432576917e-02 9.643579262767180971e-02
5.339491010224533402e-02 7.048754758868176762e-02 -5.202599477512069859e-01 7.543927565321711937e-01 2.862843811421704188e-01 -5.907053597233030695e-01
9.550131075924754229e-03 3.255932377900119107e-02 -6.439548976730314900e-01 9.032847788669323696e-01 1.955062629247720507e-01 -3.819082473900076158e-01
4.372714985753243383e-02 -1.395905418743842163e-01 -7.231295046297983031e-01 -3.885587012357300529e-01 -5.588034069061071918e-01 7.326396714102577645e-01
-6.241521663196171466e-02 1.145178840340416448e-01 -7.136567873225883041e-01 -9.008990347298914125e-01 -3.355091346859038204e-01 2.753444202540994423e-01
-6.978118229221731694e-02 8.077619364034324678e-02 -8.024562946113581452e-01 9.000281569459979147e-01 -2.954907993380850861e-01 3.203662032907495516e-01
-3.327732454681298774e-02 -6.106465612595616405e-02 -7.675075654721977836e-01 -7.880350897497661045e-01 -2.632710366348821607e-01 5.564971326002254859e-01
-5.515264698937311777e-02 -2.002841294026028868e-02 -8.190639570718811768e-01 -9.739081046684155973e-01 -1.581395809293598131e-01 -1.627724688166308775e-01
-9.205762787150267856e-03 1.062178196561519572e-01 -6.422086706377512222e-01 7.169187653375843627e-01 3.533209956055898271e-01 -6.009923110748661701e-01
-2.335990830501324250e-02 -1.222546665951960432e-01 -7.822036542574177798e-01 7.956169720848944582e-01 2.239859013255533216e-01 -5.628711661986639525e-01
7.819511395765714468e-02 1.379264037702132226e-02 -5.481375339362110077e-01 4.080954599188861276e-01 6.801113022731644087e-01 -6.090211097440657584e-01
-7.347027686527149437e-02 1.013167338144516233e-01 -7.678547276378901998e-01 9.989966351085273200e-01 -3.584110042854189715e-02 2.685402319785899425e-02
-4.390917977942725148e-02 -7.492227141221098619e-02 -8.381569872074415839e-01 -9.570642210211552925e-01 -1.299104972513277501e-01 -2.591357550495145268e-01
3.169738688455137066e-02 -3.459439889334925411e-02 -6.507337090047961015e-01 7.236965287856874651e-01 4.797091634396815074e-01 -4.961274561395968008e-01
-3.626940224685107350e-02 -8.136493857821069930e-02 -7.911380142386165160e-01 -9.080788010119880127e-01 -2.625294412490159490e-01 3.262992240721845905e-01
-3.958892074759268881e-02 2.190841710717381929e-01 -6.370369522805716667e-01 -7.985106958801624355e-01 4.565781192721696247e-02 6.002466432850730449e-01
2.183270690481969173e-02 5.164040818296822266e-02 -5.963819731331539975e-01 9.357825655262003162e-01 2.074597762674760260e-01 -2.850814467625905624e-01
-7.105130105999803158e-02 4.649955110613605141e-02 -8.014213762937435481e-01 9.855286608711245622e-01 1.365884816401002622e-01 1.003834910969935018e-01
1.654755332051072864e-02 1.375139608155925564e-01 -5.759062775728512884e-01 -9.747188180004842106e-01 6.833221132562363430e-03 2.233305463314249895e-01
9.966670840951073057e-03 1.050928176585747970e-01 -6.034125578760997088e-01 9.616734908478731247e-01 8.042668085369047981e-02 -2.621366933630708829e-01
-9.879884562791338073e-03 -2.455940229115682327e-01 -8.183834021320577357e-01 -9.835586799529670854e-01 9.708557186680040821e-03 1.803276656714939141e-01
-6.077392869022355676e-02 1.026167454066105253e-02 -7.871808578780253862e-01 -9.424868834589269495e-01 -2.027955921580803789e-01 2.656923452211837344e-01
-3.078689459696696759e-02 5.552962645714678430e-02 -7.019846872635625568e-01 -7.748361311481003488e-01 -3.997691904773493787e-01 4.897076313603134223e-01
4.330588847509740137e-03 1.750191425460466133e-01 -5.958786965932273416e-01 -7.229315978269681420e-01 -2.270346553743478046e-01 6.525528102172254430e-01
7.540733912765294755e-02 -1.552369309484796234e-01 -7.279702409798161078e-01 6.514853338489795531e-02 -6.304287528096385040e-01 7.735084073419502548e-01
-4.773860781435763923e-02 -5.737185685057283324e-02 -7.989207862262778237e-01 9.404425750821743257e-01 2.844046929946577040e-01 -1.862303239953777001e-01
-2.318163653155100312e-02 1.761088217557130464e-01 -6.163075155261652505e-01 7.025215243514429941e-01 2.237556520127091664e-01 -6.755715476655989038e-01
4.280606135526067967e-03 1.174950425765406842e-01 -6.160737584432722791e-01 8.846444423010273450e-01 1.619888522627314642e-01 -4.372228521572351090e-01
-6.245968159733500912e-03 -1.317551490468615027e-01 -7.738989140662629884e-01 -6.452087518201037319e-01 -2.908352008518618748e-01 7.064846442210909183e-01
-4.713483911316885405e-02 -3.225023012744849399e-02 -7.772972913593604316e-01 -8.811489244604331361e-01 -2.437264643703372091e-01 4.051838884849159883e-01
-5.771139284071739178e-02 -1.557809086073704691e-02 -7.887681051017737532e-01 9.419422555950610620e-01 2.151142847042242789e-01 -2.578189900699301429e-01
-5.553357112018435238e-02 -3.255416281358482905e-02 -7.987158735361912232e-01 9.660869281491351046e-01 2.368786641698025219e-01 -1.027839759909001532e-01
-4.768321805807830029e-03 8.740946007373273652e-02 -6.468634422395707073e-01 7.571703207974502803e-01 3.154317075230239631e-01 -5.720104397583981592e-01
1.270764689113083401e-03 3.968322094447658543e-02 -6.698578065764577705e-01 -9.880662232971136882e-01 -4.326389438387534536e-02 1.478288666740009694e-01
-6.351954432389772531e-02 1.549532602748786292e-01 -6.915503086446287417e-01 -9.045951944505192799e-01 -1.062815570685283484e-01 4.128095987305972492e-01
-2.567906302722921738e-02 -1.455986584479970203e-01 -7.976612830985273517e-01 8.583676693229406185e-01 1.829410919604777808e-01 -4.793094002139024479e-01
-5.175586665135244874e-03 7.059821057133842948e-02 -6.611953967339044835e-01 -6.920089860146221294e-01 -3.333140584525196570e-01 6.403321807569294366e-01
-2.621017809211326210e-02 -1.421591412009516608e-01 -7.972776314834136846e-01 8.573625301269830468e-01 1.859550772281793607e-01 -4.799481234334810331e-01
-5.472461966790823779e-02 -3.521987831843491346e-02 -8.192044994466946006e-01 9.866141293201188267e-01 1.584695902516801980e-01 -3.847010256508876652e-02
-7.080459440522203496e-02 8.913337617715172412e-02 -7.530554557712944019e-01 9.644710579954423046e-01 1.981495956682292614e-01 -1.747349879837169218e-01
6.689874002887606641e-02 1.514255573211006345e-01 -5.205179671471241720e-01 -5.076429868623329178e-02 -1.891912994544990290e-01 -9.806271657411971265e-01
3.734082871340838744e-02 1.214202117669423153e-01 -5.346187581431349756e-01 -7.616891853994049999e-01 -1.663879798544117689e-02 6.477289056751989182e-01
1.750512567936585856e-02 9.818127732635097138e-02 -5.790403288955023875e-01 9.592574559715332239e-01 5.238531275501060597e-02 -2.776344938414203600e-01
2.047253825951447434e-02 1.530812001712985038e-01 -5.633660363065223775e-01 -9.099166912100919991e-01 9.694446801587834617e-02 4.033030934401528600e-01
-4.179948402842457306e-02 2.175296104229589023e-02 -7.328063322130958790e-01 8.077445044076753122e-01 3.024320845657197943e-01 -5.060470826162646318e-01
-3.537661936639985988e-02 -9.555339956943871560e-02 -8.551317554287882761e-01 7.666660677561148995e-01 1.075955938695309783e-01 6.329662935190464301e-01
-4.291332811274584103e-02 -7.133683601576051858e-02 -8.028072838624222829e-01 -9.236913110317938047e-01 -2.384035524530496997e-01 2.999301720436474139e-01
7.242592064765913940e-02 -1.428637631982775935e-01 -7.154150652650594910e-01 6.633716340783164800e-02 6.030628039539530638e-01 -7.949305851696729652e-01
-4.933523154332362937e-02 -6.129658953138665545e-02 -8.121994734140273176e-01 9.678940698249730579e-01 1.871116198890548643e-01 -1.678401361419378512e-01
5.975635245682490819e-03 2.892476714122047335e-02 -6.548537242410700232e-01 9.071481801510400400e-01 1.887254764649737293e-01 -3.761181646527120837e-01
-5.966648480489630119e-02 1.777254139267193944e-01 -6.784502446479372395e-01 -8.910310695639477307e-01 -1.133517094541078574e-01 4.395623084791952517e-01
5.917609169268148867e-02 3.012821203075093449e-02 -5.458892252957501245e-01 5.652418823948224258e-01 6.180192543354174894e-01 -5.464007829949114603e-01
-6.655207422333402068e-02 1.330697194881645395e-01 -7.088998692498802434e-01 -9.354091570036749959e-01 -1.822744388443334473e-01 3.029616113266791477e-01
-3.953728507983531731e-02 -8.116656407175043553e-02 -7.935001186074218671e-01 9.242477739312711105e-01 2.196410232363064097e-01 -3.122881254463551470e-01
4.312838272997356059e-02 -7.156506688694730389e-02 -6.716259500408114924e-01 4.567293407223810831e-01 6.600139270950339254e-01 -5.964729041321913394e-01
-1.517817897020832738e-02 9.868925290415546392e-02 -6.565016363232856200e-01 -6.647235421311433745e-01 -3.653159443260237671e-01 6.516800390972642409e-01
-5.530530216561335005e-02 -2.162574299744956380e-02 -8.150307456754716240e-01 -9.742270026413216710e-01 -2.068599945558320108e-01 -8.994826277848590179e-02
3.381196227163673490e-02 6.112066408721619076e-02 -5.622628040269391780e-01 -8.440513029038569925e-01 -3.352294870105108071e-01 4.185673053464300519e-01
-3.994223647586264692e-02 -4.534623440148955603e-02 -7.701551143569519420e-01 -8.693795177673624419e-01 -2.291328424477523384e-01 4.378097698754586653e-01
2.826885290750253549e-02 -5.152138198044527162e-02 -6.713071342354837157e-01 -7.091362061651003135e-01 -4.113759882752686114e-01 5.726217227597243387e-01
7.663134159681963230e-03 1.050099342948965925e-01 -6.178682423576965510e-01 -9.372333004060118267e-01 -1.440540589301283481e-01 3.175565598689616964e-01
1.324786152212413873e-02 -8.205756379891764041e-02 -7.093325100984064768e-01 6.614117301115037817e-01 4.891883132409997059e-01 -5.685326001728774337e-01
-3.578366766830145401e-02 -6.366984630440290782e-02 -7.726126643979437381e-01 -8.128347163277970244e-01 -2.799191450352074284e-01 5.108277558777206684e-01
-1.872862309624142392e-03 -4.036029208011737007e-02 -7.200645937955306719e-01 -9.989918096830866512e-01 1.407711728674822249e-02 4.262861662084410641e-02
-1.177875917698375380e-02 2.037887680094749021e-01 -6.031911512727217151e-01 7.061465387363907720e-01 4.831281674256879266e-02 -7.064155558656775025e-01
-3.779611051280414025e-02 9.180004769862319669e-02 -6.859554595706323088e-01 -7.459894159700222183e-01 -3.424529238978027412e-01 5.711617863395195283e-01
7.538593730894231626e-02 8.533026531689635874e-03 -5.564122171930172556e-01 5.049078079050334233e-01 6.411303332290816392e-01 -5.779446351771947432e-01
7.135299368315506374e-02 1.500745134549893445e-01 -5.229771166694976436e-01 -9.874992713125012589e-01 -4.505380720298019642e-02 1.510474879426863259e-01
4.765385529167493611e-02 -9.098924362461671689e-02 -6.843962361697603081e-01 5.378467744649207960e-01 4.406864993061594404e-01 -7.186906542643802798e-01
1.615058710125940114e-02 1.855241657160044688e-01 -5.775194586406953157e-01 9.258231179665985522e-01 -1.812858852234868479e-01 -3.316428531678961567e-01
2.905882117599839151e-02 7.717637008462797932e-02 -5.573094614387223977e-01 8.907406407967581874e-01 2.169337547391784193e-01 -3.994006220422583464e-01
-4.318906500287637666e-03 -1.344894430684238640e-01 -7.706755937976995652e-01 -9.913818052878830001e-01 -3.854982586566561842e-02 1.252039419102487228e-01
2.303460262640203218e-02 1.066716889648326380e-02 -6.367295391929460591e-01 -8.093938471609545271e-01 -4.512351143958489019e-01 3.758569830589216787e-01
-2.555739397134582785e-02 1.296412666007624483e-02 -7.144436573573973437e-01 7.636751785151851823e-01 3.212672791569421982e-01 -5.599888901245233530e-01
4.342750704798808287e-02 1.157967461035036838e-01 -5.284095191723633400e-01 -7.011586960594765605e-01 1.329257385526487478e-02 7.128813298302016932e-01
5.512807527777981165e-02 -8.819846555787001774e-02 -6.776013583845583721e-01 4.761783665577964397e-01 5.031725051676838589e-01 -7.211598943823942509e-01
6.997464224965417590e-02 9.497284564658781125e-02 -5.003283749591497243e-01 5.285060549986164702e-01 -8.435262173686819409e-02 -8.447283498474029706e-01
4.507180300072870238e-02 -5.100072267204372760e-04 -6.017970055155520415e-01 7.751842061743464685e-01 4.371662983106943678e-01 -4.560428424163386896e-01
5.772452248309919293e-02 -7.867332388205823535e-02 -6.722113847483910387e-01 -4.998735231632111531e-01 -4.779524034129941090e-01 7.222796971479547024e-01
-6.964895744194216087e-02 1.744186490335244144e-01 -7.078291264977405461e-01 -9.800144181503792629e-01 1.794428272959112253e-02 1.981154787862218492e-01
-4.350424146935986947e-02 1.082691092120296461e-01 -6.790656702752309037e-01 7.324328273429508984e-01 3.338981677404232462e-01 -5.933415264499861674e-01
6.067476574572343989e-02 -9.197673699864299113e-02 -6.767930047452607178e-01 3.654600682463293171e-01 5.631938147342342438e-01 -7.411151500020015659e-01
6.623775161226500008e-02 -6.615801980442129193e-02 -6.505620848695599090e-01 2.599427357500950220e-01 7.721228990606601172e-01 -5.798758512620764138e-01
-6.048155576126196253e-02 9.320907308589659055e-04 -7.950967599764434679e-01 -9.544147301792842431e-01 -2.585607731240300300e-01 1.491269573829905604e-01
-3.749447046746779560e-02 -6.702782011555606656e-02 -8.506835572341671092e-01 -7.767171403777411998e-01 -3.645215488414633304e-02 -6.287938646708687296e-01
-6.941128376667801692e-02 1.446380113753711061e-01 -7.043772435080014604e-01 9.560510962926580536e-01 1.500011924404833774e-01 -2.519244798427493492e-01
-7.289357688496145293e-02 1.037914960244635948e-01 -7.532529681406638922e-01 9.924225745241554986e-01 5.653749121088681717e-02 -1.090914554968715477e-01
2.057451087013739341e-02 1.213555189673016094e-01 -5.657801924272498617e-01 -9.449836832209610460e-01 -1.437446698094844433e-01 2.938423188506191774e-01
1.543776476997845044e-02 -6.945842592711112817e-02 -7.001352016459844174e-01 -7.378769621692894409e-01 -3.728202232201626165e-01 5.626212490280554368e-01
-2.916636176815180434e-02 1.848609348292453713e-01 -6.233873316211461235e-01 -7.468050493039851689e-01 -9.690582603075048596e-02 6.579448907130219792e-01
-8.486261925458579713e-03 -3.130312273758300429e-02 -7.227372945350367672e-01 -6.466027401122861340e-01 -3.986409346971565570e-01 6.503770457688837769e-01
-2.121238351408739203e-02 3.620720962745126170e-02 -7.021321923840792012e-01 -7.809086165730222406e-01 -3.686169173021765499e-01 5.042849401287422539e-01
-3.486870894858320330e-02 -9.242430386972361189e-02 -7.935362059436774640e-01 -9.032064497470235764e-01 -1.774032814984579098e-01 3.908275640854369515e-01
-6.420072349273676926e-02 1.005878401866620690e-02 -8.115323751524847751e-01 9.751488897000384348e-01 1.688479183194719901e-01 1.434399644309896915e-01
-6.936546085358807900e-02 1.309938961692704573e-01 -7.275286057895771208e-01 -9.787114188876341325e-01 -1.961326786457629479e-01 6.046429447361403170e-02
1.204274432378644490e-02 -7.996994675387220086e-02 -7.089382333062732577e-01 6.614117301115037817e-01 4.891883132409997059e-01 -5.685326001728774337e-01
-2.177710657948463482e-02 -7.840979915500999320e-02 -7.612455841399251577e-01 -7.338111360038143127e-01 -2.907679582850610234e-01 6.139830707043385516e-01
4.297535068025958027e-02 -1.558701485992885216e-01 -7.353490353735669949e-01 -3.639805204669622762e-01 -4.080737557356592937e-01 8.372538388089914019e-01
-3.280864648735801713e-03 -5.319459483297150904e-02 -7.187640366384026036e-01 8.638100125247432093e-01 2.360728196727944206e-01 -4.450863804630958431e-01
2.676563663456795264e-02 1.275223766982330753e-01 -5.490872607714227804e-01 -8.651611336195126345e-01 -8.141247613719218568e-02 4.948416126432893525e-01
6.855584184063377891e-03 1.953664078904968349e-01 -5.879753721372021902e-01 4.975673387391945091e-01 -2.091136153109327683e-02 -8.671732574168276031e-01
-3.417488572202397740e-02 -7.369382859669343366e-02 -8.561210103947335393e-01 6.386303049287024303e-01 -4.309462236934548385e-03 7.695016323321874907e-01
3.406532672846195042e-02 2.378438658928446955e-02 -5.975971622762289437e-01 -7.734831542955091788e-01 -4.976611299130319077e-01 3.925012226665721138e-01
2.015851645069252282e-02 -3.114816500094236967e-02 -6.693888902946402153e-01 -7.691345465547249072e-01 -4.186570633909626471e-01 4.828646938521319321e-01
6.677530026405174846e-02 7.913588883789995920e-02 -5.018968057932711169e-01 6.573311531014164322e-01 4.289553298090385131e-02 -7.523800425401024894e-01
-3.654892108769988712e-02 -8.391236352722987457e-02 -7.878416802957727283e-01 9.208870817813579190e-01 2.982973132458313636e-01 -2.509695111333909989e-01
-8.327245156149458427e-03 2.233611497851247518e-01 -6.009356505457109643e-01 -6.846742418535153307e-01 -5.263138316776031500e-01 5.041973156683343671e-01
-1.495170531213910539e-02 -2.624089035225886657e-01 -8.067111436828979798e-01 8.618745734431035310e-02 5.490753591592217875e-01 -8.313170106287337546e-01
-2.002287261232342346e-03 -2.055281303042410732e-02 -7.123668806613214777e-01 -7.487461188146561364e-01 -3.554718192732712057e-01 5.594810410215341756e-01
-9.786498363227570663e-03 1.433978398988512981e-01 -6.197433598846494585e-01 6.134685395500245608e-01 3.811970872399915167e-01 -6.916249935204094035e-01
-1.824454867321028892e-02 5.541793861600392314e-03 -7.092749236386333145e-01 7.425326347462626320e-01 3.146755199600853592e-01 -5.912906252213234737e-01
-7.070101187749254501e-02 7.079050170327301494e-02 -7.955366559173611130e-01 -9.998116681546991291e-01 -8.503528713637182332e-05 -1.940672539914180261e-02
4.875400092034408092e-03 2.164971971340255361e-02 -6.611864677110764754e-01 8.981483175624520587e-01 2.281050110417054966e-01 -3.758958680238453920e-01
-1.166384933886356438e-02 6.835490943282963860e-02 -6.664044891521594405e-01 7.049162881659816193e-01 3.564574829451885307e-01 -6.132137388632739050e-01
7.621188241998336395e-03 -1.045673233936907365e-01 -7.277551504703001495e-01 7.611096936916252886e-01 2.579411824420728694e-01 -5.951288772770363389e-01
1.486868233773275955e-02 1.653809690765947471e-01 -5.837632342939822472e-01 -9.425039309133623755e-01 1.541915962014755656e-02 3.338391674586257962e-01
-3.530741473115089641e-03 9.697814423652044435e-02 -6.442623350363623214e-01 -7.071634845522914992e-01 -3.106777532302037459e-01 6.351371031231711761e-01
8.689787896440074114e-03 1.051592155208837948e-01 -6.075184813937859474e-01 9.499871741546397352e-01 1.022304392652106930e-01 -2.950818636062276790e-01
3.836864105347934095e-02 -1.115813959289644608e-01 -7.032075615870657659e-01 4.747663523589883972e-01 4.494139512056747332e-01 -7.567192419447547058e-01
-7.057590689631854097e-02 7.235759138387326539e-02 -7.802768760635097056e-01 -9.805249002193390240e-01 -1.622708719809970446e-01 1.106303943606023882e-01
-7.075768028619483507e-02 6.360987255306436994e-02 -7.910956758761238383e-01 -9.906758179576238277e-01 -8.761192639492781931e-02 1.043339545275791119e-01
-6.246230244979671803e-02 1.315799277228594799e-01 -6.990257058834008497e-01 -8.665056195044970044e-01 -2.678282393456910548e-01 4.212315818835467018e-01
-4.626686734866143624e-02 -2.605742143771826169e-02 -8.433671842111466477e-01 7.595480975169913718e-01 -1.136141869886911522e-02 6.503519091410958630e-01
1.684770999210252404e-02 -2.131384088185319381e-01 -7.691853252698042098e-01 3.286718037230271783e-01 3.881001426696740197e-01 -8.610186552550592731e-01
-4.732382866036675267e-02 -6.467600061646476550e-02 -8.190975522918380047e-01 -9.752521815723190768e-01 -2.184301257508097782e-01 3.422663440827606457e-02
2.936181226276829686e-03 7.298174167703344595e-02 -6.504501555504415000e-01 -9.909370119497188378e-01 -1.992785302952282747e-02 1.328409538575977544e-01
-4.491717149684749943e-02 7.467186801013675490e-02 -7.062158674704792638e-01 8.200373000909506604e-01 3.931268408699008510e-01 -4.159208018928555184e-01
-1.477510160310653922e-02 -2.775903338204754878e-01 -8.178411738176146750e-01 -6.567957394341015220e-01 2.528366488692227465e-01 -7.104174727931409361e-01
4.693775301492628116e-02 3.003192564190826017e-02 -5.672299590020400961e-01 -7.137942888176056488e-01 -5.242482710644726929e-01 4.643936514825323103e-01
6.777264580464426036e-02 -1.094456821304875399e-01 -6.906671739828385004e-01 -2.738356572265088773e-01 -5.916351734918485761e-01 7.582755794027633556e-01
2.555992439591310561e-02 1.434948092680534137e-01 -5.475157585233558777e-01 8.259622924873272209e-01 -2.132718240167627566e-02 -5.633217931874151541e-01
-4.901503331016998644e-02 2.186876597440003470e-02 -7.501985096855304791e-01 -8.777453865640773012e-01 -3.128814785620598338e-01 3.628611535261081489e-01
-4.593698085655752161e-02 8.598620655661948220e-02 -7.023445144738773571e-01 -8.035205547451588215e-01 -3.930179709122381682e-01 4.470923759605608394e-01
-5.531082625759163769e-03 1.864875299573154344e-01 -6.024229539907098863e-01 -6.410263643877288642e-01 -1.034004535091371246e-01 7.605218907920767712e-01
-5.159756518240872503e-02 2.096318901782162347e-01 -6.502024528240740731e-01 8.279102926756697345e-01 1.464286596909771497e-02 -5.606693622429338442e-01
-2.039492462675715490e-02 -4.588615901079310527e-02 -7.435600567193880739e-01 -7.354236899741171118e-01 -2.994565354217377240e-01 6.078468389471671784e-01
5.155811402085763717e-03 -2.018944889263048562e-02 -6.844858322255212846e-01 8.607829890295154440e-01 2.680917784071374932e-01 -4.326423975385578768e-01
-1.206174225859418456e-02 1.803880626193268277e-01 -6.055209559369183481e-01 5.924826485051354341e-01 1.576257010847358087e-01 -7.900116768617320151e-01
-5.716758062561311249e-02 1.719441772504985144e-01 -6.704844754495110637e-01 8.778839199671515381e-01 1.451829232737980313e-01 -4.563351201176419902e-01
3.269975027003442503e-02 3.086953428679107755e-02 -5.864806666627175868e-01 8.524355991613568051e-01 3.744175800653768982e-01 -3.649178332452470142e-01
-1.822535894635682677e-02 -1.089401378445863967e-02 -7.219170605421987297e-01 -7.483365915583225503e-01 -3.387382534169093296e-01 5.703058314684621433e-01
5.107546656520804002e-02 -6.567730617145879635e-02 -6.592214094439322603e-01 4.311868815303105396e-01 6.762331775072285556e-01 -5.973161330774878763e-01
2.408746337954490585e-02 6.850890585737906546e-02 -5.808472307017189529e-01 -9.161897277222841307e-01 -2.726973415245131926e-01 2.936537803973074401e-01
7.107981842992501520e-03 2.979750815275296338e-02 -6.514335436139915281e-01 9.191142203812894262e-01 1.890524867995002634e-01 -3.456706628104548873e-01
-5.602758914233781085e-02 -1.976576827418670412e-02 -8.252298791624843588e-01 9.675437737787901948e-01 1.551332978283562758e-01 1.994810911510062346e-01
-3.542517620079325275e-02 -7.751738953884323990e-02 -8.526227597411348835e-01 -7.429871601848307971e-01 -4.348927586270497254e-03 -6.692915408320428972e-01
-3.322173449578078031e-02 4.830458797926125841e-02 -7.114986444794413334e-01 -7.528130870243314732e-01 -2.533720975775473061e-01 6.075154616748864589e-01
7.052331472536782497e-02 3.205471890195676909e-02 -5.368997349726769563e-01 -4.352956199430159101e-01 -6.499061461510590165e-01 6.230086070460856273e-01
3.781976040040784751e-03 1.253765072292964411e-01 -6.140541585638489286e-01 8.843172272736117279e-01 1.760194631172847524e-01 -4.324351860695592187e-01
-1.684652055131376919e-02 1.702533221710668676e-01 -6.123480360016630986e-01 6.360614999905676026e-01 2.599504053652012536e-01 -7.265339324355174488e-01
-3.407488518997254384e-02 -7.787482898575430468e-02 -7.747701969883482587e-01 8.514442128159820378e-01 3.261422423721676567e-01 -4.106993915294092079e-01
-2.726677581015093943e-02 -1.038367730911515519e-01 -8.611368617866843600e-01 -1.739460396913453111e-02 -1.671483046771755354e-01 9.857783077326784937e-01
-4.857145962934455996e-02 -9.926242013216299634e-03 -7.676874930425484633e-01 -8.550425632929780084e-01 -2.376556434709128363e-01 4.608926231605361412e-01
-2.599111499597626593e-02 1.106331851078639315e-02 -7.161256361606244125e-01 7.636751785151851823e-01 3.212672791569421982e-01 -5.599888901245233530e-01
-4.550941161173672339e-02 -3.894991259448746940e-02 -7.733271347838821530e-01 8.734255445583340993e-01 2.679650814464473174e-01 -4.065987373792208093e-01
-2.473769627776408256e-02 -3.574849137976846697e-02 -7.440887178741196761e-01 -7.485666863065820742e-01 -2.877302206395256357e-01 5.973769633009906599e-01
-2.350905752837927076e-02 -1.830615385779059759e-02 -7.299908207469162358e-01 7.882970711726560165e-01 3.380480571867767181e-01 -5.141120875965263792e-01
1.043438390049482856e-01 -8.717953040654123631e-02 -6.678887092366960765e-01 -4.787029952263500143e-01 6.687207934121662811e-01 -5.689076751279804611e-01
-1.104909375869183100e-02 -3.010242228059317737e-01 -8.288874722754743241e-01 -8.716803141593583160e-01 1.062236933067704503e-01 -4.784244526435824652e-01
5.337029973518163384e-02 -4.934495524212736961e-02 -6.399925314085345152e-01 5.360567165800653733e-01 6.062459281729382088e-01 -5.874598464432543299e-01
-4.801647868334023295e-02 -1.549130443401586926e-02 -7.650176170728593128e-01 8.603828374740898344e-01 2.555697164961924783e-01 -4.409370623910967013e-01
6.164741819159793440e-03 -6.599990106036278392e-02 -7.082128509901025604e-01 8.143308936989260838e-01 2.881655177759269160e-01 -5.038113038950599032e-01
-4.568978050383994127e-02 1.476577514751523656e-01 -6.620434325537305487e-01 8.508881195294601962e-01 2.959052979503575265e-01 -4.340846261831086683e-01
5.007115222548028793e-02 1.358823303937873872e-01 -5.216841108845327035e-01 4.759362297416706022e-01 -1.444936737888555811e-01 -8.675288372465110864e-01
-2.483647049995189524e-02 -1.731719132378478909e-01 -8.469372749554479052e-01 -9.222960973754181779e-01 -1.843440571939128358e-01 -3.396868813236100793e-01
-5.689643469807331017e-02 1.130547661762694583e-01 -7.007669471780443304e-01 -8.421839269700298614e-01 -3.161977429914740179e-01 4.367438843079973765e-01
9.168137255451339063e-02 -9.117775573674730127e-02 -6.679375809564197519e-01 -2.190766864222415226e-03 6.939569381683825533e-01 -7.200131724548589629e-01
-6.394224772937785739e-02 1.766556958262677779e-01 -6.829737967683369160e-01 8.993965698312700319e-01 7.520785059852176657e-02 -4.306153612960131327e-01
-2.564061144492949321e-02 1.466056939066711362e-01 -6.364463921834774274e-01 -6.845572926320372398e-01 -3.838958859905083898e-01 6.196815809945122044e-01
-1.859838783334465595e-03 1.161098051509897588e-01 -6.274245912812206338e-01 7.211765991168985757e-01 3.620182723950645109e-01 -5.906327821398649203e-01
6.253488790844168033e-02 1.597898313196230158e-01 -5.230794297938051729e-01 -1.328484949309235164e-01 -5.776640713506209224e-01 -8.053915184959506979e-01
4.971039447576394016e-02 -1.084964657659888698e-01 -6.977454249068901770e-01 -3.933458422078204841e-01 -5.200316174464770791e-01 7.581861020051879896e-01
-4.447172513136619931e-02 9.595527640965730021e-02 -6.919366437798070146e-01 -7.730134342564798366e-01 -3.563004114673519185e-01 5.248811744073117458e-01
-3.936669639535431836e-02 9.492018265079346651e-02 -6.858493967200796071e-01 -7.073073919094264861e-01 -4.030994038942253277e-01 5.807126001133477988e-01
-2.002399766588923782e-02 -6.265851173589939704e-02 -7.484061038248153164e-01 7.508977275643601290e-01 3.138225852648890979e-01 -5.810920647507946679e-01
-5.876532378929592848e-02 2.505907935966760272e-02 -7.705553375232105928e-01 -9.096166605286186702e-01 -2.301478777875594628e-01 3.458749560732120587e-01
-2.723580851882576731e-02 -1.014955870013384137e-01 -8.582976050611219598e-01 -1.154694003115677887e-02 9.283679532955421698e-02 -9.956143819817266927e-01
-2.201011130453953309e-03 1.253099566926456354e-01 -6.226918669933716455e-01 6.801741596337328444e-01 3.744829925350316446e-01 -6.301790228725111520e-01
-5.309411384009141838e-02 1.326814172005720827e-01 -6.785703030635016342e-01 7.697665715127530728e-01 2.700746454125362850e-01 -5.783762713725334459e-01
2.102812350282879869e-03 1.865494778398025799e-01 -5.915024914396542766e-01 7.121861468272996376e-01 1.486308784678936068e-01 -6.860756184511634936e-01
-2.630760905447604783e-02 -4.207425733460480599e-02 -7.457142351153605020e-01 7.546297283780165621e-01 2.974139074655243187e-01 -5.848751496637634162e-01
-6.830144850539827950e-02 9.697127850876850752e-02 -7.469606635847492182e-01 -9.501088164574889028e-01 -1.491239908617700283e-01 2.739621730078959927e-01
3.437411149351795453e-02 2.039487194211673723e-02 -6.012862969628803844e-01 -7.734831542955091788e-01 -4.976611299130319077e-01 3.925012226665721138e-01
-7.168460318800129460e-02 9.078581527770356041e-02 -7.578660546109629026e-01 9.763847675714329988e-01 1.184215611738044932e-01 -1.806906735380600371e-01
-6.877772675852372730e-02 1.650659371594458968e-01 -7.385457762065076315e-01 7.766552861011006836e-01 -3.453534237503395055e-01 5.268183551046186075e-01
-6.516061981723889063e-02 1.815265110782935884e-02 -8.133832731731244214e-01 9.130195951190155368e-01 1.788162167351401710e-01 3.666333039444731323e-01
-7.708983358686184902e-03 -1.398840152835796879e-01 -7.643572622464963606e-01 5.670122887145353507e-01 2.907069819966831004e-01 -7.707052063305946943e-01
-7.199118553365765893e-02 1.279515246138805684e-01 -7.559191785013075204e-01 9.801562756451006608e-01 -1.319747330960595599e-01 1.479065419031537210e-01
-3.190584507157930017e-02 -1.374454008105431835e-01 -8.510382185439545610e-01 9.462904818692888798e-01 1.662777317223251838e-01 2.772833205529458556e-01
6.173940655055000634e-04 1.776865662207840479e-01 -5.990706059411120554e-01 -7.104529817832905270e-01 -2.266053442339882595e-01 6.662631451910177027e-01
-5.217123845601561588e-03 -3.494251451484595844e-02 -7.115711348984182782e-01 7.079921450015557172e-01 3.340466995737533806e-01 -6.222217652252122200e-01
-7.186723619526659557e-02 1.211174068906176460e-01 -7.644238025000164027e-01 9.867418085584944709e-01 -9.888081805855933326e-02 1.286980460721212360e-01
7.097315454247353494e-02 -3.879907737428398007e-02 -6.196508213026007406e-01 -3.137710716252780641e-01 -7.297818864056888621e-01 6.074258085439561139e-01
-3.565015330112087516e-02 2.135733257357335486e-04 -7.419943569155759144e-01 -8.223500318389121988e-01 -3.303258769822219887e-01 4.632766345613236747e-01
-5.738169673227226653e-02 7.345838493551480608e-02 -7.341609971092966092e-01 -8.501565249890673526e-01 -2.693028002493515483e-01 4.524487648301974696e-01
-9.343767649453714116e-03 2.098862750374311803e-01 -6.035187381616842206e-01 -6.975488121756537874e-01 -3.779924509161659840e-02 7.155395668324977532e-01
-6.150760817303289191e-02 1.517954038119626037e-01 -6.842805912649906341e-01 8.598014099114368314e-01 1.666007510346064480e-01 -4.826859489036434692e-01
5.033938369584151432e-03 6.593713940839422694e-02 -6.395428005524192994e-01 9.049522119817433596e-01 2.132667816292690421e-01 -3.682102305515747576e-01
-6.467954624359552318e-02 1.117254065044151340e-01 -7.256279253645262495e-01 -9.268703174283503543e-01 -2.614230415368321570e-01 2.693870969885173161e-01
-6.386955562213186832e-02 7.132155457956862454e-02 -7.502100053513186539e-01 -9.230945160740730016e-01 -1.981849722908295974e-01 3.295743181014808010e-01
3.179354033954274322e-02 -2.699172319923118582e-02 -6.472383705650681662e-01 -7.592558297423942504e-01 -4.178968411041887876e-01 4.988915866171014790e-01
8.381659930369966816e-02 -8.531473946922302209e-02 -6.660355784668194890e-01 -1.137663525979367429e-01 -6.726208771836635902e-01 7.311896967225679500e-01
-3.487035250775980672e-02 -1.287681665365425776e-01 -8.431563032623820009e-01 9.813958656924084423e-01 1.575504671410603574e-01 1.097269570592487725e-01
-2.347276520209448658e-02 -1.552405009961856652e-01 -8.010851338563813595e-01 -8.609033189048752588e-01 -1.621482901681016997e-01 4.822379158611775907e-01
-1.640747072506901563e-02 -3.164971038124970298e-02 -7.278927412338958014e-01 7.720422628535064113e-01 3.323977605569767846e-01 -5.417217672797948191e-01
6.828880598150061099e-02 6.752194061739139053e-02 -5.036521612385265190e-01 6.563452792542097125e-01 2.562208295455061791e-01 -7.096208571538229481e-01
-1.297711382232833279e-03 1.769463240070705268e-01 -6.008075275340130084e-01 -6.031264058970005060e-01 -1.409285217222119302e-01 7.850972489284105960e-01
3.429081705476810793e-02 -8.349915225594835289e-02 -6.900084418057589319e-01 5.681274899816490809e-01 4.854134653063005844e-01 -6.645336130147819764e-01
4.871245191209089276e-02 2.139340537221999516e-02 -5.701428314692884580e-01 6.495239318295729092e-01 6.039194040298087041e-01 -4.619523951847562815e-01
7.592550325584226933e-02 -1.238831160314623758e-01 -7.011041367839897509e-01 -1.485330363757928623e-02 -6.861108138061265960e-01 7.273453997581511565e-01
-1.884773258611212657e-02 2.294502979311361171e-02 -7.013372893691557364e-01 7.393737796952762897e-01 3.145953125804912820e-01 -5.952782569534218471e-01
-3.907082063373107372e-02 1.502190441445899749e-01 -6.489368773451305028e-01 7.860437183577322351e-01 3.881612503530946223e-01 -4.811092563593768467e-01
