-8.478267654710011647e-02 -5.830318933291258471e-02 -5.872882617155051888e-01 3.579928470414647790e-01 -6.005144785961179510e-01 7.149989387849319256e-01
-2.651256008331876607e-02 -1.616566221543826454e-01 -7.009945549784895036e-01 6.211360987717204907e-01 -3.597198451848624967e-01 6.962697607844434700e-01
3.667619084255685762e-03 1.144351187189738550e-01 -5.865146301884205382e-01 -8.194352647097494780e-01 3.075908313625798640e-01 -4.836462833639266767e-01
-1.815765271787218860e-02 -1.632398910379643520e-01 -7.092666867772687844e-01 6.212099531266284114e-01 -3.597619575228626632e-01 6.961821083996128090e-01
3.040197456379928678e-02 -9.707224141115050609e-02 -7.490915829317139618e-01 9.525455597878070835e-01 -1.897590615541444592e-01 2.380093592416554493e-01
1.961907963754709952e-02 2.364494112100418988e-01 -5.709880773358690931e-01 -4.332958453353220607e-01 -5.222040177948135131e-01 -7.345458966015009361e-01
-3.391463694478540070e-02 -2.215827548742605457e-01 -7.404021082961346201e-01 -2.797359795207279287e-01 -7.791528356109679310e-01 5.609533318565518289e-01
-8.711263302852073620e-02 2.396225281551505812e-02 -5.345444504806837749e-01 3.443000986504939354e-01 -5.024076818805641720e-01 7.931229181259724648e-01
-1.089759788239631072e-01 -1.053369272111042143e-01 -6.321528973805434770e-01 -5.934194460150258310e-01 -6.240069004132559050e-01 5.083982192414334689e-01
-1.195914141202621302e-02 -1.578826784024782437e-01 -7.098918485962231184e-01 -6.888627469635862921e-01 3.175085682093750639e-01 -6.516566772153991050e-01
7.968841313768589008e-02 6.440750313203276456e-02 -7.267213914472294700e-01 -8.996617433203963898e-01 4.234862090135583790e-01 1.061516762987277374e-01
2.101147596412971524e-02 -2.278984002373231343e-01 -7.715404767790577933e-01 -9.753144005274645700e-02 -4.470304823706285346e-01 8.891857882539062619e-01
3.441941913728269881e-02 -1.176620601957455853e-01 -7.796438861204809667e-01 -9.913348354723340305e-01 7.520479823760902426e-04 -1.313570645335550569e-01
-2.449517515824382180e-02 -1.849834367370863097e-01 -7.162370075552563220e-01 4.337020038154117407e-01 -4.889979663659387299e-01 7.568246565595447839e-01
-1.393817749180639720e-02 -2.806967873146168010e-02 -6.432468090075925682e-01 8.012310392434046635e-01 -2.964137013821167566e-01 5.197766245089202597e-01
4.990956752368528454e-02 1.404694495255299214e-01 -6.063729491858619314e-01 4.827746542369344973e-01 -3.518531444411292508e-01 8.019526157905454422e-01
4.242830536757544180e-02 1.657720931064922965e-01 -5.887032837797582241e-01 4.639061476026272168e-01 -3.403543019425411265e-01 8.178936577365636396e-01
4.870775658837797617e-02 2.044215408330857242e-01 -5.822584836904759475e-01 -6.070907526042920166e-01 -1.076215397479658026e-01 -7.873108803291309910e-01
-1.204292839053324946e-02 -1.185959844309042166e-01 -6.942648183816123586e-01 7.707485387245945896e-01 -3.220315990486273261e-01 5.497657130706554707e-01
5.795812116720111540e-02 1.883827658620407589e-02 -7.413940802780734085e-01 9.223659261553340816e-01 -3.539945204739042284e-01 -1.546899406621623507e-01
-1.848651654287061796e-02 -1.952785221426494022e-01 -7.239296582245153822e-01 -4.022885414685012928e-01 5.219723142010586070e-01 -7.521361795650688409e-01
4.785445312562692372e-02 -1.496305683926968215e-02 -7.716395077043887163e-01 -9.406375083718541141e-01 9.223049030156464656e-02 3.266414157799389928e-01
-2.844255271407896898e-02 -1.546115534949014936e-01 -6.949695857171124258e-01 6.150037832162403850e-01 -4.173148913461536824e-01 6.690430689353709104e-01
2.733412858456711614e-02 -2.378828398764308572e-01 -7.782217720300588226e-01 5.930993757370125463e-01 -2.830120898842187205e-01 7.537488225395333474e-01
7.400232001059471598e-02 5.599616895339147582e-02 -7.384145771448691331e-01 -9.266706187321881449e-01 3.615406242416651095e-01 1.028102203161280065e-01
-7.430312325792706729e-02 3.907184748422905252e-02 -5.287333926339403689e-01 -3.765306079352732649e-01 5.535094470749039042e-01 -7.428674129928756198e-01
8.678799688600932413e-03 2.062539992515496912e-01 -5.583935626814270359e-01 -6.070595808909281521e-01 -1.109684797582272398e-01 -7.868701682925073326e-01
9.458990887911210288e-02 9.906681981262055459e-02 -7.063907592504830024e-01 -9.211896691376648683e-01 3.835318596624002763e-01 -6.567271958690699962e-02
-9.121540305920543268e-02 -5.942887102226809826e-02 -5.848827634595389346e-01 3.738862457444266374e-01 -6.038514037703465176e-01 7.039691452100158564e-01
-2.990020645256025525e-02 1.323722779380181180e-01 -5.208238039777317585e-01 7.030173879278033278e-01 -2.982764682640358100e-01 6.455987149546552617e-01
-9.091912976342626795e-02 5.645779408075980027e-02 -5.151015120725580543e-01 8.864948787421188248e-02 -5.029659603440586046e-01 8.597479345917724558e-01
-4.852242517686877060e-02 1.548876802948860598e-01 -4.967221128609560221e-01 -6.452196573367159349e-01 1.207255949380109661e-01 -7.543983858102788487e-01
-8.994811418082117316e-02 -9.433088304806876156e-02 -6.152876005478502552e-01 7.630724477703705599e-02 -7.216074540107670909e-01 6.880842148390237112e-01
3.357148296412671221e-03 -6.432271470937869773e-02 -6.815872293692687434e-01 -7.383037365760517501e-01 2.460515637276231571e-01 -6.279858442234440563e-01
7.079459728836859367e-02 1.238077827933821706e-01 -6.281938213335381826e-01 -5.989767370682164138e-01 4.232984152368964303e-01 -6.797391559333954003e-01
1.251429806915099925e-02 -1.306887369767849583e-01 -7.242048270940184551e-01 -7.134066745685621047e-01 3.031984188034618777e-01 -6.317607423036875058e-01
4.584000761799417872e-02 2.948789705290931137e-02 -6.751111540107455067e-01 -7.293334980160431913e-01 3.859764746309323202e-01 -5.648847755986697861e-01
-2.124785661691298844e-02 1.925373141341070763e-03 -6.168692258935702943e-01 8.086511018600514022e-01 -2.131673372198904792e-01 5.483092939236997587e-01
2.857184715804987618e-02 -9.633777775984486702e-02 -7.424465674919785707e-01 9.301694138057735595e-01 -2.171152192251369628e-01 2.960504065206534530e-01
-7.345796475725817343e-02 -3.232805935994555874e-02 -5.773976645149004883e-01 4.502605299831157759e-01 -5.377227599937073332e-01 7.128251458275540742e-01
3.475631362522656892e-02 5.525253963595282147e-02 -6.470641868364273019e-01 5.882424882123036269e-01 -4.442510461879359829e-01 6.757305550459606902e-01
-6.910523256032315154e-02 1.230697844443333633e-01 -4.920007969982094775e-01 6.012247242309007866e-01 -3.352302795655547341e-01 7.253616274906448114e-01
-2.560350368701160353e-02 1.318831876688334737e-01 -5.227543538014547408e-01 -7.699264998947645822e-01 2.636036893727467523e-01 -5.811422198643577675e-01
-2.279243572880187974e-02 -1.401262899302574416e-01 -6.919503434668157205e-01 6.968781747616652478e-01 -3.061199170312436935e-01 6.485764457160271279e-01
2.383489856994341904e-02 -4.352208454857559028e-02 -6.970073179260090068e-01 7.631133200562773000e-01 -3.520059250364094838e-01 5.419869827698333697e-01
8.646226414525808035e-02 8.807124580945531467e-02 -6.993428153469979369e-01 8.761572407661728512e-01 -4.626026798583445232e-01 1.354520211768162063e-01
-9.001755821972676208e-02 -8.337161873588122551e-02 -6.048901903404857450e-01 1.795501389067543363e-01 -6.772149379060360408e-01 7.135416424396607837e-01
4.422269254424363027e-02 3.997204426201901757e-03 -6.972571204287502100e-01 8.304006037734735779e-01 -3.481888569149778623e-01 4.349705244874551013e-01
3.590674967254228744e-02 9.887559955330300909e-02 -6.192623944636255207e-01 -5.257465298554953037e-01 4.672932551476790541e-01 -7.107936409664841193e-01
3.472718059564088716e-02 -1.563277827400414710e-01 -7.846112533663539557e-01 -9.969452568247905155e-01 -1.781830734125222290e-02 7.604382169542152348e-02
2.126725454193141573e-02 1.732332662959165381e-01 -5.726752497472216152e-01 -3.901632377662753726e-01 3.317593484666669923e-01 -8.588995183376865183e-01
-6.908257778320830989e-02 1.122090170629071737e-01 -4.970676419700110205e-01 5.168575418414238509e-01 -3.587508357435735262e-01 7.772748029461191699e-01
8.779786450403143094e-02 1.159214985966053602e-01 -6.594655191641705105e-01 7.844988163086399346e-01 -4.671228994117054834e-01 4.078698371485003915e-01
-1.042958311312377068e-01 -2.037896301507631514e-02 -5.527657211188115038e-01 -8.408055561470814676e-02 4.976630428039460208e-01 -8.632855587779976192e-01
-1.683523891553101448e-02 1.110111395545537311e-01 -5.490105483397804687e-01 -7.740667845889250831e-01 4.241925422128275391e-01 -4.699801060972488842e-01
-4.836960884041040416e-03 1.137776158906957241e-01 -5.712415961238794804e-01 -8.689352691157538056e-01 2.914384060066868010e-01 -4.000189415402904958e-01
-1.115203828880910880e-01 -9.048864717406145119e-03 -5.500195161184603387e-01 -2.258525413588536590e-01 -4.335211016392542249e-01 8.723818452920916178e-01
-2.742564230214430271e-02 -2.419836860309166823e-02 -6.173717917124537102e-01 -7.505342428544462541e-01 3.270950604171197207e-01 -5.742013338138669543e-01
2.387898092793300578e-02 -1.921972019962364664e-01 -7.628405556184739700e-01 8.177872398968819567e-01 -1.402419168149121043e-01 5.581722270320506052e-01
-1.876954135721197944e-02 -2.157735693141532018e-01 -7.376949886953920732e-01 1.754459024751974516e-01 -5.214156146881296916e-01 8.350715490687390385e-01
3.779847030694999388e-02 -7.058195214534757067e-02 -7.449141382388806409e-01 -9.597177031190881058e-01 2.208385300184314559e-01 -1.737016809910609250e-01
-8.676683533445607444e-02 3.079490582288181913e-02 -5.279547717477011126e-01 -2.997272344827260904e-01 4.491433768009413519e-01 -8.416851026275709025e-01
3.362770375598900935e-02 -9.891329150315665564e-02 -7.560043995501709579e-01 -9.610866680328122857e-01 2.066263500437074407e-01 -1.833520329780994051e-01
-5.029959469897330587e-02 -1.762809453881615807e-01 -6.955296777012316412e-01 -2.567227534167514924e-01 6.287345769807000107e-01 -7.340206125082741062e-01
-2.949414120845864767e-02 8.026816526004818680e-03 -5.984747815611277666e-01 -7.491917218786283694e-01 3.648714332538888772e-01 -5.527934524429434227e-01
3.054235043480867974e-03 5.923215703588746717e-02 -6.205678646545464971e-01 3.467645216945118847e-01 -4.512268772301011310e-01 8.222825984776448438e-01
3.444511593564060503e-02 -1.135948006310672914e-01 -7.808888046394512061e-01 -9.999117385972703387e-01 -9.225248441127858329e-03 -9.560847587092444894e-03
1.597506073611276722e-02 1.829078647243966016e-01 -5.668332111510299143e-01 -4.051140285112688755e-01 2.200852776069793515e-01 -8.873810311720832233e-01
-6.648299239921606762e-02 2.535290925461178638e-02 -5.467347908664625944e-01 5.910229177163603964e-01 -4.200721108992173658e-01 6.886445617143258646e-01
2.486631178574524523e-02 4.825779153116439152e-02 -6.428564670814901350e-01 5.967768208593262624e-01 -4.184095916105405322e-01 6.846830213561136969e-01
-3.821372099133441003e-02 -1.409843740494742537e-01 -6.782806178663791652e-01 5.877480233466245707e-01 -3.866759760162095105e-01 7.106574073518457935e-01
4.758702118964794336e-02 1.537146083344160530e-01 -5.953567291678486528e-01 -4.900347787659665166e-01 4.547757124985947197e-01 -7.436699314354356938e-01
9.277627770741178614e-02 1.165691546033032766e-01 -6.627133781989457129e-01 -7.887880149452930478e-01 4.634779522858809009e-01 -4.037346346593895241e-01
-1.033437108562370033e-01 -1.182483466146553724e-01 -6.412323036919490571e-01 -5.017756233218599871e-01 -6.460542098682524603e-01 5.751827377029554711e-01
-1.053042751244675189e-02 -7.708129889397372092e-02 -6.711013993238966746e-01 -7.909225307645394443e-01 2.831254953928852292e-01 -5.424771923201469059e-01
3.555019278815868544e-02 -7.889455109915148590e-02 -7.559808724894354626e-01 9.713975407615322855e-01 -1.907962967402055954e-01 1.413633295896446485e-01
-4.270426068216818388e-02 8.100293112755664604e-02 -5.331996493813745408e-01 7.503801826361622407e-01 -2.730351535999004375e-01 6.019812176518454239e-01
-3.801009203317669977e-02 -4.729797448984941061e-02 -6.232775881788322758e-01 7.434752454000217448e-01 -3.116291017796002927e-01 5.917194118849044004e-01
3.706819188055076458e-02 -6.691985377587339467e-02 -7.385982008734345294e-01 -9.454441625931914173e-01 2.155051384752394994e-01 -2.443212448994700470e-01
-2.019213338896403212e-02 -3.180905927756359775e-02 -6.362053864313442775e-01 7.601118047159767244e-01 -3.477808995780289347e-01 5.488884132682324557e-01
-1.310127548931479605e-02 -1.742500860398566720e-01 -7.162550542402459364e-01 -6.645451020253082541e-01 2.863038309761612998e-01 -6.902245458852837023e-01
6.709150315084787784e-03 -2.240722146369889534e-01 -7.546209162658765734e-01 -6.788070180948757582e-01 2.223307149404401828e-01 -6.998500449233504561e-01
-5.951849101268340964e-02 4.275333343316022744e-02 -5.359160451959712468e-01 -5.514491454293348749e-01 5.322966405205877827e-01 -6.423115494024317362e-01
5.327202601357342027e-02 1.436950756019824207e-02 -7.593388221689926221e-01 9.358040143151518109e-01 -2.128145031684050281e-01 -2.810352896574235260e-01
-9.402020762601269108e-03 7.420098803084888839e-02 -5.919471091351777847e-01 8.362662859550697991e-01 -2.989560587339313846e-01 4.596563650393497569e-01
-3.002645679330923079e-02 -2.402112598926465711e-02 -6.138713200136869386e-01 -7.505342428544462541e-01 3.270950604171197207e-01 -5.742013338138669543e-01
3.554196345708338783e-02 -4.181217750431662217e-02 -7.193113327771648580e-01 -9.217541985137522875e-01 3.473048207407330445e-01 -1.724777058419940945e-01
-2.201301917946127049e-02 -1.661485452489297188e-01 -7.046529862729539184e-01 -5.955963198106802858e-01 3.664414649012592284e-01 -7.148326214079719909e-01
-9.080978772397173271e-02 -6.978567608074308370e-02 -5.904833318247360019e-01 -2.438710414319857356e-01 5.021513374230274218e-01 -8.296812336525055676e-01
-3.370115324146929353e-02 2.295432332767337671e-02 -5.816380067080491045e-01 -7.080269775913723418e-01 4.395705582117304111e-01 -5.526984018036004143e-01
7.328491461577800459e-02 6.224795702566218725e-02 -7.445807968371233043e-01 -8.294649784588373764e-01 2.882430426646765409e-01 4.784389175910438996e-01
-6.603057065944741011e-02 -1.077342701795480917e-01 -6.356395556650386025e-01 2.927125871025704762e-01 -6.879940123646387518e-01 6.640659457479544114e-01
2.475091116469080310e-02 -1.356221351076367654e-01 -7.532931388088963676e-01 9.509947037695881678e-01 -1.569173549114339095e-01 2.664320122091046739e-01
8.086507507685529450e-02 1.731869509750831038e-01 -6.172960021741202841e-01 6.803369337139231199e-01 -1.123255331115465272e-01 7.242407274076373414e-01
5.062514514798703569e-02 9.372457912422429982e-03 -7.063964685231324259e-01 8.457757024397148937e-01 -3.774834558109506633e-01 3.770539772388418198e-01
5.244403283525245207e-02 1.459960664770873842e-02 -7.623664657412514423e-01 9.518304502221925922e-01 -1.833291671067160400e-01 -2.457828523672384857e-01
6.076698521199894870e-02 1.158693046184723491e-01 -6.250695419882168480e-01 -5.568236989753916344e-01 4.969835800611721588e-01 -6.655484125207894452e-01
1.494244196977872509e-02 2.099574972039953968e-01 -5.627006276186928835e-01 -4.573406197221239200e-01 -1.223616997716344551e-01 -8.808332259748040682e-01
1.764010677975910019e-02 1.532775977683890067e-01 -5.815042702096676619e-01 4.320290267729017808e-01 -3.725062313186298657e-01 8.213342971375606760e-01
-1.951006835347900365e-03 6.631632475784580982e-02 -6.103664887500500624e-01 8.900931122502121484e-01 -2.472830227604453368e-01 3.828646734541961139e-01
-3.679239631071266198e-02 -5.634326751106583098e-02 -6.286950636490262756e-01 7.513000821937084739e-01 -2.458424698702696698e-01 6.124619714756276423e-01
3.169227883166481075e-02 -1.432208129008953335e-01 -7.982752450211403339e-01 -8.895424835871880154e-01 1.031548357608418204e-01 4.450542099033453214e-01
-4.431426542839816268e-02 1.293327175979887000e-01 -5.084021174663609921e-01 5.802474001044570784e-01 -2.681708612413381543e-01 7.690236302306302507e-01
9.777395827368552672e-02 1.289639721426489583e-01 -6.588383662266262819e-01 -7.887358742042429594e-01 4.144470736648781517e-01 -4.540146956585080495e-01
4.668687460706156395e-02 7.844268950041441424e-02 -6.424634881509961870e-01 5.836580580005459318e-01 -4.402874561544375953e-01 6.822684422454885489e-01
8.984181725162368459e-02 1.107064741094035409e-01 -6.637249089360059973e-01 -8.074455964366461513e-01 4.455337960126622976e-01 -3.866927015158369563e-01
-1.675483507968685698e-02 -1.070805684300128874e-01 -6.764816088601864896e-01 -7.816732404444252102e-01 3.132282356311010263e-01 -5.393283022209564015e-01
-4.692846153557951594e-02 -1.812773608414869342e-01 -7.035942081990518293e-01 1.817358074651668209e-01 -6.670959949168675518e-01 7.224645526604461798e-01
-9.711721250254430615e-02 -7.704846651007707381e-02 -5.977984840715044879e-01 8.351121086276738770e-02 -6.498227777306632147e-01 7.554841065188859783e-01
3.243324613841083726e-02 -1.348251248442333960e-01 -7.972639226749949071e-01 -9.584243295344928582e-01 8.032441014418018402e-04 2.853456839611765439e-01
3.612857998007577148e-02 4.350244600879265428e-02 -6.547387870895035045e-01 -6.691062239519445232e-01 5.097359580968623405e-01 -5.408013628790557803e-01
-1.071927395817943302e-02 -1.747650812944353260e-01 -7.215230281391462608e-01 7.098888212969615141e-01 -2.759712627165915033e-01 6.479951570438012842e-01
8.340352240027583408e-02 8.339689854959252135e-02 -6.962861675265056283e-01 8.490902273600081651e-01 -4.470390696190943425e-01 2.814282431381470162e-01
-1.918790982703012446e-02 -9.491303996341413085e-02 -6.669738184004756487e-01 -7.929228070149328955e-01 2.600745417274101801e-01 -5.510305389548179056e-01
-2.204888453607807552e-02 -3.293976389647819002e-04 -6.165644551591940026e-01 8.086511018600514022e-01 -2.131673372198904792e-01 5.483092939236997587e-01
1.633096246235264323e-02 -1.352514936347884444e-01 -7.303787891004825950e-01 -7.029936797535742965e-01 2.658726294673319224e-01 -6.596299198237265404e-01
1.560811560822438632e-02 -3.321177853388967288e-02 -6.813398004173271127e-01 6.723412441861547073e-01 -3.102082000953327312e-01 6.721072265344477659e-01
-1.013890211576816969e-01 -9.247919547596207546e-02 -6.135318987284175130e-01 -1.163960081973035299e-01 -6.998691036109025987e-01 7.047234969025828466e-01
5.459207050475658324e-02 1.348655833028554740e-01 -6.091887809864797720e-01 -4.765920989603015800e-01 3.715671912686372980e-01 -7.967419868322179743e-01
6.258326388334185808e-02 4.788702690081271529e-02 -6.913478192024414826e-01 8.359566763385352095e-01 -4.227378620203878778e-01 3.499559047929620692e-01
1.364376525929510836e-02 -6.887320439038822906e-02 -6.999852612841414023e-01 7.488502367118242686e-01 -4.299054991281596183e-01 5.043853534709474840e-01
-3.299059475916459733e-02 -6.181671713374271848e-02 -6.324358954018053369e-01 -7.378283079590010063e-01 2.746808185662896751e-01 -6.165710306899852000e-01
5.008241386857188032e-02 8.960660144597581978e-02 -6.352556449958576268e-01 -5.008297865611108790e-01 4.931904080102856858e-01 -7.112894954516056911e-01
1.067318530192351567e-02 -1.916636928425065056e-01 -7.450434233005025497e-01 -6.061559097340508684e-01 3.277879773190366941e-01 -7.246585782419053823e-01
-8.312609553792134343e-02 7.917041133030228856e-03 -5.456479208928246560e-01 3.368147416656031568e-01 -4.688064430758648871e-01 8.165637444359680197e-01
-2.029215061257302888e-02 -6.013088504144702140e-02 -6.520119533923808275e-01 8.072585348497722801e-01 -2.170350349390133826e-01 5.488437405320573115e-01
7.330711658345992476e-02 1.325886888009100428e-01 -6.281692155422392565e-01 6.193866388910227450e-01 -3.865936468778846669e-01 6.833048688227965073e-01
-1.281559195065056379e-03 -1.825464316959262978e-01 -7.322413046855088536e-01 -7.256747258378418719e-01 2.415938841963104766e-01 -6.442271240790105047e-01
8.263505381795241411e-02 1.017716249380750532e-01 -6.669087573086940335e-01 7.838076123336344958e-01 -5.144041412863951113e-01 3.478994197684919798e-01
8.877576602894225732e-02 1.222798814680314677e-01 -6.547370482240491008e-01 7.709526600230612869e-01 -4.228881140567127828e-01 4.762327571607425925e-01
-7.734248544522176472e-02 4.101080393766528415e-02 -5.289189506602349766e-01 3.361183326854758069e-01 -5.824476096410171611e-01 7.401211039121914359e-01
1.349335646789024540e-02 -1.855973762913388780e-01 -7.511107550267446253e-01 4.825524740960966952e-01 -3.766588832871980985e-01 7.907409154613015412e-01
-1.046146845311714396e-01 -1.332362433619331821e-01 -6.639416434312667148e-01 9.644781613628458095e-01 6.487638159906726487e-02 2.560721214126135958e-01
-1.248656089035118065e-02 1.021734893659759780e-01 -5.695454515875988388e-01 8.053031390144006485e-01 -4.093324559194976842e-01 4.288750340419285045e-01
-1.057293047129257146e-01 -4.995010318013728967e-02 -5.703968400543207862e-01 -1.115744338531112767e-01 6.204954227615366857e-01 -7.762322951554768702e-01
-1.265227550485257396e-02 1.674905425268404524e-01 -5.318704324345445711e-01 -8.267424079684079219e-01 2.491713138192955777e-03 -5.625751347440050010e-01
-5.841601470767520538e-02 -1.022854836750500818e-01 -6.346816028424616674e-01 4.506783599531831164e-01 -5.897319042973765413e-01 6.701531891468539559e-01
6.722448021896158810e-02 1.284042248677305376e-01 -6.223786589910694778e-01 -5.832601476380064875e-01 3.984073467590935058e-01 -7.078694697652034851e-01
-6.047964309683798861e-03 2.481749526679603163e-02 -6.220088581144399553e-01 -8.163935813351673731e-01 3.571299696074297092e-01 -4.538278364786977326e-01
3.115726494196350161e-03 -4.832555706406605617e-03 -6.487105881326552526e-01 -7.753251361108783879e-01 3.202032322066336589e-01 -5.443719531708742787e-01
8.270260009245560678e-03 2.281339318530038462e-01 -5.631079470410510490e-01 7.704435899090055218e-01 -5.796216780982317296e-01 -2.654343328334034524e-01
-3.555264512775247604e-02 6.862435855008335028e-02 -5.454640318351439143e-01 -7.716649697334911906e-01 3.263306192090758562e-01 -5.459317736245355990e-01
-1.960967603905668620e-03 6.469776598435693360e-02 -6.058896310022577891e-01 -8.053573350185210256e-01 3.032283880646249319e-01 -5.093644153291382315e-01
-7.201565466138172555e-02 -1.431529664908416100e-01 -6.618157746045810752e-01 1.769652875054007479e-01 -6.368212679331924919e-01 7.504278511130113571e-01
6.406929932139111827e-02 4.458129141717299959e-02 -7.486852572992158672e-01 9.196791300249914647e-01 -2.737094412736675308e-01 -2.815553934026684413e-01
3.059971506470644809e-02 1.664760028561733107e-01 -5.822827773231116222e-01 4.035960525571856694e-01 -3.571041170957682254e-01 8.423697976028753365e-01
3.440804013246172993e-02 -1.305079220285918773e-01 -7.840856591789286956e-01 -9.945609131995825081e-01 2.147288564392282537e-02 -1.019191106600508823e-01
-2.871429857956120726e-02 1.085619105903508214e-01 -5.333507233963643568e-01 -6.965269481937023111e-01 4.485226320989366133e-01 -5.600693340426786682e-01
8.500001399507517430e-02 1.595792058675800651e-01 -6.222507492697583187e-01 -6.840131777424831583e-01 2.761960449788118388e-01 -6.751605123322099722e-01
-4.774092920667031420e-02 -1.848189046017160442e-01 -7.066022074485367455e-01 1.847166932818819773e-01 -6.595895498437933657e-01 7.285748890538769063e-01
2.768281395840850589e-03 -7.166841200644433196e-02 -6.841973536948640078e-01 -8.714848106455244103e-01 1.988584947747898679e-01 -4.482962456568638232e-01
-4.762058964269096084e-02 2.979685098484030278e-02 -5.584684541809543656e-01 -6.233643260553084486e-01 5.260445251819243495e-01 -5.785275054202130285e-01
-8.770670581810299793e-02 -1.501769769968921975e-01 -6.691831303341997383e-01 -3.340108509734135978e-01 -7.246343139749296114e-01 6.027784522045387394e-01
-1.985838345155958862e-02 9.068476569846459223e-02 -5.643165518496516819e-01 8.641040121392554729e-01 -2.154167723682296476e-01 4.548844582828652783e-01
-7.234075642371484705e-02 -7.460824946144962999e-02 -6.057466153439995393e-01 5.108677459166125479e-01 -4.724693241111549979e-01 7.181830434896300241e-01
-7.127519987233284227e-02 8.235710449915124853e-02 -5.078441213261281062e-01 3.797819247750169880e-01 -3.611355520575703637e-01 8.516729434790429876e-01
-8.178748550102152293e-02 -1.010860614124004936e-01 -6.235697833479454388e-01 1.609439681466541816e-01 -6.989332182988415854e-01 6.968424466661258254e-01
-2.640898586722504812e-02 -5.655031837157017266e-02 -6.418774497430321802e-01 7.844628307019846369e-01 -2.350804391076571076e-01 5.738948112642077160e-01
4.338239370842129211e-02 3.349573874886190017e-02 -6.695772254994201145e-01 -7.101855773585791232e-01 3.710197125935687512e-01 -5.983149827464188109e-01
-1.131646400287360521e-01 -9.712724961779979627e-02 -6.238038020640688242e-01 9.271842207268791158e-01 3.025192287709204120e-01 -2.209333317065070024e-01
2.933151359291204241e-02 -1.030107080269140329e-01 -7.420870946718272076e-01 -9.429260613713357220e-01 1.885444419494226587e-01 -2.744839452440173133e-01
-1.088084405942371102e-01 -1.028294000349395665e-01 -6.289881839992566004e-01 -5.766952230899889953e-01 -6.173854809595379356e-01 5.350306417071343246e-01
5.780371563317595468e-02 3.357450391915094146e-02 -7.576925915572227943e-01 9.140664748631784908e-01 -1.665803227274152698e-01 -3.697748985683483869e-01
-8.266273361023361577e-02 7.833625419510704957e-02 -5.049290020264205481e-01 2.530856032144632728e-01 -3.969126595821038106e-01 8.822743440160957240e-01
-1.174152757056503016e-01 -5.547062643364566309e-02 -5.766116791000591713e-01 3.026540136470964870e-01 7.070863243734625270e-01 -6.390848753548541428e-01
-7.190806285782494478e-02 -9.521910294666308464e-03 -5.603912506228473367e-01 -5.206645251576887956e-01 4.435567989137039757e-01 -7.294969625569021066e-01
9.774811779171672932e-03 1.521477242532811858e-01 -5.744471344547890101e-01 -6.835356302991926203e-01 2.583884204976440446e-01 -6.826525223451664903e-01
-2.334534575033931584e-03 -1.907438369217273610e-01 -7.344712378141208253e-01 -6.950428147948580770e-01 2.451225494299949514e-01 -6.758923149163483801e-01
-8.991206747803848209e-03 -4.992201114919374294e-02 -6.648943352236076354e-01 8.742838760720924585e-01 -1.724156495760701402e-01 4.537626558252894626e-01
-1.897430455333585717e-02 -2.170547357969949964e-02 -6.319915820969161935e-01 8.014364991093402280e-01 -2.769002337561731752e-01 5.301186644904526402e-01
5.069019676792319018e-02 6.789289875882785485e-02 -6.538905176318139389e-01 6.880392105880908105e-01 -4.810322208447685433e-01 5.433323542754163737e-01
1.168463182191711858e-02 1.976832314359491458e-02 -6.448865830655882148e-01 -6.698278641412132028e-01 3.616069674906471909e-01 -6.485144820913703034e-01
-7.578542164637816492e-02 -1.146636589848405857e-01 -6.374227874089748447e-01 3.263922961090098829e-01 -5.900927036492714661e-01 7.384163257543685521e-01
4.218955822620750612e-02 -3.561849153407421753e-02 -7.432233300549909716e-01 9.499828099618021771e-01 -2.212628400396096928e-01 2.203983130486355524e-01
4.056500384320702035e-02 -3.081803633810402052e-02 -7.245332004369057222e-01 -9.287447233938493918e-01 3.398524429173049866e-01 -1.480998170533040226e-01
-1.411938638469449267e-02 4.326673752406231394e-02 -5.973239604405714553e-01 -7.981677394793292857e-01 3.549918983777858306e-01 -4.867329984093879403e-01
5.136286528641472067e-03 -5.902434563168271198e-02 -6.845408989393974020e-01 6.186661434876794541e-01 -3.577603075116312370e-01 6.994710610677649099e-01
3.374746361837584890e-02 -1.149800795240298601e-01 -7.897230895117556271e-01 -9.804029509702910650e-01 -2.416341265206168459e-02 1.955151738810861906e-01
-1.072044870626572832e-01 -6.357208730564044286e-02 -5.852506138998819774e-01 -1.218959141506432281e-01 -7.209758489627280387e-01 6.821548294381948319e-01
3.175818976759922901e-03 1.471687887990652810e-01 -5.676939877174173033e-01 -8.664919150735159725e-01 2.114652383478900499e-01 -4.521882507127988338e-01
-6.443061938562712719e-03 -1.110131929924897676e-01 -6.994652477072699215e-01 8.447793294187494473e-01 -2.368785577054702551e-01 4.798295879645022022e-01
2.863708179179361851e-02 -7.874358693647595664e-02 -8.040002665280241434e-01 -2.101015283692677094e-01 -5.021291169670494270e-02 9.763892724092357867e-01
5.434309202667678661e-03 2.631806495113867689e-02 -6.393232973339163516e-01 5.704649994253208067e-01 -4.516325117759008578e-01 6.860012818775629295e-01
7.819741298587232214e-02 1.071425286423985657e-01 -6.525225502948487355e-01 7.275959649029516418e-01 -4.758379846732602170e-01 4.941480792222438523e-01
2.303353534663568278e-02 1.416522338168992590e-01 -5.899345721831196210e-01 4.314389924454738456e-01 -4.111912864646136700e-01 8.029832636694306247e-01
-5.172441896653783185e-03 1.940171769576824745e-01 -5.468405316715047038e-01 8.138190272794454394e-01 9.074614188068887144e-02 5.739893105029981735e-01
-2.503423951500752601e-02 1.790778327406634118e-01 -5.178489440468708738e-01 -7.646176999613056857e-01 -1.341398770448945510e-02 -6.443445024517137076e-01
6.635078037840192768e-03 1.695807192709180566e-01 -5.687669522881592110e-01 8.132728898416649033e-01 -7.879609438417205236e-02 5.765226640457320473e-01
5.668047124114244939e-02 2.194522268650803132e-01 -5.979596932637206708e-01 6.579209574081161804e-01 3.955017946133951856e-01 6.408731108891770889e-01
4.336611064108484431e-02 1.401304411129336847e-01 -6.028411232055769231e-01 4.489618707468905345e-01 -3.949343976194413797e-01 8.015360629394172598e-01
-1.479803643180977422e-02 -1.855958381108929744e-01 -7.231593424104810763e-01 5.368493873126862770e-01 -3.673571623274224374e-01 7.595007904069207560e-01
-1.418236663044341629e-02 1.177522335764158989e-01 -5.531143513062756201e-01 8.228120222506491999e-01 -3.516953854293234372e-01 4.464199053665917072e-01
-6.094646467134652579e-02 -3.758473864357261829e-02 -5.884188432073095276e-01 -5.711917085859841148e-01 4.861488666820906746e-01 -6.613617100092377132e-01
2.043586935310105768e-02 -2.909018752670891605e-01 -8.018674611237012195e-01 7.877081158864365218e-01 2.111316168407168219e-03 6.160450198732863036e-01
1.409252386603376990e-02 3.868938908117085934e-02 -6.358356593434185688e-01 -5.787505174063234392e-01 3.678171275335670454e-01 -7.278450379681576932e-01
6.590497766715365524e-02 7.326811159748104763e-02 -6.667563523112517432e-01 -7.435483816672029400e-01 5.397113252855785248e-01 -3.947752391913254000e-01
-3.002562103905299234e-02 1.914772141932020721e-01 -5.121717130313329092e-01 -6.989731043839154667e-01 5.959529343502751458e-02 -7.126605084809350954e-01
-9.155347552926806909e-02 8.497029947359240054e-02 -4.995736128838952350e-01 1.076927785647932845e-01 -4.586860902278130925e-01 8.820483751339928125e-01
3.045681778160281086e-02 -2.481423293749770165e-01 -7.828049636790335164e-01 4.275077602611936922e-01 -2.065405700672855449e-01 8.801011918141792290e-01
-1.041121708944958424e-01 -2.554350475623673802e-02 -5.557608410835233048e-01 -8.408055561470814676e-02 4.976630428039460208e-01 -8.632855587779976192e-01
-5.967905891891795572e-02 4.669887133420632525e-02 -5.326561566146363891e-01 -5.573075261891053955e-01 5.143617231089365749e-01 -6.517977746612710899e-01
-5.587119510236576714e-02 7.431758825983014738e-02 -5.223238708254550611e-01 6.464899017165418593e-01 -3.450917704600827141e-01 6.804134602866568349e-01
5.972385517065259553e-02 7.847486665414125928e-02 -6.513587970919710868e-01 -6.165173477793353118e-01 5.282000082241971040e-01 -5.838759381915752389e-01
5.489129069724619364e-02 1.017978940053194531e-01 -6.305170563973394593e-01 -5.037460371984335827e-01 4.923663483557854104e-01 -7.097994850756542684e-01
-7.876542852387180549e-02 1.036753290058084892e-01 -4.953256665570622830e-01 4.360468741236415147e-01 -3.958194396779893265e-01 8.082017661079465842e-01
9.182479646994397282e-02 9.221262230864465947e-02 -7.094824005974748049e-01 -9.133950325739990106e-01 3.986644042405808608e-01 -8.231772142525692337e-02
4.012353109799833561e-02 1.001613358684962096e-03 -6.887588491326069873e-01 -7.671536925127849793e-01 3.628184823654445612e-01 -5.289971275139734308e-01
-7.514754127314395016e-02 -3.689269629352378427e-02 -5.794327473374796256e-01 5.166243012793058087e-01 -4.115219756772096615e-01 7.508322015353330325e-01
2.625179948423998072e-02 -1.418796575895986678e-01 -7.533864352386984153e-01 -9.175415005758141840e-01 9.226009547791931553e-02 -3.867889211229924018e-01
-4.441520729431648606e-02 -2.156477490861610780e-01 -7.328646100100366656e-01 2.370247854032177803e-01 7.714031779373234921e-01 -5.905559991844603340e-01
-8.142590503895273668e-02 -6.262450850088738252e-03 -5.523575783620360280e-01 -4.127568866332081976e-01 4.756912895601533853e-01 -7.767557850273527631e-01
5.707084979450115919e-02 2.011572611992422377e-02 -7.494208431439076668e-01 9.226910351796266951e-01 -3.506809245472400915e-01 -1.602003207170383525e-01
2.680304736071380603e-02 -4.284082117450808275e-02 -6.969903320542917280e-01 -8.122896945870012875e-01 3.702897742998617070e-01 -4.506339258386051760e-01
-3.009968151350024546e-03 -1.957974861484138296e-01 -7.386745340487854694e-01 7.883622746069179898e-01 -1.779219260017006476e-01 5.889216520255065035e-01
-9.292156584556329757e-02 -3.061332996833822373e-02 -5.617635632983927207e-01 -3.926709592189867593e-01 5.222834190151358635e-01 -7.569871518116412235e-01
4.122844952986393086e-02 -6.203642131560274664e-02 -7.638445782692122599e-01 -9.871844830009017802e-01 1.595116037016082733e-01 -4.779624125730118703e-03
-4.093714843368791850e-02 5.361348143524075766e-02 -5.475577548078434109e-01 -7.360364692413314813e-01 3.695050564356483491e-01 -5.672004312544575155e-01
4.127824212338478821e-02 -3.249114007319438280e-02 -7.368368792978562398e-01 9.457744265859763244e-01 -2.179338278954633945e-01 2.408642370191108883e-01
3.490379052662075099e-02 -1.568136867837968337e-02 -6.922388874677326553e-01 -7.809984138086318861e-01 2.979712127574160041e-01 -5.488666814412002104e-01
-5.822297821991241629e-02 3.337474625242505682e-02 -5.447580055458332016e-01 -5.718161647525172864e-01 5.133199935611654219e-01 -6.399444178505561132e-01
7.902540244593443675e-02 6.573039751706880041e-02 -7.067554230961693440e-01 -8.568232732318784572e-01 4.841378066489477883e-01 -1.773822500177401618e-01
-2.891698527689659515e-02 1.189233836254917076e-01 -5.288767429566637590e-01 6.969370572544570930e-01 -3.760158110267344811e-01 6.106478920649809350e-01
-1.012621785362623206e-01 -1.228995635315486279e-01 -6.446446813097734818e-01 -5.011947419347716481e-01 -6.466012964296309340e-01 5.750744248464352282e-01
-8.772318766870240703e-02 -1.641734102107792193e-01 -6.825927210111618626e-01 4.462031306822060728e-01 6.830480266751833840e-01 -5.782284664598728030e-01
3.609357916601136501e-02 5.372272624981953154e-02 -6.495261729557119112e-01 6.059625517720806931e-01 -4.928494428631288726e-01 6.244267871571268502e-01
-4.412175520083007341e-02 5.817683840368442771e-02 -5.441580836634224427e-01 7.224623337098723397e-01 -3.698978880908413425e-01 5.841435857359219552e-01
1.765604708661520353e-03 -9.574469289542417161e-02 -7.019938320909518970e-01 3.026700987402267673e-01 -4.179268064541538652e-01 8.565792408035659555e-01
3.176797638854371442e-02 2.248752754442346624e-01 -5.759729710382373025e-01 -5.345736010350562450e-01 -3.084680783321077646e-01 -7.868154229083904605e-01
-1.162397543285689783e-02 8.554504595940180811e-02 -5.773475643508564348e-01 -8.663236240984922842e-01 2.222278156544309213e-01 -4.473233464489805855e-01
-2.020312119008476834e-02 1.345561407880560834e-01 -5.287870289436923388e-01 -7.911709209012930399e-01 2.242082158337785069e-01 -5.690160365691233624e-01
-4.236382007728844989e-02 6.175618084350058268e-02 -5.440765265781593030e-01 7.265073859369126641e-01 -3.676850300792260939e-01 5.805124777597400199e-01
6.313184685446450797e-03 -1.492192012304460920e-02 -6.585311685311580066e-01 -6.283055205504537444e-01 3.682663145835458063e-01 -6.852824923992119066e-01
-7.440633965269784211e-02 -1.355116627431690868e-01 -6.520939153979143921e-01 -2.059240617434014708e-01 6.895409232851975601e-01 -6.943548054921898638e-01
3.510930091907957240e-02 7.190616979634552319e-02 -6.343571874108087094e-01 -5.423959023854150185e-01 3.913976767641278443e-01 -7.433804838029812734e-01
1.452675027505990341e-02 -2.068365032719917534e-02 -6.705095179967814900e-01 -7.063438329298611373e-01 3.559651466924890761e-01 -6.118555417924619322e-01
-2.694632023330541595e-02 -2.123178099545917630e-01 -7.331474945532510112e-01 1.452125969935694205e-01 -5.893095760410772543e-01 7.947499765716692366e-01
3.163688871348052656e-02 -1.287901322597392595e-01 -7.773471143765090519e-01 9.910527951599187313e-01 -2.900073716913129790e-02 1.302816734976921520e-01
3.228843939166593791e-02 -9.771976562245775211e-02 -7.594208155466326549e-01 9.836196734926803131e-01 -1.436228664215907225e-01 1.089257093573360591e-01
8.309032214361783408e-02 8.456484806555374101e-02 -6.934989994315492456e-01 8.575529417976792690e-01 -4.322827220132557380e-01 2.788092542634774684e-01
-8.574058703338528764e-02 2.377391065097398185e-02 -5.321244152548090245e-01 -2.773666247184175537e-01 4.717883978067661799e-01 -8.369489011804945866e-01
3.047492314888128676e-02 -1.087079846699778723e-01 -7.498843690647976068e-01 -9.577353757409653445e-01 1.692827013797330860e-01 -2.325646513722406661e-01
-1.959918246805623585e-02 -1.342427768433092916e-01 -6.928335197645754118e-01 7.071534612409539067e-01 -2.782256307174545418e-01 6.500188310093893973e-01
8.453121843343699635e-03 -1.082972603401735623e-01 -7.126928661575617774e-01 6.641479865511472624e-01 -3.032913197544096495e-01 6.833167840187197584e-01
8.085860970596134983e-03 -1.766844380137493620e-01 -7.457824783932271995e-01 4.551140965693548091e-03 -4.589397905416880419e-01 8.884557140192537172e-01
6.114389629766064926e-02 8.053069929982220598e-02 -6.510360872432688906e-01 -6.428347957930697909e-01 4.591332797275752275e-01 -6.131558176877084376e-01
7.703675103038501448e-02 1.460289333741003615e-01 -6.210946406565442945e-01 -6.198344296880153870e-01 3.673713132213062282e-01 -6.934288701773136943e-01
-1.279166475100098482e-02 1.955570440005356125e-01 -5.363197128325913887e-01 8.073043570568998462e-01 8.417809881769872105e-02 5.841007813351936084e-01
-6.373382984260141104e-02 -6.594017100915677831e-02 -6.036309131326884625e-01 -5.401083104635201471e-01 4.657518885655875240e-01 -7.009694652877757060e-01
1.096213184092340587e-01 1.669465823037709906e-01 -6.532646104881776328e-01 8.325969252389447961e-01 -3.064249254771095332e-01 4.613958442909977253e-01
3.520896921882656766e-02 -1.986621584150738695e-01 -7.874306130725933217e-01 -1.827814069458189583e-01 2.939678409706903972e-01 9.381758181438797362e-01
6.820813436113712380e-02 1.791979121277823550e-01 -6.030669226903622171e-01 7.113759770628104162e-01 -1.621770273804710449e-01 6.838441569889778249e-01
-1.109968292581421517e-01 -2.621784416568474080e-02 -5.560580481437710221e-01 1.304688654666355252e-01 4.644379530402324430e-01 -8.759424997793221479e-01
-3.715407636444655048e-02 -8.421060145177874934e-02 -6.419856580220054676e-01 6.697169776429200416e-01 -3.439815169840229059e-01 6.581457937495329702e-01
3.128509500337418869e-02 -5.043647258152026552e-02 -8.005508293220218174e-01 8.140669259287226511e-01 7.126795870237677410e-02 5.763817469102887614e-01
6.607009403799322944e-02 1.941337690805536864e-01 -6.000273870212815552e-01 6.862795896898903347e-01 4.714290780720363505e-02 7.258084258387726972e-01
8.494237952221535964e-03 4.034158885052824273e-02 -6.304408971782416993e-01 -6.208147601707584284e-01 3.462548381264375918e-01 -7.033467285970399496e-01
-6.962852326666230107e-02 7.825760613201847293e-02 -5.082281505957085832e-01 -3.821086674473384570e-01 3.769032035298282568e-01 -8.437635577758572092e-01
-1.865231294302924225e-02 -8.449375669188051441e-02 -6.628380760741013900e-01 -8.081705298891984635e-01 2.483855206674271676e-01 -5.340084528744684089e-01
-8.018326799371871746e-03 -7.190794990459310754e-02 -6.790732331223726659e-01 9.802268769792904513e-01 -1.471115054579174297e-01 1.323384849895601345e-01
7.045351168100538741e-03 1.663965272178251353e-01 -5.705706721781484969e-01 7.615300847994860289e-01 -3.643520612792038871e-01 5.360219262183990585e-01
-4.831442274790035372e-03 -1.083526471943030561e-01 -6.948877497383481039e-01 -5.619422345561841947e-01 3.546444561862582279e-01 -7.472939413098138584e-01
7.943376581907284073e-02 6.501759366068152191e-02 -7.308701418935135141e-01 -8.972557412593855641e-01 4.235514111805654403e-01 1.246448429098535315e-01
2.576368961229995314e-02 -7.881084122781552292e-02 -7.232648274475915740e-01 8.688048436244931727e-01 -2.216653760317874033e-01 4.427669869844706452e-01
-9.770320481228639276e-03 1.617899424105665243e-02 -6.214077674571034660e-01 -7.901669380342811744e-01 2.999672306917171571e-01 -5.344678386476313658e-01
4.742109456382886945e-02 -1.792828079774569719e-02 -7.385372480268916906e-01 -9.021609316585399441e-01 3.583558490894471760e-01 -2.401806378798607700e-01
-9.783596939058762654e-02 -1.311045730280847865e-01 -6.492225306833313558e-01 3.312836164361628311e-01 6.688478182687603857e-01 -6.655026382202378077e-01
4.531876804665965763e-02 1.252189476071919327e-01 -6.084733938392036245e-01 -4.481172062393943833e-01 4.382134386765824119e-01 -7.792046917437326359e-01
-4.302868273752806505e-02 -1.339618155823059653e-01 -6.706652577384496494e-01 5.122141850146981756e-01 -4.366981867230986247e-01 7.395480527879756405e-01
-2.248930448745781879e-02 1.467984801862791122e-01 -5.212896752673074063e-01 -7.707944226882198491e-01 2.012762979104638361e-01 -6.044533148657487143e-01
-3.521024348859981903e-03 7.015810323847192220e-02 -6.050069568171959622e-01 8.159326517823025648e-01 -3.588227230897709230e-01 4.533212560094013188e-01
7.634048400362111741e-02 5.744917733259224946e-02 -7.280438081379642101e-01 -9.142409402916035210e-01 3.988806645366971271e-01 7.111763883515440088e-02
-7.974830306517156908e-02 3.006951627442015773e-02 -5.314887958803052870e-01 -4.768243316917337715e-01 4.402992337210030471e-01 -7.607727265691304197e-01
-6.634618509566361788e-02 -2.183054331697132679e-03 -5.635529316587571946e-01 5.908693319521585163e-01 -4.297367571213169257e-01 6.827882190967152765e-01
-1.041255032397843394e-01 1.102554136788862953e-03 -5.411354085838624428e-01 1.535339350240107759e-01 4.027799166663565966e-01 -9.023279168496814995e-01
2.075702028791764214e-02 -1.874576306439862949e-01 -7.554663211107041088e-01 -6.697219991347203027e-01 1.261345752429100797e-01 -7.318213667304913628e-01
-8.233873715746928279e-02 2.912188757803935504e-03 -5.491708929237097969e-01 3.747458073159690151e-01 -5.094999968643252330e-01 7.745807466587039114e-01
-5.442815289861596684e-03 -1.150344105150712254e-01 -7.082571715948147162e-01 9.924364924491354545e-01 -2.429337972678676655e-02 1.203313764431688665e-01
-3.521302349418851951e-02 -1.522068846224413630e-01 -6.850389887358964147e-01 -4.949628218127997692e-01 4.853187595174477398e-01 -7.207478801103450738e-01
9.821315769765898152e-02 1.120117203509624487e-01 -6.912591698292132047e-01 -8.803691484831813741e-01 4.604820764315256110e-01 -1.136064244851882898e-01
-3.006970578655786264e-02 -6.581913529050589795e-02 -6.377142849172791061e-01 -7.378283079590010063e-01 2.746808185662896751e-01 -6.165710306899852000e-01
-6.850292814303057809e-02 5.113355769968105924e-02 -5.233897125420540197e-01 -4.171940854597342985e-01 4.925093810904301317e-01 -7.637955253831599789e-01
7.430740112886419224e-02 8.013015457055049084e-02 -6.798799575795542172e-01 7.451268790483924764e-01 -4.568725811814334237e-01 4.858532480947481691e-01
2.776660939722174967e-02 -7.910608827361129136e-02 -7.274720969834496120e-01 8.825638121897856347e-01 -2.490054007723246643e-01 3.988451175572375051e-01
-1.316323480208411029e-02 1.029135163001309271e-02 -6.202274033039220091e-01 -7.745696317833022926e-01 3.357085325912293472e-01 -5.360425978077887343e-01
1.169859212157490884e-02 1.482789580218465131e-01 -5.806701142277181926e-01 4.281248636518936168e-01 -3.771247147554704915e-01 8.212709970793151681e-01
2.588315983921488789e-02 -1.669767456412492856e-01 -7.563736315790169362e-01 -8.496008374791431672e-01 1.008567136250061724e-01 -5.176932878370185120e-01
-3.795990495144829779e-02 -1.863448396769719351e-01 -7.109177666758264014e-01 2.241499368898629274e-01 -6.749264112153844364e-01 7.030157503471684555e-01
-5.299769756928173620e-02 -1.785324460490340381e-01 -6.993481583400391610e-01 1.660937547494505950e-01 -6.985384577554283325e-01 6.960293727062794034e-01
1.456119454578260614e-02 -1.878186471024358151e-01 -7.528204797458942776e-01 4.825524740960966952e-01 -3.766588832871980985e-01 7.907409154613015412e-01
-6.324303436408422463e-02 -1.388828859121744030e-01 -6.616560813922076623e-01 3.534348771653664234e-01 -5.751149042247289955e-01 7.377849514199127379e-01
-1.006693890688715176e-01 7.664127160247184711e-02 -5.027830278005028797e-01 9.516553983100921599e-01 -2.229922278200789920e-01 -2.112497791693472571e-01
9.599263092620777607e-03 1.167786776152791306e-01 -5.904989995329594787e-01 -5.943447333426175039e-01 3.464068622647974993e-01 -7.257800105567460136e-01
4.442292443341168406e-02 2.354405657823146203e-01 -5.942156680261213575e-01 -5.968166822392607651e-01 -6.631411132550978360e-01 -4.517230475764001385e-01
-5.602124495473467802e-02 -1.678606118269729830e-01 -6.886627255145989501e-01 3.091085108855117225e-01 -6.174353555618181666e-01 7.233432865523760080e-01
-8.823129882140642519e-03 1.632005519493935075e-01 -5.376927603515745391e-01 -8.611284402710087660e-01 6.837430272136105214e-02 -5.037685620240582862e-01
4.834733185438958025e-02 -1.053984338565503755e-02 -7.494873020066972202e-01 9.695199174155675337e-01 -2.440614711377190604e-01 2.156682731890348370e-02
1.296105559632220426e-02 -1.996044194568315222e-01 -7.574418526688272424e-01 -4.240901429362747138e-02 -4.543675755320464305e-01 8.898042379151568371e-01
-6.959713334891458325e-02 -1.160640123972997151e-01 -6.388201286548327307e-01 -3.756857472605064641e-01 5.660075432307988264e-01 -7.338226490856970541e-01
-1.194582723747553317e-02 -8.239730649074685290e-03 -6.356727960444141790e-01 8.035216978294242862e-01 -2.718190293161610316e-01 5.295916317493500891e-01
9.172836508642956410e-02 9.892122244657912400e-02 -7.165442620753705860e-01 9.524277084622010392e-01 -2.906914891893588315e-01 -9.154189350408584169e-02
-1.789770596859539820e-02 -5.847860352892198660e-02 -6.548641720173247194e-01 8.018678334519832029e-01 -2.171853883147822351e-01 5.566313724338395330e-01
-1.034426378627829463e-01 -3.644209974219294462e-02 -5.621280318478021343e-01 -1.550970959538521543e-01 4.988290495427210591e-01 -8.527100739166783017e-01
2.882037451251658403e-02 -1.779551516185130799e-01 -7.686816808072307605e-01 9.424315587595789578e-01 -3.645921509536038246e-02 3.324055996649585287e-01
5.934114578262825179e-02 1.938973384747226525e-01 -5.940179454190678277e-01 6.589299047226250261e-01 2.478506828612213331e-02 7.517959038544199668e-01
7.534691685720802667e-02 7.500557637988988779e-02 -6.867105453255836212e-01 8.049865107507363504e-01 -4.605749101454227334e-01 3.739885956200942885e-01
7.217023363052670060e-02 8.754334249659374845e-02 -6.646868381414576810e-01 7.353085407486446012e-01 -5.245527908398325279e-01 4.291453361324595317e-01
-8.113251064054737005e-02 -1.117121315322999464e-01 -6.331234218596213381e-01 2.547422694239615537e-01 -5.756213835317468552e-01 7.770240659012610518e-01
6.977246727824243247e-04 1.550914241734918653e-02 -6.352350901084813373e-01 -6.355943463793782833e-01 3.753612334295085562e-01 -6.746286173064771630e-01
3.808166408368125061e-02 -6.777333017401564186e-02 -7.432728247614925898e-01 -9.454441625931914173e-01 2.155051384752394994e-01 -2.443212448994700470e-01
-5.858060435906371766e-02 6.558252980360920747e-02 -5.214407767023518936e-01 -5.406802750950489012e-01 3.999793727410177469e-01 -7.400549584354153554e-01
-6.601625526672544320e-02 -5.669991764503402865e-02 -5.989609322651842094e-01 5.903325249483883930e-01 -3.965221319422855273e-01 7.030488666287751931e-01
-8.259568420656480947e-02 1.121593582896422692e-01 -4.895154370948660572e-01 3.115547894508905458e-01 -4.176103835422098065e-01 8.535427234344743486e-01
