-3.941846214222023692e-02 -1.195780276017201493e-01 -1.013913558631280631e+00 3.732665233501902269e-01 -4.527675110516576340e-01 8.097367988934113248e-01
-6.728924096217074949e-03 -2.489020648371232103e-01 -1.116568682439274873e+00 -3.393252318986633709e-02 -6.408420509627529293e-01 7.669224534383001224e-01
-1.018761932766639594e-01 -1.159738581665282625e-01 -9.574415143500537573e-01 9.309303088853149166e-01 1.417233552120010509e-01 3.365757724289515362e-01
4.094007351663064148e-02 -2.682454591345478576e-02 -9.682956362209281798e-01 4.759954387329476053e-03 -4.432493466874949939e-01 8.963857202651875911e-01
-6.034264520420912215e-02 2.054649124589965625e-01 -8.149576949807413317e-01 3.049116972586828900e-01 -9.468826312187723637e-01 1.021867876539989811e-01
5.365133325010659759e-02 8.625281911464231788e-02 -9.132272391690099411e-01 1.496994797403287392e-01 -4.414790932167144688e-01 8.846955838128855998e-01
-7.671765284150330877e-02 9.871401064833697225e-02 -9.151057500034166514e-01 2.205392024941470464e-01 4.541688319048414191e-01 -8.631877734823619752e-01
1.450137748529541255e-02 -9.513031055366834299e-02 -1.001885518939708675e+00 -2.519318534736721404e-01 4.500783154789007590e-01 -8.567145680686160114e-01
-8.520498200112552878e-02 6.018746940729898659e-02 -9.287380915396848957e-01 -1.553253412829568858e-01 1.460957135004227747e-01 -9.770005531483262340e-01
2.080699610318339707e-02 2.734986919411184353e-02 -9.345477813150028235e-01 -1.097148273738362545e-01 4.397976321308582626e-01 -8.913701248226908458e-01
3.290464553307970857e-02 -1.806406167608323385e-02 -9.638245110147241057e-01 3.442835581685681906e-02 -4.405403278110431309e-01 8.970724095009758869e-01
2.153147539620684989e-02 -1.786104070484547945e-01 -1.057696650379923664e+00 -1.416561189538973198e-01 -4.801255363656481978e-01 8.656864405155703102e-01
1.350966528149072643e-01 1.011169401928966628e-02 -9.302290495068604725e-01 5.823296924111978079e-01 3.963778049084781818e-01 -7.097723332958365550e-01
1.201269944499438469e-01 4.594796335075692489e-02 -9.238900313743857451e-01 -4.298804968261010218e-01 -3.198234339990473352e-01 8.443433718065189719e-01
4.934830064966477803e-02 1.737971776417855108e-01 -8.653738057772117909e-01 3.434984117618894439e-02 -5.992855991125179971e-01 7.997980114425898845e-01
7.719473561524482774e-02 1.692335171026455309e-01 -8.659454591318209715e-01 -2.068791842570584516e-01 -5.862017767603816543e-01 7.833061215413203993e-01
2.004629578995112404e-02 2.961399916027063206e-02 -9.333370394789810565e-01 -1.097148273738362545e-01 4.397976321308582626e-01 -8.913701248226908458e-01
2.808380260745324888e-02 1.146893769375166849e-01 -8.904162893269956802e-01 -1.317086755244169238e-01 3.390664797137764030e-01 -9.314970462251134231e-01
-3.070363154426258845e-02 8.377594381742828333e-02 -9.086175912680556355e-01 2.178073699170176847e-01 4.031399571881010280e-01 -8.888408881955236485e-01
-3.027490951820858631e-02 -1.163767489831016438e-01 -1.015506572722203238e+00 2.730539451182012467e-01 -5.072119340368936857e-01 8.174213093784258310e-01
-8.874246675982398747e-02 -4.549239957928497002e-02 -9.549172963964811522e-01 -5.673444660895893277e-01 1.648933542425092547e-01 -8.068026019567444695e-01
-2.197330483493412437e-02 -7.970732339874965489e-02 -9.956775958251078418e-01 7.763849560175693776e-02 -4.673133134368579467e-01 8.806761783342165195e-01
6.686429295439086373e-02 1.930463806462714427e-01 -8.446655064005386127e-01 -2.002932196340639209e-02 -7.709039365031949975e-01 6.366364323109103829e-01
4.858309719630267420e-02 1.122979595579079864e-01 -8.984138196757955885e-01 1.569018442179918038e-01 -5.148212715029346631e-01 8.428172219936507226e-01
9.852147758568907676e-03 1.422419351867510173e-01 -8.732968586272846778e-01 -2.717428364604538293e-01 4.441602206110852324e-01 -8.537432455130401499e-01
7.059039719051692086e-02 -9.349264474034545136e-02 -1.000870479733876328e+00 -2.540254135240080369e-01 -3.285133681980016429e-01 9.096977828922970799e-01
2.133417349091941417e-02 -2.103141172232109168e-01 -1.079460425494217279e+00 -4.333527651192902175e-01 -5.023306405769610850e-01 7.482441503286243467e-01
4.091196881854351763e-02 -4.540896829431135401e-02 -9.796586738958198426e-01 1.193491490493474999e-01 -5.280464797896029516e-01 8.407869503048944759e-01
-1.409166255120500866e-01 6.560554790633477129e-02 -9.133921940479773349e-01 -7.226070156770764141e-01 4.043863288671219192e-02 -6.900752262358961220e-01
-1.068276309183672779e-01 -7.784372975826042707e-02 -9.491107360226020973e-01 7.919153531561041737e-01 -4.611755274041862834e-02 6.088868899597670303e-01
-1.191377717485532228e-01 -3.320588037934604081e-02 -9.297183534592875498e-01 -8.129214937595891088e-01 -5.572891654194667144e-02 -5.797007269658536188e-01
-1.390136373189573837e-01 5.143556978384201950e-02 -9.192448130422919972e-01 4.507466268035141832e-01 -1.345657763661669559e-01 8.824508656328828859e-01
5.390400189768375372e-02 -5.664412001794497803e-02 -9.846583162133324407e-01 -2.991253558069479138e-02 4.724350111765287519e-01 -8.808577640174188872e-01
-5.189742619940006241e-02 -6.423561049483672569e-02 -9.803662164021160752e-01 3.213161632313589755e-01 -3.361258364041200264e-01 8.853108749743842099e-01
-3.741559765957420849e-04 -1.576855692990474511e-01 -1.039061067076431977e+00 6.857027243434822283e-01 3.549915248448669014e-01 -6.354469223438277137e-01
-1.489828369185081103e-01 7.844676900729449787e-02 -9.079155348780665324e-01 9.085229024656513719e-01 6.611303678351085344e-02 4.125714508574854222e-01
2.215320542424435366e-02 -1.140199307732726597e-01 -1.017148285191556534e+00 -4.759297039255817874e-02 -4.415302206121117790e-01 8.959832439590783570e-01
2.858371767263215638e-02 -2.038884994800188935e-02 -9.647418022146506678e-01 8.123320302829621642e-02 -4.464236983969265271e-01 8.911268418330656749e-01
-6.991518546406273737e-02 -1.330865495802328879e-01 -9.986876977319747439e-01 6.810509717991797274e-01 -2.111280072413137254e-01 7.011380308967020136e-01
-9.009776428668778148e-02 -1.334947598810843628e-01 -9.767477390069079224e-01 8.065007087224841387e-01 -1.102027872142092579e-01 5.808717177831524969e-01
-8.358924576291335007e-02 -8.511514971111265593e-02 -9.734179944662083583e-01 5.487577407419148567e-01 -2.499135227712687979e-01 7.977519496133392840e-01
7.933212043350325315e-02 -1.624047014572659597e-01 -1.017624123628181776e+00 6.232669489911677463e-01 1.942218038272029157e-01 -7.575065684291778512e-01
6.999168286034197772e-02 1.938999388427927184e-01 -8.435335402790767878e-01 -2.002932196340639209e-02 -7.709039365031949975e-01 6.366364323109103829e-01
1.231493022773224866e-01 5.985344557929053039e-02 -9.153447884038748983e-01 -4.085281259052941927e-01 -4.166893373589335980e-01 8.120805172368569247e-01
1.178883012781784673e-02 -2.119739967809909642e-01 -1.083067264228247062e+00 -5.321849639994634396e-02 -6.134565029590066665e-01 7.879333160986627949e-01
8.180726079309888488e-02 -3.923755329270906672e-02 -9.726143862249088112e-01 1.520183742765207902e-01 4.561013000786503513e-01 -8.768477735324921030e-01
-1.918997832406792517e-02 -2.034933442786712177e-01 -1.080323056948593985e+00 7.529837707993891627e-02 -6.255843656245245743e-01 7.765142341871709153e-01
-1.320060086960808121e-01 7.841881379449758271e-02 -9.155036839331114340e-01 -3.154865199074429749e-01 1.213995664521708151e-01 -9.411325098103432429e-01
-9.929912738010691561e-03 8.317640964532521664e-02 -9.030048868081483882e-01 3.113819715214387052e-01 4.865429341499207805e-01 -8.162825742598009970e-01
6.511372374106670635e-02 -3.890008335050296195e-02 -9.763995680983796888e-01 -3.390005534767375622e-02 -5.011998406652146132e-01 8.646672804984517624e-01
1.205192846384447181e-01 -8.626340831657348940e-02 -9.662647890056292876e-01 8.789452788586491483e-01 -2.410181781249499250e-02 -4.763132363794070345e-01
5.491220746178212403e-02 1.448589492132758283e-01 -8.806644607383663503e-01 3.296115417566106154e-02 3.962142236814220619e-01 -9.175662653279798020e-01
1.593768746116925802e-02 -2.125137854309772922e-01 -1.082887238620956483e+00 -2.310172093459863241e-01 -5.612333365024082532e-01 7.947629778647010701e-01
1.234948658923869236e-02 -2.273655646751576442e-01 -1.096091060486591662e+00 -1.324042079330663146e-01 -6.560601859727551721e-01 7.430034711244698498e-01
-1.319634676171120569e-01 8.454499632723280755e-02 -9.145826749465519878e-01 -3.632234920369711295e-01 1.601816289078917821e-01 -9.178292545963453453e-01
1.623269891105285842e-02 -1.743662841393631702e-01 -1.052655450694276240e+00 -4.251504948841886705e-02 5.628952348994049615e-01 -8.254340828282662468e-01
7.303957602097285902e-03 5.030089846273941290e-02 -9.236461634632995299e-01 9.693610406967986814e-02 -4.763146059218259509e-01 8.739152063634821888e-01
-9.809093761838888481e-03 -1.777027713986240876e-01 -1.057792312849973548e+00 5.708862663039215857e-02 5.830788906862647281e-01 -8.104072408027526153e-01
1.016801062931677463e-01 8.457428664224227177e-02 -9.091786714508774958e-01 2.407281802081105981e-01 3.197100471132817145e-01 -9.164253537678420658e-01
-4.316740887108976021e-02 -9.318956660277676052e-02 -9.969260849280806580e-01 -3.317163432112272825e-01 4.116475725860767043e-01 -8.488289248314776492e-01
-9.321818607942997104e-02 1.606633021856702231e-02 -9.428565477963724017e-01 2.444128034699815377e-01 -2.932472790684514385e-01 9.242664198264990416e-01
-7.152623369232358761e-04 -2.137520551444266059e-01 -1.074412851567911664e+00 3.680529508299893449e-01 4.584436983738308102e-01 -8.089291692148711244e-01
-6.927906868923412557e-03 1.915478191259702423e-01 -8.257618399263709774e-01 -4.418636400561997690e-01 8.708142015430970773e-01 -2.154974477508802833e-01
1.071808598398504564e-01 -1.318357171528633243e-01 -9.875501896728805518e-01 -8.710972114956399004e-01 1.180982125049894055e-01 4.766995493260367533e-01
-1.497336169602055955e-01 9.306818424711683913e-02 -9.055551347612482704e-01 8.804394037413352248e-01 1.061831092518868667e-02 4.740397745049437783e-01
-3.739814702929972895e-02 -1.139198738382928983e-01 -1.009003133438839628e+00 -2.940813535934422851e-01 4.175541007071403299e-01 -8.597468990646607301e-01
5.005326773123832534e-02 1.582520601884098432e-01 -8.759587982704958309e-01 -1.708091461562753852e-03 -4.939560155516682372e-01 8.694852138615578596e-01
4.050383462529536654e-02 -2.015052946957044955e-01 -1.059393109417777534e+00 5.588891453702654610e-01 2.916015159265628598e-01 -7.762805414903974910e-01
-1.044771713422830983e-01 7.413650882849988355e-02 -9.257311599895881038e-01 1.889790943759005748e-01 -1.773692551189079425e-01 9.658297206171634341e-01
3.174690506341831808e-02 1.254464310254630177e-01 -8.868904320329011881e-01 -1.122163901008875614e-01 3.450477858572932877e-01 -9.318527283147829410e-01
4.452951611383328123e-02 1.686322400349014317e-01 -8.662638711745352937e-01 -8.410258000805011236e-02 5.680848424966805643e-01 -8.186613266556024282e-01
1.052179830862870202e-01 2.350067310166176204e-02 -9.397269885211714247e-01 -2.056260538122289816e-01 -4.374374946878573645e-01 8.754235342020576516e-01
-4.514745016152565092e-03 -2.429189337798541570e-01 -1.111356775206806313e+00 -8.796363702214081426e-02 -6.184091226462942181e-01 7.809177649341046967e-01
-1.201204736966460518e-01 -3.790363305013550593e-02 -9.313684242397151092e-01 8.047556361717760343e-01 1.058490330768813575e-01 5.840927565433844393e-01
8.358939223173809940e-02 -9.029325009816341341e-02 -9.929877915219297302e-01 3.810925949943076430e-01 3.028258923150376480e-01 -8.735358681726274055e-01
-9.046040625500272048e-02 -1.094686472784225512e-01 -9.701450089326001391e-01 -7.795035098407840923e-01 5.756474558132227554e-02 -6.237472069773590810e-01
-7.287318783800715571e-02 1.909184485454706592e-01 -8.500395619309106809e-01 1.150372340042637859e-01 -8.463453383235559624e-01 5.200634606378667923e-01
5.783530161737601011e-02 1.495361106846518628e-01 -8.783543221998759698e-01 5.169329203129613415e-02 4.424740304276089664e-01 -8.952901965039685717e-01
7.360526291223765116e-02 1.498582568452062024e-02 -9.456469358082226773e-01 4.426557381020804205e-02 4.726933685602844326e-01 -8.801145029451477031e-01
5.500727942388672354e-02 1.059492116493642444e-01 -9.032432183248848556e-01 1.389946937768579138e-01 -4.694749001250071996e-01 8.719368057689110829e-01
1.099381717919961088e-01 1.470734240004850923e-01 -8.718139238350278708e-01 -3.519420498725758795e-01 -5.221722333514062786e-01 7.768352156334661363e-01
5.588682676118361670e-02 1.984457059187633154e-01 -8.387649424810917909e-01 -2.406794065407093577e-02 -7.272934867785093571e-01 6.859044527645453693e-01
-2.521122208444799909e-02 4.434908790371464016e-02 -9.290716742645402926e-01 1.939110996818125543e-01 4.439457062463247339e-01 -8.748203788925144053e-01
6.835705747640041796e-02 1.102484159720738266e-01 -8.999775941983332306e-01 -7.695918253682569599e-02 5.081747056323341338e-01 -8.578086924126813173e-01
1.348418727886350164e-02 -1.636770821590020908e-01 -1.047990841703561271e+00 -1.479655627560991504e-01 -5.266468883688371072e-01 8.371076676328395028e-01
6.912720696294051559e-02 -4.568305646192949432e-02 -9.778263855827564743e-01 8.451658427732493262e-02 4.929780279570780133e-01 -8.659270240231820015e-01
1.314929612185788688e-01 1.047368241501320241e-01 -8.840501678237123739e-01 -7.215973005990469202e-01 -3.000237176179493259e-01 6.239255601711420907e-01
-1.089461404628639940e-01 -6.633331879070676618e-02 -9.453227781748406722e-01 7.626569660354498570e-01 -5.743554100997538131e-02 6.442480196217090782e-01
-1.376199610155368902e-01 1.033507148188847480e-01 -9.116805839252565269e-01 2.552224415973574079e-01 -1.957521566008582348e-01 9.468593340571748174e-01
-5.672923614991200181e-02 -3.828794028141568884e-02 -9.705097706463070573e-01 2.456627213187201064e-01 -3.311170186912578139e-01 9.110495855261084852e-01
-5.238085506495363669e-02 1.839749324589802226e-01 -8.572774984030969714e-01 -1.662135575803156129e-01 -7.423889611160850999e-01 6.490236387755650149e-01
9.713848827844447087e-02 1.715507727115246628e-01 -8.570518617755996660e-01 1.574321104137996474e-01 5.832155776412722981e-01 -7.969157550250932642e-01
1.056941941158674181e-01 -2.651674736332656004e-02 -9.603484978646846804e-01 2.719626072579890974e-01 4.236982222342859927e-01 -8.640116646949522750e-01
-1.091133261154890594e-01 1.518050155425767211e-01 -8.897114751640916586e-01 -5.169757642111347945e-02 6.022958093216904674e-01 -7.965972123135461880e-01
9.419369390969252465e-02 1.280873817553663530e-01 -8.877571725593766949e-01 1.597512831941335365e-01 5.758974046249093481e-01 -8.017616272085621443e-01
4.900132609267736708e-03 9.142768536614621910e-02 -9.009771032166745686e-01 9.059565502217815924e-02 -4.757759007291910702e-01 8.748884040701588871e-01
3.416494949690673799e-02 -1.339160474933952516e-01 -1.028757500034720662e+00 -9.639771093548735181e-02 -4.661353243479759989e-01 8.794460419613049362e-01
-5.973676842958627192e-02 -1.413784437612886358e-01 -1.007729507533217994e+00 -5.606073474595830719e-01 4.405432178103226848e-01 -7.011712167621092506e-01
1.232661061109580243e-02 -8.565421125161869209e-02 -9.955272137767301466e-01 -7.354647240092230254e-01 3.373107298392318265e-01 -5.876334837918634202e-01
-9.466061435298848969e-02 1.897763413780410857e-01 -8.431731673130246074e-01 2.747089677349650039e-01 -8.997291287413068384e-01 3.391496394519664115e-01
2.406412505407192967e-02 -2.198352969180665806e-01 -1.081874055336164320e+00 5.955054695167291134e-01 4.806383080074643765e-01 -6.437080492361284545e-01
-5.645506299600920597e-02 4.062572707054097620e-02 -9.343247414750497359e-01 -2.225969558758865950e-03 2.307642582685042187e-01 -9.730071439436148717e-01
-6.646123927191552316e-02 1.727797409809792017e-01 -8.719113806493475893e-01 -1.915527619916067015e-01 -6.509947858813527333e-01 7.345157099263968092e-01
-1.289192233854997809e-02 -5.465354617873653675e-02 -9.811016257908785621e-01 5.313531811780579373e-02 4.843176453089197420e-01 -8.732771933418064236e-01
2.432970768508850579e-02 1.732900189359971588e-01 -8.620025638767316867e-01 1.597566952019867093e-01 -5.821092389652353649e-01 7.972619596151908627e-01
6.880968651730157148e-02 -1.690027471409090987e-01 -1.029830726451686163e+00 -5.445281344341571517e-01 -2.207440908007923253e-01 8.091731317747692387e-01
-4.663807511212532397e-02 1.966965382039327082e-01 -8.304845990761382524e-01 1.285535142327756952e-01 8.612988094558140517e-01 -4.915672434249467315e-01
1.048710279032469966e-01 -2.430085692740323322e-02 -9.595876848128337411e-01 2.680355283033460378e-01 3.973316360412023629e-01 -8.776585478236782478e-01
-1.205480753343381034e-01 1.766835866143827982e-01 -8.479481091132359261e-01 5.203384170561733413e-01 2.510962088620647958e-01 -8.162099151753635651e-01
-1.066871336427706665e-02 -8.816461443032265477e-02 -9.993307651964264959e-01 2.489006696513171996e-02 5.469805285482773893e-01 -8.367752302473576709e-01
-4.785819677802567729e-02 1.141076884178914563e-01 -9.023043291005704569e-01 -3.450600056753831968e-01 -4.143933208786734212e-01 8.421471178448866057e-01
-6.754643920623469577e-02 -1.183247417649160305e-01 -9.939261349313828209e-01 -5.868603497185150841e-01 2.380163812597089756e-01 -7.739141633154770217e-01
3.193402091450862901e-02 -9.009686372709230229e-02 -1.002449078738176791e+00 -1.174511373341176473e-01 4.903667651614132539e-01 -8.635656697461134845e-01
-1.621920696853322921e-02 -2.653851595320266474e-02 -9.648898834799253255e-01 3.338930208726251930e-02 4.847513057030536365e-01 -8.740144885099504490e-01
2.690021911211815109e-02 -1.554505174765978270e-01 -1.040006002100669846e+00 9.983039455804156026e-02 5.339818659548276614e-01 -8.395815976745715226e-01
6.551163511906586689e-02 -1.576265378562463626e-01 -1.029218421090822178e+00 -5.373907060751123010e-01 -2.834178642595588937e-01 7.942830372371316727e-01
-2.248194016156225897e-02 2.859279004782988923e-02 -9.389556308001404394e-01 -9.761377235577435585e-02 -2.679027837410796753e-01 9.584882106266384705e-01
4.248078571882891313e-02 1.340556598303929148e-01 -8.846446373812146824e-01 -5.705870408372665237e-02 3.681155624941421789e-01 -9.280276056981856536e-01
1.862553898355812998e-03 -6.606400932308570395e-02 -9.845211183574942293e-01 6.460097709893154461e-01 3.682325942224402571e-01 -6.686375193918929760e-01
2.165279789885622350e-02 1.173545141944009745e-01 -8.908007466820162534e-01 2.090343800490593873e-01 -3.894537918074464922e-01 8.970119129667719626e-01
-3.586020564503893115e-02 -6.080455761251529062e-03 -9.561659817423544538e-01 9.559269127888205301e-05 4.148771968428213164e-01 -9.098774106449065702e-01
2.342372583898640406e-02 1.874892527311096402e-01 -8.472767784153059090e-01 2.165626572816651274e-01 -7.607534335284992233e-01 6.118454288835566413e-01
-4.436931249012416451e-02 -1.915330767038248561e-01 -1.053359113035307493e+00 -6.901862549013869641e-01 3.772697454522763727e-01 -6.175034191901872527e-01
-5.241676707816975145e-02 -3.676802485599173220e-02 -9.690846997871013224e-01 -2.578311836784709654e-01 3.243207972910963632e-01 -9.101313647861094536e-01
8.772641180640516900e-02 4.243727335048023269e-02 -9.301022861927720209e-01 2.416976891304942546e-02 4.693213723608474219e-01 -8.826965909733766047e-01
1.126478470837934259e-01 2.883647062109263165e-02 -9.325868913067310029e-01 2.762599858936341524e-01 4.469647730376243855e-01 -8.508248420547404045e-01
7.627546541042806716e-02 -3.847561915488278972e-02 -9.753783540137452857e-01 -1.085726558391266888e-01 -4.713393805709685247e-01 8.752434899655148204e-01
-3.368046487043514781e-02 1.865859495499981313e-01 -8.417717453616883061e-01 2.173347852978774197e-01 7.748448721761365121e-01 -5.936168925846636579e-01
3.282695651489318800e-02 -1.383683939609944846e-01 -1.031260053344130068e+00 -1.052408244298847911e-01 -4.569811415320496062e-01 8.832285124232476248e-01
-1.688534230695058411e-02 1.635960432694801847e-01 -8.551054118374121771e-01 3.409313553715843104e-01 5.566261116306515655e-01 -7.575837793771960094e-01
-7.995808097881329859e-03 -2.155695070835668969e-01 -1.084030668242595086e+00 7.916574057941672127e-01 3.329981202961024844e-01 -5.122409625659701815e-01
2.550754528477122349e-02 -1.434039098456939554e-01 -1.032433675615798796e+00 6.708520565238566824e-02 5.261687992005541492e-01 -8.477298920826280559e-01
7.441081763362888957e-02 6.262104536549743805e-02 -9.239000254356504183e-01 -9.999896949981225414e-02 -3.384233520357828873e-01 9.356654535120126903e-01
-3.337665052440096786e-02 1.400580898489440229e-01 -8.787280809204046639e-01 3.271984817405134693e-01 4.688268174998772575e-01 -8.204526608766893325e-01
5.990010481693709005e-02 1.930047906436070659e-01 -8.415517128047929063e-01 3.257655196618215732e-02 7.640382779552723491e-01 -6.443479479917173514e-01
5.382838870688892718e-02 9.785379412283945477e-02 -9.052063246071976321e-01 -1.643800820317156963e-01 4.720474984798349594e-01 -8.661122027833212389e-01
1.071826198633136773e-01 -4.639318621618704341e-02 -9.709701815524434121e-01 -4.058674316484452982e-01 -3.419570997287074143e-01 8.475476210055842285e-01
-7.300722674516013644e-02 1.629483837757357279e-01 -8.785490514156347741e-01 1.196019191484451877e-01 6.142950284788050164e-01 -7.799596136481895536e-01
5.960430076654271020e-02 -2.020133856062256705e-01 -1.039434823508747385e+00 8.338098766318696731e-01 -3.595647336527498794e-01 -4.188965169876360251e-01
1.457234219692276622e-01 1.898752720908436498e-02 -9.120280834041708529e-01 8.742550449390936729e-01 2.962009449013666140e-01 -3.846337434990338977e-01
-1.271916927643774176e-01 -1.551252328836904941e-02 -9.261480229599551306e-01 7.925286493049154002e-01 1.559446263075158212e-01 5.895588295978066995e-01
1.386397131767282409e-01 6.762512568206667518e-02 -8.914117901984948134e-01 7.837303981777306028e-01 4.001565862956018016e-01 -4.750172306521378007e-01
1.372666926427589251e-01 4.642631463927228593e-03 -9.344732887537210431e-01 -5.859256393270194652e-01 -3.261245730979906443e-01 7.418449352801953500e-01
1.411934036332543330e-01 -1.586582282708781308e-02 -9.391690184940849617e-01 -6.776533974031300200e-01 -1.358429325349779782e-01 7.227257921703726939e-01
1.038839400267461133e-01 -1.402977567174849283e-01 -9.914161851495104649e-01 -9.037158730366322557e-01 1.493728961377408793e-01 4.012298078670890611e-01
-7.700391755400647076e-02 7.146124378115831233e-02 -9.280545407191445051e-01 -1.146978629241113962e-02 -3.424106713361328991e-01 9.394803756106591131e-01
9.281016975109537825e-03 7.439180520535336461e-02 -9.080362462515640942e-01 -1.899084942161188005e-01 4.479920430597550407e-01 -8.736348740633657073e-01
1.333456561283977854e-03 1.930539896526458077e-01 -8.360966453713113422e-01 3.184754934370940260e-01 -7.862706977408737696e-01 5.294825303577814779e-01
-2.086651461126608556e-02 4.665112900294560855e-02 -9.268873055919804038e-01 2.086692183054058569e-01 4.757940338862171603e-01 -8.544455480895738475e-01
2.708047899110230944e-02 3.364714630936310735e-02 -9.349056517109971542e-01 6.555453916585160523e-02 -4.175730108257353357e-01 9.062755557912192117e-01
1.962896995757090410e-02 7.251896326254808622e-02 -9.110646630652111666e-01 -1.634569551033902002e-01 4.572341580726864696e-01 -8.741960583987381517e-01
1.731153366952934217e-02 1.755542977228208013e-01 -8.548532313240320146e-01 -2.328916287831294951e-01 6.702874015796380647e-01 -7.046107354606214734e-01
5.060183290435395914e-02 -1.965110359992438271e-01 -1.049418236426705064e+00 5.831095258509954027e-01 1.789432076247398085e-01 -7.924409184960078401e-01
1.440480182030959566e-01 3.491505354805945257e-03 -9.256876790240898822e-01 7.176690153875264766e-01 3.886932657254059675e-01 -5.778137498644501102e-01
3.115026019434203805e-02 9.504938884842063437e-03 -9.460232414846861948e-01 -1.273610639319505689e-01 5.203713635730002895e-01 -8.443890118702978009e-01
-1.007819325688862344e-01 4.848959512441550039e-03 -9.429951128236634394e-01 3.163881276955844424e-01 -2.363613277534832857e-01 9.187120742626021519e-01
8.430394389242230890e-02 1.542787184635351361e-01 -8.738837061086426328e-01 -1.713140966409583965e-01 -4.940733400652378426e-01 8.523749262671166393e-01
1.163774442310746005e-01 2.224934641241486932e-02 -9.344306455118442933e-01 3.988260389398282646e-01 3.525999155694558018e-01 -8.465288478273965689e-01
-6.962994103010868019e-02 1.611342057735597882e-02 -9.475518767269939246e-01 1.116625803429694974e-01 -3.508527933804483356e-01 9.297493132712099095e-01
-1.156045898579093900e-01 -5.896175449734334523e-02 -9.293919116138422698e-01 -9.342031727994360990e-01 -2.855902803724991723e-01 2.137817197241714817e-01
-3.865224900084356877e-03 -9.970191669763023290e-02 -1.006011577110855537e+00 2.275486427093957875e-01 5.489152979988676240e-01 -8.043093999350785506e-01
-9.422697011214298257e-02 7.564153830706750459e-02 -9.267572115832681812e-01 8.925345831284094145e-02 -2.223765350188972867e-01 9.708668790581884700e-01
-1.365241735916166432e-01 1.041199252060054890e-02 -9.196818429624755709e-01 8.949996252413765507e-01 3.006039154192185481e-01 3.295647991707106872e-01
-1.042472514733397693e-01 1.707743337745164514e-01 -8.697535864007481798e-01 -1.251662082018773769e-01 8.099271482338317174e-01 -5.730195763481186200e-01
-4.280681056822357305e-02 -3.049718555492095251e-02 -9.679300060661789606e-01 -8.537343957914489412e-02 4.543097668258617161e-01 -8.867434869121154639e-01
-9.576214768792637444e-02 1.500195616219698325e-01 -8.932056067425029333e-01 -1.088970470421117553e-01 -5.719975016832651304e-01 8.129946440251688555e-01
4.070237939172176994e-02 1.942116381687256088e-01 -8.429179066149818933e-01 5.514251258818679557e-02 -7.631637330932203866e-01 6.438481341098082344e-01
-5.274039956162860504e-02 1.414215897703799130e-01 -8.851504243486739698e-01 2.773094167999554105e-01 4.397682148092925125e-01 -8.542267875672809874e-01
-5.790312298412044617e-02 1.268535025976083863e-01 -8.992579440845844818e-01 -3.130555267869966074e-01 -5.115449320394684918e-01 8.001987375976369332e-01
7.134457153473888757e-02 -1.153839230151634671e-01 -1.008724017168824538e+00 3.413387466074293553e-01 3.763519091788166127e-01 -8.613054629583680732e-01
-6.793237403426514998e-02 2.000108969791678792e-01 -8.185615628032784086e-01 -3.017499461084359180e-01 9.533841584193351038e-01 2.369915317502318056e-03
7.035712392815213038e-03 -2.012012821279180186e-01 -1.075929130978555248e+00 -3.006289839341237946e-01 -5.346857705720705622e-01 7.897679030996940241e-01
-5.674310730941276026e-02 -1.265780585244654366e-01 -1.007432978932421008e+00 5.971228320835746395e-01 -2.686236828809761557e-01 7.558344001168192383e-01
-1.095459890348719420e-02 -3.896528748778682605e-02 -9.743980816646606868e-01 -7.723027579304167500e-02 -5.163475222064169978e-01 8.528896299124666402e-01
7.103693743209422984e-02 -8.874515609970017038e-02 -9.990279103200806476e-01 -2.592510887125618058e-01 -2.749729545332167402e-01 9.258394824572048210e-01
-4.831332768111375880e-02 1.327771612956033095e-03 -9.528362943170508581e-01 -8.557083648354527018e-04 4.107604404681279853e-01 -9.117429069148955678e-01
1.104004445016602692e-01 -9.772255234156859705e-02 -9.831755204091545686e-01 -6.725034488835474056e-01 -1.176791705177691050e-01 7.306782630309894833e-01
-7.308315439165147254e-02 1.516249157908242107e-01 -8.881500316860317934e-01 -1.748170137663160872e-01 -5.406499970072742300e-01 8.228830976717543821e-01
-8.675996363793550548e-02 1.617967707894593377e-01 -8.831959997495690828e-01 -8.060886904679364154e-03 -6.176521534761990617e-01 7.864100962020540431e-01
1.335054942519966481e-01 7.017753336634884043e-02 -8.977325729042346936e-01 7.837303981777306028e-01 4.001565862956018016e-01 -4.750172306521378007e-01
-7.623030226925761599e-02 1.963421219083111846e-01 -8.208225288868502556e-01 -4.838954496267026117e-01 8.358266495968847964e-01 2.593048508111984729e-01
8.409639633064819320e-03 -1.313840590160112176e-01 -1.019466903130251012e+00 -5.950298698709658440e-01 3.735441487581485087e-01 -7.116208420850894667e-01
-1.451098851847032467e-01 1.198920082912398599e-01 -9.020304814257557036e-01 -3.951884103276177007e-01 2.569379343539601734e-01 -8.819348151834411897e-01
-2.885354772206334163e-03 1.120154927333933265e-01 -8.854403960865611101e-01 -2.205766005563520871e-01 4.571094385668209026e-01 -8.616245844102461415e-01
9.725081638107661852e-02 -4.781886447500175580e-02 -9.731846407668155452e-01 3.360802000557496783e-01 3.640210236721623804e-01 -8.686419247625332130e-01
-1.350062961141864082e-01 1.304027340090860299e-01 -9.011216460113400384e-01 -1.667361869363105098e-01 4.341002446609006915e-01 -8.852999613415136748e-01
1.245989483214590687e-01 9.832191745093216140e-02 -8.912310604081523646e-01 6.077094426819250605e-01 3.280933712989657636e-01 -7.232177908382114717e-01
4.893469554355819179e-02 -1.956231476052278442e-02 -9.648051187530067851e-01 -4.982816616057451735e-03 -4.300305377917351124e-01 9.028005915511586599e-01
-5.924778457831163941e-02 8.455788822815300809e-02 -9.171020049472626834e-01 2.387551048202000425e-01 4.130297783308736759e-01 -8.788642683226146612e-01
1.282815714920690908e-01 -5.741115299915770798e-03 -9.445145696169752192e-01 -4.371044768502599931e-01 -4.343504350299624561e-01 7.875781712990419514e-01
-3.027784137637739778e-02 1.931065202621277677e-01 -8.355918977315819340e-01 -1.697351765292030579e-01 -7.889927654721942130e-01 5.904916475964240297e-01
-4.300931346816445205e-02 -2.553783762269489985e-02 -9.673054631239070833e-01 7.890701226984787875e-02 -4.385168387900236775e-01 8.952522915425854544e-01
3.801260658103956108e-02 1.937409091961114424e-02 -9.408285872337540656e-01 -1.233170002723171232e-01 5.491917068758970233e-01 -8.265478731099465959e-01
1.935458945489803434e-02 7.540611096668409230e-02 -9.118874451350642563e-01 2.150616539146733841e-01 -4.546363044377724760e-01 8.643230389748096654e-01
1.066432743478201578e-01 7.905985983815784490e-02 -9.116894307314524770e-01 -2.770158040637498154e-01 -3.260033119132734747e-01 9.038717192834895275e-01
4.703865498364684372e-02 1.731261774821382660e-01 -8.657773886397092111e-01 3.434984117618894439e-02 -5.992855991125179971e-01 7.997980114425898845e-01
-4.646332391428888153e-02 5.950176922368210185e-03 -9.528981191102636750e-01 -3.328453427738642389e-02 -4.637863587685617794e-01 8.853216100367913288e-01
8.418211052592081828e-03 -8.633495696682227938e-02 -1.001700745407416937e+00 -1.113816411438842552e-01 -5.027330827174150141e-01 8.572360104180993812e-01
-1.163894993592193144e-01 -5.344647407093518904e-02 -9.255667050092649673e-01 -9.090568823410380972e-01 -1.289051120412146867e-01 -3.962310648574061678e-01
-9.388433930151182660e-02 1.887803297756269760e-01 -8.364848765653962737e-01 -3.692414649546394978e-01 9.128755361103806365e-01 -1.741235082616269803e-01
-1.240536648947019802e-02 -6.811826656762844101e-02 -9.905803975985342236e-01 -4.934818272324881239e-02 -4.765996559747643913e-01 8.777343133241681805e-01
7.897089463061005010e-02 1.255280609505582123e-01 -8.933932069800141207e-01 -1.224208982229356597e-02 -5.580019712837844814e-01 8.297493183366851932e-01
-1.061619268450924025e-01 1.161289743973705352e-01 -9.122095343888926289e-01 2.071686623458301318e-02 -3.963628890509311442e-01 9.178601590855862691e-01
-1.023946008080456882e-01 -9.705785197681787713e-02 -9.530582149332338382e-01 -8.433496492778812526e-01 -2.550122415798735873e-03 -5.373591591650216381e-01
-1.870292270515340818e-02 -3.877218999372023661e-02 -9.749054562584377193e-01 -4.981077739419191575e-02 -5.093204514057450005e-01 8.591341945442716455e-01
6.360074288957951599e-03 -1.894355370340018762e-03 -9.456847961393826107e-01 -3.718462235856527243e-01 4.643804580020873818e-01 -8.037917492926014429e-01
-5.608646301692594288e-02 1.277957078156372328e-01 -8.954978215251949702e-01 2.927328849077296957e-01 5.101375530333550623e-01 -8.087441715887285776e-01
6.741729927948804380e-02 -7.559224822669895205e-02 -9.933590355596956245e-01 1.858276960990278281e-01 3.955260185111469373e-01 -8.994594132273268094e-01
-2.307277549644888223e-02 7.459790314525795163e-02 -9.136187592233886434e-01 -2.406851721465195770e-01 -4.923626813305726491e-01 8.364506189499589794e-01
-4.040566996492484658e-03 1.339173711027030755e-01 -8.734414368501399739e-01 -2.572202174168278233e-01 4.982495729935361162e-01 -8.280006779971855746e-01
-1.088987694830136355e-01 -5.762915239358736702e-02 -9.412872123490194642e-01 -7.522027418264000120e-01 8.572559870568347007e-02 -6.533315826710035523e-01
3.617231087168022025e-02 -4.832107130015734359e-02 -9.808238563451929792e-01 9.157957544019244833e-02 -5.183536999895167474e-01 8.502485654615197230e-01
1.214299260607419190e-01 -8.297221853851413642e-02 -9.646709337303854825e-01 8.612276538247476410e-01 1.319170608184549662e-02 -5.080481347059260244e-01
5.102841205157940263e-02 4.224177319914907552e-02 -9.322607220854575161e-01 1.959644852314359684e-02 -3.962930092861664533e-01 9.179149361439730148e-01
1.103416245209854207e-01 5.557006493533088454e-02 -9.224302459887209205e-01 -2.028656583840669214e-01 -4.252601955435583725e-01 8.820426807896848409e-01
5.194452265061366009e-02 3.821596615798519142e-02 -9.316345667462935243e-01 9.966224362281681307e-03 3.879797185123904923e-01 -9.216140257152160009e-01
8.362705300363494632e-02 9.807627677835349667e-02 -9.089560162796753717e-01 -5.518416580458333776e-02 -4.650615119454469815e-01 8.835567315976191605e-01
5.162889938285477459e-02 -2.080920814287617326e-01 -1.052626012853419279e+00 -8.141937119927749045e-01 1.256605442913190374e-01 5.668315684220802675e-01
2.875793284797144300e-02 -1.954131927614040087e-01 -1.066643144094337137e+00 -4.231557417941177457e-01 -4.856702566236781315e-01 7.648945156149054014e-01
5.761468347787972524e-03 -1.436708797990856601e-01 -1.037206535146632858e+00 -1.743051532511723234e-01 -5.591658023240781983e-01 8.105253352371876163e-01
1.133363941588568513e-01 -8.731667956748261072e-02 -9.779257455098905316e-01 -5.868672881695338184e-01 -2.072494706440619339e-01 7.827096798905027741e-01
-6.166972975414726499e-02 1.923200930256632468e-01 -8.475779719928988598e-01 -1.160995722410546882e-01 -8.668007485770019560e-01 4.849508754418258016e-01
-2.558124753242761729e-03 6.282358778141887423e-02 -9.172931788063718450e-01 1.906880628172480385e-02 -4.848146850820682086e-01 8.744090014151073564e-01
-9.580155991039174257e-02 -1.307020004423193140e-04 -9.460109651579746703e-01 3.293798852364150376e-01 -2.511958892705857260e-01 9.101700480762953127e-01
-5.283341255785133084e-02 7.296215669792564806e-02 -9.209804237459909837e-01 2.552947597370553989e-01 4.632305527777501042e-01 -8.486707492449704349e-01
5.364225930389604491e-02 1.840322840355566036e-01 -8.556585713490519884e-01 2.630732921721196799e-02 -7.528977045717154537e-01 6.576115653484959633e-01
2.363503424396788330e-02 1.577046128759352350e-01 -8.694828066172467507e-01 -2.399727419637949222e-01 4.793298167984494929e-01 -8.441895580036172797e-01
-6.527520307723029547e-02 -7.309428334132737903e-02 -9.792631064109622585e-01 3.829529034472793914e-01 -4.832941277415282455e-01 7.872571751542529750e-01
-6.700276553067002760e-02 2.029771724385334430e-01 -8.149627248678341651e-01 3.700713888471384161e-01 -3.384281154204125674e-01 -8.651667919249663719e-01
-1.072499294265740755e-01 -9.298328579403737637e-02 -9.488627862651390910e-01 8.653764106790301502e-01 3.567410567386527977e-03 5.011097099659139742e-01
-1.119957414597996664e-01 -9.665358218596832238e-03 -9.369799211253190263e-01 -6.036746182500286606e-01 6.741814890383136805e-02 -7.943750678861106751e-01
-4.942800176032877829e-02 -7.438110930580618674e-02 -9.840672333697619845e-01 -3.036331322692212287e-01 5.091093758530671476e-01 -8.053661058219931945e-01
-1.289007924475997491e-01 -1.852024018720169196e-02 -9.164195052915752315e-01 5.440704013593383737e-01 2.647748968295841054e-01 -7.961668495821535574e-01
-3.435699141930338013e-02 -1.033737595068697085e-01 -1.007398051510879800e+00 2.869672151509287672e-01 -4.300541749329205299e-01 8.559808549560472546e-01
1.700057905375967557e-02 3.904258902131736708e-02 -9.312181321265675660e-01 8.708534060237127505e-02 -4.629058361582450432e-01 8.821192268071277320e-01
1.344896594946050350e-01 1.065586967425217468e-01 -8.787673569249988548e-01 -9.021406107345222303e-01 -2.666351396437032228e-01 3.391872945302140119e-01
-8.810281359622716690e-02 4.982730049778747589e-02 -9.329796588104563027e-01 9.269925111112513327e-02 -2.899066159043667268e-01 9.525549868109003393e-01
5.156180846042810600e-02 1.801828371289016240e-01 -8.598461281232420150e-01 -1.835474238979101225e-02 -7.224263583909920072e-01 6.912042101533628635e-01
-8.062895389500102095e-02 6.282257041681381382e-02 -9.282237141930484992e-01 -2.556488818108073463e-02 2.463413393269993923e-01 -9.688459015916148775e-01
-1.040548489963006307e-01 -4.243315443254840752e-02 -9.443687029668541566e-01 -5.498321818467623023e-01 1.181819747534405829e-01 -8.268721743105195143e-01
-2.016383472941478058e-02 -2.236338276746208109e-01 -1.097100257591929529e+00 3.700731770849618463e-01 -4.884754672059506975e-01 7.902136176630790709e-01
5.563799871188229024e-02 1.730757493107236700e-01 -8.660240633877607230e-01 -4.371799614969043568e-02 -6.185100601604756054e-01 7.845597761120184366e-01
2.033866253456141117e-03 1.527960920343476858e-01 -8.674739490818951237e-01 2.940052435854976776e-01 -4.639186980879425048e-01 8.356676123367595688e-01
1.041867559737631385e-02 6.827389607419166728e-02 -9.115374026460588697e-01 -1.841399279193572658e-01 4.849708383166893011e-01 -8.549244252729369942e-01
1.579174898184140113e-02 -1.582174162283897165e-02 -9.579726550688115738e-01 -1.953293557460696606e-01 4.136019954799096121e-01 -8.892580233649074462e-01
4.855016072288535593e-03 1.997625190843574372e-02 -9.349349571557648009e-01 -2.539295583243038057e-01 4.600253543446965465e-01 -8.508210462660525941e-01
5.954631556144421300e-02 -1.742731747127065356e-01 -1.037902568201233278e+00 -5.259990424875404802e-01 -2.758883137710095301e-01 8.044940308210991597e-01
1.127364862882259539e-01 -7.419729901072458222e-02 -9.745830020257053583e-01 -6.112326128909001399e-01 -1.225180659348436424e-01 7.819104913339813834e-01
1.033390316289723755e-02 -3.373359584121285448e-02 -9.649442642241822243e-01 -6.966314238974435913e-01 3.357634585509811087e-01 -6.340091159758696193e-01
-5.095899711913860070e-02 -1.196820946652429329e-01 -1.005623743704192163e+00 -4.324926369613498744e-01 3.861878799481851532e-01 -8.147447700693413175e-01
-4.563032917422771284e-02 3.713368070956701156e-02 -9.374170745512742098e-01 -6.621104231865483636e-02 -3.124962231830135662e-01 9.476086789236523034e-01
8.093837266538393346e-03 8.758973690561029646e-02 -9.011012678730295766e-01 -1.354719913226569428e-01 4.882129271874037779e-01 -8.621458561601863524e-01
-2.929756195104877073e-02 -8.973883265599229275e-02 -9.988102476554492348e-01 -1.847090762998007119e-01 4.830505666416097243e-01 -8.558882562576112241e-01
1.020135548724171587e-01 -5.894786954987443761e-02 -9.782808534269975542e-01 -4.165962910227559157e-01 -3.217946563434298524e-01 8.502327501660336129e-01
-3.818682566838176723e-02 -1.821452921854151419e-01 -1.055623479194808700e+00 4.489132019409152186e-01 -5.391490568979333542e-01 7.125975242513996610e-01
-6.869306841697632449e-02 3.722063589326932154e-02 -9.381770284730945875e-01 -3.662946715908096951e-02 -3.754113103240244720e-01 9.261342398467086179e-01
-4.894145006941350712e-02 -1.884105398538038212e-01 -1.050185994382592858e+00 6.546113775933573020e-01 -3.290531588066805124e-01 6.805938311538478613e-01
1.287431280502921993e-01 8.146789510128439604e-02 -8.954275085585897687e-01 7.103197251761566022e-01 3.966077542565837888e-01 -5.815050965290148310e-01
1.318215426470496776e-01 -6.914943789859522016e-02 -9.504141557942736851e-01 -9.709584909528437002e-01 1.979252324752572290e-01 1.344068867141569590e-01
9.460236281774846157e-02 -8.235208436975627322e-02 -9.878818275242521318e-01 -4.552146140966101262e-01 -2.028092659923184105e-01 8.669763876487820431e-01
-1.247981768800845818e-02 -2.060840454986955228e-01 -1.079412114225237973e+00 1.117739765281506592e-01 6.559551302615473922e-01 -7.464780273086680795e-01
-4.508912999401355759e-02 1.031534172126340361e-02 -9.505597109333058237e-01 -3.328453427738642389e-02 -4.637863587685617794e-01 8.853216100367913288e-01
-4.409835981285287199e-02 9.056932043159141021e-02 -9.093044312794538175e-01 2.615103401001680483e-01 3.681372824894106333e-01 -8.922372348551736998e-01
-4.089907513295194808e-02 1.406070220461559661e-01 -8.839891522999732132e-01 -3.137856124983005035e-01 -4.577923673539679994e-01 8.318441787868181558e-01
1.395864522984150702e-01 -2.651081644790678413e-02 -9.423985147591931177e-01 -7.144987919893415196e-01 -1.088422251156685172e-01 6.911185471955167969e-01
1.318369108027364067e-01 1.305419615883316176e-01 -8.668643368412161099e-01 3.528890677129106063e-02 3.020877453550955827e-01 -9.526267302386396407e-01
-7.587285776413976723e-02 1.045737497950274125e-01 -9.124596114833661842e-01 1.741258257509258334e-01 3.875731148341499677e-01 -9.052443192112906711e-01
2.606076804072405585e-03 1.904808596628249640e-01 -8.358578047065474692e-01 -2.252018032218407739e-01 7.485695787409405444e-01 -6.236407087492300549e-01
2.804385427113546825e-02 1.286363969573420252e-01 -8.874168078747781685e-01 2.101064231559355289e-01 -3.844661524350105886e-01 8.989110459775417894e-01
5.827967412798914365e-02 -5.962256836728404424e-03 -9.586189361604291470e-01 3.660324242721992635e-04 -4.064401502926123788e-01 9.136773337729150457e-01
2.193225560544589947e-02 -1.738261165901917316e-01 -1.052409174824175730e+00 1.029248369036158961e-01 5.201505341685223049e-01 -8.478501635032956729e-01
-4.133030956119051330e-02 1.285864107708531434e-01 -8.888536276186953522e-01 3.355065257407333079e-01 5.501835845531461988e-01 -7.646786216925601787e-01
1.389858168934747507e-01 7.716116069956574508e-02 -8.876999371385720927e-01 -9.062187865812898480e-01 -3.460977955938025485e-01 2.428658616031596496e-01
7.975481193341514216e-03 -5.529833898117050145e-02 -9.835713898797514565e-01 5.807403463153574391e-02 -4.907458715166505003e-01 8.693652259499332624e-01
-7.660657118642466568e-02 1.538641715353022132e-01 -8.873302842758451492e-01 -1.532576635979445989e-01 -5.292087716380499129e-01 8.345358977119231580e-01
1.693922216649660153e-02 1.825617083964274356e-01 -8.507574129348119962e-01 2.107162370937885054e-01 -7.185128016962761821e-01 6.628257849718899308e-01
4.770724777607573269e-02 -2.094517953292057977e-01 -1.053747210002439649e+00 8.060549912491745683e-01 -1.814226330864408543e-01 -5.633481865474281314e-01
7.853791043729725294e-03 -1.869319943656790328e-01 -1.058077483460097890e+00 -6.949286559816162390e-01 4.340865225668588123e-01 -5.732739781477932395e-01
1.002009889594424885e-01 1.365638515558020936e-03 -9.482977700614655392e-01 1.998347428612482213e-01 3.897034585151408215e-01 -8.989979365754497964e-01
-7.089881908463650795e-02 -1.722826218270245568e-01 -1.007559808957184000e+00 -8.722257115686843365e-01 -3.214372230469832864e-02 -4.880461957590699895e-01
1.540221799070219146e-02 -3.966654074474620061e-03 -9.540845406262123962e-01 1.362072495730646537e-01 -4.817129411304871822e-01 8.656790557193565494e-01
-4.628175326202369627e-02 -1.917377932431243714e-01 -1.051346643243583401e+00 -6.901862549013869641e-01 3.772697454522763727e-01 -6.175034191901872527e-01
8.275360660718480629e-03 -2.176968615250746142e-02 -9.569832125344889251e-01 -6.932144428638887801e-01 2.930459693029638379e-01 -6.584662452094220964e-01
1.114579313879408562e-01 3.547807287260091452e-02 -9.294521875871034622e-01 2.374465683714248598e-01 4.630162124014675640e-01 -8.539526416740178538e-01
2.186911756907192889e-03 -1.410794342025762371e-01 -1.035938987187905003e+00 1.843091322347044370e-01 -5.161783921279690102e-01 8.364149755205694259e-01
-5.774927526295044883e-02 -9.770313951293045640e-02 -9.928150760939700170e-01 -4.067140886766537622e-01 3.659682488257590682e-01 -8.370489178795504914e-01
-1.900025861775395467e-02 8.206393708488318728e-02 -9.088007641377953139e-01 -2.068019334768357309e-01 -4.363433869877715865e-01 8.756925310531558093e-01
8.628473668829572674e-02 1.787626784378062439e-01 -8.561284109367637285e-01 -1.360583581969904143e-01 -6.361722479491810356e-01 7.594557222801242569e-01
5.048309921819488233e-02 1.497893583240286208e-01 -8.782583900324166803e-01 -4.194934446194761857e-02 4.706670573245635980e-01 -8.813130962652540035e-01
-1.033288519202066845e-02 1.860749796171730364e-01 -8.348985399500434834e-01 -3.217932055627353294e-01 7.916887866617196012e-01 -5.193053031962543420e-01
7.060086261399232954e-02 -1.357002562043444216e-01 -1.019392416897094922e+00 -4.064082272612373203e-01 -2.760748731377371534e-01 8.709850843937344544e-01
9.446258201764215490e-02 1.748460185987572163e-02 -9.447911593468010238e-01 -1.492976185629953378e-01 -4.587389036586100310e-01 8.759388331165109953e-01
1.679639730559176480e-02 -7.601445829069476690e-02 -9.943699534060348455e-01 4.447144865890761099e-03 -4.788635903219588541e-01 8.778780580277109058e-01
-1.086078427336910901e-01 1.376710115514342692e-01 -9.018991895403556391e-01 3.591227175841960745e-02 -5.075972067949255928e-01 8.608457378596579002e-01
5.682920633338733873e-02 1.023588951240907291e-01 -9.054550016007993918e-01 1.286789376129832407e-01 -4.537584250196893265e-01 8.817851341105978902e-01
4.414802333681376589e-03 -2.724629766154133983e-05 -9.441055176690240636e-01 3.883592708227581736e-01 4.392885904498165517e-01 -8.100633376882506731e-01
-4.054638480493502617e-02 -6.906486666508963868e-02 -9.837475192776788946e-01 -1.816174819248876360e-01 4.656314791844827772e-01 -8.661422607468900470e-01
-8.051105229579656741e-02 5.285707295758160923e-02 -9.327948485716052174e-01 6.925657320498269931e-02 -2.592021799048537245e-01 9.633367827507026693e-01
-1.274663836292340147e-01 1.106028784677400845e-01 -9.099451590889854335e-01 -1.991405713137647526e-01 2.709677844952420589e-01 -9.417640323470457542e-01
-2.199003290720811382e-02 1.893346343290536471e-01 -8.344442805486964598e-01 6.733384487606799973e-02 7.947743427041057407e-01 -6.031582690417685022e-01
9.072897649229152983e-02 -5.016583429491218438e-02 -9.786803309023643926e-01 -2.605749611292970669e-01 -4.271172165962568434e-01 8.658357655580714018e-01
1.150600018769225713e-01 1.289884455329667612e-01 -8.795963093961813861e-01 4.302802837115475842e-01 5.181474612324880047e-01 -7.391766269758787145e-01
1.199697858120086466e-04 2.725729694199494763e-02 -9.314261650111199664e-01 4.662855934707097472e-01 4.689289818617783934e-01 -7.501222269015522803e-01
-1.019786148487199923e-01 -6.416147428859200752e-02 -9.494213331250469512e-01 -7.152443895344560154e-01 1.310037143329514098e-01 -6.864863364047778527e-01
-1.192869560712015060e-02 -1.009691854740362993e-01 -1.007660451759984532e+00 8.821294243145647029e-02 5.366171488077386975e-01 -8.392023071900112097e-01
4.120036433920814395e-02 -9.259582594145684964e-02 -1.006795110312525221e+00 -7.467366848419659808e-02 -3.974542659894034768e-01 9.145785639746520923e-01
1.117735982952929585e-01 1.349102818641030321e-01 -8.796343290328075826e-01 -3.597593408690710204e-01 -5.509562574552205882e-01 7.530075823179925854e-01
1.264063280274379565e-02 -5.776417770669206586e-02 -9.795978110762275648e-01 -3.248912965168326838e-01 4.420828347177879203e-01 -8.360672297701283728e-01
-8.118971309869185693e-02 1.863177349654888959e-01 -8.515669738376383524e-01 -9.026771570286022672e-02 8.661133070514802634e-01 -4.916294121084863189e-01
-1.171566923757660084e-01 8.264573354865393032e-03 -9.323853297973859755e-01 -5.040221059295828532e-01 4.469506441978068900e-02 -8.625335170014091224e-01
-2.154795315008569204e-02 -1.166258635732273924e-01 -1.017991859738542670e+00 2.070323073299071281e-01 -5.343790844667779538e-01 8.194977838933447112e-01
1.300218457711554976e-01 7.088051384051823056e-02 -9.050747612467635594e-01 -5.497912743069341968e-01 -5.352883277623989855e-01 6.412456322325259528e-01
