-2.517264558808508974e-03 -7.708856586124342158e-02 -6.746045712371082637e-01 6.666834624160458134e-01 6.259823973935763064e-01 -4.045728600565579591e-01
7.995188008583647976e-03 3.458135634709903761e-02 -8.261544862767559172e-01 9.653049975570969776e-01 -9.231024491293318701e-02 2.442643657503221766e-01
-2.475056265808724121e-02 -2.906163908472830237e-01 -9.379420719987739963e-01 -7.196150273654806639e-01 -1.970415776506497796e-01 6.658294294087049314e-01
7.823919271713357035e-03 1.106737877713562246e-01 -7.958625058183759204e-01 -9.562600802151354218e-01 8.048654146258496511e-02 -2.812269112839916874e-01
2.908065062511171629e-03 8.649392761796434459e-02 -7.844283991186216110e-01 9.903916222586301998e-01 -3.142193755974522634e-02 1.346740375867223893e-01
-4.574474854450626821e-02 1.127359683004878488e-01 -6.067373819378523159e-01 -9.164286617132728630e-01 4.001964756225902531e-01 -1.135292771475951683e-03
3.771733397949704643e-03 -1.955744774570667699e-01 -7.930241842278538122e-01 6.853962133986988281e-01 4.788106432562458381e-01 -5.486095137374717989e-01
-4.773822482869266755e-03 -1.624876918708190177e-01 -8.897260180529618090e-01 9.286171355248560300e-01 -2.181095944720061464e-01 3.001639891940206528e-01
-1.972701947178261486e-02 -2.671153877109617714e-01 -9.223859720515203975e-01 -8.600830980834689443e-01 6.061139628036020651e-04 5.101536013957032045e-01
-7.873419209914862826e-03 -1.133429997969590958e-01 -8.368982095710740809e-01 9.948284808876153296e-01 -1.008872770272004754e-01 -1.174950845255474247e-02
3.548926973141426633e-02 -1.108974828498254656e-01 -9.229463537205336854e-01 4.849317593744600918e-01 -1.425822643916073613e-02 8.744357562044224874e-01
-2.043489274825352822e-02 -2.261743916419851064e-01 -8.514308697241810275e-01 6.599613346253986323e-01 5.992772788240350312e-01 -4.531200501905895961e-01
4.524551031667310708e-02 3.578851805075693258e-03 -9.033004465271982086e-01 -5.374082845272077913e-01 1.289287410586391625e-01 -8.334084925476569206e-01
4.795981824373145991e-02 1.708464102672344054e-01 -8.329642539079403774e-01 1.635102958600875567e-01 -5.138520757719893250e-01 8.421522590200446468e-01
-8.815346951173650206e-03 -1.932905631978661942e-01 -8.962557071178116619e-01 -9.531142608077175504e-01 2.619209101147049190e-01 -1.515606897900716177e-01
2.272399644224123733e-03 6.073703641547147786e-02 -7.681866619495140158e-01 -9.894717750695775083e-01 4.484445103120823783e-02 -1.376029852596553360e-01
-6.914830049559639660e-03 -7.774763938014139309e-04 -7.651776193575203777e-01 -9.119061973007508426e-01 2.182173513620459526e-01 -3.475748478946908970e-01
-5.848311110669875829e-02 4.810166379823981736e-02 -6.052399548350715364e-01 9.581957168428417715e-01 2.756127167280505996e-01 -7.680233461175531295e-02
-2.424964703685639211e-03 -3.935612529230832213e-02 -8.104231123724225938e-01 8.861072587255869326e-01 -2.304820731201367712e-01 4.021093632384968863e-01
5.005886557235915413e-02 8.945566177795081023e-03 -9.050864109926840539e-01 -4.110357475834831020e-01 6.214662241638710394e-02 -9.094984395427637702e-01
-3.540280290665146629e-02 -3.266747561756265170e-03 -6.206042688131120366e-01 -6.958527263467383372e-01 -5.622061439551808704e-01 4.468928674020848368e-01
2.647682651073184068e-02 2.202243337749038299e-01 -7.821904660458243175e-01 8.694692136199814181e-01 -3.086415850360778590e-01 3.856989221575148896e-01
-4.185095051496299373e-02 1.167139973434206668e-01 -5.903470372093994056e-01 -8.156684900711766995e-01 5.479837437324857063e-01 1.854689486408341581e-01
6.266931856779415534e-03 -4.666469705741629198e-02 -8.517795571270184718e-01 -9.819427697772924457e-01 1.427020237953623705e-01 -1.241955284493254374e-01
9.485988329684098483e-03 1.185812427880205550e-01 -8.068942004969295034e-01 9.357767362152004109e-01 -3.883589024486067826e-02 3.504478186368356618e-01
-9.182207540072002266e-03 1.736279695335421758e-01 -6.418219043037656224e-01 -8.017873418061632895e-01 5.687075880042830045e-01 -1.835993950582546774e-01
2.491950306089444137e-02 2.202560346719965867e-01 -7.712595249705498368e-01 -9.020077784766540319e-01 3.315372633800941493e-01 -2.765230741873984099e-01
1.072375899232098223e-02 -1.697506627522533118e-01 -7.594268518052385009e-01 7.685677814283004006e-01 4.671834652535153398e-01 -4.370848603464749793e-01
3.273155449691470681e-02 -1.675904324467728523e-01 -9.262462218275232528e-01 6.994172688354835521e-02 -3.367925490545285033e-02 -9.969823782944013946e-01
5.372721763152950997e-03 1.164752886126777520e-01 -7.932805618148176530e-01 9.727437894878504521e-01 -6.887828271401812141e-02 2.214165806419750859e-01
-4.273532382854421802e-02 9.352941108548300242e-02 -6.484002676122571085e-01 -9.015586115030448378e-01 2.195819617400519841e-01 -3.727946245630319178e-01
5.814135885706010753e-02 1.224101182410255312e-01 -8.640550320371523929e-01 -2.913642426210048542e-01 -5.383171673039105487e-01 7.907727268360875694e-01
-4.094769544862587873e-02 2.638453390364365464e-02 -6.737415215516376898e-01 9.502184482119914177e-01 9.159719733916774076e-02 2.978168130196888752e-01
-5.254439239688532548e-02 7.183256079398170346e-02 -6.382475899885428072e-01 9.494577109780514279e-01 -6.207202095682318177e-02 3.076964726457788735e-01
2.408089855653576528e-02 4.510303948824838371e-02 -8.660151033792320430e-01 8.895728015639629005e-01 -1.309221972587198135e-01 4.376295339469117307e-01
-1.988256614291809572e-03 1.244733280653893825e-01 -7.224071266517045897e-01 9.972272695560546740e-01 -1.664256719361984632e-02 7.253135743236527322e-02
-5.104253013178242093e-02 3.395201957098050588e-02 -6.065599100642581343e-01 -8.893252809192855324e-01 -4.276585408045401882e-01 1.618910658275044823e-01
-1.083877652027002980e-02 -1.063272867590931842e-01 -7.526317707392743417e-01 9.759372955639304958e-01 1.659447063575455461e-01 -1.414522872182316371e-01
1.274800707393594808e-02 7.111611185076577302e-02 -8.147244109296570835e-01 -9.760289325414674977e-01 9.586173311660643737e-02 -1.953920442746936159e-01
1.111854246162298672e-02 1.637530159685034459e-01 -7.793811034455579989e-01 -9.574570984048352829e-01 1.936311500727015134e-01 -2.139693492903049776e-01
-3.446373049778957837e-02 -2.896173789206416549e-01 -9.171916363473210376e-01 1.261567218793133993e-01 2.469141484219060656e-01 -9.607902397681559181e-01
1.335984430981920768e-02 -1.640316498285914470e-01 -9.174685430357477633e-01 6.777541607092503195e-01 -2.293100636242868529e-01 6.986173433017001111e-01
1.040280054253226588e-02 4.251614443291561359e-03 -8.444373024342000100e-01 9.558985841338548672e-01 -1.718175562787226662e-01 2.381945091837744943e-01
1.012770899092507726e-02 -1.373038933186251920e-01 -7.268325452745630910e-01 6.860705128733983749e-01 5.383111968772736899e-01 -4.894162918029896781e-01
1.303745546041376949e-02 1.342937943610619800e-01 -8.070598755029276816e-01 -9.401216490313680785e-01 1.313216948963636388e-01 -3.145248757603878453e-01
-4.272686005589288946e-03 -2.086098610251849172e-01 -8.150453909228949634e-01 6.175727708120202220e-01 4.017798186126617654e-01 -6.761485414516107406e-01
6.770084338244244243e-03 1.941124108383191216e-01 -7.446925975219961247e-01 -9.378753226830645051e-01 2.488549299708421869e-01 -2.417873092851333117e-01
-1.155074071151761424e-02 7.320327342309683460e-02 -7.152385887604774117e-01 -8.717469452730053359e-01 2.042137836217936542e-01 -4.453695027570420684e-01
1.432402499405322285e-02 4.958618993718211243e-02 -8.345693865528445166e-01 -9.586049173005077861e-01 1.554744939201742060e-01 -2.385462099207447118e-01
2.068268407300688505e-02 -1.381701059919575036e-01 -7.210354660893482093e-01 -7.911945160609926697e-01 -4.002629056713477573e-01 4.623860336326577891e-01
-3.568105061591241023e-02 1.410492594599107308e-01 -6.207287654231942176e-01 8.820570849621865994e-01 -4.710419653902354065e-01 -9.734768066780481732e-03
1.329467068675556710e-02 4.654945198473033063e-02 -8.399088178837825769e-01 9.419638272033731274e-01 -1.335512364291415732e-01 3.080068432496612663e-01
-3.295052557428428813e-02 1.407334785414247613e-01 -6.113131635438692202e-01 -8.672136953641715884e-01 4.692679706524906513e-01 1.665172011910817096e-01
3.860484586312135525e-03 -1.507470854265462179e-01 -7.582240174176433367e-01 -8.206215686863093106e-01 -4.539250597698500367e-01 3.471775930554258927e-01
1.371636372341216402e-02 1.992829629996274721e-01 -6.607636645591141722e-01 -6.487425625939903240e-01 -1.563495328391580341e-01 -7.447737314513447338e-01
2.517203304918366399e-02 5.404912734273970010e-02 -8.610044515159185341e-01 -8.600786091406018574e-01 1.227359750450528891e-01 -4.951774091459623106e-01
-4.254947170077124502e-02 4.640059113679242259e-02 -6.652420110841705814e-01 -9.303874574053476731e-01 1.416951746262236529e-02 -3.663037044280180177e-01
-4.945853682842674820e-03 -1.415600804145927538e-01 -7.649323462494513892e-01 8.921864043498093366e-01 3.798204247626646990e-01 -2.444173987801756542e-01
-1.044463612671236693e-03 1.046968088900444571e-01 -7.182172912306938883e-01 -9.489821768840649430e-01 2.565363052265444144e-01 -1.833628971659604368e-01
-2.194241852358718228e-02 1.225544762734326054e-01 -6.749203949113716794e-01 8.281719954206238077e-01 -2.618696476670314688e-01 4.955355018883781382e-01
-2.425434708081598313e-03 1.408856713011904793e-01 -7.145582280872889713e-01 9.997671749944485597e-01 2.047062451457865029e-02 6.822707351374550019e-03
-3.060444371546159475e-02 -1.754088606313052023e-02 -6.935743567329176740e-01 9.727797928994557086e-01 1.626699281721473433e-01 1.650392953055739298e-01
3.797789371222049654e-02 -3.717725920575462584e-02 -9.061224500225636413e-01 -6.675324829344688737e-01 2.303899573014818736e-01 -7.080401484393130662e-01
5.576167095911780530e-02 3.206434350212862550e-02 -9.028320318168382430e-01 -3.124114665035039318e-01 1.968280802372563698e-01 -9.293319011135077190e-01
-5.223422185395621732e-03 2.951071036219411053e-02 -7.602323212143760056e-01 9.499953769261951786e-01 -1.940074985496008930e-01 2.446832121854353725e-01
6.832622805113220885e-03 1.306106378345296137e-01 -7.944365631897361002e-01 9.631618557409034054e-01 -1.199003654845660627e-01 2.407138176391343809e-01
4.958223505494719491e-02 1.763948766314142602e-01 -8.284919204498008005e-01 -6.363521103777767252e-01 2.180868671200602571e-01 -7.399284492486466469e-01
-2.563148981816615671e-02 -2.927023815582342064e-02 -7.187944764830410671e-01 9.795024099768914194e-01 8.679372530746780334e-02 1.817742503676299248e-01
4.027604546468554342e-02 2.176932304801575818e-02 -8.981714243404239628e-01 6.415561198454893255e-01 -1.850456080504183642e-01 7.444218347348839915e-01
5.388275710243296129e-02 -4.546455135443849827e-02 -9.175628957464555535e-01 -1.683210128149945084e-01 1.780437489510058868e-01 -9.695197058876140472e-01
5.383661561193179689e-04 1.753401602207542154e-01 -7.025024478952159868e-01 -9.947330246705249346e-01 9.166523725536178391e-02 4.586604309014241654e-02
-3.308307825135998331e-02 -1.029120456245177437e-02 -6.864773196876787775e-01 9.749233994172700202e-01 1.108958292369712356e-01 1.929416500564840042e-01
-1.939198140647884622e-02 1.239105007939104719e-01 -6.783061115647418537e-01 8.161914836687571562e-01 -2.685055236324558892e-01 5.116016475398151853e-01
-7.064491214887428164e-03 1.227102873167920105e-01 -6.952626353209085952e-01 -8.145754595319069091e-01 3.002108813185775937e-01 -4.963267547355324494e-01
4.402161003861954948e-03 1.284282162081957224e-01 -7.673359316351886505e-01 -9.967377351500307237e-01 5.189736903948767577e-02 -6.181060115195563531e-02
-2.142689647747932774e-02 -2.130471494662906085e-01 -8.647052275411921674e-01 -9.878665582823823454e-01 1.524183360050089531e-01 -2.980459489381685062e-02
-1.506580169533383237e-02 4.004599561502977106e-02 -7.306695735404449277e-01 8.809869531374399099e-01 -2.236043941916293631e-01 4.169688996793459723e-01
9.640115986356010205e-03 3.999887054957216442e-02 -8.300910369948042433e-01 9.577625202823609740e-01 -1.442587542356964792e-01 2.487576462518183151e-01
1.209545950581913595e-02 1.949177043655865582e-01 -7.669154402124315206e-01 8.672977948923960012e-01 -2.990315410430865461e-01 3.979631546213595605e-01
-5.362825198149110718e-03 -1.208502355030485198e-01 -8.543789417958986832e-01 8.400344898635152546e-01 -2.690509836539570765e-01 4.711195432526462112e-01
-1.194485813192083974e-02 -6.166392364065894499e-02 -6.656465392138387616e-01 6.679614699200495664e-01 6.646787606213353516e-01 -3.347082608498518352e-01
-5.071389087149531447e-03 1.784092864747864882e-01 -6.128631412288675362e-01 -7.286033347053550990e-01 6.309960951802002782e-01 2.664228003072857676e-01
-2.204438311543516910e-02 -1.883767862325462505e-02 -7.342681251440626999e-01 9.674425993315461936e-01 -8.214143062903080106e-02 2.393900632291103003e-01
-1.536451639475038553e-03 -1.285702663331562690e-01 -7.399984866489929258e-01 8.412308786387804327e-01 4.067549464928281178e-01 -3.562036248106437153e-01
-3.945447111678793140e-02 -2.977787987021325855e-01 -9.273474057246073876e-01 1.833340335614569161e-01 8.968314115568328804e-01 4.025941521968063319e-01
-2.763361748271702528e-02 -2.387854289611974212e-01 -8.800050220576515203e-01 -8.629561309491280419e-01 4.755733718547748290e-01 -1.706947100527477779e-01
2.334777221473280373e-02 2.037081555230014496e-01 -7.866520256167292002e-01 8.907974728115896079e-01 -2.804732773411523494e-01 3.575116825084155847e-01
2.453572061841896926e-02 7.493259185111972309e-02 -8.517951526541234220e-01 -8.764058643747448807e-01 2.079918142818408811e-01 -4.343410711426036741e-01
2.326093860038094124e-03 -3.979312969798261268e-02 -8.170633970587458661e-01 -9.959304983445858017e-01 8.335911957133539107e-02 -3.425930021755635435e-02
5.482210156067780088e-02 -2.837194236392560215e-02 -9.141606943825306697e-01 -1.528332738967141669e-01 2.158378863003110604e-01 -9.643941088722111088e-01
5.474322825316574326e-02 8.195008814149013984e-03 -9.091079703799440637e-01 2.051257780563368882e-01 -1.672916645974877325e-01 9.643323670462295993e-01
-1.105086462662094142e-02 -9.818987075796264952e-02 -7.690789636527977091e-01 -9.973413976419311933e-01 4.243950426735487030e-02 5.923702412495308878e-02
4.878415870238673319e-02 9.464543629157166904e-02 -8.750109236089266274e-01 -5.110702109181102237e-01 4.640761428460761784e-01 -7.234919302613032066e-01
-1.422649666239355314e-02 -5.896345206486226787e-02 -7.694582821583805243e-01 -9.868038088258938023e-01 8.664143954098858097e-03 -1.616885138043249737e-01
4.147964247597944742e-02 -1.199596485105078880e-01 -9.271102958911526803e-01 4.214175810017130042e-01 -1.711613545987025475e-01 8.905678037716173723e-01
-4.897307704305152443e-03 1.438934357358160887e-01 -6.840359769740939067e-01 -7.929290541578912777e-01 3.695192560823137296e-01 -4.844781052396954224e-01
-1.639902303957943910e-02 1.542878417052303552e-01 -6.573231884129174807e-01 -7.938529721597861188e-01 3.944455742803177900e-01 -4.628284212575368706e-01
-1.172345004933522325e-02 -1.557474824616183195e-01 -8.212297786263675903e-01 -9.773700038067528739e-01 -1.277928005384235399e-01 1.685730577207827097e-01
2.918649041682788020e-02 2.041853683974612366e-01 -7.973883611216475709e-01 8.037011229825116176e-01 -3.164502657604191804e-01 5.039084581715312927e-01
-2.048464051616356862e-02 -1.972498704450759421e-01 -8.589629115028183381e-01 9.904164248356378542e-01 -1.365566237910667002e-01 2.067834409662562892e-02
-3.787040086484179825e-03 5.621018584517430833e-02 -7.502140547859041941e-01 9.111285393289451084e-01 -2.213731512325788353e-01 3.476186311659096306e-01
-1.071432230789148669e-02 9.508424623225576744e-02 -7.101255447469457804e-01 8.678222882640739266e-01 -2.261482097308066541e-01 4.424267885511201093e-01
1.978346856585200611e-02 -4.873955372873207958e-02 -8.876222423849279286e-01 -8.222317130815615105e-01 4.864689038302238283e-02 -5.670700927213696563e-01
1.271267303230448273e-02 2.213465931588600444e-01 -7.005042675628351256e-01 9.469530795806413437e-01 -3.212038742698742899e-01 1.038923610099251778e-02
-1.973998385209783935e-02 -1.740954223720916644e-03 -7.279474732593643749e-01 -9.363438310331192449e-01 1.735504067212024770e-01 -3.051892632664630067e-01
-6.693485690028670373e-03 -1.783335725339297018e-01 -8.064359188291652103e-01 -9.400486057991440658e-01 -1.197172791250870338e-01 3.193374262656530349e-01
3.393252453277181141e-02 1.958886368827496560e-01 -8.054173155245244464e-01 -7.371842706160616210e-01 3.528869583022806178e-01 -5.762205704558190922e-01
7.775187678441231390e-03 7.374640242074206875e-02 -7.989507460056505250e-01 -9.572685305782278053e-01 9.748769791014245652e-04 -2.891989107508464718e-01
3.889454118121540849e-02 -1.079715277971936144e-01 -9.244615299111398343e-01 4.610792052369853122e-01 -7.567698563573997672e-02 8.841260997974883518e-01
1.639958998010865657e-02 -1.049387718217157095e-01 -6.936168043670899452e-01 -9.079868973606921578e-01 4.636449265630949307e-02 -4.164254171421659656e-01
-4.288396364658946663e-02 4.131293566845558630e-03 -6.394866866325982224e-01 9.775761847572821406e-01 1.868593190276184590e-01 9.709993763093059671e-02
9.973581614725741257e-03 -9.921827487478571128e-02 -8.869707230627900119e-01 -8.817843989655717030e-01 2.454543299311439941e-01 -4.027510964094054291e-01
4.146819343392246782e-02 1.434779815179541840e-01 -8.413237155139814405e-01 -4.522541956574235855e-01 3.892080732169546642e-01 -8.024856498735678523e-01
-1.070350080635186323e-02 -1.014205868976833097e-01 -8.008745032596560343e-01 -9.841717846473353459e-01 1.502166698100358133e-01 -9.402579654149084698e-02
-9.892188467317980863e-03 1.652840809241238329e-01 -6.574029146976326787e-01 -7.547619143942417841e-01 5.518683013444775076e-01 -3.546488834764607301e-01
3.166959799306889780e-03 -4.119714421722495135e-02 -8.274883997777326972e-01 -9.862236246662274830e-01 1.120998431297302589e-01 -1.216412237709638966e-01
3.967455742278998276e-02 1.209800471368141783e-01 -8.522873738707937852e-01 -6.329487125061225017e-01 3.953435884485097529e-01 -6.656420768021632517e-01
1.385574656734139126e-02 -5.995612331904198733e-02 -8.798826979889605715e-01 -8.495435529862020996e-01 7.735705734757804264e-02 -5.218157119693728196e-01
4.445014055354679777e-02 -1.203099627244141739e-01 -9.284821468547755918e-01 3.847669103702782700e-01 -8.989676156629768100e-02 9.186256021600978094e-01
1.113459235181218920e-02 2.166153067344777639e-01 -6.914304014257022235e-01 9.455804990316639680e-01 -3.252198665402095679e-01 -1.046700810154086239e-02
2.945133078856220291e-02 -1.182445666090415348e-01 -9.173649963461582013e-01 -6.256423193554926376e-01 1.124529743138194537e-01 -7.719624452001891957e-01
-2.722537989083599966e-02 -2.126789256617000676e-02 -7.128776009917652257e-01 9.817955097456578795e-01 -5.212434531664768278e-02 1.826489246302168967e-01
1.146031086436908805e-02 3.187400195362717625e-02 -8.330377502420246438e-01 -9.559847518007816847e-01 1.176388144928924295e-01 -2.688015320810215325e-01
-4.405498538878678430e-04 1.851865880279015275e-01 -6.203178259871081623e-01 -7.839216670318617242e-01 6.189706686890501519e-01 4.839557067146602054e-02
-1.296180326871014185e-02 -2.027455532679113825e-01 -8.999591629396397341e-01 9.318582486557082101e-01 -2.602581574136295095e-01 2.527961548599561570e-01
-4.021055278801815430e-02 1.139466323304639678e-01 -5.806027927976682435e-01 -6.265118348375199320e-01 6.976598012568705487e-01 3.474963633172984956e-01
-2.506802127988972187e-02 -4.220857018969224883e-02 -7.041766036963491571e-01 9.795160337732666811e-01 1.896593836147886236e-01 6.765839037360531216e-02
-5.787781792332401948e-02 7.880799033849561486e-02 -5.947091447128638464e-01 -9.736506226212722215e-01 1.914264972234543116e-01 -1.239369244009536353e-01
5.962652097790525386e-03 2.689263372938454841e-02 -8.080008064653693145e-01 -9.847544912170308473e-01 1.164043949796925714e-01 -1.292617842105638071e-01
-1.509557440066772865e-02 -1.822955223241231604e-01 -8.610083960818978310e-01 -9.503788464140062731e-01 2.500454052079262857e-01 -1.850873945550768063e-01
6.737391013061339029e-03 1.398454276056855239e-01 -7.772014729375675834e-01 -9.796461432602311392e-01 1.251450477118043747e-01 -1.569463316824088184e-01
-9.594505434637634611e-03 -2.154437563094482033e-01 -9.183433925037073342e-01 7.671383799784188273e-01 -3.554777238355374402e-01 5.339796754753802777e-01
1.310876922169625699e-03 6.151237615344985060e-02 -7.578524958036898518e-01 -9.936160934154713020e-01 7.792414014828447089e-02 -8.157749253273265111e-02
-1.653278101849421904e-04 1.039662611483413435e-01 -7.446085849198241791e-01 9.949480371410370783e-01 -6.293196029460161600e-02 7.821746456307653028e-02
-3.234923270994345679e-03 9.745389365589374187e-02 -7.168376532775569965e-01 -7.944213453342516829e-01 2.926481639720017736e-01 -5.322140342015925230e-01
-2.885477115891988548e-02 1.498095174748407254e-01 -6.049833473767747272e-01 7.637591272401874631e-01 -5.702913258909315664e-01 -3.023901439711131345e-01
3.254207193230990169e-02 4.516945081059087902e-02 -8.821524977015747782e-01 8.071343501246641683e-01 -2.086298092636556245e-01 5.522750614824527560e-01
-5.526179823587890798e-04 1.747811657599717128e-01 -6.824276983982134892e-01 9.858853933899792699e-01 -1.402482052819855607e-01 9.143539804401744353e-02
2.332571593909986418e-02 2.316686126956823966e-01 -7.533454267691649386e-01 8.430975570602267100e-01 -5.083444434453273653e-01 1.754207402143150574e-01
9.792494122894774763e-03 -1.931432523827169567e-01 -9.215691781036956520e-01 -4.583875189255459115e-01 2.812579740682116247e-01 -8.430746316408337382e-01
7.492263415731667715e-03 -1.514437422285712653e-01 -7.520702796596361317e-01 -7.893100599812619134e-01 -4.353332919445903615e-01 4.329833185436391951e-01
3.655824306194740969e-02 1.602879652561727819e-01 -8.330904139024332133e-01 5.215170030877727125e-01 -3.872946813548219236e-01 7.602781367924602574e-01
5.283803494447602417e-02 5.206089724433156374e-02 -8.975184302179335383e-01 -5.450685848397163191e-01 2.241060321591331062e-01 -8.078841031798550398e-01
-2.737931355343091455e-02 -3.681322990575922743e-02 -6.688624699003367091e-01 9.068196652201481189e-01 4.200554052129484295e-01 3.509346550861119213e-02
-9.311930289853309270e-03 -8.492315828646726517e-02 -7.282111871734946451e-01 -9.746660603273148427e-01 -2.172127032713186690e-01 5.333584520373801929e-02
-2.802552208180762380e-02 -2.480269988303369366e-01 -9.052475485781869002e-01 9.107427552731012232e-01 -3.342965400830010814e-01 2.424736212582608019e-01
6.107361550004554440e-03 -1.718034299363575268e-01 -7.688871818412270631e-01 7.716023700819915065e-01 4.281960188332363249e-01 -4.704019046934441728e-01
3.113916438788130389e-02 1.459235561699631090e-01 -8.350887382412189863e-01 7.104108192072171590e-01 -2.568790091526200192e-01 6.552325103427781849e-01
5.678901588088498820e-02 1.389748809821097775e-01 -8.511841025734344646e-01 -2.067651137187499766e-01 5.868860126966134461e-01 -7.828237322986210112e-01
-1.175648042073271053e-02 -1.076307387317607944e-01 -7.791289557342278016e-01 -9.985284375527937462e-01 -1.789532491305983889e-03 5.420107906526238500e-02
-3.864096753695575592e-02 3.755151028858017947e-03 -6.555636619402225307e-01 -8.990018517812580212e-01 2.515573884660086690e-01 -3.584892617666954329e-01
2.746785852370027818e-04 2.234526100023045969e-02 -7.845711894982208001e-01 9.855370828335134892e-01 -8.678363747097209147e-02 1.455515669009269097e-01
4.635151609663434868e-02 4.057542128866978987e-02 -8.956319862597251769e-01 -6.123633191493683681e-01 2.077937160702724717e-01 -7.627797433873527710e-01
-4.750108295193402122e-03 9.298684013417357272e-03 -7.641093800117110257e-01 -8.943924105469863717e-01 2.634197519507032736e-01 -3.614861688061949407e-01
5.984828655717379028e-03 1.691425797938594378e-01 -7.589627721118769044e-01 -9.490029600407631216e-01 5.986825192292897363e-02 -3.095305707770441561e-01
-4.685915532738275935e-03 -3.134636255131190586e-03 -7.723145791415934047e-01 -9.102457765361864350e-01 2.106054550538724313e-01 -3.565080203860578334e-01
8.546372473201509223e-03 6.405001477991979775e-02 -8.095060574869870074e-01 9.692898742226367936e-01 -6.792250047696726800e-02 2.363549738389723320e-01
-8.323082495265064730e-04 -1.192558553949421146e-01 -8.569496427925248350e-01 -9.914335805479022046e-01 1.130252987659570718e-01 -6.545790403635184940e-02
3.108971231001074476e-03 -1.998777321145708552e-01 -7.968923976896920003e-01 7.215012191336372949e-01 4.299687901095118892e-01 -5.427364280389125328e-01
-4.092733067586976775e-02 1.208200932184973625e-01 -5.976915437959667843e-01 -8.440729397710932114e-01 5.173638861418650148e-01 1.409804300687572121e-01
-8.311548815207320251e-03 -1.443765790288138451e-01 -7.808945809758514045e-01 9.338501801263413560e-01 2.448711374201265889e-01 -2.606951613217498021e-01
-7.753560113045795434e-03 -1.505455078762107379e-01 -7.855230573413871653e-01 8.897358815294821310e-01 3.461967139732275434e-01 -2.975195730588065524e-01
-2.869719346538093449e-02 1.192852955659345626e-01 -6.609532175249119845e-01 -8.430248808715198328e-01 1.930259531449263211e-01 -5.020458461575522113e-01
6.955445878394765982e-03 1.102510883048036933e-01 -7.923839353261383778e-01 -9.796643425369120362e-01 5.369845801700518645e-02 -1.933242136110103204e-01
2.340574816493519450e-02 2.090730302916142258e-01 -7.829713886374246590e-01 8.976528247850116271e-01 -2.477929065433334965e-01 3.644421512699865251e-01
1.231904240100271247e-02 -1.482624435204260849e-01 -9.112685774099225089e-01 6.718083268375707462e-01 -1.676254240148801478e-01 7.215090361288176712e-01
2.358260276248436984e-04 1.299820881494377633e-02 -7.922567517214970101e-01 9.836373338295010260e-01 -9.479363699142706601e-02 1.532049668996673941e-01
3.499875336066147341e-02 6.886156244304701690e-02 -8.752591848364569271e-01 7.776445116967295457e-01 -2.070711333644708052e-01 5.936249313793252602e-01
1.775644848344456366e-03 1.849702090766183193e-01 -7.070686587031654868e-01 -9.665647957402889734e-01 2.408215836636484475e-01 8.807644677929164778e-02
-8.834527723854524936e-03 2.392569711363705127e-03 -7.583829559162665879e-01 -9.336945008162795823e-01 1.684630438357029580e-01 -3.159664254427175245e-01
3.266615979011878307e-02 1.535648852624243166e-01 -8.331412824403160444e-01 6.286523490777048417e-01 -3.361514836466154010e-01 7.012833978080919017e-01
1.399136877692006573e-03 7.977850231354599586e-02 -7.728317279942702456e-01 9.954852708355232949e-01 -6.567987587279493222e-02 6.852174439445332665e-02
-1.022635585785036487e-02 -1.318088547112021558e-01 -7.931170374265612555e-01 -9.936560371151397231e-01 -8.566060568232825023e-02 7.286933881113896727e-02
-1.505398316124628884e-02 -2.835956201848036269e-03 -7.425819632438016571e-01 -9.309747068278830806e-01 2.003600332334751211e-01 -3.051916649081652944e-01
1.330727789756384720e-03 1.908068376657284316e-03 -7.780830986668526572e-01 -7.185797343352017252e-01 3.704895885885234330e-01 -5.885411031952293426e-01
2.495176371752812206e-02 2.312010489983179207e-01 -7.607358162983672845e-01 7.532709306815942307e-01 -5.939268887115889406e-01 2.825486787359950402e-01
1.075495268143266889e-02 -1.062910966598197976e-01 -8.918252403654701732e-01 -8.315844803611329716e-01 1.596734021237667389e-01 -5.319508028725270510e-01
-4.386193552781710719e-02 1.343727976456995932e-02 -6.301075355747579598e-01 -9.481520840919775983e-01 -3.054027057430067082e-01 -8.795915391185600563e-02
-9.059374712836232996e-03 -1.142398777361305212e-01 -8.242809087895659470e-01 -9.710013143605720209e-01 1.399901667787504245e-01 -1.938019626198322631e-01
3.791904012132561036e-02 1.342056608758908920e-01 -8.438400625181206038e-01 -5.646381045005383070e-01 4.302909235692329304e-01 -7.042964802126840951e-01
2.838653153426018774e-02 -1.034802867150153988e-01 -9.136170024310775739e-01 -6.716729957768253767e-01 1.838727920604040778e-01 -7.176671812784085613e-01
4.078525401377895709e-03 -4.710060264842887146e-02 -8.101132944053147655e-01 -9.492585553047386826e-01 -1.558449490004441551e-01 2.731676171360898908e-01
-3.672089574028121473e-02 -8.100788031340077494e-03 -6.459674422375462077e-01 -9.363515719627488743e-01 -3.510461877558369026e-01 3.508239584552477839e-03
-8.692032668952407934e-03 -6.834792894609317826e-02 -6.790460258916553027e-01 -7.528874193045421714e-01 -5.786823214237711843e-01 3.135080616579764556e-01
-2.676585146897927578e-02 -2.747190160117758961e-01 -9.297272292071496747e-01 1.513876699849156515e-02 -5.175569960773410694e-01 8.555148003074899421e-01
-3.694983157548718637e-03 -9.258483548963715448e-02 -7.011877083932315236e-01 8.415122401407013619e-01 4.619617160476802153e-01 -2.800866340967754220e-01
2.949023900955302993e-02 4.659418501429978682e-02 -8.761238301758665914e-01 8.619648265014570043e-01 -2.076252310748874230e-01 4.625023257189226356e-01
6.948883100743320253e-03 9.769032920502612738e-02 -8.022164641172137012e-01 9.619886941374879985e-01 -3.045072454721806446e-02 2.713862666499539111e-01
-3.379435273731234285e-02 5.562283427819891823e-03 -6.866146713880544317e-01 9.563978230181646722e-01 1.076216174128248743e-01 2.715157299155294135e-01
-3.923870156116111840e-02 6.768820538811238727e-03 -6.152988186389299896e-01 -5.768461160844895463e-01 -5.078521212881594860e-01 6.397927643083780591e-01
-1.011911741615531546e-02 -1.375387971939095733e-01 -7.983904792453277999e-01 -9.936560371151397231e-01 -8.566060568232825023e-02 7.286933881113896727e-02
-1.960404712018305393e-02 -5.296778089401964207e-02 -7.264904655748140039e-01 -9.775511770800129341e-01 -1.945232276150732909e-01 -8.095931143293901011e-02
4.331016838768069789e-03 -1.942557644931320725e-03 -8.239402275271207055e-01 9.691541058525091623e-01 -7.658765587328844604e-02 2.342533886138213617e-01
-4.100230801920294599e-02 -1.265377464569332261e-03 -6.471337043864190397e-01 9.619047930816985170e-01 2.610618920348229954e-01 8.115329675159799194e-02
3.311540395922018404e-02 8.684823785436301957e-02 -8.655259769009323589e-01 7.805638941145178755e-01 -2.912277480089586201e-01 5.530880635074402196e-01
-3.973445968791850663e-02 -3.717503765699998672e-03 -6.542731882801549048e-01 9.619047930816985170e-01 2.610618920348229954e-01 8.115329675159799194e-02
-4.914278924072008198e-02 5.472744888380202954e-02 -6.526100380399432188e-01 9.446737323441402046e-01 -5.623303593134858919e-02 3.231553575123510269e-01
2.161009273823882165e-03 -9.434071728396602186e-02 -8.583820277219489370e-01 -9.836059204832074965e-01 4.405042192958665004e-02 -1.748683891336780816e-01
1.437389201502679500e-02 -1.147188398766535618e-02 -8.689041467470411950e-01 9.199955307700996565e-01 -1.645607452321785347e-01 3.557077234073960370e-01
-1.903967713870373391e-02 1.158863292271702233e-02 -7.305055866227878614e-01 9.362780637535161876e-01 -4.714133834426931235e-02 3.480820040638094026e-01
-4.734075818462335494e-02 1.142258912921232106e-01 -5.982401000295308746e-01 8.885437161896446723e-01 -4.532590356060088865e-01 -7.103739199468639409e-02
8.899368814508245087e-03 -8.717438446299753674e-02 -6.795230009244914715e-01 -5.803974348502961567e-01 3.714493363443362450e-01 -7.246821428381883257e-01
8.716495541145095199e-03 -7.180950225289375877e-02 -8.734527300601183653e-01 -8.433815558577674176e-01 8.063409481728239792e-02 -5.312303586881391704e-01
-1.086454745387173230e-02 -3.600147442108073831e-03 -7.557690439323581089e-01 -9.288278210508157384e-01 1.845354144546933473e-01 -3.212873474851266620e-01
1.198899825022316928e-02 -1.874822551229413797e-02 -8.656334182658387277e-01 9.351062118242033927e-01 -1.535509106046692440e-01 3.193720251685561173e-01
-8.166109154337615125e-03 -1.591617800473205113e-01 -7.968552004188915738e-01 9.442600339900075745e-01 2.556409061434449237e-01 -2.074143565796446598e-01
-6.458302058199976922e-03 -1.083767282222005551e-01 -7.305336867745784168e-01 9.178460442380732554e-01 3.146414675328976229e-01 -2.419904667239295981e-01
1.424057565101426344e-02 -1.101172104641966049e-01 -8.984428988318270415e-01 -8.348685316050437066e-01 1.898756977050357619e-01 -5.166640633493527757e-01
-1.296405555387730897e-02 -9.312905104535341982e-02 -7.817510658081946451e-01 9.943551738354009517e-01 -1.059150374137251410e-01 6.308178534157953335e-03
-2.496885947058736024e-02 6.049824997920678904e-02 -6.995586306679321131e-01 8.405360691684350405e-01 -2.218718296705249338e-01 4.942388163889286923e-01
3.023354331536886718e-03 -1.317351585642355660e-01 -8.897103636542077476e-01 8.979325972634326636e-01 -2.299406158702603231e-01 3.752923712853105109e-01
-8.676707463695452344e-03 -1.306356826206570287e-01 -7.768551184160308321e-01 -9.662136635427970299e-01 -2.080795224573836477e-01 1.520988780928838324e-01
2.008295427803198294e-02 7.684697863535319695e-02 -8.456545172170372160e-01 9.124407405496973711e-01 -1.607566144261138308e-01 3.763099864518259507e-01
-1.996834958201642446e-02 1.549200721306175921e-01 -6.551718715419646566e-01 7.652963879586055507e-01 -4.329089990336942306e-01 4.763520096873282150e-01
-4.714551370938525887e-02 1.150975199152644013e-01 -6.118476195025851494e-01 9.143336248649538422e-01 -4.049370232497219724e-01 -4.475448912463203012e-03
-8.484708023733468843e-03 -1.174069686101103238e-01 -7.622224339326666431e-01 -9.719745591481779856e-01 -1.662034167466242829e-01 1.662584753642741831e-01
-1.926405785066406806e-02 -2.122516371021750670e-01 -8.521019169489041367e-01 -9.673560086624328758e-01 -5.868120999248867264e-02 2.465337058061320696e-01
-3.219712745334196019e-02 1.455192192495466941e-01 -6.326421514263480539e-01 9.223668189517627569e-01 -3.666197931819475397e-01 1.217759358166959488e-01
8.081532826478934547e-03 1.318491087918549631e-01 -7.902604736861472690e-01 -9.787949624082967759e-01 8.416798938241472350e-02 -1.867516295175559449e-01
-2.938564467555681084e-02 -2.733950169197247454e-02 -6.634911130543246216e-01 -9.166737900737436107e-01 -3.996147209430616076e-01 -4.151794483983819485e-03
1.147734685939203782e-02 1.155770959616630039e-01 -8.127529560929889207e-01 9.178940628489998810e-01 -6.064358875669650234e-02 3.921643080766849532e-01
-1.939968390888671332e-02 -2.251912571891358794e-01 -8.538189150516509729e-01 -8.945213555645299408e-01 1.252952647964676314e-01 4.291067944679727297e-01
8.585163592547767619e-03 -2.419846073156490043e-02 -8.491177053058768243e-01 -9.660917332153720061e-01 1.526844603677070256e-01 -2.082167586318176555e-01
-3.199852424706038992e-03 4.461201612755787138e-02 -7.587338964765180105e-01 9.212811879792568437e-01 -2.151869379321172115e-01 3.239375779666945898e-01
-2.128653429125537287e-04 -1.401331296355356471e-01 -8.594951269271112748e-01 -9.778576691721727610e-01 2.432853728067685406e-02 2.078521135686330901e-01
-4.577003216061399649e-02 1.121599057766347642e-02 -6.207077625148317290e-01 9.261624460798381087e-01 3.729105387677980610e-01 -5.622146874034326947e-02
-4.025064352125819894e-02 3.155356217934317253e-02 -6.703195412347484616e-01 -9.449077157709631081e-01 -1.092065091771899366e-01 -3.085828041706682456e-01
-3.384135024369577457e-03 1.710932711381073501e-01 -6.623884696909576597e-01 -7.659348613636430825e-01 5.268390410151345682e-01 -3.684893662103562173e-01
-5.505612651850446022e-03 1.838319448683079782e-01 -6.268839543727621200e-01 7.406831984772153099e-01 -6.696816103987036639e-01 -5.399018602821248347e-02
-3.008461905800730030e-02 -2.463266360142294525e-02 -6.349674511902344554e-01 7.750274113106392360e-01 5.572046025594932228e-01 -2.980864683336803544e-01
3.614404914846573724e-02 9.647948818833862461e-02 -8.605239388121593835e-01 -7.659826961015997471e-01 2.624238276102530132e-01 -5.868596458909987046e-01
5.863001265561903260e-04 1.085183755612034451e-01 -7.576110488076034377e-01 9.971397492041300659e-01 -6.407467303427762106e-02 4.008437142671809894e-02
2.674651574857536337e-02 6.539912682397543142e-02 -8.603154393655537691e-01 -8.783923840722931420e-01 1.861240292275671004e-01 -4.402097969694547253e-01
-1.433055117212285283e-02 1.629799790556895611e-01 -6.515012134708320080e-01 -7.720859719383573738e-01 5.275904494047606308e-01 -3.543043460541861478e-01
-3.600116558811132517e-02 3.395537400688537766e-02 -6.821964516592886607e-01 -9.346176370822970592e-01 -1.982301320009651271e-02 -3.551012821750609283e-01
-9.768424443024359763e-03 -2.106491004276608847e-01 -9.110024060854919892e-01 -8.800983138601652378e-01 2.980220205053235594e-01 -3.696076747504284943e-01
-1.664110999751728867e-02 -1.776153958929601873e-01 -8.390423322224346281e-01 9.793475388560007877e-01 -1.145604860739988795e-01 -1.665961979373565272e-01
-2.054947163910559454e-02 -3.847195678430654492e-02 -7.303715891110221792e-01 -9.799006841922238698e-01 -9.760262060206546797e-03 -1.992470486710594124e-01
1.434076355676608405e-02 3.477120150137152227e-02 -8.475941448055366312e-01 9.369917935843015133e-01 -9.475135253566940863e-02 3.362566875890127260e-01
-1.997049730815763681e-03 5.532874096421767918e-02 -7.558151181529629836e-01 9.837784246991698733e-01 -8.368663158837426341e-02 1.586712286137951233e-01
2.588203111546226801e-02 4.016766187226620231e-03 -8.860196730093418127e-01 8.475840035634560898e-01 -2.048095957986717230e-01 4.895450810417034115e-01
-6.407709889883040450e-04 -9.313399992106460856e-02 -7.002744971611758462e-01 -7.884608398982273503e-01 -4.993838982073761090e-01 3.590894403323309225e-01
-6.357773057977781153e-03 4.380614554549025312e-03 -7.703342536663022599e-01 8.917815876233073924e-01 -2.577472847055478633e-01 3.718762390943667340e-01
1.402252760164214573e-02 7.953822849820990637e-02 -8.166814309841111674e-01 -9.552418852234737523e-01 8.163384545511910562e-02 -2.843393324725116411e-01
-1.081808606422962962e-02 -2.272081666019838686e-01 -9.019453659510051624e-01 -6.734464353181449647e-01 -9.765033700347326706e-02 7.327580162921395468e-01
4.682034249649821844e-02 3.242124810620761882e-02 -9.003368872121046973e-01 5.931065129490011856e-01 -1.859221486475938212e-01 7.833630186189147748e-01
-4.714601216778940948e-04 -1.484354742872252275e-01 -7.664558298443818751e-01 -8.740434653402381349e-01 -3.843940109258981441e-01 2.971350956388834064e-01
1.960572132572241735e-02 -2.588018726852269955e-02 -8.828069246043196427e-01 -8.888447569453821195e-01 1.496230056066618908e-01 -4.330911615860261743e-01
-1.138194464580319885e-02 -1.630645032265360950e-01 -8.131148708358738597e-01 9.644143296113015795e-01 1.333594926909981437e-01 -2.282985907744141396e-01
9.200810336439911325e-04 -1.398625018493747374e-01 -8.898825684041028472e-01 8.913231359601050396e-01 -2.396254982465502170e-01 3.848671041961578276e-01
2.871606507988629098e-03 1.906724437322381005e-01 -7.201031679922268447e-01 -9.593882795834296484e-01 2.811834226276118676e-01 2.258344166349881069e-02
1.233669695754538442e-02 2.162136487968892851e-01 -6.775016278925356517e-01 8.341387727922154882e-01 -4.871336558234820591e-01 -2.586760698030370897e-01
-3.407165237373466909e-02 -2.958710385921414776e-01 -9.343164731257784794e-01 9.219118415704804503e-01 7.121416969115809681e-02 3.807979758445734220e-01
5.189965570248706271e-03 -1.436778192854742953e-01 -9.010064556248328360e-01 8.490967534075454237e-01 -2.561176194237349546e-01 4.619940133524294001e-01
4.197252570523901660e-02 8.764901864475259374e-02 -8.720591151253650475e-01 -6.788839623168242410e-01 3.281839180185075477e-01 -6.568195198553633540e-01
-1.624595750575234809e-02 1.028574289758096144e-01 -6.960229291248732908e-01 8.111159249823968187e-01 -2.897274801074219419e-01 5.080835989387517682e-01
1.498503743762345623e-02 -1.751963905116955475e-02 -8.677924610095353319e-01 -9.107369551477666469e-01 1.768116991700615093e-01 -3.732235544077708855e-01
-8.145943240471411120e-03 -1.957756353733499100e-01 -8.165723813657284058e-01 -8.777132862531467072e-01 -2.239875232484832557e-01 4.236141836196136712e-01
-3.821087106112658338e-02 1.358546303621966100e-01 -6.112556191248673665e-01 8.896331393402695520e-01 -4.383499490728809955e-01 -1.280710722035973970e-01
-1.074415369658395479e-02 -1.363980174554688118e-01 -8.033710735762289445e-01 -9.967966712904017257e-01 -7.909258483722815883e-03 7.958542413414927685e-02
-4.742819354475485971e-02 1.123224929124848059e-01 -5.895736230884230933e-01 8.392735886430279235e-01 -5.028115928537746360e-01 -2.068824436681443446e-01
1.669439098631430489e-03 -4.576683719820800848e-03 -7.931256036855979241e-01 -9.984097900876238718e-01 -4.096692449953337478e-02 3.872469695474042156e-02
1.385068627170655924e-02 1.767074675806541428e-01 -7.850068022231841969e-01 9.032257567708775747e-01 -2.943570148615382021e-01 3.123094300649272292e-01
-8.579267249869312537e-03 -7.759330566445750421e-02 -6.998668623103762032e-01 -7.482522369236018767e-01 -6.614282189475748641e-01 5.129620959354315446e-02
-7.438891241813697965e-03 -2.081166675236698627e-01 -8.888758895867627796e-01 -9.148802200930538087e-01 2.464448978863438833e-01 -3.197797604418935458e-01
-2.101368255075156816e-02 -2.155702949242969957e-01 -8.592428038363664200e-01 -9.782345659574473995e-01 2.625998448359113599e-02 2.058337853243868698e-01
2.005279104986065417e-02 -8.437790227120681164e-02 -9.019953626232891652e-01 8.029615967577028446e-01 -2.034603426914023683e-01 5.602290273488310657e-01
-3.259999028836395307e-02 -2.948133364656211342e-01 -9.377308116029524632e-01 4.087614896581394097e-01 5.856539296219184232e-01 6.999453687902102983e-01
7.648804821034363259e-03 1.327019724933502509e-01 -7.876080962152044451e-01 -9.787949624082967759e-01 8.416798938241472350e-02 -1.867516295175559449e-01
2.310688512404627734e-02 2.171724617818236169e-01 -7.757987030225216296e-01 9.116127746712074931e-01 -3.012572123116846745e-01 2.796537878993504700e-01
1.707037271641361625e-02 -1.187823455793588640e-01 -7.054688171377960781e-01 -2.095021898641906688e-01 -6.545936941053213109e-01 7.263717561136705525e-01
1.269887062523449364e-02 7.205651809899887850e-02 -8.233353980315608611e-01 9.643080989330458097e-01 -1.060708973716833897e-01 2.426084398014647370e-01
-3.934043146711940254e-03 -5.786212147924659627e-02 -8.174811077140797799e-01 9.762769323181981207e-01 -1.146775186273200076e-01 1.836638727263719684e-01
-1.222103280779686905e-02 -1.012719145304606522e-01 -8.050324842363766331e-01 9.793391939996048956e-01 -1.443526288001946434e-01 1.416229559593973619e-01
4.815398063314944854e-02 1.455320157445517681e-01 -8.440675027419670684e-01 -2.034992379972120347e-01 5.541973361826113553e-01 -8.071266150379701187e-01
-1.496645102150654695e-02 -5.164977744356890471e-02 -7.624013939854266120e-01 -9.651384168934739050e-01 1.234323554878745538e-01 -2.308079068296268466e-01
1.337454493593888405e-02 5.020946120783630062e-02 -8.303476509054756871e-01 -9.586049173005077861e-01 1.554744939201742060e-01 -2.385462099207447118e-01
-7.711247516754653024e-03 -1.470443297597360532e-01 -7.812500293841547760e-01 9.338501801263413560e-01 2.448711374201265889e-01 -2.606951613217498021e-01
7.753142587836458089e-04 1.229810407797743976e-01 -7.305093946367788860e-01 -9.968319282348323540e-01 -1.598827033567503525e-02 -7.791329837261071201e-02
-2.207286498078658322e-03 1.253457231640676961e-01 -7.191955299677974534e-01 9.972272695560546740e-01 -1.664256719361984632e-02 7.253135743236527322e-02
-1.562790381497147774e-02 -2.254317866916800972e-01 -9.174184362651267577e-01 7.815701515505349972e-01 -4.347860222139335318e-01 4.473356827849290784e-01
-6.409481285584586220e-03 4.855789810717478505e-02 -7.455884801632257641e-01 9.160226302816185662e-01 -1.823905632970286572e-01 3.572621211829450916e-01
-3.322305093159037132e-02 1.090645619156764001e-01 -6.585893959467415959e-01 -8.296958384369788053e-01 3.321153504157389746e-01 -4.486693768228331991e-01
7.662980288656383310e-03 8.723079597792239570e-02 -7.980643906935722676e-01 -9.701812082163354667e-01 1.373171888535377159e-02 -2.419914525770377745e-01
-5.861157168858417352e-03 -8.411718967457190721e-02 -8.287466084096086760e-01 9.253371119095089581e-01 -2.029071842943255266e-01 3.202809764639750756e-01
1.538568222109735172e-02 8.284603647161871420e-02 -8.282539379257721768e-01 9.574747217097402396e-01 -1.055319662105423384e-01 2.685240424889218658e-01
-3.012585590408316943e-02 -2.528511896785156088e-01 -9.040441523659479284e-01 9.096362638051854743e-01 -3.367818606859748765e-01 2.431868538458349938e-01
1.699904067426520962e-02 -1.257400192120924631e-01 -9.099686924613431538e-01 7.206090596786488556e-01 -1.969895708938402823e-01 6.647689012492342675e-01
-2.440572972079097999e-02 -4.518854917477483496e-02 -6.792813742447173508e-01 9.303801617719775763e-01 3.589937944674355119e-01 -7.427119303620498270e-02
-1.710500302130311609e-02 -1.682635910313873620e-02 -7.507803238899848353e-01 9.461720193944533897e-01 -1.082627541198114690e-01 3.050207956605833770e-01
6.108347736408863658e-03 1.483971087415531798e-01 -7.788542502033036774e-01 9.780485576690389760e-01 -1.492984636496531847e-01 1.453650150255059448e-01
4.357579446085805761e-03 1.328745185444490419e-02 -8.055231044914965555e-01 -9.850054687484823823e-01 7.385904343685902040e-02 -1.559136563556072219e-01
-1.886172649477708615e-02 -4.669437399773367081e-02 -7.401078518347997681e-01 -9.903416391694906951e-01 -3.018327410716005813e-02 -1.353233449603511718e-01
-4.621138212364062081e-02 7.606426456612885856e-02 -6.490152706234478819e-01 -9.320735848250176758e-01 1.032386403002328451e-01 -3.472471967063228138e-01
-2.590805265278876834e-02 3.572289541904222904e-02 -7.052954060829633720e-01 -8.934234610688265299e-01 1.836778123826194042e-01 -4.099475337773533790e-01
2.371022647850004952e-02 4.889856811959564231e-02 -8.596360378522418522e-01 -8.704857618343034842e-01 1.197297161046033120e-01 -4.774089793094212775e-01
1.257187195487937184e-02 1.036975549339508446e-01 -8.118125988637031609e-01 -9.383037934464060204e-01 4.298266418019117130e-02 -3.431304151252946300e-01
2.631505418887053211e-03 -1.128565784523471310e-02 -8.197936546718255224e-01 9.714115518872195043e-01 -6.576033587023205618e-02 2.281121984600956998e-01
3.191386247036936963e-03 1.058686671114976996e-01 -7.641738860064529737e-01 -9.953529170307553464e-01 2.249894183294238320e-02 -9.362888536538246931e-02
-2.920489616724853115e-03 1.675211148764826352e-01 -6.746904178863264434e-01 9.322137129874021877e-01 -2.396990756271396850e-01 2.711493065853867734e-01
-1.068749969329031713e-02 1.660784865615344830e-01 -6.544741647098454296e-01 -7.547619143942417841e-01 5.518683013444775076e-01 -3.546488834764607301e-01
1.015028945157508446e-02 7.617334416991955459e-02 -8.130092791954626197e-01 9.550318307969524190e-01 -4.442130936934287483e-02 2.931568683120594487e-01
-5.936380328410568313e-02 7.424758523374931640e-02 -6.065699280806292615e-01 9.828919794911977759e-01 -1.151810077505576874e-01 1.437243615586475121e-01
4.015003666642469153e-03 5.939371762399495158e-02 -7.933816157535434899e-01 9.789018919240977112e-01 -3.259693601005881486e-02 2.017139701413316333e-01
5.690467813744931082e-03 1.383531390197098934e-02 -8.248040499451270158e-01 9.663941483745353001e-01 -6.311453137041272976e-02 2.491965206766529328e-01
3.934993297448234617e-02 1.440740294915582309e-01 -8.397614745820604076e-01 -4.805647212896141385e-01 3.965046946353433244e-01 -7.822030272147818541e-01
-3.157543636629583234e-02 1.436531600562585553e-01 -6.129729854321696036e-01 -8.393930055570850701e-01 5.319396287904318843e-01 1.116226390305327942e-01
-1.954139794642226723e-03 4.824227588149770235e-02 -7.478530656091347817e-01 -8.316612001848718849e-01 3.438338091253528850e-01 -4.360251825404225512e-01
4.600430348768127196e-03 -1.349128861394049139e-01 -8.953508946531321122e-01 8.645029176005999405e-01 -2.194439884710501776e-01 4.521935883932542422e-01
2.501578277823762655e-03 -3.072867741365871430e-02 -8.112076554100838832e-01 -9.963370064911267754e-01 -6.333124166037060708e-03 -8.527872556856093411e-02
2.710049999468381720e-03 -2.554556617620609357e-02 -8.031971956326772188e-01 -9.716496738189160931e-01 -1.950345849428642697e-01 1.336354071485498507e-01
-7.108411663562133435e-03 -1.342695452438232573e-01 -7.725283688311795904e-01 -9.527488043267106077e-01 -2.403056160505775141e-01 1.858034626926409749e-01
