-4.927631498947267208e-03 -2.434276582639996554e-03 -8.390159941228780838e-01 3.410410339340235186e-01 -4.292322753416709102e-01 8.363316728297597313e-01
-1.718832839587316336e-02 -2.676129185556311296e-01 -1.010343861976376045e+00 -4.572190836177043860e-02 -5.290994049674018207e-01 8.473271663052585057e-01
-5.928423712954728614e-02 -1.426240224382156474e-01 -8.386146778074896613e-01 9.613998629324127521e-01 1.409250010943292053e-01 2.363269929993206397e-01
-1.551308437416651365e-02 4.669232469851168632e-02 -8.074352901472082733e-01 3.123143733957783885e-01 -4.724297557282882143e-01 8.241782926484487737e-01
5.010847420063917895e-02 4.409113336286978740e-02 -8.534264572675742677e-01 5.429299570722113666e-01 -4.323772195491022985e-01 7.199145794665878784e-01
-5.700724754858348120e-02 -1.566168094614876771e-01 -8.332962399133981846e-01 -9.719274859517458287e-01 -2.008804562105331870e-01 -1.224908337965192884e-01
2.590262716729550482e-02 2.011032923127298033e-01 -7.404244269821003144e-01 -5.574270789301410955e-01 6.430332687983981721e-01 -5.251507087435539622e-01
6.752455372867346983e-02 1.473156703301236325e-01 -8.130418173117016645e-01 -4.159216009985592377e-01 5.246436081694022535e-01 -7.428043525921113055e-01
2.176314935160586495e-02 1.464661953699412100e-01 -7.846447601406474348e-01 6.134708312102040706e-01 -3.024575007861870501e-01 7.295018844886108633e-01
-8.917750545163005693e-02 3.786312675035350545e-02 -7.759162904056913224e-01 5.579786163551282430e-01 -1.306930137967007854e-01 8.194993592646377945e-01
1.656987484566998722e-02 1.985258732000681758e-01 -7.334001905743100513e-01 -5.794817850461189135e-01 6.392405423531615227e-01 -5.055416795990212986e-01
-1.269633888854566385e-02 -2.096880905875859735e-01 -9.573263752006450078e-01 3.892756032240643482e-01 4.345133048316120461e-01 -8.121962156147066736e-01
8.712904977236542170e-02 2.032650509151475438e-01 -7.861712003299298201e-01 2.873094725345171629e-01 -6.080005299054683787e-01 7.401274367476232685e-01
8.803470095633014747e-02 -1.177715590191566880e-01 -9.348537178402539505e-01 -3.218158585770036773e-01 -2.692810700116641809e-01 9.077016351762945412e-01
8.740474008319451538e-02 -1.071035037032651571e-01 -9.303997236583764208e-01 1.300134176204667535e-01 2.119401591878115609e-01 -9.685958291062847225e-01
1.725126702287239563e-02 4.332679594990331007e-02 -8.265732416066257082e-01 -5.848193083034736173e-01 3.567495942067748782e-01 -7.285026449291366335e-01
9.004023263075823513e-02 1.267442521922613474e-01 -8.366555580033887551e-01 1.551202574984562321e-01 -4.465855860891799756e-01 8.811918179437415732e-01
-5.817479559639009840e-02 1.004602698839498209e-01 -7.680626693034009467e-01 2.053572859266555306e-01 -4.111092384319329773e-01 8.881540289796325816e-01
7.385481221330783552e-02 1.820510797539533487e-01 -7.955642798125213133e-01 2.885645471544664442e-01 -5.385757385568525901e-01 7.916228116745235299e-01
-7.108834153640038178e-02 4.400013641426135658e-02 -7.836542386099379920e-01 -5.081148539712009304e-01 1.949347848718246123e-01 -8.389396431334023019e-01
3.164560848931617654e-02 1.641866197950059836e-01 -7.817510087956468512e-01 -5.890919741949235400e-01 4.065977460921415543e-01 -6.983186370217522310e-01
1.384568216638940030e-01 1.046631980989270495e-02 -8.875085609448363222e-01 -5.556040347677240199e-01 -5.557722816523438109e-02 8.295874446128599367e-01
-1.126244568536823726e-01 1.434239506795536301e-01 -7.034179057217326836e-01 5.366100362741632601e-01 -8.043552351089136021e-01 2.550731752315895107e-01
9.983066604981742295e-03 -2.113392737087870510e-01 -9.733084175688199169e-01 -7.772040492569073922e-02 5.517513893651950774e-01 -8.303793970178711126e-01
1.349683152425588395e-01 5.358076047226800059e-02 -8.708419574459641543e-01 -4.197565910233664876e-01 -4.912931860269139639e-01 7.631745604093247426e-01
-3.039200826878930839e-02 1.536885104322867623e-01 -7.396245049526748438e-01 -1.311728024898411449e-01 5.682735947170116653e-01 -8.123169439537540892e-01
-8.330745318175297384e-03 1.029611941794936897e-01 -7.792789447878298859e-01 4.100357678254486493e-01 -4.441160301141065525e-01 7.966376973878908085e-01
-6.956513693932171727e-02 -9.878509232179978616e-02 -8.149737560039876927e-01 9.279123376241067422e-01 -1.769815395887932435e-02 3.723781264137482339e-01
1.258043307540809563e-01 7.842595330739915438e-02 -8.610627288001964086e-01 -1.878496460197032758e-01 -4.966477803994026607e-01 8.473803707395037854e-01
-2.432287887247262803e-02 -2.490615359541319684e-01 -9.868416849403366387e-01 3.101913857269270047e-01 4.769822858726535664e-01 -8.223558859669618526e-01
1.118122490895539917e-01 -3.502762448578498194e-02 -9.056484514740362757e-01 2.292186422520884614e-01 1.948022722187203182e-01 -9.536828030233808207e-01
9.007127888739217825e-02 2.710515508711180618e-02 -8.822256196292251884e-01 2.779507771595146615e-01 -3.850787783097410766e-01 8.800327834642862612e-01
7.480883382126521375e-02 6.602340502716323722e-02 -8.573042111111222052e-01 4.700500890647137386e-01 -4.248808967048554042e-01 7.736466489202500352e-01
4.351490642501940932e-03 -1.275232859749411418e-01 -9.068239366990039629e-01 -3.093999943870598401e-01 4.618140766232165517e-01 -8.312637379953087269e-01
-3.562726439197365369e-02 -1.480210152851502425e-01 -8.884924149114753478e-01 -8.475788858348388688e-01 2.177467800478821991e-01 -4.839383969739869396e-01
-8.392589732409841408e-02 1.667867249975464317e-01 -6.853813248223987742e-01 6.829990053415990747e-01 -7.298095722093912441e-01 2.983868318025591909e-02
4.583157414032884569e-02 1.191851757344277590e-01 -8.176402591154185995e-01 5.992483741960447086e-01 -3.947421726549568688e-01 6.964768504056979559e-01
-1.828515096930351594e-02 -2.007111376505965328e-01 -9.535065219726197583e-01 3.904813142409071514e-01 -5.591137425667649374e-01 7.313796319981018534e-01
1.315572364813812414e-02 2.047337421233968169e-01 -7.251824211684809729e-01 6.429457655009018779e-01 -6.896931830057149160e-01 3.330826563180742661e-01
-9.140041100266285690e-02 8.557377069297206207e-02 -7.594065729260413011e-01 -4.504058743873974868e-01 3.272930085690426982e-01 -8.306707138566691295e-01
6.390181308593215204e-02 1.518693976889378960e-01 -8.078010350699437181e-01 -4.436689311925690604e-01 5.107159242923101639e-01 -7.364286280208656166e-01
-5.837721956968114356e-02 -1.625118857352381707e-01 -8.278209213754801343e-01 9.432954752964930467e-01 3.250658528660929081e-01 6.727434567205320404e-02
-4.610486897137008183e-02 -1.666433454700837202e-01 -8.777612874046145652e-01 -9.067870521307096476e-01 2.231216870240504413e-01 -3.577065205830600725e-01
1.969171419354185520e-02 6.646105933089034579e-02 -8.170367279659933590e-01 -6.330491682118263297e-01 3.445231621171651049e-01 -6.932189707380375099e-01
1.952218008776508695e-02 -2.148143030814472221e-01 -9.772133247071794759e-01 -2.108624772483043419e-01 -4.707070197585400129e-01 8.567216101154105923e-01
-1.179268049391715006e-02 1.390258612751948258e-02 -8.265563951743258864e-01 3.909481765304850254e-01 -4.423472996081716513e-01 8.071483071882433746e-01
-6.369462249848294177e-02 -6.772381182396347565e-02 -8.190943957754032168e-01 8.164578357963228061e-01 6.327398471247006051e-02 5.739277003468212790e-01
-1.143252925634078293e-01 1.393813334539280580e-01 -7.028515260943032361e-01 -5.384486833978371356e-01 7.720062054239918981e-01 -3.377564716389382937e-01
-9.162057432613056329e-02 1.077764605837136097e-01 -7.519082637467058294e-01 3.481991836073604629e-01 -4.448334489087100718e-01 8.251548529016535793e-01
2.072608076078606004e-02 1.111410377842842190e-01 -7.946409907026649178e-01 -6.552320739648944681e-01 4.141597553619048577e-01 -6.317773549963864310e-01
6.371425315707046622e-02 -1.184159262801126600e-01 -9.346168694055281279e-01 -6.082350818890611133e-02 3.226761353504075114e-01 -9.445531284829452590e-01
7.015476743584711690e-03 -1.697522656981139411e-01 -9.419459989213604389e-01 -6.454067163342313007e-01 4.705585659958547717e-01 -6.016849727877453535e-01
-5.868944978910088650e-02 -5.698431507614708236e-02 -8.260628245932872815e-01 7.500071524046563187e-01 -1.316300684601363624e-01 6.481996578362553274e-01
-7.809481091676144515e-02 -1.416681976459151053e-02 -7.966029044147201477e-01 6.966267233992303742e-01 -7.996610515143451337e-02 7.129632741403737484e-01
-1.717523220271236026e-03 -1.104340900320665425e-01 -8.974481762029558052e-01 2.324566584909987521e-01 4.686268769615146712e-01 -8.522633114903495066e-01
-2.466613917209368664e-02 -2.347971028454114151e-01 -9.755417709404904381e-01 -1.936087780550240223e-01 6.673288198380449288e-01 -7.191577624371460198e-01
-8.535905969864285986e-03 -1.345796737113778008e-01 -9.101747754360168807e-01 -3.578131147797369294e-01 5.030608687972834003e-01 -7.867016824543755504e-01
3.013482089703487313e-04 -1.321677031719465656e-01 -9.092896019148187792e-01 -2.140025163538747388e-02 4.919983408454019491e-01 -8.703330752277047555e-01
-2.893731899631251520e-02 -3.692561348724421322e-02 -8.441096392490325950e-01 4.746610816830529878e-01 -4.487033477922194868e-01 7.572068166726499960e-01
-1.686479842975737234e-02 -2.714661028393972608e-01 -9.948665728145512643e-01 -4.112241748941099506e-01 6.019838174697195177e-01 -6.844780211863941144e-01
2.200137562253921819e-02 -2.506156978022858889e-02 -8.696155452100519101e-01 5.401713787847294279e-01 -3.697086928027505937e-01 7.559962724827983260e-01
-5.339005538256199473e-02 7.999942408140596484e-02 -7.776391197381522513e-01 2.142440838910672218e-01 -3.435788046595559253e-01 9.143593809363951275e-01
6.596335224612384640e-02 -6.211931844924084567e-02 -9.150520357183363762e-01 2.096378165731811738e-01 -2.895765949255880711e-01 9.339150826139018813e-01
-4.816782454519738521e-02 -8.851240137857875612e-02 -8.439288171846404119e-01 -8.056671619630495496e-01 2.929593125329791325e-01 -5.148546060147556336e-01
1.089003637581608397e-01 -3.209203050338453600e-02 -9.080126440971116875e-01 -1.354916740544080400e-01 -2.036860281272497852e-01 9.696153918991174958e-01
1.159057871992697775e-01 1.549002806672744870e-01 -8.204930719630784131e-01 -2.555701177487535447e-01 -4.889485247070062823e-01 8.340343248936041842e-01
1.120419061733540916e-01 2.834342032089264690e-02 -8.864824237703563536e-01 1.119888496213827939e-01 -4.231442131049473754e-01 8.991148271918742996e-01
4.980095739709027025e-02 -4.706846851095165471e-03 -8.777122026805131982e-01 4.754681600117282581e-01 -3.433158511865131990e-01 8.099779349705404918e-01
-1.309711786721213800e-01 9.350873652378471901e-02 -7.286505237085405540e-01 -6.638659736252195964e-01 2.308923964239624205e-01 -7.113161535746528319e-01
-1.885663056389179706e-02 3.682172219225907789e-02 -8.117340320294663680e-01 3.210073391543735166e-01 -4.592261707801351678e-01 8.282907776135399747e-01
1.872476778314386336e-03 4.175042120269337187e-02 -8.190501633743684229e-01 3.935728982339275484e-01 -4.712647824408411346e-01 7.893097482020179356e-01
-1.078078552417493646e-01 -1.736415455957545165e-02 -7.599814808813359912e-01 8.706606427189870212e-01 2.501034445669645945e-01 4.235543793138014657e-01
1.018676045007000236e-01 -1.291283115363301703e-01 -9.234893332396000298e-01 8.781953349362867645e-01 -3.092480115615896530e-01 -3.648816534732124417e-01
-9.618424684254671397e-02 -3.100562983920396309e-02 -7.741824766143963199e-01 8.326528420052702328e-01 1.481481718081991417e-01 5.336116227092833064e-01
1.794288191919709771e-02 7.763295367467530628e-02 -8.132315724135702473e-01 6.188260691995436380e-01 -3.413016007043449540e-01 7.075079599804467989e-01
6.265531590054634892e-02 2.156847261446949715e-01 -7.542608904143671689e-01 -5.624908016794849530e-01 5.821320884847780430e-01 -5.871339962753991948e-01
1.235575528948272724e-02 7.165371956193103409e-02 -8.109034342740051304e-01 6.297116308093337889e-01 -3.518468237121927245e-01 6.925800131877112298e-01
-5.874349505929202936e-02 -1.450685004047752857e-01 -8.306564814800025953e-01 -9.716020061813469555e-01 -1.017678226943397463e-01 -2.136184726292058855e-01
-1.200772822396801165e-01 4.083802476510625667e-02 -7.455734103149448400e-01 -7.162694284993671445e-01 1.671461970979424075e-02 -6.976236286746217985e-01
-3.644631158524427178e-02 2.178098210560914377e-02 -8.103526951345931817e-01 4.316472447384532840e-01 -3.156430956210599104e-01 8.450148473822552964e-01
-7.087573859904273965e-02 1.725698490245316241e-01 -6.966571954496719732e-01 -5.226365851025106535e-01 8.175980510650626698e-01 -2.416286961579636738e-01
5.691598228273302834e-02 6.133143359706610953e-02 -8.488210071618530472e-01 4.806408956180550085e-01 -3.228931746129748426e-01 8.153062781849707008e-01
-5.542353204332771399e-02 -1.388470402864957765e-01 -8.494593825132263909e-01 9.159810398551669897e-01 1.608543597419575394e-02 4.008989815095154174e-01
-1.176825531392860225e-01 2.241255406715419746e-03 -7.399274931862623861e-01 -4.813673466781635546e-01 -5.464110439609664444e-02 -8.748141672734841556e-01
-5.527261706339478553e-02 8.089152392135087050e-03 -8.069634386334432197e-01 4.794104975048344430e-01 -3.892589416591732410e-01 7.865386520830029982e-01
-1.297481217173873658e-01 1.184584916208430011e-01 -7.185918263647751436e-01 5.093310750196425873e-01 -5.336410622865355169e-01 6.751363363506908133e-01
-3.079084981501123419e-02 -2.724603809824313605e-01 -1.007047852707253277e+00 6.912244449848440331e-01 -4.856609232620553995e-01 5.351095535230540046e-01
-7.288920374463730978e-02 1.555285849526478748e-01 -7.283462546745784749e-01 3.868033887164908924e-01 -6.660040981196679866e-01 6.378257440439720760e-01
-5.674585626452752218e-02 -9.842432090710429016e-02 -8.348798228198998084e-01 -8.776823158190496521e-01 1.144610947595130629e-01 -4.653734095164481777e-01
7.596683389637816364e-02 -3.502762083642837424e-03 -8.918317963723201292e-01 3.431305591911812947e-01 -4.340511561524050821e-01 8.329832010262316899e-01
1.675759236535983784e-02 5.960821023123481777e-02 -8.214686609445704946e-01 6.416921895308327350e-01 -3.494894189833372411e-01 6.827065840562951404e-01
1.010095539943506870e-01 1.662606723872595005e-01 -8.139609735479906849e-01 1.247788031087722210e-01 -5.689098990323239180e-01 8.128786976405354414e-01
5.954941584051455516e-02 -6.438826259994881451e-02 -9.119350101511569662e-01 -2.524848144870368016e-01 2.942355280554264096e-01 -9.217791885714228250e-01
-9.393633964345673992e-02 4.764791687096188444e-02 -7.684035705139411476e-01 -5.837178224250915148e-01 1.041657558588888755e-01 -8.052471664586319244e-01
-5.729907624557643159e-02 -9.047291884993718947e-02 -8.314196175373890219e-01 -8.167556699085632976e-01 1.931839642098980570e-01 -5.436820133537272337e-01
-2.812795019165390681e-02 -7.864197938397683718e-02 -8.608400014874950656e-01 -6.564558222260195031e-01 2.129292696965134346e-01 -7.236897674916165091e-01
-5.608385558546329780e-02 -1.452966244312150004e-02 -8.161450441803809186e-01 5.867810881035268045e-01 -2.278860026480088730e-01 7.770173257020415170e-01
5.485325203631279817e-02 1.635745187016357238e-01 -7.960571008405367133e-01 -3.767874271707958855e-01 3.968910299578274348e-01 -8.369640046411955803e-01
-5.890118529572268419e-02 3.148686602988651217e-02 -7.934180913141046787e-01 -4.766824193012501043e-01 1.637057671227988564e-01 -8.636980334236282753e-01
-2.282110674021830404e-02 4.140482854527043760e-02 -8.077179482911706065e-01 3.078054818477310439e-01 -4.736688375521111993e-01 8.251627825323423204e-01
5.755446667228713425e-02 1.412092678829926784e-01 -8.107850814931344408e-01 -4.934084659891865843e-01 5.095609132097785876e-01 -7.049083354727859740e-01
-4.893010525954279155e-02 -1.904743321671916179e-01 -8.699158899469352502e-01 3.912274109849929737e-01 8.749794674169787401e-01 -2.852227979890102905e-01
1.115062188851266428e-01 -1.061959187998318399e-01 -9.160723752999141434e-01 9.604584880469757557e-01 -2.584971286963649861e-01 -1.034346518061136089e-01
6.912307514854211521e-02 -6.556753494099287760e-02 -9.165657742332581348e-01 1.679939836710122314e-01 -2.938603104652067755e-01 9.409697866476032235e-01
1.637186742436844492e-02 1.516367525391651150e-01 -7.770055067257735093e-01 6.950504794473942871e-01 -3.200205770553388174e-01 6.438102680767954222e-01
1.067556208108477456e-01 8.288138571221845274e-02 -8.571713746745811546e-01 -3.986367351120023717e-02 4.624959565218426105e-01 -8.857247753874440965e-01
-3.741145707706462070e-02 5.704561477279607162e-02 -7.917701414269250337e-01 -2.350282487956189270e-01 4.771200558531794589e-01 -8.468283028871456120e-01
2.653624675370848743e-02 -1.458312577294873791e-01 -9.382886504430187902e-01 -3.708206052831962141e-01 5.132009026908557203e-01 -7.740264286022116025e-01
-8.990357054598770159e-02 -4.443991661944451249e-02 -7.767734499219215438e-01 -8.972907466382566977e-01 -1.935758829224611399e-01 -3.967337817077706830e-01
-9.376496083064652168e-03 -8.180830984088055882e-03 -8.373567454890459283e-01 -3.361009074530531548e-01 4.314946181967131977e-01 -8.371669931838611189e-01
-1.296081962531810683e-01 1.040621465783824334e-01 -7.285735238168100647e-01 6.278392468724565134e-01 -3.318495730382651221e-01 7.040552115856735238e-01
9.771515419303669625e-02 1.856751071889602978e-01 -8.015732025531722149e-01 8.389679725599331894e-02 -5.487380750671564389e-01 8.317739190319556331e-01
-2.853740311307982613e-02 -1.363684357456567131e-01 -8.974295820698853232e-01 7.081991328603250979e-01 -3.940212330121314332e-01 5.858338127417048735e-01
2.900058200720500440e-02 -1.784899292827452910e-01 -9.577278686030474830e-01 4.259892889446902087e-02 -4.822560080424129203e-01 8.749939851016348413e-01
-1.000935427796078719e-01 1.513051433054741213e-01 -6.922278863582220776e-01 -5.960442153992242531e-01 8.010671572333752932e-01 5.497911322640260806e-02
-4.832703372988988305e-02 3.284800173469087925e-02 -7.986423429314072342e-01 -4.304331589219299037e-01 2.502926487981112502e-01 -8.672259715080687936e-01
1.268475206809158706e-01 1.136608160640136533e-01 -8.338343167764653563e-01 5.368775465473313302e-01 4.842550680988624290e-01 -6.908397274577394720e-01
-8.570424289813619034e-02 8.136319024651839094e-02 -7.639654764369991913e-01 -3.769265937681607892e-01 3.527491627888118542e-01 -8.564428591926750434e-01
-3.755399005097526804e-02 -1.596530420325770749e-01 -8.910338081477654493e-01 -8.157185510859422672e-01 3.688501800007635834e-01 -4.455926279996733630e-01
-4.660245287007772769e-02 1.773169593507637753e-01 -7.133929594847386868e-01 -2.599243824201079578e-01 8.542252196381656670e-01 -4.502650214680828378e-01
-1.049708297593477096e-03 2.676415037713766529e-02 -8.258905293138597559e-01 3.457063155340129867e-01 -4.345711782974461257e-01 8.316459790037263877e-01
-1.025150830965044918e-01 5.195453427190376006e-02 -7.613588798625116061e-01 -6.354466935000846473e-01 5.928063335227563846e-02 -7.698657715661623158e-01
-6.097029402882379878e-02 -8.268713588204300302e-02 -8.267388360416504378e-01 8.269576477264646286e-01 -2.032040254387927347e-01 5.242605963756791221e-01
7.780651016768373729e-02 2.119119644330521857e-01 -7.727519796672938091e-01 3.255686026660893906e-01 -7.360128506976116869e-01 5.935403681014671529e-01
1.032772066966889009e-03 -9.329495872355432484e-02 -8.872855532215860874e-01 9.218301628260090752e-02 4.758382824026322622e-01 -8.746886420373563009e-01
1.817643113288437695e-02 -7.042604956293456453e-02 -8.923608821230764043e-01 5.861074164581694390e-01 -4.149000576701252774e-01 6.959425540359321927e-01
2.784951558904959559e-02 4.945690930432988103e-02 -8.351831651718616412e-01 5.557219661851136028e-01 -3.355632961748687415e-01 7.606381337795316000e-01
4.169228216446600743e-02 1.070028739028286296e-01 -8.204099750299684857e-01 6.152734022320860419e-01 -3.496390213940692715e-01 7.065346383754663728e-01
5.603238325622387356e-02 -1.027887497486015267e-01 -9.291768974140919291e-01 2.102716034219390684e-01 -4.121265269724362357e-01 8.865312056323818579e-01
-2.577075431447624354e-02 7.405910007660133909e-02 -7.858694705175431894e-01 -2.956745845920121796e-01 3.842151455462025078e-01 -8.746172088172352588e-01
-9.241422834490981009e-02 -5.723715559285082882e-02 -7.640441772174715318e-01 9.252926283276259323e-01 3.789025620883519907e-01 1.632177703059426582e-02
1.919151403998775596e-02 1.002658778990520860e-01 -7.996017627493290370e-01 -6.717143731280886820e-01 3.447142084023358533e-01 -6.557224378185404490e-01
-1.226843002629145751e-01 5.982581724265655793e-02 -7.459659886252522076e-01 7.326272670451827729e-01 -2.128394055586760661e-02 6.802972008294024819e-01
-9.014748800857270983e-02 4.014299761034333808e-02 -7.720678549915790390e-01 -5.826340586961900048e-01 8.261887084468387543e-02 -8.085243817149572187e-01
-1.137159129793442469e-01 1.146706518035193745e-01 -7.313835079124433314e-01 -5.414352905774477698e-01 4.626384978051920061e-01 -7.020067282198013681e-01
8.538896657335459661e-02 3.403782873990278401e-02 -8.777004394152493338e-01 2.880743545449009901e-01 -3.779759985782508158e-01 8.798564148497826087e-01
-4.984207386607994450e-02 -1.144922382710930747e-01 -8.528307707790662162e-01 -8.566497702234652234e-01 1.721014009710059856e-01 -4.863458429552995343e-01
-5.346955469193885591e-02 1.746433544736621657e-01 -7.180693026258206935e-01 3.321234534768001678e-01 -7.620518209860583925e-01 5.558516292883164400e-01
-6.018584516171490012e-02 1.511849397857347455e-01 -7.377714204121300634e-01 2.053834219478389844e-01 -6.046043302681136655e-01 7.695916149556474295e-01
-1.294857323149098960e-01 1.256710235056769098e-01 -7.061476210781532092e-01 -5.645723764207661866e-01 6.889371351711748304e-01 -4.545587481995508883e-01
1.287848466475045861e-02 -1.012527089891497936e-02 -8.549782602817437294e-01 5.816282500397327304e-01 -3.754670388216243548e-01 7.216183766467137994e-01
-4.407013971665652008e-02 -6.701123777050903285e-02 -8.446355430722498614e-01 7.493659797522419508e-01 -1.048411317096536594e-01 6.538034609053406943e-01
1.288283565090701799e-01 1.394385923233374888e-02 -8.892361207139032331e-01 2.672033765603332722e-01 2.611189757620650531e-01 -9.275878589393712348e-01
2.501712116001511901e-02 2.142366969365067375e-01 -7.275973805800558525e-01 5.851815467085389466e-01 -6.791656805906837180e-01 4.430536487826222669e-01
-1.056473232878952506e-01 2.801129101140627589e-02 -7.618711665583586257e-01 -6.685760720896365417e-01 1.988003638228577064e-01 -7.165782938193789864e-01
2.420239483818123136e-02 -6.886369966748991100e-02 -8.966233886140997367e-01 5.971540686906897655e-01 -4.130485403897452001e-01 6.876030261190360093e-01
6.083490418908149566e-02 -1.503898672384181290e-01 -9.446496902300359766e-01 1.336609894572818313e-01 2.575480282848575109e-01 -9.569763596995917165e-01
-1.373407598704943500e-01 1.176489756237047990e-01 -7.092337743820343876e-01 -5.283078546748807280e-01 5.290226571058972427e-01 -6.640977631022717542e-01
7.717188971102283135e-02 -2.427652620130392458e-02 -9.026686279050142314e-01 3.103555541483058455e-01 -4.288071961093901097e-01 8.484125285343804279e-01
1.163554415323978936e-01 -2.696475856976581972e-02 -9.027099041373927157e-01 3.880655690594904117e-01 2.069580767389317399e-01 -8.980943539423105193e-01
3.566248910748218148e-02 -7.533266337356549214e-02 -9.093830491495644708e-01 5.361206295171587755e-01 -4.112758299364349668e-01 7.371749197552923683e-01
-1.876502835371320066e-02 -3.822764917505180882e-02 -8.483145889343721713e-01 -4.212943942905368333e-01 4.779159424797208011e-01 -7.707836176665211481e-01
4.293687461173115172e-02 4.218908215400082873e-02 -8.461037004018694407e-01 -5.698159411253017614e-01 4.485399269797127886e-01 -6.885649767048281911e-01
2.164920814531839932e-02 6.937912550894585750e-02 -8.173740651435549287e-01 -6.330491682118263297e-01 3.445231621171651049e-01 -6.932189707380375099e-01
-1.043813171603282935e-01 2.176122069666411047e-03 -7.649819087231276571e-01 -7.779410374689704755e-01 -3.523408855423620228e-02 -6.273486281370619366e-01
1.059545312180039389e-01 8.361735754089810041e-03 -8.921365524936097913e-01 -6.741041720921459035e-02 3.100550569687485214e-01 -9.483257337538539833e-01
3.600783931934336407e-02 -1.339145639854744940e-01 -9.353959387715499174e-01 -3.588579027855207104e-01 4.635118002798555015e-01 -8.101714735842685533e-01
-3.687269090424061865e-03 1.161277362476737796e-01 -7.736977871573145205e-01 6.110399017478902461e-01 -3.445718954926984545e-01 7.126713459291718067e-01
2.611750409505547363e-02 -1.404334259537524110e-01 -9.347439497156316834e-01 -3.589449667085674589e-01 4.634267749637913103e-01 -8.101815445449525033e-01
-4.031705413760504342e-02 -1.301735754716552285e-01 -8.730722175111585992e-01 -8.192622678249908974e-01 2.253413198921946359e-01 -5.272860950826373516e-01
-3.283812975789952848e-02 1.980894766393636319e-01 -6.852924086802508752e-01 2.994827733923774993e-01 -9.525737095625965711e-01 5.397588620267189385e-02
4.165221374171835383e-02 -2.003075871105732264e-01 -9.629458008546289971e-01 5.274659473338513260e-01 -4.123914658484594334e-03 -8.495661644222256559e-01
1.097752071222875686e-01 9.664134310660826843e-02 -8.503387696101160076e-01 -4.848149954881014051e-02 4.263568439841631807e-01 -9.032548841768652803e-01
1.243072042180814046e-01 -5.780619673101664024e-02 -9.018991347139729831e-01 7.903285839571881910e-01 -6.216722510168194195e-03 -6.126516805995533277e-01
1.925080440767854353e-02 -1.371430350056420944e-01 -9.316562548242343089e-01 4.413020196312713028e-01 -4.593641704289075367e-01 7.708677489657499438e-01
-1.053124742095784550e-01 -1.625876474706634822e-02 -7.644246328195026807e-01 8.238318058824914969e-01 1.939707839945929158e-01 5.326128899800639527e-01
-1.792946905704981275e-02 -2.217577091471234774e-01 -9.669804739389378234e-01 3.899930508506148086e-01 4.741214500469702608e-01 -7.893758742789063199e-01
-4.906047338207070868e-02 -1.660915229470605881e-01 -8.757136939337960557e-01 9.118256877763839530e-01 -2.465307192534871850e-01 3.283238029377134048e-01
3.355518892618904875e-02 -1.589932605560411827e-01 -9.474618397091986166e-01 -1.452100753137599565e-01 4.162959467354441778e-01 -8.975587550456027852e-01
1.934956164666092743e-02 -1.127267798367369463e-02 -8.578081929719925114e-01 -5.859218908811121285e-01 3.779402680907313350e-01 -7.168379813750161977e-01
-5.681212463793987311e-02 1.205071682196598853e-01 -7.544877036571699946e-01 -2.005040465615728906e-01 5.355917703864709889e-01 -8.203289479268180973e-01
-4.880508761463268202e-02 1.479062927185085530e-01 -7.405742042410888848e-01 -1.800467049462677882e-01 5.524010212110357365e-01 -8.139018956870640586e-01
-5.881283777747545877e-02 1.752986143330431956e-01 -7.136622660232654347e-01 3.905943033461661829e-01 -7.929576715150906674e-01 4.676047704834591090e-01
1.760845939735686608e-02 -1.027219918938579585e-01 -9.071582975468202026e-01 -5.452652922224752174e-01 3.843447176522070685e-01 -7.449596627404625471e-01
-8.167899270319425864e-02 -5.639063783020438481e-02 -7.888160064864500054e-01 -8.683453210414112666e-01 -1.926867141585316412e-01 -4.569991615006272490e-01
2.733715676526379118e-02 -1.701415241487738705e-01 -9.536523107006368294e-01 1.115947995024776790e-01 -3.899489400959567087e-01 9.140494652052709723e-01
-7.492121546447834401e-02 -1.012780260994106396e-01 -7.987585891789048542e-01 9.690105658562019331e-01 1.882841851615371098e-01 1.598986831624919502e-01
3.837844728119571558e-02 -1.253533383989262617e-01 -9.321181723186795498e-01 -3.516026614396614014e-01 4.086161844043831870e-01 -8.422638436448223187e-01
-2.423003932604462021e-02 -2.318579545596458069e-01 -9.735067695336100391e-01 -3.284551618002420903e-01 5.490504355460396058e-01 -7.685446154345764169e-01
-1.016867446722340557e-01 -3.130724174321292824e-02 -7.639661408428072287e-01 8.578588458920030080e-01 1.534579445384363083e-01 4.904374167851376920e-01
9.683636639621209796e-02 1.115117341514757776e-01 -8.442060984341975827e-01 8.477887465328852457e-02 -3.614057041744989096e-01 9.285464228581447044e-01
-1.467857005183882159e-02 1.903774448781184181e-01 -7.135913377320876050e-01 3.911718364379652146e-01 -7.944259983171116923e-01 4.646201971240706552e-01
-1.193522380768432672e-01 2.159728111252087746e-02 -7.500558389924389946e-01 8.056013239983172980e-01 2.740211870564783839e-02 5.918239862176927213e-01
1.128844986507019366e-01 8.827398894756616210e-03 -8.925750279500718198e-01 -8.495363203207646763e-02 3.013554248276947845e-01 -9.497198472873347175e-01
4.278057650805319051e-02 1.754230459540025711e-01 -7.831121810639347647e-01 -4.592162942970884898e-01 4.669001176336315395e-01 -7.557279108288582625e-01
1.136771808990857807e-01 1.299619335839320988e-01 -8.323668380404739553e-01 2.128958927028522241e-01 4.452129870206963935e-01 -8.697475122461486574e-01
6.350198480207426555e-02 2.050370157681248862e-01 -7.717870798124302212e-01 4.019190769854432133e-01 -6.458991657388032381e-01 6.490572572994521838e-01
1.089110595618170835e-01 -3.520468317181445206e-02 -9.063444910335338722e-01 2.122473206029994175e-01 1.820419211277751748e-01 -9.601103133749558927e-01
-1.783755018444225030e-03 -6.034552804008783827e-02 -8.729289422695600820e-01 5.051579153507536057e-01 -4.859651105252119629e-01 7.131994054335010214e-01
-7.996203775998873831e-02 9.630095203417236849e-02 -7.627391694828968838e-01 3.326464678092757032e-01 -4.119092610960063405e-01 8.483378384095304758e-01
-1.182882798034327540e-02 -1.306011288354607947e-01 -9.085352479675420367e-01 4.720031869633575239e-01 -4.542462614447646541e-01 7.555615960726750346e-01
-5.445482939143886369e-02 2.395390311154350395e-03 -8.101874180910824119e-01 4.923975024714286053e-01 -3.559377117426495984e-01 7.942625793270797763e-01
2.876524326908140583e-02 2.590270371564841814e-02 -8.444572614765418761e-01 -5.978430693575536026e-01 4.481637172842736772e-01 -6.646299323165342221e-01
-3.695154775272892905e-02 -1.245489699881525136e-01 -8.753265939879244506e-01 -7.787952388652135127e-01 2.550502270265504468e-01 -5.730858204619792007e-01
9.389335323379065235e-02 3.234767854985456242e-02 -8.787207811385383538e-01 -1.652749425243021930e-01 3.556136271570577434e-01 -9.199038762576173811e-01
-4.038074910845268484e-02 3.809840283349611584e-02 -8.001618204205125373e-01 -3.203594634588525780e-01 3.956097413707146404e-01 -8.607338419656521689e-01
8.905644768997209026e-02 1.885961000681772304e-01 -7.949168657404298566e-01 -3.358998697618843510e-01 4.981419489966420477e-01 -7.993909407441239789e-01
3.825028356912422989e-02 1.741643340601950751e-01 -7.836778460041945449e-01 5.449277380340397103e-01 -4.421452999651261928e-01 7.124333611221848050e-01
3.163845808142790039e-02 -1.141282189024441784e-01 -9.232057234898104481e-01 -4.514287199469254053e-01 4.641934818760816706e-01 -7.620607076807203173e-01
-2.839662979557733974e-02 -5.878222026542837680e-02 -8.534585912879359970e-01 -5.355875218880749022e-01 3.604219382787525738e-01 -7.637028432611587814e-01
-1.081450925320464468e-01 2.023860976125668384e-02 -7.605051772845270452e-01 -7.328480771473913080e-01 -1.955433134999334452e-02 -6.801112585061548366e-01
1.100662199165067523e-01 -2.063172297077722067e-02 -9.025351772773478887e-01 1.137988301670581209e-01 2.418199585430425846e-01 -9.636248927372361717e-01
-5.491439454515686241e-02 -3.006949665049882953e-02 -8.196030891590955214e-01 -6.281787335448785203e-01 2.837104342670176416e-01 -7.244997365147709534e-01
-4.067511550351693428e-02 8.510686003813244804e-02 -7.785434759312273023e-01 2.482113946213646283e-01 -4.031319218098363688e-01 8.808380993111193380e-01
-4.495281846839986606e-02 -1.913535008927432779e-01 -9.051206182157593982e-01 9.738180389682832283e-01 -8.653515831191169183e-02 2.102143985456260966e-01
-2.554282691375136735e-02 1.622517050552337303e-01 -7.369090406253968606e-01 1.002782561484436979e-01 -5.806035864969329996e-01 8.079874669143858323e-01
8.931686988677903227e-02 1.784647812281548174e-01 -8.013136038280699314e-01 -2.384292716845687887e-01 5.162325922128983002e-01 -8.225906595270319199e-01
-1.031556236326303805e-01 6.857494105789979644e-02 -7.579905329036306094e-01 -5.739065258979079154e-01 1.897081953457991632e-01 -7.966442745356510091e-01
1.279661114316726356e-01 5.489390974541925178e-02 -8.731348927498095991e-01 -2.173949746817900319e-01 -4.503990317810051547e-01 8.659561981727693647e-01
2.613105953365386577e-02 1.422975014443181863e-01 -7.899660889250557094e-01 5.541283514282978606e-01 -2.629981589886489224e-01 7.897934783928884928e-01
8.495349771729084412e-03 1.271675440685032521e-01 -7.796754289065029875e-01 6.823930118951031520e-01 -2.914194368886872111e-01 6.703838371561549048e-01
1.339065546267895479e-01 6.236235043880914569e-02 -8.632839818436455204e-01 5.060995316034021529e-01 4.497313416823155996e-01 -7.359381661657732332e-01
3.837632934444520222e-02 1.029401138115251975e-02 -8.640751930485444099e-01 5.188775188006859995e-01 -3.988827498675578953e-01 7.560811281478587720e-01
-2.366088510744026457e-02 -1.946009363444624329e-01 -9.427287249346049114e-01 -6.147348413101311193e-01 4.975755377949480640e-01 -6.119801132941133925e-01
2.704690677541013444e-02 -1.927709686247889853e-01 -9.635232469394385824e-01 1.263647806374023908e-01 4.268913248255949422e-01 -8.954304769233117911e-01
-5.019006254637851938e-02 -1.111640266574946689e-01 -8.553224181413523475e-01 8.382451916904587463e-01 -1.562848512493863196e-01 5.224174995899190099e-01
1.101519652509065639e-01 1.058698777896086990e-01 -8.481204842620598816e-01 1.163716653484262332e-03 -4.893720291718976489e-01 8.720743447824443884e-01
-4.492113737758095249e-02 -1.364307536144663546e-01 -8.719622773904600610e-01 8.391358309328755816e-01 -1.722275851585759188e-01 5.159347983563793427e-01
6.228224572814755611e-02 -1.407591084854363239e-01 -9.439027894203457780e-01 -3.833467647308395204e-02 -2.960899609618790618e-01 9.543904796241927668e-01
4.051756534980968660e-02 4.325937041509673314e-02 -8.465099304794347912e-01 5.175987940174459068e-01 -3.603253579461882516e-01 7.760522694075679961e-01
-3.825402327084681271e-03 5.768892493626050222e-02 -8.018447629786830122e-01 -5.078960249405344018e-02 4.788142803661473712e-01 -8.764458347188057719e-01
-5.000734048147970068e-02 -1.648830400844790156e-01 -8.717468192599888699e-01 9.531350966439505745e-01 -1.528029868060535867e-01 2.611220687124622963e-01
-2.039818125851195971e-02 1.716342934079342075e-01 -7.304876512215464635e-01 1.235848017869317084e-01 -6.674323686882804862e-01 7.343438091210655605e-01
8.671435025823917564e-02 9.024084720105796098e-02 -8.485082152116030230e-01 -3.232162085558316078e-01 4.199075475074353081e-01 -8.480618692483963272e-01
-2.881889283217962602e-02 3.634660921959176338e-02 -8.054247323095301558e-01 -3.299817973490037915e-01 4.183587246668162840e-01 -8.462198242262325421e-01
5.003483245388976042e-02 -1.054875627660910309e-01 -9.267165947458976261e-01 -3.192862268027060746e-01 4.559149764832696183e-01 -8.307814631973623465e-01
-5.368242567964109924e-02 1.365290221770673051e-01 -7.485135311596964325e-01 2.074282198085538875e-01 -4.321043280820786592e-01 8.776442236349472070e-01
-1.088462296736563001e-01 6.694924994499384940e-02 -7.571380213625746869e-01 5.796112696884243576e-01 -1.888988142089340905e-01 7.926966721518584613e-01
1.184731358265887491e-01 -7.158545678366083631e-02 -9.094462169877561841e-01 7.234719853784356003e-01 4.956026910971252086e-02 -6.885724842733387252e-01
1.607342707357302738e-02 -6.064300933234528790e-02 -8.850380882590979104e-01 5.721403600326960825e-01 -4.025004922088252779e-01 7.145969228826207775e-01
-4.969691807102114001e-02 -1.251610788764914162e-01 -8.560050584901389703e-01 -8.622194778230799495e-01 1.477408261258816580e-01 -4.845102892180279119e-01
5.934619322894013616e-02 1.352513943916858474e-01 -8.157883788126870650e-01 -5.194691596714539061e-01 4.514158648454384970e-01 -7.255174078656404513e-01
5.034336598979349126e-02 -8.726207590360740909e-03 -8.773236685962876313e-01 -5.098647015216352107e-01 4.208200193262758293e-01 -7.502989387414104039e-01
-4.839072992876281010e-02 -1.040508830661832362e-01 -8.552919840719834799e-01 8.070542400870052147e-01 -2.154279783956496996e-01 5.497765361325904765e-01
2.769860186695167689e-02 -8.394226227872208373e-03 -8.627765534680664761e-01 -5.315513463781893488e-01 3.680088330937177354e-01 -7.629040994309403967e-01
2.109660232378650010e-02 -1.515266021067330493e-01 -9.416258544444819911e-01 4.126646510145217106e-01 -5.048730089302662094e-01 7.581629974199228794e-01
-4.459494464025717093e-04 -2.077120191851539732e-01 -9.685656801384828762e-01 4.331919332614427298e-01 -5.498952360905527970e-01 7.141148214973055408e-01
8.031792588566628865e-02 1.096783189288986493e-01 -8.414658614066204967e-01 2.809694374684815754e-01 -3.146171462453775103e-01 9.066819875221188152e-01
-8.121283359066480689e-02 -7.428988594883759178e-02 -7.822324847542946324e-01 -9.347920896308336003e-01 -2.175126128334724795e-01 -2.808060049606759812e-01
1.329707462697379654e-02 8.775085063501437965e-02 -8.006309826023032539e-01 -6.346087923050495183e-01 3.318870994563449806e-01 -6.979417124256013238e-01
4.174209593415117298e-02 1.291300421414914162e-02 -8.650033335981424099e-01 5.188775188006859995e-01 -3.988827498675578953e-01 7.560811281478587720e-01
-4.561783679179014228e-02 -7.459264583336876198e-02 -8.439239858002141048e-01 7.837145126621722913e-01 -8.059211618325826110e-02 6.158705005533205989e-01
3.142418729550969236e-02 -1.387650250414800834e-01 -9.384406920682406561e-01 3.286700083493858671e-01 -4.715542445357968626e-01 8.182986130208753650e-01
1.125665338490225709e-01 -1.413868210850724666e-03 -8.983896343244685001e-01 -5.682645559814316488e-02 -4.425862883323714025e-01 8.949235337861705109e-01
4.671080007772156206e-02 6.473856666423592754e-02 -8.415809986368375517e-01 4.673408186779434703e-01 -3.135125882956387167e-01 8.266210837969224512e-01
-1.035251044348714650e-01 -3.306115119355335780e-02 -7.555301450558615795e-01 8.735090025543262859e-01 4.364894150977896570e-01 2.155435291632184225e-01
8.276916824211137669e-02 -5.598851117815554362e-02 -9.134533420951819194e-01 -5.469288469092345797e-03 2.109510746774872492e-01 -9.774813200138684488e-01
-3.034063382238286893e-02 -1.555742136988320645e-01 -9.011962376485131987e-01 -8.152300633935531948e-01 2.665695705004592075e-01 -5.141406498445184603e-01
-9.401002432736255132e-02 1.337801426303585339e-01 -7.302361914455828273e-01 -4.445078435092056912e-01 6.305591149632772119e-01 -6.362452197034753620e-01
-6.419124384393316840e-02 -3.375919869345567204e-02 -8.122724275998234322e-01 -6.535918111158512955e-01 2.220488533001158393e-01 -7.235413265255862258e-01
-8.124341075255338274e-02 -7.677526145718860384e-02 -7.803019103543503698e-01 -9.452654952358204854e-01 -1.700369094463928255e-01 -2.784970250155246463e-01
-6.841150644484846055e-02 9.311910828012411045e-02 -7.681976177768777836e-01 2.852581078602025033e-01 -3.538949388005434571e-01 8.907222823031747394e-01
-2.232090385863792423e-02 1.897346826545972809e-01 -7.100302268388939408e-01 2.255441670656075370e-01 -8.571908393346011623e-01 4.629834701838967947e-01
-2.143807200730755980e-02 1.435195430503713176e-01 -7.479359895858795904e-01 -1.439972334048058855e-01 5.331413925919388230e-01 -8.336816252484456902e-01
2.559762338896695143e-03 6.928419795638557366e-02 -7.998235592036216923e-01 -7.135439553329494533e-01 3.044596931768226988e-01 -6.309986680164106909e-01
4.910489997109536431e-02 -1.798352070617598858e-02 -8.823652462242345118e-01 -5.216264117223747832e-01 4.751008303306648584e-01 -7.086501870547641246e-01
-4.753740408252996041e-02 -1.958517765937449195e-01 -8.866600280858543126e-01 9.494157856187476208e-01 2.990350688923802958e-01 9.585245740441447615e-02
6.021249799477449566e-02 1.819791287129399193e-01 -7.880566943003545211e-01 -3.144048981058445436e-01 5.679855231123120962e-01 -7.606194880371437428e-01
-1.144333943713876089e-01 7.764182505311960358e-02 -7.502043023850480941e-01 5.737119344644241448e-01 -2.572351014630320787e-01 7.776147624810062498e-01
-5.398497060356742538e-02 5.628074164702586563e-02 -7.865377433048519329e-01 -3.148686366314774054e-01 4.025321364085794884e-01 -8.595496616392674927e-01
-1.054455300998726891e-01 6.248895841554178571e-02 -7.606800994324823817e-01 6.044880634441586187e-01 -1.873036580737014734e-01 7.742812930878161248e-01
2.503185046361137284e-02 -8.240495938606862136e-02 -9.053804149976372173e-01 5.596999918783218675e-01 -3.820980297662115444e-01 7.353482268559472512e-01
5.770459832982887532e-02 -1.496762336652508740e-01 -9.448490352457099561e-01 1.125423184178007685e-01 2.550319095175488382e-01 -9.603608445230257251e-01
1.177540035234038163e-01 -1.231026123386770067e-02 -8.990236390693248092e-01 2.123214821173603217e-01 2.779872718897857253e-01 -9.368258455544240526e-01
-4.921771772131010997e-02 -1.903089749714327317e-01 -8.804541212517743576e-01 9.887124569504300853e-01 1.016020401938935169e-01 1.101122286555047264e-01
-4.195515964378915968e-02 2.551835882456685023e-02 -8.063352334505813346e-01 4.229592186131640452e-01 -2.597719344406534403e-01 8.681152236121092436e-01
1.753000402154690149e-02 -1.558184853367659273e-01 -9.400290403362369096e-01 -4.684349680120938331e-01 4.820723392774155514e-01 -7.403883713613477191e-01
-1.037434009578925842e-01 1.976632980019930527e-02 -7.650823578786493107e-01 -6.713684003950028956e-01 1.055300608236899446e-01 -7.335719986569846363e-01
2.803363595889735160e-02 -6.823315128555684783e-02 -8.995053983900028749e-01 5.752198554196613633e-01 -4.224757847346123363e-01 7.004543734204657923e-01
2.994086119115244027e-02 2.480502814859054592e-02 -8.462549135703366643e-01 -5.978430693575536026e-01 4.481637172842736772e-01 -6.646299323165342221e-01
-1.640414543501201791e-02 -1.376595945000320675e-01 -9.101929617301746100e-01 4.603174355093413439e-01 -4.962384514356739107e-01 7.361081835456169120e-01
-1.799128789011814750e-02 -4.136192693085106314e-02 -8.506808740834079785e-01 -4.212943942905368333e-01 4.779159424797208011e-01 -7.707836176665211481e-01
1.200133494994101158e-01 -3.434192943235727519e-02 -9.026838350372262676e-01 3.972771756831253165e-01 1.807288158181752369e-01 -8.997265922568916663e-01
-6.118769042610774228e-02 1.157669186459235333e-01 -7.589196916479989952e-01 1.930556892599285257e-01 -5.196174729576703566e-01 8.323023384813108549e-01
-7.736238436934599061e-02 1.445856854428928789e-03 -7.912973091124908542e-01 -6.446015427246434282e-01 1.735131063588649936e-01 -7.445683669339616673e-01
-1.571252540218060281e-02 -7.656898069293123499e-02 -8.701364589953387574e-01 -5.202799427280118127e-01 2.846985062758040641e-01 -8.051431808810545210e-01
4.531021777801326478e-02 -2.353792336403167512e-02 -8.859922513496577556e-01 5.034561141792240901e-01 -4.607843015883902882e-01 7.308965511652488756e-01
-5.699571007954708224e-02 6.882135963516754218e-02 -7.818704134432437058e-01 2.204907240466897622e-01 -3.858494726328551838e-01 8.958258899352673499e-01
-6.511000461985189981e-03 -1.814846738448408214e-01 -9.477547276768474305e-01 3.418843138513303348e-01 -5.023346554386786122e-01 7.942134536053319094e-01
1.054470342031629676e-01 7.924433173294753718e-02 -8.590128268349599416e-01 -4.019233835873518151e-02 4.630649817145824909e-01 -8.854125584420688977e-01
2.785544054169396613e-02 -3.697414584181443059e-02 -8.781110561867472297e-01 -5.958057685211455290e-01 4.462878514869341173e-01 -6.677144897425120185e-01
-8.364618783880342634e-02 1.014894779827152510e-01 -7.561875356680169968e-01 -3.566015442732872742e-01 4.378379712622237907e-01 -8.253079725429086633e-01
6.883022019098194305e-03 -1.676023135785540963e-01 -9.435339643514710772e-01 4.895405735325585872e-01 -5.000321334647328531e-01 7.143653773581982724e-01
-9.807987972606367622e-02 5.395512156605926368e-02 -7.645306425838809261e-01 -5.818725892381453324e-01 1.142396355610510034e-01 -8.052164898710003627e-01
-1.037960224656928471e-01 7.609747419333076635e-02 -7.553933909890261367e-01 -5.497233547443350909e-01 2.684323856105995665e-01 -7.910425321081264727e-01
9.940328788721435049e-02 1.119972704259954571e-01 -8.417147383638426961e-01 -4.266505225195707518e-02 3.376150620078822162e-01 -9.403168419324154925e-01
-1.167242596847274140e-02 -1.827639949798441077e-01 -9.404547892966215183e-01 -1.995540435362816445e-01 5.127112248002632100e-01 -8.350481325481388106e-01
1.159903883372826877e-01 -9.870494765527861036e-02 -9.100256254393537247e-01 -8.634431736044571037e-01 3.815815708526467676e-01 -3.299414959375211454e-01
1.794491779666040898e-02 1.211302551566495189e-01 -7.880602870259468817e-01 -5.968096917746494867e-01 2.416346450930084711e-01 -7.651345568556053856e-01
1.291052474127115934e-01 2.393812120267216348e-02 -8.882281050322424765e-01 -1.866143755588149100e-01 -3.151036262594543724e-01 9.305293007492754231e-01
1.827888874167855199e-02 1.879937769637798073e-01 -7.532047296772117484e-01 6.424165410175302071e-01 -5.780211160068871035e-01 5.031824492937173599e-01
7.494904666193574760e-02 -5.114480797172992615e-02 -9.114601918138722780e-01 -1.691074395060647162e-01 2.919663513927265863e-01 -9.413598268240054301e-01
-7.572022410037121398e-02 1.031166114139522305e-01 -7.609383550012583930e-01 3.140007316008563976e-01 -4.465537565443855050e-01 8.378503942054479348e-01
9.553282368282041762e-03 3.634958520183059760e-02 -8.270427552681036687e-01 6.085937956009334071e-01 -2.923912173662721048e-01 7.376455571364328723e-01
-1.766806110207529623e-03 -6.444222036014436109e-04 -8.404360427941112155e-01 5.513039783421112006e-01 -3.815415731816713119e-01 7.419501003424799901e-01
-1.873514657330561245e-02 1.984364248666870556e-01 -6.931042490254561983e-01 -7.189246245742524355e-01 -4.289956056495973780e-01 -5.469096401729496293e-01
5.115591024410504062e-02 1.193514689784546806e-01 -8.216961175973885867e-01 5.465034318230923560e-01 -3.789542154492497317e-01 7.468116908557512756e-01
3.971102943105829335e-03 7.208535324240918085e-02 -8.034045833276132198e-01 5.915627062196641139e-01 -3.661960823455381320e-01 7.182993762247374958e-01
8.689210020976148585e-02 -9.783265256768883256e-02 -9.278605965260436905e-01 1.199057217239415662e-01 2.940230250663055656e-01 -9.482473720652850879e-01
-9.319607880430211266e-02 -4.742474253928131295e-02 -7.655742332592359034e-01 -9.105735428126270348e-01 -2.536010028319895526e-01 -3.264082635171324243e-01
-3.595143982473348460e-02 1.519305481309026762e-01 -7.401019251734821669e-01 -1.136626572690264403e-01 5.549535111592506231e-01 -8.240797296345561129e-01
-4.831286582371475957e-02 -1.768012685103521053e-01 -8.840496447806598379e-01 9.195049576764640076e-01 -2.113488032147533280e-01 3.314246764924049238e-01
4.189840738499329975e-02 1.522012932445088729e-01 -7.967223118337862786e-01 4.531321511998080420e-01 -3.130694311243067407e-01 8.346608801450665638e-01
-9.724059742992588462e-02 1.228095613647802731e-01 -7.400355643680842643e-01 4.366471976602628313e-01 -5.007229869119840249e-01 7.474059908465947588e-01
5.821957447334655256e-02 -1.542121967788768200e-01 -9.460366941237214888e-01 1.101805117764197844e-01 2.646034977766363872e-01 -9.580424018742884629e-01
-8.187118396607622134e-04 -6.660902089338462118e-02 -8.775067289554548955e-01 6.859084293198323135e-01 -3.823577233953959209e-01 6.191382704597496733e-01
6.500923448931870963e-02 8.564450928003025654e-02 -8.439278945020496359e-01 3.670995173800332689e-01 -2.755265772555518522e-01 8.884385457448290557e-01
1.009860756484708411e-01 -1.099536150730124340e-01 -9.257951995384660071e-01 5.821071724095516764e-01 5.266864670099086904e-02 -8.114044943701276269e-01
2.803057418158958272e-02 1.181072875389911070e-01 -7.982001654236203780e-01 -6.747145732615360547e-01 3.776730972994632451e-01 -6.341319075750196932e-01
9.168369555281577488e-02 -1.405799790950753095e-02 -8.995571975260184816e-01 -2.313293321118728707e-01 4.043027376637997605e-01 -8.848875840592584918e-01
9.300337359580287955e-02 1.528992869934724663e-01 -8.198848713559593326e-01 -8.792431066829173303e-02 5.570799636270453714e-01 -8.257912749107944039e-01
9.996493396180691771e-02 -4.459608052106601994e-02 -9.098929188114396327e-01 1.304127674101969725e-01 2.135381029498274463e-01 -9.681910909965049106e-01
