-1.726773716529884581e-02 6.900151363389933797e-03 -8.034376150762977398e-01 -2.209888456737431062e-01 4.394196542874207467e-01 -8.706746220682616277e-01
-2.483359795160782618e-02 1.428477843092474109e-01 -7.346630773102554857e-01 -5.442019505367821919e-02 -5.129117855582091545e-01 8.567146214497622925e-01
-1.122288686354898646e-01 -2.275769035273118510e-02 -7.549560568637214697e-01 -8.281546434108862931e-01 -1.942746178212916008e-01 -5.257539913946243093e-01
-8.853451412445433044e-02 -6.491069910046719238e-02 -7.815668551625833960e-01 -8.073486896818624636e-01 9.340299671389469885e-03 -5.900007220936501762e-01
5.324747158389328550e-02 -1.144567196394904590e-01 -8.908882647143572253e-01 9.729240890788808105e-02 -4.399216585034529947e-01 8.927503131046620188e-01
1.669663533383441284e-02 1.186382367924469217e-01 -7.622350429398414562e-01 4.616979952242392105e-01 -3.396081951738683102e-01 8.194517892937119852e-01
1.475011671128451801e-02 1.852769640208487834e-01 -7.219520393398184410e-01 -5.125808703877904327e-01 6.564126871827858922e-01 -5.535189566925142746e-01
5.049328645403065863e-02 -5.249789704763274667e-02 -8.628218790273396444e-01 3.445597188593099158e-01 -4.601167054562551040e-01 8.182733146691728576e-01
-6.686482652747438582e-02 1.706740298791299404e-01 -7.161178090311917099e-01 2.832496077078290320e-01 -6.520429128214038084e-01 7.032849348398841904e-01
-5.858718402514510870e-02 3.221783000954431264e-02 -7.809342073231455572e-01 -3.003143812234385646e-01 2.144700164739025694e-01 -9.294158834795472890e-01
-1.157666690092504641e-01 1.581273449002027764e-01 -6.975305839099096294e-01 -4.302520125425288722e-01 8.562494301580039213e-01 -2.858673102283599277e-01
-7.185805269187930944e-02 -1.439230396893664832e-01 -8.172466206181561166e-01 9.212992299978366439e-01 -3.551380581224893723e-02 3.872292581948362789e-01
3.244999574678785609e-02 1.805152457529508869e-01 -7.396837241454532474e-01 -4.233477638636506390e-01 5.137497367997042597e-01 -7.462157052554451164e-01
1.853252935358060474e-02 1.083418128707098610e-01 -7.648454580585822837e-01 -4.921285609520958948e-01 4.490908426165317047e-01 -7.457391598764228080e-01
2.299447573102346432e-02 -6.216685691630620403e-02 -8.551513128962237031e-01 3.972045282875640293e-01 -4.273097986709765705e-01 8.121791050424921332e-01
-6.271885309188357516e-02 -1.474772257349649951e-01 -8.312699503946301416e-01 -8.441624329070974708e-01 1.080588769965481755e-01 -5.250838656544448702e-01
-1.090502077159271749e-01 -1.471426363287681692e-02 -7.615010668999405707e-01 -7.211696091544460563e-01 -6.019204424929597286e-02 -6.901386184246715016e-01
-6.127088273729075496e-02 -9.650307395285170897e-02 -8.255250909247876523e-01 7.476239235280337514e-01 -2.417320355018614253e-01 6.185661581275486709e-01
6.240468836235212036e-02 6.104657096246362755e-03 -8.369624710308192217e-01 2.760393698745695068e-01 -3.609750473266284398e-01 8.907857663247598090e-01
1.374769413796360917e-01 9.971525135536409012e-02 -7.890540854630723189e-01 -7.455594020848302916e-01 -4.537142661758062356e-01 4.881439773585864450e-01
5.740906260185042742e-02 6.838854276760505946e-02 -8.064605041241564853e-01 2.868720723428396790e-01 -2.885754267244026727e-01 9.134706548108447732e-01
1.455119573094401098e-01 4.992028452913749303e-02 -8.119096119262878553e-01 -9.519840554882857964e-01 -2.761284403676617649e-01 1.322098427357015771e-01
-5.404670420979115764e-02 1.423620268290516633e-01 -7.337467130218378042e-01 -1.119414989380086711e-02 4.219614234915605722e-01 -9.065446751777493928e-01
4.482292113743306032e-04 9.241085619128255879e-02 -7.625452173271877188e-01 -4.859457209346836892e-01 3.782889549899258741e-01 -7.878795738169003249e-01
1.294773253278596603e-01 1.057391645262937691e-01 -7.933813022869824483e-01 -6.030937948153313188e-01 -3.974481297733475360e-01 6.916016619376442742e-01
6.344927056970955503e-04 1.992950899062990999e-01 -6.980016198242579017e-01 6.352524896717541836e-01 -6.845804201899362562e-01 3.574967449619758098e-01
5.472507699725098068e-02 -4.191746644867872656e-02 -8.585542796244933772e-01 2.989593276723205295e-01 -4.332764744228874143e-01 8.502322136389487417e-01
7.579108021116477689e-02 1.769989479891993511e-01 -7.560777124704919361e-01 -8.352094719352183561e-02 5.524260389686576067e-01 -8.293670615893159459e-01
-1.146785110798769353e-01 -2.403550260593233581e-02 -7.415363561663036451e-01 -8.420712404369016246e-01 -3.422594232771182798e-01 -4.168627030654964982e-01
-9.984705817017512208e-04 -3.204707125034887694e-02 -8.262350841279088032e-01 -8.109840450921917965e-02 5.052408083264364747e-01 -8.591593416751681644e-01
-3.788499472606812746e-02 1.418538151261989136e-02 -7.968457607324131997e-01 2.319391003006060492e-01 -4.713559913534550727e-01 8.508982213913407477e-01
1.079590790407693457e-01 3.815198449940822994e-02 -8.293301677127027371e-01 -2.859602423261304108e-02 3.847088797839071095e-01 -9.225948976736753071e-01
7.172883474194928499e-02 -7.414593808929259566e-02 -8.754590915334266032e-01 -2.856297394660178499e-02 -2.756375651171825703e-01 9.608371814285691093e-01
-1.034588866083400033e-01 1.560271074757598464e-01 -7.111581354606372196e-01 -3.559767638934179246e-01 7.049602409248246770e-01 -6.134424196965703180e-01
-7.942324501205877407e-02 -3.107851581400873642e-02 -7.937481748867236675e-01 5.893780989061250253e-01 -1.531134710033973390e-01 7.932148016313701477e-01
-3.019474523597318050e-02 -1.552322429026901374e-01 -8.826573052742929804e-01 6.821681807149096999e-01 -3.214496051237413221e-01 6.567470780946810249e-01
-1.014567141811566903e-01 1.727376213163040464e-01 -6.821120276412871997e-01 5.488250181945611983e-01 -8.248633547006607447e-01 1.356154322918733390e-01
-1.407070213437325579e-01 5.951336848843007121e-02 -7.295012557628096639e-01 -8.956089451564834825e-01 -2.015575308005004493e-02 -4.443853766422415918e-01
-1.288720403217648025e-01 1.566572208199283611e-01 -6.916800990695405327e-01 2.644510484626219071e-01 -9.473850441259465960e-01 1.803530458115359392e-01
-1.658877229350295968e-02 -1.792984929835381991e-01 -9.088888863807678131e-01 2.437937384772954075e-01 -5.367029365675957120e-01 8.077837402170109371e-01
1.012849222746287636e-01 1.723760870945019452e-01 -7.641605842242148450e-01 7.248186340049750376e-02 -4.799627088411519971e-01 8.742895273305377746e-01
5.940650669814026737e-03 -2.122285310065855912e-01 -9.378028752846351290e-01 2.473703938467366192e-01 -5.617216098745488884e-01 7.894787655460123732e-01
-1.979747328180329544e-02 1.080465782132734517e-02 -8.034422629747329792e-01 2.140389183393402728e-01 -4.611187873110779711e-01 8.611369260604763154e-01
6.221046465699389683e-02 8.977388817810301458e-03 -8.336250338438506713e-01 -3.057370585063134416e-01 3.917422316996574949e-01 -8.677919537302007935e-01
7.010773323407869240e-02 -1.001502490200859435e-01 -8.828260491977012459e-01 -2.781225970850325149e-02 3.854210962407625396e-01 -9.223215582336107277e-01
3.561206006325253609e-02 1.780776274341121512e-01 -7.431386393333067053e-01 -3.987870287631813393e-01 5.021240791260361824e-01 -7.673593127421232118e-01
8.092793408321455328e-02 1.268546805787114096e-01 -7.900878167695056797e-01 2.028667262495576495e-01 -4.691100696609513121e-01 8.595236087062905206e-01
-1.308354965675865011e-01 1.061504335761683133e-02 -7.391385790365755382e-01 9.019287842401552124e-01 1.608175117024824574e-01 -4.008268904264002397e-01
2.636015199146133844e-02 1.096758365555470793e-01 -7.692421914110164627e-01 -5.061716609883265550e-01 4.424154370094225963e-01 -7.403099558347708831e-01
-3.120597645272788628e-02 2.013538173094185091e-01 -6.801704655537811339e-01 2.370129232922399964e-01 -8.321724374256047607e-01 5.013121867475344162e-01
-1.174721845045727069e-02 2.000811966882270337e-02 -7.971869705105925075e-01 -1.037391448795851739e-01 3.930242758986581819e-01 -9.136575443644013861e-01
-4.784780170964838403e-02 -1.430219555195165471e-01 -8.566151285356337075e-01 7.962646901961267787e-01 -1.809656214201474100e-01 5.772469029894277126e-01
1.623545342659284130e-02 -1.501906056342884876e-01 -8.979361804969011596e-01 -3.201084651719897645e-01 4.975330691104983272e-01 -8.062204510347783515e-01
1.320751878618606490e-01 -3.536910845532218600e-02 -8.477009867263072262e-01 7.345577110657330877e-01 -3.782371428997280405e-02 -6.774912071393853763e-01
5.864403388723741367e-02 -1.402378794768082207e-02 -8.418046771727528688e-01 -3.281798466061490727e-01 4.388122374265641668e-01 -8.365057134092136470e-01
1.307835984797123263e-01 -5.679522824009106130e-02 -8.489075863660686672e-01 8.982358272614303640e-01 -8.682058991088864586e-02 -4.308533205065261940e-01
-2.040846839245575792e-02 -1.859430493646283267e-01 -9.094725671868353345e-01 -4.595125024162500238e-01 5.555361522130629615e-01 -6.929847355515562635e-01
1.684093716191546741e-02 2.501343119816629851e-02 -8.042194384881959923e-01 -3.677013601407393972e-01 3.457817411252885886e-01 -8.632674540691397391e-01
-5.685213295951653534e-02 1.448725190571253582e-02 -7.888547391961047150e-01 -2.991448335022847682e-01 4.197558018801271218e-01 -8.569232377388666944e-01
-1.225837819374294979e-01 5.096863161334443809e-02 -7.482105765615761905e-01 -6.047240461596763428e-01 1.067917255261240511e-01 -7.892429000982034148e-01
-8.419895097470457557e-02 1.646236601338629257e-01 -7.165900370472499947e-01 2.868511499814226928e-01 -6.722893844124010476e-01 6.824539554876432046e-01
-1.210833030010033395e-02 9.628246171917342888e-02 -7.607538968238709565e-01 7.864113035910684502e-02 -4.613950534517375357e-01 8.837025389044157464e-01
4.553746166461140887e-02 -1.998880079603692905e-01 -9.217043168788593421e-01 4.336418704322775874e-01 1.640937620771426020e-01 -8.860180390123928440e-01
1.457603082675196227e-02 -1.660514088709625635e-01 -9.072445313011889834e-01 -3.559085148975142943e-01 4.873352843926879174e-01 -7.973916538372743945e-01
8.327875020724151423e-02 4.992813233991912764e-02 -8.201697272479542278e-01 -2.439556389674425452e-01 4.179191169719029819e-01 -8.751167110079728362e-01
2.205975254038476663e-03 -2.283425318768339818e-01 -9.492784658698392164e-01 2.217696064645022225e-01 -6.175186404763187697e-01 7.546449299590232140e-01
2.292419386247031288e-03 -9.744307611158710414e-02 -8.670508262279884582e-01 2.493383748294760727e-01 -4.778330987478932035e-01 8.423217345993049276e-01
-3.528775089650658392e-02 -2.046342758882351842e-01 -9.144877812249737614e-01 6.899750927092408448e-01 -4.182394099757744121e-01 5.907708247569360971e-01
-1.018988274429948881e-01 -4.046806568539366294e-02 -7.658185970205504400e-01 -8.360736043155558850e-01 -1.563906914240262847e-01 -5.258544283380243156e-01
-1.109891469177477080e-01 3.185096319147583122e-02 -7.618548397991590226e-01 4.861290865828436503e-01 -1.717864732199365363e-01 8.568359929395975572e-01
-7.329117387361694380e-03 -3.884843806692751117e-02 -8.313934925541409671e-01 2.388151441639841666e-01 -4.601182964595842972e-01 8.551365272171840282e-01
-6.921358783371174550e-02 -4.750799459954115067e-02 -8.043649968731856337e-01 6.384743214639981845e-01 -1.624452082728980173e-01 7.523045228763828307e-01
-1.289264265559173506e-01 9.607684578590712510e-02 -7.405359700074505280e-01 4.310849754883235296e-01 -2.108636791575535518e-01 8.773267650769420722e-01
2.748246517730403363e-02 1.095275870169232571e-02 -8.203492998619811294e-01 4.266646042243701920e-01 -4.200708697088894050e-01 8.009355654009122638e-01
-3.998286578429244981e-02 -7.662313228665676434e-02 -8.341424876930578769e-01 5.208771370197703421e-01 -3.192596912460450298e-01 7.916819169815411117e-01
-3.602080174230877507e-02 -7.977899009349055659e-02 -8.382761173207173844e-01 4.766493597293813833e-01 -3.578170300328757381e-01 8.029771857830226844e-01
1.544008053636381980e-02 -1.873778521807681341e-02 -8.291426101773509139e-01 4.324677724628439579e-01 -3.846227336871670954e-01 8.154979941802656951e-01
-9.746434982708525319e-02 1.749489123438129068e-01 -6.854064652846625361e-01 6.102783756828042971e-01 -7.906555578581007104e-01 -4.923507897884994017e-02
-2.381354507588733307e-02 -1.860479636089111266e-01 -9.101534684373898676e-01 4.831092153318116700e-01 -4.869858705109906261e-01 7.276333197319472257e-01
-2.133485673938795985e-02 9.307514702896176051e-02 -7.594478151340730010e-01 -4.412475394050036775e-02 4.583671824643000270e-01 -8.876669038155188263e-01
3.742410202281643700e-02 -4.747399631393053876e-02 -8.521519100030373606e-01 -4.039738001413994972e-01 4.417723396340947906e-01 -8.010258227632456318e-01
-5.960335495552376850e-02 3.545268850015140250e-02 -7.823430910187709753e-01 3.120241907297299222e-01 -1.818150724937057094e-01 9.325149777958345876e-01
8.073093238420899279e-03 1.284894238745968587e-01 -7.529414610408506903e-01 5.129987175843851999e-01 -3.316422190841637474e-01 7.917359119540479107e-01
-2.574553103979270591e-02 -9.872945850496969711e-02 -8.551910765070988019e-01 4.418224650263647968e-01 -4.081208129935439133e-01 7.988931789666974259e-01
-8.762456623728745453e-02 -7.416239691829107361e-02 -7.831237412582553459e-01 -8.160263038444447448e-01 2.743407419868919978e-02 -5.773633544024374675e-01
-1.941719073309763205e-02 4.782057681063349094e-03 -8.039753459400396096e-01 -2.082528510715038472e-01 4.512368564855960273e-01 -8.677649735784385143e-01
1.316210689151647850e-02 -1.536443039548664180e-02 -8.264012477005016066e-01 3.993058155623834815e-01 -3.912644758898214392e-01 8.291362828659248896e-01
-6.323401267197804876e-02 -1.662914002166387406e-01 -8.340407740084238020e-01 -9.307249462670064144e-01 -1.444995693144814075e-02 -3.654343622881646159e-01
-9.509197573821538685e-02 1.511206520531011288e-01 -7.205740383410134120e-01 -2.891986390811315255e-01 5.900474276462220891e-01 -7.537958478803777895e-01
-5.222537509909427889e-02 1.802547812682285810e-01 -7.065272261416600807e-01 -1.129013576466496027e-01 7.900626659740800362e-01 -6.025398470437227649e-01
9.336654141078548630e-02 8.200273050645030815e-02 -8.075394149227277385e-01 -9.794479246136941764e-02 4.184788184792787580e-01 -9.029298400838717820e-01
8.238325777563886010e-02 2.028345278368045568e-01 -7.402689236421773344e-01 1.433593396490682459e-01 -6.755436959486323945e-01 7.232487916335876843e-01
1.330961089762559557e-01 1.068398868579168021e-01 -7.858344194174452513e-01 7.421959415055695564e-01 3.098671296817784859e-01 -5.942453587159406414e-01
-2.792186093975023179e-04 -1.430217292379113159e-01 -8.846114472423577402e-01 4.265861090683170653e-01 4.120002919568328537e-01 -8.051584011717437539e-01
-5.907733015304598295e-02 1.973715422093188787e-01 -6.731595681929570807e-01 4.216209637573323787e-01 -8.710890461510635285e-01 2.518722624585097436e-01
1.376895158224606397e-01 -3.662119519038308652e-02 -8.388323496147932490e-01 7.472409025884416689e-01 -5.923765521849929522e-02 -6.619077984908662282e-01
8.583786343288082876e-02 1.524905809072381879e-01 -7.752036872769958453e-01 1.500526743154839138e-01 -5.909090628914229759e-01 7.926605038246522517e-01
-7.440710277609152712e-02 3.123188491491257421e-02 -7.760803046365806201e-01 -2.971887396200274534e-01 2.810657503689928949e-01 -9.125135051124310115e-01
2.643114174197884816e-02 -6.957303978467645200e-02 -8.609188855238565363e-01 4.261808430911284695e-01 -4.430291146815223957e-01 7.887300504777545740e-01
1.410326807419547412e-01 3.318728844704688791e-02 -8.265016115105922045e-01 -4.598854930155671372e-01 -4.306255440216828489e-01 7.765738690877118655e-01
4.915200432122902169e-02 -1.790400812741894387e-01 -9.139821562174123004e-01 2.035713006431080774e-01 3.622905508159550703e-01 -9.095626874184898902e-01
1.137474349816781360e-01 1.304961431797856952e-01 -7.862107970758305253e-01 2.263711241693447951e-01 4.938553758413548045e-01 -8.395611841282930587e-01
1.593560242468710156e-02 3.461361571825937594e-02 -7.994796868390942057e-01 -4.104569232141170310e-01 3.724429760640649567e-01 -8.323528961721361474e-01
-2.788673724586504879e-02 3.589647962917758700e-02 -7.898323811601343225e-01 1.526931104863669675e-01 -3.796627998638949508e-01 9.124368320105816776e-01
-4.154993411351243227e-02 7.657636699084026388e-02 -7.654966377265308708e-01 -2.713690507356009488e-02 4.257050734190742092e-01 -9.044549623106113989e-01
-9.917134333968467830e-02 -6.883618192621912546e-02 -7.665161998280921596e-01 9.273527730611402786e-01 9.338874320080817193e-02 3.623470393685954138e-01
7.524476012334413433e-02 -1.645417961903924975e-01 -9.029968706246060961e-01 -3.355781351220123998e-01 -2.021920291581967843e-01 9.200574430832694217e-01
-7.349580445695492320e-03 1.504469016230612632e-02 -8.005463162119853537e-01 -1.258286899721487440e-01 4.887661093833654546e-01 -8.632930157820929429e-01
3.151685491798744687e-02 -1.933550152280111012e-01 -9.240436856640409369e-01 1.589015707357422369e-01 4.662538075861353271e-01 -8.702629934273576895e-01
7.538299454769682717e-02 1.520417007875137227e-01 -7.705336687331828527e-01 -2.094720216431887050e-01 5.543157114992957046e-01 -8.055157131513607238e-01
-8.946870700744570526e-02 -1.001501836535880208e-01 -7.740175833927260829e-01 -9.837094653971492075e-01 -1.638784165471475762e-01 -7.388878316804400881e-02
-6.783098937896955838e-02 -2.587594642149919355e-02 -8.004830702560371547e-01 4.999045359724738624e-01 -2.540366445368584247e-01 8.279860132554169860e-01
2.975583507487776849e-02 2.944820102174079343e-02 -8.111504421763992001e-01 4.071561455052992717e-01 -3.848658355206869275e-01 8.283128405537555361e-01
1.555266312783474235e-02 2.967542622709706118e-02 -8.015004810390403689e-01 -4.104569232141170310e-01 3.724429760640649567e-01 -8.323528961721361474e-01
-7.202884570741434345e-02 1.346826771240916820e-01 -7.395170134761703817e-01 3.313179526711149125e-02 -5.118709751706437272e-01 8.584231991973610976e-01
-4.304895115310562043e-02 -1.071511518042242567e-01 -8.446098591476014494e-01 -6.064991328116030589e-01 3.145971781424470870e-01 -7.301968346984140101e-01
-6.127123324445695601e-02 -8.449496954304516749e-02 -8.175141143646166286e-01 -6.367556522069272029e-01 3.188214046043612582e-01 -7.020649196111660162e-01
-1.314489550470587520e-01 2.041478853698947341e-02 -7.398078765688845815e-01 -9.416303285699977321e-01 -2.047344887544113590e-01 -2.672379341179458301e-01
3.500059390593555225e-02 8.913247007971414337e-02 -7.849352871478133542e-01 -4.607344073586051025e-01 3.340069717861757770e-01 -8.222914013135147471e-01
-3.837563855597295182e-02 1.263527809189503304e-01 -7.417665407405598099e-01 4.987990562639779690e-02 5.472274544022298626e-01 -8.354963244462283445e-01
5.243255959864902456e-03 -1.613259968637893726e-01 -8.946690419427596463e-01 -6.601315010986983367e-01 4.204159977718363583e-01 -6.224763369596394424e-01
-1.517936563591826792e-02 -1.562946122127823745e-01 -8.913421404634315204e-01 -4.457928376152757721e-01 4.591564802487240193e-01 -7.684035870403803647e-01
6.481098474249491481e-03 2.453803947354073547e-02 -8.028682691866599885e-01 3.786846673844745381e-01 -3.652856436554193231e-01 8.503906874061802901e-01
-2.420358311063806195e-02 -4.143676097103492911e-02 -8.256192629532469462e-01 -2.509086902890768633e-01 4.756083910282236094e-01 -8.431141604320049332e-01
6.212556172986642006e-02 1.375439789898944554e-01 -7.771579609911103415e-01 3.742398762779101107e-01 -4.731404758114843845e-01 7.975478701321800923e-01
-4.754412790430683627e-02 -7.889779087764507703e-02 -8.299181595614157914e-01 5.891512705876790212e-01 -3.967421037732088429e-01 7.039151109747053825e-01
1.046452017796393741e-01 -1.458217835783098271e-01 -8.762025712217451634e-01 -7.698029865933673221e-01 6.032731503744533930e-01 -2.084822962968654603e-01
1.858453630633035911e-02 -1.501523230311496149e-01 -8.988452549978279693e-01 -3.201084651719897645e-01 4.975330691104983272e-01 -8.062204510347783515e-01
9.132988615060472215e-02 1.997321307271179500e-02 -8.375974824491236870e-01 1.065135858479423908e-01 -3.536886394632205999e-01 9.292788614535838487e-01
-1.286397389097148625e-01 4.330468960362838376e-02 -7.473028519877568110e-01 6.393069465445886390e-01 -9.663803318055753933e-02 7.628549787756701006e-01
-2.111454325624052483e-02 -1.866286824804900268e-01 -9.120941193890318432e-01 2.682642418421947728e-01 -5.179791162243166935e-01 8.122388390764803123e-01
7.520881108618247303e-03 1.606457976042073854e-01 -7.373289974162469118e-01 6.474576638025936193e-01 -4.215334027226411151e-01 6.349079964627626360e-01
-8.871138464380738664e-02 -3.697363240841051307e-02 -7.867102901079984223e-01 7.039926742739962551e-01 2.236974056189525162e-02 7.098548508503274013e-01
-3.979267581106425006e-02 -1.719558944629509811e-01 -8.853747197870974750e-01 6.880405737180405046e-01 -4.543649050081309815e-01 5.658203796388936446e-01
9.107486825682650777e-02 -6.807539655930670841e-02 -8.702440786087694002e-01 1.363870001448444225e-01 2.441650474039012975e-01 -9.600947952247949058e-01
-4.889601528279486492e-02 5.883619377081742222e-03 -7.955570019519937475e-01 -2.696237858342390714e-01 4.032993996980678286e-01 -8.744441710684510705e-01
-6.823343403357270270e-03 -5.745181992824593964e-02 -8.411274960660310995e-01 2.328681811588023676e-01 -4.662373896236038373e-01 8.534606650108481629e-01
-1.884240642761679865e-02 -2.482706863395180152e-01 -9.551761016856737951e-01 8.605559967597662396e-01 1.749969771173641164e-01 -4.783507441622619205e-01
5.943764583810495772e-02 2.913187727503212948e-02 -8.226863865948212950e-01 -2.929780095282485952e-01 4.536458621024683224e-01 -8.416467891759427111e-01
-9.908421553499188739e-02 1.640525070994146989e-02 -7.712484127700386383e-01 5.119923172146375601e-01 -8.908087360730049253e-02 8.543585108551013940e-01
-5.815816265872592039e-02 -1.647410170717250599e-01 -8.470352860500030001e-01 -8.773872504505308978e-01 2.037034169291567776e-01 -4.343921392914972257e-01
4.065939212032159550e-02 -9.127503629483438297e-02 -8.760769802518661997e-01 -1.757450187255706342e-01 2.891898832333395508e-01 -9.410010094726979357e-01
1.346067368111002749e-01 -4.448732708945537379e-02 -8.432670930321112257e-01 9.345918555099086422e-01 3.760753333591732722e-02 -3.537283379246480286e-01
-1.226821894394043884e-02 -1.390372506048895840e-01 -8.822548609385368890e-01 -3.160793479109869075e-01 4.981385856844534055e-01 -8.074353195621666313e-01
-8.996550461135994483e-04 5.868037019739193172e-02 -7.774720727751448512e-01 -4.144017090679007476e-01 4.297346730726824271e-01 -8.022464298959004481e-01
-1.184689718194189764e-02 2.194001212308288595e-02 -7.991387201695188125e-01 2.289909218934342572e-01 -4.466386847897039769e-01 8.649144714592991168e-01
-6.258326892164156607e-02 -2.208598524487556669e-02 -7.999054519534543051e-01 -4.879600663431855612e-01 2.584126093891362941e-01 -8.337373069276987625e-01
1.212511427691005533e-01 4.643796598488839078e-02 -8.241054638971996305e-01 1.219466251293247205e-01 4.297801346623167373e-01 -8.946608611475128647e-01
-9.489724629047747995e-02 1.772213068813582038e-01 -6.782763437906834669e-01 6.383276300934104253e-01 -6.910540402921154790e-01 -3.390901798272453194e-01
-1.016373901702445487e-01 1.689837299131746306e-03 -7.712307518853848132e-01 6.191074972206145333e-01 -1.749375171055077630e-02 7.851113777906395530e-01
1.806354700885660219e-02 -2.819707306167120939e-02 -8.349028656490301570e-01 4.115064596166165267e-01 -3.752845879356231928e-01 8.305563868587053644e-01
4.939437130166451917e-02 -2.433273794723741709e-02 -8.465813483442353737e-01 3.334713043975834346e-01 -4.946172827534033312e-01 8.025899530551166006e-01
4.889109218125597955e-02 8.302851091140819872e-02 -7.953960822118735230e-01 -4.082723189102229755e-01 3.869452165608132099e-01 -8.267932710129990426e-01
1.327326821510879142e-02 -2.136081445821559621e-01 -9.401132866808218358e-01 9.469699033681727718e-02 -5.326649324803687247e-01 8.410116228250554826e-01
-9.107927893500014638e-02 3.639030708599799713e-02 -7.680223267529273645e-01 -3.425741168146715365e-01 2.836743157157405881e-01 -8.956404731206906167e-01
-2.322864276496126867e-02 1.998835666901875585e-01 -6.842545619654762934e-01 1.954301965824127227e-02 -7.858002590722615865e-01 6.181715160249655616e-01
1.036133302689785096e-01 1.285218247710211703e-01 -7.911489564129573493e-01 -8.768982395947239050e-02 -4.507331486579173041e-01 8.883412201822431520e-01
5.831670767217538714e-02 1.509360467583613641e-01 -7.683587432990494070e-01 2.407634562021933322e-01 -3.889990658962037551e-01 8.892202679254760378e-01
-2.873669750350721364e-02 -5.418283342039322686e-02 -8.302209644736746608e-01 -3.566635856244521618e-01 3.805172605397711960e-01 -8.532278131430183210e-01
9.670716629231722317e-02 -1.540925971505901493e-01 -8.822021245546143309e-01 8.756719606767694453e-01 -4.792754767020231954e-01 5.910697688556523777e-02
-7.509670642143623231e-02 6.585315588730827896e-02 -7.671968143240929239e-01 -1.789369218814156060e-01 2.982313879844945004e-01 -9.375711264797174094e-01
-5.564687671931212859e-02 1.465587346237096078e-01 -7.339791509480545484e-01 5.119049006788205930e-02 -4.550441450520094078e-01 8.889962653355165667e-01
5.742765535007305494e-02 -1.675507525954667010e-01 -9.074097873591835395e-01 2.093820160553173382e-01 3.102106493799725029e-01 -9.273233116685176691e-01
4.672856339887921512e-02 2.061310521231778936e-01 -7.201604171099496021e-01 -2.934978309815645114e-01 7.299852142856116943e-01 -6.172362676751154131e-01
-3.923391442306497882e-03 9.904182449042348013e-02 -7.561893580880526544e-01 -1.310361557393207310e-01 4.126622912507328378e-01 -9.014096511957014890e-01
1.874891744090473322e-02 1.886648274035390982e-01 -7.216374561692900924e-01 -5.125808703877904327e-01 6.564126871827858922e-01 -5.535189566925142746e-01
-3.503337311114107597e-03 3.535321935862186654e-02 -7.945761579725091339e-01 3.519904537008057832e-01 -3.993487136157292672e-01 8.465360745041898838e-01
-9.287975867134758146e-02 -7.813588003199051224e-02 -7.733309315264634831e-01 -9.217054105440792844e-01 -1.302485594997509211e-01 -3.653689216696048847e-01
-8.648451793667684406e-02 4.303186638672704123e-02 -7.710266012294332283e-01 3.702467597904258723e-01 -1.323174515612020874e-01 9.194614885230592005e-01
-4.274107919878369910e-02 8.233991889317175683e-02 -7.650752940582450368e-01 5.861903524015760897e-02 -3.872732430756537503e-01 9.200995836892758017e-01
4.019372758644267768e-02 -9.936533160372638951e-02 -8.809950634327603503e-01 1.909858983705385593e-01 -3.745667015601905070e-01 9.073170188560985006e-01
-7.232091636219099492e-03 -1.739669554212925351e-01 -9.045628250295884021e-01 4.786144834638408896e-01 4.250717640522387875e-01 -7.682721989140038898e-01
-3.491359901688807690e-03 -3.933475649978578764e-02 -8.327269388282484419e-01 2.388151441639841666e-01 -4.601182964595842972e-01 8.551365272171840282e-01
-5.556369970065865721e-02 1.719469447886503299e-01 -7.172833272443090991e-01 1.045382333060162067e-01 -6.369164023698673516e-01 7.638123160629723962e-01
-8.867033530419073106e-02 -1.090699970274804226e-01 -7.791351217080642044e-01 9.624022747232749975e-01 2.330391548530059420e-01 1.395514740619470673e-01
-6.704633283506296337e-02 5.758128273147861131e-02 -7.742796917068790474e-01 2.272887534644996155e-01 -3.122859324585963159e-01 9.223975926556937655e-01
-3.559124793175337531e-02 5.436824425592721305e-02 -7.776095046690182366e-01 -8.733769900269054698e-02 4.398939893288384972e-01 -8.937927077825570388e-01
1.372675453252550186e-02 1.537319599447245222e-01 -7.430149877982629159e-01 -5.513639269381408470e-01 3.817131237107115882e-01 -7.418173031537910189e-01
9.410980204618227957e-03 -1.026315793053081127e-01 -8.636273150702696855e-01 -8.038096811255198704e-01 3.305142504867192299e-01 -4.946213973880350112e-01
-2.093936566723377662e-02 -1.024539943365588152e-01 -8.574004458283545071e-01 -4.511911159287951278e-01 4.098872488220074994e-01 -7.927288440318381868e-01
8.867475328672075330e-02 -1.483393037819759896e-01 -8.913627362064399096e-01 3.941863270607976477e-01 7.003952316192048333e-02 -9.163577929791227872e-01
-8.092685047826411737e-02 1.808774446558591431e-01 -6.890371093195191143e-01 -3.932571355823847870e-01 8.521235845146785115e-01 -3.453030871964422599e-01
8.914943744008616000e-02 -1.502416273714559658e-01 -8.935078182913686051e-01 -4.898145212542512894e-01 -1.440505088280102375e-01 8.598436983980636272e-01
-8.987413758645247663e-02 -9.551552761392041735e-02 -7.818306028037790290e-01 9.251866948044200623e-01 9.548881519862842393e-02 3.673029620474562162e-01
9.641071578806831299e-02 -2.451229929247272961e-03 -8.456862492520610397e-01 -1.190435357047828907e-01 4.122668367901924924e-01 -9.032522858481526473e-01
9.173363463551109653e-02 -1.253790007484062441e-01 -8.868156346968634196e-01 5.137976966268377188e-01 1.671626602073235102e-01 -8.414681051432471026e-01
1.201494529174024564e-02 -5.754289879946999052e-03 -8.209642815959284912e-01 4.357320535254263216e-01 -4.317598483608127147e-01 7.897600970383117369e-01
6.437485123017966382e-02 1.195157123925982418e-01 -7.883214033829770706e-01 3.141424267859160846e-01 -4.090614639314583134e-01 8.567282266969541427e-01
1.402762331095350201e-01 6.727303569670142758e-02 -8.081604030785968229e-01 -7.418663551805472212e-01 -3.556685693890058730e-01 5.684489245305230920e-01
1.661512142024692065e-02 1.938715634368334551e-01 -7.180177371718093893e-01 4.271531512408630604e-01 -6.232894179638289733e-01 6.550194553135897380e-01
-6.611909778605322419e-02 -1.667228807512425304e-01 -8.232036524228503183e-01 -9.524731532355479313e-01 -2.862682477353154509e-01 -1.041411671918661130e-01
-6.339598163907174400e-02 1.396137436835316326e-01 -7.344589920458165500e-01 -4.764860667987787235e-02 4.281978457565533969e-01 -9.024279556678823644e-01
-1.582293407073988301e-02 -1.987190316091574094e-01 -9.224665738127609815e-01 1.899337221862467395e-01 -5.601821449062389657e-01 8.063009027061320833e-01
-2.693763879254861687e-02 -2.288021312475732871e-01 -9.399577337966580348e-01 -3.490924445637561546e-01 5.673873209382352956e-01 -7.457922587336455189e-01
7.917569004123789500e-02 1.606938312795795631e-01 -7.658171406117081359e-01 -1.805215201712009887e-01 5.437766248688170601e-01 -8.195846283339852656e-01
-5.831781683372964237e-02 -1.754457120016717775e-01 -8.564635761737448005e-01 9.181944740340716171e-01 -1.075126598501442154e-01 3.812609812520053043e-01
3.975960556552769753e-02 9.696881132356682809e-02 -7.868283197776188009e-01 4.508193548505936565e-01 -3.649641191687568176e-01 8.145938257877162192e-01
2.571921459545862057e-02 1.430412594262374382e-01 -7.584800250895177287e-01 4.435317783093977728e-01 -3.338304255670266341e-01 8.317672803106895829e-01
1.217583782861468150e-01 1.165927153910475689e-01 -7.899326186299853170e-01 3.789604790332999351e-01 3.751855535499174499e-01 -8.459460714125301983e-01
-6.625961671838175027e-02 1.868192976958328311e-01 -6.958952338932617998e-01 3.042742054884496894e-01 -8.483788597060794023e-01 4.332095546940128439e-01
2.973075725725184137e-02 -1.766928798795112387e-01 -9.157755291542714060e-01 2.785199777683736166e-02 4.040891143769618776e-01 -9.142954959212485910e-01
-3.249267380033709490e-03 6.026171363083073634e-02 -7.820816567427378851e-01 3.503507253166958102e-01 -4.375242204689893666e-01 8.281466813150122341e-01
-8.753131104941141993e-02 2.124907874757344176e-02 -7.744459757285157009e-01 -4.010509697288057729e-01 2.581430631059766223e-01 -8.789313276074806058e-01
9.366749381350314430e-02 1.439316802418478050e-02 -8.400207374785436665e-01 1.206851094100437061e-01 -3.660309910596606375e-01 9.227439612105672317e-01
-7.976367953594479254e-02 -1.646629245915269546e-02 -7.874375568067363274e-01 -5.651346530465329865e-01 1.959485100572068983e-01 -8.013906696064881929e-01
1.340819308645053720e-01 -5.125457973196904937e-03 -8.441425624246703396e-01 -4.764359542202132314e-01 -1.688463518407165298e-01 8.628439551832973731e-01
9.365730434408903876e-03 -1.513806899752973556e-01 -8.951662137735930669e-01 -8.378693572754277730e-01 3.167353715791133562e-01 -4.445825508603575837e-01
3.084425501570658285e-02 7.668851536778321931e-02 -7.878181611333820999e-01 -4.703885441065168704e-01 3.935530418660459495e-01 -7.898421493003103810e-01
-7.610013570068328848e-02 4.894853145626137242e-02 -7.716273179974528773e-01 -3.319381869649357109e-01 2.107967043588329925e-01 -9.194464581833388106e-01
-1.296624381836472273e-01 9.538895665361819820e-02 -7.378588336217295485e-01 -4.844463057901911562e-01 1.904968137634449610e-01 -8.538282852847005611e-01
7.205172216016585141e-02 -1.847852679615404337e-01 -9.069501278996731086e-01 -6.041881858977483644e-01 9.678631978523544177e-02 7.909418716467211397e-01
-6.691623835545311427e-02 1.494024616903899816e-01 -7.295029540935799028e-01 -5.475629902234026986e-02 4.377607441683907252e-01 -8.974225752578954829e-01
-8.852979401552631133e-02 -1.107290834722799988e-01 -7.773335639910180506e-01 9.673700420221296170e-01 2.227364319358221545e-01 1.207629234765460191e-01
4.808168904913168173e-02 -1.197164407265713729e-02 -8.395679752066724788e-01 2.989770632964897645e-01 -3.757124295451428342e-01 8.771846361558626182e-01
8.252790279761981242e-04 4.306210791823338740e-02 -7.921589293645266983e-01 1.904756183121760482e-01 -4.758269847499049798e-01 8.586662444817592110e-01
-4.400252791721692702e-02 -7.332663143437878617e-02 -8.268107436009812794e-01 -6.220419250930326882e-01 1.454594891981497717e-01 -7.693538720437866907e-01
-1.279256435866664710e-01 1.147550281045554149e-02 -7.425023216518454872e-01 -8.839530727985523972e-01 -2.459338007285681305e-01 -3.976726426964746208e-01
4.673556571925246289e-02 -2.283184155267524787e-02 -8.445490554232210068e-01 3.451660879282610339e-01 -4.450928409561809573e-01 8.262885299178828191e-01
1.061113250514702025e-02 -1.397977627712268800e-01 -8.924184374651281670e-01 3.433856873143230071e-01 -4.594448791854096603e-01 8.191438657146705715e-01
-5.097786613958354279e-02 7.716711561016220688e-02 -7.649721749030352624e-01 -1.733231342619684368e-02 4.310737678317411170e-01 -9.021502078914810374e-01
-1.975655197375387681e-02 -2.661480844856208283e-01 -9.743334370999191529e-01 4.810261057380192662e-02 -5.902717534396771937e-01 8.057700639433275080e-01
-8.425329664539515928e-03 -1.988486996127071804e-01 -9.256101637366499491e-01 3.920883095856074751e-01 -5.323063311286978516e-01 7.502777667814808371e-01
-6.444970571620163569e-02 1.443654639907884785e-01 -7.321417693418860173e-01 -8.715471841424488053e-02 4.036891153909767382e-01 -9.107355012148062867e-01
-6.678532932193113891e-02 -1.369855976193818659e-01 -8.272681856091763652e-01 8.734938501639591957e-01 -7.623609816152820615e-03 4.867754865429380629e-01
-6.563746055031392801e-02 1.168355851450441352e-01 -7.476451814700246779e-01 -7.469246523393219261e-02 4.664377038420282617e-01 -8.813948627441927641e-01
-9.089934296459516172e-02 1.567931859730874455e-01 -7.177685761912572238e-01 -3.047367516589350456e-01 5.934161119134613305e-01 -7.449784092910822775e-01
-5.094983857734054072e-02 9.781537479512358857e-02 -7.567532000403265346e-01 3.723120924679072796e-02 3.862366377226263969e-01 -9.216480330032404966e-01
7.302812372496046700e-02 -1.060332972283370284e-01 -8.853335852895798386e-01 2.605558892577314323e-02 3.660009102080836185e-01 -9.302496654192280445e-01
1.538470895149131497e-02 6.414208356846086423e-02 -7.878821691280477602e-01 4.680905913683454656e-01 -4.147886418076254800e-01 7.802830133354293762e-01
1.225625336178325434e-02 -8.333444738574248556e-02 -8.612126989694912638e-01 2.421414397738127222e-01 -4.568132920455344470e-01 8.559726276901539199e-01
-8.428525494747525493e-02 -1.023393898837751254e-01 -7.889234313733722859e-01 -8.903900511554507791e-01 -4.637617488458133791e-02 -4.528297772965781953e-01
4.853779630526211530e-02 1.771197651297787556e-01 -7.497303590596690048e-01 -3.039877928922947725e-01 5.309542753339863141e-01 -7.909987226772448032e-01
9.882242587643741416e-02 -6.706132283945556716e-02 -8.685320018993017976e-01 1.899952718760735404e-01 2.550889776785311702e-01 -9.480671970549654493e-01
-9.719293058849268196e-02 1.721584822197731457e-01 -6.794518619585442343e-01 -5.765457567750783552e-01 8.119300342944659743e-01 9.145824049936430999e-02
4.398898551012770525e-02 2.131740359667005646e-01 -7.106967573278099026e-01 -2.938808801211791333e-01 7.222344640966870122e-01 -6.261081433507892369e-01
7.441111720436136001e-02 -4.038274827096102748e-02 -8.604383102472983325e-01 -1.874282707110401791e-01 4.464307348489314764e-01 -8.749687093379467928e-01
-9.628583146641300772e-02 5.811272265211329946e-02 -7.646958143192912338e-01 3.981989598544960485e-01 -1.556927637306375900e-01 9.039896856119064017e-01
-5.697164127086292579e-02 6.987556404430197987e-02 -7.681285749587238865e-01 -1.666648520023724517e-02 4.093459781167808620e-01 -9.122269994199285748e-01
-8.950697886114514223e-02 4.317117784429948604e-03 -7.769380190837009703e-01 -5.178713474859948374e-01 1.938283886033984327e-01 -8.332105515561176734e-01
-5.564125732196234042e-04 1.066831102953193083e-01 -7.581080485993533236e-01 3.429398211602963653e-01 -4.630633658147775833e-01 8.172910120041904092e-01
-4.304880778968377120e-02 -2.113092522901867665e-01 -9.031799857480315996e-01 -6.408929170119430641e-01 6.107663779675521765e-01 -4.649953768246732344e-01
-4.604227106778190776e-02 2.018548685096499193e-02 -7.892744258607672370e-01 -2.387493477178406487e-01 4.282166325108093252e-01 -8.715671314393449443e-01
-9.998433552420119344e-03 7.964067744461279102e-03 -8.071103559942276462e-01 1.377857437283926956e-01 -5.055840919446875636e-01 8.517040652701379777e-01
4.102257324111299036e-02 -1.991341833656581350e-01 -9.256194153753931619e-01 -3.146237263100949422e-01 -3.284256739849485962e-01 8.905888431314884501e-01
4.917677454768427936e-02 -1.367332559765411237e-01 -8.998315690971515624e-01 2.615767324089636123e-02 -3.768494152119948315e-01 9.259051216971423415e-01
8.881603741731511348e-02 -4.762863083700299288e-02 -8.649642904762185891e-01 1.355788547274754466e-02 3.525639712229668432e-01 -9.356894944034582773e-01
1.125620871902435760e-01 1.532789656543285806e-01 -7.750622463870245893e-01 -1.361916395881445641e-01 -5.159945679471471536e-01 8.456958337105191514e-01
-1.944823786511689582e-03 -4.262587175348277538e-03 -8.153815674928175383e-01 4.086027789901461871e-01 -3.788075775182336291e-01 8.303906238730646150e-01
5.010707597253852286e-02 5.287662492364481742e-02 -8.094080532316499932e-01 3.387560987810547819e-01 -3.098368253471389111e-01 8.883948712129348113e-01
1.308544011179663645e-02 -1.714200333718368940e-01 -9.124617514216407654e-01 3.071986797011941328e-01 -5.170768957490196049e-01 7.989120446409609944e-01
9.236707513141546866e-02 1.175730946837455770e-01 -7.943650493194065465e-01 -5.331190350267361183e-02 4.337945300469791543e-01 -8.994332363473357406e-01
7.554266903861302229e-02 1.147491952276814414e-01 -7.945153099479207448e-01 2.551674091156461155e-01 -4.204719529776063669e-01 8.706853220793413506e-01
-1.767508417938310622e-02 -2.413634314988163110e-01 -9.508938021378469108e-01 8.557083642510320276e-01 1.571727847047284798e-01 -4.930110658991177508e-01
9.734671160989136207e-02 -1.117750074024529278e-01 -8.817566563290615278e-01 4.070166278565809925e-01 2.164511002594221301e-01 -8.874042967242963265e-01
-3.355381818547378131e-02 -2.099345695932783307e-01 -9.206074010446896327e-01 6.923455563549304470e-01 -4.842777174411107000e-01 5.349137528476994863e-01
8.136470206079483847e-02 1.386558806517086129e-01 -7.831947272108613634e-01 2.186389177679259332e-01 -5.123677158963770850e-01 8.304675474360210252e-01
-5.021619428154944914e-02 -9.037972577829908594e-02 -8.309923896487182438e-01 -5.981202873984797774e-01 3.788554946786195643e-01 -7.062015547661860682e-01
-1.102235469799283107e-01 4.553762908528323147e-03 -7.617875691853284170e-01 -6.577019484915407332e-01 -2.494336759074334414e-02 -7.528651774146974951e-01
-4.304337203812381302e-02 1.286675587707673263e-01 -7.404754273582360158e-01 3.126142689839562366e-02 5.494630057828693293e-01 -8.349330083691329785e-01
1.034615650438199114e-01 1.545839875940969443e-01 -7.728936665182967181e-01 7.625282567486035834e-02 5.513635706203223741e-01 -8.307729651170698837e-01
-4.665905548075145043e-02 -1.761087934972659363e-01 -8.792383296075977350e-01 8.293618878888362467e-01 -3.487035662537332770e-01 4.365371482467368947e-01
-3.620445972441793669e-02 -2.090959538325744549e-01 -9.132448628063238871e-01 -6.857859584229812899e-01 4.247861063418503225e-01 -5.909774810335864936e-01
-1.876083901634084412e-03 7.276011121442524376e-02 -7.755119139619162105e-01 1.393452564822524331e-01 -4.760118320213084786e-01 8.683292205561281563e-01
-8.245343006647756767e-02 9.010602101499654015e-02 -7.570599485990122668e-01 -1.855676239242418646e-01 3.556619178968440376e-01 -9.160072363846532006e-01
-1.152381496178708081e-01 2.448056432883748915e-04 -7.600342304316926034e-01 6.709904691553998379e-01 6.640409530489481404e-02 7.384864835793237825e-01
-1.168291017500354551e-01 -1.931750243368404382e-02 -7.417625511232724955e-01 -8.598163254995149218e-01 -4.819484765304523077e-01 1.686462343916647066e-01
-1.194506589970439035e-02 2.949802833098725402e-02 -7.930063093175309108e-01 -1.650747480905860320e-01 3.929020990130275837e-01 -9.046426190126057865e-01
1.351868049100123439e-02 1.471063676913708929e-01 -7.458337171257140019e-01 -5.664804806386029012e-01 3.285606313334661355e-01 -7.557431948705933822e-01
3.896216012475076096e-02 6.120499299360995793e-02 -8.017530753329912274e-01 4.234165800595086071e-01 -3.464317965597512039e-01 8.370802888989162804e-01
-1.369362702579916824e-01 1.420337926253125993e-01 -7.103735332639550260e-01 4.046312840383170517e-01 -6.764541196925655253e-01 6.153725277654661374e-01
2.617524438299111827e-02 1.453353494127003764e-01 -7.553337301083179467e-01 -5.255980435793687899e-01 3.471272930436209436e-01 -7.766912765119408091e-01
6.375568767074582532e-02 -5.154066587441274994e-02 -8.637757440325850578e-01 -2.214638089206316107e-01 4.379757957502859456e-01 -8.712812311046701508e-01
-8.247602419988538103e-02 7.380212604177219249e-02 -7.653334250743303313e-01 2.302135360848497903e-01 -3.196971438270717614e-01 9.191275559094734815e-01
-4.059815962120660177e-02 -3.267291533615641203e-02 -8.171796174520262745e-01 3.561253876792206952e-01 -4.139486361146685889e-01 8.377477155499325479e-01
2.464177983154822865e-02 -5.866998837667814631e-02 -8.541569156540324004e-01 4.088499091735486868e-01 -4.186638874814990197e-01 8.109021525977471168e-01
1.082354220099459863e-01 -1.010122647348222769e-01 -8.732447407428215458e-01 4.869378244811174428e-01 1.033789111524121701e-01 -8.672971554309043540e-01
6.011412614158102158e-02 -7.300426719102491580e-02 -8.743972740542003130e-01 1.067946113067422542e-01 -3.487915041252533377e-01 9.310958047622626133e-01
1.048183994230152821e-01 1.216528331848477050e-02 -8.399241878206420431e-01 -1.002715439408305848e-01 4.543040054522449189e-01 -8.851855670455597291e-01
-1.057461031642671981e-02 -2.279365330349506502e-01 -9.460996285789742277e-01 2.655302611770180565e-01 -5.839043266814608613e-01 7.671697450251374617e-01
-6.439006164712987590e-02 -4.467630795428561424e-02 -8.050830053804464148e-01 -5.936304762045750971e-01 1.939784753376001258e-01 -7.810090965070954905e-01
-2.889473051926354924e-02 1.218084836218667755e-01 -7.441340438737720220e-01 1.556698453534850106e-04 4.999890791101430643e-01 -8.660316948804415160e-01
9.628358514607653074e-02 1.835671841254079284e-01 -7.548193376777955210e-01 -1.470282929637269642e-01 5.165016561635896730e-01 -8.435690370375396041e-01
-7.636904451335760347e-02 -9.189832459710826906e-02 -8.025388448997053947e-01 -7.895260109331504461e-01 1.398756754816165293e-01 -5.975646186552114880e-01
4.284542738471211476e-02 1.424424092576385137e-01 -7.664805505748898407e-01 3.443917264765720687e-01 -3.185356135628839014e-01 8.831361172699274675e-01
-9.957409654243193006e-03 1.883374306813541676e-01 -6.948017761693620065e-01 5.763247801627764400e-01 5.871568641837578983e-01 -5.684158377563240938e-01
4.714085076562039150e-02 -1.759951314212468143e-01 -9.131764979919317904e-01 1.982988189336480633e-01 3.768727737079120010e-01 -9.047897495259468181e-01
-6.796951358093418494e-02 1.768382323699092817e-01 -7.093924399272901749e-01 2.874184822090731783e-01 -7.131530807743464706e-01 6.393772747499643083e-01
-6.049931357738610321e-02 -1.413413372068106633e-01 -8.338670305951237927e-01 -8.564816774444725667e-01 4.602093348488067032e-02 -5.141217850695324332e-01
-6.364702873795825833e-02 -1.193518536024558568e-01 -8.296618993441736700e-01 7.969646982380266254e-01 -1.283803612491715984e-01 5.902251711066748285e-01
6.433479120666021900e-02 1.857570755802903650e-01 -7.480110184328161438e-01 -1.859150412669846042e-01 6.260546365694389381e-01 -7.572920106937633955e-01
-5.639421832908630972e-02 -6.561919561726689554e-02 -8.148410935163236113e-01 -6.627042090621908521e-01 8.016036436702246581e-02 -7.445787045543288407e-01
-5.858025273075365830e-02 -1.093061588590968219e-01 -8.334315121446872476e-01 7.531110801380507258e-01 -2.065065346255940681e-01 6.246428996876752793e-01
6.621450985919626053e-02 -1.774127849152246916e-01 -9.077821829098940976e-01 3.375339439802652053e-01 2.143037712803934070e-01 -9.165940924292105274e-01
-6.935259902134630061e-02 2.525862951224781480e-02 -7.824430813807787821e-01 2.712208785970586233e-01 -3.269830379833452705e-01 9.052741727698973007e-01
-7.869002203895850145e-02 1.159139895794902425e-01 -7.488902267356543074e-01 1.158018649004321360e-01 -4.378997433482724744e-01 8.915344877575398508e-01
-9.581552330913406523e-02 -5.986602685661587125e-02 -7.713474246663027944e-01 -8.220983895947925335e-01 -9.404364445848277521e-02 -5.615247374449455764e-01
-1.335231869445399899e-01 6.647259042048248023e-02 -7.418586147524542929e-01 6.345428051037654837e-01 -3.476021264075070116e-02 7.721056638234268243e-01
-1.133062548463547592e-01 1.509328473213313038e-01 -7.113974648878476081e-01 -3.308072181594238770e-01 7.192611394620365139e-01 -6.109255254721284167e-01
8.660629719343336183e-03 1.343979658489867224e-01 -7.480821734780190857e-01 -5.214000426509107777e-01 3.650593091714051663e-01 -7.712805561602892324e-01
-1.102536680093438651e-02 1.578190015746535890e-01 -7.262723555214620763e-01 4.048121519415478486e-01 -5.152424759619592676e-01 7.554153245765160563e-01
-5.327556967357702927e-02 1.825892026244291810e-01 -7.068393143218768548e-01 1.368183202352502847e-01 -7.607840235813267959e-01 6.344197480465214589e-01
-8.609819640273137786e-02 1.057230246304564081e-01 -7.525652204149707591e-01 1.862804401203941862e-01 -4.113919239528027738e-01 8.922198622172473614e-01
1.068832549530352172e-01 -1.402566817382714937e-01 -8.725723970998524592e-01 -5.505922697190063220e-01 5.790005871644414714e-01 -6.013372369884514290e-01
-5.866437368239719313e-02 -1.712463501704345470e-01 -8.541965594121225802e-01 9.165485413509495416e-01 -1.376130268701753756e-01 3.755015661526257542e-01
-4.790184487232880192e-03 -2.191323950517558850e-01 -9.410063077564558842e-01 1.900741489080356172e-01 -5.818784615139623861e-01 7.907523467831317765e-01
-2.400446877377757082e-02 -2.750324386909707708e-01 -9.703065703968102307e-01 8.943037757015317446e-01 4.915458474574915804e-02 -4.447522721296171544e-01
1.360903031770751559e-01 -9.705874404747341297e-03 -8.439299235417205836e-01 -4.764359542202132314e-01 -1.688463518407165298e-01 8.628439551832973731e-01
-4.633463399226211976e-02 -1.839239324186109081e-01 -8.856275803760740306e-01 8.372438937218009691e-01 -2.969582095400472022e-01 4.591715193828193042e-01
-1.059126602171700385e-03 -2.372887940341783797e-01 -9.432904625045477331e-01 -7.888080468813529755e-01 4.610714484222876441e-01 -4.064418588494533302e-01
-1.377144131701834584e-01 1.219675676386190732e-01 -7.261568358102057363e-01 4.172963996931133290e-01 -4.629405148492691802e-01 7.820164924822616825e-01
4.484962055884793991e-02 1.142158541070947414e-01 -7.814523870826332042e-01 4.632108826490680675e-01 -3.941311097574182742e-01 7.937860835998937770e-01
3.679812700416029703e-02 -3.133995512429241497e-03 -8.316840888690932854e-01 3.582704786495968241e-01 -4.162733431329876943e-01 8.356786271797758126e-01
