-1.066878577570448960e-01 3.230145736354750330e-02 -7.033527957184113610e-01 -5.554552180798734140e-01 -4.437364544970621716e-01 7.032549037569643113e-01
-8.781007588612126102e-02 -9.119779396894749091e-02 -8.090241127517541209e-01 -9.115449069312460129e-01 -3.980536236349291879e-01 1.031464752611958580e-01
-9.913785231149535582e-02 9.301733850157843653e-02 -6.585081981193180445e-01 5.210456716805136335e-01 5.300861461582355716e-01 -6.689694205822206419e-01
-7.033930231812862699e-02 1.758021516859585021e-01 -6.047251173330018270e-01 4.386640687041780118e-01 2.203298366035341960e-01 -8.712224732696903784e-01
-3.713629829204152799e-02 -1.037640147175264427e-01 -7.435639254162320633e-01 -3.373404181757216902e-01 -5.161411420053609866e-01 7.872736270156844851e-01
7.392494747395735033e-02 1.289567166208210325e-01 -5.662474561611327006e-01 -4.082454714994775413e-01 -3.179832438863213762e-01 8.556998840760126068e-01
-9.636788702771922899e-02 -8.761045060352513902e-02 -7.920071846847119845e-01 9.532611368069804358e-01 2.895341317275779147e-01 8.638976570301096225e-02
-4.374901679730220511e-02 -1.177402433807417242e-01 -7.518544940872513571e-01 3.402022683209658394e-01 3.792497067924618936e-01 -8.604836294358547688e-01
-3.624315392199740915e-02 2.121047562270876596e-01 -5.887023082285385289e-01 2.893191883074733850e-01 1.479830140797973037e-01 -9.457248198186212207e-01
2.829705690349103298e-02 -1.216918376329605977e-01 -7.334271689349566303e-01 -5.075467411033716958e-02 -4.725020894153099116e-01 8.798668868380716823e-01
-8.606687201991955471e-02 -9.537346562788034943e-02 -7.726411344256559621e-01 7.673195710078518639e-01 4.327526685929607986e-01 -4.732291239706167829e-01
4.884089577861303044e-02 -2.943163497404787526e-02 -6.764062169405015146e-01 -2.687926384886922260e-01 -4.700621879329338615e-01 8.407092582873050279e-01
-1.100128988433646260e-02 -1.123287080565355534e-01 -7.434819975304682860e-01 3.213071293491962521e-01 -4.050652332792646360e-01 8.559695586980847759e-01
-6.564162937613744753e-02 -1.552369610054759319e-01 -8.063221612366386903e-01 -8.854809693530173442e-01 -4.229763022884005519e-01 1.923915294810880916e-01
-4.134538694160479200e-02 5.771487423039842191e-02 -6.580197899695908736e-01 1.729162409829006763e-01 5.046018279303744469e-01 -8.458587168396790590e-01
-1.328572286233428365e-02 -1.497671476505280097e-01 -7.548199636125306755e-01 6.591659349013258007e-01 3.123672927841491531e-01 -6.840518581689278843e-01
1.517955568963363488e-03 1.337544749988677506e-01 -6.124847647682195584e-01 -4.754513400560737152e-02 -4.239302005693738606e-01 9.044460433202190508e-01
-9.159647074004892420e-02 -2.539314961740533894e-02 -7.275592603925229440e-01 -5.323834043880024680e-01 -4.518225297596532020e-01 7.158381886528744076e-01
6.672988872709836872e-02 -1.657951251385600400e-01 -7.673894728710103363e-01 5.988556836125720206e-01 -4.980404326553097283e-01 6.271583513319671788e-01
5.063097564327561501e-02 -1.744309124055250515e-01 -7.593388949286291600e-01 -3.564983152617722806e-01 3.259222542891547225e-01 -8.756047255323566869e-01
3.827779902704447207e-02 -1.874034029318407402e-01 -7.627130889036417560e-01 1.911573479389463981e-01 -3.770924547303719510e-01 9.062340475364910608e-01
6.798339968595666638e-02 -9.038447849153133373e-02 -7.162255623813361671e-01 -2.070344213277804934e-01 5.105377155643094911e-01 -8.345585595821586322e-01
-4.815746218322439903e-02 -1.391842113241884005e-01 -7.658871145424354099e-01 5.476439111362855217e-01 4.435707427887530807e-01 -7.094583446102994406e-01
-4.242640743351635407e-02 -6.217134447891756871e-02 -7.240096083923922565e-01 -2.241807016113824269e-01 -4.519733984876235788e-01 8.634020269171114315e-01
5.931051749173731763e-02 -4.000222643468117484e-02 -6.820457669414772273e-01 1.296347965119002202e-02 -6.346025873919981519e-01 7.727299038284427546e-01
-9.615990397833004688e-02 1.560001408068514561e-01 -6.299060460716253695e-01 -4.921629646399502400e-01 -2.686923109116564623e-01 8.279976197391929471e-01
1.147054306954779085e-01 -2.399383147554183526e-02 -6.814060664175382032e-01 4.462997612638399114e-01 -7.088164949634572221e-01 5.462560750816038979e-01
1.138714793405837256e-02 8.099263377134635622e-02 -6.342007837926039171e-01 -5.845736957584413140e-01 -3.410528509548158005e-01 7.361769808156931605e-01
-5.458641619587568938e-02 -1.160882994993851607e-02 -7.004049936385831066e-01 3.136245711304146977e-01 5.137606710074908989e-01 -7.985546952521137554e-01
4.977344948197644225e-02 -1.253430143188020637e-02 -6.623430949048012550e-01 2.786209107457822132e-01 5.211089984948670262e-01 -8.067315537295339789e-01
-7.901118689555877705e-02 5.224898057732711362e-03 -7.029386218546659348e-01 -4.223239480772538190e-01 -5.043899465310682784e-01 7.531488994341205556e-01
-8.776077294813809659e-02 -9.387314915507931345e-02 -7.783919097561274869e-01 -7.987565733504510268e-01 -3.886939936866499745e-01 4.592438522194588479e-01
-6.308412446597003176e-02 -4.417574388840177224e-02 -7.195571383417038724e-01 3.351679910301813003e-01 4.109903546237279603e-01 -8.477908622974505981e-01
8.121037972110684011e-02 -1.000876187972413595e-01 -7.302815719988452470e-01 3.743340050439093458e-01 -5.568242867420144515e-01 7.414989995691386726e-01
-1.210106459176665122e-01 7.830926593672127289e-03 -7.296122981152641795e-01 7.144045257276779859e-01 4.587439051694639502e-01 -5.283750591101754601e-01
4.218480348291808041e-02 1.524557643848338528e-01 -5.763529524338005805e-01 -5.752763746675506606e-01 -2.269113295275442810e-01 7.858551655880378073e-01
-4.322538173225304314e-02 -3.304437071600917902e-02 -7.081158168415917498e-01 1.986802175345326604e-01 3.786526792581267342e-01 -9.039625654036085312e-01
2.239341923931994008e-02 1.637823023775290265e-01 -5.868295463868130613e-01 6.285301233141126209e-01 2.398183242703637030e-01 -7.398898941267553209e-01
-9.243873437611331567e-02 5.919334595386557818e-02 -6.792756239496855475e-01 -4.014520752009814730e-01 -4.275533437602763720e-01 8.099594863672089362e-01
4.571782979990838408e-02 1.809916110529254385e-01 -5.701591352944829216e-01 -4.775240216520969527e-01 1.468547586050187315e-01 8.662589039197631235e-01
-8.006545643458829950e-03 -2.577901169997546399e-02 -6.931588177056015043e-01 5.060203486183018073e-01 3.743918603780035381e-01 -7.770290481487228673e-01
-1.256534256007380279e-01 6.121682801833820686e-02 -7.068844605832135253e-01 -7.971619525618305335e-01 -2.720101920170575616e-01 5.390206645636633764e-01
3.317377455995608460e-02 -1.306264000497571742e-01 -7.353246978734702122e-01 -7.446858566201335072e-02 4.513263915565052242e-01 -8.892462639978216954e-01
2.803333518106197048e-02 -1.842653503552161010e-01 -7.601024846931064838e-01 6.670391998271624212e-02 -3.391657719551690597e-01 9.383587619844522276e-01
-4.441014033071612188e-02 2.521628536770944076e-02 -6.780089286484595190e-01 1.975759297785119883e-01 3.819379118826081165e-01 -9.028217894130102783e-01
1.090683959643785894e-01 5.716018612747000155e-02 -5.943012734283256160e-01 -3.851352095345076526e-02 -7.019509397830040465e-01 7.111832301464411366e-01
3.401428098443610298e-02 2.670208570731980036e-02 -6.486764943703812181e-01 -4.483817055131479323e-01 -5.184151402522184648e-01 7.281480539824256581e-01
-1.140913030022252111e-01 -2.753757379242944767e-02 -7.528667143524475636e-01 8.363029517379904076e-01 4.128137091830564875e-01 -3.608077250071726749e-01
7.064610263833401294e-02 6.659166078430103775e-02 -5.998667694008654738e-01 -4.173787990523346592e-01 -4.907471508486613843e-01 7.648281977251831787e-01
3.286399902023378478e-02 1.303574866875181482e-01 -5.931359363329065104e-01 -5.914133449428401468e-01 -3.874620105985717711e-01 7.071799246064849331e-01
-1.059609735456345375e-01 -5.388407651304763513e-02 -7.822773230215663842e-01 -9.615983398571571472e-01 -2.744401728469740287e-01 -3.350270389474160199e-03
9.624919702627800222e-02 6.849504656390023594e-02 -5.848306651750047047e-01 2.175650229024659876e-01 5.676273619513385604e-01 -7.940180342873917052e-01
-4.076850895304872519e-02 -1.022328115487147748e-01 -7.416674342895669403e-01 3.258629415549465502e-01 5.363286478518886069e-01 -7.785659412114830369e-01
4.033196288356368647e-02 1.035276459767209972e-01 -5.966199248556743884e-01 6.071231962720400333e-01 3.366353860756675087e-01 -7.197763829065999541e-01
1.203153954957467131e-01 4.916637140983602661e-02 -6.025449277090283440e-01 4.900085688836769426e-02 -7.239173834966380339e-01 6.881442711347579566e-01
5.915613732043626533e-02 -5.889721123301314837e-02 -6.975458837981747262e-01 1.303563851363500614e-01 -6.748843811002881443e-01 7.263183083201638635e-01
9.339053431021367147e-02 -9.411812198992175471e-02 -7.302573161276147973e-01 -4.985645949532128696e-01 5.767617761224462791e-01 -6.471315154303798334e-01
-7.869713846675026325e-02 5.040590294083191480e-02 -6.758070632998468552e-01 3.287377283236151970e-01 4.414623192726711554e-01 -8.348907273643798588e-01
-7.393187583326560341e-02 8.627171215668479054e-02 -6.490517253122227714e-01 3.028914701486087324e-01 5.211216849366826498e-01 -7.979279082724000105e-01
1.120672196803580711e-02 -5.604957809929900225e-02 -7.011808608839207313e-01 3.685398596765639412e-01 4.214502633018659683e-01 -8.285879840984701206e-01
6.429913271637469063e-02 -1.124814575117246279e-01 -7.296215119996918297e-01 -2.387597560214799741e-01 5.503995574963268522e-01 -8.000338155430750664e-01
-9.403766164372664993e-02 1.694738367771503607e-01 -6.207711459964977418e-01 4.920007657888313402e-01 3.121656845462150165e-01 -8.127040247562434816e-01
1.311488941691385246e-01 9.749154454490295552e-02 -5.578367768753957900e-01 9.719193339084934713e-02 4.882433294151726777e-01 -8.672786053889117719e-01
4.732391451474890313e-03 1.435819938155325215e-01 -6.071998832811895674e-01 -5.179064644597804190e-02 -4.208389219442724150e-01 9.056557462510193002e-01
6.278241146590332611e-02 8.480176217198620581e-02 -5.900536064849783990e-01 4.774939899520150299e-01 4.560348499576116765e-01 -7.510204425871799261e-01
-1.025091641416975147e-01 2.391695145632400862e-02 -7.028311366883838174e-01 4.874944729029669355e-01 4.842135208225755716e-01 -7.265579158894794887e-01
-2.208111237973207214e-02 4.187063556154941441e-02 -6.626907668010157959e-01 2.285090491221708764e-01 4.485455127165927647e-01 -8.640547074642267456e-01
-7.183041369495561136e-03 -2.539763874119830289e-01 -7.889144944138025695e-01 4.278148233928171784e-01 2.388305188991914352e-01 -8.717421982029525118e-01
-6.393690053236347759e-02 -4.277489995926365973e-02 -7.214853560122995724e-01 -3.309048219636862576e-01 -3.956090116838645865e-01 8.567353784428990426e-01
1.209805697975824268e-01 -4.978687966793689940e-02 -7.207838574680741628e-01 9.712420779938002457e-01 -1.907944923422242312e-01 -1.424299393602259378e-01
1.111182069388856886e-01 3.748476609985136338e-03 -6.468861064833385521e-01 1.087899091316255479e-01 -7.338276311547478059e-01 6.705682392008618375e-01
-6.283999365613379684e-02 -1.506953618634916947e-01 -7.906823523325310354e-01 7.895242747995040444e-01 4.659352967260775857e-01 -3.994442624035288714e-01
3.337673754236219342e-02 1.885707831329073436e-01 -5.751164539008492005e-01 4.886761142424492776e-01 4.479573345789882033e-02 -8.713145227946507143e-01
3.950902152402133855e-02 -1.144760488379099189e-01 -7.294438578451141186e-01 7.179054470528831167e-02 -5.007535100016229368e-01 8.626076975728727003e-01
6.953619013570477847e-02 -6.139251332334223071e-02 -6.987607240403467257e-01 -1.327559264760197755e-01 6.456732771542876836e-01 -7.519852945067051486e-01
-3.297953490331410192e-02 1.054133572259402934e-01 -6.329881618110315689e-01 -8.891105929084783255e-02 -4.024897337250747387e-01 9.110965030015745203e-01
1.023590226793094915e-01 -1.134379327552292177e-01 -7.587308896773853339e-01 -7.487334398994247575e-01 4.982317497765054171e-01 -4.372223227272554191e-01
-1.975970215303227140e-02 4.260989522345778879e-02 -6.645921293480855363e-01 -1.957356045501265629e-01 -4.781117348585790516e-01 8.562106879161905937e-01
2.484064212453948248e-02 3.525901845327288758e-02 -6.454558641379232187e-01 4.669707330586307381e-01 3.974082564388761174e-01 -7.899398788394581539e-01
6.009340770767280376e-02 -8.307969100180342958e-02 -7.104467309805069242e-01 -8.586445472535760015e-02 4.576075149346859883e-01 -8.849986766600377308e-01
1.402691431726995619e-01 2.425746969631129360e-02 -6.346442270095670191e-01 -8.296946123931160377e-01 4.734813366233341925e-01 -2.956725791060407227e-01
1.785037553889938164e-02 1.646531953417665339e-01 -5.901690233291022603e-01 5.697661637827347025e-01 2.607663004721242905e-01 -7.793378312044066947e-01
-5.764631355075675034e-02 1.800043377793392463e-01 -5.982339106483781643e-01 3.059944191771179489e-01 1.467958314369446904e-01 -9.406478614790948489e-01
3.526430501691135005e-02 -1.009218924691471092e-01 -7.192693240193345217e-01 6.503304976811331850e-02 4.905534244020131052e-01 -8.689810356074041398e-01
1.078221913924737041e-01 7.282107896420585147e-02 -5.785327370869158825e-01 1.806830525476509353e-01 5.561647520728890681e-01 -8.111931971323262935e-01
-1.282384833237130289e-02 -1.331215495278882111e-01 -7.525106287506974079e-01 -1.586581704681931104e-01 -8.494103854709260659e-01 5.033185690969673720e-01
-9.391819804537512861e-02 1.096841011222968454e-01 -6.441968589232851539e-01 4.578281920691614770e-01 4.091115282081373428e-01 -7.893168590837812415e-01
5.713272853692072384e-02 1.264735313885046175e-01 -5.764199817695339068e-01 -5.370920569323998084e-01 -3.952906755714253317e-01 7.451693795281782995e-01
-7.319326009444725167e-02 -1.355586333632041451e-01 -7.999234033188032944e-01 -8.517969201936944623e-01 -4.648702564261462666e-01 2.415318849320440553e-01
-4.882271824213992029e-02 -1.019425668551748598e-01 -7.488975092638233688e-01 -4.491492854475072072e-01 -5.293648917194273551e-01 7.197483801974637885e-01
8.265806754337459705e-02 -8.149984842345084357e-02 -7.176151082350583632e-01 2.723385228447832151e-01 -5.912404053855370156e-01 7.591221983411283736e-01
-4.538367497321614541e-02 -1.221838745477137195e-01 -7.569172947224003245e-01 -3.959756541132304908e-01 -3.882185149584732042e-01 8.321596397284819480e-01
-1.085654997717673126e-01 1.555749872246205701e-01 -6.389832074081643887e-01 -6.624755762474943133e-01 -2.698885997021800986e-01 6.987748239786168991e-01
3.203082364356763662e-02 -1.094916491868993536e-01 -7.240609678376255243e-01 1.682652334173325229e-02 4.895730515785873260e-01 -8.717999169994570252e-01
-4.248871992523098329e-02 -1.814913170299659873e-01 -7.900963218901916330e-01 -6.659467739276691001e-01 -3.899118362699914853e-01 6.359902941334040216e-01
-1.101240096166695437e-01 4.580596525595358182e-02 -6.981441284260397895e-01 -6.153181875765947328e-01 -3.552981148454958382e-01 7.036666665578892310e-01
1.033526659561423977e-01 7.988875523417780788e-02 -5.745373004822303953e-01 2.187985056715157084e-01 5.742316891656409350e-01 -7.889139250094947542e-01
-2.981655317195364748e-03 -7.059441567539810614e-02 -7.198212094272854467e-01 -8.470183090086434996e-01 -2.415682633687958325e-01 4.735026487118341176e-01
-1.041943373290376423e-01 1.320774012277987075e-01 -6.408547215098547856e-01 5.768274220289958398e-01 2.975310471029228299e-01 -7.607531802136757726e-01
-1.194022475111169435e-01 1.572207922877105202e-01 -6.464383767865579111e-01 8.011867482003190988e-01 1.848373927995612398e-01 -5.691528201909038520e-01
-9.450402570086989529e-02 1.275217151563573792e-01 -6.389497167918355425e-01 -4.778169193104160328e-01 -3.093210445037922751e-01 8.221991748036400205e-01
-1.142311994280800630e-01 8.468825935242290867e-03 -7.212438655517847685e-01 6.123897818861200326e-01 4.244026037624583081e-01 -6.669791488203483665e-01
4.826162969144790621e-02 -4.373296360573428188e-02 -6.830297420893644000e-01 7.048283321480580677e-02 5.683298816412157839e-01 -8.197763816161670603e-01
3.725919746130775673e-02 -7.157854585713446793e-02 -7.062684392268857581e-01 -8.852830034648687466e-03 -6.480429042412857443e-01 7.615523761783540291e-01
1.475519224632880488e-02 -2.271005920013934309e-01 -7.747382914776739238e-01 -2.027161328432976195e-01 -2.674547193983944915e-01 9.420053835072200732e-01
8.602489733329138355e-02 1.133890180840603223e-01 -5.659331310708041185e-01 -3.938560147629507902e-01 -3.487176797994465116e-01 8.504548309171611198e-01
-5.605121485830437400e-02 1.621118751304650718e-01 -6.032760415818769761e-01 3.176374613859946350e-01 3.581274838744658573e-01 -8.779812916104791087e-01
1.130978726541773532e-01 7.164471712659489788e-02 -5.811925809314211211e-01 -7.922389982877472980e-02 -6.194253872625531399e-01 7.810478623685980226e-01
-5.643100166898074727e-02 1.339309753312457885e-01 -6.191397556072532060e-01 2.856210084664898008e-01 4.984837616974154284e-01 -8.184953138818693574e-01
1.015207902653607053e-01 4.033231175937244950e-02 -6.093688126548774120e-01 1.024245253720282717e-01 6.837507421673812980e-01 -7.224916187665224587e-01
-8.459822405254344146e-02 7.242403585171355851e-02 -6.672044328956541204e-01 -4.298921528505235123e-01 -5.410393316386774565e-01 7.228202947742374818e-01
6.213009788487852680e-02 -1.962188511556869908e-03 -6.540556364581469051e-01 -2.457857028830669477e-01 -5.115256080747309086e-01 8.233656177798862608e-01
1.194640172071031042e-01 9.051925167559855823e-02 -5.664214061653854992e-01 -1.491539957539559924e-01 -5.198420305936245489e-01 8.411405047784383804e-01
-5.970206338720925737e-02 -1.953185390765331195e-03 -6.962130825262639044e-01 2.822085636121363650e-01 4.866658899797031146e-01 -8.267494409760666185e-01
4.679269443890805152e-02 1.080061876747350491e-01 -5.919627591592476756e-01 -5.784076651455752893e-01 -2.995660600241482063e-01 7.587520995571958027e-01
7.268324408908716401e-03 -2.990327914218596783e-01 -8.075103578219146039e-01 -8.154127016641797843e-01 -2.439596494137474259e-01 5.249626800284428185e-01
4.672751728625946371e-02 -6.991183339149298348e-02 -7.054060817024222496e-01 6.712646310325436072e-02 -6.406623077199132821e-01 7.648828965392301393e-01
1.169617782867139882e-01 -3.640231645638108277e-02 -6.943322129994566883e-01 -5.818100956858597295e-01 6.400878736198596375e-01 -5.017813533829424966e-01
1.338440832977604578e-01 9.470264047396292906e-02 -5.594027415495548272e-01 4.922862718972290802e-02 5.297357401863674875e-01 -8.467328904880316864e-01
-5.150341577930393766e-02 -1.616198912949380617e-01 -7.829395494383638576e-01 6.916360829287433454e-01 4.604527185157182290e-01 -5.564376180691500418e-01
4.992460386583852383e-02 -1.722504924700293816e-01 -7.584006553483236823e-01 -3.692986572639054277e-01 2.470770926769665921e-01 -8.958635007730666455e-01
-1.050960043750658601e-01 1.770880756410359580e-01 -6.240259998188572022e-01 5.381303855892100030e-01 3.687554765835674431e-01 -7.579149600022645483e-01
-7.411242331075211520e-02 -5.529181283406482683e-02 -7.330935112595717840e-01 -4.230335373676932242e-01 -4.348422224020715432e-01 7.949558905238730544e-01
-3.700150708342447164e-02 1.064273502621368855e-01 -6.328307131495540805e-01 -7.133102888638455374e-02 -4.314449539530342270e-01 8.993148147486920152e-01
-4.954683043628946293e-02 1.623092894637986339e-01 -6.012553684327403003e-01 2.442124522935782138e-01 3.243283392753577576e-01 -9.138771287693140399e-01
-6.326446096743028324e-02 -1.435994173437770138e-01 -7.840781426619576333e-01 7.024162141142925586e-01 4.793730906193648944e-01 -5.261301190194137556e-01
-1.022383030718406055e-01 -4.345044662183989576e-02 -7.473597187896615646e-01 7.315714423926362731e-01 4.598921798394056126e-01 -5.032915731443530216e-01
3.434677486758956622e-02 6.662418111421124223e-02 -6.235529337521827919e-01 5.630069922241449643e-01 3.622628504338173960e-01 -7.428248473915552985e-01
-5.805852135733997194e-03 1.394288046848314311e-01 -6.075077692286389164e-01 6.208397802805949023e-02 4.509323581679285931e-01 -8.903963095326274946e-01
-7.403334956423883451e-02 1.966754103098928841e-01 -6.048566555014912582e-01 -3.813276935943815116e-01 -1.648401359901719709e-01 9.096246037045893074e-01
6.865119194732396263e-03 -8.715687633160884573e-02 -7.219640343344085887e-01 -3.603087950167458420e-01 -4.628683836786741113e-01 8.098953213991746392e-01
9.233807678094753000e-04 2.031112344613023590e-01 -5.848026697897955595e-01 -4.922508768535313606e-02 2.715494546290248348e-02 -9.984184992673544867e-01
1.636927041994475432e-02 -1.596961097812150954e-01 -7.494624838941964518e-01 5.792345410711886855e-02 4.352188918951811480e-01 -8.984594535101911861e-01
-3.479720311109826131e-02 1.048019282552696552e-01 -6.309646505083235102e-01 9.273538046796470091e-02 4.197326067631319546e-01 -9.028979388775278947e-01
9.103654560018337172e-02 1.549173029493658149e-01 -5.549553126362128941e-01 3.275975830643940157e-02 -7.202062939180851886e-02 -9.968649994747090792e-01
-8.091845103481415391e-02 -8.807768590109564533e-02 -7.604580378343306357e-01 5.899434938843838294e-01 4.247541363178919949e-01 -6.866954184384280735e-01
1.115184205853301108e-01 6.200751558227334675e-02 -5.865580155272506202e-01 1.165364593082019035e-01 6.281489776715012407e-01 -7.693166548971599461e-01
-4.966477913649895715e-03 1.851814093656409532e-01 -5.908412799196299803e-01 -1.547099634639754195e-01 -3.435192761724850663e-01 9.263149216669822605e-01
1.993851047774828841e-02 1.845318645515466316e-01 -5.865645759133508719e-01 -5.532194706832216369e-01 -1.645792912672789376e-01 8.166161118560767429e-01
-1.667370656827437759e-03 9.150359589416082184e-02 -6.320628694754394372e-01 2.868598349599225106e-01 4.540220197050227613e-01 -8.435493113681845623e-01
7.736994498387732289e-02 8.517945880341179499e-02 -5.814792896498296448e-01 3.919386999387841630e-01 4.539596345276393219e-01 -8.001904184066614967e-01
-2.287084438171022027e-03 5.493035949950045294e-02 -6.556807917345750525e-01 7.643303359141953579e-02 -4.971243920092321966e-01 8.643062710899789280e-01
3.079354778342052387e-02 -7.187298962559691973e-02 -7.040916731554031083e-01 1.199473472875772079e-01 6.157583336832419540e-01 -7.787517630017352088e-01
-1.349808829812067790e-01 5.273780136009635633e-02 -7.285943170726066898e-01 9.782628590264672575e-01 -7.983628843549753912e-03 -2.072149616216239498e-01
5.589884380896712607e-02 1.493003103313677582e-01 -5.657642600290930801e-01 4.722914416329688225e-01 1.981372934909826911e-01 -8.588843968127028994e-01
-2.078632200825259249e-02 -1.649913586875730587e-01 -7.667784260696679510e-01 -3.048142037906497182e-01 -3.494882555408298508e-01 8.859719298073163163e-01
3.080431277480338501e-02 1.086910533625217445e-01 -6.022020494178611516e-01 6.086319039805921927e-01 3.258007106874945547e-01 -7.234784740215033372e-01
2.336052378300621998e-02 -8.363837313679610419e-02 -7.127510189776258276e-01 2.282618876083331028e-01 4.589345704383173685e-01 -8.586475241460128638e-01
3.006849059367298210e-02 -1.769409485964550111e-01 -7.575976410498167501e-01 -3.207803772788915607e-04 -2.887552260644266067e-01 9.574029018759194765e-01
-8.583632146008352004e-03 -1.349602883440331469e-01 -7.448964941120067573e-01 4.428775998324753216e-01 3.802080194005912350e-01 -8.119737024991053875e-01
5.765347778193688488e-02 -8.923559036640783815e-02 -7.135137027947000554e-01 -1.390513144309198090e-01 4.849587279616137114e-01 -8.634117002501686677e-01
3.118986522110314859e-03 2.128087385981869140e-01 -5.848755531535712038e-01 -1.621389723569189312e-01 -6.346657354732569700e-02 -9.847248080987927032e-01
-9.865866268227324945e-03 -1.830962939752632523e-01 -7.660212597603397455e-01 6.110395907135980353e-01 2.704388135652437963e-01 -7.439714152425361826e-01
1.408970447273514282e-01 2.570014187924153301e-02 -6.373131361728215927e-01 -2.518434412598968275e-01 -8.066771563847340287e-01 5.346464686701039026e-01
6.761145898036971524e-02 1.127632007447577772e-01 -5.756088305476532163e-01 -4.820874856954741605e-01 -3.485775531333080712e-01 8.037943428436230553e-01
5.321470255428741719e-02 1.268817451057910051e-01 -5.790456392156434484e-01 -5.083944989265227754e-01 -4.358014468259205354e-01 7.427059528546168243e-01
-5.430785494820493386e-02 1.372114152968721135e-01 -6.187694232205237510e-01 -3.027466250892837385e-01 -5.477870033890060997e-01 7.799191496015097647e-01
-1.532567930417282065e-02 1.995912103619164046e-01 -5.890475383162028233e-01 -1.604125571568618958e-01 -1.912809865378390095e-01 9.683384716593200769e-01
-5.261693778438475411e-02 -1.646985728924666437e-01 -7.877547556113593252e-01 7.398610273099516244e-01 4.603057072519420867e-01 -4.906366436979129886e-01
-1.160887841341218807e-01 5.702156495402640329e-02 -6.979846696250899818e-01 -6.759869434238747754e-01 -3.497907233822746265e-01 6.486047349165379172e-01
1.049277352439995786e-01 3.930409983752307379e-02 -6.098417738041845837e-01 1.091882701633425240e-01 6.818821191695028094e-01 -7.232666847129384236e-01
-1.150195153132637926e-01 -2.258724985225840989e-02 -7.568599508314669544e-01 -9.164367875462527957e-01 -3.599915142660988776e-01 1.747847936415112824e-01
-5.951220225481766712e-02 2.062678087352934064e-01 -5.982951449622891937e-01 -2.985286357506654054e-01 -1.165408928450169940e-01 9.472586098482994599e-01
-1.152464961450103825e-01 1.931401162212692188e-02 -7.161106288466853043e-01 6.604341897834459241e-01 3.801336025923032214e-01 -6.475531832562330115e-01
-2.757070209424556523e-02 -2.008920483873046781e-01 -7.826186280281678398e-01 5.289041784271578672e-01 2.552412213122757234e-01 -8.093900722058008368e-01
1.214370292346981239e-01 -4.381288699290052796e-02 -7.129713081639503791e-01 9.120950396173561625e-01 -3.319351521454999010e-01 2.406277072067085632e-01
-2.238267607375985305e-02 -1.410024725514516519e-01 -7.566170640930325320e-01 -2.895067092227155414e-01 -3.994325392102860417e-01 8.698502813329761496e-01
4.729104545503515222e-02 -8.876908201314132052e-02 -7.125718520328712113e-01 -1.151012938980984415e-03 4.423728348779554786e-01 -8.968305024536440406e-01
1.167395587812155161e-01 7.724051478311865816e-03 -6.437186641122226716e-01 1.813465313135902146e-01 -7.655972952913092655e-01 6.172310888339640478e-01
-4.224178215978928626e-03 9.545427349276897067e-02 -6.308077946187593543e-01 2.442753812753898357e-01 4.014492648787680307e-01 -8.827049483440430055e-01
9.648522470627177161e-02 -7.302983921158158476e-02 -7.145320843083039497e-01 -4.133134819742217414e-01 6.118106342881218795e-01 -6.744328827913944613e-01
-3.516541328842812814e-02 1.336872986900465576e-01 -6.154830367907885291e-01 -1.459113048205655794e-01 -5.384684397469814421e-01 8.299166407067709583e-01
7.008575526712659820e-02 -1.433833390444515764e-02 -6.619590056883383200e-01 -6.214021540617172684e-02 -6.394424858205886020e-01 7.663236267771347254e-01
1.642390572245329763e-02 -8.588722644689844588e-02 -7.182869809629564006e-01 -2.639957646742390751e-01 -3.978215534853576374e-01 8.786604849522713367e-01
-7.994984874693631879e-03 -2.139360655129403724e-02 -6.910325413780884496e-01 5.042833484771770403e-01 3.782837121586544726e-01 -7.762729787672081327e-01
3.694246164740110777e-02 1.267099354577639059e-01 -5.917353869028243452e-01 -5.867163624103767239e-01 -3.982285463865060660e-01 7.051084561419087571e-01
-1.147871588627932676e-01 1.674115938159087824e-01 -6.404191933427511030e-01 -7.232490608661283904e-01 -2.521676047731180037e-01 6.429014660577871965e-01
-4.185928154241166065e-03 -1.041950742278918290e-01 -7.380651686726854566e-01 -6.775335985152859397e-01 -2.973929441285197428e-01 6.726854091367659993e-01
3.964387596687826525e-03 2.609201696494672928e-02 -6.625631772227974503e-01 3.367387017276823880e-01 3.821797199542744106e-01 -8.605496548220953335e-01
-1.088823871441528812e-01 5.938441389522878394e-02 -6.860923973222438077e-01 5.114123944192220383e-01 4.428698752602033273e-01 -7.364262600025954786e-01
5.928632493519266078e-02 1.844382658607495451e-01 -5.626231225413987902e-01 2.552988452922615448e-01 -3.042922246124918351e-01 -9.177302117903818335e-01
-5.075083909070565724e-02 -2.288534068639820618e-02 -7.082193027003916841e-01 -3.017469856963575503e-01 -4.442365329994534262e-01 8.435654446288016750e-01
-1.818974318921623423e-02 -3.622964859299722395e-02 -7.030069143768968853e-01 1.904092521922353121e-01 4.300276595592252837e-01 -8.825080898743132840e-01
-1.086059380981406336e-01 8.047063163875178837e-02 -6.773916638730385076e-01 -5.837887282506440956e-01 -3.914476170197653815e-01 7.113082903334130291e-01
1.069967551192444466e-01 -1.033771573036615932e-01 -7.557520474236538721e-01 -9.252912217622798474e-01 2.487076015921436400e-01 2.863226918006173127e-01
7.579323134046946076e-02 -1.550441211579667855e-01 -7.650665989799515510e-01 -6.501126182135068543e-01 4.222249875792359330e-01 -6.317275073188544088e-01
-1.283941172014432253e-01 6.310677453734464537e-02 -7.055306231434655961e-01 8.112430786552167206e-01 2.887296563593550469e-01 -5.084484761238001749e-01
1.395483547604491059e-01 8.814477663375525074e-02 -5.662834209061696766e-01 -5.951724756275912354e-01 -5.459942506324434452e-01 5.896270028854182499e-01
-6.554739494368533315e-02 6.566912086332196696e-02 -6.622585599651357180e-01 -3.046136107994698028e-01 -5.390783945387253029e-01 7.852420217087595633e-01
5.061114513477688037e-02 -7.621169271873753925e-02 -7.090483901657949062e-01 4.413283823288927966e-03 -4.790895761105868900e-01 8.777549207996918623e-01
1.106986664904894696e-01 -5.821008759524829573e-02 -7.115761746341339178e-01 -4.671709683697577997e-01 6.031067385543644743e-01 -6.465396725822633028e-01
3.074791808702661070e-02 -1.847896028503252241e-01 -7.581809165518906823e-01 -1.080129840852409873e-01 3.236704423734403924e-01 -9.399843828504722554e-01
-1.343938841003815797e-02 1.022678042015704586e-01 -6.293986254119944279e-01 1.477788215103206237e-01 4.616301900621247456e-01 -8.746765045067961264e-01
-3.341438641374867152e-02 1.672680430395907525e-01 -5.980245327271626055e-01 -1.636674321548924893e-01 -3.420727980216757280e-01 9.253103114660755635e-01
4.360120430243642244e-03 3.344610638149365933e-02 -6.587296659549850553e-01 4.387486286752309006e-01 3.765001511257139444e-01 -8.159333778182622510e-01
-2.774670355700014496e-02 -2.263658795860271356e-01 -7.930601862988146955e-01 6.809584932793500966e-01 2.440511059020813167e-01 -6.904596933483434507e-01
8.760784455805314952e-02 1.567045129843344375e-01 -5.577129217563926433e-01 -9.378473510709689487e-02 3.569125135704110524e-02 9.949525405955103041e-01
-7.148114127203350487e-02 3.009673493466186178e-02 -6.835817085047910524e-01 2.968770958270505744e-01 4.289896449082410412e-01 -8.531306315768983906e-01
7.938029455432507597e-02 1.437295848659930764e-01 -5.576119935390035920e-01 1.952281646705029683e-01 1.252473485649147067e-01 -9.727276419413841690e-01
6.666765902792498588e-02 -1.006224492556634098e-01 -7.223360966206223699e-01 -2.370475698064480607e-01 5.280855633662335791e-01 -8.154349069134978478e-01
4.262728553622480154e-02 8.085405149884865306e-02 -6.078769287986931502e-01 6.239209416381228390e-01 4.400073576414064713e-01 -6.458453249864287704e-01
1.050765212649665131e-01 -3.241064438565049999e-02 -6.809572491374085157e-01 -3.751509867380362628e-01 7.340280918134025612e-01 -5.660958378033287275e-01
-6.617026624929469095e-04 -1.770240652786354493e-02 -6.918796081350938598e-01 -6.129956262411860868e-01 -3.691794903635969849e-01 6.985290731988549329e-01
-8.276220335040544718e-02 -7.760648258486126105e-02 -7.549992036542020335e-01 6.138728221482850911e-01 4.880519947514832535e-01 -6.204558071666332886e-01
4.261547848124557641e-02 1.648356225855444612e-01 -5.726648914562159076e-01 -5.461808708838185034e-01 -1.177622540644578664e-01 8.293482427775752397e-01
-1.197209285739280343e-01 -1.090505629245379533e-02 -7.531583834619408613e-01 -8.874781781733203090e-01 -3.861445804653410030e-01 2.515449189377724215e-01
-1.967323296863695420e-02 -2.299032738187211655e-01 -7.904797673950779702e-01 -4.926832553421563454e-01 -2.566845609007482598e-01 8.314903764329720781e-01
-7.079951732242158527e-03 1.115317611071124371e-01 -6.255310643825848782e-01 -1.324141203653147469e-01 -4.886884432687873536e-01 8.623514980235201799e-01
-7.770442395039824091e-02 1.148865600997231104e-02 -6.958351269720989274e-01 3.641091338269213940e-01 4.527383823245690331e-01 -8.139118477046157762e-01
-7.040044090682985589e-02 1.353973320710170625e-01 -6.257227258556998795e-01 -2.985298136854728779e-01 -3.701646802240374790e-01 8.796920255723323923e-01
4.931641124009047278e-02 -1.873946387896165480e-02 -6.668003093782948199e-01 2.425003139280156594e-01 5.743195673444494442e-01 -7.818891432358543447e-01
-4.819664554694046100e-04 1.422389773055700024e-01 -6.057011962922913550e-01 1.156147784198492262e-01 4.675506755386127367e-01 -8.763729735759291373e-01
2.646434397190609508e-02 3.153288935774982427e-02 -6.465469037083214632e-01 4.401804931655156072e-01 4.269626663922873044e-01 -7.899012691113693752e-01
-1.018239640899942650e-01 -6.696378300391049587e-02 -7.853545119998881496e-01 -9.454468734915860706e-01 -3.255475275489242981e-01 -1.220724013720864490e-02
3.269877082893229980e-02 6.952442993817260775e-02 -6.260256380683376642e-01 -5.596542280926694035e-01 -4.036888913873695750e-01 7.237557764525510695e-01
6.291950435591257438e-04 -9.820485824224350901e-02 -7.264070524844508103e-01 2.843976276506376966e-01 4.262336475540396963e-01 -8.587449371492492656e-01
4.494512178833080102e-02 -1.118426348032914852e-01 -7.257630134324170035e-01 -7.504911857920680551e-02 5.233899312452811037e-01 -8.487818386791415870e-01
9.874267477301523765e-02 -1.076228621240590683e-01 -7.481031795456570821e-01 -5.788960068811240811e-01 5.813075715923547993e-01 -5.718049671229595843e-01
-5.737162057261396830e-02 -3.268354892645732035e-02 -7.121414055093563400e-01 2.946137191715755277e-01 3.854454041699861278e-01 -8.744338722168349953e-01
-2.774314621246589882e-02 -3.939677387979485280e-03 -6.905654037660589051e-01 -1.813453798672968187e-01 -4.343529209413372616e-01 8.822989251214775619e-01
6.570570421868351940e-02 -1.317154333936193245e-01 -7.448852154957976701e-01 -3.683758435379158036e-01 5.904665054215284536e-01 -7.180867244790263282e-01
-6.651443054358602280e-02 -1.597773146043391101e-01 -8.128130004409470644e-01 8.837108054126446843e-01 4.673156369530756526e-01 2.590960933855030943e-02
1.391996348171772868e-01 7.496887586596426289e-02 -5.787485138014678565e-01 -4.999846848289558610e-01 6.585710828526694094e-01 -5.624050531127475772e-01
-9.442727080661955652e-02 3.238768966422007206e-02 -6.923552803361862074e-01 4.271445408084482143e-01 4.627988562530869210e-01 -7.767655759032932039e-01
2.274982589319277451e-02 -2.246963681369195942e-01 -7.738131352739126001e-01 1.421983508118236927e-01 -2.544415930428539085e-01 9.565767636505773108e-01
-6.507770056707833095e-02 -1.285602610152777048e-01 -7.770690910776620886e-01 -6.674298532786573368e-01 -4.767436027251313324e-01 5.720602487615199516e-01
3.281335757806390363e-02 1.561522156908714265e-01 -5.831613237414526862e-01 -6.358331507763222978e-01 -2.182345518510483418e-01 7.403309292149200527e-01
5.344883016471725819e-03 -1.047627097346386649e-01 -7.301501199763464900e-01 -3.785298192463941724e-01 -3.861448803696655441e-01 8.411939772166638907e-01
8.713933171614132722e-02 1.921879471212196711e-01 -5.626774002438321709e-01 -1.186280454915593086e-01 -4.690777342829877683e-01 -8.751533957100272598e-01
9.602767054882729858e-02 1.746982064262960210e-01 -5.580206554615440018e-01 -3.170031910524211405e-01 -3.652606640144094308e-01 -8.752677442853329381e-01
-5.340288387114711099e-02 7.465915950782317512e-02 -6.502002302410464507e-01 1.607778238824031924e-01 5.013037843812336858e-01 -8.502029211386495922e-01
-1.329209029342979798e-01 6.012432631855630510e-02 -7.167719569807393665e-01 9.761563903404891773e-01 4.817494364921273697e-02 -2.116550882965534675e-01
-1.217716666380361940e-02 -5.175880600474812125e-03 -6.851638658218257572e-01 3.268956056498489859e-01 4.128810088453345739e-01 -8.500991327731591829e-01
4.099174536888576525e-02 7.525627623491189244e-03 -6.567992386631842372e-01 -3.792362501635315741e-01 -4.134129602956502780e-01 8.278101176124210703e-01
1.002104408751858799e-01 -4.522543111720971065e-02 -6.931728445224849544e-01 -3.009261500051361171e-01 6.253654654096281185e-01 -7.199732543060787249e-01
-7.136854814548337922e-02 -1.278781623090029795e-01 -7.847466845156011450e-01 -7.281060981185030201e-01 -4.706987422347225780e-01 4.983013184221966596e-01
-5.024326505013222005e-02 -1.314284733189226562e-01 -7.624920051890217154e-01 4.855915693097466179e-01 4.465778034881914271e-01 -7.515112063349157490e-01
-5.409621249666584156e-03 -1.318219432733353513e-01 -7.523861468938518593e-01 -7.339283263861873241e-01 -2.771480493008737778e-01 6.201114178086796214e-01
2.779271362172888379e-02 1.054150411854507946e-01 -6.062999998346895181e-01 5.879902359616486773e-01 3.983226378700978065e-01 -7.039932944098060696e-01
-4.341015677234517749e-03 -1.409918839750234631e-01 -7.461380677982833998e-01 1.218539610696218745e-01 4.102912946707564790e-01 -9.037768893311211027e-01
-2.175024541838853701e-02 -6.648291341000957255e-02 -7.213937269569975497e-01 -1.662482751488422172e-01 -4.393974444807190460e-01 8.827748279113130092e-01
3.072680121846796744e-02 6.202272934315550962e-02 -6.309362287243067691e-01 -5.527265589386959332e-01 -3.428629003098598305e-01 7.595646006989132948e-01
1.406706314818578730e-03 1.418953306235631595e-01 -6.083171702654630586e-01 -7.584228859813610391e-02 -4.805291044951016111e-01 8.736931537979069073e-01
3.379101465204809723e-02 -6.876905096742712276e-02 -7.040987507484438579e-01 -1.230496098620712797e-01 -5.831826767063881256e-01 8.029674707622748153e-01
1.685009548239531710e-02 -4.981108516389445851e-02 -6.978722556138083899e-01 -3.324408083736962727e-01 -4.238500805247391034e-01 8.425165981552030781e-01
-1.478059406884598553e-02 -1.066265113763625741e-03 -6.836972305764764668e-01 1.932640944790747772e-01 4.611449781885931243e-01 -8.660221122330683530e-01
-7.404395550264256110e-02 7.811426103302852864e-02 -6.546286304830044589e-01 3.471265148921567345e-01 5.135912740081277628e-01 -7.846828569055995795e-01
3.937312237699909512e-02 -1.296835633097405682e-01 -7.355138987802776196e-01 -1.423113293995121875e-01 4.622951584946622394e-01 -8.752317818480649381e-01
-4.481055083051017213e-02 -4.911553450504646534e-02 -7.179901466316530589e-01 -2.410070910832271540e-01 -4.372954665420810128e-01 8.664226780211520262e-01
-1.024341859902780510e-01 4.976733301784725793e-04 -7.197562048852506056e-01 -5.130785109956393919e-01 -4.422370586419756000e-01 7.356472153948465653e-01
9.306574230027504779e-02 1.200225207273321326e-01 -5.611637025771923915e-01 -3.140561532403866041e-01 -2.319865269271321195e-01 9.206253222327409613e-01
1.296869800433243097e-02 2.059103546710220056e-01 -5.864665877214080281e-01 -1.527181156494547276e-01 -6.843807147755567866e-02 -9.858972601264865965e-01
-4.807849361553565709e-02 4.580830357595315483e-02 -6.696858522957610527e-01 -2.891213972914956631e-01 -5.343933009411322432e-01 7.942497198850333451e-01
-1.130967542726998565e-01 -1.241321289495157625e-02 -7.394251394481746731e-01 -7.664801898725787099e-01 -4.003796579535791045e-01 5.021994106227831711e-01
5.592032035663926232e-02 3.818224387022626370e-02 -6.283565662547461184e-01 -3.741267153629411757e-01 -5.615507613476070636e-01 7.380311262281964435e-01
-3.039661277477961887e-02 -1.928350850797868055e-01 -7.816816860965279945e-01 5.975615277744712461e-01 2.803738850664919124e-01 -7.512061668387458591e-01
-1.138920788476733420e-01 -3.285824331002055315e-02 -7.735237838359871887e-01 9.690693918644383009e-01 2.161555881732117601e-01 1.190851605070113034e-01
4.783323421894324773e-02 7.585108253233152631e-02 -6.098913669741776733e-01 -5.618371999731365252e-01 -4.980498232609867904e-01 6.605189885809837902e-01
-1.202949128338766105e-01 9.083038585598703085e-02 -6.838335584732324612e-01 -8.408460465085577651e-01 -1.950575579304900942e-01 5.049064023807998680e-01
-2.314981239398091264e-02 2.066534888570167039e-01 -5.869735519147093461e-01 1.752190516162948075e-01 1.533209357819417251e-01 -9.725178531017495409e-01
4.749535059039343421e-02 1.548449654363674433e-01 -5.717883495192190857e-01 -5.170309381194180265e-01 -1.997138462661579850e-01 8.323421103350064909e-01
2.579050667550027848e-02 -1.246165106681073470e-01 -7.351259591989693920e-01 -5.450993410613675511e-02 -3.993461269279449111e-01 9.151783093973516747e-01
-4.994132601853146225e-02 1.116802997249022045e-01 -6.317335921367753793e-01 -1.179424131337367398e-01 -3.788454928939368194e-01 9.179137648483877143e-01
8.081863971773116384e-02 9.595229993839038407e-02 -5.736657054404941114e-01 4.209416560208554259e-01 3.939370483168165848e-01 -8.170812225169872267e-01
5.020139376465933279e-02 1.123230775107294799e-01 -5.849256379185979737e-01 5.826759831386182364e-01 2.994952431519062319e-01 -7.555073116805854916e-01
7.984777018542577043e-02 -2.024142853163984554e-02 -6.662375141525312960e-01 -1.055657797385210241e-02 -6.215775209924335742e-01 7.832815228628740023e-01
-3.105481401868242022e-02 -8.191757812685723783e-02 -7.283452842561671803e-01 1.801780925176487691e-01 4.181963117707194200e-01 -8.903076433447424387e-01
-5.650152589399107944e-02 1.124643871649270155e-01 -6.303344887666784135e-01 1.658209327407050016e-01 4.194439825998656501e-01 -8.925077947703126124e-01
4.283752170801671116e-02 -1.971834986878605311e-01 -7.691337317884066049e-01 4.030008527358820425e-01 -4.578885881314719297e-01 7.924193041270001236e-01
4.094501737659480417e-02 9.026878821285672094e-02 -6.060466171754825826e-01 -6.107271404002603266e-01 -4.235514281739148901e-01 6.690415141606368410e-01
2.151624832014774336e-02 -5.639680205689749648e-02 -6.993441993318908478e-01 -3.324408083736962727e-01 -4.238500805247391034e-01 8.425165981552030781e-01
-4.474593671194283112e-02 1.035958817778919183e-01 -6.327280385374650651e-01 1.190033245327871969e-01 4.289711939786847728e-01 -8.954450979745469663e-01
7.756499878277441085e-02 -8.836916443990133763e-02 -7.178900706501137874e-01 -2.817213786270255094e-01 5.122519788051050904e-01 -8.113143503197404183e-01
5.278934346865151589e-02 -1.834643856597351630e-01 -7.646100223505125637e-01 -4.972158970690486179e-01 4.221717466226262983e-01 -7.579890289809096959e-01
7.549242939812213227e-02 8.497320489553844558e-03 -6.436209469892153479e-01 -2.376601679032232239e-01 -5.272977062170979279e-01 8.157663719536364377e-01
-9.382314040751933704e-02 -8.389429128055440887e-02 -7.819580720784961025e-01 -8.805255015569165566e-01 -4.294623796984981534e-01 2.005913894753307558e-01
-3.021134489865965472e-02 -1.585283634762018334e-01 -7.656010963290051929e-01 3.836965842073676858e-01 3.626544490097860507e-01 -8.492694989701484731e-01
-3.870899345433853611e-02 -9.740217495775206624e-02 -7.377556068652018073e-01 2.190889505093005230e-01 4.574764410031888495e-01 -8.618093395245779442e-01
1.296963894098621117e-01 -2.002171832761138678e-02 -6.922774127864445015e-01 -9.504749332094322156e-01 2.993053555901639684e-01 8.374786836433972814e-02
-4.760173813151721139e-02 -1.313935229194004572e-01 -7.634786595121427766e-01 -4.459228114163558132e-01 -4.448364108412323770e-01 7.767067746894085190e-01
2.187065507109319309e-02 1.583053157701309333e-01 -5.890424931104626394e-01 6.005133858936655411e-01 2.837967618326479036e-01 -7.475580722163523983e-01
-1.068920863234154930e-02 -1.722305001067172547e-01 -7.696354977538500952e-01 2.487449151954577720e-01 -3.842834649747275955e-01 8.890737796782796076e-01
5.170984546649012165e-02 2.084575542110027879e-01 -5.724947019782529178e-01 -2.644025075793522972e-01 1.472252859098465150e-01 9.531086135244579705e-01
-8.710048026387824660e-02 8.921404829345497278e-02 -6.533378708832046078e-01 4.300201378851524758e-01 5.164130169143541504e-01 -7.405405302714022087e-01
1.598130206155418120e-02 1.990037164642852463e-01 -5.889594279902847784e-01 3.373576765524972654e-01 4.432407558940534287e-01 8.304983024579695172e-01
-6.767353157108005335e-02 -9.267234870965027071e-02 -7.527970398126406781e-01 5.167566960693221745e-01 4.779525015877110761e-01 -7.102984747932148402e-01
-1.139396151178811295e-02 -1.097190455784834429e-01 -7.352517154694510060e-01 5.211262280165870342e-01 3.487542278164300069e-01 -7.789723634721388290e-01
-1.018514879956212843e-01 -1.922104423689905556e-02 -7.316888191688327714e-01 -5.850008968120522512e-01 -3.769000228659819540e-01 7.181367025105436230e-01
6.946910578295475980e-02 5.607850701784806990e-02 -6.080109511691500490e-01 -3.862636394738797052e-01 -5.619750126948311886e-01 7.314263366375572950e-01
4.515284612092106131e-02 1.713891152076748581e-01 -5.702311172376968162e-01 -5.117898635344342306e-01 -9.277078833668397917e-02 8.540870660622345012e-01
3.819421319040946367e-02 -4.751170570458829873e-02 -6.895918061118085918e-01 -1.796191310414849973e-01 -5.141988665906753742e-01 8.386515923557092966e-01
-1.612228483728241415e-02 -5.544499783004435550e-02 -7.118340738254432809e-01 2.644741646482444697e-01 4.122330346617743002e-01 -8.718470860002672795e-01
-4.345279953236142606e-02 6.883040468313050830e-02 -6.541783876002938980e-01 -1.204784959775852399e-01 -4.761503741183776839e-01 8.710716120009353025e-01
1.096636396152781551e-01 4.377323349114872232e-03 -6.428309653584036720e-01 -7.443336760189207812e-02 7.330951864874487578e-01 -6.760407689898401129e-01
1.135104093105914480e-01 -8.286728586390805507e-02 -7.449792584547643148e-01 -8.558869507784677699e-01 -1.366483391058246344e-01 4.987832784955368859e-01
4.458353749817847017e-02 6.238532415786575934e-03 -6.557965498571156626e-01 -3.792362501635315741e-01 -4.134129602956502780e-01 8.278101176124210703e-01
1.035464818193953668e-01 4.223815797431729191e-02 -6.071766101700607488e-01 6.739391759556767614e-02 7.281132929195182069e-01 -6.821356848494423142e-01
1.320262642065344050e-01 1.187698249900964315e-01 -5.525185623571855498e-01 -2.663517389508816002e-01 -7.520152786463255024e-02 9.609378134742470046e-01
1.291547866799389599e-01 9.364791901278510244e-02 -5.631695950624739933e-01 -6.162559228019225122e-02 -5.450092588996515719e-01 8.361621816907101046e-01
-1.029822669490361789e-02 -1.210869821143803621e-01 -7.479590294950932972e-01 2.705480955440638935e-01 -4.312249781913177205e-01 8.607257090277817824e-01
8.676833708924966415e-02 7.300778383813463779e-02 -5.877746480552820119e-01 -3.432625178892012019e-01 -5.219974717411657306e-01 7.808261543443565378e-01
-4.867003132184727354e-02 -8.567042197699908501e-04 -6.942286115534269664e-01 -2.228725614741747796e-01 -4.804442208092512545e-01 8.482341492966030128e-01
1.125679759143835773e-03 -9.296643776983326557e-02 -7.236495370332453048e-01 2.743254716249184377e-01 4.207565002695399792e-01 -8.647019735716432454e-01
-1.879131976031213694e-02 1.628239170674301017e-01 -5.960417060272102940e-01 -1.858582463721885443e-03 3.818592203008687735e-01 -9.242186329773048881e-01
4.878093375943223092e-02 -8.492002497537966266e-02 -7.106751687822102648e-01 -1.151012938980984415e-03 4.423728348779554786e-01 -8.968305024536440406e-01
1.201734888082594960e-01 -9.855935754033838536e-03 -6.674190692167702998e-01 3.511732973131556079e-01 -7.281176983822151838e-01 5.886611355922790612e-01
-5.410716102470837507e-02 1.997742229577386119e-01 -5.949717837281411903e-01 2.903168156465108507e-01 7.816041812757294760e-02 -9.537332413159316236e-01
7.395331505083069246e-02 -1.245269882566214931e-01 -7.466532044551427161e-01 3.915760852514634793e-01 -5.361549610294873425e-01 7.478007938098272245e-01
7.574301906812458407e-02 1.754623382431189441e-02 -6.346570541254330511e-01 2.709106325126436898e-01 5.452415001935257965e-01 -7.932963731533838603e-01
2.792265117627026200e-02 -1.210002635123098580e-01 -7.307895914397186665e-01 1.623778866831885465e-02 5.129823961482138373e-01 -8.582455333185253776e-01
2.789968574366520279e-02 -4.845811078721994070e-02 -6.930123161950634270e-01 -2.593151458427783718e-01 -4.609998209260933177e-01 8.486664952987413857e-01
2.343291605517674320e-02 -1.038074856589115275e-01 -7.244736118132177882e-01 -1.525087019478367223e-01 -4.463506081003125181e-01 8.817665396683338486e-01
