-3.558534654051867530e-02 -1.709067817645286147e-01 -7.946530093336235945e-01 9.818767781266684036e-01 -1.624906861532445235e-01 9.754367990311184344e-02
7.530157971508380510e-02 -1.556530246176429655e-01 -8.889953105499137642e-01 -4.985173496899170664e-01 6.317487410012941063e-02 8.645746858083306341e-01
2.122526726605359227e-03 8.310470548321957640e-03 -7.735082023350527969e-01 5.738975231679181999e-01 -3.591568887628827644e-01 7.359673648714970540e-01
-3.172677499882511215e-02 7.309008906494333935e-02 -7.126319972233712274e-01 5.095659491663515617e-01 -3.262428162825404820e-01 7.961835016340338411e-01
-9.418244652578729170e-02 7.199758390641587680e-02 -6.662379794721132731e-01 7.509695681044747939e-01 -1.523014079756287997e-01 6.425332589910188741e-01
-2.163165357119932897e-03 3.881690749546704705e-02 -7.476093117677914401e-01 -3.570072236931057796e-01 4.176313774031716330e-01 -8.355416655315701657e-01
-3.128562512552698904e-02 -2.070809136331978051e-01 -8.573031398332818798e-01 8.907062606514075664e-01 -2.881734038100912665e-01 3.515657073334843008e-01
6.825971287719330427e-02 1.134044706296986373e-02 -8.412223445358019136e-01 -5.650616384362660005e-01 3.590629828728401640e-01 -7.428183621169991424e-01
-4.223966163362093823e-02 4.078592590251729766e-02 -7.184265218457345226e-01 -5.583108309167733596e-01 3.060411264208653948e-01 -7.711211610506288894e-01
2.328496173297297037e-02 -1.070652992902202533e-01 -8.540751252806781935e-01 -6.871594286445763533e-01 3.850416423309065417e-01 -6.160802328398287120e-01
8.413216511726659408e-02 3.951455593762732976e-02 -8.392366559825751304e-01 -4.171379085571352285e-01 3.773587120548662077e-01 -8.267988677307630541e-01
-8.331064408079784378e-03 9.101505790016341246e-02 -7.207623996341531170e-01 6.857890317573885897e-01 -3.363405521510325347e-01 6.454211314328049953e-01
-8.020432214693783146e-02 1.406025220460328518e-01 -6.414359682093218051e-01 7.262167743669279973e-01 -4.943377311607050628e-01 4.777440781202639819e-01
2.934475887726143220e-02 5.091866619185479031e-02 -7.871924501725147127e-01 7.283749941957259333e-01 -2.558609976780087392e-01 6.356138904221572128e-01
1.014068982660638052e-01 -9.621550236854924110e-02 -8.744298936394561128e-01 -5.826233070002304615e-01 3.745568704712364666e-02 8.118787801438974716e-01
4.345143576371200689e-02 4.115881395684089367e-02 -8.063858827340583124e-01 -6.992701036940150994e-01 3.363226262849978165e-01 -6.307998201715999675e-01
-3.228847047204243259e-02 -3.151533039381199108e-02 -7.539142313044735477e-01 -6.986226429869030197e-01 3.132476411861923049e-01 -6.432746831620849148e-01
-5.742635165977543615e-02 1.713193784480001591e-01 -6.300976893697197712e-01 6.899553269480450668e-01 -6.760932837102594517e-01 2.585720760985122935e-01
1.881684122484537230e-02 2.070981063064990524e-01 -6.876113208165599566e-01 7.527877200680435088e-01 -5.249541185239444685e-01 3.971571753846398489e-01
6.557948641296644336e-03 1.551604129601931725e-01 -7.078729116251052389e-01 -8.933645609653845243e-01 1.919143276345924853e-01 -4.062864162874362806e-01
-7.194452350244269490e-02 1.154620462832738927e-02 -6.950581776241157028e-01 -7.500503130021902720e-01 1.628593779781060125e-01 -6.410158741949381067e-01
-1.802082347913979560e-02 1.642879003468632748e-01 -6.692251879351572841e-01 -3.928996537677334477e-01 5.279990646045203961e-01 -7.528923228762173236e-01
-5.528030390114409970e-02 -8.749792239037589014e-02 -7.095478197944208310e-01 9.696056903802606763e-01 2.240604855555176633e-01 9.829396723524719270e-02
7.336169531391009691e-02 1.544156599969469072e-02 -8.457494809569930938e-01 5.204958845415689206e-01 -3.190684680158432651e-01 7.920096886360120658e-01
4.252535561792843838e-02 -3.972339904672858579e-02 -8.439191676037606227e-01 -6.464192486383576464e-01 3.532271939579836317e-01 -6.762933567900767384e-01
1.749960598148376373e-02 -1.545793098214666983e-01 -8.745763451761440210e-01 -5.841817062027940821e-01 3.915528648234892217e-01 -7.109276251395149071e-01
-3.045619199195075816e-02 -1.217502227900109923e-01 -7.906856294812893982e-01 -8.893665346781151060e-01 8.911949810295882735e-02 -4.484248900903224921e-01
-4.079644722866401785e-02 -8.443106017079546333e-02 -7.511578514327021949e-01 -8.834691521204933728e-01 9.445273412674859426e-02 -4.588691951607542507e-01
-5.079608333028883677e-02 1.177989349800580149e-01 -6.816517586933462658e-01 4.222115712529423415e-01 -4.714851466931676005e-01 7.742345546072220142e-01
-5.674772203714073537e-02 1.728251088622044795e-01 -6.277022941615575391e-01 6.283300753761547064e-01 -7.378630311475038450e-01 2.464943480966931000e-01
-3.293191408153223892e-02 -9.348032715335186094e-02 -7.784386352793754016e-01 8.546463732361163634e-01 -3.031799265037983249e-01 4.214991208525876165e-01
-1.149367080679161018e-01 8.261871082683441836e-02 -6.367172236968869914e-01 8.506450332630342004e-01 -1.312628061364062015e-01 5.090904665284231578e-01
-7.408596294497631074e-03 2.037329886382724733e-02 -7.574049954014927533e-01 6.056951723899460793e-01 -3.978342037503826423e-01 6.891018099452448364e-01
6.234561421872830689e-02 -1.772528683046141751e-01 -8.891891253164890818e-01 1.355468342687734806e-01 3.308828863834200606e-01 -9.338862731715732446e-01
8.679571376915506953e-02 1.125285673493072042e-01 -8.091045590273799881e-01 -3.253911682439027397e-01 3.501805515162177973e-01 -8.783474079022864922e-01
-1.023706486735533883e-01 1.140942887670834960e-01 -6.365631088087915224e-01 7.471250065782079064e-01 -4.576836774889002646e-01 4.820060952993737713e-01
3.598374525688915462e-04 7.295734226721911631e-02 -7.383580321125929879e-01 7.282409252948716105e-01 -2.685675735874542003e-01 6.305050460884644714e-01
-1.176415609977531501e-01 9.122692640693892685e-02 -6.251548231958719004e-01 -8.729091326610869395e-01 1.702709850054935081e-01 -4.572061217679924683e-01
-1.983279858084665073e-02 -2.720159240122132453e-03 -7.549653022202376107e-01 -6.293901333684415178e-01 3.624145718031462349e-01 -6.874036209994804913e-01
-3.600653122423642244e-02 -1.519682646391076475e-01 -7.676640555391920362e-01 -9.771842599007983798e-01 -1.628327088198812111e-01 -1.363687322684664083e-01
7.163359611505318303e-02 1.286668280351872251e-01 -7.963626689105662848e-01 -3.492184865229679969e-01 3.251531726641394560e-01 -8.788184471078492876e-01
6.126580188028667162e-02 1.505526496842271855e-01 -7.790878955184737942e-01 -5.446659086718410592e-01 4.296099621587314288e-01 -7.202599033297987230e-01
-3.183737537886081187e-02 7.388703173656646639e-02 -7.096330721680417231e-01 -5.044607135765855066e-01 3.166599986150755441e-01 -8.032719550282471088e-01
6.797630536804355472e-02 4.644513990770341577e-02 -8.296130426077811260e-01 5.342093174403679257e-01 -2.946366529846172755e-01 7.923443997895854851e-01
-6.997647531676599864e-02 -4.340238980994824691e-02 -6.876510706878208312e-01 -9.466280446799333337e-01 -2.669599977989362549e-01 -1.806314053553203514e-01
-3.065721097022994224e-02 -1.515668432008706046e-01 -8.071003955275154462e-01 9.707972801068472934e-01 -6.364629010579292423e-02 2.313045410123128753e-01
6.597344672260202492e-02 1.562524337585163292e-01 -7.792212136915381837e-01 -5.555844888288848926e-01 4.545840007816741024e-01 -6.961890993157489049e-01
-2.226064534391227964e-02 2.862638438400873578e-02 -7.413807631124400555e-01 6.124862627346842059e-01 -3.070463443361264866e-01 7.284113675603367533e-01
1.731474199587359000e-02 1.610654823250929346e-01 -7.247636265203326600e-01 -8.188427752937565973e-01 2.491405234820370518e-01 -5.171320033688834306e-01
3.302234442000193115e-02 2.135774756145231990e-01 -7.047862468031494965e-01 6.904367398312462045e-01 -6.143775147492476219e-01 3.818866031451457754e-01
-7.876091200771120904e-02 8.939539337292386201e-02 -6.758949524710301526e-01 6.096127025343037742e-01 -3.126903920955332872e-01 7.284209439602654657e-01
-7.838621982918410336e-02 1.427122550809858947e-01 -6.360303237799808107e-01 -7.725789111346534899e-01 4.979697092257578395e-01 -3.938883023949905082e-01
-3.873999252779301850e-02 -1.366471466466396278e-01 -7.132550210555520520e-01 -8.798843503505007768e-02 5.089719127368756979e-01 -8.562742710983722860e-01
7.548147577596658886e-02 1.564524117695868244e-01 -7.870121258853227664e-01 3.519793772236330942e-01 -4.868823840834800021e-01 7.994098211045758129e-01
-1.148907769305497900e-01 6.504858377151297166e-02 -6.366280950638332214e-01 9.274871019277832751e-01 8.476812364665124722e-02 3.641181689658284371e-01
4.678683978258436384e-03 8.982138628004078182e-03 -7.756254268570133004e-01 7.756936201089184024e-01 -3.129562650856318462e-01 5.480490706733960327e-01
-8.305162365339122110e-02 1.331275067066430562e-01 -6.404631474999521457e-01 -7.354381209539579967e-01 5.389124268499185799e-01 -4.107361275009087098e-01
-3.714545501949646084e-02 -1.506299163622634718e-01 -7.265185257442593469e-01 8.988180347468270881e-01 4.123402497254781696e-01 -1.486662667526885417e-01
-1.003922175071238765e-01 4.269770795329834445e-02 -6.595383768596391194e-01 8.608786441342537454e-01 1.323963086717241944e-01 4.912831948313216013e-01
4.971199451914408603e-03 -1.161761943603042621e-02 -7.863646074686974075e-01 7.055905573565223188e-01 -2.879686696792397860e-01 6.474689263991600940e-01
1.570195748266312724e-02 -2.182756288285752147e-02 -8.015784554244059779e-01 -7.686452145224859089e-01 2.142805712743570679e-01 -6.027174885184742870e-01
-2.900130101201380938e-03 1.104835511187898453e-02 -7.618710015341220165e-01 -4.787073098131103821e-01 4.072399221936105485e-01 -7.778142177301961002e-01
-2.133324851104670059e-02 -2.135737014340818030e-01 -8.750259892037945963e-01 -6.419399271675307883e-01 4.908435163066145468e-01 -5.890549824998542183e-01
6.737359928485870710e-03 3.195661650987442065e-02 -7.622937975170335223e-01 -8.143009896348507581e-01 2.426349182614830347e-01 -5.272970649642817476e-01
-1.720015107739750540e-02 -3.866607893788039096e-02 -7.770662000698778105e-01 6.757792837919592843e-01 -3.830956725010871700e-01 6.297301527706660185e-01
-3.231066704816951823e-02 -2.664239093019305504e-01 -9.101175328205411974e-01 8.096016593897302771e-01 2.005341952382163617e-01 -5.516622061130850296e-01
-4.795025850004524387e-02 -1.056646773559921509e-01 -7.397004378419130832e-01 9.683215725140893460e-01 3.972358683167064725e-02 2.465266088134666911e-01
1.056741926377001081e-02 1.951366592563150495e-02 -7.732168826647547455e-01 -7.827662414927406553e-01 2.831260508216533189e-01 -5.541810629437485813e-01
-2.054996913392462959e-02 -2.964702948812666383e-01 -9.327279290763851316e-01 4.228966327054152763e-01 3.549099785186802802e-01 8.337849514079099800e-01
-9.270130959916836680e-03 1.132490774733391631e-01 -7.048903633745302599e-01 -3.982832536425744419e-01 4.500070927270268251e-01 -7.992897261714638768e-01
3.183455354339036203e-02 -1.148301293327675943e-01 -8.690977675871516261e-01 5.513990271432759327e-01 -3.053474287132050824e-01 7.763517634704535375e-01
-1.905942413759083992e-02 -1.247633180813062515e-01 -8.186383189588294362e-01 7.995547364661714784e-01 -2.662276134421303064e-01 5.383633357087186377e-01
-5.189322958886014719e-02 -6.193100282448468080e-02 -7.289273000619230780e-01 -9.082600810870706809e-01 -1.420209957022354197e-01 -3.935653209868132385e-01
8.110760957923380220e-04 -1.466031479099033684e-03 -7.695521951512938053e-01 -8.969860825290931761e-02 4.674977564745287362e-01 -8.794316388263349049e-01
1.110636532512272040e-01 4.776531506437477897e-02 -8.451503725956664992e-01 -1.367423526394253297e-01 4.392451745837443466e-01 -8.878993217699463480e-01
-3.197769940526359878e-02 -6.529446080920539575e-02 -7.719471758189316857e-01 8.439206210200197456e-01 -1.069739789776261718e-01 5.256943534401705698e-01
-3.381236940024380522e-02 1.463081892169999232e-01 -6.758029147128464809e-01 3.592108018853146234e-01 -4.670993510961051198e-01 8.079516049953157086e-01
-6.623348705623866017e-02 1.655340259008319936e-01 -6.164266427383567892e-01 6.956710967060357742e-01 -7.176423479846741893e-01 -3.211207851985396072e-02
9.557311294870153573e-02 1.623896920285737913e-03 -8.574247477193245315e-01 -1.786459265535337848e-01 2.758707058948258739e-01 -9.444474503935725851e-01
5.880330959287391468e-02 1.980527279339807933e-01 -7.488528473092606053e-01 5.387419978985815705e-01 -4.696573336510497243e-01 6.994133603585446224e-01
-4.269077891767934091e-02 -1.230840562918797121e-01 -7.606586644681974096e-01 9.738386405016813407e-01 -1.169930403903212540e-02 2.269392618099370096e-01
-4.058482434312211257e-02 -1.289208867164713668e-01 -7.689398356972387827e-01 9.845519857730781199e-01 7.249490958832087439e-02 1.593796580309723154e-01
7.793185073028027765e-02 -1.687315634217271751e-02 -8.603417420992448550e-01 3.614011793784100979e-01 -2.967489211545224492e-01 8.839283145920382445e-01
-4.896142713576313171e-02 -1.113143571057825382e-01 -7.053523473068531446e-01 9.093688665714997343e-01 3.812725268056825212e-01 -1.663716466639557634e-01
-8.256753071993826187e-03 -3.833069079710483412e-02 -7.824467337324186866e-01 -6.169985955744088368e-01 4.018190518568461322e-01 -6.766492315994102613e-01
-1.177765249300772796e-02 -4.558160834601830691e-03 -7.631384009480415287e-01 -6.120456425399911637e-01 3.514945751146876241e-01 -7.084149173420578594e-01
1.258957708532432856e-02 1.510847495840380306e-01 -7.251927260165196287e-01 8.401176890642123585e-01 -1.985464684855093309e-01 5.047589210438385710e-01
6.230090022782245468e-02 1.674152962147024137e-02 -8.366114261191786028e-01 6.157194595719778230e-01 -3.446985431482358919e-01 7.085707173288177119e-01
9.820739093441624434e-02 -4.270266554169938750e-02 -8.687474337195738583e-01 -1.837897877894100196e-01 -1.994063998625776046e-01 9.625270913580403764e-01
-6.054378037815372378e-03 1.789415020062039563e-01 -6.665617753348186403e-01 -8.151104351040256990e-01 3.203854938038582234e-01 -4.826469868802496510e-01
-4.092790716338810114e-02 -6.814810069392661374e-02 -7.566816962105266109e-01 9.024704491594675027e-01 6.985284788901145736e-02 4.250501947249331613e-01
-7.937522339717612008e-02 -3.059420784243721894e-02 -6.655227360980792151e-01 -9.293737615198620627e-01 -3.504936304020723759e-01 -1.158387950817775097e-01
-3.353296321994475582e-02 -1.134346331428641996e-01 -7.815057456981188144e-01 -8.868785981107032423e-01 1.138493249163483600e-01 -4.477551601369718637e-01
9.205972151602709319e-02 4.219586838677177182e-02 -8.420688013005106498e-01 -4.372274017130852175e-01 3.766413675947949957e-01 -8.166844429812207817e-01
-1.059765591735081364e-01 9.114735988707008130e-02 -6.464801332062578565e-01 7.564431030014013846e-01 -2.624141256119291721e-01 5.991098885855064005e-01
-1.079371625581339450e-01 6.102689875919162232e-02 -6.449057623886643720e-01 -8.676094229159184712e-01 -8.159245414910867855e-02 -4.905064328767080317e-01
5.787663276904274866e-03 6.466070372506199648e-02 -7.457216384013566346e-01 -7.994889921744431360e-01 2.561435232514898686e-01 -5.433303294389211224e-01
-1.139823522331494393e-01 1.149967847073247867e-01 -6.154674248033095152e-01 7.392696391411582857e-01 -5.840964847444503061e-01 3.351293737547900720e-01
5.366803306304474691e-02 -8.187266092362102676e-02 -8.685159416064645033e-01 4.837943205129633384e-01 -3.380269161062338101e-01 8.072675265530685484e-01
-1.156512648959558826e-02 -1.513580695094713605e-03 -7.617712272557414233e-01 -5.936558149825778008e-01 3.711159823585526429e-01 -7.140348037563837291e-01
1.625528263626196609e-02 -1.011682934142427853e-01 -8.438259920273043502e-01 -7.734588700263789196e-01 2.377147073910351183e-01 -5.875824148725961038e-01
6.296229469634953557e-02 6.915211211002943170e-02 -8.131879051144110804e-01 -6.324655463211212858e-01 3.489445904329285808e-01 -6.915381446632725693e-01
3.447601639286817371e-02 2.073683878442490192e-01 -7.158917531420448954e-01 6.329665121280424467e-01 -6.271893465665490108e-01 4.538578170285118007e-01
1.075225446843298127e-01 -7.486634451442059079e-02 -8.658588736910415307e-01 7.774152032601133744e-01 -1.014047549612931143e-01 -6.207597582086623600e-01
3.513431741488312610e-02 4.677488896392429513e-02 -7.928026468366949908e-01 -7.689841583591399132e-01 3.418942354130312111e-01 -5.401589543680861416e-01
1.480152462193182368e-02 -1.208707488974119643e-01 -8.563456042672272783e-01 6.793185195822200040e-01 -3.733950284124710195e-01 6.317455988841320647e-01
3.798301941694252198e-02 -5.442271331949809221e-02 -8.470118273944012843e-01 -6.302472783494846853e-01 3.479134666685657629e-01 -6.940782289077565004e-01
1.404773748785393718e-02 -4.170695060391256537e-02 -8.092693749549140225e-01 -7.831758874319161290e-01 3.439713200967121076e-01 -5.179954249760857499e-01
6.707512682665855985e-02 8.534056434001406621e-02 -8.120800007144663990e-01 5.938948555812249008e-01 -3.162435760772636106e-01 7.397830094723856220e-01
-3.777231694621767388e-02 1.330504553184554684e-01 -6.784090649776481907e-01 -4.557764812205760685e-01 4.151889329742435852e-01 -7.873283616775779148e-01
-4.670054806081971877e-02 -1.869426035090857377e-02 -7.341536705168024701e-01 -7.587652852327880781e-01 1.686406221689695228e-01 -6.291546570439325858e-01
9.791508007216445653e-02 -2.701888057886661296e-02 -8.635603536212126397e-01 -3.045958991749615416e-02 1.693959067690684883e-01 -9.850772762336683641e-01
-8.598116460753313373e-02 8.233394987941728208e-03 -6.796275616421654231e-01 8.579713237723527453e-01 3.316630840361517452e-02 5.126257929242272748e-01
-3.988626126049908682e-02 -1.074352290890177308e-01 -7.685560652167398032e-01 9.433999771337016060e-01 -1.174545512669933206e-01 3.101627178285624176e-01
1.180337946558381902e-02 4.034222755970960639e-02 -7.658117048989794284e-01 -7.805082896711297291e-01 2.371448003373757829e-01 -5.784195306415524929e-01
-7.216605264065827086e-02 3.167798673205054344e-02 -6.953912375825795911e-01 7.409246221077930850e-01 -2.015798819891569810e-02 6.712856023081354984e-01
8.960165892946611588e-03 1.588455263296822406e-01 -7.110193360114334116e-01 -8.604536535628465321e-01 2.157628255849858012e-01 -4.615906337502223011e-01
-7.267265926819636845e-02 1.296047093650789239e-01 -6.556807016023913359e-01 -6.174322492671396878e-01 4.415819626851156254e-01 -6.509860119818869917e-01
-1.165474482131784173e-02 -9.943986146473313137e-02 -8.107680163219892489e-01 -6.878444517886849185e-01 3.867648955206012817e-01 -6.142336084393804629e-01
2.036268190641952330e-02 1.841430071091405135e-02 -7.929108552755301798e-01 7.794961475970529907e-01 -3.169272459888575755e-01 5.403173850907180276e-01
-5.270992811958846724e-02 1.452094705193804625e-01 -6.631276928183272856e-01 -4.859421093925532786e-01 4.596763855691928802e-01 -7.433423752680580199e-01
8.755739726980471538e-02 1.316091891894764221e-01 -8.029751371788438341e-01 2.236733141070381126e-01 -3.673707474269824469e-01 9.027784791914983398e-01
5.258444773090896127e-03 1.782009512512422178e-01 -6.900300461643705807e-01 -8.591348743057243276e-01 3.583239061803187853e-01 -3.653645385246976907e-01
-4.923027695927117975e-02 1.343730132613835671e-01 -6.712899416393397489e-01 -4.776400008810006703e-01 3.963586301467346695e-01 -7.840662381882042009e-01
7.321394411926474000e-03 -5.846928121128629197e-02 -8.128534958404778354e-01 7.778338803040599769e-01 -2.872978596465223800e-01 5.589583119461204452e-01
7.025991841622668266e-02 1.306001565138161513e-01 -7.948914016161954255e-01 -4.520353383950954651e-01 3.607185348274019598e-01 -8.158101442578435947e-01
-4.590160902159372280e-02 -1.086117617556944248e-01 -6.988763350935149887e-01 -8.813917796670150961e-01 -4.162194952348454713e-01 2.234051533019371372e-01
9.171205553637404306e-02 9.624708887755650810e-02 -8.180656872104311583e-01 -3.071907239493947284e-01 4.070998498729117010e-01 -8.601764768655904003e-01
-1.756873813691637448e-02 -2.920133975448130359e-01 -9.349891913249541719e-01 -9.664766818436139051e-01 -6.313079414514478904e-02 2.488721082868895207e-01
-6.310267391919767432e-02 5.872387857010274125e-03 -7.070358484916509090e-01 -7.577582666080880935e-01 1.108681249586935258e-01 -6.430479517541821677e-01
9.424702639597271059e-02 -1.107122610111911376e-01 -8.790695376309402009e-01 -5.607360015012137211e-01 -2.298523462682346488e-02 8.276755497231875758e-01
3.327187946105188837e-02 1.878016418673838783e-01 -7.340268710421852250e-01 6.639267483900428424e-01 -4.253008779570540132e-01 6.150775853347152378e-01
-6.514587987747570696e-02 -5.864782847436714186e-02 -6.826061986618148225e-01 -9.450708611470869380e-01 -3.136514123433877810e-01 -9.199923339735788241e-02
-1.483559109156140296e-02 -1.802438929769747122e-01 -8.573981030866467679e-01 -6.193223206348158483e-01 4.865798632560973114e-01 -6.161817100800573987e-01
3.585753416667765425e-02 1.785568229078386415e-01 -7.390561739474964531e-01 -6.622353684968803611e-01 3.568776183110285993e-01 -6.588495141232548757e-01
-5.279136657537053523e-02 -1.652555499749200352e-02 -7.290844520653377847e-01 7.959471365584339653e-01 -1.088108575018284369e-01 5.955068035666316595e-01
3.540635569418242729e-02 2.209253147931662942e-01 -6.927435010179628927e-01 -6.635497414371389624e-01 6.139892815784085967e-01 -4.274563167687846499e-01
8.773811611419399248e-02 -5.326494756577029865e-02 -8.712704516393749987e-01 1.194897826405026536e-01 -2.929051039273389834e-01 9.486457673641094379e-01
7.302548826257511914e-03 4.070826697951188816e-02 -7.640645274014978838e-01 7.983285615985060701e-01 -1.799084285618338663e-01 5.747212063848623487e-01
-3.704007959233723141e-02 -1.629860453302613421e-01 -7.649389067644494222e-01 9.883320012662850651e-01 1.312071107596552433e-01 7.735986917700536647e-02
-3.930401858286334399e-02 -1.287760403423158229e-01 -7.661098946479686367e-01 -9.732913650505452541e-01 1.503446792161624570e-03 -2.295684176139859700e-01
5.373750755896632147e-02 8.300234646484820622e-02 -8.008132999894440607e-01 6.524192877906030974e-01 -2.302751151619499281e-01 7.220266229551045578e-01
8.161992103755544292e-02 1.967973489507300333e-01 -7.631535647463880689e-01 -3.752286867215183230e-01 4.636448094827474997e-01 -8.026437088154066979e-01
-3.284255042593003937e-02 1.652379662229259416e-01 -6.637272730013803468e-01 3.657318954829774649e-01 -5.483057146052086051e-01 7.520645078433764175e-01
1.212341587281550587e-02 8.551729687493589416e-02 -7.502994438378980391e-01 8.397076420106848182e-01 -2.205089034148169369e-01 4.962528583934306403e-01
2.275202124025863318e-02 1.607772418252283453e-01 -7.359435503457351091e-01 7.354074475547800471e-01 -2.200728962387568932e-01 6.408929757939689775e-01
1.681807100579376865e-02 2.006143943213424541e-01 -6.868831704130707871e-01 -7.748459998060983622e-01 5.044026434969175465e-01 -3.810402207350417902e-01
-8.614329538012614057e-03 -2.808823807746628487e-02 -7.767979994732394644e-01 -6.531472273336136336e-01 3.434688025187119798e-01 -6.748539702207988489e-01
-2.898643528368464659e-02 5.893116516439242392e-02 -7.190146779309538605e-01 -5.156715488078851273e-01 4.065384318419135168e-01 -7.541945088540453757e-01
-7.248159285516599104e-02 -4.075257817988762327e-02 -6.901599315170058313e-01 9.507606428236189400e-01 2.185358590528771461e-01 2.197641425839074736e-01
-3.007113839045838510e-02 4.916049715638295611e-03 -7.446747496113607090e-01 6.510309923118462461e-01 -3.375259586704296155e-01 6.798785731827856615e-01
9.398119744407690268e-02 1.246381926070217749e-01 -8.072811377407753675e-01 2.444754969200283942e-02 -4.579350370635852374e-01 8.886494354601424117e-01
-1.261193238639723123e-02 8.231301900602698562e-02 -7.217761796394515095e-01 5.226842349976457136e-01 -3.809624552343997550e-01 7.626721433136939288e-01
-8.600086509876947449e-02 3.665960756114505087e-02 -6.790278379048427793e-01 8.102538755333706932e-01 7.380985978122302227e-02 5.814127292915326484e-01
-1.140373092817880823e-01 1.047843539381786288e-01 -6.274467572051175557e-01 7.627849608507777379e-01 -4.005141738795940931e-01 5.076883887006117257e-01
-2.506808784369234100e-02 -1.770680681452479199e-01 -8.381206373391968389e-01 -8.348348593872501056e-01 4.232478903767279421e-01 -3.520113362429109216e-01
-1.644425928238526027e-02 5.663640958938911257e-02 -7.318610556288190905e-01 5.323633943163359472e-01 -3.825556830590998159e-01 7.551426128561247175e-01
-4.559297159930196519e-02 -7.261943436626309978e-02 -7.454503847339774003e-01 9.057438057028477374e-01 1.232027156201787738e-01 4.055234263205211853e-01
-5.927911471279596889e-02 4.325576610376631603e-02 -7.067440538086855462e-01 6.419899323011758474e-01 -2.094449669212443410e-01 7.375511729061858812e-01
-2.610136807770357253e-02 4.681559581601868469e-02 -7.299731895262046022e-01 5.269063659361392649e-01 -3.723320549289491077e-01 7.640278282944655830e-01
4.244768470467580324e-02 1.379943411012627408e-01 -7.669286991721612212e-01 -7.594910558496882347e-01 3.166997092474984621e-01 -5.682205823858157423e-01
-9.044370757547456549e-03 -2.397588905759309164e-01 -9.101269528629964967e-01 -6.858643753412937416e-01 5.445732319780457464e-01 -4.827318651701817398e-01
1.021516130881042379e-02 8.293047775594211690e-02 -7.442031459936376825e-01 -8.121209832972630105e-01 2.392962460138599035e-01 -5.321623954508256649e-01
-1.101338441862724365e-01 4.398185945986139711e-02 -6.386152306569599091e-01 9.625407458074435318e-01 2.224246072634912808e-01 1.550567855468830136e-01
-4.222299464157642547e-03 -2.222020372930302023e-01 -8.988619739572983880e-01 -5.889040661409173927e-01 4.680545857316578684e-01 -6.588754857014031963e-01
-5.575207306601106388e-02 5.374417147929530514e-02 -7.058365721993865582e-01 5.519036566772008712e-01 -2.962645447911826935e-01 7.795060443935041272e-01
4.655608683587989655e-02 6.169013505742160924e-02 -7.992376676627299670e-01 -7.167558422619508818e-01 3.132270113473503703e-01 -6.230167750115306324e-01
-5.869044804745952859e-02 5.241669268717290969e-02 -7.014246974484512620e-01 -6.319784120186601184e-01 2.470680596981733035e-01 -7.345479294228202116e-01
8.902425455900929430e-02 -3.427462167227228462e-02 -8.665255711935572203e-01 9.624158888748164664e-02 -1.780814137396703467e-01 9.792979968573881644e-01
-9.186162434905460750e-02 6.755962806863857750e-02 -6.700933096220705876e-01 7.593380343552299516e-01 -1.552526316416079633e-01 6.319037663678629402e-01
-6.700644305899078335e-02 1.305227762290811222e-01 -6.602720051440492677e-01 -5.797146284265370930e-01 3.539567951664678302e-01 -7.339247486927833464e-01
1.057603763720737777e-01 3.201484972465624274e-02 -8.506858212521042351e-01 -1.690001974041550892e-01 3.345035519866193519e-01 -9.271172023998323075e-01
-3.369174915316071328e-02 -8.744109109558956261e-02 -7.735894346637264274e-01 8.313942019436658670e-01 -1.678351432275282107e-01 5.297311069516781323e-01
4.851525966315570204e-02 -1.618994766544702701e-01 -8.894843070035353128e-01 -2.548663882319511798e-01 2.934024348261638493e-01 -9.213892420620499735e-01
-3.412734339476386491e-02 1.262352463224245824e-01 -6.835487224841189091e-01 -4.525130481712293928e-01 3.823801291121854407e-01 -8.056161481095889254e-01
-3.801606725574994960e-02 -1.370009729271979282e-01 -7.779427782045652551e-01 9.829871775470632178e-01 2.216395422710082039e-02 1.823320265643901261e-01
-3.539220339159591076e-03 -5.383319324348363050e-02 -7.944494526195085005e-01 -4.591284841440471109e-01 4.375958418151295048e-01 -7.731176587516920273e-01
-5.740764913434406001e-03 -2.193911535917119349e-01 -8.912151068776246188e-01 -7.825983839772540085e-01 8.474195922329183506e-02 6.167321701866932404e-01
5.207227214871822107e-02 2.025581644992718033e-01 -7.369477717543826412e-01 -5.863612244382078176e-01 5.457748151306158757e-01 -5.985903153614062777e-01
1.081044663792085220e-01 6.200412652113539147e-02 -8.378443027075648253e-01 -8.922674529166341184e-02 4.389220696710592340e-01 -8.940838912989822473e-01
5.850783093308845051e-02 -3.460503843416282838e-02 -8.546800858706364856e-01 -5.139116528965186337e-01 3.426775663755804446e-01 -7.864266644259194639e-01
-7.665014003236032825e-02 9.088861175618163923e-02 -6.742595119680929727e-01 -6.509964794345641792e-01 2.905388486131603165e-01 -7.012779486126324846e-01
1.847815647334189598e-02 -1.759182807170587837e-01 -8.850297538374927164e-01 -4.873165738902585087e-01 3.708556753951792184e-01 -7.905622207258867773e-01
-1.483092230453808558e-02 -1.230651530587500847e-01 -8.204019255322794191e-01 -8.085963028575851030e-01 2.579893031791892222e-01 -5.287849642814751450e-01
1.067551112455105561e-02 -1.366677491783109544e-01 -8.602289151840357695e-01 6.661345632610238265e-01 -3.632575135042051540e-01 6.513898391223087447e-01
8.335227504287642808e-02 1.196207361955942475e-02 -8.524361987235424820e-01 2.996337339089139018e-01 -3.219253655341527964e-01 8.981000414928751452e-01
2.534023425077865793e-02 -5.180885287489504949e-03 -8.063781270818526359e-01 -7.396558007496412124e-01 2.625505050166191956e-01 -6.196583968065996206e-01
6.635929196721891644e-04 1.937146291004958054e-01 -6.669094487587994280e-01 8.311832287422125098e-01 -4.698745628859871681e-01 2.972412074567949425e-01
-4.549486043342142183e-02 1.728282171985995874e-01 -6.420767805541763851e-01 -5.712259577810472333e-01 6.687096471450741930e-01 -4.759499059483419670e-01
-8.417186898323245070e-02 1.333136701621731035e-01 -6.382130485724009095e-01 -7.354381209539579967e-01 5.389124268499185799e-01 -4.107361275009087098e-01
-5.503715222420849096e-02 -5.998381697386220845e-02 -7.221811605652764809e-01 -9.076956755103012808e-01 -1.931814285312166424e-01 -3.725177798851167510e-01
8.135432633203487640e-02 1.601296708195420158e-03 -8.554773847645644747e-01 3.715295107156561527e-01 -3.412746604098947922e-01 8.634219297825924677e-01
-1.802952689191303706e-02 -4.651833729266459383e-02 -7.776111223240790293e-01 -6.638008326060246267e-01 3.690340107385752244e-01 -6.505246755886739951e-01
-1.898072900923317846e-02 6.366886884705345862e-02 -7.259867023677637476e-01 5.379905389663534043e-01 -4.224406348585197368e-01 7.294587651149467833e-01
-2.922381229596449081e-02 -1.552472796369022690e-01 -8.059578130115855332e-01 -9.576331359547503030e-01 9.623937392099680965e-02 -2.714346326995974445e-01
8.245751681022909022e-03 6.351901606719087545e-02 -7.544784607693083567e-01 8.071110691541811821e-01 -2.431946219055456382e-01 5.379852209169071475e-01
-2.334338955322061773e-02 -1.866497007072379088e-01 -8.549642719433305782e-01 7.875086445891794629e-01 -3.961098111238826047e-01 4.721516199577373007e-01
-1.068265647703725424e-01 7.536734604959298423e-02 -6.498406997516409378e-01 7.840022145633503969e-01 -6.945248306245681291e-02 6.168605029957917596e-01
4.187533034109101188e-02 -4.460655692045144977e-02 -8.484053793793708831e-01 5.909686557064622869e-01 -3.428912572540809278e-01 7.301928742950130058e-01
6.116425040486310905e-04 -2.034515347102537342e-01 -8.927647593930033709e-01 6.311176565285289142e-01 -4.194827406463209618e-01 6.524758492984924496e-01
1.232932353570165111e-02 9.062982006803136856e-03 -7.861828946257118922e-01 7.825293491694145231e-01 -2.839562179373202322e-01 5.540908625696921996e-01
-2.795360057321095298e-02 -5.425032077408573072e-02 -7.734698037419224237e-01 7.615946188745270629e-01 -2.882990868374175619e-01 5.803940670183275197e-01
-5.749366481950233393e-02 -6.819513058933168725e-02 -7.159749511114195109e-01 9.128248588116623097e-01 3.057686264110383578e-01 2.706590553411719613e-01
-1.750259115674839341e-02 -2.118246204124891174e-01 -8.764930193447183493e-01 -3.589089574582943198e-01 5.351047338487225913e-01 -7.647530869953308441e-01
-3.677262235900236043e-02 -1.342328662175473475e-01 -7.754909535382914498e-01 -9.642128991519148817e-01 2.028162132018999572e-02 -2.643523045968839691e-01
-3.498450172065984548e-02 -2.297134083483555814e-02 -7.486061118411497795e-01 -7.395133796719161046e-01 1.393428407445786998e-01 -6.585617161811422315e-01
4.019664038373551782e-03 1.740060297740093354e-01 -6.910060400722780605e-01 -8.737374838240733466e-01 3.037990203512189180e-01 -3.798538726858222692e-01
6.384326992439710857e-02 -8.140366612199895213e-02 -8.711532247005737695e-01 -3.871388630579807866e-01 2.874439404554280930e-01 -8.760704776475635169e-01
-1.020469084651026287e-01 9.751435388037713037e-02 -6.447135365519349737e-01 -7.394064028727213023e-01 2.983757054767274819e-01 -6.035313660217572762e-01
4.170291511260421601e-03 1.702491304581423004e-01 -6.992445362567762945e-01 8.755188729067934217e-01 -2.520598894870819118e-01 4.122287172138520694e-01
2.611316944073726123e-03 -8.142049829488712254e-02 -8.207799388237156935e-01 5.833533019629707495e-01 -3.420450284792636020e-01 7.366845482168867809e-01
1.690329571965789104e-02 1.234206679382005983e-01 -7.394963405831017633e-01 8.431074147960959664e-01 -2.422641504520411937e-01 4.800812103400784459e-01
-2.609184425806919741e-02 -2.234136119227824180e-01 -8.820133849826811145e-01 6.668588064915179636e-01 -4.905433551085259247e-01 5.609514675652242932e-01
-1.537915756998598296e-02 8.372066550818600683e-02 -7.191765757820185456e-01 5.226842349976457136e-01 -3.809624552343997550e-01 7.626721433136939288e-01
1.944601919771725765e-02 1.830503019769751660e-01 -7.149795719065863420e-01 -7.855062957561399495e-01 3.776873706958547294e-01 -4.902367890563900654e-01
-9.390710656021419855e-02 5.151200132130671211e-02 -6.695727600434562277e-01 7.960691759884781504e-01 1.474975466641924651e-02 6.050258769493299660e-01
7.107597815971002098e-02 -7.642369838569587626e-02 -8.745696412334488246e-01 3.202724200366176555e-01 -2.627239811010759207e-01 9.101657468386127325e-01
-8.864306130264049122e-02 1.157578334301131023e-01 -6.497275027954185767e-01 -6.938388701450749485e-01 4.139456026723335458e-01 -5.892679019801130291e-01
-5.422323056608398945e-02 1.756741213037948668e-01 -6.209857757551169311e-01 6.264417140109358462e-01 -7.735158716211042451e-01 9.614559426871530090e-02
-1.017103213502883741e-01 1.406829174600638700e-02 -6.456000430568507031e-01 9.482008088164292081e-01 2.727548633830403357e-01 1.628496566185158034e-01
1.091387637466988275e-01 7.431116133554524494e-02 -8.342916849833641457e-01 -2.316262137578162239e-02 -4.783721697140134732e-01 8.778516732421879354e-01
3.404031370389070527e-02 1.327694715105146028e-01 -7.622190444531510289e-01 7.573814265609941643e-01 -3.056207936081796195e-01 5.770349254722278998e-01
-1.241551600695049717e-02 1.842271236571277337e-01 -6.558943288008406425e-01 -5.085815040835842682e-01 5.952863345150016805e-01 -6.220763889135904057e-01
9.975732434785887504e-02 1.639499130631426604e-01 -7.852537746254593110e-01 1.322577414122636241e-01 4.237768456652243887e-01 -8.960586336365268245e-01
4.670166263927396505e-02 3.058439782629822357e-02 -8.181567140899734802e-01 6.603840318823929190e-01 -3.046266873697880961e-01 6.863639790787857686e-01
-1.796259943510877463e-02 -2.054723297052815645e-02 -7.651018622325893581e-01 -6.681562703362377009e-01 2.602033701820016809e-01 -6.970375919247803198e-01
-7.378889589274516270e-02 7.796271844926805361e-02 -6.842348151154171720e-01 5.622964177979705713e-01 -3.041845066584696333e-01 7.689567767049805269e-01
-1.157997657557290755e-03 6.003725283597572543e-02 -7.437211381047239556e-01 5.958881171513664698e-01 -3.824547280332626364e-01 7.061485203856214810e-01
1.772834448242464195e-02 -5.103835187269410018e-02 -8.234251398519795151e-01 7.761065755328090399e-01 -2.849180923662584242e-01 5.625657864260039664e-01
-3.795197757621247142e-02 -1.555094288464771712e-01 -7.431534387034053335e-01 9.694983767976135258e-01 2.322727494786687163e-01 -7.824491827852050885e-02
-4.575019638240662018e-02 -1.100184144333645753e-01 -6.949295779987798571e-01 7.323035896530529776e-01 5.407713567328900073e-01 -4.138813746939119520e-01
-3.929082350653556621e-04 -2.098752288486054052e-01 -8.933601184098869386e-01 -7.008570178795394678e-01 4.520380721598595830e-01 -5.517798671635243402e-01
-1.547865336402687655e-02 3.953915241767129440e-02 -7.385162460905766446e-01 -5.530151148584220300e-01 3.803984506757322470e-01 -7.412633145257012668e-01
3.591440126994601550e-02 3.142273115796562905e-02 -8.060621121230763242e-01 7.321192131253279056e-01 -3.293349632977844998e-01 5.962716995819923316e-01
1.584943013755103075e-02 2.889473398381723138e-02 -7.756693353004234792e-01 -7.693536992862763935e-01 3.065095949165135836e-01 -5.604879602798229499e-01
-2.704137242213089029e-02 1.366038732005972201e-01 -6.822018669944842628e-01 -3.892131345301893530e-01 4.664775772362035888e-01 -7.942995693345342723e-01
8.237576372444363471e-02 5.342899004235411586e-02 -8.331616383409021775e-01 -3.639788434587497568e-01 3.185136687789988374e-01 -8.752533600708845007e-01
-3.055220620477742954e-02 -2.743127049954640073e-01 -9.113166633664282479e-01 6.036436380017644598e-01 2.057518424817051383e-01 -7.702470627112955048e-01
1.470278631274135432e-02 1.969102142692439050e-01 -6.876576816518128465e-01 -7.686059030821168481e-01 5.240550695057187847e-01 -3.668940581048973359e-01
6.631638949507161207e-02 2.088527022276119860e-01 -7.479277929655492319e-01 5.912968585319871018e-01 -4.669045876660699590e-01 6.575470561918594914e-01
1.241499800628312507e-02 9.174043871114428983e-02 -7.478353461650868450e-01 8.378815403986152877e-01 -2.414062486569543142e-01 4.895687361021131556e-01
-1.953100926092739970e-02 -2.445174957656964521e-01 -9.058638985799186694e-01 5.883334147742882436e-01 -5.154413282727186019e-01 6.230441638989012709e-01
7.641339872402517011e-03 1.750989576734736652e-01 -6.983211799286450638e-01 -8.682808063161628898e-01 3.028025402833937618e-01 -3.929364617605213272e-01
5.395597792218782135e-02 -1.175675965005052170e-01 -8.810763048518380769e-01 2.761614622308099509e-01 -2.246151585840109599e-01 9.344960552687315847e-01
-1.465696725587036300e-02 -4.927099991794917089e-02 -7.825335670926322207e-01 -6.681341522328503313e-01 3.269186259324100008e-01 -6.683718775042494231e-01
5.632314752640376482e-02 5.123064142651188868e-02 -8.180569798874660625e-01 6.491030771385463138e-01 -3.267720340455079198e-01 6.869390315122819723e-01
-3.177488572136765582e-02 -1.715594485143356052e-01 -8.045165528841574654e-01 -9.616353612737823520e-01 2.036108728526993261e-01 -1.838478838714337760e-01
8.539880708165072110e-02 5.784876175752307753e-02 -8.328103870423555488e-01 -3.639788434587497568e-01 3.185136687789988374e-01 -8.752533600708845007e-01
8.495789225976957404e-02 1.608722152771714375e-01 -7.856749546390671135e-01 -2.838169574055329214e-01 4.669824029357984019e-01 -8.374815639984999338e-01
-3.383449077574584435e-02 -1.720897468168997857e-01 -8.056805556301015470e-01 9.673787429059200749e-01 -1.887750460834563548e-01 1.689448127346638573e-01
-7.424423012913734798e-02 1.416908944614201499e-02 -6.918489784482392269e-01 -7.278935065150385908e-01 1.601561507282999175e-01 -6.667241187756264287e-01
1.672838466049372461e-02 -9.476957527935191486e-03 -7.976484439946569527e-01 -7.823232658876680956e-01 2.684995531968208948e-01 -5.620305130364015023e-01
-3.403534193323450030e-02 -1.703047854080431966e-01 -7.877907693088956886e-01 -9.990357582399648217e-01 3.110853946768459000e-02 -3.098084133922619776e-02
-2.038043065712009244e-02 -6.644247512821040147e-02 -7.844232286403970411e-01 -7.394588900685207244e-01 2.470345246592201005e-01 -6.262383679758246613e-01
-4.036587684275087101e-02 -1.280843424493542382e-01 -7.610340038145660957e-01 -9.821195794609081098e-01 -2.477748469565534475e-02 -1.866204916178439144e-01
-8.355175151271347633e-02 1.392152760272235834e-01 -6.372309641713715944e-01 7.379611919383000096e-01 -5.557157448193714711e-01 3.828750320311508082e-01
6.333213680342175689e-02 -1.103973345880511353e-01 -8.818851898969711778e-01 2.259402259482530262e-01 -2.355363105025250481e-01 9.452373568227773193e-01
-2.707930390463331866e-02 -2.270344233984508131e-01 -8.840924461069431528e-01 6.426884933379789500e-01 -5.180148582540784474e-01 5.644573563688985995e-01
7.808531426516952811e-02 5.194679737841732814e-02 -8.316034638755933628e-01 -4.818217755893680065e-01 3.189166206405059101e-01 -8.161739800110932030e-01
1.016405170663198937e-01 -1.053114730586534459e-01 -8.702020619298228565e-01 1.726481846886331328e-01 1.315873486605109444e-01 -9.761543802064388542e-01
6.437888102839756099e-02 1.185500748435436985e-01 -7.979791295736441414e-01 5.062458496835471333e-01 -2.243326796429918057e-01 8.327004194320896113e-01
4.299770184931107908e-02 1.978563432213233664e-01 -7.361029424944135480e-01 5.754076281452463748e-01 -5.314515471207125197e-01 6.216633450150194085e-01
2.169566260533339896e-02 -9.478787943165473129e-02 -8.476443140825004052e-01 -6.778548577703069622e-01 2.337283842189117333e-01 -6.970536810085816715e-01
-7.277734518274432685e-02 1.320863326896469514e-01 -6.538980572188956009e-01 -6.174322492671396878e-01 4.415819626851156254e-01 -6.509860119818869917e-01
9.365248550662827465e-02 -8.936579156428073323e-02 -8.777920288781683178e-01 -3.857267493420443172e-01 -1.115704944959277772e-01 9.158421805092586965e-01
2.548701790080945551e-02 -1.070329846560287151e-01 -8.596226096888317514e-01 6.776816478411369360e-01 -3.749694954633704391e-01 6.325705191132975358e-01
2.972768087523958852e-02 2.198668206087851795e-01 -6.905331907719999274e-01 6.726882945914948175e-01 -5.692640466746299310e-01 4.726826667894762912e-01
-2.368879482482996734e-02 -1.266250036782856359e-01 -8.072421707969412719e-01 -8.641608880346018928e-01 2.091580208375521388e-01 -4.576886298681300813e-01
7.048337591314041140e-02 -8.730037370508310357e-02 -8.772041302411401897e-01 1.990836249459205509e-01 -2.715454266301417507e-01 9.416096811071168471e-01
-3.992302111128280540e-02 -3.552588725201286102e-02 -7.470526022656981402e-01 -7.323371336171142776e-01 2.716071963490884755e-01 -6.244292222637058964e-01
6.111220970323620605e-03 -1.108533355904348511e-01 -8.316622727242810598e-01 -9.881673673451849549e-01 9.919695217118947028e-02 -1.169838398841182014e-01
6.292507222131514533e-02 -1.574436824487939479e-01 -8.897750676250240076e-01 8.017236314629515304e-02 1.570120057167535277e-01 -9.843371486682500615e-01
2.292380798668130007e-02 7.165825566927133683e-02 -7.721120502390541596e-01 7.946122922340085326e-01 -2.133516489680326589e-01 5.683945627055522198e-01
6.356853546302523384e-04 -1.431368429529238095e-01 -8.531843202625470912e-01 3.649421173342403679e-01 -4.401757634366553762e-01 8.204038933833500691e-01
-1.199345005235211668e-03 1.358814680988569557e-01 -7.014991759791225912e-01 -8.649374353679282201e-01 2.568147732006130779e-01 -4.311953213626846249e-01
6.641127843819956411e-02 -8.978046903524057598e-03 -8.487572041538590240e-01 -5.056429314916243145e-01 3.118012669189466068e-01 -8.044284901595022408e-01
-3.278204378286974502e-02 -1.927503707215265094e-01 -7.962708775180284970e-01 -9.737362705626665393e-01 -2.093869558379416185e-01 8.941352311384161144e-02
-3.529776241442122986e-02 -1.878565613298286419e-01 -8.154616414114148615e-01 9.871072308911645887e-01 -1.531688502583184452e-01 4.646093017710465484e-02
-3.232891562689341886e-02 -1.942587413219822590e-01 -8.322684765700167908e-01 -9.564957967904540448e-01 1.989665467810702859e-01 -2.133731566627124765e-01
-4.251137983281923216e-02 -1.095930687661982178e-01 -7.602669082149100532e-01 9.624240347330279555e-01 -5.605538613114693924e-02 2.657024107039438476e-01
2.970554658399739839e-02 -1.288115930532754139e-01 -8.731905432362800923e-01 4.902182455541311823e-01 -3.197119752541937032e-01 8.108454381723384508e-01
2.589249993951131187e-02 -5.176940934761760371e-02 -8.311487215016178931e-01 -7.631943249561513598e-01 2.806765310911009670e-01 -5.820267238275153021e-01
-4.464744850125260123e-02 -5.037288058580668276e-02 -7.438274694559943168e-01 -8.759436613369783187e-01 6.508253827886164439e-03 -4.823695106406298838e-01
6.648806893791929518e-02 1.788586366532761429e-01 -7.640348610874410085e-01 -5.368056388103407128e-01 4.922333332086341051e-01 -6.852343043220616714e-01
-6.395174484436769169e-02 -6.003698217180935409e-02 -6.903557608802372014e-01 -9.270602259230527054e-01 -3.474672795584582419e-01 -1.408042156604080719e-01
-1.040320800289500948e-02 8.193066446180853613e-02 -7.204041494718783634e-01 -4.520121024617745342e-01 4.221795508850831879e-01 -7.857795403562982672e-01
3.375318224249425347e-02 2.634551694814876374e-03 -8.156558127077637721e-01 6.966281154641978945e-01 -2.329777718921572649e-01 6.785503861534278869e-01
-4.444730000087588478e-02 -1.559885153207992044e-02 -7.388914083223084850e-01 7.221491445708733137e-01 -2.191663181001631822e-01 6.560996403031891244e-01
5.389455084392492934e-02 2.241963179322128269e-02 -8.251024507693511811e-01 -6.071730615027243205e-01 2.544776107028934309e-01 -7.527164267081961624e-01
7.640534548622307520e-02 -8.900771003468131715e-02 -8.767492172738001743e-01 -1.554806581345077598e-01 3.064389073046152046e-01 -9.391064694889572628e-01
3.928723218587963639e-02 -2.846242856839781288e-02 -8.380605373385566770e-01 6.830966311532845614e-01 -3.430821442347022909e-01 6.447275663521395694e-01
-4.151842876830318108e-02 -1.298938183788755918e-01 -7.529478268274052422e-01 -9.850082419866178496e-01 -9.639472133622135896e-02 -1.430622973286279354e-01
9.522515516955393222e-02 2.458301753451565264e-02 -8.528392828946623760e-01 2.774776755507336046e-01 -2.655985627384628289e-01 9.232895228703856816e-01
-4.057154641200347300e-02 1.548926340495464793e-01 -6.641167746102395464e-01 -4.482813296183735252e-01 5.286898019280391603e-01 -7.207849491026250277e-01
2.576734852873472856e-02 -2.145550223891376854e-02 -8.176326960760443852e-01 7.765610340856408111e-01 -3.467130965186033809e-01 5.260636739429191966e-01
-1.857596084883462659e-02 1.642835719228959157e-01 -6.717163058869840553e-01 3.930064379306222877e-01 -5.127716173906202712e-01 7.632897275240189128e-01
6.369586158716161739e-02 7.975049424554411792e-02 -8.086727098189097074e-01 -6.297557658756514076e-01 3.344396526462941055e-01 -7.011118270890871473e-01
-3.529311188891615103e-02 1.773536147839067101e-01 -6.458744429551889210e-01 -4.021827212612916203e-01 8.026233212458298016e-01 -4.405052359634054060e-01
8.408352075253994889e-04 -2.100503284806453166e-02 -7.877106357992067487e-01 5.339463911871408230e-01 -3.926710123646164341e-01 7.488062014879258710e-01
1.014931739251159759e-01 7.756214616541613760e-02 -8.295564921817040194e-01 -1.708570843456710953e-01 4.356049187372001419e-01 -8.837738463548540091e-01
-2.811826525136407878e-02 -1.359378232454173385e-01 -8.081698454185173297e-01 9.202369751719757796e-01 -1.814329200015230847e-01 3.467650574467575630e-01
-2.839043257327117029e-02 -1.865449343136937332e-01 -8.390946907832229629e-01 -9.090531626819582378e-01 2.927825009566685788e-01 -2.964806141242417592e-01
2.665308522837491617e-02 3.801867164785183856e-02 -7.899890615845124309e-01 7.775251057924570386e-01 -3.432907941677836861e-01 5.268834221173419596e-01
-9.643810738049321540e-02 5.119567019752182396e-02 -6.624823148891495483e-01 -8.316823361429421801e-01 -5.778115705035050814e-02 -5.522371136004361469e-01
-3.178736246315636699e-02 2.628989704560214316e-02 -7.311661146854792070e-01 -5.813322130086384654e-01 2.397554825876422879e-01 -7.775411028927318169e-01
9.576124677500826021e-02 -1.687001607705710185e-02 -8.638363102504386104e-01 7.073924581759534480e-02 -2.453611164232606667e-01 9.668473931540016997e-01
-7.054495658547636772e-02 6.934697106099245445e-02 -6.869010597980447219e-01 -6.130042544016096606e-01 2.691444870388502997e-01 -7.428236864708342990e-01
-3.220538541474435995e-02 1.329097797201152509e-01 -6.815420805552114825e-01 -4.452013060145771917e-01 3.748213674859758315e-01 -8.132064557041206454e-01
1.043094799756403290e-01 -5.608198310889313254e-02 -8.676538638663181535e-01 3.304226986597114668e-01 1.748029584360359934e-01 -9.275045907877992324e-01
-9.333596002871222264e-02 6.976490034545068664e-02 -6.677798347557390990e-01 7.593380343552299516e-01 -1.552526316416079633e-01 6.319037663678629402e-01
2.250064320365571802e-02 -9.118028761632918089e-02 -8.499834386097441241e-01 6.845946007590587579e-01 -2.098816629348919938e-01 6.980543819611972900e-01
-4.395805393437400566e-02 1.090253586773377859e-01 -6.904391714829567483e-01 4.269397460339640071e-01 -4.242350367519939214e-01 7.985906879299861094e-01
