-9.832349074830493574e-04 1.471861666018415005e-01 -6.950298998687240992e-01 6.378815211005196550e-01 -2.751555608797768837e-01 -7.193028446735232340e-01
7.643585961730173239e-02 1.881858381848625916e-01 -6.731470092432392249e-01 6.665804380988979982e-01 -7.141760561969519028e-01 -2.135955999051693532e-01
1.171852557324523994e-02 1.248052571403160949e-01 -6.784065033349069296e-01 5.741656918420018352e-01 -2.086572930699377715e-01 -7.917044223448049811e-01
-4.666772165885992030e-02 -2.054017836309481593e-01 -7.541368541901132261e-01 5.510823360977542551e-01 3.747689471403145567e-01 -7.455578415524726221e-01
7.843390993860860361e-03 -1.048167541985287471e-01 -6.436592321408218798e-01 7.752325387941262358e-01 1.280106832518244364e-01 -6.185691358031164544e-01
2.890925880097407891e-02 -1.516397731771047808e-01 -6.364822215022367669e-01 6.942253475520989703e-01 2.727224732717263844e-01 -6.660882969912621521e-01
1.346016322047820495e-03 4.961142452871605130e-02 -6.732035093207817678e-01 5.241120541465377203e-01 -7.589673513090218482e-02 -8.482607148128259444e-01
3.760960900660814676e-02 -7.283001721226421699e-02 -6.057868010778898471e-01 7.258327005907094787e-01 3.398652799336381643e-03 -6.878628787137353040e-01
-7.786534314978311999e-02 -1.587622076132847726e-01 -7.703083477617694852e-01 8.409620518787045418e-01 2.891051783745874904e-01 -4.573849835061891689e-01
-6.434762301991969746e-02 5.960598063128288299e-02 -7.266530749606442408e-01 6.772921460702499008e-01 -6.659893085807555568e-02 -7.326936135112114279e-01
-2.095184728958036230e-02 -2.145335172524856782e-01 -7.169187672567688407e-01 8.212468897960971681e-01 2.020585955487376739e-01 -5.335971045321634687e-01
5.426483043492558167e-02 -6.533126723142544667e-02 -5.880756957679208474e-01 7.209575639565347638e-01 2.563365864677341968e-02 -6.925049505369905711e-01
-3.129225159201784456e-02 -1.190682386543294030e-01 -7.045107652605884230e-01 8.777648883371007571e-01 5.604565565157899193e-02 -4.758021493069798380e-01
-4.388736574143696501e-02 -1.046114785827940291e-01 -7.152965645704988384e-01 6.772643551678944052e-01 1.601371620713739619e-01 -7.181010253040601699e-01
4.874592402097710671e-03 -1.166287834899740611e-01 -6.500833895112289040e-01 7.689245632820000953e-01 1.760713098224795381e-01 -6.146168805353312559e-01
-7.727622048383302189e-02 -1.254675329039433851e-01 -7.541449573733807199e-01 7.676457165125589732e-01 2.226693607708957190e-01 -6.009479259418410990e-01
-5.024739770817435863e-02 -1.709187025108295233e-01 -7.415325418053961837e-01 6.599130639084551664e-01 2.904872325803403710e-01 -6.929155185091255831e-01
-2.157502565384094087e-02 3.797087427852477437e-02 -6.881704903224533654e-01 6.009350128664997515e-01 -5.917134976456533968e-02 -7.971046742292879905e-01
-6.721338155628733824e-02 -1.400328272109127303e-01 -7.475258267691911040e-01 7.169952643035797379e-01 2.154945420852037719e-01 -6.629327969694425171e-01
2.029234081253507016e-01 2.543636330762422126e-01 -7.563007080891375189e-01 -1.190392413717019787e-01 -9.351925076415870119e-01 -3.335335555303092225e-01
-6.491662398417165358e-02 -1.422113909727484860e-01 -7.457499368032969311e-01 7.169952643035797379e-01 2.154945420852037719e-01 -6.629327969694425171e-01
1.590470122829997640e-02 -9.509213870632102217e-02 -6.321125637922055951e-01 7.380414197184059777e-01 1.103721045532752992e-01 -6.656672301657341473e-01
-3.421555776708173208e-02 1.636908051661653540e-02 -6.971349084843579957e-01 6.551821090160635519e-01 -8.129177215155084305e-03 -7.554272436860265394e-01
5.130932672596247301e-02 1.850882422312471187e-01 -6.789613414923423296e-01 3.544500617725589442e-01 -4.598201543762464594e-01 -8.142054896270559672e-01
-7.116887410327601970e-02 5.399382346464996763e-02 -7.325671106863750337e-01 6.878884703233921760e-01 -7.088199007623260939e-02 -7.223470051706288864e-01
4.016600027135517476e-02 1.298510372297591586e-01 -6.629434986044834277e-01 8.229533358655809483e-01 -3.813510068954079069e-01 -4.210928834919570596e-01
-7.622236523331014924e-02 -1.802189164459306048e-01 -7.826970642023184377e-01 8.717301495746200279e-01 3.030423878791357328e-01 -3.850348782527656666e-01
7.379750187073486067e-02 7.137765288884016790e-02 -6.029726234318788514e-01 7.196471969816166103e-01 -1.504580419713132111e-01 -6.778423780516089625e-01
-2.815979793387637931e-02 -1.185268477660936376e-01 -6.986906712688567556e-01 8.653517657393855478e-01 7.199532726930522875e-02 -4.959667270927686222e-01
-2.272809143216103847e-02 2.703463599714905213e-02 -6.881833819042851852e-01 6.162615614683788490e-01 -4.670399063933123457e-02 -7.861554713381551096e-01
-5.595274560023599103e-02 -1.883573727843045331e-01 -7.545503404519048329e-01 6.818769474783318296e-01 3.011623307156395812e-01 -6.665921384591599885e-01
1.544405753310455209e-01 2.377903544577493478e-01 -7.131110315362031438e-01 2.136941984774967940e-01 -9.471770314751530861e-01 -2.391452708772999480e-01
-6.600348296779531831e-02 2.910352970153156499e-02 -7.264794502201840087e-01 6.974800537572461989e-01 -1.728949963798809969e-02 -7.163955944958459998e-01
-2.080707529435518732e-02 -1.340467670695268294e-02 -6.855468090567798933e-01 6.147136556854788658e-01 1.324193706176860115e-02 -7.886391903885113797e-01
-1.771470066564494530e-02 3.568186968687178749e-03 -6.831786993956669995e-01 5.838664159457526148e-01 -9.075899822698059102e-03 -8.117990123011172843e-01
5.102538817476866967e-02 -2.384162647379830385e-02 -5.981171081404876855e-01 6.714116007016477372e-01 -2.178111591022582338e-01 -7.083535567876974026e-01
-3.373203338862119233e-02 -2.494435288676460916e-01 -7.790209342168025186e-01 7.812794826501324730e-01 5.898585686396110583e-01 -2.041304460201130433e-01
-7.061112897114886489e-02 4.331504121291114562e-02 -7.314606394234335340e-01 7.002975746734857454e-01 -3.671233907316304168e-02 -7.129063831010429286e-01
2.423581188367699910e-02 -1.174703104613640005e-02 -6.291937934584904690e-01 7.445150912202446181e-01 -1.760233630536622018e-01 -6.439821850056018926e-01
4.544284874762195142e-02 1.094551339366315046e-01 -6.453104286664559375e-01 7.333060842862322293e-01 -2.473888718177576218e-01 -6.332937176772955867e-01
2.331182336348036621e-02 -1.446047891411525455e-01 -6.394225255367136374e-01 6.919046044148512431e-01 2.726056715027692645e-01 -6.685463082345548536e-01
-2.759815289904389221e-02 -1.800899784333857001e-01 -7.148210651979761687e-01 8.238506526751466774e-01 1.922625340743794875e-01 -5.332027945144630632e-01
2.064652982589484931e-02 3.890966466151956488e-03 -6.381568794191512239e-01 7.399786399722505514e-01 -2.034955950342546283e-01 -6.411093160970857685e-01
-6.717947498799543837e-02 -9.119003176454754112e-02 -7.351654047081602750e-01 6.916468603546503946e-01 1.416168084436324748e-01 -7.082155746153808717e-01
-7.849625599761828054e-02 7.226418338913717654e-02 -7.413955389604877100e-01 6.911862689602952248e-01 -7.290446062778355163e-02 -7.189899034209855655e-01
-9.387743022965459871e-02 3.521014085679503164e-02 -7.541104844346336877e-01 7.054367925289808383e-01 -3.204640559919761517e-02 -7.080479924656202240e-01
-2.464208389968755488e-03 -2.025127207466796420e-01 -6.876917220850840007e-01 7.795013061881326255e-01 1.507504013885216931e-01 -6.079901562790261949e-01
-2.306666595125795097e-02 -2.418939186482727544e-01 -7.371872804584272965e-01 7.829863561511685166e-01 4.592466330572867461e-01 -4.195532101017238058e-01
1.616841261236258084e-02 -2.644611552919560321e-02 -6.348985832310054533e-01 7.729569349430069902e-01 -1.191909872396716558e-01 -6.231621661207813467e-01
-4.433738934501758877e-02 -2.277515903141091591e-01 -7.661629883509762928e-01 3.866550312078274598e-01 5.898847171154569802e-01 -7.088962599388510810e-01
1.051148227524098255e-01 2.206615761777659668e-01 -6.904381356858362295e-01 2.082981463407547473e-01 -7.326031510292974058e-01 -6.480003899172822601e-01
4.525583582656233172e-04 -1.909717582260425373e-01 -6.810413247188075170e-01 7.525270920643050143e-01 1.778479267626681681e-01 -6.340923360642843898e-01
1.829772639764119108e-02 2.003518060151687485e-01 -7.053677492302719010e-01 4.628823519961625110e-01 -4.663740373043570031e-01 -7.538137605131222108e-01
-1.100760484386099566e-02 -1.113266432053644332e-02 -6.772731082089723520e-01 9.007607862076513205e-01 -1.578950829505448572e-01 -4.045975145877867551e-01
4.378798424046454613e-02 2.090317912671078582e-01 -6.984742918343196383e-01 2.861650434436241452e-01 -5.985094429141438743e-01 -7.482619959970638890e-01
-1.403461605690247728e-02 7.458566439278595250e-02 -6.869263615358693897e-01 5.892797514896371824e-01 -1.380503104096183487e-01 -7.960474145929495871e-01
1.717375397538959195e-02 -1.133485754768599890e-01 -6.349663728867790402e-01 7.449290717814260887e-01 1.648168172984310065e-01 -6.464643027658052432e-01
-9.192237744891811058e-02 -6.486527609803824368e-02 -7.537497100893804092e-01 6.646750986231807490e-01 1.352579904656567300e-01 -7.347872408292465130e-01
7.900995009309633860e-03 2.236401966860451090e-02 -6.593638448485454884e-01 7.741328528828542721e-01 -1.964368934157837421e-01 -6.017731075684665809e-01
-7.649933810910779231e-02 -1.017158032253055872e-01 -7.464935068121797412e-01 7.029061285172163442e-01 1.518979121966992640e-01 -6.948740884240987015e-01
4.049308269256490095e-03 1.861803223254699102e-01 -7.069813680443154391e-01 5.293598782749823206e-01 -4.226398671934119000e-01 -7.356314715476977018e-01
-4.294074403765519438e-02 -5.329146365674644614e-02 -7.073000595644524102e-01 6.872825459191378439e-01 6.832541271283928963e-02 -7.231696481825879985e-01
-7.469297722389856009e-02 -1.659937555097150963e-01 -7.690585051185926391e-01 8.208335581419924365e-01 2.908467308192097533e-01 -4.915693735371786111e-01
7.207871646048307976e-03 -5.054491850298573757e-02 -6.422963703868659335e-01 7.900289691596261710e-01 -7.526875856655625141e-02 -6.084314602914839831e-01
-5.831078607693122168e-02 -5.135981988275704901e-02 -7.216609385857017944e-01 6.789569176407223017e-01 6.898271306058048613e-02 -7.309301534938962286e-01
-6.548365117800719615e-02 -4.027341330076077142e-02 -7.273677691582225435e-01 6.736696664596842909e-01 6.562914824216183052e-02 -7.361127599716675851e-01
-2.386863438564159473e-02 2.469144613423237405e-02 -6.889382408166065952e-01 6.162615614683788490e-01 -4.670399063933123457e-02 -7.861554713381551096e-01
3.562388367338285866e-04 -1.117486044028946496e-01 -6.543184697871472499e-01 7.586600604729838437e-01 1.730694689540555886e-01 -6.280779183820185407e-01
1.597133620906253937e-01 2.443871398081555457e-01 -7.234728457227976861e-01 -6.356353745249604392e-02 -8.568014880655655530e-01 -5.117136765371408380e-01
1.068606709395155258e-01 2.091790803215322070e-01 -6.740065903150018745e-01 3.602488053852404559e-01 -7.809228146190763109e-01 -5.102747846267995380e-01
6.443844168745786229e-03 -1.721288300345214239e-01 -6.681833537304417980e-01 7.259884660995261640e-01 2.169009599589919457e-01 -6.526060991588453764e-01
-2.208522224575620516e-02 -9.345468151133728973e-02 -6.856089247906530515e-01 8.653663673466833739e-01 4.050408976937653303e-03 -5.011233824641637691e-01
4.867342260192828590e-02 -4.638289635825076918e-02 -5.954574138384870485e-01 7.174281091573057045e-01 -7.756850156668602947e-02 -6.923005386070937295e-01
1.158853386159118398e-01 2.316596995955541027e-01 -7.010978724009411245e-01 -2.619521441299140548e-03 -7.139029667722102124e-01 -7.002397390474599526e-01
-6.242121200055351232e-02 1.858898210198511175e-02 -7.227992089919839103e-01 6.881322205201830799e-01 -1.297129828837888937e-02 -7.254693601405066694e-01
-2.361333219384419493e-02 -1.817193912705474534e-01 -7.092516605958297804e-01 8.238506526751466774e-01 1.922625340743794875e-01 -5.332027945144630632e-01
1.122977345823648367e-02 -1.404386325337396652e-03 -6.477376606155926808e-01 7.701509935029779985e-01 -1.992763275220617025e-01 -6.059343136806957242e-01
-3.952016727262706690e-03 9.028724649899046162e-02 -6.823206346356344154e-01 5.943669862980045515e-01 -1.614267632683754061e-01 -7.878256696120810032e-01
3.625124399170086970e-02 6.335344688920234446e-02 -6.401645356216016935e-01 7.151128208186129376e-01 -2.018961652521660544e-01 -6.692171485828170008e-01
-2.595878580604418090e-02 -2.419780443894050947e-01 -7.425938862520475858e-01 7.391309542247731512e-01 5.559467227625645158e-01 -3.802744718704377247e-01
7.845994869533264027e-02 4.071579214280711748e-03 -5.826838549359026898e-01 6.378789190295884870e-01 -2.424952230007863807e-01 -7.309627565611277467e-01
7.030054318681440428e-02 -6.484023082125719636e-03 -5.862803775171986365e-01 6.363406040547924247e-01 -2.459493171389562360e-01 -7.311494847362358662e-01
6.982469106557792626e-02 -1.548242754463669338e-02 -5.835427993606121522e-01 6.391525167854176237e-01 -2.589142314817303170e-01 -7.241874626249005242e-01
1.577083926432559513e-01 2.388561107150183604e-01 -7.144397064260983310e-01 1.507250384092593820e-01 -9.369111690598942443e-01 -3.154035892112667105e-01
8.083744388721748886e-02 6.249502784749954437e-02 -5.938095471650423063e-01 7.072828102416043317e-01 -1.311002285554881963e-01 -6.946680908242707231e-01
-5.184397441514082550e-02 -1.875955579285699670e-01 -7.501842328898654655e-01 6.316771804036506177e-01 3.134094198022672195e-01 -7.090546349446563701e-01
-5.161453667460436621e-03 -1.533523235039191412e-01 -6.744895849207804828e-01 7.555316014382890133e-01 2.242916706525776294e-01 -6.155203048673292265e-01
2.325969167340459498e-02 8.043792634911563211e-02 -6.607196601454075058e-01 7.623771544811926981e-01 -2.360280378040726657e-01 -6.025544288240846091e-01
-7.356631742110758543e-02 -1.981924401893477017e-02 -7.335479877691577499e-01 6.773703033175445531e-01 3.074393352990947847e-02 -7.349995120641960034e-01
3.770504850572086591e-02 2.054621894722503950e-01 -6.985219028503419914e-01 3.597456982855382068e-01 -5.150753200008804100e-01 -7.779977167646709990e-01
-5.720550967917273355e-02 -1.253680074420810142e-01 -7.328104715828573923e-01 6.898091370854315674e-01 1.773465799934422493e-01 -7.019341457416654606e-01
-7.319637703997722462e-03 1.408470596705777844e-01 -6.986008606817888378e-01 6.718431818708435754e-01 -2.336439385193080920e-01 -7.028778336004390948e-01
2.022475390905630749e-02 -8.747566629855284270e-02 -6.261773316551371149e-01 7.484286835375441038e-01 8.607781408039688609e-02 -6.576055927236318377e-01
1.018954039313534621e-01 2.014385086397090241e-01 -6.661639879859646562e-01 3.982791053139376203e-01 -7.601742771333394044e-01 -5.133311043129318296e-01
8.027550203878350277e-02 1.714107875835197969e-01 -6.475142802313497148e-01 5.821783949090703070e-01 -5.715396595557612480e-01 -5.782825728447837932e-01
3.512889779191147744e-03 -1.318600179093473157e-01 -6.562680349891023557e-01 7.550750182841735603e-01 2.139078711633937424e-01 -6.197621635897918591e-01
9.611563923513446323e-03 1.406480453525799784e-02 -6.545138651124499107e-01 7.560941693638993932e-01 -2.014633787695242761e-01 -6.226829964505872228e-01
-3.222882229623483946e-02 -9.067508651679846710e-02 -7.024583753410311715e-01 5.919342087940130392e-01 1.694070393622862380e-01 -7.879816923469165069e-01
-2.549437026485432134e-02 -1.202201018368184160e-01 -6.944075235919302536e-01 8.566447108164541024e-01 8.881456818343566595e-02 -5.082044981191957689e-01
-1.911481260322069400e-02 2.601478831636276981e-02 -6.852903716886225016e-01 6.162615614683788490e-01 -4.670399063933123457e-02 -7.861554713381551096e-01
-1.842054777657546605e-02 -1.279528349812818211e-01 -6.848332532381701254e-01 8.184818983520983915e-01 1.323033779650413244e-01 -5.590914041987988803e-01
1.043053930057326051e-01 2.136352250247875728e-01 -6.824632920976864137e-01 4.073694133737577050e-01 -7.706571112861396733e-01 -4.900385473323737306e-01
-2.344513350958888839e-02 -2.389638159910338622e-01 -7.346862750551417243e-01 7.829863561511685166e-01 4.592466330572867461e-01 -4.195532101017238058e-01
1.177996002898894570e-02 1.911662492255540857e-01 -7.042829443520088883e-01 5.293598782749823206e-01 -4.226398671934119000e-01 -7.356314715476977018e-01
6.954857848819445687e-02 -4.062450029819760812e-03 -5.877494203485040813e-01 6.363406040547924247e-01 -2.459493171389562360e-01 -7.311494847362358662e-01
-1.452635917211574437e-02 1.735124959989404192e-01 -7.178575425213484795e-01 6.957848493209140006e-01 -2.502324745714826770e-01 -6.732511805599046273e-01
-1.132242442329036911e-02 -7.770703025222801263e-02 -6.674789261165269272e-01 8.489419539509386325e-01 -1.653929860377478800e-02 -5.282272337012334784e-01
3.821100844818970527e-02 1.986848867149234310e-01 -6.936341646234991387e-01 3.456032301009153151e-01 -5.195489573176261811e-01 -7.814264445832260764e-01
-6.854324700915336022e-02 -3.896045613322624696e-02 -7.300507665872605356e-01 6.736696664596842909e-01 6.562914824216183052e-02 -7.361127599716675851e-01
-1.378275422755916198e-02 3.934147729027658025e-02 -6.823823985572544659e-01 5.784938252022400196e-01 -6.068566400059426102e-02 -8.134261763600227901e-01
5.802486465265276755e-02 1.825360770187215709e-01 -6.747548110176727620e-01 3.380434198489906117e-01 -4.457823366535033083e-01 -8.288574995887662000e-01
-4.327335476327013458e-02 1.863669330095350449e-03 -7.049131814139180108e-01 6.739469096015993088e-01 9.611880378314788947e-03 -7.387172495576683762e-01
4.627465861090977739e-02 2.689780344454952357e-02 -6.189798902969004812e-01 6.817053491568640933e-01 -2.025371575798626811e-01 -7.030337948707642282e-01
3.741976379399445610e-03 5.294847730165788691e-02 -6.720699554781700558e-01 5.197283727162839151e-01 -8.844606328243487248e-02 -8.497409678740474037e-01
-3.512492961075288885e-04 -1.465942187031632760e-01 -6.661226017564306767e-01 7.555316014382890133e-01 2.242916706525776294e-01 -6.155203048673292265e-01
2.209632665989072139e-02 -3.474628186158475185e-02 -6.260746451899070752e-01 7.485073924103377019e-01 -1.113204532117531703e-01 -6.537158711579570403e-01
6.470477984947124728e-02 7.827966696772102606e-02 -6.141660750527505597e-01 7.212713580767703414e-01 -1.682492903807262519e-01 -6.719075861340405575e-01
-8.525694377658209200e-02 -4.620842766809277885e-02 -7.454001452667937677e-01 6.516915669692031621e-01 5.076943730507497976e-02 -7.567830374532389381e-01
-2.786388022513134818e-02 1.405221686464343811e-01 -7.205978918616675610e-01 7.194392168346724903e-01 -2.729802234940063577e-01 -6.386618908792630611e-01
5.797659503383660595e-02 7.782047031356359446e-02 -6.211539818931026691e-01 7.053165897930581130e-01 -1.803270464118874317e-01 -6.855732378783873093e-01
-1.701752202917525270e-02 -7.070588675372119214e-02 -6.770789958433016675e-01 8.651794820183207335e-01 -3.167022511011367836e-02 -5.004612479862798891e-01
-2.186415146612056756e-02 2.839855171770696435e-02 -6.875871732629544875e-01 6.162615614683788490e-01 -4.670399063933123457e-02 -7.861554713381551096e-01
5.921056510080537766e-02 9.039529482965352747e-02 -6.233765285437645742e-01 7.358224991754884758e-01 -1.889434619610876609e-01 -6.502811837115519689e-01
3.391772309284680348e-02 1.236930689259906763e-02 -6.266045488411788877e-01 7.061776716297948342e-01 -2.145146935729287663e-01 -6.747566541597304068e-01
-1.684170772674069630e-02 -1.208704725988497264e-01 -6.808291875845889907e-01 8.291165984486873475e-01 1.351531978856927718e-01 -5.424935753335229371e-01
-4.330667420042817045e-02 -1.275979111998092330e-01 -7.202779034815819381e-01 6.680042012886038272e-01 1.991379329048723612e-01 -7.170177618017203880e-01
4.195525464461349191e-02 1.967111906316636530e-02 -6.208029895896505224e-01 6.800247054057217966e-01 -2.243920733915764354e-01 -6.980075912458907350e-01
2.285706440574655079e-03 -1.339490740715739980e-01 -6.584841771141574096e-01 7.550750182841735603e-01 2.139078711633937424e-01 -6.197621635897918591e-01
-2.832647643728268810e-03 -1.812106180274554168e-01 -6.817008215910018709e-01 7.422214764767325335e-01 2.154616930170756284e-01 -6.345735092949549294e-01
1.717226683546265176e-01 2.446468921159606069e-01 -7.250447219853010106e-01 2.098489777869843032e-01 -9.487313030563623295e-01 -2.363732665144992195e-01
-8.724116540904622297e-02 -1.433177126621774933e-01 -7.758411923520949216e-01 8.181602910087069080e-01 3.301329027576247466e-01 -4.707717119086199387e-01
-3.816555838799241818e-02 -2.308221312812842041e-01 -7.603394790290641803e-01 9.399996933256996590e-01 2.612762865439988147e-01 -2.193975356228249907e-01
9.410863706216476832e-02 1.295995991662395319e-01 -6.007761806286657791e-01 6.435876140940629542e-01 -3.938142695749177191e-01 -6.562814213916813300e-01
6.363627168214736063e-02 6.463037918031898366e-02 -6.118719448577342179e-01 7.084907000924043352e-01 -1.717823872882670577e-01 -6.844937832443173109e-01
-5.257620327667174992e-02 -1.058692403649857394e-01 -7.238388993336284383e-01 6.789238197612463832e-01 1.454085321391686558e-01 -7.196657597398464778e-01
9.501990967364161433e-02 1.311736943474492711e-01 -6.008239030694709770e-01 6.609899313985334590e-01 -3.812763804031453763e-01 -6.463131070436664016e-01
-3.111605204364102997e-02 -1.826720490175963788e-02 -6.943058619871179671e-01 6.746582421571982735e-01 2.454848106500477634e-02 -7.377219180468750359e-01
7.975525634817415277e-02 1.867781695145743215e-01 -6.658022420216623827e-01 5.243447176638998952e-01 -6.953155900577281390e-01 -4.915270565092410004e-01
3.718941656015180286e-02 1.682562129136255802e-01 -6.767798124489957656e-01 4.105174097574602055e-01 -4.063420470672154394e-01 -8.163097433396532265e-01
-2.880713292767893632e-02 -1.852749852914402362e-01 -7.186590422393314137e-01 8.364912414214845660e-01 1.906518808890731720e-01 -5.137453292620791645e-01
-4.099660176528419075e-02 -2.679001363564218266e-02 -7.036151474300673669e-01 6.703358348845590564e-01 3.175094540816637140e-02 -7.413782745234098748e-01
1.629935440708437655e-01 2.412871362575633172e-01 -7.205261062979221309e-01 4.807838866738556316e-01 -8.468300370722393611e-01 2.274329409452615913e-01
-3.768482815859679202e-02 5.314053943366954524e-02 -7.023056755711124532e-01 6.277853195745173309e-01 -9.560993484467503190e-02 -7.724922866189136705e-01
3.938871512493539312e-02 6.255270874492205313e-02 -6.365692467024695045e-01 7.168190973214365602e-01 -1.974921897199934939e-01 -6.687056278474727833e-01
1.966807774835761455e-02 1.565923289841667509e-01 -6.822869621208148549e-01 5.317883921639844358e-01 -2.904930946543884951e-01 -7.954966171629902494e-01
7.094273489250145504e-02 1.097530350088892909e-01 -6.164526497685343109e-01 7.100117419430913568e-01 -2.576613311443930465e-01 -6.553578905726523685e-01
-4.049838247804121022e-02 1.197495292360714614e-01 -7.244663347693482969e-01 6.732379042248745060e-01 -3.314215131299085848e-01 -6.609920611849892103e-01
5.754620764908054652e-03 1.526950251056012620e-01 -6.911027312494154584e-01 6.321351421684585636e-01 -2.370826352247689395e-01 -7.376970828941521452e-01
4.280014535665881137e-02 4.759911106992738283e-02 -6.285808592708104214e-01 7.018289881293980903e-01 -1.969560812167812369e-01 -6.845760538413492302e-01
-4.950487217137827106e-02 6.771319569314375453e-02 -7.143104422805632847e-01 6.604898714930768078e-01 -1.185576057417055407e-01 -7.414156889194164490e-01
-5.480096871077180104e-02 -2.542166214593249290e-02 -7.164129047668928996e-01 6.839777325544285080e-01 4.223450192565215283e-02 -7.282792789972777348e-01
-1.726146416669408282e-02 -1.361668129032235497e-01 -6.851934279564261265e-01 8.209697866589866777e-01 1.627513581637445306e-01 -5.472847566020401233e-01
7.326370717494501417e-02 6.164551152223016195e-02 -6.013814516347845140e-01 7.145428293005544607e-01 -1.497082471580551133e-01 -6.833856786822660734e-01
-7.829922501643585275e-02 -6.442615819881100658e-02 -7.414534668933944195e-01 6.622278525049812847e-01 9.106033967508908589e-02 -7.437488056493927191e-01
4.249823547197925655e-02 1.521230984653607621e-01 -6.678497039190075535e-01 3.960739181848568213e-01 -3.165532825400851347e-01 -8.619277641698241954e-01
-4.164308389786192111e-02 1.181948346081101026e-01 -7.248606388748265461e-01 6.771073938729026409e-01 -3.239061335627850258e-01 -6.607650064910014498e-01
-3.061824705641143923e-03 4.795006785162328478e-02 -6.758016816315789432e-01 5.352697215727723057e-01 -7.559382001858604150e-02 -8.412918040385298779e-01
6.258137828533860691e-02 1.140066745737656519e-02 -5.989689292286312083e-01 6.436718218805983494e-01 -2.303501827278552072e-01 -7.298118792087141538e-01
-3.893829189304936350e-02 -1.430208679714090880e-01 -7.216991504339880237e-01 5.436169729276706386e-01 2.898237018287937450e-01 -7.877073115080313048e-01
-2.342729648321169311e-02 -5.292460877090479632e-02 -6.901992166355537250e-01 5.177671898721781796e-01 1.075026187394162447e-01 -8.487404338524444647e-01
-3.349533539595752479e-02 -5.596189464646854524e-03 -6.962896211984660466e-01 6.566517552515722667e-01 1.154560660727126271e-02 -7.541055438684293177e-01
-8.483188934090742095e-02 -1.402987156866639940e-01 -7.703505931825334052e-01 8.122923871435929755e-01 3.001138715558593351e-01 -5.001127291804478014e-01
4.407072476814823114e-02 -6.064322550644012794e-02 -5.989088201282263269e-01 7.258327005907094787e-01 3.398652799336381643e-03 -6.878628787137353040e-01
3.709213331092763022e-02 1.022009295126631578e-01 -6.522932454140661918e-01 7.397791158247430943e-01 -2.380693585300544535e-01 -6.293249083888620143e-01
1.470765401780935178e-01 2.433061366321371821e-01 -7.203505114082910943e-01 -2.971041939614630853e-02 -8.966232940766154513e-01 -4.417962873299230431e-01
8.627256418191486462e-03 4.504055712121698279e-02 -6.664110974436451285e-01 8.065849400293899629e-01 -2.218397505952751925e-01 -5.479122736110330072e-01
-1.273038394740626071e-02 -4.208089161286213825e-02 -6.729688557293027618e-01 8.486979169424774261e-01 -9.302532509212939338e-02 -5.206324372040251891e-01
-2.531307630532426273e-02 -7.200087311258072942e-02 -6.925089762843679164e-01 9.072506727984150920e-01 -6.718464647991993777e-02 -4.151896433970762024e-01
1.081412551079920410e-02 -6.520796413327084595e-02 -6.363048092946044232e-01 8.026235147084538335e-01 -2.573847342719743150e-02 -5.959303857185719311e-01
1.194827934847807020e-02 2.037496223535239376e-02 -6.537180970887951359e-01 7.560941693638993932e-01 -2.014633787695242761e-01 -6.226829964505872228e-01
-5.041065645551988383e-02 -1.684189095675642234e-01 -7.406400500983654211e-01 6.599130639084551664e-01 2.904872325803403710e-01 -6.929155185091255831e-01
-2.112393726018752232e-03 -1.662951816874950750e-01 -6.755104936287201767e-01 7.430277658336083002e-01 2.311966057147666620e-01 -6.280588099105745004e-01
-1.974183704154982080e-02 1.741493349719883468e-03 -6.847123589578884006e-01 6.165098297658050397e-01 -2.322097965423965127e-02 -7.870047114890961204e-01
6.378667373083654613e-02 4.916980676095181191e-02 -6.080241345461131486e-01 6.845146539777875461e-01 -1.799509653995317315e-01 -7.064399044090349244e-01
2.353194047541712613e-03 -1.273420027331512439e-01 -6.562031579326286224e-01 7.586600604729838437e-01 1.730694689540555886e-01 -6.280779183820185407e-01
-2.679058444439228609e-02 9.414221615271153865e-02 -7.010946205348052018e-01 6.512335933817212652e-01 -2.041167530539994002e-01 -7.309111833689667659e-01
-4.729284010218794132e-02 -1.804256989258925248e-01 -7.429301618478013625e-01 6.044088523910107202e-01 3.067665469422650726e-01 -7.352443300213205024e-01
1.219322012997481677e-02 -1.388158032178524737e-01 -6.489507485317207447e-01 7.242397331313348285e-01 2.431685261696110156e-01 -6.452486937874050144e-01
8.714661370163420684e-02 9.970986697625995598e-02 -5.955180289881709665e-01 7.165651891203816959e-01 -2.217234717402375432e-01 -6.613418418793169939e-01
-1.081863899856291659e-02 9.159850698223161169e-02 -6.877128286414144753e-01 5.856289201264242017e-01 -1.649083479774584582e-01 -7.936271194200106294e-01
1.185399546200367922e-02 5.774955162843058154e-02 -6.670497539746191862e-01 8.393275475612645975e-01 -2.526815250813135294e-01 -4.813328523873834919e-01
-1.518509055326578566e-02 -4.090637210993290640e-02 -6.773943583268238200e-01 8.666314248200662762e-01 -1.056352160149381658e-01 -4.876383646226156721e-01
1.001065330785121804e-01 1.552806501356087387e-01 -6.132995167516313018e-01 5.647748646994573685e-01 -5.504799548160403955e-01 -6.148179987194907214e-01
-3.373186040829598276e-02 7.666749634828057269e-02 -7.026136226384609440e-01 6.460510114936384163e-01 -1.612400693511288341e-01 -7.460695212804834275e-01
-4.412632774248988372e-03 4.119537894667484740e-02 -6.760541908327859506e-01 5.352697215727723057e-01 -7.559382001858604150e-02 -8.412918040385298779e-01
-4.140420665109937476e-02 -2.425362052685366698e-01 -7.823943721413676444e-01 4.427095224091615044e-01 7.706236501405763217e-01 -4.584184427052064303e-01
-3.800452577914503055e-02 -1.016151112084207053e-01 -7.093184370195894095e-01 6.343795678280044203e-01 1.450556287784847131e-01 -7.592900819067982532e-01
8.477527153730769760e-02 8.967690293047365924e-02 -5.954990311484170684e-01 7.298961180858394293e-01 -1.696433481030398260e-01 -6.621727805094476116e-01
-5.462443679819680570e-03 1.622213142279644027e-01 -7.045816264874509294e-01 6.731532108736972830e-01 -2.758786396169309318e-01 -6.861164120566881630e-01
1.685960548007766485e-02 5.024603318444409439e-02 -6.577608876906227975e-01 7.426343772257208986e-01 -2.051399273302751680e-01 -6.375043466341973053e-01
3.141641637436997508e-02 -1.104302633228865932e-01 -6.187128923087598098e-01 7.128498626787520553e-01 2.033951033629274596e-01 -6.711747203276269280e-01
6.111755326730012802e-03 -1.663676074627545021e-01 -6.663610141093736505e-01 7.084308783307505797e-01 2.511288181201104530e-01 -6.595907877897609906e-01
8.059227127220655595e-02 2.128744135493619849e-01 -6.894845794693179597e-01 1.936469921892771118e-01 -6.560041503352203041e-01 -7.294925614144475157e-01
-7.162363732696751251e-02 5.948802322685262101e-02 -7.335393112856698483e-01 6.878884703233921760e-01 -7.088199007623260939e-02 -7.223470051706288864e-01
-3.847457776246676620e-02 -1.758113165462874827e-01 -7.328014843360735053e-01 9.242890462822551667e-01 1.246631148075945661e-01 -3.607615094894515706e-01
-6.567301002268111088e-02 8.722111606560997710e-02 -7.332539059139838722e-01 6.354032433379019906e-01 -2.452003025994728413e-01 -7.322154942097318653e-01
-7.623159053914697891e-02 -2.489239783510615450e-02 -7.362164869067877593e-01 6.773703033175445531e-01 3.074393352990947847e-02 -7.349995120641960034e-01
6.148033190599719831e-03 2.625938614971829290e-04 -6.547448508500218756e-01 7.701509935029779985e-01 -1.992763275220617025e-01 -6.059343136806957242e-01
-2.703172196435764049e-02 1.003677250822965772e-01 -7.031777290732144081e-01 6.437457638159597151e-01 -2.219469283504660329e-01 -7.323461972078502136e-01
-8.097694628871825173e-02 -2.667069884421579065e-02 -7.404347619714856110e-01 6.558994597828996520e-01 1.766138207025751139e-02 -7.546416197373880808e-01
8.087816846332272769e-02 1.879941308569248737e-01 -6.663244591384327453e-01 5.243447176638998952e-01 -6.953155900577281390e-01 -4.915270565092410004e-01
-9.931065716379301744e-02 1.769425893043273480e-03 -7.568384363788525082e-01 6.533838912270610866e-01 -5.496808014389482910e-02 -7.550284768472500518e-01
1.550958680857408567e-01 2.411586255651844701e-01 -7.183328986459417420e-01 -1.984433610242241908e-01 -6.742750022723213998e-01 -7.113181101139420814e-01
1.632404429059862785e-02 -1.434743581924935452e-01 -6.463780317347791460e-01 7.027890324729644256e-01 2.605837164730095967e-01 -6.619544565488085786e-01
-2.480237460055604790e-02 -7.701971190146424118e-02 -6.907716123338815128e-01 8.885416993457534440e-01 -1.874996605278877321e-02 -4.584125732315597057e-01
-1.252425411546432242e-02 -5.677075863943340656e-02 -6.706621945411554986e-01 8.584136419043449928e-01 -6.734121077149833601e-02 -5.085186139408738315e-01
-5.973347148543665941e-02 -2.223715316856120228e-01 -7.808654840585513845e-01 8.404869219374833111e-01 3.985650372796502583e-01 -3.670526462380098720e-01
-6.603396383753874777e-02 -1.177248090424715121e-01 -7.397701683496321623e-01 7.000420719865245722e-01 1.767920682212203720e-01 -6.918711311095995242e-01
6.967899157343071526e-02 -1.088969740304922967e-02 -5.853134008392192333e-01 6.391525167854176237e-01 -2.589142314817303170e-01 -7.241874626249005242e-01
-4.835295072108938136e-02 -2.066825849575331386e-01 -7.561054527422813587e-01 6.091162103541952755e-01 3.686059642236699796e-01 -7.022158396265939517e-01
-4.511101738726911586e-02 1.284777333345878403e-01 -7.340390777074784490e-01 6.680889108196951254e-01 -3.615392414876009708e-01 -6.503434355049058091e-01
-4.241991044677211053e-02 -4.691627984673638063e-02 -7.062146299945123440e-01 6.832762660720622661e-01 4.915260798698599387e-02 -7.285036481382216600e-01
-2.876127776018142890e-04 2.486639843549082879e-02 -6.719313579174001072e-01 8.609090798589622562e-01 -2.311056797972359800e-01 -4.532391432586692082e-01
3.067011856543879270e-02 3.171546277837956201e-02 -6.363841958135678656e-01 7.149447252230144434e-01 -2.109804449037279706e-01 -6.665892976518698054e-01
1.058552955122968667e-02 -1.689065467489342942e-01 -6.625049940574685436e-01 7.259884660995261640e-01 2.169009599589919457e-01 -6.526060991588453764e-01
1.190614025452659125e-01 2.200259861668261707e-01 -6.833934745930938526e-01 3.037519694847700125e-01 -8.057762770922911599e-01 -5.083889576981492908e-01
-4.719695269983804203e-02 -8.103290227978550420e-02 -7.144347938554365118e-01 6.869839173294045587e-01 9.099793211027529249e-02 -7.209524767156288982e-01
5.012242872191689791e-02 1.679642552483642248e-01 -6.706968104029523703e-01 3.542280749079109725e-01 -3.737569299341098605e-01 -8.572212248149624347e-01
-4.218531692360229929e-02 5.514617611326500662e-02 -7.062113450801817960e-01 6.277853195745173309e-01 -9.560993484467503190e-02 -7.724922866189136705e-01
1.725807960673000907e-02 2.590855297451880382e-02 -6.492505406541523305e-01 7.396202441899419888e-01 -2.110825972246711535e-01 -6.390665313825297789e-01
7.630301146898479936e-02 6.896645026152008195e-02 -5.998073651171504928e-01 7.145428293005544607e-01 -1.497082471580551133e-01 -6.833856786822660734e-01
1.097789260353211095e-02 -1.273455745732419812e-02 -6.448761095678429145e-01 7.784793837161111396e-01 -1.629971899941684288e-01 -6.061367545224334297e-01
-3.945255310234032850e-03 -5.328700111750245966e-02 -6.576135340633914028e-01 8.234364248208506654e-01 -4.509159508380779224e-02 -5.656140047161609674e-01
3.276803801111041747e-02 -4.525907469573833136e-02 -6.124522697534042770e-01 7.278054241786283685e-01 -9.878817103405676536e-02 -6.786310940414628234e-01
4.655062668500387080e-02 1.145941932673367469e-01 -6.461290033844965253e-01 7.395321711022047051e-01 -2.661832138594569797e-01 -6.182545305651305778e-01
5.272429808682900509e-02 -5.977032864387214067e-02 -5.898952843970308724e-01 7.129799221596926362e-01 -6.377639828569281466e-02 -6.982780260174763498e-01
4.877136164915767819e-02 -7.602837285049042493e-02 -5.941908344743261905e-01 7.209575639565347638e-01 2.563365864677341968e-02 -6.925049505369905711e-01
-6.995165117989970982e-02 1.637761976580855844e-02 -7.299710684125982896e-01 6.946769638554197712e-01 -2.379284115483957379e-02 -7.189282416197020353e-01
-2.646064828947716080e-02 1.179009638959439416e-01 -7.091849705555099970e-01 6.778954817202396121e-01 -2.755481243603017938e-01 -6.815650717464941666e-01
-9.112604564641776927e-02 -1.354115639749051136e-01 -7.770485183561893772e-01 8.181602910087069080e-01 3.301329027576247466e-01 -4.707717119086199387e-01
-2.675373211227970172e-02 -2.066251958915401865e-01 -7.232820291752940500e-01 8.412678372981652331e-01 1.892803666167058585e-01 -5.064004035751878963e-01
-8.825361297841276265e-03 -1.945892652858043359e-01 -6.935173166839856407e-01 7.930942263642271062e-01 1.631714334420079349e-01 -5.868361197269713614e-01
8.485433831773613045e-02 1.112810340817956961e-01 -6.018594492420706876e-01 7.153637116045565847e-01 -2.328031464043400223e-01 -6.588303690204271312e-01
7.512034989547193564e-02 1.900973243156864334e-02 -5.899484716347823676e-01 6.559453318875847483e-01 -1.876157711498445124e-01 -7.311197193283296425e-01
-7.291245863592371243e-03 -1.209191165408873142e-01 -6.668522913214863790e-01 7.993952094006051556e-01 1.409794601534544445e-01 -5.840308990132311306e-01
-6.337409125506923875e-03 -1.121715758073842384e-01 -6.635357219914790328e-01 8.078815978610962567e-01 1.213008991328380498e-01 -5.767264652389094692e-01
-2.842754899526449969e-02 -8.832342301570378362e-02 -6.977067693541574300e-01 9.120221951900204793e-01 -4.128134712382041521e-02 -4.080580422690121001e-01
-3.759148493216125236e-02 -3.706090287940479872e-02 -7.010436258598152781e-01 6.800008966004199573e-01 4.792243760697524613e-02 -7.316435064950896905e-01
8.246335358798800863e-02 1.769476292140889917e-01 -6.514462358814484544e-01 5.406066217896086101e-01 -6.351822364096610940e-01 -5.516230660757837079e-01
9.989984447826902661e-03 -6.421480623830598533e-02 -6.374576912102304371e-01 8.026235147084538335e-01 -2.573847342719743150e-02 -5.959303857185719311e-01
2.057396759500249028e-02 1.160414349035978759e-01 -6.707108837620939790e-01 5.156689911828234996e-01 -1.560206898607611470e-01 -8.424624833592658790e-01
1.388119059857145093e-02 1.576187380703214791e-01 -6.866430891136077186e-01 5.554904013575550081e-01 -2.854826274855828960e-01 -7.809802067937127168e-01
-3.100561199392343897e-02 1.207804388947157082e-01 -7.150676343946987812e-01 6.804604789966647305e-01 -3.059258519739206927e-01 -6.658700395855489118e-01
4.287640358453836953e-02 -8.902118320844604193e-02 -6.020513569712352409e-01 7.145060665722421378e-01 8.345719149182290186e-02 -6.946337006075647968e-01
-9.143346542771557672e-02 1.340188014542085214e-02 -7.503700513343201095e-01 6.767090235023629496e-01 -5.845255650001165287e-02 -7.339265604603032456e-01
-2.800537026609081423e-02 -1.818468106133753204e-01 -7.160837354379241404e-01 8.238506526751466774e-01 1.922625340743794875e-01 -5.332027945144630632e-01
-9.845105075332754620e-04 4.964992619916654137e-02 -6.746469091312394806e-01 5.241120541465377203e-01 -7.589673513090218482e-02 -8.482607148128259444e-01
-8.003164989874983481e-02 -3.242460443995850983e-02 -7.398674907506652687e-01 6.653394856438750171e-01 5.913545008930922581e-02 -7.441951137879626588e-01
-3.734637767237902750e-02 4.718743290464847556e-02 -7.015061057954768975e-01 6.376198655754024003e-01 -6.540121517976907328e-02 -7.675699239004973862e-01
-2.016227370298012689e-02 -6.406692592087107063e-02 -6.831283933002336717e-01 8.835111897190103258e-01 -4.714849884384759993e-02 -4.660311112984523718e-01
-7.413241969738441906e-02 -1.408942561247122083e-01 -7.559452331054694607e-01 7.487298737906025181e-01 2.562935489614480700e-01 -6.113241307639132316e-01
-1.577717543755923976e-02 1.368366945575802962e-01 -7.057774130043457106e-01 7.081440221432024895e-01 -2.426303143837866549e-01 -6.630705652077101275e-01
-3.214434185592314475e-02 4.315179748080381905e-02 -6.968836175352591811e-01 6.289611501889305067e-01 -6.096487595279709293e-02 -7.750426797622680386e-01
6.006804583854230550e-02 1.525337023915004364e-01 -6.523085712833803784e-01 6.870241568845742997e-01 -4.409970954191764769e-01 -5.775113589262894642e-01
1.423796938615815195e-02 2.465284160734272992e-02 -6.523310897760299376e-01 7.396202441899419888e-01 -2.110825972246711535e-01 -6.390665313825297789e-01
-6.700641888739915231e-02 -2.029069742401120868e-01 -7.796644991701816574e-01 8.737588481831662923e-01 3.026742542185861251e-01 -3.807016824954274625e-01
4.207855969682126884e-02 1.548091545293511784e-01 -6.690328464557073751e-01 4.043733197789158296e-01 -3.167350932164726962e-01 -8.579983094249841180e-01
5.110216194378681270e-02 -1.193227375883580688e-02 -6.017063371286004436e-01 6.714116007016477372e-01 -2.178111591022582338e-01 -7.083535567876974026e-01
8.004139030429850699e-02 1.322488695181192886e-01 -6.164171648478820043e-01 6.509396373094394894e-01 -4.009069558744373096e-01 -6.446326095621810470e-01
-7.076913953932460755e-02 -1.885500301873737350e-01 -7.769004435373677575e-01 8.722098765597184888e-01 3.030594718172460178e-01 -3.839334418535748639e-01
8.338316979102106119e-02 1.753053964094282435e-01 -6.487050601115272874e-01 5.308448021359752911e-01 -6.349820429631150009e-01 -5.612500344406278208e-01
-5.703270131605810145e-02 -5.899265034923543288e-02 -7.211940935196093916e-01 6.789569176407223017e-01 6.898271306058048613e-02 -7.309301534938962286e-01
1.501924797495025610e-01 2.424755882849529143e-01 -7.190731543580867191e-01 -7.563018942498254960e-02 -8.413226240381264098e-01 -5.352161401986513800e-01
3.691535871427380211e-02 -7.859162821417625677e-02 -6.071205581510339400e-01 7.389732282803648244e-01 6.653169606411601933e-02 -6.704417210345190448e-01
-6.598365476478930403e-02 -1.873743045564438270e-01 -7.669492754522834188e-01 8.008440810924156716e-01 2.863432169569933294e-01 -5.259812923307869426e-01
4.028205051255346475e-02 -6.586259145598166720e-02 -6.029324163491291966e-01 7.258327005907094787e-01 3.398652799336381643e-03 -6.878628787137353040e-01
-6.812037222762130917e-02 -1.873038400197305775e-01 -7.707832264909606490e-01 8.400108042330040048e-01 2.933204621586869565e-01 -4.564481955828458837e-01
-9.042967514875102641e-02 -2.470398916972197777e-03 -7.486951727187767247e-01 6.610822563712451805e-01 -2.948396568341488458e-02 -7.497339168522939579e-01
1.524488023875124505e-02 -6.582688822335773515e-02 -6.309137258364425627e-01 7.719212776993561453e-01 -4.210718667479160932e-03 -6.357041850446610853e-01
-6.725744230035927973e-02 9.902167091378223651e-02 -7.390961229311499014e-01 6.403498478558159457e-01 -2.902074178155791828e-01 -7.111481751335984036e-01
3.062721960982269474e-03 1.616095499224700638e-01 -6.968176560035684863e-01 6.282669509842716549e-01 -3.200728290448304758e-01 -7.091079060398111089e-01
-3.877945981188064828e-02 -1.860234735440317588e-01 -7.371594059472748039e-01 9.376472491415585031e-01 1.287744412381637837e-01 -3.228541148275280714e-01
-7.121235449800414341e-02 -1.055688069354198677e-01 -7.419876689711643047e-01 7.029061285172163442e-01 1.518979121966992640e-01 -6.948740884240987015e-01
3.907293300893865257e-02 -4.739238598130047359e-02 -6.053588218627208306e-01 7.207214558547851979e-01 -8.881653944589022742e-02 -6.875116038231030569e-01
-2.702390794362361653e-02 -1.457811633286754671e-01 -7.027452155802933476e-01 8.345948765618601550e-01 1.612218503921905299e-01 -5.267436824232556436e-01
-1.508769043079047530e-02 3.970258609740087014e-02 -6.833913713926175193e-01 6.075078837358318662e-01 -7.435216550336377905e-02 -7.908261039468608145e-01
-8.165273827389010752e-02 -2.015356981452369467e-02 -7.408696042643337920e-01 6.558994597828996520e-01 1.766138207025751139e-02 -7.546416197373880808e-01
-4.889886290438553301e-02 -2.650915969765775884e-02 -7.109415524122051355e-01 6.846406002154202808e-01 4.799351405862998382e-02 -7.272990245730932557e-01
6.702003768229361502e-02 1.818094584940624370e-02 -5.970934840369819252e-01 6.593057998892939420e-01 -1.927526400208730006e-01 -7.267477430287088147e-01
6.998479995069929391e-03 3.232287921166847322e-02 -6.638779298698811449e-01 7.797412741903843036e-01 -2.176192951026937883e-01 -5.870650625978032222e-01
1.021239412391464901e-04 -1.372461271246031289e-01 -6.622824635110904357e-01 7.550750182841735603e-01 2.139078711633937424e-01 -6.197621635897918591e-01
9.105606054150978956e-02 5.646063871876279977e-02 -5.822263450719113997e-01 7.100151272678210113e-01 -1.135358111072984205e-01 -6.949734805350974431e-01
7.703468166917606941e-02 1.057050865420601643e-01 -6.083670496926250060e-01 7.067546690732697812e-01 -2.445496795982931848e-01 -6.638473408484101279e-01
-1.574024516468206999e-02 -2.116737028741617621e-01 -7.081078349384047899e-01 8.135509475890803088e-01 1.604343798955473743e-01 -5.589236669031294458e-01
2.124027535824143248e-02 1.497904820801477209e-02 -6.412167391200250810e-01 7.269657479637472441e-01 -2.049877668099132633e-01 -6.553631182373584885e-01
-2.583376227448420243e-02 -1.787837840631497921e-01 -7.116508615537627813e-01 8.232089702339678849e-01 1.804124905895032327e-01 -5.383106208924569591e-01
1.278288477277981783e-01 2.353450119971443599e-01 -7.059446251502732306e-01 -1.008568122371575060e-01 -7.292659941533322643e-01 -6.767562435596072845e-01
-7.839274971554173466e-02 -1.031387277138566400e-01 -7.487070220975177159e-01 6.861279191657984056e-01 1.548534587450677569e-01 -7.108086133804943918e-01
6.612253255466696289e-02 1.202923595759117226e-01 -6.258807732677266200e-01 7.212303933450481264e-01 -2.586647091098722151e-01 -6.425879612756935089e-01
5.827341959812393918e-02 1.133522259354906997e-01 -6.319247150275150160e-01 7.212035655958354274e-01 -2.272402497523156317e-01 -6.543907745868354775e-01
-3.048519743775800900e-02 -1.272561968498786278e-01 -7.041080047542281894e-01 8.586427327486049199e-01 1.088214119085007398e-01 -5.008897661244918753e-01
-4.440410565772320850e-02 -7.183742806650256219e-02 -7.106161322825256255e-01 6.904399682131637794e-01 8.622800487674134318e-02 -7.182321222757875878e-01
-7.962630231165603034e-02 -1.933170946372601839e-02 -7.390890856612843951e-01 6.558994597828996520e-01 1.766138207025751139e-02 -7.546416197373880808e-01
6.686605940796978842e-02 1.557428310280485062e-01 -6.470812626607530538e-01 6.340135291966494391e-01 -5.045813097509972422e-01 -5.860243566999392417e-01
-7.047456775619832803e-03 -1.834083427545687983e-02 -6.685946509182771891e-01 8.339004582958539080e-01 -1.217783956695727282e-01 -5.383122216726178300e-01
7.116919186868285452e-02 5.087807067360781976e-02 -6.011190594147982624e-01 6.992804064757484062e-01 -1.540517710331845702e-01 -6.980508326480608927e-01
5.897811059879400769e-02 7.400706170911265647e-02 -6.191205795134869794e-01 7.053165897930581130e-01 -1.803270464118874317e-01 -6.855732378783873093e-01
-3.686374620472220032e-02 -2.223275849900205048e-01 -7.496839342895266212e-01 8.927281280963944576e-01 2.408767099433641867e-01 -3.808082193340474597e-01
-1.343764113681245910e-02 -1.281695240840201588e-01 -6.774450406644115796e-01 8.291165984486873475e-01 1.351531978856927718e-01 -5.424935753335229371e-01
-2.872159938933819753e-02 -9.709242061004165480e-02 -6.980017699630718386e-01 9.089942325339938067e-01 -4.454315834956885239e-03 -4.167848897097614080e-01
-8.282058427611452278e-02 -1.525597001542413067e-01 -7.746439263159494715e-01 8.482282502653271106e-01 3.154321683586348568e-01 -4.254543249473333177e-01
-3.790200707028561211e-02 -2.360470634074897101e-01 -7.668750873031681126e-01 9.224683351910553109e-01 3.312081173499771825e-01 -1.983767969580282620e-01
5.626311395795065978e-02 1.210256406872114443e-01 -6.375221282477364637e-01 7.246580204283680215e-01 -2.747979180983639580e-01 -6.319468788099548151e-01
4.808318468772448256e-02 4.649660630474551637e-02 -6.228325731559209988e-01 7.054880293497042265e-01 -1.943822149103985042e-01 -6.815439787503067004e-01
-6.629797936823193794e-02 -2.061145705234419534e-01 -7.805970103236743451e-01 8.708020113477037416e-01 3.258442179468823974e-01 -3.681431822856134906e-01
1.083960452296901453e-02 9.850211013424187145e-02 -6.736716329818090987e-01 5.284236641154119729e-01 -1.408969789332950862e-01 -8.372075444776596598e-01
-8.584573775898417247e-02 -1.090861491948730416e-01 -7.585169969079980090e-01 7.470678137838694388e-01 2.072732641607946125e-01 -6.316070578867204466e-01
3.311381942453064942e-02 -3.334295958971408153e-02 -6.138460866380933689e-01 7.068424360252559824e-01 -1.721708724075907970e-01 -6.860983612633766437e-01
-2.940757468115654319e-02 1.480613595326593923e-01 -7.255700729090834855e-01 7.406954132836335303e-01 -2.512038799494459296e-01 -6.231106767171715743e-01
-3.560841541013686634e-02 -1.663607142338978384e-01 -7.235678384189039303e-01 8.863049597191958728e-01 1.375213003418975233e-01 -4.422119518165785745e-01
-6.272166246704871662e-02 -9.794275426790566286e-02 -7.321592711450563007e-01 6.949956481150980636e-01 1.372829404652152752e-01 -7.057864006612047936e-01
6.408327844393732486e-02 3.191536405837913648e-02 -6.034595562448189510e-01 6.695051600068011588e-01 -1.984670673890991666e-01 -7.158028107560338027e-01
