8.535211539029381733e-02 5.811146359949618395e-02 -7.475366501151631260e-01 1.050724754606292138e-01 -5.701587198747189861e-02 -9.928287693464989960e-01
-5.248471614916267597e-02 -1.695978530150079877e-01 -8.036947027950390732e-01 9.328279181102430706e-02 4.084563994897992822e-01 -9.079987282302605101e-01
5.193981298539497582e-02 -1.232229446118434657e-01 -7.715848462870577018e-01 1.148867913690959086e-01 3.605670093299502832e-01 -9.256308426968978820e-01
2.213328997654468236e-02 -2.194455583421619782e-01 -8.160060763986226595e-01 2.252642564421065141e-01 3.898575396597143139e-01 -8.928981540691295349e-01
4.853794126522165131e-02 -2.329873647240663509e-02 -7.498660318302096117e-01 2.143456553101986961e-01 5.835840638537292263e-02 -9.750129416852890696e-01
-4.991580048448157614e-02 -4.087734281876061887e-02 -7.684089843941278586e-01 3.644529668868334848e-02 1.563799820960465603e-01 -9.870243368574628251e-01
-6.646139375592298448e-02 -5.067651222766011987e-02 -7.707388356846716082e-01 3.396252148577402069e-02 1.743384071119553624e-01 -9.840999273142917447e-01
-6.236435584084289163e-02 -2.001108849767428144e-01 -8.226229925940456988e-01 3.084860182946958518e-01 5.264939264150497733e-01 -7.922376676002907958e-01
9.567296563780010310e-02 -3.394011423157643204e-02 -7.425875562204543590e-01 1.211580007165162509e-01 1.363917392064142586e-01 -9.832182017937960428e-01
-5.397511856913282668e-02 1.497590329499025319e-01 -7.673628387514724869e-01 1.149738442228563362e-01 -1.841272950526874619e-01 -9.761547799202742182e-01
-5.578349346411483334e-02 6.421837330616744777e-02 -7.595295243528905615e-01 1.451655821724035650e-02 -2.584669658828847930e-02 -9.995605123317939933e-01
-7.749520556698423490e-02 1.341012830216866680e-01 -7.694707277447544458e-01 1.913441776347989121e-01 -6.307339995800222143e-02 -9.794943347988288584e-01
-9.458935043985203239e-02 -1.961281954570114408e-02 -7.673749770813477200e-01 7.800147196242605829e-02 1.160326256636097647e-01 -9.901778628879276400e-01
-2.443455117228951479e-02 -1.080853764054475336e-01 -7.818909258417249264e-01 2.020944588209716911e-02 2.481851496361807130e-01 -9.685017861610814016e-01
1.116053675697439851e-01 2.848960738599274137e-02 -7.427271217311403051e-01 8.540609054117843935e-02 -1.135346345465948481e-01 -9.898563968863581808e-01
-1.143454222683445709e-01 2.388769147696148329e-02 -7.639441419349599638e-01 8.443947555032231544e-02 1.118199094238860186e-01 -9.901344771419792190e-01
3.543510287391054420e-02 3.384667395596153115e-03 -7.521564665575654063e-01 2.234018420817299178e-01 -1.600966497636631750e-02 -9.745949453910760507e-01
5.530279045428248413e-02 -2.013304895064551570e-01 -8.018021453810241228e-01 1.487885471013586369e-01 3.253185276851826568e-01 -9.338253711461322881e-01
-3.384752123555097997e-02 -1.365125743362292365e-01 -7.903030145111615834e-01 1.764959149111204606e-02 3.069813068390764843e-01 -9.515518741359135779e-01
4.313480617874942795e-03 2.186192813363191656e-01 -8.006356969740906493e-01 -2.176076783051043573e-01 -5.672349982705440219e-01 -7.942866957715445375e-01
6.960865907098780225e-02 3.311596595897871309e-02 -7.475540932809454642e-01 1.313728017452071017e-01 -7.670767025954382257e-02 -9.883608249444973959e-01
2.815408999880823770e-02 -1.733904813195763506e-02 -7.546340399951553257e-01 2.693656758608143909e-01 6.417981802526938340e-02 -9.608970203025348766e-01
-4.836544096792134116e-03 1.414892679938082320e-01 -7.669991565581707471e-01 -1.639466709253749876e-01 -1.419609344312669774e-01 -9.762010972068655423e-01
-1.012523664260326639e-01 -7.534495237864094475e-02 -7.750615568416092671e-01 -1.487944826234694623e-02 1.691030238650525486e-01 -9.854860574047223931e-01
4.461030848888208888e-02 -4.123628029849300825e-02 -7.523643638620931551e-01 2.229425185110162078e-01 1.066012660919151700e-01 -9.689854506170697546e-01
-8.583483469323237303e-02 4.775383863065091328e-02 -7.606552168562565885e-01 6.568588708588725400e-02 5.439998212459006693e-03 -9.978255211494585497e-01
7.763691698238046890e-02 4.971161233897879866e-02 -7.478707763627580052e-01 1.050724754606292138e-01 -5.701587198747189861e-02 -9.928287693464989960e-01
-1.089546012585922499e-02 -2.081307404858744325e-01 -8.216184507241394153e-01 -3.259850397967797853e-01 4.436232958278047422e-01 -8.348246074640875980e-01
-3.061091226988932670e-02 -1.840294784925647631e-01 -8.083470383651735203e-01 1.216453067956168969e-02 4.026044158005588347e-01 -9.152932363845135422e-01
7.373687168225390165e-02 1.786528170081764511e-01 -7.600270673508603414e-01 2.033142823186485093e-01 -3.178306301863169092e-01 -9.260923242963530200e-01
4.249569461001767925e-03 2.377517965337913042e-01 -8.161881879541140750e-01 -7.676952678967637056e-02 -6.843769612017859272e-01 -7.250755924265401831e-01
-2.115553077014336106e-02 1.679317317288302885e-02 -7.609146571857683394e-01 -3.000599416980650330e-02 6.439592558266349354e-02 -9.974732102077897844e-01
-7.661805057138909580e-02 1.529287966486895800e-01 -7.707557262980747614e-01 1.657676564131291275e-01 -9.406269268001768435e-02 -9.816686273550170316e-01
5.920465555009594982e-02 1.733662438302292219e-01 -7.612544547358026659e-01 2.005384401352744150e-01 -3.391064526073944152e-01 -9.191252079168210631e-01
-7.325769307613948234e-02 -4.288616401792678945e-02 -7.695932838918547736e-01 3.396252148577402069e-02 1.743384071119553624e-01 -9.840999273142917447e-01
-8.969330842576361817e-02 -7.942768254023567509e-02 -7.761032786167170183e-01 -1.377210294070535523e-02 2.132195213460245375e-01 -9.769072447768839540e-01
-5.094795784966169028e-02 3.814715819478054631e-02 -7.594763196655766047e-01 9.325597521165534046e-03 2.247689413874189371e-02 -9.997038673831110112e-01
1.060590513208271024e-01 3.183190220041762913e-02 -7.435646520743361965e-01 9.331139893289019938e-02 -1.029795497115886804e-01 -9.902970237107578955e-01
-8.929855620989224363e-02 -6.995772539508179899e-02 -7.743176292466831256e-01 -1.487944826234694623e-02 1.691030238650525486e-01 -9.854860574047223931e-01
9.319596659085471746e-02 -6.637267682493659671e-02 -7.488207765335421762e-01 8.283038833608689921e-02 2.049557369478235413e-01 -9.752601051310708646e-01
1.088689397361736026e-02 2.555616692269745416e-01 -8.381599819510079374e-01 -3.421072236766872776e-01 -7.413772312353350546e-01 -5.773408425826619395e-01
-7.155169238200836945e-02 1.478420457994421289e-01 -7.694592261975845560e-01 1.510881557439675837e-01 -9.770065832944771489e-02 -9.836803091227755980e-01
2.155032728237759806e-02 -1.814689545936077827e-02 -7.565623109438366356e-01 2.841471950201115981e-01 7.439390931995394640e-02 -9.558901180670803521e-01
6.162382219456916110e-02 1.238300101182977925e-01 -7.522083256551092001e-01 1.761530069781961916e-01 -3.366319139692548756e-02 -9.837870235358431303e-01
9.833019554318653266e-02 -9.720273668822743129e-02 -7.583250795357666663e-01 2.681824778366265552e-02 3.601433885378202415e-01 -9.325114054414084253e-01
5.788625414924391394e-02 1.432463817128184214e-01 -7.543783350470750770e-01 2.010711400170983876e-01 -1.661563715929110507e-01 -9.653820263664031343e-01
9.294538592803307936e-03 -6.172577010418426463e-02 -7.660273261929382294e-01 3.321585873761846441e-01 1.444552136056173053e-01 -9.320962204056042477e-01
6.212163395102912600e-02 3.050685302714748609e-02 -7.483378226529873167e-01 1.454621619845023472e-01 -7.398877919657760593e-02 -9.865933407355810258e-01
-4.534737197503451583e-02 1.924180774476811073e-01 -7.792057199645873178e-01 -3.397060159555900793e-02 -3.936270822254191448e-01 -9.186423234131655402e-01
-2.840932343944472301e-03 -1.146449511604187288e-01 -7.830196061142273845e-01 4.068720226525316952e-01 2.575376958808479610e-01 -8.764299700392619297e-01
1.037391505450553919e-01 -7.739144539416502322e-02 -7.513040870546350281e-01 4.481145400826300890e-02 2.887037553928318290e-01 -9.563692149017247734e-01
6.698998024702934595e-02 1.903834537819892869e-01 -7.667062461744159618e-01 2.098517928667659460e-01 -4.118982180765680678e-01 -8.867367608123348788e-01
-6.405420150640450672e-02 2.021326900293725359e-02 -7.608760327924327660e-01 4.716030655617579198e-02 9.562198441595717857e-02 -9.942999253655216974e-01
6.914561457046918165e-03 3.675755853693769143e-02 -7.597415438993739834e-01 2.705925514234724383e-01 -2.945039277184639814e-02 -9.622433920166557630e-01
-1.035317506008336663e-01 -5.469665503617961860e-02 -7.718172794137770909e-01 2.877898100030759632e-02 1.193582312224756303e-01 -9.924340697960877256e-01
6.196022500007743183e-02 1.854903729363875931e-01 -7.655999179737404958e-01 1.980885467080643614e-01 -4.186081903926535119e-01 -8.863002372781330074e-01
-8.052919716007811424e-02 1.200050396302465572e-01 -7.688985878113898664e-01 2.110784427029715471e-01 -1.051484765682733635e-01 -9.717971439047656812e-01
2.628824737067364178e-02 1.316600336665096627e-01 -7.602724726877292394e-01 2.340318041280827488e-01 -1.345693020416121044e-01 -9.628708208293510484e-01
-3.833413276116040547e-03 9.088852503687414042e-02 -7.625995748762074422e-01 -1.334426145380039064e-01 -3.987319209461617081e-02 -9.902541073772163083e-01
-3.363052405877619416e-02 1.820330964938052798e-01 -7.751809855671909499e-01 -3.362593894846317016e-02 -3.408498205899892497e-01 -9.395162031777878342e-01
4.073687380586876738e-02 -3.786225227288037704e-02 -7.529956690214364423e-01 2.628995942732850200e-01 1.025256995461041459e-01 -9.593603516216020477e-01
-7.534900541373744376e-02 7.466148189047562252e-04 -7.635938447814966112e-01 5.800749676089139023e-02 1.236195492277342017e-01 -9.906327964327988900e-01
2.039924694181984369e-02 -9.128853124499819449e-02 -7.686231571507070592e-01 2.861757470573213502e-01 2.263554176178149135e-01 -9.310567473098771973e-01
-1.370030543237311244e-02 1.028280813605200600e-01 -7.621869344507747890e-01 -8.974793836262638658e-02 -5.669057254895073367e-02 -9.943497807832664126e-01
-1.351189765183304341e-03 7.082500787725899694e-02 -7.624282003546565267e-01 -1.909861034895951881e-01 -2.225533001950395079e-02 -9.813404142088435478e-01
-9.441157073387217158e-02 -7.464635350568024630e-02 -7.750449681580974248e-01 -1.487944826234694623e-02 1.691030238650525486e-01 -9.854860574047223931e-01
1.582703312395881967e-02 -3.870829010684883470e-02 -7.603492976224971445e-01 3.131157045559970209e-01 1.099905236188512547e-01 -9.433242498072720306e-01
8.141131542416521483e-02 -1.303260508763896819e-01 -7.725836469415974239e-01 3.147966322601155470e-02 3.952933948789889573e-01 -9.180153390702252558e-01
1.992490726428233425e-02 5.908711450857013353e-02 -7.573928075799200021e-01 2.162259390050607077e-01 -3.918369226575540293e-02 -9.755567546595135253e-01
1.490789424148145949e-02 -9.613300087329337829e-02 -7.714887868933979487e-01 2.861757470573213502e-01 2.263554176178149135e-01 -9.310567473098771973e-01
-3.976880405665234042e-02 6.275330220765697187e-02 -7.594158391782365181e-01 -1.998942678340354800e-02 -1.221379766716466919e-02 -9.997255853300026640e-01
-9.234378296734032862e-03 -2.760002045434764920e-02 -7.656076950953353277e-01 -4.132398323958258457e-02 1.462001068645956414e-01 -9.883915505314659899e-01
-8.266118431620338158e-02 9.491239017040055403e-02 -7.657023304804542185e-01 1.815698436498863477e-01 -1.683512981331607705e-01 -9.688602749074994858e-01
-8.754643734068563721e-02 -6.752309310835823142e-02 -7.739103730436398543e-01 -6.693756910719348384e-03 1.700717627688679567e-01 -9.854089451223334573e-01
8.934837150592585264e-02 -6.786890707751483398e-02 -7.495134980227730059e-01 8.441745335809079653e-02 2.808978903435755958e-01 -9.560178182278105119e-01
-9.997395368460925899e-03 -2.108155832466639124e-01 -8.234867042665465764e-01 -5.084077678773019082e-01 4.116685597536928753e-01 -7.563402266654468686e-01
2.746743131132660387e-02 5.222987176619733884e-02 -7.556441343851520998e-01 1.927727796817958195e-01 -4.513267888014702023e-02 -9.802049258756332373e-01
-1.800271870881312367e-02 -4.758057230917458330e-02 -7.685977268729576872e-01 1.458386092469471894e-02 1.752439570219112008e-01 -9.844170186094061137e-01
6.439919055802942327e-02 -1.882568020780813756e-01 -7.962422133640203459e-01 9.613278428894532490e-02 3.210710016638200770e-01 -9.421634145282050676e-01
4.695238328261323868e-02 1.124708962478640772e-01 -7.546193143993115138e-01 1.738900299189180820e-01 -3.977143428585617341e-02 -9.839616306084519870e-01
6.971714892043368028e-02 1.538730097500119465e-01 -7.536351713599556135e-01 1.922317288197945839e-01 -1.460247567656889622e-01 -9.704245116682049810e-01
-2.840421975918696815e-02 6.755907868187925602e-02 -7.598087355990092995e-01 -5.095180663912056429e-02 -2.854191095655281979e-02 -9.982931797418820308e-01
-2.048867318571296822e-02 -1.859211048683114820e-01 -8.094213685953829396e-01 -3.194695297722214417e-02 4.062122411642589137e-01 -9.132201308139135110e-01
9.920811495467374286e-02 -3.775204905428165836e-02 -7.426807245492915710e-01 1.211580007165162509e-01 1.363917392064142586e-01 -9.832182017937960428e-01
-2.317383484514138128e-02 -1.670518588474249888e-01 -8.013223599012568865e-01 -1.792777884252583914e-02 3.758868116100745338e-01 -9.264921476210071782e-01
-2.855170780638409400e-02 -1.319903319902570871e-01 -7.887942436428170279e-01 8.694851783054889996e-03 3.127732679107807501e-01 -9.497880197353942844e-01
2.389741698135535233e-02 2.562849363342295517e-01 -8.392773615555758626e-01 3.061058471516825419e-01 -8.519491890985837479e-01 -4.248314836894937496e-01
1.950162342731178236e-02 2.449188374878647212e-01 -8.229592973568905512e-01 1.602632409248317680e-01 -7.626254037582249623e-01 -6.266723124176412085e-01
-1.163523891362596707e-01 -2.033842231111623877e-02 -7.687741153823849372e-01 5.786305680747634572e-02 7.620961260731226594e-02 -9.954114534217184396e-01
3.890218574763365522e-02 9.812086402943090424e-02 -7.554934339449395075e-01 1.868423463812957930e-01 -4.663357133666869853e-02 -9.812824504815724769e-01
-6.044630030295787548e-02 -1.793233490761864668e-01 -8.095845594053758809e-01 1.673474366660858137e-01 4.454091994693675227e-01 -8.795484525990298064e-01
-4.198706942943504494e-02 -8.183241713969380965e-03 -7.632203435655280366e-01 2.527198800631285172e-02 1.049637652525336334e-01 -9.941548846161847308e-01
-3.801549094131315143e-02 1.305891370430192211e-01 -7.639068412438736466e-01 3.566654619766419093e-02 -8.672708719088156881e-02 -9.955934460560270649e-01
4.511206730434862838e-02 -7.438749540922186265e-02 -7.578508157224800312e-01 2.112537671615270229e-01 2.055664211580784384e-01 -9.555701399438571997e-01
1.729871721416850402e-02 -8.022205923666625438e-02 -7.668527059717636929e-01 2.981076367023963170e-01 1.878757285924070042e-01 -9.358603248057822954e-01
-1.180576921311574240e-01 4.064097848118618239e-02 -7.631033297451949027e-01 7.812784451277547670e-02 -1.776854856757363599e-02 -9.967849911558608333e-01
6.132630731217776632e-02 2.107025524994985896e-02 -7.477473945678976275e-01 1.454621619845023472e-01 -7.398877919657760593e-02 -9.865933407355810258e-01
-5.401854875192318300e-02 1.846834118289060467e-01 -7.760263736149337621e-01 1.104382961765331544e-02 -2.881949796776330786e-01 -9.575080613321147460e-01
5.880497427123888843e-02 -2.073067562124639510e-02 -7.474189654138391203e-01 2.204373074180573100e-01 5.184603003893929751e-02 -9.740222701085832213e-01
3.351421947638884985e-02 -1.777644359070291724e-01 -7.962107702160412526e-01 1.502065842123271600e-01 3.762635153957313849e-01 -9.142558444118974448e-01
-3.612040310812302674e-02 -1.217872117902496082e-01 -7.859088735680327398e-01 2.148558591814609883e-02 2.723323309086607691e-01 -9.619633418897051147e-01
-1.101225610263437404e-01 -8.593949477855337971e-02 -7.772506422300438089e-01 -1.280296316884277363e-02 2.201300105995263878e-01 -9.753865195744453320e-01
-2.383412701593707120e-02 -2.279377553264208545e-01 -8.297416291834169844e-01 -4.858684199250804664e-02 5.076780474625431916e-01 -8.601757488500908488e-01
1.500297753296430704e-02 -1.924762417220029775e-01 -8.062512921769694474e-01 2.368817670606883918e-01 3.821122127685563363e-01 -8.932397692038366310e-01
-2.018336175898172852e-02 8.844684649928795037e-03 -7.614570488686357441e-01 -3.000599416980650330e-02 6.439592558266349354e-02 -9.974732102077897844e-01
1.342610070147073550e-02 -1.575691973049579697e-01 -7.923303475694645215e-01 2.361517584733183739e-01 3.523502110356955264e-01 -9.055836105810775027e-01
5.327929297790665042e-02 2.052279468135889684e-01 -7.786631455603940655e-01 2.049024833444233196e-01 -5.715982181643162185e-01 -7.945378841255257285e-01
-1.326403813979973659e-02 -1.558659292802151153e-01 -7.975995115021309312e-01 -1.180182461452108228e-01 3.537802793479113417e-01 -9.278530096525646753e-01
-9.356516258448902001e-02 -1.210636565258952774e-01 -7.875736742732005746e-01 5.127703806844973594e-02 3.332008421594481740e-01 -9.414604952684746397e-01
-2.007393213156499767e-02 -2.506788220974721093e-01 -8.510544924422456248e-01 -1.879360852380528857e-01 8.198335539810331918e-01 -5.408816613938984830e-01
1.591164416270263518e-02 -2.107164713796997324e-01 -8.139091323389905375e-01 2.453607800311856102e-01 4.053352924532422352e-01 -8.806255664664368599e-01
2.432534270047061534e-02 -4.822667241426069340e-02 -7.588944522170395501e-01 2.966351890047294049e-01 1.483918119772029698e-01 -9.433914536300669340e-01
-3.311161337948381050e-02 8.008977718901519327e-02 -7.601196222324514418e-01 -1.404096697603159256e-02 -5.800855259790051177e-02 -9.982173405986668469e-01
-3.427561121167774227e-02 -2.442830253974976329e-01 -8.433707716749412331e-01 2.139269265997198188e-01 7.743025235525937688e-01 -5.955592935180200609e-01
-8.791791521690251951e-03 6.960670912037089653e-02 -7.612323233631983488e-01 -1.300867001952177304e-01 -2.304504456513817995e-02 -9.912347735795542514e-01
3.358775255215718653e-02 1.992915573172657773e-01 -7.800506931303760050e-01 2.280093393602442842e-01 -4.977103958205181256e-01 -8.368369632471357455e-01
4.823736835667660067e-02 1.351397846316546858e-01 -7.556449163238073696e-01 2.057413731368287479e-01 -9.141279342187104417e-02 -9.743275571277774105e-01
3.398835760571720238e-02 -1.115242299471664866e-01 -7.706578781349660012e-01 2.300254319378183809e-01 2.950468974134947131e-01 -9.273810592137898823e-01
9.252648400796349704e-02 3.345689134947152366e-02 -7.449911267286628558e-01 8.698073974036581169e-02 -9.640068052382283481e-02 -9.915348000492782976e-01
1.398363169712056944e-02 9.051293080169257876e-02 -7.600967942113416864e-01 2.112722147556310714e-01 -4.743490519186815968e-02 -9.762755661398523355e-01
-1.147033059750332887e-02 -9.293364466037878913e-02 -7.780247868008028922e-01 -3.352409197399864454e-02 2.260736152081316008e-01 -9.735331816451068265e-01
-3.283613362995083107e-03 -1.036952126670363239e-01 -7.803565893872013159e-01 4.185581817471764610e-01 2.242476370173177858e-01 -8.800693414638683931e-01
1.224831752916007155e-02 6.549963434577313337e-02 -7.592866491362901815e-01 2.068207924754761895e-01 -4.122255268920493182e-02 -9.775100311247969520e-01
-3.065505305174654263e-02 -1.808723815985784633e-01 -8.069589321843033680e-01 1.216453067956168969e-02 4.026044158005588347e-01 -9.152932363845135422e-01
6.289346534626254204e-02 -1.271295071422629264e-01 -7.720623052248706264e-01 6.471840096151609822e-02 3.794860078312176643e-01 -9.229311450142472228e-01
8.652016638575940610e-02 8.701706245163079445e-02 -7.479138096301154448e-01 1.246552917060270993e-01 -4.190466448868728974e-03 -9.921912609172819364e-01
-8.125431219960675688e-02 -1.655368670155320798e-01 -8.063860265084140666e-01 1.536055420734056820e-01 4.685632801893412913e-01 -8.699734420673657098e-01
4.255721236870681212e-02 -1.977459389919991595e-02 -7.510528741693048849e-01 2.548416283309739572e-01 5.526337169972751068e-02 -9.654023535386658805e-01
-4.917534447951390705e-03 -6.841813810099060811e-02 -7.731556020146685970e-01 -1.764349502719098906e-01 2.030453184364842678e-01 -9.631424126179760625e-01
-7.974978521058568443e-03 2.458269262042304427e-03 -7.625317636632487073e-01 -5.690727627174517467e-02 8.121112871005148337e-02 -9.950710097681324529e-01
5.678230774519411536e-03 -8.804675836479267104e-02 -7.727749562827428420e-01 3.207478548445527600e-01 2.149985001287720021e-01 -9.224404905222863826e-01
8.992860584424416936e-02 -1.242356698312191698e-01 -7.697729420211998352e-01 1.487833663300099953e-02 4.022989074285156508e-01 -9.153874721563857175e-01
-2.383517039555333589e-02 -2.476153778827117347e-01 -8.457994799538924857e-01 -1.213636005615716246e-01 7.981578611480323326e-01 -5.900973692081076249e-01
8.563892681631210535e-02 -6.648245104725358789e-02 -7.494856775096179202e-01 8.283038833608689921e-02 2.049557369478235413e-01 -9.752601051310708646e-01
1.977365225751668686e-03 -1.866431374960397516e-01 -8.074485545027192401e-01 2.930706932727226155e-01 3.759409878602452681e-01 -8.790778932445681981e-01
-6.597451653890142173e-04 -9.006988234652550662e-02 -7.758252745894959057e-01 4.185530406780034185e-01 1.975893337586655529e-01 -8.864377063979195226e-01
-1.548834069113690266e-02 1.722763354874448372e-01 -7.729597000443499955e-01 -1.168747427862664168e-01 -3.342253641330059089e-01 -9.352185308626019822e-01
-7.576781093554833812e-02 4.198445487110265273e-02 -7.600944525009605268e-01 5.912893483741205741e-02 1.357879801024258933e-02 -9.981579961657321975e-01
6.510224465023620177e-02 -5.930067158136061861e-02 -7.507684662888614024e-01 1.595867239690347550e-01 1.782176121244694600e-01 -9.709637275724996019e-01
-3.318347202133907492e-02 1.577445220730036846e-01 -7.678875363749461114e-01 -1.744565666021164266e-02 -1.935215012710999050e-01 -9.809409144334197972e-01
1.194558743705684128e-01 3.939755122028951867e-02 -7.432590314266321885e-01 8.562518009433790767e-02 -1.097769572857901083e-01 -9.902612524899102597e-01
-5.422268451188843458e-02 1.786781998400620297e-01 -7.741313782841003910e-01 4.491624150326536946e-02 -3.330791764991520298e-01 -9.418284309957238865e-01
6.907679339934481855e-02 6.102119164224168585e-02 -7.495132567009316071e-01 1.241897518566722619e-01 -3.334132730197597594e-02 -9.916981705274646730e-01
-9.903204323954788169e-02 -7.079948284587352092e-02 -7.743151074592246053e-01 -1.487944826234694623e-02 1.691030238650525486e-01 -9.854860574047223931e-01
-9.851227605985472466e-03 -2.506131602284525622e-03 -7.628296241873933070e-01 -5.690727627174517467e-02 8.121112871005148337e-02 -9.950710097681324529e-01
1.781635610336720216e-02 3.567916217122269612e-02 -7.569499575075475661e-01 2.316094153644200626e-01 -2.842984147338220233e-02 -9.723933477910828849e-01
5.407832039703975441e-02 -2.843219034060861378e-02 -7.488986274922537767e-01 2.204373074180573100e-01 5.184603003893929751e-02 -9.740222701085832213e-01
-1.887318158381542932e-02 -1.273954175294660929e-01 -7.873638615917283312e-01 -1.464297851126177517e-02 2.778311652532516329e-01 -9.605183115351519918e-01
-8.797955138731949898e-02 7.924513076721093063e-02 -7.637318721632668783e-01 1.413962398950576460e-01 -1.833233268555501394e-01 -9.728307464169462238e-01
-9.628061580263261310e-02 -4.613563323954009143e-02 -7.705842424864792761e-01 1.699751624347308008e-03 1.396564429492277715e-01 -9.901985602833324185e-01
2.140589638418619392e-02 1.662857994411261753e-01 -7.684478899453907053e-01 2.747101402420363270e-01 -2.683110080419010557e-01 -9.233328445429305198e-01
-9.084661020612325166e-02 -1.198145314762296687e-01 -7.870573877254107842e-01 1.455237797778749856e-02 3.242251093820099350e-01 -9.458680176120849437e-01
2.346535116348300032e-02 -1.161571648198435197e-01 -7.747673361551957738e-01 2.301195793269353307e-01 3.244311116012797980e-01 -9.174908353959467799e-01
-4.260139121202665552e-02 2.025633529323812021e-01 -7.842709781047927375e-01 -4.240330255141979560e-02 -4.732487622855988674e-01 -8.799077047781098670e-01
-3.759052873925580740e-02 -2.435896855098527991e-01 -8.437936328163021527e-01 2.697904458421330753e-01 6.786908432931958446e-01 -6.830752920156561991e-01
-6.340361713885971258e-03 3.698652574302881829e-02 -7.612916689471732612e-01 -1.188782311167634331e-01 2.597994465730264855e-03 -9.929054419184666358e-01
-1.951142378244419967e-02 4.810073617158493187e-02 -7.600783000842763482e-01 -7.445940286733197799e-02 1.252491514071289551e-02 -9.971453875064348882e-01
-4.831875205937734979e-02 -6.267124312683843013e-03 -7.631594738374267717e-01 1.405325349617593360e-02 1.153764253415662522e-01 -9.932224255128223600e-01
1.382753314739877844e-02 -4.754017125015904018e-03 -7.581535089556573626e-01 2.932142553618846681e-01 3.253843952311459564e-02 -9.554928834931090131e-01
7.182227781422107372e-04 2.371396582426752997e-01 -8.152481635180465203e-01 -7.725104444556089855e-02 -6.916420617393195247e-01 -7.180971623429891482e-01
1.073009848358638246e-01 -7.476688455186086824e-02 -7.502503967225977455e-01 6.940229394732833068e-02 3.023903442717753021e-01 -9.506541964805319544e-01
2.374823945260339658e-02 -4.011895823807649225e-02 -7.580197716703506172e-01 2.953064388609804025e-01 1.115995859299354492e-01 -9.488622869455362041e-01
3.218092961439799476e-02 -2.529137789152692203e-02 -7.540943443673275848e-01 2.442625870105213648e-01 6.599808893452246972e-02 -9.674606146215555258e-01
-4.229129665519355125e-02 1.313735914661633974e-01 -7.641283540210551672e-01 3.566654619766419093e-02 -8.672708719088156881e-02 -9.955934460560270649e-01
2.228169090309674652e-02 5.558506624626833453e-02 -7.567829005737766179e-01 1.859180703034211402e-01 -3.886516213463451358e-02 -9.817962977659372426e-01
-7.290038048013137983e-02 -5.121766964940596689e-02 -7.709760397679505939e-01 1.686099987045025159e-02 1.600042571517164836e-01 -9.869723118592012012e-01
-1.338273514979911039e-02 -7.077958634508552116e-02 -7.729921141973056242e-01 -2.404028900837939381e-02 2.010091095526955751e-01 -9.792943389917179164e-01
-2.741602732162342834e-02 4.999917658335024245e-02 -7.596675698677449740e-01 -4.676607321219740376e-02 1.858009152184681920e-02 -9.987330547225075073e-01
1.182362664636620042e-02 2.276541470845960258e-01 -8.080133140635281652e-01 2.899273794714113950e-01 -6.249075138595955314e-01 -7.248673766660075346e-01
7.321846248047816919e-02 -9.330626003920053368e-02 -7.585570352580184306e-01 9.578901245172191659e-02 3.170920019664075218e-01 -9.435449789927663478e-01
-5.755425993054267414e-02 1.405104363532148626e-01 -7.666837178296576072e-01 1.537954274492798479e-01 -1.288549154240907491e-01 -9.796649311201987009e-01
-8.239383965552216083e-02 -1.673529914692793996e-01 -8.076727729095827257e-01 2.089141542383970707e-01 5.131307965498149715e-01 -8.324972443143627832e-01
-2.385232572564979781e-02 -2.168113805091537449e-01 -8.237374848916340087e-01 -2.199894467968699710e-02 4.347221302705465695e-01 -9.002959046258169895e-01
1.059666950469243252e-01 -3.045698250964563175e-02 -7.410246121473853531e-01 1.182879610327090686e-01 7.444818675886570591e-02 -9.901845412664456170e-01
3.606643697365246801e-03 1.043724959050187223e-02 -7.607687000952603196e-01 3.473141716376298427e-01 1.797682146723274602e-02 -9.375765035822956062e-01
7.665257674493902718e-02 1.381674921323925234e-02 -7.449765123008560419e-01 1.227395719058258783e-01 -6.225615071588192634e-02 -9.904843104191081160e-01
-9.324659635998161500e-02 5.157649929819375229e-02 -7.611949544369585041e-01 8.180846671087077526e-02 3.108844855061682413e-03 -9.966432209462338099e-01
-3.937722428104960259e-02 3.577879456240863620e-02 -7.596019090595648171e-01 -1.377855208522187763e-02 4.520920878363919593e-02 -9.988825150855290547e-01
-4.228556656831199828e-02 1.446334231516521740e-01 -7.656655733723979340e-01 1.024525605066776979e-01 -1.396206643226309829e-01 -9.848906248613258363e-01
-2.740067376844117220e-02 -2.046416470508430063e-01 -8.177272131226441809e-01 -2.824704280275672826e-03 4.255180839952069638e-01 -9.049455128563139716e-01
-1.708293151293311871e-02 2.272632935440268842e-01 -8.038763892448660409e-01 -1.118491000154953202e-01 -6.462182116652238628e-01 -7.549117840767383125e-01
8.359589301400014924e-03 -1.922098551617066609e-01 -8.079436582934339528e-01 2.607435420783273394e-01 3.753336178213907415e-01 -8.894590943925154702e-01
2.032686373952517084e-02 1.418821693643413685e-02 -7.559298394067009985e-01 2.281754677617596205e-01 7.541596765670379766e-04 -9.736197343700899731e-01
5.496559903641044798e-02 -3.678192171187174425e-02 -7.494908043810791787e-01 2.233879303235841440e-01 1.061406575696043908e-01 -9.689334308384850436e-01
5.789250821599981750e-02 8.112627601837277269e-02 -7.517276625756457165e-01 1.517861631851116500e-01 -2.916133228267257099e-02 -9.879830855662673494e-01
5.899740518706532433e-02 -8.762825809166029101e-02 -7.584457957968882003e-01 1.459628038230531000e-01 2.940132314437265970e-01 -9.445904295704729003e-01
-6.822856442926546194e-02 -1.648110088348952729e-01 -8.036685959907116095e-01 1.439146154694647683e-01 4.406282192124589825e-01 -8.860786397876506681e-01
2.145186020307109781e-02 7.496863860845058569e-02 -7.577501338582757207e-01 1.850803043030638806e-01 -4.215816289098091307e-02 -9.818187053935888420e-01
4.171045628594886173e-02 1.069005101996996082e-01 -7.553825778558730386e-01 2.038586546159344981e-01 -3.646791546430513953e-02 -9.783208778718101017e-01
5.842032358940168341e-02 -3.561452133430971501e-02 -7.485711852416887524e-01 1.701704445650224495e-01 1.119155977192983209e-01 -9.790387728704489367e-01
5.365661949915667001e-02 -7.827098341383129099e-02 -7.567564846998345862e-01 2.215428589651474711e-01 2.121161496071769237e-01 -9.518011876003173999e-01
-2.718765777551944429e-02 4.388660004453581731e-02 -7.597919796665900671e-01 -4.676607321219740376e-02 1.858009152184681920e-02 -9.987330547225075073e-01
2.964864343972622735e-03 1.222898826984583076e-01 -7.661672785365977179e-01 3.829798402399542945e-01 -1.182015582609581006e-01 -9.161631042529817526e-01
2.753586438262641684e-02 -1.966077493837134482e-01 -8.050594372750617955e-01 1.876587649381963596e-01 3.522821321372135994e-01 -9.168868454279019975e-01
-5.768596187680240933e-02 1.500768743367337198e-02 -7.611967218640265376e-01 2.151402000834665498e-02 9.704104114875009013e-02 -9.950478296422976543e-01
2.101134585847487177e-02 7.762638789565555475e-02 -7.579529458202572956e-01 1.847618922106969708e-01 -4.768906185818206495e-02 -9.816255887892334497e-01
2.817132377239834826e-02 2.906882406247084938e-01 -9.120960135452341744e-01 -1.450440236094840095e-02 -9.486224835467993444e-01 -3.160775316621770026e-01
6.231473777178669904e-02 6.179968310657103781e-02 -7.503862379918833092e-01 1.241897518566722619e-01 -3.334132730197597594e-02 -9.916981705274646730e-01
6.206047658779664106e-02 8.045585977014321766e-02 -7.511215371111026329e-01 1.316107611307030523e-01 -3.093054521010426411e-02 -9.908188073142346619e-01
9.403643269542469318e-02 4.407178539095023967e-02 -7.458906882523099746e-01 8.698073974036581169e-02 -9.640068052382283481e-02 -9.915348000492782976e-01
3.593377665373036906e-02 9.618481240186932402e-02 -7.559666305441564704e-01 1.868423463812957930e-01 -4.663357133666869853e-02 -9.812824504815724769e-01
2.299376525118821887e-02 2.652582405427506007e-01 -8.582108380147678295e-01 4.083357780778844592e-01 -8.258702736597309801e-01 -3.888446777657244557e-01
2.819763252027207567e-03 -1.692224444589750521e-01 -7.998580927665981388e-01 2.671413167364998231e-01 3.643461714734532175e-01 -8.921252065853346735e-01
-7.528978135408136152e-02 -1.320055051836557802e-01 -7.904896277123987236e-01 8.250091827115221821e-02 3.569905389241267990e-01 -9.304576044092915943e-01
8.733431206002810476e-02 8.304951049324982293e-02 -7.477947665942257238e-01 1.246552917060270993e-01 -4.190466448868728974e-03 -9.921912609172819364e-01
-4.752248911166318326e-03 -1.080792263470954639e-01 -7.822704137442298977e-01 4.842135333697795141e-01 2.122360247617208207e-01 -8.488186637291239567e-01
-6.030286514334205761e-02 2.868896182355827260e-02 -7.601217460930037584e-01 2.018552094452420037e-02 6.312912103030947353e-02 -9.978012120769038651e-01
-8.445763589824697992e-02 7.538642604305557937e-02 -7.627414268924759266e-01 1.047550235165336519e-01 -1.358011077169293812e-01 -9.851824420841580610e-01
5.633942293827709502e-02 -1.262021221493760392e-01 -7.722421078615876455e-01 1.051988766460981994e-01 3.693272098775671752e-01 -9.233258408581721532e-01
-8.267429766233316824e-02 -9.619357619426020800e-02 -7.799530667035903253e-01 -1.721105904226593675e-03 2.575368628625633316e-01 -9.662669414097615483e-01
-1.415142912414074292e-02 -2.808466632638747379e-02 -7.654839364381524902e-01 1.370989723827818925e-02 1.485276900046635651e-01 -9.888132098731258202e-01
2.725468244234398318e-03 4.970820779971291126e-02 -7.613524441136216847e-01 3.148543949347455961e-01 -3.203199724201861304e-02 -9.485993153818751411e-01
2.509549181626317266e-02 -1.082954657636597123e-01 -7.719121556406677298e-01 2.473629006679594067e-01 2.795373491671866995e-01 -9.277232700507815899e-01
-4.279893136214296678e-02 8.932359396655910333e-02 -7.606799969071141865e-01 4.561856251652797456e-02 -6.631921608184690453e-02 -9.967550894438488296e-01
5.181337422772847381e-03 3.343924334355457412e-02 -7.601586056820394122e-01 2.721751104262881138e-01 -5.113092338040727859e-03 -9.622341531826753558e-01
-2.297968429098859108e-02 -1.746810717114981870e-01 -8.044669024832330484e-01 -3.199457216005634902e-02 3.805196130788088271e-01 -9.242192225952934326e-01
-7.776375382678499260e-02 -4.139601759055334257e-02 -7.694751685044144418e-01 3.138706849666808574e-02 1.609246056234045485e-01 -9.864674973034525118e-01
3.075795939448141073e-02 -6.004633371845508050e-02 -7.587933552303870455e-01 2.648436278455185700e-01 1.494627244437557734e-01 -9.526377836257988729e-01
2.769344207826027193e-02 1.156269626043232857e-01 -7.586144420006155631e-01 2.175128329816714279e-01 -6.516268520536602771e-02 -9.738798652529550015e-01
-6.610790022199761196e-02 1.109163385007918001e-01 -7.650778643593265649e-01 1.797993894112509261e-01 -9.847468834656730730e-02 -9.787619298493315245e-01
3.545772594425565527e-02 1.577253540549449495e-01 -7.621644752123214461e-01 2.456037659807194240e-01 -2.664108168660217490e-01 -9.320429532982194010e-01
3.395967971792202694e-02 -7.190363412308836688e-02 -7.601731661147694830e-01 2.661394155306423537e-01 1.971513707454650988e-01 -9.435577080996118138e-01
-2.713992263626069379e-02 -1.070653152949140596e-01 -7.816859804673332857e-01 2.020944588209716911e-02 2.481851496361807130e-01 -9.685017861610814016e-01
3.126246019973166063e-02 6.328091612955996648e-02 -7.553925762021820312e-01 1.856920219085866908e-01 -4.270007324843363289e-02 -9.816797730136234135e-01
-1.017268052276907586e-01 2.263909438565905527e-02 -7.630388803529236652e-01 7.839682131406264243e-02 1.096475322440313982e-01 -9.908740369394311021e-01
-8.266965700431766484e-02 -2.213971797287799317e-02 -7.669681747548620088e-01 5.416819516683957919e-02 1.305546701517743824e-01 -9.899602440168637774e-01
-5.078162082696718177e-02 5.893575382990566547e-02 -7.593202841562777250e-01 1.451655821724035650e-02 -2.584669658828847930e-02 -9.995605123317939933e-01
4.670756497643953342e-02 -1.121633012869258927e-01 -7.682478682221687283e-01 1.810832407568654934e-01 3.169597121369744919e-01 -9.309916223033574134e-01
-7.554627398036873817e-03 -1.656663895322840752e-01 -8.025482559101392299e-01 4.585953243883692521e-01 3.341501069910639554e-01 -8.234282205796609189e-01
-2.751375611542889940e-02 -2.543846332148633465e-03 -7.623729777242326255e-01 -5.568689158715495538e-03 9.506310756102197279e-02 -9.954556721832945598e-01
3.975611556245046280e-02 2.115074712947280222e-01 -7.867125550315914317e-01 2.095121808726763679e-01 -5.707819193496702637e-01 -7.939223177424107325e-01
-4.540771714277318932e-02 1.076060397756962023e-01 -7.622525168869104251e-01 5.531595649430681022e-02 -7.884311778786531888e-02 -9.953511479546344187e-01
7.050034783294002738e-02 4.169470418960005004e-02 -7.481542354695923658e-01 1.212460173007612052e-01 -8.688426802459579823e-02 -9.888126856278359744e-01
-1.146625963170671836e-01 1.989189490218658957e-02 -7.644224523385799719e-01 8.443947555032231544e-02 1.118199094238860186e-01 -9.901344771419792190e-01
5.839655145627292016e-02 -1.739652585597181167e-01 -7.917993265557627947e-01 6.277049741413197326e-02 3.754722107006471798e-01 -9.247056199926284581e-01
3.706727979036034126e-02 -2.538405731571991356e-02 -7.528231839404088133e-01 2.548416283309739572e-01 5.526337169972751068e-02 -9.654023535386658805e-01
-6.413620498016180116e-02 -3.993040812906608478e-02 -7.687794385918468310e-01 3.346102466348522403e-02 1.563118726357480004e-01 -9.871407996337580038e-01
1.125867620738027486e-01 3.780639040706034598e-02 -7.436588769126137866e-01 7.976457040556846068e-02 -1.038042223823051752e-01 -9.913941177572217489e-01
2.946818950619597977e-02 8.571815904950855214e-02 -7.567267030600587363e-01 1.904512218944782731e-01 -4.302481486944491340e-02 -9.807533825505523328e-01
1.112167945127710972e-01 6.027606497548758380e-02 -7.451207035721810756e-01 8.926992671627209663e-02 -1.484937328357448585e-02 -9.958967698999512397e-01
1.291096462444272369e-02 -2.101031971591849623e-01 -8.144629061620257682e-01 2.453607800311856102e-01 4.053352924532422352e-01 -8.806255664664368599e-01
9.587474011397185969e-02 4.245130901878757523e-02 -7.455718770878717594e-01 8.698073974036581169e-02 -9.640068052382283481e-02 -9.915348000492782976e-01
4.562070545393228510e-02 2.940255094837746636e-02 -7.510172740081082488e-01 2.024348226213046331e-01 -5.756906152613169153e-02 -9.776021408248252165e-01
1.889705804242714643e-02 6.017670399607009252e-02 -7.576618764998498401e-01 2.087128041260866429e-01 -3.370117948029228983e-02 -9.773961304893029611e-01
-1.016436746162668742e-01 -2.275467252432599244e-02 -7.681184809748101694e-01 5.754783562144742681e-02 1.236237576668453436e-01 -9.906590801863252027e-01
5.423064077671947009e-03 1.982538290035489037e-01 -7.884351023683227044e-01 -3.990390983981182416e-01 -4.183652909742148207e-01 -8.159278652293213696e-01
2.643042609369682713e-03 -1.759160481548179833e-01 -8.026543134103824029e-01 2.749555797507202137e-01 3.655766033032440965e-01 -8.892430355539524545e-01
-3.074994347039692114e-02 -9.362840465181283822e-02 -7.784293183041108843e-01 2.930654000252544064e-02 2.223522323629089081e-01 -9.745258393066401625e-01
2.716349352014801530e-02 -1.115550446635281967e-01 -7.723605052050032116e-01 2.300254319378183809e-01 2.950468974134947131e-01 -9.273810592137898823e-01
8.734503920282403466e-02 5.028384866551137422e-02 -7.468906334694870308e-01 1.027659087386805642e-01 -5.467532428307539383e-02 -9.932017805640773744e-01
-4.867576614863451667e-02 1.687775206805629535e-01 -7.708834033020376397e-01 3.211226210809269704e-02 -2.540534050430684476e-01 -9.666569557026544190e-01
3.205165094698458200e-02 -1.797375616423566858e-01 -7.972631043677461671e-01 1.502065842123271600e-01 3.762635153957313849e-01 -9.142558444118974448e-01
-1.265450932107772819e-02 1.450240206523534803e-01 -7.665762762960887100e-01 -8.118350652217465324e-02 -1.350618955090249762e-01 -9.875057076545293855e-01
2.216060038842882288e-02 2.631620029021685125e-01 -8.546425348573841729e-01 4.085246782723565562e-01 -8.253518563857883406e-01 -3.897459434080113305e-01
-2.118166279175981784e-02 1.453830283681048496e-01 -7.659493932016711026e-01 -3.938265239781335580e-02 -1.413916257248172270e-01 -9.891700636720694995e-01
-8.815487613895890695e-02 1.289322572829138536e-01 -7.714380890561850501e-01 2.297627810809908799e-01 -7.657728835606067430e-02 -9.702293457414907785e-01
-7.606780842221810141e-03 9.668018307462838967e-02 -7.623959372335861184e-01 -1.339129619798881399e-01 -5.513806543983845732e-02 -9.894579891806044580e-01
-7.703827280321612347e-02 -1.565985299496692740e-01 -8.010208361438565516e-01 1.439063282376149833e-01 4.397281261543788955e-01 -8.865270124265399732e-01
7.871148841640225602e-02 -8.770179537999137076e-02 -7.561159195721809390e-01 9.578901245172191659e-02 3.170920019664075218e-01 -9.435449789927663478e-01
1.247112917233224143e-02 2.074398642526810166e-01 -7.917627238351097052e-01 2.902734786416458213e-01 -5.505196572804804678e-01 -7.827320196242520955e-01
-7.687302155261603598e-02 3.592721944939607920e-02 -7.603534602533638109e-01 6.446426068668846543e-02 6.518344117309535224e-02 -9.957888722469999676e-01
-1.665785887899682736e-03 -2.032896598712033154e-01 -8.161119883129380748e-01 3.205525669526156363e-01 3.862528322400223812e-01 -8.649016137149068140e-01
6.967791107148436913e-02 1.246208596740364244e-01 -7.507769386894549424e-01 1.805384962846338370e-01 -3.265674348423061590e-02 -9.830256296070251087e-01
-5.344866886988682573e-04 1.240528727813796639e-01 -7.655758597639226171e-01 -2.224006751016004702e-01 -1.036504281640278913e-01 -9.694300018339467861e-01
-6.960937540884518104e-02 1.791411656428139043e-01 -7.748856865079384315e-01 2.121978864590949240e-02 -2.631830293026781731e-01 -9.645125264385571162e-01
-3.209493259179118513e-02 -2.317044394224085091e-01 -8.324223225876713483e-01 1.469815464452115250e-01 5.162855837615561994e-01 -8.437094411019490092e-01
-4.944560339358739648e-02 -2.275307836509164738e-01 -8.354796218175881695e-01 3.378409544308863532e-01 5.365021881600461340e-01 -7.733232775551956983e-01
-3.447753430354513760e-02 7.762610357319310594e-02 -7.599845645577778530e-01 -1.324753363132117299e-02 -3.965219146146242019e-02 -9.991257211006984162e-01
-5.441767364609807062e-02 -1.062991998760482448e-01 -7.822180020921213339e-01 2.505085462637656260e-02 2.413977652526272943e-01 -9.701028675421621283e-01
-2.132645581327401868e-02 -2.044041344180668185e-01 -8.178739970300107354e-01 -6.926318840394576903e-02 4.178907991496372265e-01 -9.058531286683273454e-01
1.075824988679014022e-01 4.133441620297175628e-02 -7.444309077986108747e-01 7.976457040556846068e-02 -1.038042223823051752e-01 -9.913941177572217489e-01
-3.370848277382379465e-02 -2.269716797405712527e-01 -8.297334042299530088e-01 1.700499458099714867e-01 5.326213395904400016e-01 -8.290944002602544938e-01
-5.697620582160525804e-02 1.183542955739189939e-01 -7.643686431316129015e-01 1.249388083749025935e-01 -9.106779825902111547e-02 -9.879761891271032770e-01
-4.307379055590419836e-02 -1.710920400356998605e-01 -8.033465919622275742e-01 6.176622799865023883e-02 3.889505065661481020e-01 -9.191857464738864003e-01
1.119519205233261289e-01 -2.455386222458469034e-02 -7.398657809684020537e-01 1.182879610327090686e-01 7.444818675886570591e-02 -9.901845412664456170e-01
1.129883159299660683e-01 4.775029422268090712e-02 -7.444386759376062646e-01 8.252796778301821345e-02 -5.229622034470396419e-02 -9.952156750530325446e-01
3.513459568703015262e-02 2.158543387119331025e-01 -7.913260031397293393e-01 2.062240307111017357e-01 -6.205508933697535534e-01 -7.565634394386679951e-01
5.647287261036187944e-02 4.754932239140084033e-02 -7.504693724459057247e-01 1.504322415787308076e-01 -5.125621972806992249e-02 -9.872907072553586127e-01
3.087566345264279241e-02 1.308650652266787340e-01 -7.590690285469163801e-01 2.217036036547049005e-01 -5.818116973829159932e-02 -9.733768353594620670e-01
1.073226986751982664e-01 7.793247402144183600e-02 -7.454398277467900735e-01 1.041641728531667449e-01 2.655894840177622229e-02 -9.942054351861125960e-01
2.961810601767761453e-02 -1.787650006344193021e-01 -7.973370180164962573e-01 1.859313353882398878e-01 3.639053566620858438e-01 -9.126896679120379829e-01
-2.717212262661826416e-02 1.270314217790084466e-01 -7.634877784968533421e-01 -8.318522205463450142e-03 -1.027717500955967200e-01 -9.946701813016238791e-01
-8.868578122154115173e-02 7.221861101559548524e-03 -7.637174141251440451e-01 7.170003255123236219e-02 1.232208526182895780e-01 -9.897856974174630285e-01
6.022561547080265698e-03 -2.501844272846631689e-01 -8.424210273493180079e-01 1.278697002626524859e-01 8.278423062855021497e-01 -5.461926909787792050e-01
2.276547084821034864e-02 9.326334793858938321e-02 -7.583933886845870553e-01 1.897484460510736604e-01 -5.563722875434191917e-02 -9.802550821075806109e-01
-5.622966822126351794e-02 9.995499275219317525e-02 -7.624250775483893960e-01 1.097956785490424858e-01 -9.837163732675652250e-02 -9.890742792842245334e-01
-4.564214146717020942e-02 -7.374050302449521206e-03 -7.632278224397475164e-01 2.527198800631285172e-02 1.049637652525336334e-01 -9.941548846161847308e-01
1.026742073272496475e-01 8.850233469673260411e-02 -7.458277863559630294e-01 1.224407327049984867e-01 3.777564110976764505e-02 -9.917566576098235664e-01
3.681247871816745176e-02 2.000114040328437315e-01 -7.796330496238962349e-01 2.232573338450608846e-01 -4.964723722309835607e-01 -8.388512064101325549e-01
1.381762331421980752e-02 -1.994044631379576493e-01 -8.095490448205029388e-01 2.369241363375245157e-01 3.859911547752953309e-01 -8.915591859523135376e-01
9.446532042767322168e-02 8.407748108875047477e-02 -7.469031942867673246e-01 1.246552917060270993e-01 -4.190466448868728974e-03 -9.921912609172819364e-01
-5.734138647295935337e-02 -1.834994636864140383e-01 -8.111364227004788097e-01 2.096092388674294094e-01 4.746291963593401997e-01 -8.548632013045734945e-01
4.353770486303005366e-02 -1.291012052109709596e-01 -7.750438500258860497e-01 1.811527513898474051e-01 3.447212604850842244e-01 -9.210596795178164209e-01
-2.221545120703957363e-02 -2.085490593000372539e-01 -8.197786938833484527e-01 -6.942392274208154801e-02 4.377142013182825919e-01 -8.964299174589162034e-01
-9.385965713982043213e-02 -7.281161729787800907e-02 -7.747384724256651811e-01 -1.487944826234694623e-02 1.691030238650525486e-01 -9.854860574047223931e-01
2.927514757932897851e-02 -2.173253192362618880e-01 -8.132664694878730671e-01 2.101456636045468396e-01 3.864087548580714127e-01 -8.980685242436902138e-01
1.499092224661584087e-02 -1.397749429706503232e-01 -7.851780036326093670e-01 2.360647051973324972e-01 3.359520699600279103e-01 -9.118166820417737961e-01
4.496132601451312272e-02 1.292743248829859304e-01 -7.558462861180538228e-01 2.079512444751723255e-01 -4.271435270047254512e-02 -9.772061010833932304e-01
-8.613202526576020342e-04 -4.779980121155662405e-03 -7.633056300297292873e-01 4.523596515038132426e-01 4.780759658443402282e-02 -8.905532995841228816e-01
5.331077925428406861e-02 -1.674804917299090590e-01 -7.895857191786446183e-01 8.622262372241323858e-02 3.654881020862755237e-01 -9.268139545732979601e-01
2.342112666090536560e-02 -3.782148212496950351e-02 -7.578513606464507557e-01 2.953064388609804025e-01 1.115995859299354492e-01 -9.488622869455362041e-01
-5.139891989640579112e-02 9.289241001589086666e-03 -7.615147147313321430e-01 3.193869889389104599e-02 8.584209056311921382e-02 -9.957966936080467901e-01
-8.018369530622482255e-02 9.630259366264175280e-02 -7.654854066683896008e-01 1.808226748939778805e-01 -1.766667519953380727e-01 -9.675184850862563746e-01
9.763272078997473069e-02 -7.531967010205406488e-02 -7.509711695422619515e-01 8.441745335809079653e-02 2.808978903435755958e-01 -9.560178182278105119e-01
6.327686547604920164e-02 2.877679008254495699e-02 -7.480377519873919745e-01 1.454621619845023472e-01 -7.398877919657760593e-02 -9.865933407355810258e-01
-8.572522840634852481e-03 -1.733406626198079059e-01 -8.058401119659016620e-01 -3.600344715725753986e-01 3.766484644062398357e-01 -8.535286249094858890e-01
-4.617711482506903220e-02 1.983807250022608659e-01 -7.818490809334613934e-01 -4.240330255141979560e-02 -4.732487622855988674e-01 -8.799077047781098670e-01
1.094228299803985845e-02 -1.788133160961868917e-01 -8.015195545324350634e-01 2.424563624193865063e-01 3.698073704871723266e-01 -8.969155038551415160e-01
6.627493193425187945e-02 -2.018596898628749817e-02 -7.460258732897736556e-01 1.756637012586728663e-01 5.575541677757508280e-02 -9.828700817300638493e-01
5.239107893688904616e-02 -9.689442093435388093e-02 -7.621741651620355107e-01 1.291709044568792875e-01 2.847296985512799417e-01 -9.498651884371218657e-01
-4.941689318635813372e-02 6.520954965461540909e-02 -7.594626924918777000e-01 1.451655821724035650e-02 -2.584669658828847930e-02 -9.995605123317939933e-01
-9.203561099803819756e-02 -9.624126815811751695e-03 -7.660132402503319060e-01 7.000931810328743510e-02 1.159606147801051090e-01 -9.907834431390811769e-01
