4.530434479294355443e-02 -1.015557660173849047e-01 -8.716850575845674909e-01 1.678635860334759256e-01 -4.914866238599242543e-01 8.545541030565326768e-01
-3.010619143941228870e-02 -1.644875734458217942e-01 -8.947271301783490394e-01 -1.357361289214651517e-02 -4.538012605683700018e-01 8.909995358806942489e-01
-6.279588201465184649e-02 1.014845534945694461e-01 -6.430274696568891724e-01 1.389525219663651640e-02 -8.599658701785479753e-01 5.101623507222428078e-01
2.109091708625279032e-02 1.120205511366181989e-01 -6.086219105055409306e-01 3.080901465732748812e-01 -9.313346953905604630e-01 1.941549555026338691e-01
6.247257195873502644e-02 9.633229113103043695e-02 -6.702801594109154548e-01 9.356734235211057460e-02 -8.401143848085018684e-01 5.342779921379837704e-01
-1.966409949549117325e-02 -4.320077961472222616e-02 -8.178933327687190058e-01 -1.108527479644221547e-01 -6.375223020082966263e-01 7.624152298523281246e-01
-1.660554111167624608e-02 -1.286891833749143066e-01 -8.751243929710575964e-01 -3.654383600051022696e-02 -4.904918037151680954e-01 8.706792397540029649e-01
7.368677544802404444e-02 2.446399700745668926e-02 -7.722591625753927325e-01 1.642588401083395766e-01 -7.108356271684230787e-01 6.839091639935361844e-01
3.577480009751696916e-02 -1.493423800988623873e-01 -8.951254146762175345e-01 2.298304268383454668e-02 -3.945456040483271698e-01 9.185888884997105430e-01
7.824200182366191714e-04 8.179011706651685698e-02 -6.707930467013270004e-01 -8.668399147139742300e-02 -8.362576422919074659e-01 5.414416324323120255e-01
5.512308651685916133e-02 4.989047684220124235e-02 -7.380801726651102790e-01 2.019381514149969359e-01 -7.844758071686367407e-01 5.863605469079664623e-01
1.539933896962281286e-02 -1.768239397636678367e-01 -9.051381667204565495e-01 1.657731199524827281e-01 -3.861290017567936550e-01 9.074269484115631279e-01
1.041890913767805626e-01 -2.304463693252282661e-02 -8.280311852271606821e-01 2.220880040514486564e-01 -6.775229467444281450e-01 7.011701470336501041e-01
1.016849381972997624e-01 -3.247849365342072442e-02 -8.363027407527132695e-01 2.404938121061375444e-01 -6.667463012989632842e-01 7.054162572855900981e-01
-9.538548189475447303e-02 7.291397661608081671e-02 -6.783369516239747821e-01 7.188913993390566581e-02 -7.661316522168276633e-01 6.386503292342977645e-01
2.917483685517292813e-02 7.564195028614746630e-02 -4.503981509033389008e-01 7.708473670845540637e-02 -8.417652872580625445e-01 -5.343118420304190375e-01
-3.188884944344305694e-02 -1.690180273332764563e-02 -7.962216466602597409e-01 -7.790309420095414827e-02 -6.950750965378210688e-01 7.147039373662747996e-01
4.746465087270959615e-02 7.869313726029271427e-02 -6.939588294410290459e-01 1.457834360270656993e-01 -8.258403554016748860e-01 5.447337855963936271e-01
-6.684851832125533744e-02 8.787115167795088444e-02 -6.623829272639237820e-01 4.218689256805679272e-02 -7.942347538110462457e-01 6.061447202889402863e-01
-4.300425177547328320e-05 1.169453731919868067e-01 -5.808365651027709298e-01 -1.066554998271978527e-01 -9.910041560056216392e-01 8.084161760007121944e-02
-7.127752930526116970e-02 3.061755523319854150e-02 -7.396157351599370600e-01 6.989451047016738416e-02 -8.333318547417195576e-01 5.483363723836501835e-01
-1.195714648580013251e-01 -7.989365638106893722e-03 -7.826055403217017092e-01 1.132792721449699391e-01 -6.760968754025840077e-01 7.280527601576471941e-01
4.621475031437924375e-02 1.140225594796810543e-01 -6.278909293621328658e-01 2.263256155897255262e-01 -9.288229774938135952e-01 2.933676741010473044e-01
-1.173292330818196394e-01 -2.725390574864027665e-02 -7.993814425790600753e-01 1.597907616462041769e-01 -6.184662015146324965e-01 7.693935729368865939e-01
-3.723950149183043873e-02 -7.578643370111196043e-02 -8.432912505057115204e-01 6.826095843976303680e-04 -5.313366044342675565e-01 8.471605201096295001e-01
-1.088873122553169620e-01 -3.060912212633317211e-02 -8.038225862972593339e-01 1.220065649286165566e-01 -6.247340546052538857e-01 7.712468859780238217e-01
-4.550998489162371569e-02 -6.345193706080430596e-02 -8.350761811744700225e-01 -1.621483472585749023e-04 -5.573341335847219469e-01 8.302882856269144796e-01
1.157639405601290118e-02 1.002413400077090261e-01 -4.955813240391228058e-01 -2.082194332822335792e-01 -9.003392738440842979e-01 -3.821437682044970807e-01
9.500530759238902390e-02 7.074327729582730040e-02 -7.139737805398128634e-01 4.586634143997460333e-02 -8.887983294670127599e-01 4.559975967694994692e-01
5.662718432897957677e-02 -5.081570786531441203e-02 -8.378613645767080120e-01 2.180413114426822674e-01 -6.243982400317587000e-01 7.500565474346566619e-01
-1.149687412965482991e-01 -4.619408315731330511e-02 -8.135367518573207724e-01 1.853873337775662489e-01 -5.651144965513901219e-01 8.039136410475408168e-01
-5.854592918596276951e-02 7.294613119055022576e-02 -6.821839506134503850e-01 4.839222030435898908e-02 -7.860173863579525966e-01 6.163074406146881179e-01
2.584361622451021578e-02 9.377547110415893061e-02 -4.864368563465424899e-01 5.631457743293752927e-01 -7.561804669311030791e-01 -3.332535645523198586e-01
-9.337104323852205012e-02 -3.407742805620176535e-02 -8.093268505743101970e-01 1.346956906513175345e-01 -5.903682174177486974e-01 7.958155808872771075e-01
-5.994523554688654249e-02 -6.830047138801650410e-03 -7.875871882871621210e-01 -3.830157149693156574e-03 -7.065031444408939043e-01 7.076995384987458948e-01
6.488979904274504162e-02 -7.027870653294477840e-03 -8.011858872389155950e-01 1.731289393843097879e-01 -6.811649610632329876e-01 7.113653535050665777e-01
-2.209408865400260338e-02 -1.823993611388249336e-01 -9.034309781136625750e-01 -6.116836651810109160e-02 -3.930745870854749358e-01 9.174697814778917104e-01
-1.773695714822309810e-02 -7.176549125825913700e-02 -8.394345197320186580e-01 -7.806435268309003250e-02 -5.872019156574969090e-01 8.056673426969321872e-01
2.498149396335793554e-02 1.159087072290441583e-01 -5.890521228208924764e-01 3.015182891281369959e-01 -9.523428956862223238e-01 4.614900169258873142e-02
5.734052187735159956e-02 9.787554052148544903e-02 -6.667572103478931478e-01 9.154946566739229075e-02 -8.604252236744085458e-01 5.012854773488446547e-01
-2.610594832353392569e-02 3.615436177825850483e-03 -7.747651235475964127e-01 -5.500160487296956030e-02 -7.313934617859292331e-01 6.797340858881451009e-01
-1.851796577902061619e-02 -1.574303426208581991e-01 -8.906650982586847842e-01 -5.688839369508733729e-02 -4.696866899249450000e-01 8.809983677454465978e-01
-4.682702992870765163e-02 -2.648135118926674830e-02 -8.061036931235521230e-01 -4.343314825824728248e-02 -6.714125129654824331e-01 7.398099749704329930e-01
8.765176717718688171e-02 -7.542337548410676940e-02 -8.643217646908812890e-01 2.174819426774424469e-01 -5.099142424425507913e-01 8.322794422328868569e-01
6.098431216222081203e-02 8.543364877607317887e-02 -6.868212408193373752e-01 7.527787114947058489e-02 -8.347648090959643996e-01 5.454364817374998120e-01
7.943526673276177230e-02 -3.614877751645284576e-02 -8.323421039995655413e-01 2.373115021375908629e-01 -6.563346554246600739e-01 7.161760056311528011e-01
6.676171298763486361e-02 1.009782913575978519e-01 -6.634086411652696524e-01 4.161924207740473614e-02 -8.548216643480623933e-01 5.172501917352092526e-01
-1.117943543434730264e-01 3.847505493180237296e-02 -7.199521812130746934e-01 1.186298557026747857e-01 -8.408190033038195343e-01 5.281575153485312812e-01
7.779359102736303766e-02 7.509502213027131889e-02 -7.051778018329533104e-01 4.094928372312568038e-02 -8.523917498351543109e-01 5.212978620477226599e-01
5.199737528145134680e-02 -1.308254951618215423e-01 -8.877560238401221993e-01 3.737195512145535109e-02 -3.824698830014762740e-01 9.232118530257485967e-01
-4.249097953061635458e-02 1.133696293479395795e-01 -6.168778110524908431e-01 -3.793666080404193425e-02 -9.438944943311313729e-01 3.280609597901225083e-01
1.052551564389079958e-01 -1.680238386871538842e-02 -8.220283639676658760e-01 2.207526684763688740e-01 -6.965772602293954785e-01 6.826773614906762599e-01
7.857005951427886714e-02 9.181167158724162780e-02 -6.786111194738999597e-01 2.220490359094969696e-02 -8.287789005223875627e-01 5.591354722296009161e-01
-7.543822054233866037e-02 -8.242286531124935756e-02 -8.437790701278146122e-01 1.683161982795377265e-01 -4.845362862735008713e-01 8.584254450335261355e-01
-5.332175651997650423e-02 1.361917140167983632e-02 -7.642832854241511376e-01 -1.208716941770896598e-03 -7.744225412060832259e-01 6.326675799148137047e-01
2.755254159321271143e-02 7.167483036358771042e-02 -6.967967543804306496e-01 2.484963865779279690e-01 -8.053169397086832326e-01 5.382510310960435529e-01
-6.694142858631754733e-02 7.307593272980655863e-02 -6.812305025409958192e-01 7.648671069566768954e-02 -7.890652292870792284e-01 6.095292011192623427e-01
6.911447853711340239e-02 1.820967835183214326e-02 -7.775179603690306473e-01 1.628481880866321230e-01 -6.960520350795069700e-01 6.992796522841042695e-01
-4.207640243800410754e-03 -1.595310636117630854e-01 -8.901369135647877462e-01 -2.735765398808679416e-01 -4.335543482110565394e-01 8.585956580219221701e-01
2.226569767902520508e-02 1.054508842229467253e-01 -6.333610804453913001e-01 3.172375652597695384e-01 -8.884942859071761623e-01 3.315693458363577206e-01
9.433146952374192595e-02 1.094383575929518404e-01 -6.530251522077015203e-01 3.394385387001223886e-02 -8.358565139469733563e-01 5.478975295407567669e-01
2.120148429707014934e-02 -8.970499871260176686e-03 -7.915433262104636380e-01 2.007203918882795590e-01 -6.674477644043452784e-01 7.170946981200299053e-01
7.854502492253109119e-03 -5.125806381650677146e-02 -8.252333093837117550e-01 2.107501492273670396e-01 -6.152901581335935566e-01 7.596067376640229796e-01
2.761585907610015697e-02 1.014759217782771894e-01 -6.470419610224007467e-01 2.661677131351348202e-01 -8.728533002106173555e-01 4.090010572062698913e-01
1.022558145370564692e-01 1.025140839087980774e-02 -7.926072185386283664e-01 1.620123239708050611e-01 -7.149156114047280353e-01 6.801820899225317074e-01
-1.023206041775034936e-01 7.218214369920077089e-02 -6.783824998730116906e-01 9.164834218487095951e-02 -7.570008400231034162e-01 6.469546425979801896e-01
-4.504735015252035041e-02 1.174528283017287483e-01 -6.033675515120351385e-01 -6.118219176156210193e-02 -9.651880869416981090e-01 2.543004054992371032e-01
8.042487728061101238e-02 1.203618319792457425e-01 -6.269152509098652182e-01 1.536972301989351641e-01 -9.136099581764439703e-01 3.764226424512900904e-01
2.796980340956201766e-02 7.458900178659695623e-02 -4.503251294636228530e-01 -9.699719379399066588e-01 -2.430910687588078156e-01 -7.821246627122810727e-03
-1.467760676221782287e-02 -9.434010975440883240e-02 -8.544864310698414567e-01 -5.638639869589905096e-02 -5.356048180497897659e-01 8.425841518352683579e-01
-2.033057162744637218e-03 -4.616560734346618344e-02 -8.173694950701161366e-01 3.989439313191707193e-01 -6.005040514703431365e-01 6.929925135463645969e-01
-1.127894039595922666e-02 1.129357143689174031e-01 -6.113215250381819343e-01 -1.017403031300245231e-01 -9.635264990177792033e-01 2.475188809152796821e-01
-1.136663637785501058e-01 1.336117877064523819e-02 -7.588890394036051923e-01 9.439988887087652492e-02 -7.933243393274648225e-01 6.014359098123486236e-01
-1.590574018072114792e-02 7.956351060811973908e-03 -7.687566994142894794e-01 -6.208252324616557460e-02 -7.426906528630233817e-01 6.667505938934628062e-01
9.241366953234125825e-02 -2.210259846893053784e-02 -8.233952780539074423e-01 2.191628110795029449e-01 -6.800378068983673474e-01 6.996543742653144049e-01
8.361244516733193355e-02 4.764998161002044486e-02 -7.487252886238853211e-01 1.448166505386163372e-01 -7.761798169231584055e-01 6.136554648399283884e-01
-9.731282972623468697e-02 7.856216026080402662e-03 -7.685070019183840584e-01 8.499833654821417617e-02 -7.915679523287563191e-01 6.051408593295419802e-01
-6.466823542729312202e-02 -1.388223953256617349e-01 -8.778950610630837925e-01 1.275381031941336951e-01 -5.201278800905089206e-01 8.445122974748180411e-01
4.029018025497834408e-03 -8.843649748025060597e-02 -8.522649459723227183e-01 2.958569113914522042e-01 -5.509480250994677197e-01 7.803364413001013800e-01
9.183648793565235557e-02 5.485042620109752132e-02 -7.409523721845375777e-01 1.234944415941586493e-01 -8.281961517419397234e-01 5.466628367972242719e-01
-1.506544248576535509e-02 -1.502035579790209352e-01 -8.867823978049276246e-01 -2.976575291850832097e-02 -4.552532684771380955e-01 8.898642938640010103e-01
-2.300209236907660784e-02 -1.620413541559197756e-01 -8.933067944731528653e-01 -3.347322325754011063e-02 -4.660933545825628466e-01 8.841021027792684839e-01
-1.915243064127140557e-02 1.991478649381542634e-02 -7.551512428540579913e-01 -6.382650461387809337e-02 -7.733944159670480545e-01 6.307037772677148713e-01
3.724083991841204561e-02 -8.609877992062124619e-02 -8.597146435910872908e-01 1.982994499922626774e-01 -5.799030647490900359e-01 7.901833734187138081e-01
-6.551371196347227643e-02 -1.176054947739469253e-01 -8.653089031784618745e-01 1.470909051035553805e-01 -4.836268118926441151e-01 8.628263860443615707e-01
-3.718110222833347078e-02 1.124542964659434041e-01 -6.188260277532695586e-01 -5.113919271298027897e-02 -9.440216016190232651e-01 3.258956867547023184e-01
-8.878079495614088490e-02 -8.778482784579058618e-02 -8.438169453504703599e-01 2.053521251611822029e-01 -4.686602652174938211e-01 8.591787127821861603e-01
-8.517052104186499661e-02 -1.133902954653265710e-01 -8.587633852958266312e-01 2.106307483778111223e-01 -4.833542739290694890e-01 8.497077931337956302e-01
-2.093880322685600856e-02 -1.029360998707489101e-02 -7.885297967636956118e-01 -9.654493498130313489e-02 -6.935815440917970642e-01 7.138793436041517282e-01
-5.670440820646573815e-02 -1.170207532689514357e-01 -8.664103272290404334e-01 1.122103530810483196e-01 -4.862348516510444085e-01 8.665936220059047290e-01
-9.452465718785191262e-02 2.134653568182764624e-02 -7.503308345155361714e-01 6.850134189245475624e-02 -8.254267450795207406e-01 5.603376256029579672e-01
-8.801677740443844544e-02 6.146608150568159956e-02 -6.934120934900469546e-01 8.530117960826844037e-02 -7.837611389466347944e-01 6.151765485082404394e-01
4.002853047666897479e-02 7.799129314801248047e-02 -6.924905600865746136e-01 2.024727865254513093e-01 -8.142699356418341416e-01 5.440305530266315026e-01
4.905399726920030984e-02 7.020281861022409364e-02 -7.072145572813811620e-01 1.567869695591784518e-01 -8.181331218711932474e-01 5.532413949387234853e-01
3.677903987548963166e-02 -3.441726121407150119e-02 -8.185559985947972184e-01 1.895261073275815999e-01 -6.383607790219446576e-01 7.460397914640679584e-01
1.406896749527521313e-02 -1.396582509111435888e-01 -8.865003029601921103e-01 2.787151806511360963e-01 -4.557742261110468984e-01 8.453328947151416140e-01
-2.521157359720464092e-02 1.792434739002427349e-02 -7.579563268900869621e-01 -1.875794893590413542e-02 -7.767034262595159388e-01 6.295871083404159796e-01
-3.385420065164108233e-02 -5.482048738868018634e-02 -8.284691720867738418e-01 -7.392481315088358929e-02 -6.017221407664761212e-01 7.952770506634880832e-01
-2.373500647473796021e-02 8.166588204874355994e-03 -7.694073473136251451e-01 -3.741588179541997794e-02 -7.529886882275984572e-01 6.569688631820777003e-01
-2.551697870199330642e-02 -1.742029613547949607e-01 -8.996478944914325648e-01 -4.004947107488172203e-02 -4.276116300843117446e-01 9.030749324852616056e-01
-5.241805477371442451e-02 1.129461175611515406e-01 -6.190790024399820402e-01 -4.183465692947106046e-02 -9.390856132263608602e-01 3.411276484116512187e-01
8.329130948385994430e-04 1.160103897055971556e-01 -5.902419131805763941e-01 -1.096996993355638800e-01 -9.798813580547991453e-01 1.667288220505662721e-01
-1.819510870306983649e-02 1.124467553469428033e-01 -6.151439433881905616e-01 -7.858727788717727314e-02 -9.405629562656804277e-01 3.304018236254868679e-01
7.187170231332402903e-02 -3.294469718364199939e-02 -8.270338085813045970e-01 2.154453827262291232e-01 -6.478861517354503885e-01 7.306345334374618750e-01
6.430578535306763488e-02 -1.213736415994919327e-01 -8.843957825263620842e-01 7.990497535414108066e-02 -3.968421843013923977e-01 9.144022504743488655e-01
-2.321744339026906787e-02 -1.678080439893706310e-01 -8.962664825489136122e-01 -6.189401048849559051e-02 -4.653643372058275385e-01 8.829525271058635827e-01
-2.119050752692564280e-02 1.194846224749722963e-01 -5.758678505718017870e-01 -9.770785900962276893e-02 -9.916963296961205376e-01 8.361557244316907000e-02
-9.931695853715953592e-02 3.245409177862009636e-02 -7.321368829115050270e-01 1.053087426935850057e-01 -8.408173024907040771e-01 5.309767721327857126e-01
1.018240359113076372e-02 5.784717489218547254e-02 -7.076679427880052664e-01 3.309539190363323669e-01 -7.691604680262830174e-01 5.466824287464173704e-01
-8.408421460787028623e-02 -5.473828227962745929e-02 -8.254057869266802072e-01 1.536955484743467437e-01 -5.505498531256884931e-01 8.205318626369436652e-01
-5.565119119970292350e-02 5.705981565613731793e-02 -7.036226688432681842e-01 5.494005455982004654e-02 -8.046933037954011603e-01 5.911431952004576607e-01
1.082569158565164780e-01 6.225403061030315016e-02 -7.318607298534024475e-01 7.697957453809428641e-02 -8.792157918355437696e-01 4.701635210125640896e-01
-7.875404280135790691e-02 6.018017921550702920e-02 -6.962929482048731966e-01 9.121931110948536259e-02 -7.935465044849641103e-01 6.016335948901173625e-01
-1.905361065939027362e-02 -1.832304838414997375e-02 -7.960087157778498179e-01 -1.086571040321617776e-01 -6.873293557557541567e-01 7.181726745426366687e-01
-4.442919064751456315e-02 -4.381123408765524863e-02 -8.206248913160562042e-01 -3.566085625055687852e-02 -6.383731794842174567e-01 7.689005052974592358e-01
2.611538481769715148e-02 -8.835364693166749758e-03 -7.927929859388631595e-01 2.007203918882795590e-01 -6.674477644043452784e-01 7.170946981200299053e-01
9.375083181362676987e-02 -2.159008818222462028e-03 -8.034551849678045476e-01 1.633011938008922526e-01 -6.960235188551882057e-01 6.992023893720935579e-01
-6.236623854169846826e-02 -3.468190876972515602e-02 -8.132596393220017372e-01 4.717254243455506341e-03 -6.271741114894163749e-01 7.788648030241600573e-01
-1.117709679273821838e-01 3.520092094777569486e-02 -7.251698072435973641e-01 1.186298557026747857e-01 -8.408190033038195343e-01 5.281575153485312812e-01
1.288435210870891336e-02 -9.169617550353854896e-02 -8.571616509049747590e-01 2.216005423076401470e-01 -5.413550534513065227e-01 8.110659071565594624e-01
5.146446953475863895e-02 -8.472978629942733153e-02 -8.621932224237902620e-01 1.909820445424016133e-01 -5.657926348321323795e-01 8.021250233175107880e-01
-5.466570191801416179e-02 -7.141551752641635276e-02 -8.399908454174679351e-01 5.043187446703677190e-02 -5.415257825528687619e-01 8.391700976966731673e-01
2.572631157769044233e-02 3.072677118187713136e-02 -7.509157500672379859e-01 2.343900687299395880e-01 -7.499601841832833626e-01 6.185636732144473848e-01
-1.773071762873123028e-02 -1.548347998720362717e-01 -8.892408872008435994e-01 -2.976575291850832097e-02 -4.552532684771380955e-01 8.898642938640010103e-01
5.678819641688207659e-02 -1.256878746477237407e-01 -8.858215352840973500e-01 3.737195512145535109e-02 -3.824698830014762740e-01 9.232118530257485967e-01
-1.252468860938197037e-01 1.102521370548766727e-02 -7.601156541886935347e-01 9.687370767072779609e-02 -7.947511061971276325e-01 5.991545409663253663e-01
1.208146600792780676e-02 -1.337530728312947281e-01 -8.827196556562680874e-01 2.630409476782116784e-01 -4.506014410678628734e-01 8.530930788326169800e-01
-7.355847455102790255e-02 -5.841712081439476983e-02 -8.296818027096920511e-01 1.015719819096820298e-01 -5.710452309871180132e-01 8.146106288637585680e-01
-7.594171447951271470e-02 -2.412029220680986241e-02 -8.033653941263669829e-01 6.551650736762824889e-02 -6.569485557431886669e-01 7.510833391636949630e-01
5.030254123368561175e-02 4.349674552529542160e-02 -7.444651644461479645e-01 2.040778053286581295e-01 -7.625398775778285954e-01 6.139097527127488352e-01
2.657072051139327401e-02 1.161347558318045203e-01 -5.567475399901194999e-01 2.508490806854966060e-01 -9.655089519640025486e-01 -6.976533807425139289e-02
-8.991884230565810876e-02 9.643918416339648759e-04 -7.772724799314756350e-01 6.944584772273368345e-02 -7.398791197283735022e-01 6.691458454059456828e-01
2.217218769795146430e-03 1.010696178956413394e-01 -6.381749263465491540e-01 -1.108044801200852164e-01 -8.732885227582458665e-01 4.744360053832742397e-01
1.012072560999366932e-01 6.393507989281421722e-02 -7.276001631059237917e-01 4.669374682773582558e-02 -8.822863974313915891e-01 4.683912967965183083e-01
-8.483034659483058848e-02 9.665640660996069333e-02 -6.494283670642346795e-01 3.700489508990322668e-02 -8.127321993583762616e-01 5.814610991850457378e-01
-3.815690277245169931e-02 -8.808445854315030688e-02 -8.511034311258267593e-01 1.801528670518448561e-02 -5.395357565908108777e-01 8.417699310410841074e-01
-1.929886857544518700e-03 1.174844219427203379e-01 -5.614801670517390875e-01 -1.072707880651780632e-01 -9.934976607364069956e-01 -3.814939238262226445e-02
3.697963891469931152e-02 -6.647243952214280938e-02 -8.450018255669264899e-01 2.046414168687452351e-01 -6.044557660190277293e-01 7.699059146599036563e-01
4.703106467680220198e-02 -7.020895199734189518e-02 -8.505811045670468307e-01 2.082774949620236071e-01 -6.033188195341728788e-01 7.698226335255651254e-01
-6.779033895380083552e-02 -6.347248694792452517e-02 -8.336048192327388806e-01 1.028736755460586128e-01 -5.240407314096591218e-01 8.454574612026755087e-01
-9.024452775832378371e-02 6.833393730611689310e-02 -6.844831633439543150e-01 8.660381268500910723e-02 -7.683069883307880321e-01 6.341956727308173392e-01
1.074306345906435659e-02 7.014337069841561356e-02 -6.899208308122322109e-01 3.353707365582945799e-01 -7.872924301473309683e-01 5.173945288588357450e-01
-1.899633896075129946e-02 -9.685530366589283069e-02 -8.563529772806600660e-01 -4.081432959043747311e-02 -5.294629390974006089e-01 8.473506869191911317e-01
-1.169273127781973731e-01 -8.609371199394012797e-03 -7.835927097757446891e-01 1.132792721449699391e-01 -6.760968754025840077e-01 7.280527601576471941e-01
-1.090617286349392367e-01 2.756172072776474566e-02 -7.380928326625604274e-01 1.118285480127688691e-01 -8.462704497174635687e-01 5.208845378626226763e-01
2.348776254794342211e-02 9.233058874121313764e-02 -6.621881318971281072e-01 3.100257969665072832e-01 -8.358658264968916729e-01 4.530036703051641966e-01
5.966090855027660761e-02 1.078870591739797546e-01 -6.494699997438989625e-01 1.521415955046972190e-01 -8.677623020191840286e-01 4.731189301979488726e-01
-2.804742899305512002e-02 -1.908146151294504156e-01 -9.069432049992618428e-01 9.679267056338732370e-03 -2.778239252627446865e-01 9.605832490423996672e-01
1.032180484479786747e-01 7.008698798392989926e-02 -7.157374091606228950e-01 -8.268933440824112469e-03 -8.927823039733985278e-01 4.504124581444228781e-01
-1.395168773500502467e-02 -1.147474153306636269e-01 -8.669869400621592614e-01 -3.687015484536370485e-02 -5.098910435272843156e-01 8.594484949153938791e-01
4.704095234503807843e-02 6.840198408484460257e-02 -7.093071395963839176e-01 1.567869695591784518e-01 -8.181331218711932474e-01 5.532413949387234853e-01
-1.982214823686775582e-02 2.448377580640011611e-02 -7.496482659109054980e-01 -4.368419716620744464e-02 -7.828185476125717468e-01 6.207147593151686182e-01
1.411764702847721244e-02 -2.235803624415385049e-01 -9.106337746981102432e-01 9.398375473487249887e-02 1.435934128344151517e-01 9.851639384571992952e-01
2.773469693808078632e-02 8.578315318167127612e-02 -4.672270716395565682e-01 1.355914275153151383e-02 -8.836224364203584258e-01 -4.680037815043732730e-01
-4.411978844946490806e-03 2.068360006685137156e-02 -7.526280027839142850e-01 -1.403999337285773141e-01 -7.500171339957931727e-01 6.463452307565575872e-01
5.456011949121550297e-02 1.208038194795033743e-01 -6.079030271925978113e-01 1.846542946726946466e-01 -9.744816379430069064e-01 1.276257371020592390e-01
5.391384749513941643e-02 -2.730949184586868930e-02 -8.168834426715267938e-01 1.900502202315721145e-01 -6.569065763783342726e-01 7.296263863792389337e-01
1.135752428487104143e-01 5.518888723942248081e-02 -7.450881041151614648e-01 1.134171253936999413e-01 -8.460428959637626978e-01 5.209107158205517063e-01
-1.266788312290811208e-02 -1.376956371581503080e-01 -8.799208361148742608e-01 -4.440514319889575512e-02 -4.684730568177021826e-01 8.823611382497322797e-01
-8.854809430980971341e-02 -6.509214543434671540e-02 -8.311392457383820487e-01 1.885360919808306834e-01 -4.949115248454570293e-01 8.482433168588715544e-01
3.591352929204481848e-02 1.157551737499647182e-01 -6.118613618785779806e-01 2.454879687727449800e-01 -9.474223128345148348e-01 2.052476999411450842e-01
-6.046764082171451893e-02 1.107475544753107471e-01 -6.252298747261316736e-01 -1.751147725939499475e-03 -9.087425425695411230e-01 4.173534770501953761e-01
1.125808307176105055e-01 -2.621324464351640002e-03 -8.086926408236998487e-01 1.891382270409581179e-01 -7.311676543387902738e-01 6.554544929440290213e-01
-2.368873934212693128e-02 1.154249969710499230e-01 -6.057075333197627920e-01 -7.894584769023135773e-02 -9.658393627649835000e-01 2.468235776140551840e-01
-9.088456582234301362e-02 -4.760343899362716458e-02 -8.195954577661721530e-01 1.360262058513890260e-01 -5.425856577417970117e-01 8.289135511828583658e-01
2.581891272038861623e-02 -7.570686646968366462e-02 -8.491788264024591193e-01 2.028084501231346981e-01 -5.798695024687963162e-01 7.890627938670297103e-01
7.547354921182336529e-02 1.023397903971441864e-03 -7.959824172565284073e-01 1.671501416622340752e-01 -6.908149216014966010e-01 7.034455019651580931e-01
-3.906344570156292106e-02 -1.778071386135930965e-01 -9.016185615066134584e-01 1.247679997968071004e-02 -4.237758711524668986e-01 9.056811472539519903e-01
6.597868955809758386e-03 -2.050285946584081420e-01 -9.097748925713549095e-01 3.912799431294015085e-01 -3.109331483589692149e-02 9.197462758158730933e-01
6.368520774206494484e-02 7.601537210947378886e-02 -7.019668515816114285e-01 8.949046764164386714e-02 -8.386518224385826059e-01 5.372658345006909864e-01
1.158845070647985670e-01 1.087902562446970214e-02 -7.947883545454893506e-01 1.591460212545056652e-01 -7.293388679631351845e-01 6.653851212622000633e-01
2.646799189200400859e-02 1.155315649320294014e-01 -5.495263663017903033e-01 1.871608762286458005e-01 -9.791303433514972898e-01 -7.921222846066534873e-02
-8.088143755341593855e-02 8.463278312761728095e-02 -6.655390924711569456e-01 4.927902940561445372e-02 -7.956299774190329632e-01 6.037752200057812102e-01
1.671663153720852335e-02 -1.936714244660737438e-01 -9.114253781742899241e-01 8.838130012926714851e-02 -2.501179186184100400e-01 9.641731030128639635e-01
5.034233928059275026e-02 -6.799110750546013063e-03 -7.972254290001985488e-01 1.812965169588123815e-01 -6.676185938846508350e-01 7.220920897213073397e-01
5.319542923048409949e-02 1.174844991006028863e-02 -7.800605962426517825e-01 1.790867597351750995e-01 -7.014404315134947776e-01 6.898617640699604703e-01
5.796965872784588802e-02 7.154128191502784340e-02 -7.078893806473800510e-01 1.722743181243793498e-01 -8.243491690900289770e-01 5.392309400761039484e-01
-3.345667671077606070e-02 -1.795154729303068408e-01 -9.024367956597677543e-01 -3.940601398025180696e-03 -4.296721968114202150e-01 9.029763424076346912e-01
-2.141408064233849690e-02 3.257962813759353315e-02 -7.391984871918270139e-01 -1.858323388124289268e-03 -8.032572023752163615e-01 5.956294262933337080e-01
-5.330326395192518801e-02 1.027409720528734000e-01 -6.408158263022417644e-01 -9.074113691752930949e-03 -8.597521196665899312e-01 5.106309363811740720e-01
-3.047110522789754292e-02 -1.122512554133435342e-01 -8.657508876311341695e-01 3.074785678288230809e-02 -5.006849405955156040e-01 8.650833252144699559e-01
6.531954301003226049e-02 6.249746201625478587e-02 -7.231547160022508969e-01 1.184980349355224671e-01 -8.217925587319996339e-01 5.573286338679653840e-01
-1.094047992245025525e-01 -7.929924480316027924e-02 -8.341448719939845713e-01 2.175485956510403163e-01 -4.594349956683640435e-01 8.611574149279970225e-01
-1.178533640915139374e-01 2.918888672789255248e-02 -7.335617357324343280e-01 1.118285480127688691e-01 -8.462704497174635687e-01 5.208845378626226763e-01
4.789646287900722887e-02 -1.166928255072257059e-01 -8.806237902025206843e-01 1.097658419925592321e-01 -4.309706075860830210e-01 8.956650017325376023e-01
-1.447525386887525863e-02 -3.897356496960396703e-03 -7.812336372372705728e-01 -9.753631841220765375e-02 -7.130792396349646678e-01 6.942655576882761359e-01
-5.276208010853164487e-02 -5.303188039364082479e-02 -8.276171393593769743e-01 1.661804027418952237e-02 -5.905447940223265135e-01 8.068337418517976811e-01
2.618904630410398213e-02 -1.439389631409532071e-02 -7.979872997107311239e-01 2.007203918882795590e-01 -6.674477644043452784e-01 7.170946981200299053e-01
-7.078737429667913972e-02 -1.033374822920961611e-01 -8.562532335164237951e-01 1.697204284471972302e-01 -4.759041718890573147e-01 8.629659294238042344e-01
-1.008630315025717122e-01 -4.908245037342099520e-02 -8.185447551523168386e-01 1.694380513362407359e-01 -5.350714468698698489e-01 8.276407998062694782e-01
2.669761426701193138e-02 -6.485519113260622415e-02 -8.410487540472727508e-01 1.975572147918190358e-01 -6.023170240590959290e-01 7.734244303177224555e-01
-5.657777730596918325e-02 4.644915878534357223e-02 -7.181658485671715830e-01 5.764150964400516219e-02 -8.141355115416575305e-01 5.778069099731880653e-01
-4.577059723413374331e-02 1.002854775779792387e-02 -7.685792187695019706e-01 -1.476087466641442560e-02 -7.738907789629306810e-01 6.331470435966914945e-01
9.608254693733753182e-02 3.762545163826641441e-03 -7.979570274278637854e-01 1.620123239708050611e-01 -7.149156114047280353e-01 6.801820899225317074e-01
-9.335357177794124939e-02 2.635304086283747974e-02 -7.429451445145874855e-01 9.093681947710068048e-02 -8.403046593016589849e-01 5.344329466072540447e-01
-1.291160071841978771e-02 1.714663065890410787e-02 -7.579769810917543760e-01 -4.265282352867946769e-02 -7.663522881428337374e-01 6.410030476552155410e-01
3.390831383961092488e-03 1.167271964572815512e-01 -5.560460044777865152e-01 -9.370394239576700091e-02 -9.945314143566117426e-01 -4.611764344941934879e-02
-7.592710122680097762e-03 -1.740898294235543320e-01 -8.980150027877342733e-01 -1.275963655118962647e-01 -4.194553662977381081e-01 8.987637972193720515e-01
3.498573979283284285e-02 1.174406780988177662e-01 -6.005594174264812235e-01 2.442721710003507019e-01 -9.614376517892647689e-01 1.263675124259394100e-01
1.528722679802314854e-02 -1.797587192337022910e-01 -9.063817150438665537e-01 1.852008316638613927e-01 -3.986933196484407915e-01 8.981894504049355854e-01
-2.233031641390188088e-02 2.724445987506003350e-02 -7.461805831680229373e-01 -1.980960656711707596e-02 -7.924898067216642472e-01 6.095633566167795170e-01
-7.377620531710341045e-02 1.196140201802554752e-02 -7.654996918046617083e-01 3.680383870191525353e-02 -7.889247786578673649e-01 6.133866407710868440e-01
-4.621738590109449735e-02 9.751748614713126595e-02 -6.494090622841901528e-01 -4.675637728505334899e-03 -8.243306603727065252e-01 5.660893045989556782e-01
9.208969099926923862e-02 -2.345095404625627614e-02 -8.246043446370679986e-01 2.191628110795029449e-01 -6.800378068983673474e-01 6.996543742653144049e-01
-1.333611284328715604e-02 -1.074849575473189323e-01 -8.626518827069586948e-01 -3.687015484536370485e-02 -5.098910435272843156e-01 8.594484949153938791e-01
4.632695978332243558e-02 6.252398532888628346e-02 -7.176893507532124961e-01 1.906163323864391579e-01 -8.021530116708960323e-01 5.658762759604379911e-01
1.816198768618677503e-02 9.744895388539440151e-03 -7.718821441198185918e-01 2.299360579784732184e-01 -7.102782624035017811e-01 6.653075974302281592e-01
5.395360746230686011e-02 1.594696305284307863e-02 -7.760306629098467912e-01 1.870187646677668736e-01 -6.955440188131417623e-01 6.937164403092994647e-01
3.347839116437756335e-02 -5.401256530175074094e-02 -8.341460098045657690e-01 1.966903683720830631e-01 -6.238868379081927706e-01 7.563584550162512077e-01
-9.230662938993391964e-02 -3.045629058617218936e-03 -7.814702081355087149e-01 7.484821274063586938e-02 -7.430908543463632387e-01 6.649915241838233460e-01
-7.084526113503400446e-02 -1.403955904942181254e-01 -8.780456115157692087e-01 8.294851632426356036e-02 -5.418542562408759089e-01 8.363692418024771813e-01
4.200284258505241480e-02 9.916749706992471214e-02 -6.595641952343739289e-01 2.150877372984995872e-01 -8.474424143795675768e-01 4.853644193534799589e-01
1.036490029574468341e-01 5.405729332660784729e-04 -8.031344637723154545e-01 1.603429252810877337e-01 -7.134479174675812940e-01 6.821159838132184738e-01
4.295732660763913052e-02 -1.748220518068395457e-02 -8.052334999185066788e-01 1.871135359771453344e-01 -6.570250655227987124e-01 7.302784317839954298e-01
3.450453283680296468e-02 1.120294614220913310e-01 -6.249281843586673713e-01 2.426206920069784723e-01 -9.299675362514170374e-01 2.762165478904627935e-01
7.466829522899363913e-03 1.164733525956593851e-01 -5.732249310086779959e-01 -1.187731369588646280e-01 -9.924898746394315019e-01 2.927098691804626285e-02
-6.274076502474140726e-02 5.003389202802752470e-03 -7.746668749605580828e-01 8.644851518711247403e-04 -7.404269561795234766e-01 6.721362772742949243e-01
-5.785360138834174520e-02 -5.991856877982701390e-02 -8.323150961684649962e-01 3.317724163574509860e-02 -5.541656002896855338e-01 8.317450078557826476e-01
-3.536582398394119697e-03 -7.314644070027739604e-04 -7.757834090433519680e-01 -1.765000352361923985e-01 -6.956790053458008494e-01 6.963321470984230599e-01
-8.732224053945841780e-02 1.931955242636997083e-02 -7.541972559321515890e-01 6.850134189245475624e-02 -8.254267450795207406e-01 5.603376256029579672e-01
5.396916285141929899e-03 -1.868681090010352874e-01 -9.058074551737937963e-01 3.510618078947331244e-01 -3.270055074733578815e-01 8.773955807500817272e-01
2.166060451834176184e-02 -5.696736905148669372e-02 -8.335331022273416712e-01 1.974828500707761503e-01 -6.190449262164857691e-01 7.601209793536480852e-01
1.020900747846616337e-02 -4.149271068329642848e-02 -8.177163380411699434e-01 2.028936140282300848e-01 -6.356203791410206527e-01 7.448630176127613023e-01
7.549051341147115790e-02 -1.140263662306130465e-01 -8.821857005945001884e-01 7.984784052015746203e-02 -3.928079115503650964e-01 9.161475137704122584e-01
3.136906358449390725e-02 1.175950516103708432e-01 -5.901472856135530076e-01 2.393342248251130178e-01 -9.698973365721557105e-01 4.492533068994174206e-02
1.069790371569308007e-01 8.283982755937092934e-02 -6.914591800218324869e-01 -3.019153685597549680e-02 -8.403952471268043567e-01 5.411324234500750618e-01
3.229466527784462249e-02 9.385316052645836793e-02 -6.644057272632138966e-01 2.580713414732746513e-01 -8.485374030240274701e-01 4.619344741188124992e-01
8.985034562022224669e-02 9.062551611735852886e-02 -6.802572600176963746e-01 -1.277421336456465925e-02 -8.324751493640254463e-01 5.539151064596993246e-01
-5.820577475224549338e-03 2.028961153231125674e-04 -7.754288515404490489e-01 -1.765000352361923985e-01 -6.956790053458008494e-01 6.963321470984230599e-01
1.752181101251562220e-02 1.082161759460554817e-01 -6.188239725854244311e-01 3.696057081639644304e-01 -8.945143870357433746e-01 2.514669598151668684e-01
-6.885875824443193904e-02 7.236534631696596442e-02 -6.819097953314766647e-01 7.648671069566768954e-02 -7.890652292870792284e-01 6.095292011192623427e-01
3.076869590012953209e-02 8.852970089063265380e-02 -4.725374582420295844e-01 -3.228968594234165376e-03 -8.899167500450954060e-01 -4.561115562567916726e-01
-2.502384475979047354e-02 1.099661863437781523e-01 -6.238670902723640888e-01 -7.190701984492584020e-02 -9.438118143462845833e-01 3.225657136110343104e-01
2.515845260450436452e-03 1.118565505805762389e-01 -6.093313625777977416e-01 -1.204859116349781961e-01 -9.603754811135821745e-01 2.513206723955348498e-01
1.385425194615969198e-02 -2.593465144909265843e-02 -8.051568256075208874e-01 2.027456084518911295e-01 -6.528038295717821793e-01 7.298913469482207761e-01
8.516987032980847389e-03 -1.685933133997124800e-01 -8.993115055877064501e-01 3.259889318592957830e-01 -4.017854248083116975e-01 8.557451073286016507e-01
-4.768226001133255704e-02 -1.534158095200764405e-01 -8.881695304921309875e-01 6.546635036677263264e-02 -4.834552875093617308e-01 8.729176031842267314e-01
3.967890082602294061e-02 6.225633094782237476e-02 -7.155429618504491884e-01 2.172602047739486675e-01 -7.973975386201793691e-01 5.629877164060166361e-01
9.991504142237631059e-02 2.639657244315901652e-02 -7.757945621788168156e-01 1.381453084267691978e-01 -7.097338168235456379e-01 6.907921416871755094e-01
-2.223279970113490461e-02 -1.027599196480727950e-01 -8.601604747998305989e-01 -5.107586576776810237e-03 -5.203463800351383339e-01 8.539400197576456630e-01
5.294407237649099984e-02 -1.468232059837669967e-01 -8.940040231703715312e-01 -3.338811654313336014e-02 -3.137077563516981193e-01 9.489323881491692481e-01
-4.550082914282365526e-02 9.996232830074669451e-02 -6.455842742347870367e-01 -1.115100986028078056e-02 -8.718026253766846256e-01 4.897303721083834938e-01
3.704106029591158061e-02 9.136770062125305902e-02 -6.705649350203123360e-01 2.050933992023287467e-01 -8.338495897005404611e-01 5.124759110044826427e-01
1.011997279538421335e-01 -2.628337818815847104e-02 -8.302138505470559871e-01 2.220880040514486564e-01 -6.775229467444281450e-01 7.011701470336501041e-01
-2.763069604270704249e-02 1.164220069825272347e-01 -6.029038974107525650e-01 -7.007693796309102940e-02 -9.656277285916895492e-01 2.503044397140641864e-01
-9.760370269292946432e-02 3.419109430076253120e-02 -7.297260788549031485e-01 1.053087426935850057e-01 -8.408173024907040771e-01 5.309767721327857126e-01
-5.821257215444369110e-02 3.328630154462503075e-03 -7.765176176478036929e-01 8.644851518711247403e-04 -7.404269561795234766e-01 6.721362772742949243e-01
7.550267508890491641e-02 1.504861301085477950e-02 -7.821129576427711116e-01 1.493126228694537927e-01 -6.970224432637037726e-01 7.013312015293065027e-01
2.297535839912351330e-02 9.460610785081556562e-02 -4.884547585308672280e-01 -4.187326385955330577e-01 -8.494189341650250080e-01 -3.211704401976862577e-01
4.809524335357265312e-02 -1.639671981624740149e-01 -9.002208053151558032e-01 -8.098360057560248515e-02 -3.324096530470911359e-01 9.396517860350842577e-01
8.508355209975264344e-02 -3.403789005912414602e-03 -8.026649703965615945e-01 1.668296497174176773e-01 -6.959341154059198731e-01 6.984579980137269883e-01
-2.017664135176479995e-02 -8.909562959689126815e-02 -8.514942674026091396e-01 -5.697432441767836392e-02 -5.535121556351786376e-01 8.308900167418350469e-01
-2.829631040561990038e-02 -9.168565800999678439e-02 -8.534087032187704924e-01 -1.995313542429543244e-02 -5.284184695906664064e-01 8.487495469113357505e-01
1.655658550501114962e-02 -2.381428465993661731e-02 -8.040110423317972099e-01 2.027456084518911295e-01 -6.528038295717821793e-01 7.298913469482207761e-01
-4.457404633230541147e-02 3.990273181053349827e-02 -7.284905868773633442e-01 1.845038264592691046e-02 -8.180262885379998572e-01 5.748848359810544428e-01
1.343006905917998837e-02 3.159397498478671434e-02 -7.447418607640216015e-01 2.574812981124490197e-01 -7.520227596236759293e-01 6.067661412194311765e-01
8.451810966405710890e-02 7.733940188934483595e-02 -7.018389642484810231e-01 1.678612695390513387e-02 -8.654258028327562746e-01 5.007558344474547507e-01
9.748527340133114616e-02 -6.036722146065238472e-03 -8.084402541173760781e-01 1.900793885647673875e-01 -7.126500838707565677e-01 6.752774866688862065e-01
-4.549870764646648386e-02 4.936927042012632938e-02 -7.151566213514597425e-01 5.764150964400516219e-02 -8.141355115416575305e-01 5.778069099731880653e-01
1.333695967994383974e-02 1.134257221111897168e-02 -7.684419140897273959e-01 2.449499627630604970e-01 -7.145824683608803518e-01 6.552643830192869112e-01
5.044245010469432244e-02 -2.300612533236497462e-02 -8.121211768721761093e-01 1.871135359771453344e-01 -6.570250655227987124e-01 7.302784317839954298e-01
-8.528034454795023478e-02 -3.540337856146741347e-02 -8.115850301610354478e-01 1.141634019805759792e-01 -6.065175732143219811e-01 7.868310816372412475e-01
2.493147578616788929e-02 1.065090405328930762e-01 -5.182519335442880015e-01 5.355613334896290878e-01 -7.934230058537767860e-01 -2.892299981896211958e-01
-8.793190609011278247e-02 -4.944864676989002561e-02 -8.212878204661152592e-01 1.360262058513890260e-01 -5.425856577417970117e-01 8.289135511828583658e-01
9.664792825411848420e-02 -5.121979568521332210e-02 -8.505204917661087771e-01 2.395795778087190520e-01 -5.756326204001228630e-01 7.818239649871856489e-01
-6.149799820427139657e-02 3.890519294432374930e-02 -7.284713400983880982e-01 7.056588351886645960e-02 -8.267446370162158109e-01 5.581341785342724959e-01
2.851862260502037796e-02 6.823526967781022579e-02 -4.389849961742414153e-01 -1.130435164797038566e-01 -8.284153788727116607e-01 -5.485883004850580225e-01
6.953427163012840251e-02 -1.566252980432892780e-02 -8.105145078231835720e-01 1.916798892781132191e-01 -6.668561593860836689e-01 7.201122709238972908e-01
-2.031281342237121687e-02 -8.104299561698402599e-02 -8.461391994737875732e-01 -5.697432441767836392e-02 -5.535121556351786376e-01 8.308900167418350469e-01
6.070623357314785390e-02 -2.810587440953744506e-02 -8.195292110628393800e-01 2.071067000491613741e-01 -6.414057601589959745e-01 7.387188001057012343e-01
-8.773298505608807807e-02 9.136166012087676425e-02 -6.564727439150773725e-01 4.047775547149757430e-02 -7.766797695526312939e-01 6.285937375440998620e-01
-7.058666093751872483e-02 -6.230503963346047114e-03 -7.867133409657511844e-01 4.274005636805537633e-02 -7.012423085371107812e-01 7.116407185505893018e-01
1.658273710336956655e-02 1.147325615727064069e-01 -5.445125521535707502e-01 -2.035235510585923016e-02 -9.940101172666072626e-01 -1.073762935347954139e-01
1.742180210286286765e-02 1.133168565124451216e-01 -5.851131430882304807e-01 -5.067749206077685198e-01 -8.516597095851021759e-01 1.336222994578727119e-01
2.358079150067797849e-02 5.632540429687087069e-02 -7.169566825036073343e-01 2.534462212172297058e-01 -7.855915268745596869e-01 5.644563453922766261e-01
1.133339838007752787e-01 5.095688719960743407e-02 -7.508622666593461892e-01 1.301287375296197590e-01 -7.911154890656875160e-01 5.976644498623835400e-01
-3.082728273313196585e-02 -6.415246904796159666e-02 -8.350640164597833426e-01 -5.942733576415590996e-02 -5.704818883530807794e-01 8.191573761036868850e-01
-1.899825434440808106e-02 -4.697909783160453268e-02 -8.209322494725566077e-01 -1.094063281145033206e-01 -6.070839008343612564e-01 7.870701320188926431e-01
-8.563885718190680785e-02 -5.536545795134249597e-03 -7.848814912717274606e-01 7.805166642380598208e-02 -6.907132778797442363e-01 7.189041000919985658e-01
9.563107231550301013e-02 9.335787323565530871e-02 -6.762057786113064850e-01 -2.890294889893767552e-02 -8.225173149964438712e-01 5.680051813812846406e-01
4.777310343115028640e-02 1.201715097253279602e-01 -6.021495847753388642e-01 2.201564002922442864e-01 -9.656013324509684637e-01 1.383662754404977602e-01
-5.431056384621115417e-03 -1.237840563499369995e-01 -8.712727438211329556e-01 -1.716353290850934354e-01 -4.822008276640557534e-01 8.590830434887836153e-01
-6.881127945228009135e-02 1.305532812477873568e-02 -7.644852409436544427e-01 4.634784288717876122e-02 -7.834022589137035197e-01 6.197844610738575399e-01
4.966884610746467171e-02 1.063829764547929990e-01 -6.490915579081415476e-01 1.796602493057352368e-01 -8.752019620769194708e-01 4.491589032804663151e-01
3.021211213045653377e-02 9.760680311244630813e-02 -6.564471317969664543e-01 2.711754727551173305e-01 -8.411279894395216061e-01 4.679397058996664360e-01
-1.051985515962415400e-02 -1.960821410777139062e-01 -9.076224542458875000e-01 -1.369432961699381668e-01 -3.277429243007335402e-01 9.347893394797118782e-01
-7.029660439472230904e-02 7.156937323442716381e-02 -6.827597932633334699e-01 7.648671069566768954e-02 -7.890652292870792284e-01 6.095292011192623427e-01
-2.417937601948800044e-03 -1.954258149962072658e-02 -7.934031586928760316e-01 -2.274167486768409741e-01 -6.633287119613462401e-01 7.129352300938396336e-01
1.615426168134146551e-02 2.696132530322051246e-02 -7.516395539051590191e-01 2.574812981124490197e-01 -7.520227596236759293e-01 6.067661412194311765e-01
4.315872283247819191e-04 2.726804941199944751e-02 -7.435373304697157071e-01 -2.158200190164347720e-01 -7.491578884047935816e-01 6.262460998941363766e-01
-7.545644125616082776e-02 -1.270860487518108706e-01 -8.689057754485459695e-01 1.272115945371947998e-01 -5.286062618719349349e-01 8.392810197574370745e-01
9.935907351907753704e-03 4.837812334792945812e-02 -7.207603574934413615e-01 3.285380935077362730e-01 -7.606547627563080560e-01 5.598812847474423648e-01
2.222020412504182793e-02 4.133182889743913097e-02 -7.363761311209316984e-01 2.460550401680157429e-01 -7.639243280721582652e-01 5.965538854013255898e-01
1.328407107604244637e-02 -1.311451242626096858e-01 -8.816283191793474749e-01 2.627590784710429062e-01 -4.751578602562209763e-01 8.397515552339142042e-01
3.329145423283794841e-02 1.180335507506423270e-01 -5.909217869218259533e-01 2.393342248251130178e-01 -9.698973365721557105e-01 4.492533068994174206e-02
-2.293921933114850993e-03 4.097157917254957982e-02 -7.270945954515734000e-01 -1.116330485868326644e-01 -7.865121210614434144e-01 6.074016347414935568e-01
-7.160020706198438889e-02 -7.030280885100535782e-02 -8.373748867955528308e-01 1.028736755460586128e-01 -5.240407314096591218e-01 8.454574612026755087e-01
1.038215700455086959e-01 1.928140997393658004e-02 -7.837611884802035966e-01 1.386505035147025944e-01 -7.014397410176586023e-01 6.991125285647505905e-01
8.186538708369392459e-02 4.515448532878456669e-03 -7.940627007887794964e-01 1.504241347461259537e-01 -7.021580383238443801e-01 6.959501913952537144e-01
3.507606069352744299e-02 7.043264202180081479e-02 -7.019226022814933907e-01 2.080397583531500283e-01 -8.052586014168395812e-01 5.552279205772695514e-01
1.861786627806958153e-02 -1.515890396801601592e-01 -8.939216460004707487e-01 2.252466825296748631e-01 -4.390021170390146499e-01 8.697936957949505832e-01
-3.766127687735899843e-02 3.446212553362116432e-02 -7.364540987238246128e-01 1.845038264592691046e-02 -8.180262885379998572e-01 5.748848359810544428e-01
-3.873446106501893943e-02 -1.588861038850494789e-01 -8.916499982853948181e-01 6.100175092339012520e-03 -5.055692746804668625e-01 8.627644501037982083e-01
-6.743384113180592165e-02 -1.126337838327831076e-01 -8.621551300867821288e-01 1.695619801924437564e-01 -4.873962029448116184e-01 8.565592076606246552e-01
-7.164524411434637641e-02 -2.143197224408447885e-02 -8.013232094734117350e-01 5.224766721855371443e-02 -6.659365916385461270e-01 7.441764825544109341e-01
-9.382898132526473756e-02 -1.312631742205095861e-03 -7.793843951373808920e-01 6.944584772273368345e-02 -7.398791197283735022e-01 6.691458454059456828e-01
8.402767696468471659e-02 3.224213054801695205e-02 -7.665016104691367849e-01 1.533732407682106558e-01 -7.119041907880444553e-01 6.853240636039826805e-01
-4.146325757179922938e-02 -1.629633437282315966e-01 -8.939523521928318672e-01 2.238536519258274918e-02 -4.755867077887558358e-01 8.793839768837314885e-01
7.273238218767855146e-02 9.115694531265818024e-02 -6.793497566741357740e-01 2.220490359094969696e-02 -8.287789005223875627e-01 5.591354722296009161e-01
6.921741486930661769e-02 4.275319247779534731e-02 -7.511330135014261389e-01 1.732107193941482548e-01 -7.657408744168495707e-01 6.193859539368650191e-01
-2.236616229144073112e-02 9.030608769566314184e-03 -7.683287332188605268e-01 -8.255533886466527582e-02 -7.493614460851403258e-01 6.569947025251631212e-01
5.533938799898609207e-02 5.082882883506260885e-02 -7.368992696879053117e-01 2.019381514149969359e-01 -7.844758071686367407e-01 5.863605469079664623e-01
-5.136036973775487402e-03 -2.079594275423018446e-01 -9.092011432933279069e-01 -2.141001316174195312e-01 -1.264326644085345119e-01 9.685948146732784592e-01
