-5.068903317522931856e-02 1.050421587170275728e-01 -6.620560297761961532e-01 -3.918728865432293262e-01 -7.920086713356988550e-01 4.681430393814887125e-01
8.282985308884061038e-02 4.339140812023191407e-02 -6.911572316155036866e-01 -2.799587544705731124e-01 -8.248249278911491400e-01 4.912096641197584157e-01
-1.524910727386044260e-02 9.561252283152788661e-03 -7.732417503530593095e-01 -4.308720954619554289e-01 -7.005064984866667954e-01 5.688935602818623316e-01
3.048389104531840088e-02 -5.191504428392876291e-02 -8.066535034852072572e-01 -2.341831310462229865e-01 -6.069374691695788027e-01 7.594637382070418274e-01
1.455705043775067618e-02 -1.488423337467328633e-01 -8.744054914182516347e-01 -5.463744745973950767e-01 -3.903048974401374660e-01 7.410377996719628158e-01
-3.678437265736757278e-02 -3.423665259881841089e-02 -8.320249138400530597e-01 -4.068703454174709133e-01 -5.866971924007223782e-01 7.001734973911662996e-01
4.584736716878562435e-02 -1.708464011282866402e-01 -8.771136801014394191e-01 -2.772970123705602585e-01 -4.005002900476642425e-01 8.733303410520546484e-01
5.961306480076387915e-02 2.284824812605168801e-02 -7.270419032228757628e-01 -2.149015130054531264e-01 -7.263133581878052913e-01 6.529060004517646121e-01
5.231386284583327412e-02 -8.320312799377820034e-02 -8.243487230342099181e-01 -2.378304500796981358e-01 -5.671880745987324390e-01 7.885013411833049490e-01
3.636330945729891045e-02 -1.323850822001582939e-01 -8.602555951303930692e-01 -1.931554647729274155e-01 -4.771368342711979627e-01 8.573397271852121193e-01
-9.580892453411976595e-02 1.998451732387375446e-02 -8.114043889528008702e-01 -3.103962913692864811e-01 -7.045287151731869368e-01 6.381954495298530761e-01
8.823142639462980275e-02 3.540573631268514876e-03 -7.363737531676433079e-01 -2.693119170668197837e-01 -6.775558238809819001e-01 6.843896527934637541e-01
-3.672863968135886559e-02 5.262080879927941157e-02 -7.296616146811955028e-01 -3.511874787000838771e-01 -7.705281599271224247e-01 5.319339334575309275e-01
1.627454107228526459e-02 3.302918097359205246e-02 -7.274773789818073100e-01 -1.278405386574651414e-01 -7.709046834417044858e-01 6.239893955216020416e-01
8.724175745249143632e-02 -3.075216104208894959e-03 -7.433267368938102360e-01 -2.677797253359831542e-01 -6.787524579579142792e-01 6.838048840971194808e-01
1.131020466812623915e-01 -3.094858990607271543e-02 -7.620227651877854447e-01 -2.219193372826458455e-01 -7.206057698850806270e-01 6.568707118972206827e-01
-3.256047951832723511e-03 -1.692321097827111653e-01 -8.957058414851095662e-01 -4.678348818824790145e-01 -4.156317750145377410e-01 7.799876607307782983e-01
-9.788441340682423053e-02 6.047416312578145214e-02 -7.529842852460250091e-01 -2.706810812497694729e-01 -7.927022101050621439e-01 5.462187824928813606e-01
-7.895527842982848210e-02 3.602456141733265810e-02 -7.812751060443466899e-01 -3.112798973195277097e-01 -7.957224991255722468e-01 5.195483903450167640e-01
8.080962486176909709e-02 6.803612089643770733e-02 -6.449561410174551312e-01 -3.965407742544785896e-01 -7.939511291115786129e-01 4.608655106819209424e-01
3.097062433557203412e-03 4.494302997760004498e-02 -7.148307520990209163e-01 -7.076343245624470979e-02 -7.816413142561648986e-01 6.197010508905931303e-01
-6.390373490146639135e-02 3.108967676972902369e-02 -7.796126556038416311e-01 -3.373327029434660673e-01 -7.838441555035471353e-01 5.213396085161631222e-01
-1.719136656010597161e-02 7.006954683172174347e-02 -6.903854353977901814e-01 -4.249256984190390440e-01 -7.597314592918155141e-01 4.921851893194471583e-01
-1.112827953452159499e-02 -1.556348972122181262e-01 -8.927879809522396570e-01 -4.254905868663904633e-01 -4.554959284288264132e-01 7.819726463712499687e-01
-3.546511162022285973e-02 1.130117233045193487e-01 -6.271786627492978994e-01 -4.018366245744819376e-01 -8.850094399910257703e-01 2.351289396849269020e-01
-8.185538543901546213e-03 -1.055974681380301428e-01 -8.635297506449743921e-01 -4.032555110394634990e-01 -4.550966422637158781e-01 7.938967432963763837e-01
8.267638641289636048e-02 -1.195143831686147767e-01 -8.380608384978600611e-01 -3.026974405314174499e-01 -4.402669569207259825e-01 8.453042447187240072e-01
-1.100152539077042524e-01 4.195005398898412480e-02 -7.894305488154280681e-01 -2.744743226555854676e-01 -8.133293185989218799e-01 5.129905123003455358e-01
7.104102688549820965e-02 -1.085693449508903785e-01 -8.359340691582231031e-01 -2.722818726625167995e-01 -5.100138075622033806e-01 8.159341259656301970e-01
-6.800712473173756156e-02 6.636443103735928384e-02 -7.289668797311240622e-01 -3.064448538972959768e-01 -7.733004122148181558e-01 5.550657834781899114e-01
-2.384708395949289989e-03 1.036740655596824212e-01 -6.285524395553944155e-01 -5.726580006100143866e-02 -9.141836416797173293e-01 4.012342176691607309e-01
-3.429484760061072418e-02 4.026869889369301403e-02 -7.461825874143821480e-01 -3.645533164394781367e-01 -7.642749611047477964e-01 5.319630281338295630e-01
-2.512708359422263782e-02 -1.605721929047757290e-01 -9.027750656385142847e-01 -3.974469397482142674e-01 -4.338386678195472190e-01 8.085913308893066809e-01
6.641719033347082135e-02 1.748106920464544134e-02 -7.304443841341236032e-01 -2.436200465876092180e-01 -7.006688665837750296e-01 6.706060037763299508e-01
-3.345421879931599618e-02 5.981514268954144647e-02 -7.170755510667006227e-01 -3.637898391108800311e-01 -7.660084981029811058e-01 5.299886166642591157e-01
-1.933801977415183088e-02 4.744579784257575705e-02 -7.250429622692668996e-01 -3.927995913536139749e-01 -7.563440711138654793e-01 5.231176991111443630e-01
6.638163809071613575e-02 -4.613179069691253874e-03 -7.527374911460746887e-01 -2.483755503529278819e-01 -6.689982276773223102e-01 7.005361927491554619e-01
-6.737756222433489983e-02 -7.992770086389412720e-02 -8.714084678106351900e-01 -2.321237961184503817e-01 -4.532965769397519495e-01 8.606048783328290597e-01
-7.729325223221402731e-03 8.693455504960559410e-02 -6.584257352014906139e-01 -3.038718728044735237e-02 -8.367899443878191734e-01 5.466801695878618084e-01
-6.079863081207926429e-02 -7.138634513289636441e-02 -8.650593327237977581e-01 -2.375208749964561328e-01 -4.558857209144062672e-01 8.577598984606763510e-01
1.078871115763214844e-01 -8.375912892273577881e-02 -8.090290936803693489e-01 -2.208145873251947111e-01 -5.495864722687475723e-01 8.057267697697507725e-01
8.392955927006032213e-02 -8.432175199170686974e-02 -8.160240773862891261e-01 -2.239985605936732904e-01 -5.572446279739887709e-01 7.995642997571198451e-01
6.446505603661228934e-02 3.147256640467255284e-02 -7.154150724919243753e-01 -2.286999766910411680e-01 -7.533970693200777724e-01 6.165137278288579381e-01
9.972476618295079975e-02 3.408663614213024856e-02 -6.972096975704304977e-01 -2.592768337849107874e-01 -8.261051381515744918e-01 5.003257180897657808e-01
-4.931923333681116628e-02 1.169585673617138388e-01 -6.346418293034022939e-01 -3.892449327187759711e-01 -8.591468460448308253e-01 3.321973499051057432e-01
-4.591058774549073435e-02 1.030847644167720845e-01 -6.613878496262138862e-01 -3.889264174076117464e-01 -7.931241642549766713e-01 4.687113204492982521e-01
-3.119920056951122969e-02 9.004602001952520529e-02 -6.707156287667377370e-01 -3.896387107912198111e-01 -7.778494200039656192e-01 4.930841255328041739e-01
-4.523238960574996886e-02 5.182307127589218937e-02 -7.364197546744427614e-01 -3.449063022357728436e-01 -7.752396899194654578e-01 5.291909540530869149e-01
-1.010548622001356152e-02 1.054261284802160137e-01 -6.250850473846243371e-01 -9.656749663725943192e-03 -9.143078360504638402e-01 4.049048383542112051e-01
-6.171054236527192399e-02 9.377365672020913923e-02 -6.874018628807603282e-01 -3.571131577181148042e-01 -7.566499241500782569e-01 5.476779024830905618e-01
3.059823282742248421e-02 9.205331490534875150e-02 -6.406298766142889400e-01 -2.090697160495716411e-01 -8.385841688039673558e-01 5.030570998031045349e-01
-8.902436182857108304e-02 1.251186829758709484e-01 -6.556999018134372914e-01 -3.345040308365206383e-01 -8.716451994422427241e-01 3.582480978922469306e-01
6.777829101223052655e-02 -1.086577436224388793e-01 -8.370781178588846405e-01 -2.722818726625167995e-01 -5.100138075622033806e-01 8.159341259656301970e-01
-9.053006577429164106e-03 3.219465421956037299e-02 -7.386985118136253359e-01 -4.632886177705344832e-01 -7.194904787772038457e-01 5.173945376530539875e-01
1.142292798086053385e-01 1.400490227192924438e-02 -7.150174053994816648e-01 -2.759719664646462234e-01 -7.141341463587185245e-01 6.433132166605476376e-01
2.755719550256972850e-02 7.041960239695978230e-03 -7.537847403165660598e-01 -1.922481403190908489e-01 -7.066239882385383364e-01 6.809722401021297555e-01
1.465050142875724132e-03 6.353414366787714374e-02 -6.909189562484310265e-01 -5.672540623111910901e-02 -7.988355858352005345e-01 5.988688797151228149e-01
-1.143132974705974095e-02 8.855063471465834946e-02 -6.557848081988234545e-01 5.844915380488206746e-02 -8.276983493209861820e-01 5.581210791134908478e-01
1.603803414598114693e-02 -1.709162177745763844e-01 -8.842105927806801491e-01 -6.137459814644395939e-01 -3.436628466100893897e-01 7.107824689003676699e-01
6.331470089960980485e-02 6.122357751016481442e-02 -6.717338735339445366e-01 -3.185871318489152393e-01 -8.393144846699991390e-01 4.405149659698471276e-01
8.009388383953945645e-02 -5.161426066251821598e-02 -7.912030808153777128e-01 -2.118980623872180336e-01 -6.399804420051112830e-01 7.385961311890855141e-01
5.409629506135447963e-02 -5.468041454729663520e-02 -8.014483343978583418e-01 -2.289205517680340529e-01 -6.125896571854646533e-01 7.565244826756193364e-01
4.715744705112498783e-03 -4.193077797284905373e-02 -8.091113836240488855e-01 -5.512733628188705159e-01 -5.583266636247665726e-01 6.199750125061578299e-01
-5.011975295596389707e-04 2.196593449782387186e-02 -7.448074216346985965e-01 -5.190310579211786512e-01 -6.792637899502326215e-01 5.188520642492121526e-01
-8.885956753781530659e-02 6.827560034169509462e-02 -7.373562189269111666e-01 -2.789862854675330683e-01 -7.740276009558544335e-01 5.683730513312120758e-01
3.539338821925842177e-02 -1.873508183262429239e-01 -8.873496321408803622e-01 -1.628416739499554677e-01 -3.455264877782354138e-01 9.241720810914020312e-01
-9.416943743997050267e-03 1.086450181567364115e-01 -6.173064332056522607e-01 4.655601252001811442e-03 -9.393506491764046507e-01 3.429266441512667796e-01
3.061655203643118620e-02 6.392954262324966608e-02 -6.835569148837997711e-01 -1.702797139307008212e-01 -8.062638688901930806e-01 5.665186605451724144e-01
-9.431843687415732147e-02 -2.862962020326659945e-02 -8.506237505919512776e-01 -2.545488508558140794e-01 -5.025107878760918245e-01 8.262492303150023032e-01
4.020328897745029106e-02 9.614877589340573016e-02 -6.282337605007453085e-01 -2.804888051118582526e-01 -8.574722994137774501e-01 4.313551737779101058e-01
-4.595161181082021984e-02 -1.347770831966109140e-01 -8.966011123812291927e-01 -3.025266730036004770e-01 -5.136551474862197653e-01 8.028922727130224368e-01
3.599457292989004936e-02 -2.266566749354264887e-01 -8.905939638413836734e-01 -3.579575433600736822e-01 2.212785769206639663e-01 9.071395639853807591e-01
1.320790456370342716e-02 -1.191799359783592277e-01 -8.589158094179054626e-01 -5.107381765467187140e-01 -4.430814686515364142e-01 7.367668064966893526e-01
2.711718389031579635e-02 4.152174656720438242e-03 -7.569076036327742063e-01 -1.922481403190908489e-01 -7.066239882385383364e-01 6.809722401021297555e-01
-1.063711558037043307e-02 1.777790225713795497e-02 -7.592965232433359635e-01 -4.482715301708137812e-01 -7.169907891518565446e-01 5.338322241207578145e-01
-1.989991084628086205e-03 -1.787733003181933289e-01 -8.995835953155664200e-01 -4.579570338258188156e-01 -3.768540234339443629e-01 8.051437139983805835e-01
7.276674229585453069e-02 -1.669076122706190657e-01 -8.615857656962088162e-01 -5.007152176413314226e-01 -2.494293191364040929e-01 8.288964263269230637e-01
-9.281142894447992620e-02 1.051906558558743099e-01 -6.914317314008054938e-01 -3.560668724508613825e-01 -7.464300145200241099e-01 5.621909068694534994e-01
6.781676833771536905e-02 4.141642571802797018e-02 -7.013027778794976852e-01 -2.221990991400967785e-01 -7.953850061186956699e-01 5.639062443198261665e-01
-4.771001837317085000e-03 -3.022936835530635677e-02 -8.065837597906795331e-01 -5.149199940944825249e-01 -5.964525991609057609e-01 6.157123489389650928e-01
-2.106566829130808796e-02 -1.525326950305938567e-01 -8.961302042178677096e-01 -4.115817332471611856e-01 -4.747033431337682186e-01 7.779827844334903375e-01
-5.028984791642281821e-02 -4.627103365678874453e-02 -8.470194421329902967e-01 -3.491808133735676001e-01 -5.281733641053769635e-01 7.740191580454468534e-01
9.759270898624573809e-02 -2.344580423912162245e-02 -7.596723957620878931e-01 -2.556821401232868274e-01 -6.792381479919147313e-01 6.879405363361643655e-01
-7.705720365191074533e-03 8.072164474113216470e-02 -6.676453968729053612e-01 3.844515231291432272e-02 -8.129159650238982904e-01 5.811106642223157204e-01
7.393620813373179279e-02 4.731168843665044949e-02 -6.892803139524633638e-01 -2.578298950858217697e-01 -8.359564647178265862e-01 4.844590119881215240e-01
5.972549448438709734e-04 1.034853404361936041e-01 -6.285568382435584578e-01 -5.726580006100143866e-02 -9.141836416797173293e-01 4.012342176691607309e-01
1.175699920081409167e-01 -3.372474786952863596e-02 -7.634752636800237191e-01 -2.244688794839863610e-01 -7.035659779723973939e-01 6.742467180364671853e-01
2.177640067336617663e-02 -1.800794077268781379e-01 -8.851977175811235332e-01 2.355009578173749007e-01 -3.593283776204052593e-01 9.030074284875990731e-01
-7.446991376323984502e-02 1.038264074726426150e-01 -4.918578747632267878e-01 -1.880471375234737952e-01 -8.682480322267018824e-01 -4.591117822531763371e-01
2.533462984852638458e-03 7.227691821056322907e-02 -6.787671563867287983e-01 -9.818587793456472201e-02 -8.102684413880475445e-01 5.777755500752891349e-01
8.713974936895839407e-02 -2.102886703489942680e-02 -7.611311759440988478e-01 -2.521937982836101044e-01 -6.798322260247690041e-01 6.886410041273268723e-01
-3.851326851255482131e-02 1.057449975883459764e-01 -6.494040944574361873e-01 -4.267503258297112856e-01 -8.170433052406937957e-01 3.877169028628977276e-01
1.132359098489123667e-01 -3.433170856754461098e-02 -7.655515117736602093e-01 -2.244688794839863610e-01 -7.035659779723973939e-01 6.742467180364671853e-01
1.027934843651296705e-02 -1.387171960954572056e-02 -7.786265857465423101e-01 -9.656908485602014314e-02 -6.746380177021782387e-01 7.318045893002762536e-01
1.003893475831851567e-01 -3.394764876820795946e-02 -7.692633048910439975e-01 -2.275031336862911313e-01 -6.858716348984169597e-01 6.912470069408547246e-01
-5.201891569961517720e-02 1.250292782200883579e-01 -5.920584730006170915e-01 -3.106483930929749282e-01 -9.505156158808008016e-01 4.199980415983928586e-03
-6.349520111558717983e-02 -1.335696147717469265e-03 -8.175407387204537413e-01 -3.252237621264092438e-01 -6.677283557244960699e-01 6.696031268668073411e-01
7.148163632635420872e-02 4.319979040580954055e-02 -6.969733026185874758e-01 -2.703265327986060229e-01 -7.930166272956480356e-01 5.459379035180826900e-01
6.939881553910148826e-03 -8.543220095057955932e-02 -8.417287095677498110e-01 -5.339380166874313494e-01 -4.876223756914919716e-01 6.907493127473074424e-01
-9.992628912890318127e-02 4.370249496763087271e-02 -7.812517922684923954e-01 -2.853435502306903571e-01 -8.061888393569701661e-01 5.183035921523279077e-01
7.558606015850341531e-02 1.643753065247425052e-02 -7.281786715271560961e-01 -2.516331443728450079e-01 -6.947027981729985147e-01 6.738462605547653750e-01
9.859561021137044912e-02 3.103295061566070309e-02 -7.017042377998196079e-01 -2.590332179047077354e-01 -7.647100469734816608e-01 5.900172337141920131e-01
9.048359613825207592e-02 -6.872635771040835895e-02 -8.025744064846739301e-01 -1.997590159443977387e-01 -6.167301677786590774e-01 7.614067478691221025e-01
6.926532274456297100e-02 8.579483893818745655e-02 -6.263746585966153413e-01 -3.843831388225297796e-01 -7.637330878651743538e-01 5.186148600733163638e-01
-4.736565529573092542e-02 -1.188550937665239782e-01 -8.871231884118676581e-01 -3.114528124910893592e-01 -5.014198957676855306e-01 8.072021021526848417e-01
-4.569755521011482219e-02 1.225701240579966655e-01 -5.978745469607573693e-01 -3.483127529864604166e-01 -9.336988156111062365e-01 8.297438058467382360e-02
5.375806863684124554e-03 -3.784461554541241474e-02 -8.048446179196188099e-01 -5.512733628188705159e-01 -5.583266636247665726e-01 6.199750125061578299e-01
-1.433549419281877034e-02 5.705320539457545137e-02 -7.074473475280764756e-01 -4.224984021520334920e-01 -7.491809511741808203e-01 5.101205765078764554e-01
-3.592112269315232004e-02 1.137029799773155991e-01 -5.109241272303745030e-01 8.212521063208444438e-02 -9.440435304235712533e-01 -3.194327197455439915e-01
1.013564615226012489e-01 -4.302866469526610282e-02 -7.776764400312329295e-01 -2.024952406400011284e-01 -6.737403775043300236e-01 7.106824756798709730e-01
1.156643299850044770e-01 2.520345216806436917e-02 -7.015303927466017830e-01 -2.638331161810987813e-01 -7.714886483377774162e-01 5.789623064519141549e-01
6.898722055985405388e-02 -4.000377029328524431e-02 -7.844237930415965954e-01 -2.185914083324601576e-01 -6.570402540014976811e-01 7.214678792745240488e-01
5.813135854739218816e-02 7.788007367670185532e-02 -6.467944288740843373e-01 -3.531829270877359095e-01 -7.906019088749072221e-01 5.002103974300131650e-01
1.130993006932419671e-02 -8.134555861661572906e-02 -8.354149596798686739e-01 -5.878849282253220121e-01 -4.754487974324370092e-01 6.544767010257563911e-01
-3.634398341932302406e-02 4.889590102570406938e-02 -7.348077988332242239e-01 -3.503623844148773814e-01 -7.736799652951713568e-01 5.278877824765256799e-01
3.062624551151050048e-03 9.902604490890785927e-02 -6.368309801870789544e-01 -8.295348562136187209e-02 -8.858323352998629385e-01 4.565301665393620700e-01
1.877648363320883612e-02 -1.651294662326126608e-02 -7.793513076868695544e-01 -2.147951800382032483e-01 -6.659931962278681228e-01 7.143641180872287721e-01
4.210048996860094039e-02 -1.100603349494942151e-01 -8.457531711305725786e-01 -2.277347483560046848e-01 -5.006833509707184771e-01 8.351365555715779543e-01
-6.243319443283375930e-03 -4.711606964555119931e-02 -8.224885332523450554e-01 -4.773810920671498481e-01 -5.479925186175728102e-01 6.868853561373573502e-01
2.388991809080826673e-02 -1.249849702325426526e-01 -8.585083459810054496e-01 -9.519704840126286260e-02 -4.681676970686972084e-01 8.784967441015817391e-01
9.394236380194870284e-02 3.731403165333708333e-02 -6.950287493943713146e-01 -2.799587544705731124e-01 -8.248249278911491400e-01 4.912096641197584157e-01
-2.343021281078496582e-02 -6.037881212901749506e-02 -8.435971474730443731e-01 -4.281776498926949115e-01 -5.067612218070995933e-01 7.482359014408118680e-01
3.398977992332330444e-02 4.489146787285031026e-02 -7.085167427654484040e-01 -1.668077679772248800e-01 -7.775352515615130411e-01 6.063118843645001199e-01
-9.686844351598876413e-02 1.099152013712216963e-01 -6.876738279980447732e-01 -3.540179306738255316e-01 -7.394037088942002622e-01 5.726722099376944097e-01
8.100555033237925385e-04 1.177511369530099550e-01 -5.817458070482415255e-01 -3.633467775923273496e-02 -9.816726106391653328e-01 1.870793326720472660e-01
2.890979482611342327e-02 1.003831335732205815e-01 -6.260054572543840568e-01 -2.098026367542506487e-01 -8.568459085038545586e-01 4.709542893861016211e-01
-9.162306127245828380e-02 5.669800973178219100e-02 -7.556184517050484883e-01 -2.641899047365912634e-01 -8.163599407455620627e-01 5.135758380036710147e-01
-2.598247783521972012e-02 1.071651441169531316e-01 -6.304558761531905420e-01 -4.427213416408410929e-01 -8.481450356780420030e-01 2.909429705465084171e-01
-4.970979737083963679e-02 3.373796606214159860e-02 -7.665461694655314462e-01 -3.561905941332116354e-01 -7.717671734552878915e-01 5.267861906199374777e-01
8.280686359203807967e-02 -1.512998264649248192e-01 -8.513456059277024757e-01 -4.094036285388253926e-01 -2.862954660808900154e-01 8.662699204294059818e-01
-1.229005037896549121e-02 9.844776280589631612e-02 -6.391921140110088384e-01 2.837837879866113300e-02 -8.819366914957499359e-01 4.705128476569901408e-01
-3.067867603091498085e-02 1.062480379086663679e-01 -6.397210334238740970e-01 -4.484386623436245056e-01 -8.140976956209389215e-01 3.689819888560112449e-01
-2.675794848915808918e-02 5.288171100265537383e-02 -7.224690430549178810e-01 -3.643889308159586338e-01 -7.636539290067230201e-01 5.329665878940230694e-01
-1.032127556859019912e-01 4.170471972692960799e-02 -7.861685170920712507e-01 -2.853435502306903571e-01 -8.061888393569701661e-01 5.183035921523279077e-01
-1.678747264753188001e-02 -1.525039377585301614e-01 -8.940190110533333678e-01 -3.717767187004422658e-01 -4.441492001625507169e-01 8.151770111008396213e-01
2.618369044221035072e-02 -1.739235924561110536e-01 -8.827217160460378853e-01 -4.329945697845027919e-02 -4.073746990262761547e-01 9.122340772075017146e-01
4.700489159220733876e-02 -9.933172023038393250e-02 -8.372905573072687568e-01 -2.303697944298853939e-01 -5.381435453911992406e-01 8.107596945878122741e-01
-1.070797439049450267e-01 9.000892942709178002e-02 -7.187070285089208754e-01 -3.113489377724167895e-01 -7.285484942869377978e-01 6.101466466516252130e-01
-7.353033410248907553e-02 -3.621194500352339224e-02 -8.488134810186963586e-01 -2.700534268258281134e-01 -5.160613993002333144e-01 8.128663966556326503e-01
3.344001789398841351e-02 9.604846828577233431e-02 -6.321982307238966925e-01 -2.344680144900458396e-01 -8.708413287661396218e-01 4.320418154460513027e-01
-5.506811855925886068e-02 7.750257589881107134e-02 -7.057138380012133450e-01 -3.404990280569809014e-01 -7.686857671855548135e-01 5.414633904693894051e-01
1.916100223065147741e-03 -1.747824302558580734e-01 -8.953868775304438810e-01 -4.682072929488503288e-01 -3.685402525574349442e-01 8.030940250521176882e-01
-3.731568773832055069e-02 2.540575436437442908e-02 -7.697621594474364226e-01 -4.017825974791529031e-01 -7.403140907656934333e-01 5.389858916304486325e-01
3.280865812017422917e-02 1.019611103038558508e-01 -6.213354220597142596e-01 -1.898306528303234930e-01 -9.017053676096218329e-01 3.884478771598705582e-01
7.625681064154683775e-03 7.222715665969590970e-02 -6.779913639892627408e-01 -9.566946133399434338e-02 -8.092196000319754612e-01 5.796645522128747174e-01
8.271522710805193079e-02 5.297511290481308338e-02 -6.732885638000484230e-01 -3.028945625912364825e-01 -8.588909654589944598e-01 4.129905488090249710e-01
-6.190241778740994405e-03 -4.286842917332512465e-02 -8.189952090363673554e-01 -4.892745364932091223e-01 -5.760260057171318060e-01 6.548316338395100411e-01
-1.058603728363071740e-02 1.117294973513068695e-01 -6.088255827919503149e-01 -2.503799672739199719e-02 -9.422543919906819498e-01 3.339607154953246893e-01
-6.684577860763175894e-02 -7.544158975893691665e-02 -8.688944854553020125e-01 -2.416415850849480129e-01 -4.539297393739086806e-01 8.576462767770691720e-01
9.134616384785158860e-02 4.655741351298804676e-02 -6.800706868524071247e-01 -2.785670229137229281e-01 -8.544841136683128946e-01 4.384715649086757816e-01
-3.184465143456748082e-02 1.754225016721059141e-02 -7.761193941208303082e-01 -4.222683056083509912e-01 -7.123834431955440305e-01 5.605348409684390854e-01
-3.899135423395601319e-02 -4.089028180802160850e-02 -8.382785928017961741e-01 -3.968493898013181198e-01 -5.353344701195579258e-01 7.456055035446916834e-01
-3.327345941789541101e-02 -3.640573585817322849e-02 -8.318022669893672116e-01 -4.068703454174709133e-01 -5.866971924007223782e-01 7.001734973911662996e-01
9.359503116704454007e-02 -1.262283445989671911e-02 -7.504018679957678017e-01 -2.671746042894842521e-01 -6.830641148874451174e-01 6.797360853859303331e-01
5.325292329272664910e-02 1.005027478142735547e-01 -6.121301236274919733e-01 -2.687505924947562463e-01 -8.782280214286474207e-01 3.955864777911911045e-01
-5.720064680723666722e-02 -4.367268498306276642e-02 -8.478832529011421926e-01 -2.843769751574615201e-01 -5.287258941467206652e-01 7.997366221819799392e-01
-6.647478743164600412e-02 -8.859347464636876945e-02 -8.757293939102115399e-01 -2.321237961184503817e-01 -4.532965769397519495e-01 8.606048783328290597e-01
-1.817343304980975627e-02 -8.072966510025075815e-02 -8.538227072487806213e-01 -4.291212730918405605e-01 -4.805663191634225173e-01 7.647947083144321923e-01
4.212255725304566573e-02 -1.812947573299591719e-01 -8.829521495502437034e-01 -2.577864872150039677e-01 -3.815963601810478667e-01 8.876544062335997021e-01
-4.393653517582512408e-02 6.127744855635128968e-02 -7.217860221127564424e-01 -3.472720413493610159e-01 -7.695961009607366066e-01 5.358395008611057664e-01
5.674372902142961472e-02 -6.576483097698532232e-02 -8.096285716800536436e-01 -2.270519220813749239e-01 -6.139442182596160924e-01 7.559893660262305692e-01
1.199950788269180113e-01 -1.372087013776837790e-02 -7.410289705911838887e-01 -2.524899466508813139e-01 -7.128385632864540078e-01 6.543011611879800959e-01
6.913122939615617968e-02 -7.257614897118999653e-02 -8.113017250777163625e-01 -2.151229248902579438e-01 -5.888790424548629998e-01 7.790658512244672540e-01
-3.338096599997317920e-02 1.171761441323792702e-01 -5.704078147755879957e-01 -7.807359519246707125e-01 -5.937670255954149434e-01 -1.946589137128128533e-01
6.325936748851236635e-02 5.170665303134887314e-02 -6.879731750608600871e-01 -2.341657081803204254e-01 -8.183571136697815884e-01 5.248409812681102959e-01
-7.346008258096323185e-02 -7.303447588421298209e-02 -8.693667976379485518e-01 -2.224613627745352928e-01 -4.502990724097494790e-01 8.647205834600074636e-01
2.974143293101571411e-02 1.720537693405629551e-02 -7.423878761017149719e-01 -1.900316205033920069e-01 -7.203656847027781751e-01 6.670541683488321327e-01
1.065798459581195068e-02 2.375240726732155347e-02 -7.395400941300774855e-01 -1.028645334009265083e-01 -7.562396358506885408e-01 6.461582630723121667e-01
6.493709098654602352e-04 -1.051054750565687534e-01 -8.584197669115115614e-01 -4.353502480741409664e-01 -4.532143390631676039e-01 7.778604787295214651e-01
-8.146999317021648424e-02 1.141662285208912136e-01 -6.709025741429820444e-01 -3.591631066645341042e-01 -7.826313397322699483e-01 5.084191665151429618e-01
-2.136269679062000743e-03 -8.479356760825079720e-02 -8.473437443912560374e-01 -4.641691067447715202e-01 -4.952227850007678844e-01 7.343714547555917349e-01
3.882191187134632210e-02 -7.035697218911983464e-02 -8.186678739093408153e-01 -2.355883722482336184e-01 -5.899621850901810571e-01 7.722970536167068634e-01
-8.424522565318703915e-02 1.106987883490470198e-01 -6.782006634201129813e-01 -3.591631066645341042e-01 -7.826313397322699483e-01 5.084191665151429618e-01
-8.827522813171315152e-02 1.282271671569067961e-01 -6.474229128682691403e-01 -3.264199162700549550e-01 -9.065495463233932405e-01 2.676153178035589608e-01
-4.772410292387460617e-02 -1.254110947225217931e-01 -8.912677062647820225e-01 -3.023182546900544665e-01 -5.223311135783066383e-01 7.973543005898979796e-01
4.695282546664310969e-02 -2.549385161523172114e-02 -7.787584174080264265e-01 -2.370429546116591957e-01 -6.543083428369155241e-01 7.181164461025691947e-01
-6.867327390637478768e-02 4.856043839085451980e-02 -7.558678467747647067e-01 -3.088064907763090061e-01 -7.975016708215448835e-01 5.182949317630507480e-01
2.504855929974030004e-02 -2.295111011245265162e-02 -7.834676418973165468e-01 -2.147951800382032483e-01 -6.659931962278681228e-01 7.143641180872287721e-01
-7.653720724769727535e-02 1.197012840099988124e-01 -6.568590090072832233e-01 -3.682838581448902859e-01 -8.176555476777708220e-01 4.425001753464950505e-01
9.314864101263751681e-03 4.025249051506255005e-02 -7.199792478658122441e-01 -1.278405386574651414e-01 -7.709046834417044858e-01 6.239893955216020416e-01
8.121887543223629824e-02 -1.317677629178519161e-01 -8.445556880105726805e-01 -3.496893606339426808e-01 -3.906433135520572253e-01 8.515369355679724972e-01
-3.650558263848954071e-02 1.180072169658867576e-01 -6.066805063115352503e-01 -3.879570920867350670e-01 -9.080164417549929645e-01 1.580994503539022711e-01
1.059589007879205812e-02 -6.485461511505281884e-02 -8.233068908022141974e-01 -5.969072375340568337e-01 -4.982484515038244077e-01 6.288483365275782111e-01
-8.363749004823768651e-02 7.869663706228591238e-02 -7.205422515543349338e-01 -3.178244734361920232e-01 -7.528416539556940235e-01 5.763827271477366398e-01
-6.688529010278043696e-02 -1.122884567133927702e-02 -8.279934406160663896e-01 -3.144188343926629381e-01 -6.122930415493854639e-01 7.254226546292593669e-01
3.161672162764771199e-02 1.097267746785730025e-01 -6.024201975216204596e-01 -1.916704340977148646e-01 -9.314646241464684673e-01 3.092508668645433945e-01
-7.774221524258118250e-03 9.550961850688380328e-02 -6.446296128001726133e-01 3.617957816576431677e-03 -8.570886588021114916e-01 5.151562300254504123e-01
-4.439150913930391823e-02 1.216772636686797027e-01 -5.649971467805697811e-01 -2.839072645615714485e-01 -9.548443961062031970e-01 -8.757193816369336636e-02
8.928429489910949535e-02 4.023845516331255381e-03 -7.354809960765490429e-01 -2.693119170668197837e-01 -6.775558238809819001e-01 6.843896527934637541e-01
4.758145787872870153e-02 -1.517179488523105226e-02 -7.691410817326037597e-01 -2.346814407689227500e-01 -6.559007167120740611e-01 7.174391062488927329e-01
-3.645744787211062377e-02 1.184134753233095083e-01 -6.042291158021736441e-01 -3.879570920867350670e-01 -9.080164417549929645e-01 1.580994503539022711e-01
-9.230427795056873885e-03 4.152458058651857520e-02 -7.256858892417442641e-01 -4.325411196754807563e-01 -7.350917597312279783e-01 5.220615716226658654e-01
-5.028113066325647085e-03 -5.456767642588178369e-02 -8.275888140905953705e-01 -4.773810920671498481e-01 -5.479925186175728102e-01 6.868853561373573502e-01
-5.610583614800246366e-02 -8.524901539830463670e-02 -8.711073385057183094e-01 -2.457031316474242444e-01 -4.514054824955366918e-01 8.578246099708378702e-01
7.937074037620457656e-02 -1.604954296862177998e-01 -8.560793453428964250e-01 -4.598698642137847847e-01 -2.814963480127920525e-01 8.421873390424816641e-01
4.526054813713648040e-02 -1.054710240665217812e-02 -7.655947541512331256e-01 -2.328039225828960057e-01 -6.706690068362171075e-01 7.042765201959659827e-01
7.000384807873141768e-02 -1.363959296209730776e-01 -8.511948554440202930e-01 -3.308664264540784883e-01 -3.996107289509352456e-01 8.548910299873369034e-01
-3.987508698205691898e-02 -7.982424848326165334e-02 -8.629589321199818697e-01 -3.122943396559688667e-01 -4.678425033751910100e-01 8.267984261320753259e-01
-5.360311280345025214e-02 1.116860168361243216e-01 -5.192483510212537734e-01 -5.906900962696242097e-01 -6.437645627915400404e-01 -4.864693185215274718e-01
2.513432701898773644e-02 -1.191410363570432340e-01 -8.550212017661846797e-01 -1.558931798360790322e-01 -4.979088726416035504e-01 8.531026145929710980e-01
2.786610562057674489e-02 -1.967000110706838278e-01 -8.915012878599626323e-01 -5.351063365830536350e-02 -2.731021424348579751e-01 9.604956178364254527e-01
-6.357826631049096067e-02 1.062606357754257713e-01 -5.015688429437427098e-01 -2.919205371580300135e-01 -8.408707702524794714e-01 -4.557617225265511718e-01
7.934044399506826051e-02 -1.596669928338015354e-02 -7.589851605506301446e-01 -2.487776581449778202e-01 -6.658537956178638417e-01 7.033835366776681752e-01
-5.817978929332017629e-02 2.787023800416409125e-02 -7.806243663252878662e-01 -3.465511310772148579e-01 -7.475079130752082524e-01 5.666870683534694919e-01
1.928210361028366224e-02 -1.794289186910383582e-01 -8.849262655858802784e-01 -7.987118509505358732e-01 -2.366969951206440437e-01 5.532033185475541126e-01
9.092298972999418583e-02 -1.053928192289237398e-01 -8.273176483443723805e-01 -2.597394340711144944e-01 -4.701000941384545495e-01 8.435290913059450002e-01
-7.797435355574194871e-02 1.093687786191364780e-01 -6.757451329706539722e-01 -3.680523551800015669e-01 -7.787502556977010659e-01 5.080211640249048255e-01
-1.453639559548914641e-02 -1.671281654126514915e-01 -9.008653771444042890e-01 -4.329290883996803618e-01 -4.223959215682308588e-01 7.963379244139681123e-01
2.436147712135297572e-02 -1.065481652743304891e-01 -8.476964065002352555e-01 -1.423096272027324083e-01 -5.321298587252029089e-01 8.346171478339722283e-01
3.400928744266084464e-02 1.787512572284784620e-02 -7.404487661836416379e-01 -1.900316205033920069e-01 -7.203656847027781751e-01 6.670541683488321327e-01
7.531468145078687275e-03 -5.379884499671083037e-02 -8.169592431172351121e-01 -5.532418748037439826e-01 -5.349095807242278955e-01 6.385884186336840962e-01
-1.065983988547214573e-01 1.962467019576565053e-02 -8.168965872464706290e-01 -3.013227863870371337e-01 -6.986628715149770796e-01 6.489027433833197689e-01
3.747287972354980401e-02 -1.776705711377429275e-01 -8.827747918796328142e-01 -1.896683110517903281e-01 -4.201470784876746301e-01 8.874132995515860989e-01
-8.172326697357684688e-02 8.686124823849504517e-02 -7.087412643823963743e-01 -3.357492945788831951e-01 -7.427617683117154757e-01 5.792903993026601306e-01
-2.679371210603528897e-02 1.042170120558076479e-01 -6.394806028287589594e-01 -4.484386623436245056e-01 -8.140976956209389215e-01 3.689819888560112449e-01
-2.995007675185958063e-02 1.119326348450504771e-01 -6.213654702785511574e-01 -4.265691838596187835e-01 -8.756597266671068969e-01 2.264040071964852907e-01
7.172952779264887835e-02 4.204959836838236681e-02 -6.985212987628799386e-01 -2.703265327986060229e-01 -7.930166272956480356e-01 5.459379035180826900e-01
-9.125614840332382793e-02 1.425110531261428127e-03 -8.275995498641023351e-01 -2.910169522989175528e-01 -6.371328375899583119e-01 7.137022353469388847e-01
5.518877903399393298e-02 9.134686914767249644e-02 -6.273083883545048645e-01 -3.252399912803752291e-01 -8.054068293273571877e-01 4.955187053429918054e-01
6.994555916243426485e-02 3.674711092482460528e-02 -7.068758491819232548e-01 -2.311409671646267872e-01 -7.552589011566197552e-01 6.133170839964399157e-01
-5.619895717861522061e-02 1.210444969192862458e-01 -6.303675040870647672e-01 -3.602228875401494168e-01 -8.994832511153210142e-01 2.473243866974083605e-01
-9.465898927276626684e-02 7.623824356563854709e-02 -7.295378797292682016e-01 -2.955872636508538043e-01 -7.491581154713511381e-01 5.927818212384839969e-01
7.218378587411533598e-02 -7.088416591937308359e-03 -7.530056418969071075e-01 -2.568275670223150731e-01 -6.740672970920403850e-01 6.925842041285876771e-01
3.762670716995745318e-02 -1.283446393342660141e-01 -8.577223213048610351e-01 -1.931554647729274155e-01 -4.771368342711979627e-01 8.573397271852121193e-01
8.598269827633399365e-02 -1.384101181499319475e-02 -7.544996929209057956e-01 -2.528896345945688129e-01 -6.746212243622372595e-01 6.934933571092236626e-01
-5.823751316167047332e-02 1.155681818341119799e-01 -6.486592525470993298e-01 -3.709361596132093597e-01 -8.668498650724267840e-01 3.331331219127254828e-01
-9.258407173482486804e-03 -1.358749564153274303e-01 -8.811329752719412323e-01 -4.150077072189108374e-01 -4.349315524257372223e-01 7.991264903965085153e-01
-1.294332651769722646e-03 -5.600999621837881443e-02 -8.259179289492273313e-01 -5.084840405889423653e-01 -5.454495834907949758e-01 6.662797703187911535e-01
6.041994932112731975e-02 -1.395191284120168851e-01 -8.566798165707304458e-01 -3.297713358225689562e-01 -4.367387525766650014e-01 8.369648308427164451e-01
1.122376262201161129e-01 -3.802765140474255456e-02 -7.695580590447896885e-01 -1.975435650189611425e-01 -6.910988534835247332e-01 6.952401848522258287e-01
7.056723285223226450e-02 -1.547901538920710800e-02 -7.616264688179584796e-01 -2.487776581449778202e-01 -6.658537956178638417e-01 7.033835366776681752e-01
5.636311319293367539e-02 -5.410040044167072765e-02 -8.002927446984012816e-01 -2.289205517680340529e-01 -6.125896571854646533e-01 7.565244826756193364e-01
-3.852136900119791652e-02 3.307776641951822721e-02 -7.597607471624561182e-01 -3.819983875555608699e-01 -7.558883253089122567e-01 5.317048726188612351e-01
-3.546599253566644350e-02 -1.393728534538908881e-01 -8.951118056997281469e-01 -3.116088734261204252e-01 -4.928996929762243795e-01 8.123729455527477494e-01
-9.434503945043611062e-02 4.988915872932840612e-02 -7.679764679688617646e-01 -2.697560726733301273e-01 -8.182541618686152152e-01 5.076335172548702701e-01
5.591485399801396361e-02 -9.309228422574290784e-02 -8.303760889851996563e-01 -2.378304500796981358e-01 -5.671880745987324390e-01 7.885013411833049490e-01
-7.035696349209234757e-02 -1.316904778472235927e-03 -8.208547325711095244e-01 -3.252237621264092438e-01 -6.677283557244960699e-01 6.696031268668073411e-01
3.089310238155065086e-02 -3.513937222716194408e-02 -7.924084137554833207e-01 -2.367773564142995057e-01 -6.392214077786217974e-01 7.316641820719205214e-01
6.571072453995868701e-02 -4.576267857493655083e-02 -7.903641323499343008e-01 -2.333967132873470129e-01 -6.297300180965532679e-01 7.409224510937556518e-01
7.336790133865213337e-02 7.147752376835335431e-02 -6.454098654269619928e-01 -3.809307212777978124e-01 -7.956067969736910772e-01 4.710643376398182536e-01
9.893869320720665318e-04 -1.632517251115047086e-01 -8.901541980827938350e-01 -4.623925070458094755e-01 -3.882713223365809041e-01 7.971439955735060146e-01
2.743146090368358755e-02 -6.497999446567950810e-02 -8.179762090095111793e-01 -2.213166632053262528e-01 -6.057031516528073034e-01 7.642922390457176363e-01
7.696931936176831801e-02 4.580294700868027535e-02 -6.902694903094566126e-01 -2.578298950858217697e-01 -8.359564647178265862e-01 4.844590119881215240e-01
-3.945391296830603328e-02 5.842747905179774409e-02 -7.229882507222530341e-01 -3.461430094081567876e-01 -7.704478950766227019e-01 5.353457368933329796e-01
4.369145477259512439e-02 -4.311948733672876094e-02 -7.950878392797962047e-01 -2.369068190559113773e-01 -6.239697101714106742e-01 7.446723842559326290e-01
4.527658409247165699e-02 -9.047622873400387733e-02 -8.316519941412154893e-01 -2.287953680541741086e-01 -5.663743154264394564e-01 7.917530008671814779e-01
4.909237853225160292e-02 -1.636919043840583399e-01 -8.726617041092091798e-01 -3.578702171826224632e-01 -3.826732592682143275e-01 8.517570570853549849e-01
1.094951570743998015e-01 -2.467610328799051816e-02 -7.567415156148118438e-01 -2.549544794445709472e-01 -6.966387380630260084e-01 6.705912928461735811e-01
2.101333442882954636e-02 -1.995712119813808638e-01 -8.914670611690344026e-01 -4.677527581300515436e-02 -2.765929055553457139e-01 9.598481328674181023e-01
-4.138373103886251042e-02 3.677786261904217313e-02 -7.563137010286045125e-01 -3.780007943028351192e-01 -7.707723561876981266e-01 5.128599949725947127e-01
-8.642635467574331931e-02 9.740193083012255171e-02 -6.978645425401058811e-01 -3.279405480446289656e-01 -7.483799891329062648e-01 5.765261388815077215e-01
-6.750203313905400737e-02 6.732022509586083059e-02 -7.273564424003361450e-01 -3.064448538972959768e-01 -7.733004122148181558e-01 5.550657834781899114e-01
5.512184116938888268e-02 -2.033430640735255784e-02 -7.713308563783687344e-01 -2.430561440053336519e-01 -6.535241322514058204e-01 7.168193073755094735e-01
4.496776572857121707e-02 -4.185257032615852940e-02 -7.936118037050546858e-01 -2.394880655504047218e-01 -6.251342960308357011e-01 7.428678068034423321e-01
-2.667678673383606924e-02 1.018729562023950180e-01 -6.446072291568334389e-01 -4.280913440854471896e-01 -8.268777299015173110e-01 3.647067601677112525e-01
-3.787293133522361133e-02 9.615816774889035870e-03 -7.902095181618282727e-01 -3.999144251028701746e-01 -6.944368839170742547e-01 5.981854786353346665e-01
1.125017529503954117e-01 2.487989530968334750e-02 -7.034027305230965421e-01 -2.638331161810987813e-01 -7.714886483377774162e-01 5.789623064519141549e-01
7.662262128265502799e-03 -1.009846362707198311e-02 -7.753232661757798461e-01 -1.225035153198099705e-02 -6.953931493984842893e-01 7.185250842225342494e-01
3.386292950224108200e-02 6.540611127554926685e-02 -6.803648004707424368e-01 -2.275441776400945471e-01 -8.050599241237215153e-01 5.478158137476506484e-01
1.616643443880398309e-02 -1.379163741928210174e-01 -8.673629030325140654e-01 -5.979457609725252754e-01 -3.978355595903281250e-01 6.958359968127821871e-01
-6.720388942662018639e-02 5.998597760497779291e-02 -7.376345500321461746e-01 -3.029972079064479074e-01 -7.869886057791565248e-01 5.374398816376355636e-01
-3.776974728523071340e-02 9.204597658259412729e-02 -6.727527543744721283e-01 -3.896387107912198111e-01 -7.778494200039656192e-01 4.930841255328041739e-01
-3.274296130406409433e-02 -4.076130420682326505e-02 -8.347651753423512844e-01 -4.101282729259899118e-01 -5.435843147780248241e-01 7.323325013093778812e-01
-4.325040114872320146e-04 1.041870544679419919e-01 -6.271050041456562862e-01 -5.726580006100143866e-02 -9.141836416797173293e-01 4.012342176691607309e-01
-2.056106601705058254e-02 1.171458284478855277e-01 -5.856567087842933228e-01 7.545236959058410076e-02 -9.880344110311704009e-01 1.345174432609176352e-01
1.749336991248652204e-02 -2.137863189768267613e-01 -8.963731021205318950e-01 -5.876947095387493603e-01 -4.024203185355740980e-02 8.080813741526666760e-01
-7.192891166167973693e-02 1.133008425022386245e-01 -5.107999338730273564e-01 -2.145214922982082717e-01 -8.615719131732707536e-01 -4.600808274348104354e-01
3.625438597590945836e-03 -1.400667447644591279e-01 -8.764460851662525531e-01 -4.418592983437199528e-01 -4.174284567115843503e-01 7.940490186346056412e-01
2.191479124310265550e-02 -1.769088692175371513e-01 -8.839724821754324502e-01 1.744018480439701591e-01 -3.941123375232819526e-01 9.023632643291628064e-01
-3.090085602741892215e-02 -5.484180722731446522e-02 -8.438366217235897526e-01 -3.980910635937074393e-01 -5.096790031302868007e-01 7.627259133233562638e-01
2.288984615120794042e-02 1.113555440525755558e-01 -6.018983094849429394e-01 -1.394922844937855066e-01 -9.366705820962285545e-01 3.212321951520691332e-01
-1.884940885195360294e-02 5.902904913531150516e-03 -7.804029588196925715e-01 -4.515553384811082371e-01 -6.749749300190125423e-01 5.835294509577395594e-01
1.688535798942251281e-02 -1.241455022904866673e-01 -8.588498276854517055e-01 -6.646097678127577124e-01 -3.731494578763335235e-01 6.473432927083362376e-01
-8.155414015320458510e-02 6.368442996745654616e-02 -7.400457731537684047e-01 -2.857754575706606959e-01 -7.908438616494959383e-01 5.412008632121648732e-01
1.707285452437674877e-02 -3.035489743881774477e-02 -7.922170246850228637e-01 -1.785255948424208372e-01 -6.498969812500898779e-01 7.387574200968677340e-01
6.919145834748924306e-02 7.442024202454702864e-02 -6.438170655793524766e-01 -3.809307212777978124e-01 -7.956067969736910772e-01 4.710643376398182536e-01
-3.791894959022185790e-02 1.177454172050680786e-01 -5.346015229492833143e-01 -4.329983476817688554e-03 -9.941516659798268485e-01 -1.079060529934503521e-01
2.979807321068878630e-03 -2.058742298518494163e-01 -9.039418135272030419e-01 -3.179232599523857949e-01 3.232688629375518596e-02 9.475651815066856720e-01
8.318698493715429021e-02 5.502195215704221848e-02 -6.686857838374966612e-01 -3.028945625912364825e-01 -8.588909654589944598e-01 4.129905488090249710e-01
-2.089528002138737323e-02 1.021463811699206831e-01 -6.362733855042037590e-01 -5.354794153136579471e-01 -7.830716031188904580e-01 3.163236636171148919e-01
-7.771062771002100467e-02 4.840510003608744505e-02 -7.612608232907105421e-01 -2.837416805015141041e-01 -8.156986003904356242e-01 5.041095635546511966e-01
2.372270479036975299e-02 -2.308263898341093578e-01 -8.925247634037456468e-01 -1.650814802446795571e-01 8.054439452808799527e-02 9.829856079263465940e-01
-7.116346178860648297e-02 4.639309048389016199e-02 -7.607379723263734128e-01 -3.068272169271672456e-01 -8.043243559977008017e-01 5.088412220935059072e-01
-8.720065795274724307e-02 -3.289064803759299965e-02 -8.510224075552661471e-01 -2.545488508558140794e-01 -5.025107878760918245e-01 8.262492303150023032e-01
7.546082132441164769e-02 4.597268359198621035e-02 -6.907794271472117442e-01 -2.578298950858217697e-01 -8.359564647178265862e-01 4.844590119881215240e-01
4.414040533121516702e-02 -1.923921220109006125e-01 -8.863700891883491417e-01 -3.516725627347371819e-01 -3.099338322077593300e-01 8.833274751034265737e-01
-6.782221298131377307e-02 1.300390752325689958e-01 -5.977902309890648080e-01 -3.063371301045770267e-01 -9.518849364884925945e-01 8.522347422497956321e-03
2.387563398555622371e-02 -7.632616332950321880e-02 -8.274540869981600322e-01 -2.100113478069807471e-01 -5.836814045384325356e-01 7.843540347243315169e-01
5.878667378034363455e-02 -1.590005110609273298e-01 -8.663370185442508253e-01 -4.112251325574238225e-01 -3.468491757498376460e-01 8.429647321417352845e-01
4.535411059536640505e-02 -5.673823199071088147e-02 -8.058360804449838932e-01 -2.383170159349998762e-01 -6.090529537057240983e-01 7.564783536216816984e-01
-6.241388069943248906e-02 1.102614027594824714e-01 -5.097471172738712308e-01 -2.573458998852118373e-01 -8.536590344162811039e-01 -4.528126994373423142e-01
4.135057245235138762e-02 3.291400420260503362e-02 -7.212901808623556343e-01 -1.773576912423746321e-01 -7.567264582623237645e-01 6.292132521831800274e-01
-1.640274888004857740e-02 3.366463581563997748e-02 -7.425343839438562910e-01 -4.087979530969402253e-01 -7.434892117893162622e-01 5.292523268693797300e-01
1.023931148064818365e-02 -1.473871997686963808e-01 -8.764559730987764308e-01 -4.881462635822390594e-01 -4.128140194497599835e-01 7.689589135294759847e-01
7.449088229897030122e-02 4.397848315266395663e-02 -6.943521339532428005e-01 -2.703265327986060229e-01 -7.930166272956480356e-01 5.459379035180826900e-01
-9.989881662332010526e-02 -1.177103848370199615e-02 -8.412180322395939047e-01 -2.962179722422489392e-01 -5.824658737321151136e-01 7.569599849781849521e-01
-5.523052550075233276e-03 -1.834835250025837194e-01 -9.034281697740045303e-01 -4.332329453466816638e-01 -3.149780931564770681e-01 8.444513105548173693e-01
2.921337196602060565e-02 1.148991901971815055e-01 -5.864748969228139597e-01 -1.149587776188715355e-01 -9.528106386920713877e-01 2.809561642740405207e-01
-1.828485420382209778e-02 1.163723063354397402e-01 -5.899239221443131065e-01 5.682474585245188975e-02 -9.763516641840451760e-01 2.085866153516321708e-01
-6.608902977004754709e-02 5.111852680846973307e-02 -7.503742484240404353e-01 -2.980491207857755565e-01 -8.051871367936305202e-01 5.126796234890765858e-01
4.486555054093074174e-02 -1.545344326029691739e-01 -8.697466374774118769e-01 -2.805846911255974740e-01 -4.340468000553185379e-01 8.560815419501179857e-01
1.200768817957755495e-02 9.493766168530096833e-03 -7.550593591529625170e-01 -1.257756781833653248e-01 -7.158817128159102872e-01 6.867997175547415623e-01
-2.110467992875811327e-02 -4.580357124244627959e-02 -8.316420887204883927e-01 -4.544768819916629177e-01 -5.455251392307506331e-01 7.041683649542958001e-01
-1.380989152998809456e-02 9.820516808395740593e-02 -6.393806818408012127e-01 9.199415173993923112e-02 -8.727417537403480141e-01 4.794360304815136753e-01
-4.935067023365047323e-02 1.126424090507304049e-01 -5.193949900283542087e-01 4.368689657828389028e-01 -8.960846422874402251e-01 -7.859911317834931965e-02
-7.851794817775363533e-02 1.144082738087424389e-01 -6.683278320149987906e-01 -3.527108297689570127e-01 -8.295953251191463540e-01 4.328587149453633764e-01
-3.678405719513266198e-02 -3.768189709789337982e-02 -8.347425766939663427e-01 -4.101282729259899118e-01 -5.435843147780248241e-01 7.323325013093778812e-01
1.100459829470144292e-02 1.021749415254248339e-01 -6.291332846412276414e-01 -1.084039740035312727e-01 -8.832900024581723519e-01 4.561220779327430641e-01
9.674285888372348430e-02 -8.815050018378538244e-02 -8.149485162425982310e-01 -2.237826208847396026e-01 -5.218035498081886603e-01 8.231903753066662777e-01
-1.144817940729262774e-02 -9.154857785277165094e-02 -8.568644901347129972e-01 -4.028169318531338861e-01 -4.710554914103795565e-01 7.847580795535356035e-01
1.003226139024256808e-01 -3.928412087422682164e-02 -7.744211168396447631e-01 -2.024952406400011284e-01 -6.737403775043300236e-01 7.106824756798709730e-01
