-9.275785378183206906e-03 -2.409754793592941077e-02 -6.412093616410385888e-01 -1.770374475217749155e-01 1.647790121085515314e-01 -9.703121247018944295e-01
-5.818185814083192547e-02 3.092302520764774604e-02 -6.268917618217538790e-01 -1.214001204822262314e-01 1.033592746246064092e-01 -9.872076129649610676e-01
4.561036609071122266e-02 1.543583282516171155e-02 -6.319616263167112669e-01 7.815294233633737764e-02 2.831821874274761952e-02 -9.965391091630128040e-01
-8.802989768333865928e-02 8.674710378267706801e-02 -6.264219459815325575e-01 6.562030379186697959e-02 -1.082824017796308880e-01 -9.919520639602993350e-01
1.168207508430319508e-01 -5.532810167385229794e-02 -6.405004596392043226e-01 -4.786540187082773123e-02 2.939060952553819717e-01 -9.546350666487580794e-01
1.366798470894474947e-02 8.782092009192640769e-02 -6.330249324502429387e-01 8.644791303178274433e-02 1.462645843086414835e-02 -9.961489974126460645e-01
1.076148419700356795e-02 -1.619408171556997178e-01 -6.834703224144604849e-01 1.268091939373679200e-01 4.043773353086741462e-01 -9.057584661606046250e-01
-6.888676394355121302e-03 -1.909515606477509286e-01 -6.982991213861241553e-01 -3.167613622465961787e-01 4.396940251761398133e-01 -8.404352465312747711e-01
8.903106383239350885e-02 -9.651177535339576508e-02 -6.534138437869847493e-01 -9.917338077252141337e-02 4.138180313046072034e-01 -9.049415879013006370e-01
1.190701156805955979e-01 5.014080651864748217e-02 -6.328986266337522926e-01 -4.309943117439483246e-02 1.726896096062943958e-03 -9.990692953255631004e-01
-1.136180208649042594e-01 -3.165746436072608416e-02 -6.322587456921624494e-01 -7.607754650357796689e-02 1.509301058522004302e-01 -9.856126572165354593e-01
-5.811662738871230943e-02 1.814224630613037736e-01 -6.361837737749322930e-01 -7.590387345929648644e-02 -2.752565725760582338e-01 -9.583696683678778472e-01
-3.529623583469537751e-02 -8.518770983961869436e-02 -6.523640877234799795e-01 -1.058983716136961406e-01 2.677766319574920173e-01 -9.576435716210230931e-01
6.953604668460039440e-02 9.526369144829434366e-02 -6.304027132890862584e-01 4.478933120593948936e-03 4.439369353125480894e-02 -9.990040736317116199e-01
4.299178131840694639e-02 -1.102559173748455940e-01 -6.580816346294747765e-01 5.652551964151344976e-02 3.593043263978660251e-01 -9.315069869094019239e-01
1.789401500404404557e-02 -2.001855874517132761e-01 -7.012669921437540976e-01 1.237198410989184261e-01 4.499215550618364534e-01 -8.844568927930841484e-01
-6.784804106510330945e-02 7.230973276850023723e-02 -6.250957391271850794e-01 -4.033449079578743657e-02 -1.521067970936719471e-02 -9.990704500059159887e-01
-8.186708982201331558e-03 6.074716422803451421e-02 -6.337364704713492891e-01 -2.517015302095595985e-01 3.143081686088285143e-02 -9.672943933682360829e-01
8.446324955711414367e-03 3.309283962525842726e-02 -6.349703293245700930e-01 1.458644568749019599e-01 6.036113314781387656e-02 -9.874614391588675266e-01
-1.021231896959201024e-01 -6.283105335281628789e-02 -6.381962159102853027e-01 -1.368550735838395815e-01 1.637918628780850594e-01 -9.769559429622650670e-01
-9.139745124954347377e-02 3.649483170833322382e-02 -6.237383310804365255e-01 -4.748407956230362575e-02 5.695126887326443926e-02 -9.972471184023777857e-01
5.973010828235318821e-03 8.657257305660945312e-02 -6.337881075153533050e-01 1.302731256593615550e-01 1.088844582968282598e-02 -9.914183549230638492e-01
-8.847637506533979901e-02 -4.413970748891174467e-02 -6.365049841966191613e-01 -7.831322027026030308e-02 1.750525727477479920e-01 -9.814395734355203516e-01
-1.202447020429890136e-02 6.497177998325730230e-02 -6.326449818667343461e-01 -2.548504951810590113e-01 1.586547588289607610e-02 -9.668503047426618702e-01
-1.129816176016157532e-02 2.741128318073591807e-01 -7.253333871434518576e-01 -2.592078414658302576e-01 -8.205510120820365128e-01 -5.094186210708936402e-01
-4.187878596924237556e-02 -1.695728937870724651e-01 -6.822386748002976509e-01 -2.020518087703256777e-02 4.494891375618165208e-01 -8.930572578954054652e-01
-4.636647524174192930e-02 7.722707330573767674e-03 -6.311205242371700219e-01 -1.019401954886113154e-01 1.358707591688232963e-01 -9.854680782991558363e-01
-2.659088483455430193e-03 -1.765487331171402413e-02 -6.415908959233844744e-01 -2.524000747218135277e-01 1.535256369976103208e-01 -9.553659409173538286e-01
-2.143809281181128720e-03 2.541228538365156719e-01 -6.952628210658781116e-01 3.076479273372933476e-01 -7.772733259108243198e-01 -5.488159342007051800e-01
-8.159611083782207508e-02 -1.184939399019149658e-01 -6.565027299612720135e-01 -1.277331180569714897e-01 3.697714913754867050e-01 -9.203006545240486336e-01
-5.073286143335504345e-02 -3.183190797382410425e-02 -6.377972377936229620e-01 -9.548142854028508764e-02 2.109100107268539748e-01 -9.728310563397453148e-01
1.785702926242058175e-02 1.671540059748247986e-01 -6.372126986326054343e-01 1.399063248612740784e-01 -2.033057619522115889e-01 -9.690681025711465058e-01
7.691766397948609016e-03 2.239951905226380824e-01 -6.657362429290420991e-01 1.421779071891789148e-01 -5.665564932811043564e-01 -8.116644519925232393e-01
-6.421668514087597313e-02 1.899210617144689583e-01 -6.386553271129681297e-01 -1.218612086733969480e-01 -3.311973485304792186e-01 -9.356592126127114550e-01
9.191859740608380319e-03 6.898568542897851041e-02 -6.336936928543362990e-01 8.149236061060642633e-02 2.056590854665061793e-02 -9.964617597117120251e-01
7.248299500572245868e-02 -7.665169539886500238e-02 -6.448644868660433627e-01 5.126531275099606433e-03 2.927997782301428598e-01 -9.561600329157586842e-01
-3.945112623395433810e-02 -2.130306767558268755e-01 -7.072911150304972416e-01 1.034500463442172419e-01 5.420001690968996311e-01 -8.339867532582945220e-01
-9.983282001653957793e-02 -2.944532222763985782e-02 -6.329949197923815385e-01 -7.784028510068291551e-02 1.485794597204596612e-01 -9.858321531399860671e-01
-7.094089633634193329e-03 3.014304266069240956e-01 -7.829740417248205464e-01 -3.122200185950971818e-01 -8.933783345949414256e-01 -3.231003114589121594e-01
-7.734475428669695951e-02 3.467456180944238769e-02 -6.247892832235580896e-01 -7.078387896415637426e-02 6.587640182425223701e-02 -9.953139917440511075e-01
9.468375779309476381e-02 -1.106328111649585409e-02 -6.309310710093311014e-01 -4.257568433317337510e-03 3.974570500521303063e-02 -9.992007566273528596e-01
1.006307416402059812e-01 8.361294964423303389e-03 -6.304157762348057137e-01 -7.225354895910597250e-03 -1.781176515269152633e-02 -9.998152505682104119e-01
1.219638235991297309e-01 -2.231890580362989526e-02 -6.327498598639075267e-01 -2.606506679456558132e-02 1.406158898035850535e-01 -9.897210636476021506e-01
1.001421943094410322e-01 2.053285247273620162e-02 -6.307183809582478373e-01 -1.706159992317207025e-02 -5.770710160558203961e-02 -9.981877539983871062e-01
-1.075625215594655792e-01 8.324131027446099451e-03 -6.262848390780286767e-01 -4.830414516914941642e-02 1.625351207163789335e-01 -9.855196822454586059e-01
-3.517952934082571592e-02 1.116583669814138688e-02 -6.321132367780305517e-01 -1.206127051245766968e-01 1.233982966433996575e-01 -9.850002211918733597e-01
-1.849189946867755424e-02 -1.270075094115676040e-01 -6.674131399862772707e-01 -1.328518188389679056e-01 3.177625882451342032e-01 -9.388169852228552825e-01
-1.089980097538157805e-01 -4.709389818879627237e-02 -6.348053844260619361e-01 -1.062345412829911184e-01 1.202300083636838601e-01 -9.870455751014037826e-01
8.891158156197584428e-02 -9.026481151517412593e-02 -6.507882222394061333e-01 -8.025955229948308900e-02 3.729861172352153531e-01 -9.243591080389075287e-01
9.238554477964940059e-02 -2.935463973189552083e-03 -6.306376264334694337e-01 1.520272697069494777e-02 3.989547986699265580e-02 -9.990881981981555304e-01
-5.275047774768459180e-02 1.649605046425761945e-01 -6.322176366816558701e-01 -7.815061368999695612e-02 -2.037523937680157937e-01 -9.758982752386030635e-01
-2.865998959903183485e-02 1.014113709304354377e-01 -6.293472514996880651e-01 -1.716551112095886511e-01 -1.579192449713598748e-02 -9.850305263880406725e-01
1.145281773222321248e-01 4.959335610727800409e-02 -6.327013194155907128e-01 -4.209907836659587677e-02 -4.997280281165643323e-02 -9.978629097124668279e-01
-6.989960158301529447e-02 -5.288111499715386632e-02 -6.403442208535692348e-01 -1.203967967739775630e-01 2.082888830358256005e-01 -9.706288438585852774e-01
6.726422009075905262e-02 -7.585686364621914424e-02 -6.446490706794270054e-01 5.126531275099606433e-03 2.927997782301428598e-01 -9.561600329157586842e-01
-9.570756857349791563e-03 2.975754361336643283e-01 -7.725956750018773134e-01 4.303592044391830670e-03 -9.266770964317925241e-01 -3.758337904503238347e-01
-3.130328700772108674e-02 -5.467032662529019288e-02 -6.449448188084343503e-01 -1.026736347641924590e-01 2.301244435780431807e-01 -9.677297480144988473e-01
6.847165470458815850e-02 1.238989478600910007e-02 -6.308188543676047644e-01 2.146385477825370897e-02 9.441575804041809489e-03 -9.997250419912441233e-01
1.131909217791012973e-01 -3.935296304734546557e-02 -6.357813898702757704e-01 -4.713088998281781544e-02 2.264294225584596032e-01 -9.728866305018638583e-01
1.205870307450927215e-01 5.069491328273605102e-02 -6.329589431595041837e-01 -3.832902269594572892e-02 7.600906683620372271e-03 -9.992362644724021026e-01
8.167360186992494997e-02 -6.026516451024838128e-03 -6.309094352318351806e-01 9.263670521126681628e-03 4.557240978315468122e-02 -9.989180846671222858e-01
-1.978977949601526138e-03 2.512795643957674296e-01 -6.914497097771769019e-01 2.294746664153681504e-01 -7.621436227184622547e-01 -6.053746574007978776e-01
-9.234588538685033210e-02 1.038271923641596595e-01 -6.286159965455100362e-01 9.210586220347251329e-02 -4.504935089140468113e-02 -9.947296447437454781e-01
2.930432360932641936e-02 1.823254094305488682e-01 -6.396998730994081228e-01 1.420899791318142036e-01 -2.774605977990683425e-01 -9.501715921344440208e-01
8.309775526894390418e-02 -1.279568318000306182e-01 -6.677019849823151443e-01 -1.160577256444878941e-01 4.386355531704107524e-01 -8.911394143528365008e-01
-7.118733241446888182e-02 -7.223183940626937138e-02 -6.445501218800683274e-01 -1.295670773756091854e-01 2.307743691030500754e-01 -9.643420363260289951e-01
-7.989347896547041583e-02 -3.505998260811806627e-02 -6.356044529722132408e-01 -8.189141790194201520e-02 1.746527666528933931e-01 -9.812187354379754423e-01
-1.380724939465182745e-02 -5.417691807277375676e-02 -6.468005076850196211e-01 -1.232812642822291721e-01 2.231915698588277375e-01 -9.669473889622575147e-01
6.018638586535034890e-02 3.244258192983556777e-02 -6.311962695965225301e-01 3.704763022593272198e-02 1.884617463123050649e-03 -9.993117237937622077e-01
9.208772427114361725e-02 -1.023578813484813665e-01 -6.564221743352386396e-01 -9.917338077252141337e-02 4.138180313046072034e-01 -9.049415879013006370e-01
-4.809720099298727541e-02 -3.260157762848571450e-02 -6.382227871800414398e-01 -9.548142854028508764e-02 2.109100107268539748e-01 -9.728310563397453148e-01
3.357326800686061263e-02 7.720468578067196663e-02 -6.319414917135990351e-01 4.222082370814882885e-02 2.219855391283379747e-02 -9.988616652217584546e-01
3.894528768224880810e-02 1.624618916828235171e-01 -6.333406253621295390e-01 1.142058670292473710e-01 -1.954223848631461979e-01 -9.740467706586259933e-01
1.088035567818717159e-01 -9.243496813574345397e-03 -6.309211417851823267e-01 -7.869028368645031302e-03 3.616294334345408756e-02 -9.993149252969614205e-01
5.627925530374189300e-02 -4.406659254823198230e-02 -6.372111318239604971e-01 8.971278952395962680e-02 1.681384297799052019e-01 -9.816725950269659107e-01
-1.120502866987968234e-04 1.212623973012005446e-01 -6.351089441016455339e-01 2.309452743116464091e-01 -4.653257344160002806e-02 -9.718533839432882404e-01
2.344006587635163313e-02 1.409621053884715092e-01 -6.326971187709653499e-01 1.190350681358017249e-01 -5.502219800844296294e-02 -9.913643176351590869e-01
9.843810794329758973e-02 5.610260875256380120e-02 -6.320673592607188862e-01 -3.223224020159230069e-02 3.511357672690713569e-03 -9.994742383167668498e-01
-1.151978353966772893e-03 5.087664498600334706e-02 -6.359944678559963371e-01 2.660685463921898530e-01 3.762252521197542721e-02 -9.632196396551627737e-01
3.535657522470395803e-02 9.300506174322896447e-03 -6.330905772320435387e-01 9.668983241349447810e-02 4.670251513628432410e-02 -9.942182614435302046e-01
-4.063531366185681171e-02 8.740867253345421806e-02 -6.274758266748856617e-01 -1.303283886373713951e-01 -3.431051855139334843e-03 -9.914649459251465569e-01
7.731869825035336818e-02 -9.046748638878246429e-02 -6.501206161486855484e-01 -6.455460758297529300e-02 3.575576858387088386e-01 -9.316572352198393414e-01
-7.442136285029322951e-02 2.040312747979747265e-02 -6.265742597857697493e-01 -9.273577667650503842e-02 1.182176335197022976e-01 -9.886478983183077940e-01
1.107650195531781484e-01 -9.207392539873852921e-02 -6.540161693608079752e-01 -1.161367659988412210e-01 4.057697691440636523e-01 -9.065666804113770016e-01
1.738850607257692513e-02 -2.375745668941274813e-01 -7.232416167282131880e-01 6.226225394123867385e-02 7.159460461320124036e-01 -6.953737633547121266e-01
-3.490899770653851236e-02 -2.251765656353343081e-01 -7.147807577616608343e-01 1.599776710400478696e-01 5.955339931205930748e-01 -7.872397397276407194e-01
9.089494792721988792e-02 -1.408171106980283527e-01 -6.751136164334157197e-01 -1.216327504438853707e-01 4.414963947173680681e-01 -8.889805439215311411e-01
4.633382439046333096e-02 -1.572095870640933535e-01 -6.789388640365110472e-01 -2.200431044515503004e-02 4.304279569287030038e-01 -9.023566834772243084e-01
-1.200714463742520305e-01 4.654386544326523899e-03 -6.262737413437643452e-01 -5.088818829717683956e-02 1.651396872482299716e-01 -9.849564843115597990e-01
-2.469918355367558410e-02 -1.722797652929966908e-02 -6.378397856398626553e-01 -1.259473640261921379e-01 1.827080983969587569e-01 -9.750666706820725338e-01
-6.324501030284389314e-02 1.324197903132323662e-01 -6.277561601763578247e-01 3.425491166868448178e-02 -7.034153742892294836e-02 -9.969346363421757173e-01
9.934372742199221173e-02 1.242638152657227074e-01 -6.279376835850135619e-01 4.140949417249110281e-02 6.550268391615951535e-02 -9.969928044836421366e-01
3.025658606598300229e-02 -1.777848096072758843e-01 -6.891037811863618412e-01 4.364882064241869947e-02 4.196474373356282039e-01 -9.066370877005672790e-01
-3.557124218725749715e-02 9.573471593280830777e-03 -6.322647591760188757e-01 -1.206127051245766968e-01 1.233982966433996575e-01 -9.850002211918733597e-01
-3.527573856785271716e-02 -3.032972466895255195e-03 -6.341259152124849585e-01 -1.095309534963293807e-01 1.543797122071457473e-01 -9.819215216528374146e-01
6.001461617138202642e-02 1.603104150845491641e-02 -6.310638886322686991e-01 5.317920590965611455e-02 1.057768792493077488e-02 -9.985289603096052513e-01
-8.237969066658811651e-03 2.010797436164252910e-02 -6.356811451173771665e-01 -2.196745446224792064e-01 7.029289641048067083e-02 -9.730375137470969049e-01
-3.937051359198326383e-02 1.064757245615257503e-01 -6.280219597464430370e-01 -1.251205646659002135e-01 -2.879015063792022752e-02 -9.917237375014941181e-01
8.430773373184688793e-03 -2.173540291795986457e-01 -7.119687327436985402e-01 1.782877843961969688e-01 4.834648554468638504e-01 -8.570152854429365918e-01
1.170336944233551016e-02 5.989389324687695998e-02 -6.336943702766689723e-01 8.290588998501847995e-02 2.818652657108039472e-02 -9.961586887266755674e-01
1.108907853736589844e-01 2.997549466152903824e-02 -6.314985673365159924e-01 -3.570514758398064814e-02 -5.934936933509778190e-02 -9.975985138298535393e-01
-5.955109339999812429e-02 -7.463356363270215975e-03 -6.322425233565990288e-01 -1.023997209134199365e-01 1.719018775536297616e-01 -9.797775470229914685e-01
-5.647716582000486540e-02 1.861316633059241221e-01 -6.381684624992129962e-01 -1.270487447027969508e-01 -3.501919832246128128e-01 -9.280216545720558763e-01
-9.911445522856662110e-03 2.746071626908104246e-01 -7.269406010850556488e-01 -3.203236774438855128e-01 -7.995704791720276150e-01 -5.080155415983251821e-01
-4.052089608467536463e-02 -1.950330730001748891e-01 -6.959581972186574816e-01 3.233009201548107947e-02 5.135551334622479036e-01 -8.574473103607261892e-01
-6.531788346017964458e-03 -2.148542234738028411e-01 -7.119265911287482318e-01 -3.924771312116382416e-01 4.954420685223697718e-01 -7.749186139293324782e-01
1.089439654153467017e-02 -1.353138650513198427e-01 -6.719037870313182559e-01 1.458780151450296270e-01 3.749187552070988860e-01 -9.155083460522388528e-01
1.158730549033603202e-01 6.820904742755003365e-03 -6.305709447413534452e-01 -1.561189082455623559e-02 -2.870355534249109664e-02 -9.994660448337315817e-01
1.308997642199805599e-02 1.229255210846945806e-01 -6.331482784397897134e-01 1.163741782599772012e-01 -2.697668116658297893e-02 -9.928390147992531833e-01
-4.119232221882602324e-02 -2.178185408796938227e-01 -7.109043089253157532e-01 1.714288409553191284e-01 5.686657613075586370e-01 -8.045069324780306230e-01
-5.031394668073677773e-02 -2.077156395402045830e-01 -7.056788442976209552e-01 1.703247188946284407e-01 5.703307692937551465e-01 -8.035622587766672043e-01
-5.399818901386130993e-02 8.103204684522026524e-02 -6.260778020123964893e-01 -9.526597738191962261e-02 -2.907198072763683000e-02 -9.950272425868749160e-01
-2.839240974817556790e-03 -2.141371077501795506e-02 -6.421473396805617018e-01 -2.524000747218135277e-01 1.535256369976103208e-01 -9.553659409173538286e-01
7.486465155948535122e-02 -1.403219881473369846e-01 -6.727890360833216343e-01 -1.077489585165132963e-01 4.427584434535437041e-01 -8.901433158144826940e-01
-2.569545462169302991e-02 -2.241428645459556945e-01 -7.131837383758208304e-01 2.914947049064831389e-02 5.393839005752506521e-01 -8.415552959671414035e-01
-1.138533101793345013e-02 -1.815405704828946393e-02 -6.398195206095695919e-01 -1.333859318684790518e-01 1.669541335401369953e-01 -9.769004608830111902e-01
-5.976028787888180288e-02 3.763827687275789896e-02 -6.261711005540137043e-01 -1.208327036858799358e-01 7.134686373627488476e-02 -9.901055917198718914e-01
3.404158828800165487e-02 -5.851705160213075546e-02 -6.429744415176585903e-01 1.301098466961723987e-01 2.134057681476528856e-01 -9.682610215814787535e-01
7.894509924339158935e-02 7.011361156471546119e-02 -6.313345744609877297e-01 -1.045216803626246478e-02 2.216723744155780704e-02 -9.996996377750425600e-01
-4.243500878200289622e-02 1.745255403497024405e-01 -6.360125630027608779e-01 -1.650526762664135949e-01 -2.874449456049401608e-01 -9.434686096015423296e-01
-1.083704139249370632e-02 1.813942765532740309e-02 -6.352730662417528373e-01 -2.203385374672884311e-01 9.801419599665693594e-02 -9.704865513184123271e-01
-8.225906348956571468e-02 7.039554549205985501e-02 -6.247515911967375102e-01 -3.508630100256085460e-02 -7.768996254619155162e-02 -9.963599857488903977e-01
6.685513400492225887e-03 -2.078872563163509934e-01 -7.071431233935785432e-01 1.816455422772480788e-01 4.685596518306434644e-01 -8.645558106028498058e-01
-4.301197158799640458e-02 6.263673043950503116e-02 -6.271312906503263562e-01 -1.471736655489021550e-01 1.527883895566272722e-02 -9.889926537892315128e-01
7.732161716976847232e-02 -1.260965590013232718e-01 -6.660443768105038798e-01 -8.502783525337863357e-02 4.324966508618990901e-01 -8.976173540130366613e-01
-2.230422721321313057e-02 1.852391969197804966e-01 -6.436881934557934226e-01 -2.234185320703079847e-01 -3.664587866160115004e-01 -9.032121108795370112e-01
5.831979723036842533e-02 -1.997078290452004301e-01 -6.981517804489968393e-01 6.599161423901015941e-03 3.796326551712648212e-01 -9.251137758114494902e-01
7.500335273540992276e-02 -5.772229302289220597e-04 -6.308621945964069111e-01 4.430809294754706196e-02 4.587239487051340825e-02 -9.979641858745209593e-01
-1.180337915986961680e-02 1.646804551765070623e-01 -6.398037662277393789e-01 -3.159151609506041791e-01 -2.249039116778429881e-01 -9.217460830367324442e-01
-1.321849777101003973e-02 2.556224945888160294e-01 -6.975128245714321551e-01 -3.571989202775898709e-01 -7.265087222268628020e-01 -5.870213010452133284e-01
-2.363958213094168037e-02 2.074636116888764481e-02 -6.327249561640284625e-01 -1.535728221699183549e-01 8.129661910325924890e-02 -9.847874125988542726e-01
-1.136364807288840935e-02 -1.330000404185456564e-01 -6.707526671654403527e-01 -1.558944082012167220e-01 3.632738525587400624e-01 -9.185472451315299658e-01
7.769081531623230064e-02 -1.015832754109518565e-01 -6.547394714637302382e-01 -6.487279240832072302e-02 4.080431556940865012e-01 -9.106548763919064537e-01
9.747620921438413660e-03 1.384305363154225144e-01 -6.343864971177812784e-01 1.619074763642873171e-01 -6.479415493254840619e-02 -9.846764375082429632e-01
1.014827508925119220e-01 2.138709736386062640e-02 -6.307906800187540464e-01 -1.706159992317207025e-02 -5.770710160558203961e-02 -9.981877539983871062e-01
1.153647345399187035e-01 -8.323642010777634881e-02 -6.506498461497433050e-01 -1.161367659988412210e-01 4.057697691440636523e-01 -9.065666804113770016e-01
-5.563523187179656576e-02 2.919318777968629708e-02 -6.273860403010205200e-01 -1.214001204822262314e-01 1.033592746246064092e-01 -9.872076129649610676e-01
-5.147619350892190110e-02 -1.935814775352965866e-01 -6.960768274961302016e-01 1.049124637462827414e-01 5.655246319000778454e-01 -8.180313353808437160e-01
-1.045075691661117717e-01 -1.032253993988655888e-01 -6.476926746937547996e-01 -1.290941030220189856e-01 3.389615367927581446e-01 -9.319011691912570949e-01
-9.091566966236619418e-02 4.498299553000423279e-02 -6.232765250382501510e-01 -4.748407956230362575e-02 5.695126887326443926e-02 -9.972471184023777857e-01
7.933296265409386927e-02 1.422718785678581399e-01 -6.282366669099769263e-01 4.662201188373194666e-02 -3.302679086158475091e-03 -9.989071429911626776e-01
-1.081602783096578951e-01 6.623144679508349841e-02 -6.242684458354486043e-01 -3.844427533759217468e-03 -1.212566760754787698e-01 -9.926137410312554366e-01
4.397717606589778699e-02 1.472167662461216775e-01 -6.308850802037127004e-01 8.522981318179712051e-02 -1.049045894411223256e-01 -9.908233475545402680e-01
-4.588469750870969449e-02 -9.807219634740167724e-02 -6.546906483363211793e-01 -1.173071354413977863e-01 2.873963180702235332e-01 -9.506010689738427777e-01
-4.705806615830380318e-02 -1.719467695603993027e-02 -6.352414382718629682e-01 -9.488936026295427539e-02 1.896095226065218076e-01 -9.772636482780959755e-01
9.814784469815676649e-02 6.716587763147782719e-02 -6.319340018934351821e-01 -3.265603680799020886e-02 2.866402592506359787e-02 -9.990555324293852735e-01
-3.397174587124440759e-02 2.211638561418535764e-01 -6.611315146291608658e-01 -1.650001286327129890e-01 -5.734997062187578987e-01 -8.024170016382917714e-01
1.173181407654935865e-01 5.672613316283085794e-02 -6.327876762591720938e-01 -3.832902269594572892e-02 7.600906683620372271e-03 -9.992362644724021026e-01
-4.196108097362291622e-02 1.522139620625893308e-01 -6.309454291074786392e-01 -1.313118314270267650e-01 -1.466456078675462682e-01 -9.804347345032398131e-01
-8.456107437116725661e-03 -1.936200321169352992e-02 -6.405547220927858554e-01 -1.770374475217749155e-01 1.647790121085515314e-01 -9.703121247018944295e-01
7.569969122804846851e-02 -1.386079756074398983e-01 -6.720375628567828441e-01 -1.077489585165132963e-01 4.427584434535437041e-01 -8.901433158144826940e-01
-1.266050930975398670e-02 1.729447670139562243e-01 -6.419001016047569674e-01 -3.259250779978498103e-01 -2.904019114467547569e-01 -8.996885979938652467e-01
-3.259108048686577136e-02 1.844842586656570971e-01 -6.411354924823822188e-01 -1.762985883081765737e-01 -3.729228818613446461e-01 -9.109595665806324849e-01
3.216809625493850799e-02 1.561941456117895977e-01 -6.330901300705236157e-01 1.197058463265375516e-01 -1.078059271851369849e-01 -9.869389000434627413e-01
-6.916023399932891280e-02 1.437241222323047407e-01 -6.284546432239143110e-01 -3.225925228618431407e-04 -3.151216112995570973e-02 -9.995033164702276096e-01
7.866423409412026668e-02 1.436121761756450343e-01 -6.282723099064239092e-01 4.662201188373194666e-02 -3.302679086158475091e-03 -9.989071429911626776e-01
-4.195487479263330932e-02 1.861492261768128154e-01 -6.402018289019475450e-01 -1.308476971522206933e-01 -3.792015835824550374e-01 -9.160158509319142883e-01
-9.333315009752042590e-02 -1.144950791558387859e-01 -6.533397752125842395e-01 -1.290941030220189856e-01 3.389615367927581446e-01 -9.319011691912570949e-01
1.835149694359217848e-02 -1.615799634195903001e-01 -6.823986655482185970e-01 9.259461123059370413e-02 4.105288785741874613e-01 -9.071341013475766601e-01
-4.306393501252266803e-02 -1.516338063659957158e-01 -6.737467870286238947e-01 -9.269723568687945892e-02 4.024873689452299619e-01 -9.107201218461999925e-01
-5.068565906746850397e-02 1.627787648524365444e-02 -6.294658563315543853e-01 -1.128661686004210074e-01 1.462668093519247370e-01 -9.827854539356334351e-01
2.127330653200492586e-03 2.331772972203922378e-01 -6.737849286720665187e-01 1.263193141024371580e-01 -6.285794837794245193e-01 -7.674185712219127042e-01
3.965389803974493643e-02 -6.369171345796842409e-02 -6.434377741579556664e-01 1.295577735925788343e-01 2.605742556488466755e-01 -9.567214017647893698e-01
-1.092262329776260560e-02 1.045869066469347769e-01 -6.330018147394994577e-01 -2.601944231578825484e-01 -3.738051126352696235e-02 -9.648323997126205809e-01
-2.856402268853391532e-02 7.579056648307634647e-02 -6.291705294735369103e-01 -1.755669283404522607e-01 1.745018993573156305e-02 -9.843128285988684834e-01
-1.135797889903271407e-02 2.685676844445812894e-01 -7.166489050690630913e-01 -3.592897542294250512e-01 -7.785552756234417338e-01 -5.145508286891256056e-01
-5.743818847483018152e-03 -2.211500178325235405e-02 -6.415377577713843316e-01 -1.900006075736034583e-01 1.595233820592017460e-01 -9.687373533099956635e-01
-9.234718049045625987e-02 -1.188847659371512905e-01 -6.552341639216929803e-01 -1.287143055245459633e-01 3.934136625695039413e-01 -9.103067162539132395e-01
4.437183979513322635e-02 6.929571347762471245e-02 -6.316289316877697901e-01 2.149607020658273610e-02 1.536313653712205983e-02 -9.996508855602617150e-01
-5.945001163196419330e-02 8.531640272724125285e-02 -6.258290126217819216e-01 -4.001294780109799359e-02 -3.459411110790953231e-02 -9.986001259187383683e-01
-1.724188526359577908e-02 -1.128709188510710615e-01 -6.626904647574719531e-01 -1.202587810084632669e-01 2.954931169199290220e-01 -9.477455583875366019e-01
5.775389483137847307e-02 5.148273494410810641e-02 -6.314733757498546263e-01 2.505869523393519649e-02 7.111798970393145951e-03 -9.996606844867800268e-01
-8.007510637109414506e-03 1.670802393971355937e-01 -6.418584469178669760e-01 -4.014789583337765033e-01 -2.239860224739713968e-01 -8.880568156100797639e-01
8.717029253445250300e-03 2.344747825528259444e-01 -6.738398653699908536e-01 1.291898874814662868e-01 -6.490561156170354673e-01 -7.496906907202806059e-01
6.690035941254322827e-02 5.647148849158471068e-02 -6.314219866510019097e-01 -2.285768698020731148e-03 7.689849630520340703e-04 -9.999970919575644768e-01
2.721113514688040715e-03 5.133042781207142191e-02 -6.350892978195317173e-01 1.915531584654940334e-01 3.585427585428252462e-02 -9.808271297149452339e-01
-2.146744477648566615e-02 2.253083276210309793e-01 -6.668878400546329743e-01 -1.762102963688077784e-01 -6.027932887565694564e-01 -7.781967504967212124e-01
-6.679406093063996325e-03 2.421177353763155904e-01 -6.824062944658120244e-01 8.074958427246725634e-02 -6.484248647881465377e-01 -7.569839492118030089e-01
-1.086862168316668834e-02 -7.198046295477775105e-04 -6.373301912725266583e-01 -2.050988324427358844e-01 1.301595918186340683e-01 -9.700479109756554585e-01
1.218748547975629370e-01 6.664991047404259655e-03 -6.306602165758266043e-01 -1.561189082455623559e-02 -2.870355534249109664e-02 -9.994660448337315817e-01
1.920718275844367912e-02 -8.973463888357172125e-02 -6.540841630230070924e-01 1.969549934226073884e-01 2.860460326206483161e-01 -9.377560438556968858e-01
-8.190603411451297111e-02 -1.459923700675817282e-01 -6.685185132786973794e-01 -4.316683310164026038e-02 4.388273322824179923e-01 -8.975339530969685953e-01
5.279416793399258762e-02 7.590556073051140697e-03 -6.316615481032313850e-01 6.976101711161475372e-02 2.806220006813989892e-02 -9.971689492853699210e-01
7.804138828696420560e-02 1.532356956904918840e-02 -6.305299386041814946e-01 3.544665578234684755e-02 -4.119241067383155527e-03 -9.993630803901436543e-01
5.449471090559022263e-02 -4.601839571865742190e-02 -6.377634540636591964e-01 8.922744317789181590e-02 2.201699450961431270e-01 -9.713720495568614055e-01
8.219019701644705855e-02 -1.125295001949521978e-01 -6.599936628356396495e-01 -1.119043968468188543e-01 4.246624160382765356e-01 -8.984092822154519098e-01
7.047286891266740794e-02 -1.124675835427458720e-01 -6.589438263721396627e-01 -7.850632452654000837e-02 4.009113491852407951e-01 -9.127468691284585933e-01
4.137726584876615793e-02 -1.173490531824679106e-01 -6.610620753877322064e-01 8.924909317455831381e-02 3.836263425258684689e-01 -9.191656154838169224e-01
5.774052705202308705e-02 1.100288803856231679e-01 -6.300303486309002388e-01 3.292830348980395339e-02 4.822692829601282760e-02 -9.982934890183421395e-01
3.822503540546276501e-02 -8.290149077550885981e-02 -6.489668678296010018e-01 1.225916025090152545e-01 3.015806912058382472e-01 -9.455265124183883652e-01
-3.698755483467339178e-02 -4.345342375512206007e-02 -6.417132424026749105e-01 -1.016424495606759598e-01 2.104346534956821335e-01 -9.723096569794303923e-01
6.832245760460164963e-02 -6.005546643725974063e-03 -6.314036960567798173e-01 3.510855282426821738e-02 5.469739480435630713e-02 -9.978855568251311370e-01
-4.280414703612597793e-02 -2.027660595977512359e-01 -7.010142057393407011e-01 1.034533192426278086e-01 5.466997505356314679e-01 -8.309132286237602694e-01
4.163749018949797903e-02 -1.605964899128206058e-01 -6.805631183845359811e-01 2.450526790034761315e-02 4.195854337348570162e-01 -9.073850095977255004e-01
3.241077993677676100e-02 1.871946749255749276e-01 -6.411914441871962023e-01 1.281594583529220843e-01 -3.696107776592646998e-01 -9.203059416698335937e-01
5.821573422217959926e-02 -1.953463179866682733e-02 -6.332991790311914837e-01 8.955668951904031949e-02 1.140796045924179075e-01 -9.894268255805618306e-01
-4.905969252467527741e-02 2.132363569782184942e-01 -6.526873892375192332e-01 -1.668008003049857857e-01 -4.973872986660385354e-01 -8.513420981857511283e-01
-3.507661427632009776e-02 -2.300297660740039385e-01 -7.184861864867478909e-01 1.599776710400478696e-01 5.955339931205930748e-01 -7.872397397276407194e-01
9.998289906449386866e-02 -6.805217990035261622e-02 -6.434155896981528233e-01 -5.716655468945704144e-02 3.319588722816013693e-01 -9.415600310858912581e-01
-5.345495965903123564e-02 9.701349433335770822e-02 -6.265930935010599612e-01 -7.854817259354961168e-02 -3.518199668641321110e-02 -9.962893212773943352e-01
-8.927658022319208408e-02 -6.859213117539753046e-02 -6.411109004877914019e-01 -1.348721031432500994e-01 2.048883394256795498e-01 -9.694484432712778821e-01
8.206087863632821611e-02 1.502376110246444185e-01 -6.283612706619371435e-01 5.674177596428529868e-02 -7.232060475079454820e-02 -9.957660874868645706e-01
-1.090584259085611296e-02 2.208483529363040321e-01 -6.668713868905234987e-01 -4.261472913889333691e-01 -5.050634594360959850e-01 -7.505393980227277329e-01
-1.220383790453915228e-02 -2.156832204962997462e-02 -6.402912660632956721e-01 -1.333859318684790518e-01 1.669541335401369953e-01 -9.769004608830111902e-01
-6.714409877209326361e-02 -6.668942277776067351e-02 -6.437630890739554079e-01 -1.208573119407030105e-01 2.407402015005513374e-01 -9.630356512258211321e-01
-1.297001419316319570e-02 2.788257214618468649e-01 -7.329924884820829822e-01 -5.527324081325993288e-02 -8.765405196797990683e-01 -4.781438969698006969e-01
-8.360551234089098893e-02 1.228190135407363215e-01 -6.285726746225813732e-01 9.053952930168486513e-02 -2.994170424788842808e-02 -9.954426593132129630e-01
9.901920336171692039e-02 -1.214392518487544259e-01 -6.666763781399452915e-01 -1.284044577168138856e-01 4.461141545249518447e-01 -8.857169166110232528e-01
2.562712039072901835e-02 -1.110128119922679790e-01 -6.602816497525171302e-01 1.300429433613705943e-01 3.266601670614587283e-01 -9.361527482934027811e-01
-5.009071536591779179e-03 -3.780652166985309925e-02 -6.446252812143333788e-01 -2.321694020496843092e-01 1.872550659464868317e-01 -9.544804393120210895e-01
-2.980200548992828144e-02 -1.710124063880483769e-01 -6.839193586107912282e-01 -9.278767546692737178e-02 4.285004823243488969e-01 -8.987645876030299075e-01
-4.709884736605295108e-02 -1.505263706910436317e-01 -6.729504606773606401e-01 -7.820525426791259671e-02 4.200304393645259982e-01 -9.041340432768442126e-01
-8.963695865929241502e-02 -2.454989776089596884e-02 -6.329548752646886323e-01 -6.551374123697713270e-02 1.682913474806755627e-01 -9.835578132841369392e-01
-6.713525846138583553e-02 -7.396267258094450965e-03 -6.315863448231370247e-01 -7.785465354036785746e-02 1.750791385793587229e-01 -9.814713180508227719e-01
9.086935814873615957e-02 -1.380991828563333523e-01 -6.737603045903425292e-01 -1.216327504438853707e-01 4.414963947173680681e-01 -8.889805439215311411e-01
-3.842781028589575560e-03 5.939819629183757527e-02 -6.351371976094921656e-01 -3.833994343141906569e-01 2.309924564767891833e-02 -9.232937228304256561e-01
1.119127932014337273e-01 -6.447768463081805790e-02 -6.430513386603016190e-01 -7.268998844779532564e-02 3.520685287888559167e-01 -9.331473177456547363e-01
-5.682462073702924943e-02 -8.389278363561616936e-02 -6.494139396992052449e-01 -1.314891316412394040e-01 2.602872046846806398e-01 -9.565360313849489149e-01
-4.433266663988771200e-02 -6.818354226006072272e-02 -6.468614748731771336e-01 -1.150333160658334464e-01 2.463650135016388909e-01 -9.623261486197052239e-01
4.081763268073268502e-02 1.750766334821823311e-01 -6.360477026386504029e-01 1.159806699217296871e-01 -2.812197125891020000e-01 -9.526090265454184580e-01
2.184111507718602962e-02 -4.193390277237758063e-02 -6.414641227596108441e-01 1.631285090151010642e-01 1.776192093755966928e-01 -9.704846758230127879e-01
-3.103451140788731841e-02 -7.212282561409106250e-03 -6.352795504302843899e-01 -1.255900586089948867e-01 1.537372383934241249e-01 -9.800979536300199468e-01
-6.317340386155811949e-02 6.715333732857704796e-02 -6.252059584132904080e-01 -4.033449079578743657e-02 -1.521067970936719471e-02 -9.990704500059159887e-01
-3.157611713869085124e-02 -6.075514777157054597e-02 -6.463628320731452659e-01 -1.026736347641924590e-01 2.301244435780431807e-01 -9.677297480144988473e-01
7.927751594421915404e-02 -5.158751566497771918e-02 -6.378492773161645868e-01 -6.379772016871444046e-03 2.378441670357154814e-01 -9.712823743464612525e-01
-8.239473443163367744e-03 -1.646858355093452908e-02 -6.401184756329230119e-01 -1.900006075736034583e-01 1.595233820592017460e-01 -9.687373533099956635e-01
-1.117232135364287435e-02 -1.958463396685299063e-01 -6.996639422066492919e-01 -2.739364656014417476e-01 4.525872110277214810e-01 -8.486009835181307359e-01
-8.682584651495199590e-02 -1.306507329874128653e-01 -6.607669564738785084e-01 -9.138532138818039607e-02 3.810609098587245946e-01 -9.200224486459122053e-01
3.817184508553487349e-04 2.627355746396081715e-01 -7.071665645160826186e-01 2.533521536235411875e-01 -8.262418440462973024e-01 -5.031273212630053004e-01
6.554117004068120422e-02 1.472730698888468914e-01 -6.291703165455073687e-01 8.439368302458477578e-02 -8.081620097341403464e-02 -9.931497610762289874e-01
3.313439058937871131e-03 2.215617971501423755e-01 -6.648318299338783488e-01 1.524311135997816757e-01 -5.595162728413155540e-01 -8.146817145563615137e-01
5.565188008935906261e-02 -8.890873506520034775e-02 -6.493587667774991523e-01 5.698795254391092469e-02 3.303301328202581932e-01 -9.421435010739093174e-01
9.593498682517999365e-02 -1.174256577299951781e-01 -6.642050141395539065e-01 -1.315464236540561660e-01 4.448721435811661129e-01 -8.858805304832734206e-01
4.026784050655784347e-02 1.734848644898188408e-01 -6.356447340091653242e-01 1.159806699217296871e-01 -2.812197125891020000e-01 -9.526090265454184580e-01
-9.002347326982433617e-02 3.084535768755202606e-02 -6.241782201312279232e-01 -7.165007393708876238e-02 1.209207123734037798e-01 -9.900729509606442935e-01
1.051035759570732309e-01 5.235407477831875017e-02 -6.322954846098943760e-01 -3.223224020159230069e-02 3.511357672690713569e-03 -9.994742383167668498e-01
-6.059212515118923836e-02 -8.425446634304298299e-02 -6.489913134255546057e-01 -1.323995965930973295e-01 2.607983225723174980e-01 -9.562711863093285025e-01
1.031343564522658150e-02 3.796377845744833973e-02 -6.344918680744283668e-01 1.058781514200200918e-01 3.479259712355788764e-02 -9.937702411711054618e-01
7.971190077217878145e-02 1.275443427604249225e-01 -6.284855920485623582e-01 4.560700529848950302e-02 5.343959205248170058e-02 -9.975290527443136934e-01
1.381014965516466457e-02 -1.196177369700889524e-02 -6.379492248058827863e-01 1.651294045595027571e-01 1.399326611101968376e-01 -9.762945918647930599e-01
9.602309888094352763e-02 -6.659411473898303735e-02 -6.426611122596678216e-01 -5.716655468945704144e-02 3.319588722816013693e-01 -9.415600310858912581e-01
7.833024114559104800e-02 7.055103897185424980e-03 -6.304856117002960447e-01 3.544665578234684755e-02 -4.119241067383155527e-03 -9.993630803901436543e-01
8.728562027705742687e-02 5.314058859100825177e-02 -6.317028553528402091e-01 -2.266128893151274012e-02 6.692304306393372744e-04 -9.997429760266351995e-01
7.856102467523075339e-02 -6.062179318630676536e-03 -6.309563607274564223e-01 4.430809294754706196e-02 4.587239487051340825e-02 -9.979641858745209593e-01
-5.007665867415925925e-02 2.370828672854140631e-02 -6.286438576371400355e-01 -1.214001204822262314e-01 1.033592746246064092e-01 -9.872076129649610676e-01
-3.191657280858450907e-02 7.377775811140901974e-02 -6.286102991504288751e-01 -1.471736655489021550e-01 1.527883895566272722e-02 -9.889926537892315128e-01
-1.032967367137483106e-01 -1.103820625970608066e-01 -6.504635102401433722e-01 -1.290941030220189856e-01 3.389615367927581446e-01 -9.319011691912570949e-01
3.460465232236861755e-02 1.651467086524538719e-01 -6.344267662949881759e-01 1.327965538629107822e-01 -1.884332250478998050e-01 -9.730662849879152532e-01
-4.817107618263262447e-02 3.840995049950274992e-02 -6.275391001847873129e-01 -1.232713122781785020e-01 6.890241775826000392e-02 -9.899781009680376220e-01
-1.828302710277015554e-03 6.059138113011557775e-02 -6.357802473801069665e-01 2.205390469577137857e-01 3.710354758113971335e-02 -9.746721784907360631e-01
-3.088771599355641384e-02 1.523549105602418074e-01 -6.326750990226497340e-01 -1.731402728353710063e-01 -1.535837629247900626e-01 -9.728486386321126833e-01
7.364259159942215804e-02 9.099319670762746892e-02 -6.305823811095790932e-01 4.334544128622546712e-03 5.421425372647110941e-02 -9.985199178885110216e-01
-4.987334294636251546e-03 -4.334733019723568254e-02 -6.457175940011836701e-01 -2.321694020496843092e-01 1.872550659464868317e-01 -9.544804393120210895e-01
-1.361803016790045194e-02 -3.237578260675327141e-02 -6.421314154627725257e-01 -1.337705809442134852e-01 2.016739670968035192e-01 -9.702747253583826614e-01
3.355155281030773595e-02 1.726930582556644445e-01 -6.362519836330748912e-01 1.420899791318142036e-01 -2.774605977990683425e-01 -9.501715921344440208e-01
6.016503509517876630e-02 -1.347761437966025211e-01 -6.687950577833031707e-01 -3.818224720274302625e-02 4.300927238078350312e-01 -9.019769203954753900e-01
-6.811800580435156119e-04 -6.615329012354139067e-03 -6.406208078185453569e-01 -2.738831202290953892e-01 1.152999893469819764e-01 -9.548266590906230311e-01
1.842795951983305230e-02 -2.159490014076414222e-01 -7.093282850940094697e-01 1.303078281288490292e-01 4.873256617648755173e-01 -8.634428581636242050e-01
4.734598480211594899e-03 -7.274043378508494861e-02 -6.525652533350672080e-01 2.947765849884231293e-01 2.402775647707766360e-01 -9.248640207135253588e-01
-7.599909628742199108e-02 -1.484266748892047183e-01 -6.700128690945842402e-01 -4.907495539141912971e-02 4.095790309009801344e-01 -9.109537124352389270e-01
4.031160188964316021e-02 -2.141895914945334822e-01 -7.059413852339242457e-01 8.110995551431124384e-02 4.243226956752476076e-01 -9.018710689734744657e-01
1.050606991970641918e-01 -9.696279865581293456e-02 -6.555139448837793426e-01 -1.160617291088603120e-01 4.254362308989708130e-01 -8.975152859281779749e-01
-2.800054456292199942e-04 -4.022930138444605688e-03 -6.402400921507687137e-01 2.806781801144876964e-01 1.251627708109545878e-01 -9.516060319326185013e-01
7.522803654128595863e-02 8.635622871550026336e-02 -6.308156984665618250e-01 -1.066150587854902687e-02 3.601784548865124419e-02 -9.992942745251557346e-01
-3.964958031291448276e-02 -1.913381432448196529e-01 -6.938163153060391553e-01 9.410392307683299040e-03 4.943050725387219124e-01 -8.692375623378826299e-01
-8.489029075660532719e-02 -1.500410000640975128e-01 -6.704233483301165197e-01 -4.274335548850673877e-02 4.767242814714783283e-01 -8.780130779305543864e-01
-6.276330565879559287e-02 5.726855102874046227e-02 -6.250935161982748012e-01 -6.869861050276603043e-02 2.067535704325414517e-02 -9.974231953018353192e-01
8.056376471365550573e-02 -6.889147108301232891e-02 -6.426021701674698994e-01 -2.573907400790474351e-02 2.960186684854554939e-01 -9.548352988747921266e-01
-7.892267428086799375e-02 -1.394162513104192369e-01 -6.655644698298845974e-01 -9.283507282874901845e-02 4.227576542666617310e-01 -9.014752437043573874e-01
-7.356861205321822694e-02 1.665989660776186765e-01 -6.313019293055602832e-01 -5.663024680126079596e-02 -1.484081348107563481e-01 -9.873034187468513467e-01
1.870120657109497833e-02 2.024426790935422715e-01 -6.501885724685407819e-01 1.493099367261096766e-01 -4.395982522117427571e-01 -8.856974198038661816e-01
-1.109772445244055494e-01 8.332455525161060195e-02 -6.273460057332728157e-01 3.886314978479935706e-02 -1.803999115995567337e-01 -9.828252782075135308e-01
-6.745929382750939785e-02 -1.036278820415605234e-01 -6.535394680267433420e-01 -1.251749887089095015e-01 2.950101785597775139e-01 -9.472593186386991659e-01
-8.313467767157417532e-02 -2.741266768344286300e-02 -6.339568605847835103e-01 -8.200450836732657567e-02 1.816892682175373641e-01 -9.799307477684373602e-01
-3.628792756456351593e-03 2.997793757589663488e-01 -7.781791497544491287e-01 5.171816362765124450e-03 -9.357451853431563160e-01 -3.526389093997026047e-01
-9.926164575488613528e-02 -1.020955484072495340e-01 -6.481404508936945419e-01 -1.522599362525426936e-01 3.152980801041864733e-01 -9.366984746944909679e-01
-4.375813820493593825e-02 -1.810168738564230662e-01 -6.880139509949482202e-01 -2.006340991656596282e-02 4.739834808407043520e-01 -8.803051286188497970e-01
-2.932318182127605782e-02 1.029384287038790646e-01 -6.292561627961423820e-01 -1.716551112095886511e-01 -1.579192449713598748e-02 -9.850305263880406725e-01
-2.602340217513991749e-02 -1.915550572743323146e-02 -6.380299196637218007e-01 -1.259473640261921379e-01 1.827080983969587569e-01 -9.750666706820725338e-01
2.138526786271828170e-02 -1.312771490594757118e-01 -6.687453741374168592e-01 1.098153584899316804e-01 3.856989308544940820e-01 -9.160660029590815823e-01
-9.075106490080710187e-02 -8.822534061434830766e-02 -6.455336526434414246e-01 -1.527696493961054336e-01 2.586917013509086871e-01 -9.538029345077332355e-01
-5.232322444324896682e-02 1.831623779727905577e-01 -6.375460565491308795e-01 -1.076724375708268122e-01 -3.755295585365685529e-01 -9.205347341914297266e-01
-5.532867479558464460e-03 1.598243273839638767e-01 -6.409342565165626615e-01 3.455642634488416687e-01 -1.959112653837013773e-01 -9.177167950532540974e-01
-3.085547008058656115e-02 -1.401790433426380600e-01 -6.705822088694068928e-01 -1.200418424127241840e-01 3.513755902854788782e-01 -9.285069469970000933e-01
6.301737009625599240e-02 7.513457719454966210e-02 -6.311800642908726999e-01 4.831958625885868219e-03 1.690367086941684319e-02 -9.998454471001886334e-01
1.252220786048069585e-02 -1.947258862030561977e-01 -6.992668683072484903e-01 1.200725563971523913e-01 4.610432298251849192e-01 -8.792165384207774048e-01
5.484380193111815238e-02 6.149237163526030669e-02 -6.315038936608785569e-01 2.164237984807250784e-02 3.225645044118269009e-03 -9.997605726415507155e-01
8.170921281362009125e-02 5.570568672889827933e-02 -6.315749964089019119e-01 -2.018313055147229543e-02 -1.520189697662661281e-03 -9.997951441492529678e-01
5.145599563145650951e-02 -1.297870322451141756e-01 -6.661043096879404324e-01 2.473063992436854916e-02 3.935706619956326202e-01 -9.189616583216355661e-01
7.284904644485368230e-02 -9.871723479380692390e-02 -6.531085547493338250e-01 -7.850632452654000837e-02 4.009113491852407951e-01 -9.127468691284585933e-01
-3.846221209009389325e-02 1.686844099432130706e-01 -6.348550118637292794e-01 -1.501009190233441315e-01 -2.083221559624474084e-01 -9.664737934592458890e-01
8.064784221578444323e-02 9.002263058344803226e-02 -6.306046680462612519e-01 4.334544128622546712e-03 5.421425372647110941e-02 -9.985199178885110216e-01
-3.995072710607993488e-02 2.100998541633325722e-01 -6.525006007629277072e-01 -1.571444849022040624e-01 -5.185078925302963881e-01 -8.405088793395412150e-01
-5.904091763266148402e-02 -1.359861146168074297e-01 -6.658046249323689159e-01 -9.700520522802009993e-02 3.747567469566193687e-01 -9.220343652864365636e-01
-6.197856457645130844e-03 -8.016777915601919213e-02 -6.544945222467971613e-01 -1.635298135651638285e-01 2.731432111535586071e-01 -9.479719332744325211e-01
8.950086412199287356e-02 7.012569722585605680e-03 -6.303925221602428852e-01 9.844960294337953138e-03 -1.705791068141538844e-02 -9.998060334084746259e-01
-2.739664326557897725e-02 1.434505091370820995e-01 -6.319339209950600722e-01 -1.989181796334624774e-01 -9.252058281976988097e-02 -9.756390211374283972e-01
-3.998393078324129213e-02 1.281426949182369601e-01 -6.286998524933380406e-01 -1.419600156976147109e-01 -4.392326639629017676e-02 -9.888974166273332145e-01
-3.817047751743089107e-02 -2.344317359300651105e-01 -7.228154992571517168e-01 1.861487547834585476e-01 6.416045377352036505e-01 -7.441050048549353590e-01
-6.368218877673382031e-03 -7.147051091364270414e-02 -6.521739843054700225e-01 -1.634678775864811529e-01 2.461616023139988618e-01 -9.553442931967384144e-01
-4.511312955250564027e-02 1.621553844341088457e-01 -6.324147496343672792e-01 -1.501009190233441315e-01 -2.083221559624474084e-01 -9.664737934592458890e-01
6.882204218354854436e-03 1.706587886956985878e-01 -6.399699959396051296e-01 1.987960407461122347e-01 -2.747840793058916042e-01 -9.407304842215349350e-01
1.227105113028018751e-01 1.491207583769512367e-02 -6.309872387527671878e-01 -2.517145995781412335e-02 -3.898338296989854040e-02 -9.989227665119133626e-01
-1.508805788062660830e-02 -1.967248729094738663e-02 -6.395734530958809838e-01 -1.333859318684790518e-01 1.669541335401369953e-01 -9.769004608830111902e-01
6.226547644762533279e-02 5.268258070100426821e-02 -6.314143059713832606e-01 -2.285768698020731148e-03 7.689849630520340703e-04 -9.999970919575644768e-01
-9.620017112894714215e-03 -2.427403362838714829e-01 -7.334769326086443275e-01 -3.137807521106193431e-01 7.943355111932876023e-01 -5.201660650813282327e-01
1.164313232312444851e-01 1.869167537265760751e-02 -6.309765124430606331e-01 -2.517145995781412335e-02 -3.898338296989854040e-02 -9.989227665119133626e-01
-6.822395643066067605e-02 1.074287991722918389e-01 -6.269625602578047241e-01 5.595383144515828078e-02 -4.000757431081216481e-02 -9.976314764202118823e-01
-5.193041316399937130e-02 1.855087267225991876e-01 -6.385491889936025789e-01 -1.076724375708268122e-01 -3.755295585365685529e-01 -9.205347341914297266e-01
-3.798527278283184150e-02 1.105545534288337878e-01 -6.283049617253413377e-01 -1.302880344081388808e-01 -2.410194107366626579e-02 -9.911831942312909760e-01
7.839660515025237419e-02 -2.166514865067778114e-02 -6.324080476476879875e-01 4.386020149668061474e-02 1.152825891559212529e-01 -9.923639490439873923e-01
