-7.736280850885857152e-02 1.250598248049382688e-01 -7.008268661984901060e-01 -3.520728101581419578e-01 -9.355581072874692428e-01 2.785254451638482370e-02
-2.890995971059996325e-02 -1.586356129398398471e-02 -9.124786552462234024e-01 -4.609879759612310890e-01 -6.476324642571966717e-01 6.066813638635345507e-01
7.619161100048606194e-02 5.927599909171585996e-02 -7.320617454185610606e-01 -4.389110159542535250e-01 -8.069429481601561038e-01 3.952217080179181719e-01
-3.947714638626275557e-02 -1.354164756318168225e-02 -9.180321427093897091e-01 -4.659490010336208021e-01 -6.434446261699240388e-01 6.073471342558699471e-01
1.133933861410545002e-01 1.198133224007716727e-02 -7.968645650931398539e-01 -3.260486285574830667e-01 -7.404884603092922735e-01 5.876811482126668151e-01
5.376895357668269593e-02 -1.763514651466197292e-01 -9.789229879571580417e-01 -5.077152102682895851e-01 -3.301157613283464132e-01 7.957693443359279417e-01
7.522903570092356884e-02 5.770534804755127201e-02 -7.363376003437559492e-01 -4.389110159542535250e-01 -8.069429481601561038e-01 3.952217080179181719e-01
2.175796163613648998e-02 9.117811008036284803e-02 -7.172976441810134940e-01 -2.215484685930615705e-01 -8.890504713447574536e-01 4.006314209666209658e-01
5.018651676455945787e-02 4.837267505780716570e-02 -7.782590142817235046e-01 -3.110242232029008513e-01 -8.221206908982405803e-01 4.768453650587700099e-01
3.638243450583615590e-02 5.615065556618034463e-03 -8.421178864079870152e-01 -2.748006757369621522e-01 -7.265289927632827549e-01 6.297937847334464934e-01
9.123750418202129786e-02 9.972101285537358223e-03 -8.113309575590922362e-01 -3.284889138870233927e-01 -7.163197604437383514e-01 6.156143551373289835e-01
7.715502707790210246e-02 4.416583454749811039e-02 -7.670379332324898103e-01 -3.210344551926097023e-01 -8.517620340664883161e-01 4.140511030079535026e-01
8.820878604768477016e-02 -4.791398214777976838e-02 -8.762127235588558216e-01 -2.652169183372664052e-01 -6.734034269466803169e-01 6.900636280837810776e-01
6.600575244999040692e-02 -9.075240282211967380e-02 -9.224519832913522510e-01 -2.815868253282711176e-01 -6.026221455780209624e-01 7.466963301506767126e-01
3.015468824529041192e-02 7.569514332511055599e-02 -7.421876223936190176e-01 -2.737199579234825264e-01 -8.457135219198869125e-01 4.580895365277708464e-01
6.993244015603465591e-02 -1.448905473391837728e-01 -9.550416216676029801e-01 -4.624267344468225849e-01 -3.737288695065348332e-01 8.040449286987731981e-01
-4.330518476807387190e-02 1.082610765201628411e-01 -6.493414971139227498e-01 -7.254639644905286344e-01 -6.314185712289148711e-01 -2.738843261906764304e-01
-3.928958697611213691e-02 1.087236377541751509e-01 -7.067653089244333442e-01 -4.387431694194600107e-01 -8.841431219080856385e-01 1.606093747898636737e-01
-2.927826423685590818e-02 -8.186528618219172937e-02 -9.645135002782624367e-01 -3.660883420637773278e-01 -4.942807329120588733e-01 7.884579144614586310e-01
-1.283557943109234906e-02 2.530732890865682386e-02 -8.440769230655489341e-01 -4.769466177268276152e-01 -7.306008918821053078e-01 4.886146340624805129e-01
8.977012936573912361e-02 -8.406461566033901489e-02 -9.081333264887908596e-01 -3.072123771991891461e-01 -5.690510368845981271e-01 7.627591184090734000e-01
5.766124065702129403e-02 1.316658526838854898e-02 -8.240658724899078136e-01 -2.704640312652567546e-01 -7.323994959920377967e-01 6.248521313577760639e-01
-7.987422352908388201e-02 4.510287121829131135e-02 -8.689914433293196572e-01 -3.432003316675229510e-01 -8.245308574012385483e-01 4.498470823918730988e-01
-1.136046782812107359e-01 7.885212466331197045e-02 -8.334078816989639593e-01 -3.375210619468198558e-01 -7.790656947983394254e-01 5.283333946767625466e-01
-3.515248947615583902e-02 -5.707552002153635368e-02 -9.512076816947173663e-01 -3.737210042725976344e-01 -5.358899958775070749e-01 7.570696951297725130e-01
6.950471930563903444e-02 -6.817613464545391189e-02 -9.022163070253683692e-01 -2.692956352370958761e-01 -6.245195348218757214e-01 7.331133687691944179e-01
-4.758893515537462697e-03 -1.270588644078150531e-01 -9.800347342909930815e-01 -4.661736430083726068e-01 -4.665606845682674364e-01 7.516669888850329162e-01
-5.501948775861835450e-02 -5.400576131261722312e-02 -9.580560495711832880e-01 -3.271126229413708342e-01 -5.268730853735597019e-01 7.844756744612049193e-01
-1.064558278123508839e-01 5.261357122862947433e-02 -8.740299487469199713e-01 -3.141218757131528649e-01 -8.480705739129447140e-01 4.267361583712113160e-01
-3.673451532747498000e-02 4.545116143124492553e-02 -8.330934801874355644e-01 -3.957852492043645309e-01 -7.916146234887718736e-01 4.655108209171607836e-01
-9.773622831949393963e-02 8.089880082350035806e-02 -8.203089237708703907e-01 -3.438640108531537121e-01 -7.721592212216972229e-01 5.343479008308016365e-01
-9.249663873405369885e-02 7.015284899085599823e-02 -5.508173905031713558e-01 -9.157007296553951736e-01 6.246246527414018451e-02 -3.969768433302548472e-01
6.742277094473295151e-02 6.884712441039593511e-02 -7.227267696859851487e-01 -4.448751046819064969e-01 -7.890723816686363579e-01 4.236164748000821323e-01
2.889665932722445749e-02 -8.870232620277995750e-02 -9.346194016262222570e-01 -2.485367342205767327e-01 -6.025303209378818359e-01 7.584106434468491642e-01
-3.055512865042402451e-02 -1.019566627205620857e-01 -9.777648007233717964e-01 -3.482449148677164708e-01 -4.966997236246135650e-01 7.949936250184711506e-01
6.339451618941827071e-02 7.059574702532954438e-02 -7.235032870500599511e-01 -4.116500596049531557e-01 -7.933063855683015753e-01 4.485634927675187789e-01
-3.414523029025733677e-04 -1.468681738374672807e-01 -9.894622712962366506e-01 -4.946440560897909511e-01 -4.519034699577187952e-01 7.423681779381529067e-01
5.182177406157361700e-03 -1.144008532463559463e-01 -9.657111539680056644e-01 -4.841603198089546312e-01 -4.696834228498036334e-01 7.382318518071292468e-01
-8.712290139428997826e-02 4.415915464454912148e-02 -8.760122114422888018e-01 -3.294225143878508066e-01 -8.256717908876443079e-01 4.579813323125478952e-01
-6.379697067711419256e-02 3.439006151762021707e-02 -8.753439019363189466e-01 -3.826836007503904846e-01 -8.017539265731871145e-01 4.590685166085692881e-01
-2.002518534059163566e-02 -6.995825741218225646e-02 -9.516320272435285776e-01 -4.223878215252549473e-01 -5.163825856322613594e-01 7.449413087504876962e-01
1.176167850919359464e-02 5.079546844019199037e-02 -7.909120899651403969e-01 -1.568547475148189818e-01 -8.184928103607490568e-01 5.526898837230745931e-01
-7.872802864254145605e-02 -1.367758101685426957e-03 -9.288339976091756212e-01 -3.598628749367863144e-01 -6.291643458153403090e-01 6.889491542900577636e-01
-1.222315424715347820e-02 1.070965525260764162e-01 -6.808930384284277437e-01 -4.245353628221006786e-02 -9.906453019827906603e-01 1.296903347075674673e-01
-4.818891159580201283e-02 1.142038542915110727e-01 -6.896463127320942021e-01 -3.745895117328174040e-01 -9.270994102600981224e-01 1.301465309363996313e-02
2.512245452401246754e-04 -1.222298513981315976e-01 -9.738483878996012644e-01 -4.560978341417637472e-01 -4.723425224809339462e-01 7.542329263215312718e-01
-6.211754560954407811e-03 -1.223267488631089306e-01 -9.779228362100637062e-01 -4.235737171430322690e-01 -4.785519944882399845e-01 7.691380205899082112e-01
-1.034814940500497493e-02 -7.314562904882782046e-02 -9.477069473606716254e-01 -4.637846216570573610e-01 -5.218437258719931249e-01 7.159489859497368824e-01
9.892541014307541791e-02 -7.506281510069491916e-03 -8.272883094642006219e-01 -3.266380295828062441e-01 -7.062790539446019977e-01 6.280744347522673188e-01
-4.908427918459495887e-02 4.840186886668063071e-02 -8.385237876938828050e-01 -3.731168713501382683e-01 -8.047489409575954156e-01 4.616957248464761965e-01
2.730261667657901334e-02 -2.155958353933523364e-01 -9.963988645378236697e-01 -8.019209012556161031e-02 2.951049223832750978e-02 9.963424910788185596e-01
9.847141243924538434e-02 2.063609925434202116e-02 -7.940742200622654678e-01 -3.076022196508991224e-01 -7.885174824570155838e-01 5.325608456556774062e-01
6.281433191355960920e-03 6.700546464290598955e-03 -8.509721784375128273e-01 -3.557993487953120537e-02 -7.549234804609248339e-01 6.548470102876947641e-01
-7.935196139821885930e-02 -2.601407273652863936e-02 -9.489405044133627509e-01 -3.090118174723931466e-01 -5.398241954062924508e-01 7.830080042479499181e-01
-8.594219689201046397e-02 2.420189189226191334e-02 -9.057990283949297616e-01 -3.604812584258556551e-01 -7.295975324332120149e-01 5.811546291574040124e-01
-2.928781532500226992e-02 -8.875780460561699670e-02 -9.688379572607526136e-01 -3.659574327770511171e-01 -4.941947757846383849e-01 7.885725591107016763e-01
8.564099098677220578e-02 -1.295826295793885141e-01 -9.392307817163544348e-01 -4.494251883923340851e-01 -3.726255384712046093e-01 8.118911307050714621e-01
5.418622156411859875e-02 -1.218572947879989765e-01 -9.493327787519524330e-01 -3.145190587370873536e-01 -5.028677447612953655e-01 8.051098018095577125e-01
4.851829265025914273e-02 7.415967031269600496e-02 -7.310816977613425749e-01 -3.975782258128388036e-01 -8.069178758339679014e-01 4.368238729958706656e-01
-5.212646448587520548e-02 7.466809620096610811e-02 -7.970027594308977115e-01 -3.865195905590582681e-01 -7.876370163113470824e-01 4.798234432061621590e-01
3.803972827519586097e-02 -2.665214980046714741e-02 -8.759056434641251387e-01 -2.857082449353275377e-01 -6.740114397289795889e-01 6.812337175231736319e-01
-2.868413568435817379e-02 2.272778794492803095e-02 -8.635258570049983984e-01 -4.506840351596658190e-01 -7.443791825643004678e-01 4.927306901514305060e-01
-4.810659092092538919e-02 4.150150886163307684e-02 -8.498412255934483239e-01 -3.853053666928413779e-01 -7.980485992851922283e-01 4.633122139299135078e-01
2.590379675475563623e-02 -8.960888796666999223e-02 -9.362349922163042404e-01 -1.981039313868317997e-01 -5.728731329313423437e-01 7.953434515569421936e-01
8.039694375319260400e-02 4.053581154267383441e-02 -7.719917875025656961e-01 -3.210344551926097023e-01 -8.517620340664883161e-01 4.140511030079535026e-01
1.639298985542932130e-02 -1.058180111824510439e-01 -9.515156772862688461e-01 -6.255195984388071118e-01 -4.470198944386187812e-01 6.394516760045590997e-01
7.675705776717277329e-02 6.448975308331761358e-02 -7.210704228722283338e-01 -4.295841242302317897e-01 -7.785933066004884218e-01 4.574384582938591515e-01
-7.915715129168390818e-02 1.259280672125327460e-01 -6.943444452665971101e-01 -3.520728101581419578e-01 -9.355581072874692428e-01 2.785254451638482370e-02
5.555248428540298516e-02 1.050266532106527290e-02 -8.281435005017068196e-01 -2.793778638710112117e-01 -7.383056015623723489e-01 6.138834155444290452e-01
4.952828857302289667e-02 -1.055642646185083328e-01 -9.400226044090386202e-01 -2.809288499841410824e-01 -5.740792226256549169e-01 7.690981909978150677e-01
-2.648723496433023992e-03 -3.813209474390776704e-02 -9.123227310907136012e-01 -5.625617696043153648e-01 -5.885207553077173026e-01 5.806613263785483925e-01
1.115560384158712920e-01 -8.513486918882735843e-02 -9.010608713206658127e-01 -2.754080568342983648e-01 -5.866020414631810675e-01 7.616091170554514234e-01
-8.516858927452108929e-02 8.828149760113909728e-02 -5.778163365401748353e-01 -1.538332628218478659e-01 -8.495565289296093114e-01 -5.045681632868431743e-01
-6.500578277096252799e-02 8.702329186151994134e-02 -7.875418924072663529e-01 -3.902369107187641517e-01 -7.720765507414507622e-01 5.016103600483741154e-01
2.338068157003782288e-02 1.037469159465722046e-01 -6.771655109323272415e-01 -1.748681115347488213e-01 -9.646276177571702082e-01 1.972680983544924105e-01
9.300977747217005487e-02 -1.123738920451247819e-01 -9.263359433477460492e-01 -3.551259239729159245e-01 -5.149850709539887106e-01 7.801768740592724960e-01
3.465267491061947702e-02 8.765712312661340377e-02 -7.163112983885355778e-01 -3.230561057937652580e-01 -8.718657572849261017e-01 3.680826724845250864e-01
-8.336214967714086765e-02 8.365639474122846253e-02 -8.063864052127259763e-01 -3.636877506066877874e-01 -7.801993495995053207e-01 5.089402665766943334e-01
-3.689061849586091485e-02 6.567804613250070866e-02 -7.992617603821859928e-01 -3.991164889227762358e-01 -7.871006723882295608e-01 4.702962468444251698e-01
-8.787633136296302272e-02 2.450720915253383134e-02 -9.066154384939737465e-01 -3.604812584258556551e-01 -7.295975324332120149e-01 5.811546291574040124e-01
7.160202502248831646e-02 5.824643681351750896e-02 -7.392423155348739616e-01 -4.131404199995959425e-01 -8.362212950887595309e-01 3.606229873463909774e-01
-5.129471798120788933e-02 7.588360732629463590e-02 -7.943574806894344587e-01 -3.888606185397486259e-01 -7.797634644734467990e-01 4.906692967990272658e-01
-5.417662336903772413e-02 2.893501818971263781e-02 -8.763303425383871526e-01 -3.933550649768433605e-01 -7.677124169598242842e-01 5.058551548642836737e-01
1.406788944218217118e-02 -6.944049290150798581e-02 -9.248963004782689845e-01 -6.404976890814759738e-01 -5.155556134389528422e-01 5.691793388141158649e-01
7.078604066287490226e-02 5.447337499185018334e-02 -7.490515918588682709e-01 -3.853259439830121202e-01 -8.522767078054533929e-01 3.537630990166988898e-01
6.707080924717259696e-02 -6.564051245979778126e-02 -9.008657648131699336e-01 -2.664855584369596464e-01 -6.509560805090386371e-01 7.108035089902496884e-01
-4.971354584396122517e-02 3.691602271321740153e-02 -8.594066439542160651e-01 -4.015007681561451602e-01 -7.894880034186446682e-01 4.642260501394418482e-01
-4.252229846894479276e-02 8.251311519057513699e-02 -7.757742757088694763e-01 -4.084764002384972947e-01 -7.893784519976905223e-01 4.582888717500446241e-01
9.204099590322452340e-02 -1.280129786813867798e-01 -9.352115717399110961e-01 -4.113252609772461432e-01 -3.924523877871080035e-01 8.226740867452904116e-01
-5.726899546650102840e-02 5.204308042219408376e-02 -8.389035086010007136e-01 -3.816632112447851943e-01 -8.085129240985434729e-01 4.479286156832817944e-01
-8.978954071800267223e-02 1.124251142365537276e-01 -7.666836561818674012e-01 -3.929156661542552165e-01 -7.988062061350874599e-01 4.555501337181521171e-01
1.214459285937466160e-01 -5.143989644527474647e-02 -8.675458514603748839e-01 -2.527736038014065656e-01 -7.040363576846370153e-01 6.636552661430479283e-01
1.035644574109052113e-01 2.174299330694851040e-03 -8.138348265702349815e-01 -3.257646863805761517e-01 -7.144510309810321314e-01 6.192229755407216985e-01
-3.218671753819059983e-02 -9.413056870777054136e-03 -9.080825912239777198e-01 -4.609879759612310890e-01 -6.476324642571966717e-01 6.066813638635345507e-01
-4.096230062316275761e-02 4.471899524014724681e-02 -8.381810541284990812e-01 -4.054733303425672730e-01 -7.954515915902999890e-01 4.503866603457145623e-01
-6.494907405836886083e-02 1.063679728907492017e-01 -6.165188425613757905e-01 -2.904807549520033172e-01 -8.464652020170162494e-01 -4.462259436393252177e-01
-1.042276613235544047e-01 3.020505587878057757e-02 -9.095122022153222519e-01 -3.512735430175903395e-01 -7.246671853643088523e-01 5.928443037021101647e-01
-1.015094132320297632e-01 7.652730340699816225e-02 -8.291839274276339156e-01 -3.228541452402084455e-01 -7.907123698919825694e-01 5.201337799076495294e-01
-1.323536657110994767e-02 8.608641611879194744e-02 -7.396804488441750536e-01 1.702169977205107709e-02 -8.784790527926655823e-01 4.774775550131874491e-01
-6.224838003615947024e-02 -7.846001869701826892e-02 -9.755212271097374321e-01 -2.872117642588601916e-01 -4.931821356046776628e-01 8.211460184350419800e-01
-3.989471732926500036e-02 1.107537736473327983e-01 -6.854897942598768834e-01 -4.240570531583603420e-01 -9.056198620479918304e-01 5.318000641607939331e-03
-1.779076507033155313e-02 -8.837385537169878402e-02 -9.627077938816770430e-01 -4.166624315742357698e-01 -4.984094370417050945e-01 7.602502556279847612e-01
3.561977181898523526e-02 2.199939610546546367e-02 -8.226256162899721058e-01 -2.312926410402196542e-01 -7.705561197547348140e-01 5.939250630417671761e-01
3.491871464124734863e-03 -1.011077257974881127e-01 -9.580319636642585790e-01 -4.858245592488516507e-01 -4.830996125192767998e-01 7.284155833138004077e-01
-1.679428066509400935e-02 -1.505396587047542201e-01 -1.002081766839021171e+00 -4.536520889647595589e-01 -4.578192850208311904e-01 7.645922340966622155e-01
-6.683337754405503650e-02 8.742588973840409450e-02 -7.883440260755941731e-01 -3.902369107187641517e-01 -7.720765507414507622e-01 5.016103600483741154e-01
-3.905584343025612915e-02 1.428965509878249614e-02 -8.849492104831363504e-01 -4.469787958186192678e-01 -7.150200968715536565e-01 5.375464790679324034e-01
-4.710207486082495371e-02 -8.874337837787117655e-02 -9.762687903471083395e-01 -3.003959482020042149e-01 -5.007281475301315066e-01 8.118088423852388713e-01
2.735753927850668316e-02 1.034231009305975890e-01 -6.754485060323933698e-01 -1.523189966203629953e-01 -9.632809432199902488e-01 2.211080000763701869e-01
6.140409832707537791e-02 -1.468436813884618775e-01 -9.606665972023100686e-01 -4.105900806752091903e-01 -4.228096691001362872e-01 8.078661828338642437e-01
-9.912577238226427667e-02 5.077540814589119600e-02 -8.723547839572993734e-01 -3.061158396332588905e-01 -8.447538926129172232e-01 4.389578039412777577e-01
2.639248437701160674e-02 7.700790407219593181e-02 -7.420120470444404592e-01 -2.737199579234825264e-01 -8.457135219198869125e-01 4.580895365277708464e-01
-4.364237195256424201e-02 1.780301299061542650e-02 -8.840896745690051128e-01 -4.469787958186192678e-01 -7.150200968715536565e-01 5.375464790679324034e-01
-1.225643857495262688e-02 6.752783271070217364e-02 -7.715443838651491193e-01 -6.057529635144441871e-01 -7.143345515083588948e-01 3.504133212576542311e-01
-2.633298117119253073e-02 6.646082719972058739e-02 -7.886445160901518481e-01 -4.319184492517789686e-01 -7.789823857059225976e-01 4.545689122188715237e-01
7.240843407542994770e-02 1.509124444133308658e-02 -8.149073484115429977e-01 -2.948360371077932141e-01 -7.294111451103718613e-01 6.172771602864860485e-01
9.969569912810713475e-02 -1.048641180944990120e-01 -9.187463415435724867e-01 -3.615405659633305069e-01 -4.866696736848762361e-01 7.952616222843718052e-01
-5.831211885358602437e-02 -3.462416729291381556e-02 -9.462814796510652382e-01 -3.555055763634892285e-01 -5.518752112666671650e-01 7.543537209849470182e-01
-9.958790518705767925e-02 2.095730543302298104e-02 -9.179087730286591418e-01 -3.594447496949922938e-01 -6.775615588843630910e-01 6.416461687245519352e-01
6.089344007781724577e-02 4.097195044617855074e-03 -8.331611548535217127e-01 -2.840031993470960026e-01 -7.136393301138858059e-01 6.403601246761214671e-01
-5.956664637963086234e-02 3.393977940392908094e-02 -8.726038746064599394e-01 -3.826836007503904846e-01 -8.017539265731871145e-01 4.590685166085692881e-01
-1.659856931362999749e-02 6.753279303471391992e-02 -7.771115556583163553e-01 -4.680432088132382984e-01 -7.737310956391663108e-01 4.269376375125791823e-01
8.843783951068931448e-02 -4.583095123531312487e-02 -8.740919495477008638e-01 -2.652169183372664052e-01 -6.734034269466803169e-01 6.900636280837810776e-01
-2.093398911179368896e-02 -8.390308616008609888e-02 -9.615130606766020271e-01 -4.231018289363879803e-01 -4.942230072661749629e-01 7.594264029117383519e-01
-4.390173337557542327e-02 1.123637582290435040e-02 -8.931501461509827600e-01 -4.518491757737729264e-01 -7.173150217055654920e-01 5.303691940413828299e-01
6.476446764645950316e-02 -1.266040838397755608e-01 -9.477153651634461218e-01 -3.552847110977835343e-01 -4.698446488390097819e-01 8.080957740376520926e-01
-5.071282093752824821e-02 6.168690736153965154e-03 -9.043988149786890141e-01 -4.116455155105221420e-01 -6.921181027363646487e-01 5.928916439153879558e-01
-2.669951670243784006e-02 -2.938016213377088459e-02 -9.240381761602042276e-01 -4.565966654944682013e-01 -6.128612969776134900e-01 6.449189993528259279e-01
-3.300127102593783390e-02 -8.363639424507107734e-02 -9.673517179588079218e-01 -3.659574327770511171e-01 -4.941947757846383849e-01 7.885725591107016763e-01
-7.355767826000436660e-02 1.235700778761250757e-01 -6.859927703821211420e-01 -3.208055472767984417e-01 -9.450465216307646354e-01 -6.301486165998367028e-02
2.038031968103151507e-03 -1.101025987846877691e-01 -9.649726747293496665e-01 -4.836877459944647906e-01 -4.844594739416538398e-01 7.289342785759018728e-01
-5.382635319642804783e-02 -8.719367715470230373e-02 -9.778011300790089289e-01 -3.003959482020042149e-01 -5.007281475301315066e-01 8.118088423852388713e-01
-6.550872568477224267e-02 3.884726365681161198e-02 -8.689864222985188569e-01 -3.826836007503904846e-01 -8.017539265731871145e-01 4.590685166085692881e-01
-1.104048322896364429e-03 -3.602770046019435762e-02 -9.086933264504069019e-01 -5.625617696043153648e-01 -5.885207553077173026e-01 5.806613263785483925e-01
-6.557815899804519955e-02 9.564433000563528353e-02 -7.742797184216844153e-01 -4.014846621330471210e-01 -7.812456016642036483e-01 4.779805183815023506e-01
3.552746527845057622e-02 -6.415265593329662341e-02 -9.121135488499111377e-01 -2.894037292252628624e-01 -6.246789789270684734e-01 7.252735034434568684e-01
-1.124738605667036789e-01 7.632493799760325937e-02 -8.364119879237991162e-01 -3.375210619468198558e-01 -7.790656947983394254e-01 5.283333946767625466e-01
-9.333917672686335709e-02 9.230343520733610974e-02 -8.008197456887763410e-01 -3.761137450453667097e-01 -7.665711716781015150e-01 5.204873577139139673e-01
6.440065113826026755e-02 -1.438073918840283016e-01 -9.575203287725156942e-01 -4.241835330608494381e-01 -4.159968252141677536e-01 8.043724085843252380e-01
3.025706746135381747e-03 -1.840350763641662724e-01 -1.006705821550072377e+00 -4.680381581460913432e-01 -2.640908446731386472e-01 8.433245569050166202e-01
4.717029519682203881e-02 -6.209990505135084410e-02 -9.055809484034981205e-01 -2.878157972410280707e-01 -6.455264462736676201e-01 7.074303315661558678e-01
9.946480294678154699e-02 -9.594884529350375391e-02 -9.131622740794076432e-01 -3.139945162490989095e-01 -5.462971943322924018e-01 7.765093812892154279e-01
-8.270747589713192682e-02 1.165343274192139900e-01 -7.512156804022923628e-01 -4.006096557308225781e-01 -8.350308311564377250e-01 3.771411072177369705e-01
2.122554196242729466e-02 7.403725841999209134e-02 -7.499859446360723769e-01 -2.241506123112352311e-01 -8.378219910693394112e-01 4.978060006479493871e-01
-6.372311427922941474e-02 1.941449830862097131e-02 -8.973168754139543291e-01 -3.796521871265990944e-01 -7.345712829916566378e-01 5.623782063824855904e-01
-8.580956397212244693e-03 8.143917244447163029e-02 -7.473840907252196075e-01 -6.728150279257613664e-02 -8.614678967630112760e-01 5.033351390760300026e-01
-9.280644818869199231e-02 6.013335229821802075e-03 -9.291773501011184599e-01 -3.489600194076347695e-01 -6.147235289937225122e-01 7.073484910258361902e-01
-3.607735768064847335e-03 6.784610086333678347e-02 -7.688024166692728478e-01 -9.653789364609205448e-02 -8.384126214786997711e-01 5.364184106046232525e-01
1.752517994511355176e-02 -1.302814590108591630e-01 -9.668007418492164939e-01 -5.718061866587885733e-01 -4.450042097961627308e-01 6.892089219985674253e-01
-8.572043433166127990e-02 5.592559497339598396e-02 -8.530665678989612921e-01 -3.100438804363375711e-01 -8.357586775645821087e-01 4.531889507473443879e-01
-5.671341236520382155e-03 -5.472860642025198508e-02 -9.299575454011885789e-01 -5.282160087818111860e-01 -5.344895510639071645e-01 6.597793327091387994e-01
-6.076291210163854012e-02 -8.332656766871153475e-02 -9.779245160551331972e-01 -2.872117642588601916e-01 -4.931821356046776628e-01 8.211460184350419800e-01
-6.016838051245848584e-02 2.029956250271947385e-02 -8.936190384465257930e-01 -4.112747176853077669e-01 -7.276921038649750706e-01 5.489237730008026395e-01
1.108734243344985416e-02 -1.113002235243692184e-01 -9.595205548927141503e-01 -5.133298807088484406e-01 -4.802924587815594615e-01 7.112043219841984731e-01
-4.990029013108950723e-02 1.567080389947344415e-02 -8.920656476151338499e-01 -4.109409645447622550e-01 -7.279527853905112256e-01 5.488280841039541169e-01
1.081052573592643090e-01 -8.615777368081224685e-02 -9.030426245188589718e-01 -2.788172903471526354e-01 -5.386382821071659111e-01 7.950658586885196444e-01
3.862540958964559568e-02 -3.705211392309121221e-02 -8.858868615890234111e-01 -2.916227371424903181e-01 -6.566463827057394953e-01 6.955369920147953522e-01
-6.765874395642611228e-02 -2.582506178301587768e-02 -9.440462124725275128e-01 -3.241261401595879610e-01 -5.522006717706113843e-01 7.681254216346005137e-01
7.069203277784057160e-02 -1.730143095564086186e-01 -9.658874544632896075e-01 -5.698929256757492290e-01 -2.641484748711104835e-01 7.781051577312678713e-01
1.599581271682582601e-02 -3.269979258594252897e-02 -8.904494550688777377e-01 -1.658153967321497058e-01 -6.893396903621796801e-01 7.052063850376952825e-01
5.228583287215578940e-02 -9.311669675969959370e-02 -9.296700489015987667e-01 -2.849316296557746209e-01 -5.751973758485304788e-01 7.667867664733586386e-01
-1.838263105647985072e-03 2.334395608566412067e-02 -8.354719993132075917e-01 -5.569654606079069703e-01 -7.084593609372298317e-01 4.334452786572188243e-01
2.552065355920764278e-03 3.527032759835171255e-02 -8.152791451688188307e-01 -7.302392654092711155e-02 -8.033060601834760561e-01 5.910726519008022706e-01
-1.892841630247491663e-02 8.601055982852003068e-02 -7.427003338609010630e-01 -5.588089602686816537e-01 -7.721770311787402585e-01 3.024486376947691513e-01
-5.754692024906903070e-02 1.100977028021103143e-01 -6.327870653183462757e-01 -1.204283124740764960e-01 -9.585763759649681415e-01 -2.581246849809495925e-01
-8.915473623262020267e-03 2.574912648300490756e-02 -8.395898308763581896e-01 -4.769466177268276152e-01 -7.306008918821053078e-01 4.886146340624805129e-01
3.196813067754652321e-02 -1.949798224607272035e-01 -9.947719286545140260e-01 -1.253430029558771086e-01 -1.963057989700739414e-01 9.724984138294129332e-01
6.371640937793870973e-02 -1.347409695916567673e-01 -9.529071152538077794e-01 -3.552847110977835343e-01 -4.698446488390097819e-01 8.080957740376520926e-01
1.197057784482543213e-01 -3.364701176226892344e-03 -8.115216186914508967e-01 -3.341422507266152975e-01 -7.108994479678398815e-01 6.188464520043498451e-01
1.135971257686901742e-01 1.434101118564753800e-02 -7.937782927821779300e-01 -3.260486285574830667e-01 -7.404884603092922735e-01 5.876811482126668151e-01
-1.638301249151911249e-02 9.945155296284463597e-02 -7.108103867009881727e-01 9.468019599778259437e-03 -9.294395927862876272e-01 3.688528161287619178e-01
-4.291762115721732725e-03 -1.040329766134551887e-01 -9.650152340600102185e-01 -4.546571596458725550e-01 -4.867198461906569462e-01 7.459159862255875240e-01
7.301966626515829506e-02 -2.376280107332621322e-02 -8.578415258604409344e-01 -2.870318009119147140e-01 -6.895418329382334566e-01 6.649397009454649510e-01
-8.097716311112494736e-02 8.373756375606566937e-02 -5.707539069266069909e-01 5.018146610196994040e-01 -8.576374141463383172e-01 -1.124282519746100523e-01
5.051175376040563381e-02 -7.149405970714992065e-02 -9.124644888308313107e-01 -2.853902398427871079e-01 -6.277389419561478778e-01 7.242211207595733446e-01
-1.302539761134831851e-02 2.221938734756844988e-02 -8.490140167426630802e-01 -4.924729256341122130e-01 -7.327138776763207906e-01 4.696815846697716679e-01
1.197002489752664600e-02 1.048042802071936092e-01 -6.802896052743753197e-01 -1.513301883018081939e-01 -9.731929900919747967e-01 1.731894285006472245e-01
3.178248050412266906e-02 -9.163840144414799049e-02 -9.358785913279247248e-01 -2.509317062601661985e-01 -5.673155140692562881e-01 7.843381836234272209e-01
1.511888430054127153e-02 4.078654455830564574e-02 -8.044456161671379446e-01 -1.655818069516938329e-01 -8.078396345108377341e-01 5.656657936626608985e-01
4.468127215394264613e-03 9.646092568934169775e-02 -7.133146127379610402e-01 -1.348379302836978932e-01 -9.335649597921056309e-01 3.320770970801402711e-01
7.358800466734573276e-02 -6.581703363991975309e-02 -8.985840780953417983e-01 -2.664855584369596464e-01 -6.509560805090386371e-01 7.108035089902496884e-01
7.288434539246514687e-02 5.629907546879859420e-02 -7.423676464468167424e-01 -3.853259439830121202e-01 -8.522767078054533929e-01 3.537630990166988898e-01
1.666497068974234427e-02 -2.814292506282847425e-02 -8.857742197346720747e-01 -2.321467484560827688e-01 -6.842106779472100220e-01 6.913491414359951293e-01
-5.398996248862372033e-02 -1.036374860110609170e-01 -9.885870593670574857e-01 -3.146437809689505705e-01 -5.229621685487582106e-01 7.921552003012688470e-01
-6.625901156348214770e-03 -7.567425108212938456e-02 -9.471324155964410130e-01 -4.971359169679374079e-01 -5.160304171703865572e-01 6.975446140680929830e-01
-6.671038265835885217e-02 -1.518841772463820801e-02 -9.351804382648840619e-01 -3.207696896526093799e-01 -5.999138218775186271e-01 7.329462548648962850e-01
-7.790771031096229045e-03 9.754381786985107106e-02 -7.144011516398467432e-01 -8.991232563318729554e-02 -9.346172959971648098e-01 3.441021414088845654e-01
4.626842566226772174e-02 -1.946958995359050759e-01 -9.901162530670883921e-01 -4.568299301263760714e-01 -2.568053843651954549e-01 8.516791705224301401e-01
-8.642993293866511884e-02 2.993626620718667364e-02 -8.987783697380489212e-01 -3.548485897999455463e-01 -7.846186928820657602e-01 5.083856657076680774e-01
-4.938963176311435971e-02 1.143877778291420844e-01 -6.974670483617581018e-01 -3.999210116445414687e-01 -9.121187343634731270e-01 9.001443699975429646e-02
6.849748491877501524e-03 -1.881157723787687044e-02 -8.816348603391361838e-01 -6.301737462345171625e-01 -5.999407334549198278e-01 4.929017811880245237e-01
-2.974742161589487635e-02 -3.535003045188684495e-03 -8.995367037560820789e-01 -4.952020123080369540e-01 -6.703129645310923479e-01 5.526802842400019289e-01
7.556008821613353910e-02 2.763022080841437411e-02 -7.969198400458792353e-01 -2.976786124432044267e-01 -7.794984220695893029e-01 5.511530220228396670e-01
8.683026403604933441e-02 -7.931943087300322159e-02 -9.052619983395557846e-01 -2.757976666104593466e-01 -6.228421024713984844e-01 7.321225051050089805e-01
-9.151199466606636801e-02 1.265076880434763684e-01 -7.317467501362554527e-01 -3.805331033475518043e-01 -8.999371068178964039e-01 2.128561980044640922e-01
6.196865789740712421e-02 5.293102241401094477e-02 -7.614560847458299309e-01 -3.378942376952206450e-01 -8.415679916954129647e-01 4.214152340460830537e-01
6.200195858886354758e-03 -8.084477719702863607e-02 -9.415148697865556304e-01 -5.276255169609771478e-01 -5.184240480967099440e-01 6.729396854151804552e-01
-5.241729247308483247e-02 1.352665238478791172e-02 -8.967942329641007682e-01 -4.109409645447622550e-01 -7.279527853905112256e-01 5.488280841039541169e-01
-6.906653010500139744e-02 6.464261554187872294e-02 -8.260878648884119047e-01 -3.533360472144244646e-01 -7.939044914257912255e-01 4.948426984738095169e-01
-5.600436927296740391e-02 1.009512469174571742e-01 -6.030927240370267395e-01 2.270294346868166335e-01 -9.388624008384280906e-01 -2.588339778268830549e-01
-6.074437542647299210e-02 1.128343736323376284e-01 -6.411473830704942367e-01 -2.547189372320439182e-01 -9.434429051632619023e-01 -2.122115635691956825e-01
-4.874172801702020275e-02 1.010606693742957807e-01 -5.997320912583934405e-01 1.052257542027351944e-01 -9.151825781405490412e-01 -3.890609069547897314e-01
2.949151189230569264e-02 -1.910857299491079686e-01 -9.939710872344965642e-01 -1.088845166320449587e-01 -3.243206955272736058e-01 9.396596450260655820e-01
5.289760707608829465e-02 5.486183644183356689e-02 -7.647381260691116234e-01 -3.268604648839468219e-01 -8.430686153018535078e-01 4.270802575498723885e-01
3.662740920741743705e-02 -1.675880940727464963e-01 -9.820957645418800785e-01 -2.637758947841611912e-01 -4.496699606548616446e-01 8.533576060570799982e-01
5.766893038718810816e-02 -4.841320730400014427e-02 -8.887084566014047393e-01 -2.808647980574959235e-01 -6.602917224846431843e-01 6.965126032100099618e-01
5.054985943037110241e-02 4.639995032578408257e-02 -7.814231625776105750e-01 -3.110242232029008513e-01 -8.221206908982405803e-01 4.768453650587700099e-01
-4.191318557970282604e-02 -9.687883041372777337e-02 -9.793667222495588964e-01 -3.003959482020042149e-01 -5.007281475301315066e-01 8.118088423852388713e-01
3.929801742070678644e-02 9.433991772261646203e-02 -6.963383407473519027e-01 -2.659267650278964723e-01 -8.902613327294505163e-01 3.697535869854145507e-01
-1.820603893953151586e-02 -1.009720680878431476e-01 -9.710746396401936931e-01 -4.232015883882772056e-01 -4.925286766202019995e-01 7.604708530196222505e-01
-3.958872584318587351e-02 -2.861749772529601638e-02 -9.322277534635632357e-01 -3.978006890937004769e-01 -6.065059963038850199e-01 6.884076468227303680e-01
7.016473008751675233e-02 -5.408846599735470800e-02 -8.891306430142243977e-01 -2.656588108652624403e-01 -6.506293689861984975e-01 7.114118500715853610e-01
-6.549332607328660349e-02 2.074559218915039346e-02 -8.967732580460654468e-01 -3.796521871265990944e-01 -7.345712829916566378e-01 5.623782063824855904e-01
1.005449797222128100e-01 1.165016797977336607e-02 -8.043815251374444308e-01 -3.203862070136686557e-01 -7.417563092948179504e-01 5.891945824400673937e-01
9.306708071082792078e-02 -8.046904069424178074e-02 -9.040490476805774778e-01 -2.533270617589197804e-01 -6.193234968933511997e-01 7.431445390880456747e-01
4.822490370392281539e-03 1.066577523019568152e-01 -6.751678832809542286e-01 -6.966418542385870161e-02 -9.890847517474128381e-01 1.298393435365008952e-01
-5.082186836989640438e-02 1.519834880565816082e-03 -9.099014160267183682e-01 -4.116455155105221420e-01 -6.921181027363646487e-01 5.928916439153879558e-01
4.438555634401300520e-02 -6.307326011207164962e-02 -9.076020919741639714e-01 -2.878157972410280707e-01 -6.455264462736676201e-01 7.074303315661558678e-01
4.054927418701661374e-02 -1.353351310109090488e-01 -9.626846220916306374e-01 -2.781655677151468886e-01 -4.893379454595601641e-01 8.265423716126880649e-01
7.330775638817163542e-02 -1.217935704535839936e-01 -9.408448140200756926e-01 -3.831196893204689147e-01 -4.868154436666650153e-01 7.850032021989563624e-01
2.514148916516268165e-03 3.359014143980759010e-02 -8.175673114819300702e-01 -7.302392654092711155e-02 -8.033060601834760561e-01 5.910726519008022706e-01
6.830973229474372743e-02 -1.274973409639069966e-01 -9.466087101735024545e-01 -4.240021008870989427e-01 -4.383582449454223595e-01 7.925050583634752899e-01
-1.095802843041243126e-02 -1.082563670141663825e-01 -9.717588953853121270e-01 -4.232015883882772056e-01 -4.925286766202019995e-01 7.604708530196222505e-01
-3.787818696618664317e-03 -1.515368388623928864e-01 -9.945925812692221202e-01 -4.949323021159353075e-01 -4.307243302007930374e-01 7.546645398422393569e-01
7.126393538227265845e-02 -5.349468334669141290e-02 -8.881372791348571827e-01 -2.628092396543599274e-01 -6.739008897672240650e-01 6.904990183361892075e-01
-9.367578537366135633e-03 -3.331312577257228291e-02 -9.135910994055606027e-01 -5.335101524138230467e-01 -5.966809011181372080e-01 5.994487630417024704e-01
-8.630565992851399471e-02 2.179825535803726205e-02 -9.090420704399690965e-01 -3.604812584258556551e-01 -7.295975324332120149e-01 5.811546291574040124e-01
-4.512188759681010075e-02 4.544051240371157346e-02 -8.404833322085620839e-01 -3.731168713501382683e-01 -8.047489409575954156e-01 4.616957248464761965e-01
2.437884632151367595e-02 4.759259048276229254e-02 -7.914572973450462179e-01 -1.866796555527576451e-01 -8.183899743614673206e-01 5.434966017072605515e-01
-7.273078245630053285e-02 1.016008945699548999e-01 -7.705527119727141327e-01 -4.056469160218955095e-01 -7.794912860026851353e-01 4.773299849871209255e-01
-5.148757657684494005e-02 1.154551688702980944e-01 -6.954480657277851696e-01 -3.628755642357262001e-01 -9.317418975640793244e-01 1.335519390695101213e-02
2.868921330915363832e-02 -2.418471834969317114e-02 -8.773779698195367516e-01 -2.770414053023029788e-01 -6.752976856047656629e-01 6.835357310082423865e-01
9.857997379606077415e-02 1.498552408261606813e-03 -8.172727466070397462e-01 -3.284889138870233927e-01 -7.163197604437383514e-01 6.156143551373289835e-01
3.651091450588579874e-03 -1.323717289820403736e-02 -8.787924274683304171e-01 -5.742458741144559342e-01 -6.257782362079949978e-01 5.278667210110287167e-01
-1.101487095834903923e-01 7.259871990001694197e-02 -8.405187271308912633e-01 -3.228541452402084455e-01 -7.907123698919825694e-01 5.201337799076495294e-01
9.837714829672709882e-03 2.513847381915614021e-02 -8.274210006642249704e-01 -1.543877166986962479e-01 -7.873411740858211605e-01 5.968737793886775833e-01
-7.671788795183448473e-02 9.828259320479974803e-02 -7.793050666073004784e-01 -3.933254423037195191e-01 -7.774301366340710118e-01 4.908130795829640514e-01
-2.737588364389467038e-02 1.093050455143961680e-01 -6.512262111318048996e-01 -5.550336174584569356e-03 -9.999456803763513424e-01 -8.822134947099812344e-03
3.060828622196389275e-03 -1.084977962209027029e-02 -8.766043320388595683e-01 -5.742458741144559342e-01 -6.257782362079949978e-01 5.278667210110287167e-01
9.039109210881747514e-02 -7.807067124405241143e-02 -9.029682375875643929e-01 -2.599888505848783615e-01 -6.174830473879293624e-01 7.423748943492566310e-01
6.822696355164369064e-02 -5.126796111780532877e-02 -8.871437361747368522e-01 -2.746815718501856018e-01 -6.651181013350279114e-01 6.943831401772359024e-01
4.845473076427768422e-02 7.842237463267230646e-02 -7.230229383811622723e-01 -3.677913763471020725e-01 -8.370793417186063179e-01 4.050033075823567530e-01
2.831779603084917316e-02 -7.518974964401391181e-02 -9.241825200226447823e-01 -2.643403984574982934e-01 -6.197581789186891177e-01 7.389343363295017841e-01
-9.137387301069505030e-02 5.114151275922042966e-02 -8.659560933469020449e-01 -3.153393380119852152e-01 -8.371747687074214683e-01 4.468775095502550143e-01
-7.467840896527365435e-02 1.222656754255612849e-01 -7.194917195897509998e-01 -3.736950165509402844e-01 -9.073211384996406892e-01 1.926665156084685637e-01
-5.164247042069338572e-02 1.016304841506281004e-01 -7.499368490345932337e-01 -4.345802763523941570e-01 -8.055273788923158484e-01 4.028220764312106517e-01
-9.297228814680499887e-02 1.677070905662583766e-02 -9.186236965775856911e-01 -3.594447496949922938e-01 -6.775615588843630910e-01 6.416461687245519352e-01
5.603973467954387853e-03 5.756032479500400312e-02 -7.824933886788453252e-01 -1.516120042405021129e-01 -8.285229259007931280e-01 5.390394803972775595e-01
8.058061573459053550e-02 1.444026486578620268e-02 -8.115372171193508954e-01 -3.083021021898723069e-01 -7.464186344708706455e-01 5.897533687058906793e-01
4.497800400210256143e-03 -6.646469762670170409e-03 -8.698052826640638724e-01 -6.159483683910300655e-01 -6.268254509336612657e-01 4.771765517481346142e-01
-4.703716982742012220e-02 3.013820337648398864e-02 -8.684659629166140427e-01 -4.196245928199018871e-01 -7.754565171786962363e-01 4.717863828745144650e-01
-3.021732921989184716e-03 -1.020436593476229115e-01 -9.629430595952139793e-01 -4.546571596458725550e-01 -4.867198461906569462e-01 7.459159862255875240e-01
-7.633129337231338296e-02 1.428543147334469972e-02 -9.118137705167600471e-01 -3.682782150310740521e-01 -6.871474422858343534e-01 6.262583723141447178e-01
4.733994136735263786e-02 -1.183869161720009153e-02 -8.566981724859338287e-01 -2.850546472144613874e-01 -7.015971801026901211e-01 6.530736903086759026e-01
-9.654471821079549376e-02 7.303291367496607400e-02 -8.312606505410981006e-01 -3.402430284688791051e-01 -7.855462865369352565e-01 5.168672104964261438e-01
7.523210664978918771e-02 4.679491906845806987e-02 -7.625625535126333565e-01 -3.445096183155534897e-01 -8.716746232063394828e-01 3.485634435022665345e-01
-6.230014081418076138e-02 3.452327141989278126e-04 -9.184864034879288708e-01 -3.818318109305819386e-01 -6.516441664230530062e-01 6.554115871178023411e-01
-7.951998624567302443e-03 1.285471874965489480e-02 -8.575667976305003659e-01 -5.002171650872767605e-01 -7.028983815836794546e-01 5.056843411843918723e-01
1.796183828012218320e-02 -8.599114587117512309e-02 -9.349215822359711048e-01 -8.686611790414396073e-02 -5.957311760904547837e-01 7.984726942069761968e-01
3.422144831238172619e-02 -1.177550070947285393e-01 -9.534959647176325381e-01 -2.479759311499435959e-01 -5.408168891607538775e-01 8.037568226577013197e-01
-7.673725400587064552e-03 -6.406990203631144493e-03 -8.825554493881462292e-01 -5.406332230269527139e-01 -6.467978655646478003e-01 5.379295857828468863e-01
9.420893414256226173e-03 4.248158800054226830e-02 -8.036773461530631879e-01 -1.590868489347196102e-01 -8.102120709560599598e-01 5.641345358805063270e-01
-3.981132364139874924e-02 -1.767782436010330652e-02 -9.223884363981746937e-01 -4.663780487424930565e-01 -6.046891796813324005e-01 6.456334189208782215e-01
4.684277112581890917e-02 5.352770074436569159e-02 -7.714026167438667869e-01 -3.073635192489302392e-01 -8.325271792170076957e-01 4.608971283267936370e-01
-5.000634737117737316e-02 -1.089468230589391191e-02 -9.222818904418964570e-01 -4.072824398875928287e-01 -6.478075030628175357e-01 6.437906904691362842e-01
-4.983047215546524550e-02 1.000924222454824541e-01 -7.510648745935506465e-01 -4.316949527156566102e-01 -8.067513184143109140e-01 4.034746312181202166e-01
-4.796028860667432558e-02 4.534309711653960323e-02 -8.430654042154717143e-01 -3.816632112447851943e-01 -8.085129240985434729e-01 4.479286156832817944e-01
-8.364269937302783176e-02 -2.746348619880682740e-02 -9.516213342328146974e-01 -2.914359364903035265e-01 -5.263173840643423640e-01 7.987835164509139441e-01
5.901555164363176016e-03 1.080622163826396448e-01 -6.630094057337929669e-01 -8.780130323604530551e-02 -9.875250435897087176e-01 1.307104411789509202e-01
-8.712004181843929773e-02 6.668578629739882468e-02 -8.352481923590501234e-01 -3.176415982226944434e-01 -8.137520525770409741e-01 4.867354640923398090e-01
3.293497484101880896e-02 -2.105740903830788102e-01 -9.961792672186338127e-01 -9.200842428860112054e-02 3.805171395275143420e-02 9.950309125475382821e-01
-7.681472658262689102e-02 1.016892083335685371e-01 -6.028943256770626924e-01 -2.133101946186083120e-01 -8.253997099737011567e-01 -5.226988422094522857e-01
9.572938803039682254e-02 5.667091145254224416e-03 -8.139433556819029025e-01 -3.284889138870233927e-01 -7.163197604437383514e-01 6.156143551373289835e-01
4.486809928327288761e-03 9.783169484478941580e-02 -7.094854550499477552e-01 -1.249124311777063262e-01 -9.298863524435887484e-01 3.459888091780323194e-01
4.377736426735751724e-02 -1.891490491391592810e-01 -9.897504799312063506e-01 -4.042781440420996075e-01 -3.481010075681933436e-01 8.458042745102934967e-01
-5.123850973779116476e-03 -8.181561676430026964e-02 -9.505783004980039586e-01 -4.977382343330007952e-01 -5.022882560741173119e-01 7.070807294030073686e-01
5.869074645676271296e-02 5.074668902842652263e-02 -7.684278386526891547e-01 -3.268604648839468219e-01 -8.430686153018535078e-01 4.270802575498723885e-01
-5.558196515060636472e-02 1.137142567470709464e-01 -7.208787825760465395e-01 -4.010254382881589530e-01 -8.995328096017151109e-01 1.732608504418544360e-01
4.675096609060364755e-02 -2.755296848323529613e-02 -8.730746233112671728e-01 -2.916240885238920444e-01 -6.716960905679557614e-01 6.810137685159777243e-01
4.987082972157265426e-02 4.556190526756078579e-02 -7.832740067641769111e-01 -2.599356431693439218e-01 -8.270262836996199463e-01 4.984586116019418811e-01
-1.912185744674379725e-02 7.247078617115568222e-02 -7.708971056953870526e-01 -4.782607804901179982e-01 -7.724260176724258020e-01 4.178811709896734228e-01
9.929418427553909909e-02 -2.051753936954902810e-02 -8.420543515250874522e-01 -3.040573445198273550e-01 -7.269092720600131008e-01 6.157532309592319564e-01
1.941298275960665759e-02 -1.705913401453527101e-01 -9.882240806429689606e-01 -6.566653341055097570e-01 -3.314597548483838585e-01 6.774400858378167856e-01
9.367165516695398486e-02 -1.207294285037469883e-01 -9.307427242974424253e-01 -3.624812265095272434e-01 -4.496346511404885060e-01 8.163553398624400215e-01
-8.658397228707219451e-02 4.767803219375425089e-02 -8.690835856984451269e-01 -3.237146210054747120e-01 -8.407685243924926111e-01 4.339552195079031671e-01
4.323821105229429251e-02 -1.162454543661884804e-01 -9.495761491708945012e-01 -2.826570324746627283e-01 -5.392087826146377827e-01 7.933214296512213215e-01
-4.964955065405102230e-02 3.112773061212222372e-02 -8.691630663278234747e-01 -4.196245928199018871e-01 -7.754565171786962363e-01 4.717863828745144650e-01
6.316751129146487564e-02 -1.439857932943287011e-01 -9.582628853680628112e-01 -4.241835330608494381e-01 -4.159968252141677536e-01 8.043724085843252380e-01
2.644286303048982989e-02 4.807030455038382305e-02 -7.899145172764738820e-01 -2.156199446229892236e-01 -8.172251240782959503e-01 5.344634094641026456e-01
7.372125668855805669e-02 6.930302398815503528e-02 -7.157288331624760414e-01 -4.295841242302317897e-01 -7.785933066004884218e-01 4.574384582938591515e-01
4.079447567087925858e-02 -4.999914672836103247e-02 -8.972058420034763060e-01 -2.912321441729823213e-01 -6.568846972259314576e-01 6.954756162158409749e-01
-6.478855356128558618e-02 1.126848974429298239e-01 -7.397610330132545764e-01 -3.988597969893958872e-01 -8.749884222501322917e-01 2.744196116785426742e-01
-6.337402786016693712e-02 1.201286097100248279e-01 -6.887783073512402376e-01 -3.579164568659735091e-01 -9.335949919655973650e-01 1.721048753708051549e-02
-9.460303231504363364e-02 7.480774137633318388e-02 -8.272850561179500017e-01 -3.402430284688791051e-01 -7.855462865369352565e-01 5.168672104964261438e-01
-1.054968835621608765e-02 -5.837983662280179196e-03 -8.847022868619205394e-01 -5.249841201684146696e-01 -6.525013073666715568e-01 5.464738945784877178e-01
8.276591448261648443e-02 -7.056286286989246759e-02 -8.993939205575343099e-01 -2.599888505848783615e-01 -6.174830473879293624e-01 7.423748943492566310e-01
4.947721978747252752e-02 2.857795532322668017e-02 -8.083621258165304413e-01 -2.510922218014873808e-01 -7.817432652695844864e-01 5.708153496153030027e-01
8.253401182914714418e-02 -1.514862668393360534e-01 -9.503303942153936701e-01 -4.604617317584275282e-01 -3.220177229120976259e-01 8.272119315607926460e-01
-9.819536873884673889e-02 4.488778545547469218e-02 -8.826746476210475256e-01 -3.311619091859491215e-01 -8.252939150807997448e-01 4.574076339928346835e-01
-1.056932406072307561e-02 8.471770439950422615e-02 -7.420088954886996380e-01 -5.919047995479385232e-02 -8.821138828579391244e-01 4.673024553241842960e-01
-3.953486250598570173e-02 -7.438331388688711708e-03 -9.116103568706475091e-01 -4.659490010336208021e-01 -6.434446261699240388e-01 6.073471342558699471e-01
-5.681019606275551290e-03 1.569421192037625395e-02 -8.513509886721659647e-01 -5.337097775521396636e-01 -6.901694503702059391e-01 4.886921353172501981e-01
-6.969101260518123508e-02 -7.646907029259092381e-02 -9.768659007580349218e-01 -2.775633477530783377e-01 -4.968078273613902307e-01 8.222776724784389701e-01
-4.397647699325228643e-02 6.002253824482287059e-02 -8.145409606435497496e-01 -3.918804743845284988e-01 -7.889095869923641313e-01 4.733406356395932213e-01
7.013025008223930379e-02 -7.936236182749764612e-02 -9.116123801166622354e-01 -2.792292073224574844e-01 -6.280281210346816412e-01 7.263688656376452446e-01
-6.064412247077805712e-02 -9.540720165075919357e-02 -9.857062093318675888e-01 -3.143630609869803583e-01 -5.339560927753453923e-01 7.848992017291027690e-01
-3.240426326182405808e-02 6.970994841897050487e-02 -7.885324724136438812e-01 -4.134410493701615730e-01 -7.825643437503496669e-01 4.654670198695973204e-01
-3.231712749391469491e-02 -9.469827333192823438e-02 -9.740017103388717290e-01 -3.482449148677164708e-01 -4.966997236246135650e-01 7.949936250184711506e-01
5.278421222372921967e-02 5.960164044471726041e-02 -7.555634438573600731e-01 -3.435665880657619020e-01 -8.385079101723824646e-01 4.229260977324463822e-01
-4.698666970380483213e-03 1.049500794924723701e-01 -6.891036290627924332e-01 -7.280856950062501720e-02 -9.765729121423804004e-01 2.024950850688066462e-01
2.353321214144084642e-02 -1.601986700001368502e-01 -9.800190150848707704e-01 6.220521280870462688e-02 -4.436028434102491924e-01 8.940620944977847318e-01
