-2.667683068822880935e-02 -1.653204574424685658e-01 -7.943970294156335044e-01 -5.657306186428791989e-02 3.804606143479616898e-01 -9.230651166636464344e-01
6.413045959857500977e-02 -9.558323020017581162e-02 -7.575465332067922164e-01 1.079590829281354136e-01 3.015210703640102130e-01 -9.473277577163340402e-01
4.503763420166089632e-02 -1.835335827324582891e-01 -7.941439798978174869e-01 8.434509628199705900e-02 3.871909538386046346e-01 -9.181334706886205010e-01
6.653835555148852887e-02 -1.624444191436146823e-01 -7.845264906688209638e-01 2.423946533900346242e-02 3.661998260586480924e-01 -9.302204769379649463e-01
-9.398327543734549816e-02 -1.047006712156795111e-01 -7.731549958555791191e-01 -2.485824863859702888e-02 2.812649095915464303e-01 -9.593081455440064520e-01
-6.388623360321266098e-02 1.236117329125889369e-01 -7.568751321682685163e-01 1.459571599190457869e-01 -7.381218747153998894e-02 -9.865334603798454616e-01
1.149951778435653188e-02 1.332041630443246520e-02 -7.527511495397416486e-01 2.186626237794239980e-01 2.313451593172681509e-02 -9.755262431808293666e-01
5.733921498592387672e-02 -1.171136356536854606e-01 -7.658347453255449633e-01 7.643268240168782368e-02 3.674273502665391655e-01 -9.269062451709948469e-01
2.617782621015275757e-02 -1.086234607144237127e-02 -7.500542491060125938e-01 2.327814104249535943e-01 2.855218997320718710e-02 -9.721098638571172845e-01
8.874353821047478025e-03 4.135585326305811493e-02 -7.534035960221078243e-01 2.373911021641091634e-01 -1.964811971899881396e-02 -9.712154323345657536e-01
9.921255239690643379e-02 -3.003220684322568945e-02 -7.397501385092669635e-01 8.306764848069286833e-02 8.170825037363606269e-02 -9.931885659816906964e-01
-7.758690596207434842e-02 4.640835698629235118e-02 -7.511941165705680046e-01 2.410299847731841097e-02 1.992180450745915932e-02 -9.995109640066829337e-01
-2.505243849884702598e-02 1.968283144943368534e-01 -7.750632336099566588e-01 -1.149037308941300434e-01 -4.778210342501316155e-01 -8.709099791911584232e-01
-4.132850617081080397e-02 1.154902185808055759e-01 -7.546330002716302721e-01 2.185579348057877652e-02 -7.536844075585319436e-02 -9.969162063229614068e-01
9.395593466698259899e-02 7.246652806360753818e-02 -7.438717107389021255e-01 7.296760620632930516e-02 -5.203403286476027470e-03 -9.973207372950571026e-01
-1.956837411144365241e-02 3.734949681567777818e-02 -7.533680339502583090e-01 -9.813684074109851885e-02 8.847170548726034783e-03 -9.951336031220319178e-01
2.396685275518316630e-02 2.759969120758083982e-01 -8.667194751111356732e-01 1.594011599153474790e-01 -8.863644296489370245e-01 -4.346830662341892859e-01
4.737928653736030171e-02 -3.030411262032555245e-02 -7.467449975623877689e-01 1.872243908234685617e-01 1.155962791069203993e-01 -9.754919414005509548e-01
1.192948365609533892e-02 -1.854687966066561333e-01 -8.002924243665805459e-01 2.231875665172193546e-01 3.845119206839542891e-01 -8.957331594867179447e-01
-3.756757931823997282e-02 -1.938384870162679630e-01 -8.068077859786959571e-01 3.292463549489786645e-02 4.392167734614051411e-01 -8.977775862025521025e-01
-4.803001272096083657e-02 3.382670396058127388e-02 -7.517737930029257942e-01 -2.506628332235064441e-02 6.007652336955448397e-02 -9.978789970633870077e-01
5.774534773549556271e-02 8.541378827822426745e-02 -7.473323753030813865e-01 1.177729523865682637e-01 -2.126901001782843109e-02 -9.928127521839215097e-01
-7.640904520688718282e-02 -9.890123817978661858e-02 -7.722536680001154119e-01 -3.974710023707369450e-02 2.626214384362167698e-01 -9.640799490169039698e-01
7.405952357082336290e-02 -3.345231389623318924e-02 -7.426924855461677355e-01 1.417897330457253413e-01 1.259522577296701973e-01 -9.818511599909737209e-01
-4.918949074858682685e-02 1.273971803713060402e-01 -7.557884925212381422e-01 7.255571952022962789e-02 -9.407178545268093939e-02 -9.929180060541991093e-01
-7.650827602045430498e-02 1.350116847904466733e-01 -7.596736206407819214e-01 1.581744952282423400e-01 -5.453919878439948687e-02 -9.859038010147066489e-01
1.449179921778785511e-02 -3.805578102651370476e-02 -7.558535245158134463e-01 2.902722498095897108e-01 1.265750080370875719e-01 -9.485361291647725901e-01
5.078970575154779371e-02 -1.509280596415919218e-01 -7.802359214880162375e-01 6.654271839502130803e-02 3.815913433308291691e-01 -9.219328138880695800e-01
-3.024068138904387193e-02 1.988913741985759986e-01 -7.756159144461763910e-01 -9.319838123355701776e-02 -4.870054757417457969e-01 -8.684121880380309966e-01
5.736863004637433872e-02 -6.267918035941773269e-02 -7.495075062929801302e-01 1.889053283648559345e-01 1.675854900159977068e-01 -9.675897273387434883e-01
-2.136010638927827998e-02 8.925044295698089311e-03 -7.546243298038429748e-01 -6.580682893161307612e-02 6.919104887965327189e-02 -9.954305902577530452e-01
-9.067389307063401099e-03 -2.588614062336263566e-01 -8.567127337288831246e-01 5.691144142158005570e-02 8.781400272254733519e-01 -4.750065056604627078e-01
-5.993351480289407091e-02 -6.181666259981820344e-02 -7.646682329395504407e-01 -7.410893553310217083e-03 1.993271513833748676e-01 -9.799049777290299579e-01
-7.667055953602668929e-03 3.446191162376469053e-02 -7.547696951794141684e-01 -1.409257822321456632e-01 2.665482530955112436e-02 -9.896612775035583676e-01
-1.027393494398562979e-01 -9.268514847244682664e-02 -7.694173873874371461e-01 -5.050086269154432234e-02 2.250783753977994017e-01 -9.730310312604100176e-01
-1.108153481477981012e-01 3.329205462190842468e-03 -7.559119918796988191e-01 4.543475649973525293e-02 1.243330868021621238e-01 -9.911997611117829843e-01
-1.065692820174317379e-01 5.309011865650371809e-02 -7.524597845109484151e-01 5.124205861774645820e-02 -1.064640044604607955e-01 -9.929953006851837127e-01
1.174593056871603286e-01 4.694400154837652384e-02 -7.418138017461309852e-01 4.870912453464523728e-02 -4.555498664361348760e-02 -9.977736037693964999e-01
1.003870725806854484e-02 1.756505171119244202e-01 -7.678525934167501621e-01 2.766518040726402283e-01 -3.320187693403700568e-01 -9.017911710085985133e-01
-8.330461043389322806e-02 3.995038523751221621e-02 -7.514607152197751994e-01 2.410299847731841097e-02 1.992180450745915932e-02 -9.995109640066829337e-01
2.795231991559180007e-02 6.331651545993659258e-02 -7.505895977046882495e-01 1.521034240249559411e-01 -3.425492251483519546e-02 -9.877707976465931461e-01
8.922884694668826999e-02 -2.785445434616587793e-02 -7.404755676577364776e-01 1.114025771607568827e-01 7.117452275273236650e-02 -9.912233114252620991e-01
4.204517570206856708e-02 -1.607430022824904159e-01 -7.850045342631367662e-01 8.268344082221840141e-02 3.859461033799293506e-01 -9.188084968586475165e-01
-2.589313935024973104e-02 6.683213754617332858e-02 -7.527409000479280410e-01 -8.518216901909435312e-02 -2.408822464912630662e-02 -9.960741716932807188e-01
-1.443803612950944268e-02 -1.448703667968430919e-01 -7.874651256957474477e-01 -7.336933437341630615e-02 3.157752624021143428e-01 -9.459930889961498668e-01
-1.239892761569826030e-02 6.168331888301008259e-02 -7.540330697882258182e-01 -1.158226083198713730e-01 -6.557018876177453902e-03 -9.932482715340807955e-01
5.054628402420931199e-02 -3.501778378973824640e-03 -7.447946451948478375e-01 1.772282871354651512e-01 1.521444921210514216e-02 -9.840521605962772034e-01
-1.941191559669734959e-02 5.060864362923379184e-02 -7.531872436251507708e-01 -1.097041049395617307e-01 -3.061929394803918417e-03 -9.939595735983383085e-01
-3.757390650137003990e-02 7.080924223392429107e-02 -7.520605452730808604e-01 -4.734593809914802720e-02 -3.454254017324950160e-02 -9.982811102409435700e-01
-6.674586936837796636e-02 -3.519037132747943053e-02 -7.598619473130620028e-01 -3.593655539853306009e-03 1.621305587133604620e-01 -9.867627716787628067e-01
2.765911468928838272e-03 1.648793286254690571e-01 -7.670239235790817789e-01 4.764628547468734432e-01 -2.465153803688369949e-01 -8.439273163537647227e-01
1.614546111396633968e-02 2.882863622573103024e-01 -8.954489741552580373e-01 -6.874090722080869291e-03 -9.350745927638434152e-01 -3.543843292871134421e-01
9.330895407263924482e-03 -1.032633550834016201e-01 -7.709102569535433158e-01 2.671586233410820355e-01 2.594782399956029884e-01 -9.280610502242199189e-01
-3.916075765590163078e-03 2.102422589764083583e-01 -7.866357535448501581e-01 -2.074887195219379254e-01 -5.267906332921323820e-01 -8.242815416754284419e-01
2.152918796099021273e-02 -5.388469586303388376e-02 -7.562158424726013184e-01 2.610407853232810660e-01 1.585133130462851037e-01 -9.522243632594656892e-01
2.136408340386067306e-02 1.646563051475799788e-01 -7.610411956678333478e-01 2.363440127603489982e-01 -2.532908877976383644e-01 -9.380752815158388547e-01
4.174904328214207316e-02 -1.769149814833658463e-01 -7.917134357128254862e-01 8.269731464676116639e-02 3.779725226697164264e-01 -9.221160047721247421e-01
4.010230372950322059e-02 1.401084875923357120e-01 -7.521767479072025697e-01 1.905143019141963823e-01 -9.507944083937512614e-02 -9.770691893084224589e-01
-8.914212159897388910e-02 6.414281677642390267e-02 -7.524654793365109784e-01 7.346399311983473068e-02 -1.103805523497218000e-01 -9.911706086127952675e-01
2.080152220383133313e-02 -9.429350701164287626e-03 -7.512986519383590966e-01 2.151971082936217361e-01 4.432195037706661289e-02 -9.755643337560244710e-01
-2.243014140903721101e-02 -7.888436811642392243e-02 -7.684512388959910956e-01 -8.430894648948977430e-03 2.280212677055928616e-01 -9.736196492929631852e-01
-1.931112543816191750e-03 -1.902410042744667740e-01 -8.061126908378982714e-01 3.209055119785447219e-01 3.847585622859434062e-01 -8.654365956726360887e-01
5.030535891222195216e-02 -7.982565772447397512e-02 -7.546703004508001911e-01 1.743255063241894165e-01 2.142723257763652911e-01 -9.610920810469734121e-01
-3.394306744692759947e-02 -2.096372822833822980e-01 -8.144563309958992026e-01 2.938441855620074067e-02 4.503099266366275000e-01 -8.923886630379327389e-01
-6.072553826966179541e-02 2.618188450642151832e-02 -7.520009899293610411e-01 -1.564286628640315646e-02 6.879109363962833401e-02 -9.975084391473635348e-01
-4.287683683559708608e-02 -1.146042357297456238e-01 -7.770904720652888065e-01 -7.261683069147007244e-03 2.757782781252379745e-01 -9.611938458361465321e-01
-2.450920663447195280e-02 -1.714126709820902039e-01 -7.970409127036685026e-01 -5.657306186428791989e-02 3.804606143479616898e-01 -9.230651166636464344e-01
1.085312611385352288e-01 -2.330427611694527515e-02 -7.384186306974922509e-01 8.245819710859876583e-02 8.175816091993957924e-02 -9.932352434607767400e-01
-8.837154771200032843e-02 3.684068544152519897e-03 -7.549038810653532217e-01 3.508827430588196822e-02 1.297179658265633362e-01 -9.909298977970405486e-01
3.630980411302692223e-02 5.356999977355935555e-02 -7.489967012490091891e-01 1.389829759643922968e-01 -3.699838172808340986e-02 -9.896033812298663523e-01
-1.758089950697040715e-02 3.705190929522162585e-02 -7.535666779169203355e-01 -9.813684074109851885e-02 8.847170548726034783e-03 -9.951336031220319178e-01
-8.654148073916383133e-02 -5.718351311051836187e-03 -7.560603657720460502e-01 3.361018841673248103e-02 1.283454163166585782e-01 -9.911598303730306814e-01
-1.103061824849700112e-01 -4.050472251172236582e-02 -7.605734943637521006e-01 -9.139139211653725045e-03 7.620976302010577796e-02 -9.970499225991089620e-01
1.797826661871727849e-02 -2.174862076229464314e-01 -8.130459346578930990e-01 2.333850363865437594e-01 3.900817450634395667e-01 -8.907118821252545393e-01
1.016282617941061950e-01 4.734372535539165677e-02 -7.426419086128800418e-01 5.545341189314258873e-02 -4.887904664006786221e-02 -9.972641364798834340e-01
8.710142364080161737e-02 8.099872464774783912e-03 -7.403274541006511500e-01 1.004719626745836647e-01 -6.679965253268481395e-02 -9.926949134239730910e-01
-9.501131828008273217e-02 1.154133476767453675e-01 -7.615687289693549022e-01 1.964722284194143631e-01 -1.013828217444345814e-01 -9.752539089463038158e-01
-6.416136213768736454e-03 5.573629867640022412e-02 -7.548950479467414487e-01 -1.535804932814496815e-01 -7.526470624550444730e-03 -9.881074760993179273e-01
7.162897356718189723e-02 4.606418802758492637e-03 -7.417644164415486685e-01 1.265516131466865590e-01 -5.506180064269783347e-02 -9.904306575020560555e-01
1.036593287143530197e-02 9.259897148116069676e-02 -7.546920213882455375e-01 2.205030002893529628e-01 -5.261320047223935065e-02 -9.739662612223594085e-01
2.637664617840014894e-02 -2.058121506747173091e-01 -8.060778829209337415e-01 1.877272965150596495e-01 3.618299504377543996e-01 -9.131470577674545286e-01
1.832979570549505069e-02 1.702650958601179543e-01 -7.635014708655882831e-01 2.429298736130693914e-01 -3.317329933582733870e-01 -9.115581701810905324e-01
2.219713914802294227e-02 -1.521392177146159153e-01 -7.843938781697644691e-01 1.635445929433130274e-01 3.687914795169974780e-01 -9.150114812146731280e-01
-7.301500458269440108e-02 -1.513667098932340860e-01 -7.900759847023663962e-01 5.611843394926429446e-02 4.065350603419653486e-01 -9.119100646905025087e-01
1.196472688625654507e-01 8.994707561040279561e-03 -7.378150817861225397e-01 6.444992693232177994e-02 -8.699951280073789373e-02 -9.941213666805741589e-01
-6.107287841749232948e-02 -1.415539650981582909e-01 -7.855159120072887635e-01 2.593914511993281047e-02 3.366781849149593220e-01 -9.412624291624602790e-01
6.789441221461559040e-02 6.621696200408321020e-02 -7.458060409208919772e-01 9.013914920220306159e-02 -2.590403800521872552e-02 -9.955922431377851600e-01
-1.438275143569991456e-02 1.596696807943957241e-01 -7.624921981207993804e-01 -1.313339504927503454e-01 -2.604767317876668931e-01 -9.565057582917018131e-01
3.637825314082734213e-02 3.281899284332080030e-02 -7.480848190337636705e-01 1.525800860173524565e-01 -3.156069196101966845e-02 -9.877870418637200167e-01
4.166746984331009401e-02 -2.150518318625750935e-01 -8.070288127731563010e-01 1.568433067506994905e-01 3.928311244249491629e-01 -9.061367914451637917e-01
-6.711326254571543803e-02 1.943356186501272315e-02 -7.525812745932911607e-01 1.087999971072872198e-02 1.017248120494139429e-01 -9.947530790200178608e-01
3.105719636767547212e-02 6.741627817271156342e-02 -7.502536642206537598e-01 1.521034240249559411e-01 -3.425492251483519546e-02 -9.877707976465931461e-01
1.787979527723639397e-02 5.194022127697071195e-02 -7.518646178492438548e-01 1.827676615006005312e-01 -3.024563098717976406e-02 -9.826907874381387575e-01
-6.437731743082325542e-02 -1.161568983964976487e-02 -7.562688569889953749e-01 1.207023758375440695e-02 1.452059609613193525e-01 -9.893278214353276034e-01
8.400655087096629836e-02 -1.354901686432258556e-01 -7.731194561911493013e-01 -1.705705621268566868e-02 4.022908383956196876e-01 -9.153530128733430304e-01
-4.231012212530751819e-03 1.267483223467663345e-01 -7.587085117418994606e-01 -1.820229004994727562e-01 -1.028704089195690424e-01 -9.778984316699150803e-01
7.710222143791017890e-02 -1.259587990921131051e-01 -7.688730645274565179e-01 -1.146086521677331868e-02 3.990703352341215537e-01 -9.168486876822198317e-01
-1.002146526118217890e-01 -1.093222848580467088e-01 -7.742865405337705509e-01 -2.577341830696949082e-02 2.982225996786378452e-01 -9.541483175846869891e-01
-7.549277146915243930e-02 -1.124048389165382966e-01 -7.758793705671603869e-01 -2.210624037525058677e-02 2.890149578544896625e-01 -9.570693121570867934e-01
-6.713905455983201764e-02 4.001585798700720703e-02 -7.512316628831223753e-01 3.077507869950274304e-03 2.528048276569315467e-02 -9.996756604701565463e-01
-1.051199198280707708e-01 5.176099728544340806e-02 -7.522424905462198330e-01 5.124205861774645820e-02 -1.064640044604607955e-01 -9.929953006851837127e-01
3.384692699830619406e-02 1.685425956606538822e-01 -7.590895833932398418e-01 2.115628858876668350e-01 -2.421894618257497689e-01 -9.468819408434377971e-01
3.511740972529174554e-02 1.388614752926240481e-01 -7.530176937887171906e-01 1.874149175073959450e-01 -9.567060350062729646e-02 -9.776107529694635367e-01
2.159991157408154561e-02 1.218518977609326787e-01 -7.541978411177023833e-01 1.842158621558076248e-01 -6.723143582583428202e-02 -9.805837292995376320e-01
4.598623840495157794e-02 4.881117881857505864e-02 -7.474660652329694344e-01 1.330220307812559621e-01 -4.276889318701351805e-02 -9.901898611389575722e-01
-7.502653166621665003e-03 1.642939125118667021e-01 -7.649383526504540676e-01 -1.782851520148098501e-01 -2.630011288091140820e-01 -9.481797355017600459e-01
5.530719679738124034e-02 1.147413017169887223e-01 -7.481541659747978912e-01 1.426324906101516521e-01 -1.549791422159928038e-02 -9.896543776880517562e-01
-4.482694633898460373e-02 1.394154708991043601e-01 -7.568620363438652854e-01 6.851295951593698455e-04 -1.177748950445755144e-01 -9.930400821188826166e-01
7.791157137604350080e-02 1.618770030614263833e-01 -7.490693975473519117e-01 1.513527073280526158e-01 -2.360786454123703637e-01 -9.598745913736487223e-01
-5.766411279608847640e-02 -1.421284078284639762e-01 -7.856274450573617063e-01 2.593914511993281047e-02 3.366781849149593220e-01 -9.412624291624602790e-01
9.392501308858471065e-03 3.069937567026783526e-02 -7.531472832894787750e-01 2.562101531737767668e-01 -3.648846018514959391e-03 -9.666142163931807918e-01
-1.172660631202799009e-01 2.381904345318830787e-02 -7.538204094403571087e-01 4.695153221174120511e-02 7.583830871097833881e-02 -9.960141086123369680e-01
-2.531136426984475010e-02 -7.879088617446269698e-04 -7.553271520748404688e-01 -4.184009039136239033e-02 1.002635749536486959e-01 -9.940807926791244142e-01
-8.271128849768863769e-03 8.601011614986879550e-02 -7.552442342373220097e-01 -1.642884715317312339e-01 -3.592554180244502543e-02 -9.857579081944857213e-01
-1.071057315167334113e-03 1.302064990268927691e-01 -7.598690053900474251e-01 -2.696854610863196333e-01 -9.818078577247617289e-02 -9.579302090360017896e-01
-3.478743071473984136e-03 -2.118403637768247472e-01 -8.169137181216331589e-01 3.978933880664206058e-01 3.983029941319718437e-01 -8.264596642296170304e-01
-7.274448191069336767e-02 9.246605209633033950e-02 -7.547028936814862421e-01 1.207852808755087853e-01 -1.542162454984404851e-01 -9.806264658615884144e-01
-7.393170633799085734e-02 -7.230251257043493474e-02 -7.663956601583935546e-01 -2.878760103918106064e-02 1.887064598748580679e-01 -9.816115046330230465e-01
-4.676454485057319338e-02 -7.923496442370929482e-02 -7.684273074980390028e-01 -1.346011635212914642e-02 2.216204524050046365e-01 -9.750401019156021976e-01
4.132783758271176000e-03 -7.163833470780854584e-02 -7.650409426104838317e-01 3.352608484212669659e-01 1.864291055827785870e-01 -9.234957239248362537e-01
1.410547844242655011e-03 1.861600354389031722e-02 -7.554623343220180365e-01 3.141058680100232703e-01 2.896180698917482851e-02 -9.489461088057591365e-01
9.018403269385633081e-02 6.327537359115872895e-02 -7.439681541635234652e-01 6.046675500366462813e-02 -1.916584929063737397e-02 -9.979861931711757617e-01
-2.324768006250760646e-02 -2.267414447139275702e-01 -8.233733088091385044e-01 -8.714551091144037698e-02 5.113482188942914952e-01 -8.549436583551102142e-01
-9.585104529475092783e-03 1.722265602308892529e-01 -7.669579260022859613e-01 -1.808041504966222957e-01 -3.280174183018932377e-01 -9.272078690637582943e-01
-3.812384521323774339e-02 8.869485818531035182e-02 -7.528414146511219762e-01 -4.779443339106834165e-02 -5.291443396090934198e-02 -9.974546379737894153e-01
1.108139700219650942e-01 -8.423344284379750968e-02 -7.520619488598615510e-01 7.227924589331057199e-03 3.473718002041943920e-01 -9.376996264950883120e-01
-5.649443116552551464e-02 1.504644415916283617e-01 -7.589794979157770127e-01 8.404007426755151500e-02 -1.769072189886913282e-01 -9.806330107572309718e-01
6.316067027367444631e-02 -1.917620809606220000e-01 -7.955050895333161121e-01 5.779004748576654221e-02 3.277028231979213224e-01 -9.430117550061105636e-01
-2.723815600361481973e-02 -2.540436957818711927e-01 -8.515601969560642193e-01 1.653704021190965379e-01 8.766092281856978641e-01 -4.518947788618976613e-01
-9.941548076500899504e-04 -1.595075845399465952e-01 -7.928391341912051082e-01 2.817956907647309328e-01 3.443100432664304433e-01 -8.955678549235097652e-01
-2.448515690337480302e-02 -4.960027913109417604e-03 -7.557827288905806240e-01 -4.184009039136239033e-02 1.002635749536486959e-01 -9.940807926791244142e-01
1.405454724506608084e-02 5.957739476191229767e-03 -7.522830035509953106e-01 2.382212866615234237e-01 8.905186432497210619e-03 -9.711700758548580392e-01
1.662181474430016875e-02 -2.266143783810027068e-01 -8.177904818985843871e-01 2.222281275943628343e-01 4.327447681411372704e-01 -8.736971013757439675e-01
-6.310269485975114612e-02 -1.981945256660475052e-01 -8.147061125305566920e-01 2.717037124921785063e-01 5.359515365419526001e-01 -7.993328737743041756e-01
8.754047025484462674e-02 1.222703103139573394e-01 -7.438900169004163399e-01 1.394218872151987143e-01 1.981444776520091024e-03 -9.902310898179019771e-01
-7.252118892913358983e-02 5.675809617291082548e-02 -7.512671984758563237e-01 4.225475156150403609e-03 -4.232972572808138545e-02 -9.990947601101157760e-01
1.398319022114796577e-02 -6.127900558722181035e-02 -7.596591193201558401e-01 2.969977902449812412e-01 1.551292162949750308e-01 -9.421927822061176849e-01
3.708182802113298149e-02 -2.053302542491485805e-01 -8.039070149872412641e-01 1.731332464145849126e-01 3.451319987357984176e-01 -9.224471705385515197e-01
6.550039059794353358e-02 -9.743846429365182749e-02 -7.579809083973449990e-01 1.079590829281354136e-01 3.015210703640102130e-01 -9.473277577163340402e-01
-9.502505246303342978e-02 -3.225789028173445261e-02 -7.596611302025609858e-01 2.090944142913626208e-02 1.298815972046785117e-01 -9.913090163852456005e-01
-2.828585772926269209e-03 1.157439630592922569e-01 -7.579734948852936416e-01 -2.539400308294045283e-01 -6.898017893072280748e-02 -9.647570656165449510e-01
-8.053894162090560749e-02 6.903832454578200106e-02 -7.525528647230622648e-01 5.238211252408076640e-02 -1.250284931812803146e-01 -9.907693930377203806e-01
-1.728971714540145782e-02 1.592174611782920801e-01 -7.619699054174630115e-01 -1.313339504927503454e-01 -2.604767317876668931e-01 -9.565057582917018131e-01
-1.145982282146737197e-01 -4.386380699290169660e-02 -7.608459558370322950e-01 -8.794604295236678124e-03 1.005817952986793468e-01 -9.948899222475743320e-01
-9.778926602951263855e-03 -2.190023327295111399e-01 -8.220984267987608840e-01 -4.696263979669174637e-01 4.422934843068420108e-01 -7.640860684977390793e-01
2.461466167982385642e-02 2.728802097311951447e-01 -8.601870392986746827e-01 1.942372840881755325e-01 -8.788080722784514798e-01 -4.358534725894490647e-01
-1.112612919679289991e-02 1.007411907192764799e-01 -7.555413329297626657e-01 -1.205795035382144359e-01 -5.475642551744591691e-02 -9.911923714350460157e-01
-8.431756016877772764e-02 -3.070164161652761889e-02 -7.592590248808869235e-01 1.731034716452989342e-02 1.296603241666855200e-01 -9.914073593725403200e-01
2.552999935282273397e-02 1.489342611431606622e-01 -7.564858500518367723e-01 2.397985913821669146e-01 -1.688351115781026313e-01 -9.560289434266820985e-01
-1.099961889241879986e-01 -4.536305642209589178e-02 -7.610382085771824068e-01 -8.794604295236678124e-03 1.005817952986793468e-01 -9.948899222475743320e-01
-5.176708530626681834e-03 -3.114599431657489800e-02 -7.604267181565625977e-01 -1.426040528217988879e-01 1.489035290135449496e-01 -9.785151113631868069e-01
-9.667636045650042365e-02 -4.655430552028307079e-02 -7.613877329688601980e-01 -7.826923880011049661e-03 1.251304957087607805e-01 -9.921094185150426403e-01
2.770612561140681565e-02 2.066735947726024425e-01 -7.789411414600696526e-01 1.998037579584611978e-01 -5.606724024521687610e-01 -8.035701061103444065e-01
7.637344342008349496e-02 -4.502009451134743323e-02 -7.439576742216750249e-01 9.361032764162569020e-02 1.307192827996429274e-01 -9.869901598613708416e-01
-7.685943658565648484e-02 6.080491138097092463e-02 -7.516658172926430348e-01 5.514026687558859496e-02 -4.933222591496714410e-02 -9.972591851946831509e-01
4.754231236700338405e-03 -1.243527551349838528e-01 -7.785322071763347562e-01 3.099538714271911077e-01 2.834487895344215969e-01 -9.075160501604184748e-01
1.082156365058200842e-01 1.527163872450674337e-02 -7.391066835726221029e-01 7.453057259081907748e-02 -7.721558441572642928e-02 -9.942247971523453520e-01
-7.661445493499216552e-02 1.950453719922549262e-02 -7.526948786403835356e-01 1.853830662359430212e-02 1.088591337906192891e-01 -9.938843092522818834e-01
-1.033341179906728524e-01 4.650698869178510747e-02 -7.521577210255582235e-01 3.724099668654243939e-02 1.137733914036200607e-03 -9.993056658136856285e-01
-8.323166989863908793e-02 -9.296942142594311065e-02 -7.704535648680144178e-01 -4.324094805156662030e-02 2.195417586023557521e-01 -9.746443641869513286e-01
-8.615140962439139793e-02 1.421606150810316438e-01 -7.615818374431345683e-01 1.748536231501559290e-01 -3.929133920175399697e-02 -9.838101448628163714e-01
6.406929704489469635e-02 -1.742939767688283792e-01 -7.892297375516916791e-01 6.675171222696224538e-02 3.397068729865198033e-01 -9.381596076150843233e-01
2.263670278220024715e-02 1.999527390551529282e-01 -7.759470131153060057e-01 2.202843813652514415e-01 -4.853307096907227836e-01 -8.461258142602835486e-01
2.961435910261156056e-03 -6.585772031127781756e-02 -7.642992307859474144e-01 3.352608484212669659e-01 1.864291055827785870e-01 -9.234957239248362537e-01
1.007764769049080029e-02 7.096710537942073349e-02 -7.538739397669782516e-01 2.152176969579285282e-01 -3.244633918250659776e-02 -9.760269350739143590e-01
-7.379384114958461270e-03 2.601657620505271606e-01 -8.325862818017641942e-01 -1.069200006003436926e-01 -8.489875324870803652e-01 -5.174826404364896160e-01
-9.667176138749609959e-02 -5.884804737218700399e-02 -7.631326950468687587e-01 -3.515377630325486336e-02 1.449468501768281514e-01 -9.888147564814333546e-01
-1.205186785287860329e-01 4.108223857915292015e-02 -7.529434908972901797e-01 4.366946278585054353e-02 -1.110038135999659621e-02 -9.989843640186055751e-01
-6.348101253323649995e-02 -5.855102578826925502e-02 -7.639873809342812017e-01 -2.023824421205032073e-02 1.655353941123009487e-01 -9.859961697528538682e-01
-7.159553295412886265e-02 1.227056204671732043e-01 -7.579479242620376089e-01 1.459571599190457869e-01 -7.381218747153998894e-02 -9.865334603798454616e-01
-4.719879432844757499e-04 -1.174080624214827034e-01 -7.781868328325572959e-01 3.716666045413061781e-01 2.691837058777577507e-01 -8.884841402966363599e-01
3.670574709968615207e-02 4.722475143786499657e-02 -7.487014684631598804e-01 1.387645763952422007e-01 -4.218557796439111746e-02 -9.894264850657975563e-01
-1.828075464439077313e-02 1.497738570014321702e-01 -7.599056928258702825e-01 -1.159419560304305596e-01 -1.972584644171850865e-01 -9.734713971389254983e-01
-1.352104287614927340e-02 -3.430634729428403557e-02 -7.601319946147188089e-01 -2.325555495402251149e-02 1.540162183722831590e-01 -9.877946059996892680e-01
-3.098564109258025376e-02 -1.468414619645104224e-01 -7.872459463423120418e-01 -2.055420728106095024e-02 3.523897642602910052e-01 -9.356275854246834944e-01
1.721814910551209069e-02 -8.397796188683449847e-02 -7.634778419325540799e-01 2.496904464131060875e-01 2.362181771804315877e-01 -9.390716978695384798e-01
-1.204320782660637038e-02 -1.640303656699351742e-01 -7.951699581597656552e-01 -1.552750695384298441e-01 3.915364881806752684e-01 -9.069668302661236803e-01
-9.967158987213731169e-02 5.610986489007296907e-02 -7.523513265554905294e-01 7.346399311983473068e-02 -1.103805523497218000e-01 -9.911706086127952675e-01
3.722847171457695226e-02 -1.066590160222855577e-01 -7.648991119677033268e-01 1.925400683029764304e-01 3.039112914830452983e-01 -9.330413972632685127e-01
-3.776592042616137151e-02 5.714091424682192499e-02 -7.518213772823185703e-01 -5.710730760975805953e-02 -4.609735308766287933e-03 -9.983574038178649745e-01
9.111971225469582547e-02 1.285834523353953374e-01 -7.434044244085464825e-01 1.358132503346542175e-01 1.423875904495365378e-02 -9.906321309014742837e-01
-2.655242382020402830e-02 2.041771337670404973e-01 -7.789304768015569147e-01 -1.104075091877830400e-01 -4.699865697805045150e-01 -8.757412895033012123e-01
-4.561313936907000072e-02 1.560935195610436144e-01 -7.595703452050707183e-01 6.712945438157361631e-03 -1.538796128345792102e-01 -9.880667999267176427e-01
9.576049401999069122e-02 4.224785622575670530e-02 -7.425777439647439637e-01 5.403805712511199066e-02 -8.959518235282061538e-02 -9.945112325566300981e-01
9.269141438752069237e-03 1.630149103060540006e-01 -7.639284522256180043e-01 2.738202504378518531e-01 -2.610758076142224993e-01 -9.256683494258262090e-01
5.521343783629306667e-02 1.475219343149149730e-02 -7.443735930651528276e-01 1.448592512317927739e-01 -4.118380180830424203e-02 -9.885948066832934700e-01
-7.349264482682409116e-02 -1.816056898815954779e-01 -8.065742398998981821e-01 1.709535150253066738e-01 5.313854740400817400e-01 -8.297013762069398446e-01
-2.939747505877375513e-03 1.492930929030488185e-01 -7.623625925985073604e-01 -2.265124286378211449e-01 -1.963742117898572281e-01 -9.540069646582818308e-01
1.581083755747799899e-02 1.558313037115888477e-01 -7.601415658096776218e-01 2.653404058667087062e-01 -1.789901855394001040e-01 -9.473948398081241118e-01
2.505807402700968231e-02 5.816269181031410301e-02 -7.508732910646146452e-01 1.522599146554281802e-01 -3.041611838740290036e-02 -9.878723491075986907e-01
1.122972790419429490e-01 1.059631216525868010e-02 -7.384376042760281145e-01 7.453057259081907748e-02 -7.721558441572642928e-02 -9.942247971523453520e-01
3.246513155590251276e-02 -2.041618820160632786e-01 -8.041932694159987793e-01 1.294097468577810606e-01 3.885653905063893854e-01 -9.122883616043897526e-01
-1.395758621527449887e-02 -2.137110922382600142e-01 -8.178569145372913685e-01 -2.067456228778694061e-01 4.500059780542488008e-01 -8.687639881672586384e-01
-3.651451895617619653e-02 -1.341224771052680342e-01 -7.829528011643663854e-01 -1.644905546990563933e-02 3.103537159959375846e-01 -9.504788264562555877e-01
1.059130022480531258e-01 9.331535999935425263e-02 -7.424504398990772192e-01 8.717786619506076584e-02 4.517153158477542341e-02 -9.951681025736111019e-01
8.947337371879655887e-02 -8.991451758810585504e-02 -7.543463046387749449e-01 2.383586318297781226e-02 3.302654971900289005e-01 -9.435870669907177044e-01
-4.906038986454644424e-02 1.481006689937151843e-01 -7.581943033185676306e-01 3.790516198172889234e-02 -1.898876322020306706e-01 -9.810738432105123863e-01
5.129073482661112432e-02 8.968023333336523628e-02 -7.482499920461518350e-01 1.266755276290725818e-01 -2.969231659369827095e-02 -9.914997110615795251e-01
1.231239891730573702e-02 -2.213068939647455657e-01 -8.163564045897608867e-01 2.334937004893451185e-01 4.375357547917718137e-01 -8.683565829258084179e-01
4.305735278695409229e-02 5.662313326418902740e-03 -7.461015898451461847e-01 1.895768667238213745e-01 -6.956852780255159442e-03 -9.818412365563856659e-01
-5.027646898515029245e-02 1.602470936140191204e-01 -7.602785497983155505e-01 1.255802968167996385e-03 -2.477844726720848934e-01 -9.688143671836838555e-01
-1.623826226942753220e-02 1.007429442271739056e-01 -7.549080025294445662e-01 -1.233323242689137594e-01 -5.292187778684850907e-02 -9.909532847929517496e-01
-9.205231459824207707e-02 8.393116690781562972e-02 -7.557974159801198466e-01 1.097335114144881163e-01 -1.894451047390453280e-01 -9.757402875576360879e-01
1.682614978297643574e-02 -7.862340495312571120e-02 -7.622846791303744540e-01 2.654870888716738819e-01 1.952358151324681823e-01 -9.441395988581373633e-01
-1.004096677785494031e-02 1.808203230336077050e-01 -7.699151283705483184e-01 -1.503288162655966320e-01 -3.334545954629407061e-01 -9.307036476584966689e-01
8.339694601409786134e-02 -1.307917374068465755e-01 -7.710503453242697480e-01 -7.238239594915566941e-03 4.006701882096492251e-01 -9.161937612577433221e-01
-9.955763629987035568e-02 7.372002778379142807e-02 -7.547582280604052674e-01 8.088828875454598388e-02 -1.697656170753606975e-01 -9.821592131632137512e-01
3.836431813095463050e-02 -4.782326404364179231e-03 -7.471342058435375133e-01 2.074986963350381741e-01 2.946497755292876511e-02 -9.777914430578051874e-01
5.315268443366058526e-02 -8.857930386373567833e-02 -7.565455248461893101e-01 1.597818921830835848e-01 2.804357879256063613e-01 -9.464805945083805128e-01
4.662629270211719051e-02 -8.140829621220191381e-02 -7.556904635848439300e-01 1.743255063241894165e-01 2.142723257763652911e-01 -9.610920810469734121e-01
-9.210442605162810770e-02 -1.787283167795861508e-02 -7.577635480079782937e-01 3.348777917425925510e-02 1.224350993345755534e-01 -9.919113947812621124e-01
-7.230712582929012255e-02 1.641464513934533243e-01 -7.623467583822489679e-01 7.855362447642620649e-02 -2.187815985603495383e-01 -9.726067757387847346e-01
7.266214304976131855e-02 -9.570246912677536633e-02 -7.570050248068660448e-01 3.933620837587887414e-02 3.137808635562004400e-01 -9.486802582411706375e-01
8.319411709037799474e-02 -1.443679730601874489e-01 -7.770060459584999801e-01 -1.705705621268566868e-02 4.022908383956196876e-01 -9.153530128733430304e-01
3.230024996656800235e-02 -1.279151403610723214e-01 -7.732802116172596829e-01 1.924778795643243279e-01 3.332395709805318074e-01 -9.229862697847310837e-01
-3.011905455556057598e-02 -2.202921079833510820e-01 -8.198397960919123761e-01 9.248198515361029035e-03 4.710663322871602166e-01 -8.820493078109313823e-01
4.242605773449833334e-02 6.587392006904851938e-02 -7.486486859519240200e-01 1.344080019558494821e-01 -3.384118059102424192e-02 -9.903480517002301031e-01
-4.865091399992230864e-02 -9.279656235420263855e-02 -7.714792165983812566e-01 -1.529188218784779431e-02 2.201494501722068287e-01 -9.753462861609859536e-01
-1.199032071149828127e-01 -1.427695861871469511e-02 -7.583264626407606457e-01 2.186671803245024762e-02 8.250595851488386201e-02 -9.963506478404223765e-01
-6.098842277318566873e-02 -9.974176556057189058e-02 -7.729603277812522322e-01 -2.941060358243601999e-02 2.523548437837754843e-01 -9.671877011293013027e-01
3.944048403292352116e-03 2.163199246536617326e-01 -7.937771750325692821e-01 7.375239076965586227e-01 -4.370421702248717954e-01 -5.148326203933978329e-01
-7.003018425460556806e-02 7.399174486147278018e-02 -7.523317361940555781e-01 2.220768840883438275e-02 -8.551099307144748030e-02 -9.960896990931442652e-01
9.016308508055248527e-02 -1.289078139017465763e-01 -7.703896733816829601e-01 -2.702793843433776155e-02 4.062736389394464021e-01 -9.133516413993517657e-01
-2.892713244673201720e-02 1.413321852453030929e-02 -7.538302806734348271e-01 -4.229471218103595526e-02 8.066393939946300828e-02 -9.958436052925593307e-01
-1.039728903354449063e-02 2.255662917640203005e-02 -7.547481721581734693e-01 -1.257825030927305354e-01 3.236424957403354757e-02 -9.915297863731763472e-01
1.253954388298243044e-02 -1.488771452611884483e-01 -7.851005273118278893e-01 1.984444407263262211e-01 3.611945344213590148e-01 -9.111302389060268458e-01
7.287071324624870561e-02 1.424541816791155269e-01 -7.467263761559915780e-01 1.507369327745356757e-01 -6.181973052912313749e-02 -9.866390920772557527e-01
1.487848563364823663e-02 -1.272649244626668785e-01 -7.767069037682167165e-01 2.317411239429787162e-01 3.044939403777254805e-01 -9.238936582458454616e-01
-2.973802613629527442e-02 -1.006558191091464632e-01 -7.736059586098478214e-01 -8.176729336867279499e-03 2.487321150134607917e-01 -9.685378031126519183e-01
7.683958559669644417e-02 1.349656322079045290e-01 -7.456508098586840383e-01 1.507369327745356757e-01 -6.181973052912313749e-02 -9.866390920772557527e-01
7.564638868049951281e-02 1.701167676836495002e-01 -7.514584658854540633e-01 1.602907926389946780e-01 -3.286519211447077593e-01 -9.307495777721606078e-01
6.466080521321930508e-02 -1.815685465649274910e-01 -7.918787777248071924e-01 5.792356583349156374e-02 3.179593863138931997e-01 -9.463332865201485866e-01
-4.188997379545391503e-02 -4.262179731797983984e-02 -7.611176222681581560e-01 -1.323888058407181496e-03 1.667194890782946748e-01 -9.860034783315325679e-01
7.273238815229171594e-02 3.439387955122585883e-02 -7.435759402980913757e-01 9.817177392861799190e-02 -6.915735572241475670e-02 -9.927635987248885074e-01
-1.934524941662570802e-02 -4.221894232638213201e-02 -7.612286019483791577e-01 -2.325555495402251149e-02 1.540162183722831590e-01 -9.877946059996892680e-01
6.550841208251158287e-02 1.561935176897879529e-01 -7.497625094708832982e-01 1.707508718768016853e-01 -1.335560306549792020e-01 -9.762207365288847472e-01
-1.177087641648416963e-02 4.813585388128058945e-02 -7.540411024174562549e-01 -9.813684074109851885e-02 8.847170548726034783e-03 -9.951336031220319178e-01
-7.142896839050257018e-02 -1.639134663344678777e-01 -7.959510264666397328e-01 1.054517620612833023e-01 4.477646796876414426e-01 -8.879114356186623702e-01
1.523989081540540191e-02 1.892903734026190055e-01 -7.721445754240562342e-01 2.444396312930283699e-01 -4.069964060286048180e-01 -8.801154425034976025e-01
-7.746827446863176637e-04 -9.763638814130985721e-02 -7.728900720637665867e-01 3.837844066013026967e-01 2.361198583447422783e-01 -8.927244489454430054e-01
8.243126118525670454e-02 8.218889219775164789e-02 -7.448347257408449718e-01 9.850691206937568778e-02 4.628426838570376921e-03 -9.951256030971949995e-01
8.097258972122339804e-02 -5.891145650097015518e-02 -7.460799379023589362e-01 7.639326290398441854e-02 2.073487729635022370e-01 -9.752797320427676331e-01
-5.257083444747914086e-02 1.798152878212302408e-01 -7.658761955269779431e-01 1.776769174711470209e-02 -3.272252559502786817e-01 -9.447793080917119557e-01
-6.396330852959753593e-03 1.427617574865026329e-01 -7.603662247741255209e-01 -2.099845918549555490e-01 -1.436568808537991571e-01 -9.670931556819459818e-01
1.386154635990771537e-02 2.245332528374508196e-01 -7.960024704919068661e-01 1.941496733758779347e-01 -6.369415414248470464e-01 -7.460639229552515905e-01
-8.954174538899087321e-02 4.558371272712433662e-03 -7.548308662592161378e-01 3.508827430588196822e-02 1.297179658265633362e-01 -9.909298977970405486e-01
-4.358099407226686400e-02 -2.879733330900249508e-02 -7.587814235119452189e-01 -3.625987326673787200e-03 1.649348583487056374e-01 -9.862977971776065722e-01
1.468309986576994339e-02 1.914262012228348520e-01 -7.732868983201302004e-01 2.444396312930283699e-01 -4.069964060286048180e-01 -8.801154425034976025e-01
7.611778914291640261e-03 4.659999933604255795e-02 -7.537848923330511264e-01 2.237346900443495656e-01 -1.328240065442846084e-02 -9.745595755538056792e-01
1.640680702568655946e-02 -9.272553686710723053e-02 -7.658939732970089231e-01 2.496904464131060875e-01 2.362181771804315877e-01 -9.390716978695384798e-01
7.246128730768590376e-02 -1.398555357285359291e-01 -7.748827869704308924e-01 -3.078915475571682072e-03 4.028457358583768522e-01 -9.152627127662401607e-01
-7.006547345616100098e-02 -1.906542606858900590e-01 -8.115894381018217141e-01 2.257686965017179359e-01 5.214691628832180958e-01 -8.228598956333882386e-01
-4.164598973004329796e-02 -2.290192562548677355e-02 -7.578590524883589419e-01 -4.030826228940759086e-03 1.453076405098702450e-01 -9.893783108848536179e-01
-5.955691002295078473e-02 -1.706916921875750448e-01 -7.980451119908743562e-01 8.552033112872714504e-02 4.426166956842544908e-01 -8.926235117143086484e-01
5.547488593990654998e-02 -1.319702446216984570e-01 -7.719593995635635197e-01 6.668305638738192265e-02 3.760068848001024699e-01 -9.242143650548609868e-01
1.141116735427963845e-02 2.544508520815715880e-01 -8.331045441126485596e-01 6.140191780662944687e-01 -7.139874693742821465e-01 -3.364555580508379329e-01
-1.341950075416159863e-02 -1.578076604300188424e-01 -7.924784810984888406e-01 -9.389431537611674095e-02 3.600028878377210528e-01 -9.282142954558239012e-01
-1.600563327895999574e-02 -2.349861769291065883e-01 -8.297671169535709712e-01 -1.935995423545757155e-01 5.727711999675306753e-01 -7.965251845910795714e-01
1.651283191987790513e-02 2.657378768932950885e-01 -8.500774502446357683e-01 2.969682937992559335e-01 -8.475024781778330851e-01 -4.399424757401703689e-01
-7.671469255288053402e-02 -2.500154344362770509e-02 -7.583841685708770930e-01 1.214860729072142660e-02 1.494196586447731345e-01 -9.886992348289621590e-01
6.597435204082742477e-02 1.168327545220586598e-03 -7.423616448506671350e-01 1.290780006001147617e-01 3.707910537412439228e-03 -9.916275112967183336e-01
-7.355875907263475719e-03 -2.181080399242507351e-01 -8.223161553337704488e-01 6.238477016130959951e-01 3.649038239402507267e-01 -6.911289637005816333e-01
-8.193791465476352176e-02 -1.351279455843615585e-01 -7.837890634675330759e-01 1.177103936489049506e-02 3.816371455507153732e-01 -9.242372702765087045e-01
7.007215975180897116e-02 1.353230414897765299e-01 -7.467447013393956334e-01 1.598448820718721408e-01 -5.869909489541137032e-02 -9.853953673190719575e-01
3.028891321770358844e-02 -2.188817605783760500e-01 -8.108564038047093581e-01 1.951776063439845943e-01 3.945362745521822645e-01 -8.979124846243745628e-01
-1.299684973714905836e-02 -1.441620205531708443e-01 -7.873356994360647398e-01 -1.064848833461373712e-01 3.227418729548416354e-01 -9.404778854711896008e-01
-3.342748139912182087e-02 1.557384160098536710e-02 -7.535224539277862732e-01 -4.229471218103595526e-02 8.066393939946300828e-02 -9.958436052925593307e-01
1.925907644512994763e-03 -8.545617197371987994e-02 -7.688573916287939625e-01 3.354352382657946885e-01 2.157026284315541054e-01 -9.170363008176330988e-01
1.201820193649300317e-01 -2.656081188196457443e-02 -7.378175518933707266e-01 7.187294998146354086e-02 9.268137357229652706e-02 -9.930984050202248392e-01
-2.527404160601839575e-02 -2.173598842337577663e-01 -8.181924965354975265e-01 -6.073147741606491068e-02 4.390764187277065300e-01 -8.963947713859745647e-01
7.877531574114664259e-02 9.619261541379686697e-02 -7.451785612663374136e-01 1.162732088744947434e-01 1.519335761761302778e-02 -9.931010536608704253e-01
1.178002716166936213e-02 1.543078408163416904e-01 -7.609826638678793831e-01 2.653404058667087062e-01 -1.789901855394001040e-01 -9.473948398081241118e-01
1.156344878415268597e-02 1.734465856518567495e-01 -7.665784694436951208e-01 2.698366439626628255e-01 -3.298211792878638637e-01 -9.046580432783041248e-01
-7.687148910650888622e-02 5.886289249628265385e-02 -7.515704162810035172e-01 5.514026687558859496e-02 -4.933222591496714410e-02 -9.972591851946831509e-01
1.058201379421126187e-01 -4.794629766411351995e-02 -7.420079444224927379e-01 5.375559727123747911e-02 1.801090985757546337e-01 -9.821766889782314047e-01
-7.172263752360562294e-02 1.464950888591594336e-01 -7.598880705543118452e-01 1.183928970481520071e-01 -8.983217162065189332e-02 -9.888949908207966821e-01
-7.381764855869935027e-02 4.929703200717280853e-02 -7.510548574788704634e-01 5.966611668769994381e-03 2.192011479692982864e-02 -9.997419207537929786e-01
3.997625404416609712e-02 1.751633887839678938e-01 -7.600338952734559950e-01 1.983508465510267216e-01 -3.360692236561729218e-01 -9.207140808001299526e-01
9.487597345991936881e-02 7.494254308408039578e-02 -7.438061194381474506e-01 7.365863941100610213e-02 1.709879951536765266e-02 -9.971369193321709679e-01
-7.019701858253871163e-02 -1.402211614884695499e-02 -7.567203162232970515e-01 2.151596989652348330e-02 1.368346708265116285e-01 -9.903602051270093964e-01
-2.587868494569756095e-02 -1.670608960008444221e-01 -7.951633045774335606e-01 -5.657306186428791989e-02 3.804606143479616898e-01 -9.230651166636464344e-01
-8.393571779984214387e-02 -2.094882042977289777e-02 -7.579485775203836928e-01 1.743859560669939676e-02 1.367494153344421259e-01 -9.904521658257677830e-01
4.549990043880465518e-02 1.578732754911454372e-01 -7.537669093981175239e-01 1.928081090727333802e-01 -2.483446949301594542e-01 -9.492891791102660015e-01
2.401790852549442676e-02 -1.846173180260476387e-01 -7.974172671211974261e-01 1.758710743483719030e-01 3.868071577486770773e-01 -9.052345485684577531e-01
1.226175915459888285e-02 -9.276150726475514141e-02 -7.671709008597464852e-01 2.847300207022939733e-01 2.254128716401300192e-01 -9.317284221326628257e-01
-4.936646472157049659e-02 -1.758154398370692373e-01 -7.993069833114860856e-01 8.459269068374228318e-02 4.053382824063124779e-01 -9.102444471123045666e-01
-1.085148643967699250e-01 -5.066047680636268785e-02 -7.617105177411662709e-01 -3.829457289054888358e-02 1.215956397152026247e-01 -9.918407261699738742e-01
-6.757052613587082035e-02 -2.575506645576599793e-02 -7.583856880061112804e-01 1.214860729072142660e-02 1.494196586447731345e-01 -9.886992348289621590e-01
-4.915957000151675166e-02 -7.823197713809744436e-02 -7.681662722722142345e-01 -1.346011635212914642e-02 2.216204524050046365e-01 -9.750401019156021976e-01
4.277713194145803255e-02 1.831718186111700938e-02 -7.464443180513650189e-01 1.704175075691447550e-01 -2.454958690735326021e-02 -9.850660845327072757e-01
5.218516642158308599e-02 -1.946698943036803964e-01 -7.975956126705711080e-01 6.663389208852890655e-02 3.490641019025884639e-01 -9.347267928052953589e-01
1.004672137425455525e-01 2.875846699143357749e-02 -7.410371756637853524e-01 6.056987917310606429e-02 -9.474182768589231585e-02 -9.936575244135635865e-01
-4.604647118508543857e-02 -1.258631960161609997e-01 -7.802968594288034465e-01 -7.261683069147007244e-03 2.757782781252379745e-01 -9.611938458361465321e-01
8.376869114622630119e-02 -4.679769894588233642e-02 -7.434917076856804030e-01 9.361032764162569020e-02 1.307192827996429274e-01 -9.869901598613708416e-01
-2.427278288404275883e-02 -5.741414761646739667e-02 -7.639626408565571847e-01 -3.048008096546447106e-03 1.866063013636287404e-01 -9.824300473509702814e-01
-5.957428525820362974e-02 -6.638213080163307689e-02 -7.655996334365977596e-01 -7.410893553310217083e-03 1.993271513833748676e-01 -9.799049777290299579e-01
-8.733906226112392313e-02 1.180541625788580073e-01 -7.603073991974659274e-01 1.788786911124618795e-01 -9.630844430912606502e-02 -9.791461062684406746e-01
1.324411276778580081e-02 -2.099218997447450663e-01 -8.108146802405210574e-01 2.271258865728428833e-01 4.198964291780376556e-01 -8.786926768854017578e-01
-1.829585815811752766e-02 -9.547868531252556856e-02 -7.724198976376344117e-01 -2.185143675317505196e-02 2.310878690017426629e-01 -9.726874685694553158e-01
-8.341234364453692374e-02 6.699215828066928946e-02 -7.524465693353195039e-01 5.238211252408076640e-02 -1.250284931812803146e-01 -9.907693930377203806e-01
3.805556910508217650e-02 6.265924233813124911e-02 -7.491243516835145444e-01 1.333361764603684108e-01 -3.488205976529604874e-02 -9.904568168039732390e-01
-3.690433094761598476e-02 -6.591445965786134342e-02 -7.656502637244403386e-01 -4.250447918865704090e-03 2.062255735613814089e-01 -9.784952460292121179e-01
-3.517978124411426377e-02 -1.240204504082212111e-01 -7.798921308316080214e-01 -1.666007353469521265e-02 2.777914287038857899e-01 -9.604969360120169108e-01
-3.733657392360507921e-02 -2.020690114948315852e-01 -8.108866806332575283e-01 1.141648785427395313e-01 4.538560604161904211e-01 -8.837313262133559277e-01
-1.073434733412595016e-01 -3.209542157654155653e-02 -7.597066896720890972e-01 2.228538884235952908e-02 1.055046984426516732e-01 -9.941690600952486356e-01
-9.678754805563394986e-03 -2.360086082869859436e-01 -8.335261969000067328e-01 -2.003444700405117296e-01 5.693305218885164054e-01 -7.973235542553198663e-01
4.516154981164578752e-02 2.361418633900181849e-02 -7.462951525362686578e-01 1.692289106154246658e-01 -4.885474064472665467e-02 -9.843651711272869420e-01
8.198709932080706919e-02 1.117134441193791683e-01 -7.446160454926362693e-01 1.087420869438142645e-01 8.666704403658557002e-03 -9.940322161589550953e-01
6.714262781340121777e-02 6.800130504715792834e-02 -7.459205324681059679e-01 9.013914920220306159e-02 -2.590403800521872552e-02 -9.955922431377851600e-01
-5.093378975668442360e-02 -3.456559002394953700e-02 -7.597651045979777473e-01 4.875179961764359443e-03 1.668809716415053657e-01 -9.859649962977018456e-01
-3.833996637810082458e-02 -6.412301768661222978e-02 -7.652728833323916291e-01 -1.466073392644130996e-03 2.043902816273906742e-01 -9.788883814843668540e-01
1.257630388937151095e-02 1.488764211138842164e-01 -7.596957333013898417e-01 2.452519585393201640e-01 -1.925746342067967964e-01 -9.501402460125272231e-01
