9.288803208291199209e-02 1.425064474445721652e-01 -8.360132641795713360e-01 6.003716954373068404e-01 -7.864070844003770988e-01 -1.453193893554188820e-01
1.234136560070178829e-01 1.367919446903517466e-01 -7.717679784246065378e-01 3.614607463676522414e-01 -8.648093491761454921e-01 -3.484980895397727374e-01
-2.858162432401583838e-02 -4.422883315169355567e-02 -9.718877151399853975e-01 5.724021297087948934e-01 -5.854045236956797460e-01 5.741579447690943194e-01
1.041921793671408622e-02 9.165869016705144312e-02 -7.722250625808241287e-01 5.764460982751362650e-01 -8.044748449853412753e-01 1.432833541245575604e-01
-1.417682486792226637e-02 3.120341751890324850e-04 -9.354438059934171434e-01 5.702109152860913577e-01 -6.677242170767141438e-01 4.785435006536891134e-01
1.054125365367255748e-02 -2.574889138472919933e-02 -1.053571598013676613e+00 8.632040537242374745e-01 -4.193811761852719311e-01 2.810661678244144035e-01
-3.085915608424249709e-02 -6.839071226069862175e-02 -9.942592292672907117e-01 9.430364167671967390e-01 -2.925879406612997835e-01 1.583496562372835037e-01
6.725619814468426771e-02 1.201216144078625370e-01 -8.321080210502197483e-01 7.227485499873615993e-01 -6.795303557608963763e-01 -1.259882101255346276e-01
9.790195920757015224e-02 1.491663933698761380e-01 -8.567429347289224895e-01 6.426241227112964305e-01 -7.660496925252423539e-01 -1.421638109781937082e-02
-1.507638147702498183e-02 1.230334389684113738e-02 -9.146761479692258057e-01 6.543540378940336799e-01 -6.654814774244134368e-01 3.591033225922502514e-01
-6.533725481691843306e-02 -1.410949193055422435e-01 -1.006271388782210341e+00 7.909855670475262057e-01 -3.422447377090456211e-01 5.071591192446115448e-01
-3.067039304925619353e-02 -3.096404716926999187e-02 -9.548222236278801622e-01 6.453690126655204917e-01 -5.834307600130408389e-01 4.930592112127477611e-01
2.135132916870868813e-02 8.691225024952591027e-02 -8.206087902911449738e-01 6.260152309520684577e-01 -7.346298046832586692e-01 2.615797788191313589e-01
5.225217681034865363e-02 1.136813734837012618e-01 -7.944748949805905402e-01 4.220187341451739349e-01 -9.044401256123778543e-01 6.235581137930425177e-02
-5.283883177579382778e-02 -1.936020234064852463e-01 -1.056250435392371179e+00 7.077272757174876139e-01 -2.990005567062711256e-01 6.400943448389802004e-01
3.249848716272589477e-02 4.652259699790176756e-02 -9.909178642547925575e-01 7.995260242268781292e-01 -5.264968623876782328e-01 2.890660659432227053e-01
-5.766900158988997466e-02 -6.362410398528988223e-03 -8.573156813012028366e-01 6.932576304902355879e-01 -6.929498328545348196e-01 1.980262278435262480e-01
2.744439787169319737e-03 2.050616996773403991e-02 -9.480205907570251611e-01 8.293166092327219907e-01 -5.166577438612833806e-01 2.128350003145843827e-01
-5.284117002008908298e-02 -2.659808603313480041e-02 -9.153635248721424533e-01 6.895797341260262447e-01 -6.293083473435608921e-01 3.584003267944868565e-01
-8.352277013237757730e-02 -1.129911733310655642e-01 -9.536491364628993939e-01 8.529180469056667491e-01 -2.994227915057003364e-01 4.276409676230252255e-01
-2.571889720252597961e-02 -1.456024619227903882e-01 -1.076163102520006021e+00 8.013448470528187206e-01 -2.738000170296482905e-01 5.318646320037262454e-01
2.256759069447136778e-02 7.335036537775951881e-02 -8.579704331140678431e-01 6.470393351666395843e-01 -7.033388155711954859e-01 2.943715496749325644e-01
4.953809785151039313e-02 7.358868702387531824e-02 -9.855123846962647871e-01 7.803062265938736086e-01 -5.695250891658530934e-01 2.583860784745525829e-01
-8.065952645188620429e-02 -1.650319608172488572e-01 -9.972603137566141696e-01 8.244505560204159478e-01 -3.563181397092758940e-01 4.396801837605922025e-01
-6.464844699654470617e-02 -1.578226236451728826e-01 -1.018969327563813643e+00 7.788564173936227686e-01 -3.541907899441094076e-01 5.176210635238278623e-01
-8.262698903887949475e-02 -1.125490472706588557e-01 -9.551261821375172101e-01 8.529180469056667491e-01 -2.994227915057003364e-01 4.276409676230252255e-01
-1.452681171160666307e-02 2.945225928778357274e-02 -8.779334020909206338e-01 6.801766291877966442e-01 -6.853171963758294405e-01 2.601924162198032686e-01
6.095189191372804571e-02 8.204082649034587227e-02 -1.001002457038034255e+00 7.767916041554639994e-01 -5.711180181712252057e-01 2.653658098432300494e-01
-3.726672054009820545e-02 -2.776902610908290030e-03 -9.019413881791570331e-01 6.699322566702764492e-01 -6.632347412082075788e-01 3.336322069692205794e-01
-3.769311987792118950e-03 3.819859771105659635e-02 -8.824069058717105563e-01 6.767126488107442217e-01 -6.819467473336073837e-01 2.775042787790124588e-01
1.015841220609529222e-01 1.393756420756136483e-01 -8.051431614114066271e-01 4.927394253624009512e-01 -8.203629726906654929e-01 -2.901938175283292898e-01
2.142294268614355068e-01 1.020761650527327591e-01 -7.006555170366116636e-01 -1.253404909712631521e-01 -8.276278356912392109e-01 -5.471032141306774177e-01
2.416350635780492757e-03 8.566497449373035311e-02 -7.736807226455864051e-01 5.764460982751362650e-01 -8.044748449853412753e-01 1.432833541245575604e-01
4.266481403313935467e-02 1.059837110091316620e-01 -8.087011036493799709e-01 5.209145140931885631e-01 -8.350548046073571484e-01 1.770071815187896636e-01
-8.454947037959391343e-02 -1.501980301920726180e-01 -9.777228555822161660e-01 8.488582200309343628e-01 -3.244227775111643286e-01 4.173602565145074217e-01
2.534549565657336079e-02 4.379349164320154447e-02 -9.750589730055095883e-01 8.038969676165886868e-01 -5.378492818575992818e-01 2.539051308306278232e-01
7.594344342280141824e-02 1.174341625615930307e-01 -9.181237465180492885e-01 6.293538364586646061e-01 -7.341631074903732790e-01 2.547906594340526576e-01
-5.792162823416693168e-02 -1.869288644055750598e-02 -8.903623905490108958e-01 6.955477610553262302e-01 -6.606020368059317693e-01 2.825212577113047074e-01
1.854396764295498240e-02 6.904922024818498094e-02 -8.594030441706939083e-01 6.470393351666395843e-01 -7.033388155711954859e-01 2.943715496749325644e-01
7.584502916021432228e-02 1.058940478496450677e-01 -9.643171220215812633e-01 6.050617418050083796e-01 -7.852139775319179060e-01 1.316787685710734124e-01
-3.720321292440223471e-02 -1.538490901182002768e-01 -1.055660281494526620e+00 9.269373285897174464e-01 -1.848969096786997057e-01 3.264970469364543715e-01
-3.612770437826449271e-02 3.002180002357069961e-03 -8.917399731708560706e-01 6.676667459340558386e-01 -6.837580958586476632e-01 2.944418155112916713e-01
-1.696583840816684799e-02 -6.540347870697159338e-02 -1.029711102070016704e+00 8.561375342478790840e-01 -3.901220511477395125e-01 3.388706355827286743e-01
-6.747963353818767218e-02 -1.626357943463082878e-01 -1.017790662486649511e+00 7.762567550935318694e-01 -3.744428541787772069e-01 5.071666384198703081e-01
3.416253287558498452e-03 4.064386385484148462e-02 -8.926462533973011926e-01 6.374797279085293589e-01 -6.975769477992384004e-01 3.271177133766469125e-01
1.553065706514508357e-02 2.389376238185514367e-02 -9.839349405424571149e-01 8.195676374101898976e-01 -5.023767419785002408e-01 2.755476307808633063e-01
-8.160415118240693655e-02 -7.348068704234420045e-02 -9.237300378237719434e-01 8.190852716425421898e-01 -4.236436657264883721e-01 3.868143770183400942e-01
3.978393360468813339e-02 9.353117313450408365e-02 -8.429627263223322675e-01 5.498495552387500096e-01 -7.801916396545087728e-01 2.982724794830361459e-01
-2.360157198699758350e-03 -7.114936088368856160e-02 -1.069875403241430822e+00 8.320959126111026061e-01 -3.367186147022679377e-01 4.407232314376927085e-01
-1.854871344113627257e-03 -8.831649042672669314e-02 -1.082186598051247062e+00 8.066306824785542950e-01 -2.777565549644282483e-01 5.217262100551155468e-01
5.625612060701708737e-03 8.613738182505976948e-02 -7.814973323871373667e-01 6.231265581721523450e-01 -7.519342266184061430e-01 2.151934277349259184e-01
1.139008689085341808e-01 1.536969691719660691e-01 -8.260404122093308876e-01 5.035862806777634537e-01 -8.228115953046601927e-01 -2.634045112471255501e-01
6.689676960439375208e-02 1.164426297396727594e-01 -8.183272892489763528e-01 2.587129652454585038e-01 -9.050956461241050910e-01 3.374455111289688669e-01
-7.507589607837053536e-02 -1.066040847721436563e-01 -9.651816347294157605e-01 8.205267162241706158e-01 -3.431409287195528734e-01 4.571544717049829676e-01
1.040997817008741805e-01 1.532650294464183161e-01 -8.526009973200021630e-01 6.017356378108931203e-01 -7.922057720699431371e-01 -1.016082520634181002e-01
5.851466709567653551e-02 9.191411713141744988e-02 -9.594082369799107335e-01 6.798143696597370722e-01 -7.166188802181626682e-01 1.559160136708261091e-01
-3.541034257568951432e-02 -1.050370965359374159e-01 -1.023808473667277896e+00 9.162083665478070182e-01 -2.899093816417950276e-01 2.766130501329818747e-01
-2.054786064820978558e-02 -1.411995065057301546e-01 -1.081393923876742269e+00 7.645968981322911473e-01 -2.700892328580012935e-01 5.851866280603611470e-01
-5.272128599724370396e-02 -9.365469409799186129e-02 -9.896540403759428450e-01 7.159346809250517474e-01 -4.482703018449492038e-01 5.352487918086156204e-01
9.712478119116273179e-02 1.486240913035310474e-01 -8.626518231602977593e-01 6.426241227112964305e-01 -7.660496925252423539e-01 -1.421638109781937082e-02
5.609241200467401239e-02 8.967334006897838272e-02 -9.588404444843933172e-01 7.205073657674431198e-01 -6.723836854217677406e-01 1.696151981795890329e-01
2.692441816296699264e-02 6.374317513588440010e-02 -9.234754552663441141e-01 7.999964616146696406e-01 -5.842608343298828499e-01 1.365464714745784902e-01
3.454820439559015688e-02 6.883087619381682287e-02 -9.440165382192606813e-01 7.850010829009709257e-01 -5.998569750034457027e-01 1.547414274976763038e-01
1.834468252069607064e-02 8.037708104300711476e-03 -1.020640646141036001e+00 8.304304507307798122e-01 -4.814951925069118621e-01 2.802635297212359711e-01
4.465783411608857320e-03 3.196032429717890477e-02 -9.134645283224787082e-01 8.942754169991141699e-01 -4.469759428966221804e-01 -2.199965960500839188e-02
6.713409675033189979e-03 1.935814077859086824e-02 -9.650556848435687396e-01 8.176701233292082982e-01 -5.220741174054699396e-01 2.425988156403424967e-01
-1.822925430291788074e-03 -5.928295528948123588e-02 -1.060651950746788197e+00 8.524151858054992426e-01 -3.645053972663833131e-01 3.748655310532729712e-01
9.921003917842230457e-02 1.498200556347407120e-01 -8.538554676534917398e-01 5.769673381987945326e-01 -8.115590745581020560e-01 -9.208995142899810415e-02
-8.805908968697874484e-02 -1.610607790137813522e-01 -9.792623156320121591e-01 8.258618456440698363e-01 -3.809030450695106151e-01 4.157704681265196323e-01
-1.569625655921619636e-02 6.451551613056456802e-02 -7.866337601759874065e-01 7.061817551896030221e-01 -6.540907142247199824e-01 2.710584184310224631e-01
1.266813476159882323e-01 1.291186932027951484e-01 -7.426820597083022557e-01 6.192739668068609343e-02 -9.682619538937246029e-01 -2.421441433986372127e-01
-2.052965330966610713e-02 1.510190879112123692e-02 -8.987269464660195828e-01 6.566926025780140952e-01 -6.845760202549299178e-01 3.164024307922368995e-01
8.259060280433702661e-02 1.339195971735066826e-01 -8.318724904606379367e-01 6.090481512245342621e-01 -7.720811670431612095e-01 -1.815241608911795923e-01
-1.707170832919065531e-02 -1.703125019569101395e-01 -1.096472761898174442e+00 6.634684488955681081e-01 -2.262971182022967265e-01 7.131614344686935114e-01
-5.869017984580437303e-02 -1.032445331074183653e-01 -9.888995921778287457e-01 7.564962587023057461e-01 -4.138691231505621793e-01 5.063849913573655881e-01
-7.661115924891033491e-02 -5.256991584667292799e-02 -9.082147783241349970e-01 7.820162548068493313e-01 -5.020771627576259277e-01 3.692818704663436424e-01
-6.374919929712279110e-02 -4.022162825904766759e-02 -9.162357567274871384e-01 7.052383825277357410e-01 -5.900705764679705645e-01 3.930083187369193820e-01
1.185076217256288006e-01 1.399406134051179029e-01 -7.843260386532810990e-01 3.815480340337557008e-01 -8.481767860349792576e-01 -3.674469177396231800e-01
-1.176538594743931597e-02 -1.302301234986175393e-01 -1.087487685457368514e+00 7.390434401883410054e-01 -2.644695279085467199e-01 6.195729677143868575e-01
-2.676290761199724699e-02 1.063341997662121258e-02 -8.952538805539752564e-01 6.676667459340558386e-01 -6.837580958586476632e-01 2.944418155112916713e-01
-3.471557651041298764e-02 -2.069675692427263847e-01 -1.076119189264073128e+00 5.645172519927146304e-01 -2.020257606482806778e-01 8.003161026976014503e-01
-6.105463556676808679e-02 -4.989722971049842526e-02 -9.338617523829442213e-01 7.211167327425730411e-01 -5.514953554504550270e-01 4.193370132426340047e-01
-1.955257306772608186e-02 8.501714558180941197e-03 -9.139155976419909289e-01 6.356801779982820255e-01 -6.805990476752216134e-01 3.642741379835440774e-01
-1.033420113574658530e-03 -8.727948707221890035e-02 -1.082945078111449355e+00 8.314843850826381111e-01 -2.746434124776713226e-01 4.829127388528561271e-01
-7.938502122191777588e-03 6.559849908325286749e-02 -8.036514588825306449e-01 6.959356214070475666e-01 -6.642969779318914636e-01 2.727327189160529963e-01
-6.038830505259280140e-02 -3.935408070676257863e-03 -8.367875330839162906e-01 7.019798219741162359e-01 -6.921269115262275173e-01 1.678828993148320514e-01
1.001846952267051484e-02 8.792153236879907130e-02 -7.879020959790311585e-01 6.187550895451623401e-01 -7.526682331540158755e-01 2.250170437161823911e-01
9.271709679200453025e-02 1.291166033899761589e-01 -7.887517338672906941e-01 2.056117700739149012e-01 -9.731515461842838999e-01 1.034401670832438835e-01
3.561364242817708498e-02 5.381173172954340639e-02 -9.857438708103070102e-01 7.962238046876125575e-01 -5.403942577208535880e-01 2.720325331115933665e-01
2.352630631473809353e-02 9.175190033861385652e-02 -8.120924790303473140e-01 5.978468296996413134e-01 -7.691332471521543646e-01 2.258610553930699705e-01
-6.473127230427291878e-02 -5.232567326687336505e-03 -8.232954768707182458e-01 7.029157480394725432e-01 -6.935557449991553991e-01 1.577652678404703190e-01
-3.017510516463894898e-02 9.628589964400618290e-03 -8.897241319358766276e-01 6.583802142454213691e-01 -6.993713412625516268e-01 2.782359080183091082e-01
3.477649443038638433e-02 7.161450761399998366e-02 -9.343327127148159938e-01 7.762151381057397215e-01 -6.110433798669052674e-01 1.552934232229961353e-01
7.526309987254205247e-02 1.252000156262588759e-01 -8.213866274581442806e-01 6.377058442842712394e-01 -7.357613795788675581e-01 -2.280053694233675210e-01
1.600370127478658866e-01 1.355803086730988649e-01 -7.515096544650669008e-01 3.911929250687055243e-02 -8.515144118865475287e-01 -5.228698569465148882e-01
1.002912747511480185e-01 1.511159791932615570e-01 -8.712899751099493217e-01 6.036002556562418686e-01 -7.972768250065107587e-01 4.049157845461616792e-03
8.232457395065286010e-02 1.367027005470931311e-01 -8.583439824063641144e-01 6.616945711993577062e-01 -7.497267976190689076e-01 -8.367997200891215404e-03
-2.606279153494905562e-02 2.311495022497683793e-02 -8.638584249205715215e-01 6.878560935231473605e-01 -6.867872443398264082e-01 2.348984368087260743e-01
3.493352161333292127e-02 3.865955911516728155e-02 -1.012069761889305086e+00 7.940922527101144102e-01 -5.343509473745657878e-01 2.896317648768521602e-01
-8.416556279908329885e-02 -1.029964202401676132e-01 -9.448895724138003382e-01 8.406112216814688454e-01 -3.313930464086584649e-01 4.284290171955879578e-01
-6.293048981459323232e-02 -1.790367761510428257e-01 -1.035647766151661431e+00 7.541826960098184651e-01 -3.502779695260186954e-01 5.554401903932513207e-01
5.033437578588093042e-02 8.153042052958525687e-02 -9.664696274556804356e-01 7.301410473404316148e-01 -6.645000201055716316e-01 1.591658702998622887e-01
-8.075173623119335370e-03 5.861286633075356994e-02 -8.198921271362151764e-01 7.034240960956095190e-01 -6.549513661762647043e-01 2.761036924344174581e-01
1.049380090604579152e-02 8.661463170093995634e-02 -7.938529933300827457e-01 6.194397185059782318e-01 -7.581149185623554665e-01 2.038533919031708108e-01
3.066015677371116549e-02 1.372738785754000490e-02 -1.050167112299764671e+00 8.339983873624465804e-01 -5.022585877577352420e-01 2.284359886279832552e-01
1.419572567456766632e-01 1.333054386594008378e-01 -7.554296912105602502e-01 3.745599509400090454e-01 -6.582171769632677583e-01 -6.530352142896462819e-01
1.399065514152263712e-01 1.401586103864066457e-01 -7.660068752717247298e-01 3.109342073017125063e-01 -8.373789847185834079e-01 -4.495735253340996107e-01
-5.941088561218872688e-02 -3.498295229635563913e-02 -9.161552413346438772e-01 7.052383825277357410e-01 -5.900705764679705645e-01 3.930083187369193820e-01
4.565702108122517144e-02 9.534823897181730901e-02 -8.835492135341784792e-01 7.618918744529554754e-01 -6.381184732632627643e-01 1.110206544870146611e-01
2.798797148678223295e-02 4.514273143413986833e-02 -9.803923786120315453e-01 8.021164621084152513e-01 -5.356348975064999518e-01 2.640159801752171576e-01
-1.492065750454590889e-02 4.608358155382499127e-02 -8.326952277523526069e-01 7.103780948262916617e-01 -6.539075280323650707e-01 2.603226981528313222e-01
-1.795631880310288864e-03 -4.462075170698418664e-02 -1.043591833437991001e+00 8.606980159131198960e-01 -4.020726509000694393e-01 3.123083553179609173e-01
1.112230285148320813e-01 1.539941953524341101e-01 -8.319758691363559056e-01 4.776806874169565731e-01 -8.373892262204161163e-01 -2.657074418958507156e-01
2.018139830631445961e-02 -6.942819092149768966e-03 -1.054568336258290051e+00 8.527293881365045625e-01 -4.653008985795358265e-01 2.373766298299375688e-01
-2.617854608371560435e-02 -1.160244888590271500e-01 -1.056703485488444505e+00 8.754825704226237848e-01 -2.887202744219514172e-01 3.875188666683323513e-01
-5.148321044640361693e-02 -1.876676531715788798e-01 -1.054764547953136455e+00 6.893229360774374426e-01 -3.546276541316270570e-01 6.317223414781847346e-01
-2.862182987979341314e-02 -1.556089849044083873e-01 -1.076551385060559474e+00 8.451007949135357356e-01 -2.444876049793690276e-01 4.754266057426344005e-01
9.170737689986793728e-02 1.345229265129847807e-01 -9.106579875028827376e-01 6.587984933134571897e-01 -6.948550382624031352e-01 2.883765264533040829e-01
3.805112128521262460e-02 8.214824464310144236e-02 -9.046494229199418813e-01 7.747384107751242865e-01 -6.199519677408834584e-01 1.242576056579307586e-01
-1.996946046935026142e-02 3.925501819185243241e-02 -8.364057414023655657e-01 7.124112597642704436e-01 -6.588439947281434783e-01 2.416501346404493489e-01
1.400120456688953852e-01 1.296152174253825118e-01 -7.531683967650484313e-01 -4.377805142899201529e-01 -8.678789288655824885e-01 2.348071254012157882e-01
1.010732510971019960e-01 1.284142706455422278e-01 -7.602969758618999263e-01 1.975886269988533228e-01 -9.640611465747820352e-01 -1.776086713694596253e-01
9.141221895690200550e-02 1.414730620402896710e-01 -8.364029351759042497e-01 5.743487601644526874e-01 -8.057614994261964592e-01 -1.444711311646849350e-01
9.350801243517248285e-02 1.376103095435956269e-01 -9.073323781407219846e-01 6.587984933134571897e-01 -6.948550382624031352e-01 2.883765264533040829e-01
-6.621394529601727641e-02 -1.075040599337196562e-02 -8.408830498715791357e-01 6.912891477104831095e-01 -7.023720398587547376e-01 1.696845069013838692e-01
-7.008479539410351900e-02 -1.777619631603309103e-01 -1.024631639836199648e+00 7.598947319119889743e-01 -3.955478953398471331e-01 5.158506168500955891e-01
6.963020119647857220e-02 1.237678331532277159e-01 -8.403076140063325816e-01 7.065640135260845556e-01 -7.022517834703966289e-01 -8.723375151028482655e-02
-8.077444528771472732e-02 -3.138661666264592337e-02 -8.593305174727297047e-01 7.235005962975523675e-01 -6.475104485038489788e-01 2.393263592574594312e-01
4.486691425503896297e-02 1.090862602055454739e-01 -7.992620957645748536e-01 4.773674482896803073e-01 -8.712769667734137080e-01 1.140033617202543675e-01
2.852837124289141213e-02 8.415472589219673283e-02 -8.442054953963926689e-01 6.207835551224060167e-01 -7.308568574898635095e-01 2.836829771939591294e-01
1.242751698654126491e-01 1.343780770269074054e-01 -7.645332614544105843e-01 9.630005798024354746e-02 -9.790497836274731913e-01 -1.794096430295757660e-01
-1.375802938451985667e-02 -2.235381481217798422e-02 -9.777109715679187518e-01 8.397912431665354172e-01 -4.635418014657706198e-01 2.826299102973238164e-01
-5.898361698541246256e-02 -1.378161406491142452e-02 -8.762756430571972954e-01 7.043887003869286900e-01 -6.514389699837028758e-01 2.818932903667379919e-01
-2.782889789190632832e-02 -2.982013949435204092e-02 -9.569356370418747870e-01 6.160093231464944807e-01 -5.940649460711285856e-01 5.173193922965819702e-01
2.274343906660677983e-02 5.248508647501430591e-02 -9.438467379574605465e-01 8.165289619637636775e-01 -5.496328734084220402e-01 1.765903699049875264e-01
4.454744312741218404e-03 2.788218679623427967e-02 -9.342587830793210868e-01 8.345638116808719031e-01 -5.281586983460555551e-01 1.566896090814403619e-01
-9.050811184760410022e-02 -1.010036023199693128e-01 -9.303036096160480772e-01 8.591042918958671226e-01 -3.106758744838561959e-01 4.067189652079086781e-01
-2.529199928355521307e-02 2.593608922380307574e-02 -8.581556456231337338e-01 6.934596358251300385e-01 -6.799518058005302734e-01 2.382840222714822653e-01
-7.129020975481027700e-02 -1.411493273582639651e-01 -9.964789872801910198e-01 8.182315536840910619e-01 -3.282244127120961252e-01 4.719807829303200863e-01
-9.671193267044440878e-02 -9.534314012951297657e-02 -9.122487223396064104e-01 8.559648459108920582e-01 -3.347297713186690449e-01 3.940560401233491050e-01
-3.727810931348195939e-02 -4.285447172282967621e-02 -9.602794376956340638e-01 6.480409039165738738e-01 -5.598779283470428636e-01 5.163135599621738736e-01
2.854143859248693682e-02 4.869034011374279158e-02 -9.748047142665141607e-01 8.038969676165886868e-01 -5.378492818575992818e-01 2.539051308306278232e-01
-2.394494711615431648e-02 -2.106790071019908894e-01 -1.090451010096546991e+00 7.528087581782828552e-01 2.788620877624323757e-01 5.962507103717774593e-01
-1.079548126513930201e-02 -2.539807914087299171e-03 -9.488988482081015530e-01 8.579109840090669570e-01 -4.789162935674761701e-01 1.860858062082799136e-01
-5.901709465938791838e-02 -1.139338512387194462e-02 -8.689549217982507345e-01 7.041428343825143488e-01 -6.765357222145126359e-01 2.155975077672448448e-01
-4.395090623992388076e-03 -1.079223359508605512e-01 -1.087907369769602228e+00 8.001449683143384561e-01 -2.522153770756394020e-01 5.442016475975055556e-01
-3.744316225390036112e-02 -1.417458872802544179e-01 -1.047222556313374353e+00 9.414870134493439346e-01 -1.881006778632010323e-01 2.796789918703929678e-01
-6.230772501271361619e-02 -1.089318351157519821e-01 -9.880043066257599982e-01 7.595314163381551298e-01 -3.861019179250832489e-01 5.234857558424377277e-01
5.382875449627357728e-02 1.074910008035518533e-01 -8.618576758866918208e-01 7.587978406454702895e-01 -6.511444366101089010e-01 1.538699787079087292e-02
-9.369198121062624618e-02 -4.717144791016699562e-02 -8.590454258283365396e-01 7.684795077989566847e-01 -5.681925101614676565e-01 2.942728623055209658e-01
-2.531638743493782456e-02 6.602435287050682083e-03 -9.066167804697541355e-01 6.467038665879552006e-01 -6.847589886656444413e-01 3.359750532134672674e-01
2.035433142482562761e-03 -7.137187126287715400e-02 -1.078690766298551429e+00 8.564260491151594046e-01 -3.051499277613123895e-01 4.164348016007601849e-01
1.944429001191086068e-02 1.984083046093679942e-02 -1.002691129113943092e+00 8.158089575773758151e-01 -5.054853311482314648e-01 2.809632088556766050e-01
-2.812394670465226051e-02 -1.210091436283261268e-01 -1.056022245254908620e+00 8.754825704226237848e-01 -2.887202744219514172e-01 3.875188666683323513e-01
-9.476550352119259349e-03 -6.898124308228160972e-02 -1.052461656157008374e+00 8.525758488098089671e-01 -3.800385070890951456e-01 3.587271318923695995e-01
7.147384544151277538e-03 1.065929440516955214e-02 -9.831293812668372434e-01 8.195676374101898976e-01 -5.023767419785002408e-01 2.755476307808633063e-01
9.471579762934843882e-02 1.400827272518120337e-01 -8.205352565357790784e-01 5.484923893404746176e-01 -8.049982227936217649e-01 -2.261281940287145076e-01
-7.431230340360205078e-02 -1.067133855142093912e-01 -9.666342153978849661e-01 8.205267162241706158e-01 -3.431409287195528734e-01 4.571544717049829676e-01
1.282859295065728010e-02 9.427288025431661278e-02 -7.670743075346014850e-01 5.138215490645584582e-01 -8.534804441925528673e-01 8.693990509415160106e-02
5.727577623501608345e-02 8.192645862680468516e-02 -9.894887936692811081e-01 7.451313521766115278e-01 -6.283448245875212779e-01 2.235219215592331443e-01
-1.220763141755682769e-02 -1.149851302942980907e-01 -1.080333788529465933e+00 8.183099964565870854e-01 -2.749967537591447297e-01 5.047232262548977388e-01
-5.063194343252553492e-02 1.381541823341842640e-02 -8.109543808953348920e-01 7.425331312650472748e-01 -6.328496281353345188e-01 2.194217335240362665e-01
-8.037388946404959433e-02 -1.592509057736207490e-01 -9.930255357487368650e-01 8.234531732335980125e-01 -3.648095156794026739e-01 4.345559673520519306e-01
-7.725032248179827810e-02 -3.748156389177068754e-02 -8.822594014780031912e-01 7.388906419477230259e-01 -5.980117636379157497e-01 3.105198057978773574e-01
-1.282379478358573570e-02 -9.361423050675020396e-02 -1.066603510149673140e+00 8.171980688171458507e-01 -3.250312503212425264e-01 4.759642871436232103e-01
-6.637898435307455769e-02 -1.658290110818212981e-01 -1.021832851775314799e+00 7.762567550935318694e-01 -3.744428541787772069e-01 5.071666384198703081e-01
-3.137857974072310457e-02 -9.053424738468049751e-03 -9.239511098036062853e-01 6.610167038380808657e-01 -6.337342621352565208e-01 4.017932331970277549e-01
7.405205270246391358e-02 1.290873293109685571e-01 -8.543653613771132749e-01 6.680878080331271729e-01 -7.434235016212218383e-01 -3.130779447250843506e-02
4.485747607832676551e-03 -3.795612496801255287e-02 -1.052427633611201507e+00 8.674334230330330575e-01 -3.889385378834762652e-01 3.102999683439539580e-01
1.512939376668400587e-02 4.421332358674821827e-02 -9.338835304134154303e-01 8.270701260224779805e-01 -5.388680872740195804e-01 1.599255800639861613e-01
-2.637332014513987712e-03 5.550735450193462067e-02 -8.416639570774386847e-01 6.851024132573334535e-01 -6.764423863598595377e-01 2.702968392060043912e-01
-5.150016388875344048e-02 4.235606110324086071e-03 -8.405619631420233606e-01 7.084839163725685784e-01 -6.856386050015622624e-01 1.671832634353659364e-01
-1.991474026338830791e-02 -1.211394714802312422e-01 -1.071983572925080175e+00 8.186319390379922512e-01 -2.866616026943392681e-01 4.976614049005709806e-01
-2.851755145974587541e-02 -7.788941545717473561e-03 -9.266069592287057288e-01 6.540800821455513558e-01 -6.299791126764556770e-01 4.186950724953116820e-01
1.000730267067827944e-01 1.481504387639846210e-01 -8.381151525967300842e-01 5.251366293788657380e-01 -8.264578997151066364e-01 -2.029750242840200891e-01
2.216420918428636810e-01 9.989684925116359970e-02 -6.998388331825698971e-01 -5.353881990564136606e-01 -7.746139500348360185e-01 3.366492309846534914e-01
-2.731193672202265887e-02 -1.972794253525554375e-01 -1.090904328487569686e+00 7.358948762327366389e-01 1.129308694191554496e-01 6.676116759514013621e-01
1.063011141518553984e-02 4.034643572684509100e-02 -9.227287804291383067e-01 8.232972086822103464e-01 -5.562079187072866970e-01 1.132009599932331523e-01
1.045042468703097707e-02 -5.007438145282150366e-02 -1.079737932746026585e+00 8.522819534722878565e-01 -3.444874912063766170e-01 3.936290642061355260e-01
-9.217980617940865762e-02 -1.306588489936910125e-01 -9.474347799327301756e-01 8.767092899978483622e-01 -2.719303541785905720e-01 3.967804220318527642e-01
-3.834336123007681812e-02 2.220913423475863457e-02 -8.275858312413276741e-01 7.289565354091300797e-01 -6.459591072673960266e-01 2.266256852667556110e-01
-8.205769018568006418e-03 -6.572447545204695984e-02 -1.052031636734689801e+00 8.525758488098089671e-01 -3.800385070890951456e-01 3.587271318923695995e-01
-3.151045187232642819e-02 4.126114187914265569e-02 -7.991686310648303815e-01 7.284181187813296710e-01 -6.244364114508843544e-01 2.819329925450560492e-01
7.841980238916082535e-02 1.332282018584504957e-01 -8.631566292883495750e-01 6.543216036897299137e-01 -7.558470958220482316e-01 2.363063017093513032e-02
2.259001558182930150e-02 4.915754906163487259e-02 -9.526812554904561248e-01 8.083804401699845599e-01 -5.532167438035066054e-01 2.011772808396310730e-01
2.857082671983101826e-02 1.030327269093547771e-01 -7.732985503508592595e-01 5.082645153779080660e-01 -8.543276484123809578e-01 1.085884504255934108e-01
5.242391054408469114e-02 1.133685395624335207e-01 -7.976837429510643673e-01 4.661344553175165717e-01 -8.743270761935937330e-01 1.351696467429134574e-01
4.436598958628359263e-02 1.022847502818411969e-01 -8.268889549263336303e-01 5.314232482000108559e-01 -8.051795115433493244e-01 2.632019860551266799e-01
-5.128887503365874012e-02 -1.845044625303610686e-01 -1.053208422637153419e+00 7.076065935479631808e-01 -3.270279342811009959e-01 6.263749986767382927e-01
-8.274236369607601560e-02 -3.112562038998278532e-02 -8.525223334686877763e-01 7.275315620951434692e-01 -6.458400622630598997e-01 2.314917711959699476e-01
-6.957697235311556538e-02 -1.019309086980971640e-01 -9.710965189549307652e-01 7.796821104028417437e-01 -3.793688857658213953e-01 4.981717125957375591e-01
-7.977472494104084766e-02 -1.660103329588850096e-01 -9.997122933519064780e-01 8.244505560204159478e-01 -3.563181397092758940e-01 4.396801837605922025e-01
5.863519196900025821e-02 8.095588556207934661e-02 -9.965364421801604644e-01 7.770036666566242367e-01 -5.713709545844741777e-01 2.641979073713269788e-01
-2.569218994761343633e-02 1.202645204967515286e-02 -8.943046573876971550e-01 6.583802142454213691e-01 -6.993713412625516268e-01 2.782359080183091082e-01
1.114312812310979256e-01 1.466157940591713005e-01 -8.094616725809952174e-01 4.417001298208454441e-01 -8.362846630012440441e-01 -3.248522090815205154e-01
2.207909077301883211e-02 9.348297299809381344e-02 -8.023277045114622918e-01 6.071659384539497273e-01 -7.666060028499025458e-01 2.089611436986066884e-01
4.045126861888186098e-02 1.037891033814815206e-01 -8.125402117803343094e-01 5.209145140931885631e-01 -8.350548046073571484e-01 1.770071815187896636e-01
1.622136826604989382e-02 2.237018348504532170e-02 -9.887737510548347819e-01 8.196589539380715328e-01 -5.024637963442670774e-01 2.751169434848632078e-01
-4.291228142519988228e-03 -2.880397127713893793e-02 -1.014216151491050599e+00 8.432070388111444492e-01 -4.487706753659865822e-01 2.959844094389050273e-01
1.934162756456991872e-02 4.578176323112816137e-02 -9.486754500283206548e-01 8.144621730607304322e-01 -5.474521063624471218e-01 1.922174807152379761e-01
1.907596244440923003e-02 8.651627130924570419e-02 -8.163058501866171657e-01 6.242650571561041417e-01 -7.351800705668138924e-01 2.642033350570366368e-01
7.421384393503129874e-03 -5.810374057897476491e-02 -1.079908574350001871e+00 8.566408669223199990e-01 -2.791108839259401342e-01 4.338934657178610266e-01
-2.905958141928900382e-02 4.277416006721691116e-02 -8.023459316980573464e-01 7.358412075113985873e-01 -6.216078398165735264e-01 2.685915315246181767e-01
2.044514832913728666e-02 8.935141721444571361e-02 -8.116518292152330449e-01 6.242650571561041417e-01 -7.351800705668138924e-01 2.642033350570366368e-01
-4.240343485535737200e-02 -1.409097564667717295e-01 -1.037447577074458893e+00 6.760555464402263626e-01 -3.906624794149065050e-01 6.247653361901608360e-01
-3.594577703883164443e-02 2.413824028644815864e-02 -8.297992213159696151e-01 7.289565354091300797e-01 -6.459591072673960266e-01 2.266256852667556110e-01
-8.774609260979939970e-03 3.717116581563136533e-03 -9.412086854102119649e-01 8.725909141477756759e-01 -4.751802340840127203e-01 1.130877609762095670e-01
3.428607203097919914e-02 1.056832938189463528e-01 -7.795046946310389968e-01 4.934175460697209359e-01 -8.637069155667678189e-01 1.027107065143420261e-01
-5.009157850983527588e-02 -1.065036513060061280e-01 -1.003511096193278496e+00 7.325003096176119222e-01 -4.164892525088639275e-01 5.384979098888971194e-01
-7.733073747412688194e-03 7.270122867686860946e-02 -7.861868077811267064e-01 6.755445323005810909e-01 -6.931246896373336464e-01 2.514314011692641015e-01
-6.153258268626127930e-02 -1.464513451069111016e-01 -1.015819968512686522e+00 7.909855670475262057e-01 -3.422447377090456211e-01 5.071591192446115448e-01
-3.719584428936723725e-02 2.047991737143734989e-02 -8.365962760283384148e-01 7.163198638263585938e-01 -6.668368169450613614e-01 2.054617050799638911e-01
2.001204762564251158e-02 4.443589447991571489e-02 -9.553045034608833586e-01 8.067057572818302491e-01 -5.509586253827183366e-01 2.137063739918264038e-01
-4.267174362370484281e-02 -8.612191873735563011e-03 -9.026882203109053426e-01 6.699322566702764492e-01 -6.632347412082075788e-01 3.336322069692205794e-01
-1.665580158939638372e-02 -7.897355995326642286e-02 -1.045672433952896885e+00 8.595637492446922545e-01 -3.568432941838064476e-01 3.658046259691873914e-01
1.959491526142623577e-02 7.707669273938140553e-02 -8.421047963931513891e-01 6.454101315366523872e-01 -7.087933535070404245e-01 2.847064174445052553e-01
5.131191631358437283e-02 1.023941431660478213e-01 -8.821102728901609735e-01 7.664023612176703582e-01 -6.328065051988676082e-01 1.103782030021111249e-01
-6.933985937077044581e-02 -1.133279640165279906e-01 -9.801437797743066671e-01 7.899613628445689706e-01 -3.580687921983424782e-01 4.977426898171098402e-01
-3.938275857152947340e-02 -8.938214905924788192e-03 -9.097364616093570611e-01 6.641530506000449252e-01 -6.579367990136473221e-01 3.549928082121242001e-01
-5.779254272356387778e-02 -4.463476116355356849e-02 -9.325504509440424306e-01 7.211167327425730411e-01 -5.514953554504550270e-01 4.193370132426340047e-01
4.123669414771459485e-02 8.764631204980664891e-02 -8.965191166006923895e-01 7.671695442677117782e-01 -6.315421103425878924e-01 1.122740095128978988e-01
6.184038603381827870e-02 1.149447660106329844e-01 -8.352547021297250796e-01 7.227485499873615993e-01 -6.795303557608963763e-01 -1.259882101255346276e-01
7.309253584906989787e-02 1.207178528661834865e-01 -9.008417486419937337e-01 6.692650946490428243e-01 -7.097820299213610795e-01 2.197582833140087344e-01
-5.096874342598796404e-02 4.337999372971411069e-03 -8.422902210469943585e-01 7.014455327254611738e-01 -6.901818840125187871e-01 1.778289391534016162e-01
2.795727217403321495e-03 -7.034887877677858947e-02 -1.079390527436620673e+00 8.306244979926373784e-01 -3.115196404765482874e-01 4.615392257780929763e-01
2.094495051767026814e-02 9.719385900992688621e-02 -7.823053897027977266e-01 5.652804901790676739e-01 -8.107770822792832455e-01 1.519818748193531577e-01
1.107691136050939149e-02 -8.941515956649201402e-03 -1.028130891335998331e+00 8.470914539965473944e-01 -4.543509383372080213e-01 2.756833208558582271e-01
3.914810103319656814e-02 5.007374170264106833e-02 -1.002793274266523760e+00 7.956373647654955139e-01 -5.301497944200767032e-01 2.930910767412898132e-01
-3.247759682751512333e-02 -1.023022737081308309e-01 -1.029738054905212641e+00 8.907585042524700514e-01 -3.279467604919347190e-01 3.146429871850764393e-01
3.007297950294598315e-02 6.719087950156041322e-02 -9.270830380769884416e-01 7.978155612605379865e-01 -5.871612567914582526e-01 1.368648557285913614e-01
-9.109448359720459520e-02 -1.024031961161950416e-01 -9.301341204452433509e-01 8.591042918958671226e-01 -3.106758744838561959e-01 4.067189652079086781e-01
-8.712872472126385881e-02 -9.487753135840887309e-02 -9.327426805221399331e-01 8.570996309727694218e-01 -3.334449040170117673e-01 3.926763534660936417e-01
7.029299267656908060e-03 -1.251242650614517449e-02 -1.021677017773377605e+00 8.449387043822276233e-01 -4.505480824442484877e-01 2.882447072240759134e-01
4.879680427923157454e-02 1.081004060566040648e-01 -8.158672236276132139e-01 4.996209156139086449e-01 -8.435368130096165817e-01 1.970395538431277960e-01
2.925115294580704628e-02 8.027284177703146451e-03 -1.057158454798658331e+00 8.411925296755987658e-01 -4.823137988257756859e-01 2.444760263915798093e-01
-6.770114636356767968e-02 -1.529298856824448660e-01 -1.010811950297379580e+00 8.010376648929965482e-01 -3.405285908785478655e-01 4.923199551278075181e-01
-8.610084089526685858e-02 -1.621435276545458992e-01 -9.841440120757525278e-01 8.258618456440698363e-01 -3.809030450695106151e-01 4.157704681265196323e-01
-8.428183216604847455e-03 3.616262196172541354e-02 -8.761570117968032756e-01 6.698032125428285966e-01 -6.882335621192399167e-01 2.787440052090250919e-01
8.104350926740536490e-03 7.728247435831608891e-02 -8.144630001433255106e-01 6.612470784716164562e-01 -6.912088961409503796e-01 2.915176891860271069e-01
2.983158433059075743e-02 1.998868616138181967e-02 -1.033753640414742492e+00 8.139401096596682317e-01 -5.288898726928847882e-01 2.403684680862103185e-01
3.735868806799510361e-02 3.014300654286793807e-02 -1.036257601125855521e+00 7.991641143727763463e-01 -5.396364433183653553e-01 2.648192352180653297e-01
2.449217776056341472e-02 9.680372352857788409e-02 -7.968101582816595752e-01 5.535536413521431331e-01 -8.172879984607652748e-01 1.600584072074289765e-01
1.103302212615357436e-01 1.316880393592564646e-01 -7.669639773600932520e-01 2.201346765172851327e-01 -9.616823398172124060e-01 -1.634252167761198749e-01
-2.740601806255917733e-02 8.713603881656630835e-04 -9.136594102148005714e-01 6.642686517966990278e-01 -6.496644082570472989e-01 3.697070663163156135e-01
7.910194084163726935e-02 1.324446961988406113e-01 -8.406419976262425875e-01 6.324862816647734975e-01 -7.680972555293180681e-01 -9.993852887749761493e-02
-1.106714998706805758e-02 5.647596737898704505e-02 -8.173385090542063525e-01 7.034240960956095190e-01 -6.549513661762647043e-01 2.761036924344174581e-01
9.362604960904784626e-03 -7.943589276973769472e-03 -1.021271258405307192e+00 8.372835570439870478e-01 -4.762959694822923584e-01 2.685114421373737126e-01
-1.562840965701384199e-02 -1.675432370018225259e-01 -1.096925830908683785e+00 6.648914155183796026e-01 -2.417924682284561533e-01 7.067218744866730074e-01
2.013899698099392080e-02 2.372928671717610197e-02 -9.977093846337922178e-01 8.086427312580866111e-01 -5.157054984752804661e-01 2.830985199993542589e-01
2.955530150182817881e-02 2.489911200705257135e-02 -1.022828369524717784e+00 8.070100227189872522e-01 -5.207581127461630155e-01 2.784704854022316267e-01
-2.772483175316952514e-02 -1.395566249477947773e-01 -1.069221926952634849e+00 8.470290489907706943e-01 -2.808710075617994462e-01 4.512795888105406994e-01
-1.323755510344507176e-02 -6.505378082391771732e-02 -1.038691321015191571e+00 8.569648256202447856e-01 -3.870938336552283698e-01 3.402493961725164273e-01
2.187013238385692067e-03 2.759363430469682563e-02 -9.178775664418766800e-01 8.697478810961351003e-01 -4.918972756794226520e-01 3.969500608320356699e-02
3.268023449503921346e-02 5.526221961097028956e-02 -9.738999562072304661e-01 7.933001752152523123e-01 -5.628280669493670452e-01 2.321624410999527377e-01
-7.790804856407811119e-02 -6.089800887363142762e-02 -9.167785604213363193e-01 7.964801417016716956e-01 -4.812869220076124721e-01 3.660359034020073676e-01
-4.616388285419660564e-02 -2.744058753205907281e-02 -9.277475321148512810e-01 6.831979892701396384e-01 -5.979987711031485853e-01 4.190918481864832068e-01
-5.020622185344750243e-02 -1.542961444960527229e-01 -1.036562769253877248e+00 7.291824578871541895e-01 -3.732633324587764090e-01 5.735568217286040049e-01
-5.221169110931717788e-02 -1.141591169206584155e-01 -1.006473318518634086e+00 7.432010866434147767e-01 -4.031736873509546015e-01 5.339504870677455051e-01
-3.351532258267887060e-02 -1.702408645140610632e-01 -1.074492144177020547e+00 8.930190059583436035e-01 -1.794565208679217705e-01 4.126892440022553732e-01
-1.281520093809111922e-02 -3.381193910129645652e-02 -9.980462109108658719e-01 8.385007646164233108e-01 -4.511395057870698500e-01 3.055971434026699129e-01
6.086760504703263991e-02 8.994115694076462719e-02 -9.774692086642058353e-01 7.022323442518944026e-01 -6.950370866072568266e-01 1.542503903625062622e-01
2.905178014807761541e-02 2.621016644306728080e-02 -1.018917402043323372e+00 8.070100227189872522e-01 -5.207581127461630155e-01 2.784704854022316267e-01
1.519621282158283848e-01 1.407037544449442346e-01 -7.607620025630470462e-01 1.647774721696659839e-01 -8.343252126527355150e-01 -5.260701704120300803e-01
4.635510636848452770e-02 8.204044707056784569e-02 -9.477365262602591711e-01 7.552390380206386311e-01 -6.356948972956137922e-01 1.597059579413971919e-01
-1.777038440460341692e-03 -1.863044312304159428e-02 -1.005907226719739533e+00 8.391060833650113571e-01 -4.549251078553802619e-01 2.982350199131580948e-01
8.017398085688672016e-02 1.315769385362018651e-01 -8.864531963764457068e-01 6.926139456409222683e-01 -6.932030722151173441e-01 1.993876199146691619e-01
-4.833320378259130246e-02 3.143921734284246729e-03 -8.567334443060108384e-01 6.932576304902355879e-01 -6.929498328545348196e-01 1.980262278435262480e-01
8.868258568751725968e-02 1.358876969217096553e-01 -8.991484196423545905e-01 6.574168153680424176e-01 -7.082567447061901555e-01 2.572460193074565526e-01
1.961561616955705134e-02 8.531512456705260539e-02 -8.209402889816437288e-01 6.260152309520684577e-01 -7.346298046832586692e-01 2.615797788191313589e-01
4.120769941528535513e-02 9.540203438022668014e-02 -8.406937496258621856e-01 5.498495552387500096e-01 -7.801916396545087728e-01 2.982724794830361459e-01
-3.487509962328137064e-02 -9.292747220121008733e-02 -1.012246148381710453e+00 9.326684596827309326e-01 -2.895641277001462233e-01 2.151328897734973711e-01
-3.160730604090698781e-02 -8.564684278422463048e-02 -1.014740793546056397e+00 8.926311915428459809e-01 -3.451068118697105391e-01 2.900186964420107816e-01
-2.356784180063376671e-02 -9.732660950756058527e-02 -1.047294676254280743e+00 8.702547448133981511e-01 -3.185857615317906344e-01 3.757123789269875558e-01
-5.338576904178251627e-03 -2.864129558335784878e-02 -1.010985792396472904e+00 8.432070388111444492e-01 -4.487706753659865822e-01 2.959844094389050273e-01
-1.209315753128411240e-02 -5.885691825236876590e-02 -1.034257450686959734e+00 8.516601523190132639e-01 -4.136368213295760210e-01 3.218377929832352824e-01
-7.084197409241689558e-02 -4.928846337884096318e-02 -9.153739330197127044e-01 7.542215736276044469e-01 -5.283242344007872404e-01 3.899016814781930407e-01
-7.671234633182378790e-03 6.963553166840517894e-02 -7.944747605854360906e-01 6.974441070584507241e-01 -6.560401670553609454e-01 2.884146611034443253e-01
-8.763818416673037348e-02 -1.331452770377199168e-01 -9.589015422416660162e-01 8.691419122872694469e-01 -2.779679572659871090e-01 4.090551931451342771e-01
-7.427258511613309133e-02 -5.940651495969626744e-02 -9.221325122016423848e-01 7.647428466936285751e-01 -5.145589094774210004e-01 3.878111745532001886e-01
-8.691262634613072802e-02 -4.885046929537001370e-02 -8.792422417994169015e-01 7.907195755236173795e-01 -5.144786954880579133e-01 3.317743582205484043e-01
2.128573248452893946e-02 6.209610180256253109e-02 -8.801175658964658366e-01 5.256296115762774113e-01 -7.446164376842292487e-01 4.114120466936040943e-01
6.500908612060171676e-02 1.196062886858117597e-01 -8.694106562036532093e-01 7.275387431317555942e-01 -6.810740085141572253e-01 8.261702105936392926e-02
8.902343289355715839e-02 1.353788848502293918e-01 -9.014296911433512527e-01 6.753641246370685192e-01 -6.952899134701875372e-01 2.458764636556853012e-01
9.824048144475965028e-02 1.382026100460851670e-01 -8.075862508620800240e-01 5.055628844766449914e-01 -8.093167152912520423e-01 -2.990194378127170594e-01
-6.584988508892014591e-02 -1.310620365839335055e-01 -9.984045921948535574e-01 7.900567753842554497e-01 -3.563824549627408467e-01 4.988003984202123431e-01
-2.119301169464277157e-02 -1.796107728855196872e-01 -1.095428196359247819e+00 6.884515116549596581e-01 -1.602912864859902253e-01 7.073480187126187646e-01
-2.021049399241937883e-02 -3.749467580211320733e-02 -9.829003934853424163e-01 8.446571906928673767e-01 -4.460737786545332928e-01 2.959263661921657240e-01
4.228261357560944567e-02 8.953315236776016039e-02 -8.932037134728879613e-01 7.664153516777304498e-01 -6.313888674747077934e-01 1.181338509560529854e-01
4.938500656098757102e-02 1.015044371967280257e-01 -8.711286996107669989e-01 7.769926515414905532e-01 -6.269290046883772005e-01 5.694244928842226439e-02
-4.273248943913187520e-02 2.906009046035905319e-02 -7.964971458144098904e-01 7.353649573186620270e-01 -6.257189731015558865e-01 2.602194194299432550e-01
-3.404281888236829201e-02 -1.449874973720746973e-01 -1.058900245569802889e+00 9.040344370274853159e-01 -2.422812916993430932e-01 3.521668814083681598e-01
-7.698899638258577260e-02 -4.646725344588021472e-02 -8.980125461907626505e-01 7.674417940797882975e-01 -5.476043377203402285e-01 3.334105307417024044e-01
8.374042479949650453e-02 1.339456943061032579e-01 -8.281256181299333496e-01 6.090481512245342621e-01 -7.720811670431612095e-01 -1.815241608911795923e-01
3.185205268549201954e-03 -5.707213735438396857e-02 -1.069821825225633072e+00 8.505905769426016505e-01 -3.653256585125355116e-01 3.781968186656708975e-01
7.699697074778127925e-02 1.261613678374577108e-01 -8.947654304597831842e-01 6.551431394540968567e-01 -7.292808274429650739e-01 1.973244575574301940e-01
2.291291237362211991e-02 6.365900686992281843e-02 -8.817002650814123044e-01 8.793204931132958535e-01 -4.689341421900383722e-01 -8.304360709580979605e-02
-1.768956675873118237e-02 1.323807313129995653e-02 -9.083173826177569632e-01 6.356801779982820255e-01 -6.805990476752216134e-01 3.642741379835440774e-01
-2.769516258562945005e-03 -1.384289166552381441e-02 -9.954947693508841011e-01 8.328058195169973921e-01 -4.681983155343357739e-01 2.953384572138091912e-01
5.011510940841018558e-02 9.085979245395600645e-02 -9.285107871878227614e-01 7.142051665854077802e-01 -6.792308763741973232e-01 1.689863799323773064e-01
5.610838130690058018e-02 1.000164227341415885e-01 -9.159129992570257395e-01 6.950707519916689003e-01 -6.951844826770179342e-01 1.832898927132178002e-01
1.939051523180723019e-02 4.972424415983135032e-02 -9.367611225368391858e-01 8.086278953060259678e-01 -5.655892104526673014e-01 1.619560803195589371e-01
6.088589715098208927e-02 1.095838707261922451e-01 -8.981498485238259555e-01 6.899359920531641377e-01 -6.958874495392469717e-01 1.993213095566515880e-01
-8.179760555009546463e-02 -9.934839006773717174e-02 -9.468027321326241141e-01 8.473378859989926237e-01 -3.320401646022758668e-01 4.144488340454729469e-01
9.922846782108520058e-02 1.305880688401643841e-01 -7.808924160662484848e-01 2.335307858701033412e-01 -9.720951252482791238e-01 -2.223599602950946871e-02
5.706699410289132329e-02 1.096086449999359724e-01 -8.270370226560862514e-01 3.918050887230708490e-01 -8.714521729833832886e-01 2.950591172176285637e-01
-3.136334316851943638e-02 2.742077266254406079e-02 -8.350364354469743677e-01 7.198037952865011802e-01 -6.555949719230087513e-01 2.282054536605517270e-01
9.772656243934500775e-02 1.477964384021631106e-01 -8.465833329259563333e-01 5.919577978845148580e-01 -7.970313451980851616e-01 -1.196954480982755503e-01
8.100768259424602838e-03 -1.750754064804971311e-02 -1.033103683905755021e+00 8.470914539965473944e-01 -4.543509383372080213e-01 2.756833208558582271e-01
-9.468825713589014426e-02 -7.733946164397506595e-02 -8.993659873862405174e-01 8.498660820573102903e-01 -3.812431874147690358e-01 3.638423760619217129e-01
-3.001168671140632543e-02 -2.083445900224774050e-01 -1.081679132985459590e+00 8.638690003692337527e-01 2.711864053466508384e-01 4.244859052503666130e-01
1.278733906746229720e-01 1.334820639040874557e-01 -7.620267294395141056e-01 -2.111762387825723286e-01 -9.725990916301818778e-01 -9.723992561592835482e-02
4.838579531053837507e-02 1.130820475024428562e-01 -7.658875378991448768e-01 3.794589501461492764e-01 -9.252040232732017255e-01 2.901805138698055567e-03
-5.823337205768086555e-02 -4.887493045495433508e-02 -9.373688766913697012e-01 7.211167327425730411e-01 -5.514953554504550270e-01 4.193370132426340047e-01
