3.680252778079995402e-02 7.016966059798855626e-02 -6.068499612044405689e-01 8.872288462156482369e-01 -4.380235325570035476e-01 -1.447769296854078125e-01
-4.130521946789506016e-02 -1.154250024580306434e-02 -8.288365458823777621e-01 9.524758307205104524e-01 -1.909288947058111197e-01 -2.373519518767243652e-01
-5.290823271709457071e-02 -1.185211290630806824e-01 -8.561412224383627700e-01 9.944075987359232149e-01 5.427769958020313944e-03 1.054706920880746357e-01
4.089434705249186952e-02 1.333685363245380728e-01 -7.158581950987854547e-01 8.572543439424162859e-01 -4.673502633112016635e-01 -2.160988689808630014e-01
7.433258976952181185e-02 1.335061603554745790e-01 -6.430126735875449917e-01 6.685226369421621850e-01 -7.390871497672190094e-01 -8.262970981957011574e-02
-5.625547089237536991e-02 -1.875981210626098683e-01 -7.767662140670286153e-01 9.892864203407406576e-01 -1.297483377857137632e-01 6.691597246732401694e-02
1.161658273111809275e-01 1.780972431536403666e-01 -6.526798859844020750e-01 4.298934470715893852e-01 -7.080834542341095661e-01 -5.601869741477377707e-01
-4.317510467372651789e-02 -2.474412697574009459e-02 -8.267970109555476954e-01 9.642123202793989600e-01 -1.527603450904238547e-01 -2.166999732101328180e-01
-5.593259837893947012e-02 -2.151756748112153284e-01 -8.051206005607973726e-01 9.893851850829228356e-01 1.736673069481853293e-02 1.442752653901707982e-01
-4.810365140089888081e-02 -1.169596437708171482e-01 -7.689416152479334743e-01 9.761955487105726803e-01 -1.905482414932544444e-01 1.036031772750833219e-01
-4.437075412136066987e-02 -8.290612326628046813e-02 -6.991528398874314876e-01 9.657724893870106575e-01 -2.588355853605248669e-01 -1.695990843992934566e-02
-2.427639168537978204e-02 -1.918767084928078501e-02 -7.422161823790556223e-01 9.494994996616192839e-01 -2.223570249573156021e-01 -2.213776266799927506e-01
-2.191184989465358793e-02 1.694176691199155219e-02 -7.709420397290182025e-01 9.488625248885410590e-01 -2.433211123159923772e-01 -2.011336500028052532e-01
1.675049985363499111e-02 4.340938723834574658e-02 -6.454292711379179259e-01 8.791541791024382047e-01 -4.490355275043339534e-01 -1.595463080288049007e-01
-4.302236495387039977e-02 -2.074307546241621267e-02 -8.289378902706030505e-01 9.642123202793989600e-01 -1.527603450904238547e-01 -2.166999732101328180e-01
3.486109268305630140e-03 5.288151159632373949e-02 -7.182126560305753804e-01 8.928872036360421260e-01 -3.136762942877576732e-01 -3.230474020711345262e-01
4.734612291783658194e-02 8.716917604443272238e-02 -5.979225194595508830e-01 8.654282714856900149e-01 -4.793043741670124924e-01 -1.459493878632570074e-01
5.537294514574262611e-02 1.030476918908287687e-01 -6.082019370350345566e-01 8.109953357844311705e-01 -5.587893502326201078e-01 -1.733234762013032004e-01
-3.075350791022727834e-02 -4.167870213749060720e-02 -7.181871802242770775e-01 9.309740220936036925e-01 -3.579706701338395969e-01 7.172426026657895137e-02
-5.108231418653409045e-02 -1.682329404330470679e-01 -8.076985284695045175e-01 9.664425993872587384e-01 -1.448278638727498457e-01 2.121640684367988583e-01
2.936645593341416678e-03 -7.977123168008064952e-03 -5.967679992443833958e-01 8.485602484092324982e-01 -4.593198215918019023e-01 -2.626229356178493846e-01
-4.657590481410210648e-02 -1.082372377492823723e-01 -6.732094411165774339e-01 9.913664449438129855e-01 -8.773503624089891428e-02 -9.744298463857727077e-02
7.393722438520125562e-02 1.326940094869708542e-01 -6.395523909147378117e-01 6.804800422918290126e-01 -7.198070635420351637e-01 -1.372031461647412465e-01
1.415818137088423363e-02 4.921927086256695089e-02 -6.804131265419599561e-01 8.757723011036920857e-01 -4.759356612915099372e-01 -8.067293803102158767e-02
-2.536689307151761275e-02 1.250463433622669117e-02 -7.819864691502984577e-01 9.506717444053073285e-01 -2.432766088521810810e-01 -1.924570756681940609e-01
1.097938986696904429e-02 1.119925528669697967e-01 -7.803484097673013542e-01 8.079126518847801197e-01 -5.293665687073701998e-01 -2.589366386965881728e-01
3.042223723136038352e-02 1.191474818327282886e-01 -7.263361489347767153e-01 8.414260243792368588e-01 -4.908737285941491835e-01 -2.259319102593287942e-01
-4.989628118146054864e-02 -1.165212109633595589e-01 -7.084239267233034543e-01 9.940764902337326792e-01 -1.045279629296736873e-01 -2.976300607056264758e-02
3.958272247104576563e-02 7.078427116882378411e-02 -5.925385236867174443e-01 8.879077596816947748e-01 -4.306966611210667484e-01 -1.616174384037767919e-01
1.484711059400781880e-02 8.826531587101904552e-02 -7.245899346310621381e-01 8.675231395243861998e-01 -4.026533497617769686e-01 -2.920169212826072003e-01
6.146600822101773269e-03 6.693773388125445756e-02 -7.246716592008923818e-01 8.862808821677685689e-01 -3.370367146561019656e-01 -3.176672014510522057e-01
2.793783207852746156e-02 9.443402001175853211e-02 -6.967218079491238614e-01 8.587708203694565112e-01 -3.657301959716102169e-01 -3.588232180845299379e-01
-4.441009025627692258e-02 -9.900916930470159139e-02 -7.650922317503636716e-01 9.577818387831389391e-01 -2.488698980024623419e-01 1.439365247789212987e-01
5.741941006752051581e-03 3.078520174444088209e-02 -6.710316795029253045e-01 8.736740208821539566e-01 -4.658753260054017686e-01 -1.401923173892567764e-01
-5.652603691153575138e-02 -1.882447107186643320e-01 -7.700182541319946505e-01 9.964202574360686571e-01 -8.017043224101075283e-02 2.682111789855150946e-02
-5.181788192769628404e-02 -1.391382566669751852e-01 -7.192033131589696815e-01 9.975802308043322242e-01 -2.103102960704616650e-02 -6.626747997353316100e-02
2.728451981930821724e-01 1.730737405077316382e-01 -6.221933271985737868e-01 -1.639570368791883614e-01 -8.657915687710602270e-01 -4.727822432185275203e-01
1.166010485169878541e-02 6.054767189121280230e-02 -7.040777761500256471e-01 8.768665875861245684e-01 -3.087038215425956800e-01 -3.685199290948356077e-01
-8.753097656998306067e-03 3.754892393551322732e-02 -7.403254158464861456e-01 9.278758385525754937e-01 -2.676996847720566897e-01 -2.595829482136610689e-01
-2.308839659781006942e-02 -2.204161904024315791e-02 -7.032607527322083385e-01 9.164931296381007009e-01 -4.000257492068810539e-01 -4.443343069447639251e-03
-3.224618159216448288e-02 -3.492140449671180674e-02 -7.634026438403628267e-01 9.658197521701754606e-01 -1.867649165255592658e-01 -1.797528088045954320e-01
-1.707495637903365740e-02 2.456870297862569913e-02 -7.579375484428525489e-01 9.409202207784460592e-01 -2.640235713281226526e-01 -2.120393640656941803e-01
-5.407438788123610646e-02 -1.409948847127580340e-01 -8.337834510668644672e-01 9.986095525876305112e-01 -3.126889301372442077e-03 -5.262303719882963082e-02
-1.399858287577621443e-02 4.819723148447675742e-02 -7.740698520117956782e-01 9.377478844199556018e-01 -2.806843331190493895e-01 -2.045610187875782915e-01
5.448849914962883983e-02 1.502902503420516234e-01 -7.020218980117859386e-01 8.035948603824458747e-01 -5.360401055962413785e-01 -2.586432012624494403e-01
1.977897152597327401e-01 1.775765346219329299e-01 -6.214647693452310939e-01 1.017208651550614990e-01 -4.589060025190587755e-01 -8.826427059938146691e-01
-1.910185174701974770e-02 5.969577120563082651e-02 -8.185304295809922026e-01 9.424480759835142107e-01 -2.868761512440312633e-01 -1.717372933360240550e-01
6.387544703567600568e-02 1.035009345727977426e-01 -5.748677269002889778e-01 7.742099273344077437e-01 -6.011171891007833779e-01 -1.981340793110159537e-01
-5.187749266624244043e-02 -1.470576500015006449e-01 -8.139896107093318456e-01 9.825909683159735897e-01 6.059309660984082274e-02 -1.756230782873024754e-01
4.302315565891409732e-02 1.464779684070267596e-01 -7.473305480993662764e-01 8.575289785835396028e-01 -5.014487782284889894e-01 -1.148615414428472564e-01
-2.131197978656140454e-02 -2.033024840824961682e-02 -7.250355958932679368e-01 9.042469047097340118e-01 -4.065880262342687623e-01 1.304749487288139054e-01
9.362023720018294859e-02 1.382224204528784695e-01 -5.991496768895075986e-01 5.594314739935254410e-01 -7.907530251085174156e-01 -2.484875835673893696e-01
-3.796990384222504594e-02 -6.777717303881554411e-02 -7.432769113232355895e-01 9.415873568936086180e-01 -3.111281719648859023e-01 1.288895261372945689e-01
-5.222957706952505857e-02 -1.450697241276139304e-01 -7.718767395038207413e-01 9.923993465485606569e-01 -1.132952301245575139e-01 4.803881556630416189e-02
3.466052246656188551e-02 1.035102835315567515e-01 -6.899816002876444365e-01 8.534493051005899167e-01 -3.738252430604376286e-01 -3.631514439928950622e-01
2.080134546665327322e-01 1.757426803556266237e-01 -6.164767033043074829e-01 3.644611416862278408e-02 -9.519069020316189844e-01 -3.042119830423735127e-01
-4.585619996364750928e-02 -1.138431301681908370e-01 -7.794732021947717859e-01 9.489708758488805129e-01 -2.478351697532801268e-01 1.950179617983206493e-01
1.071037923484818161e-01 1.627649242462465562e-01 -6.418001534747460601e-01 4.888879104627152361e-01 -6.205085883504762867e-01 -6.131538981256661192e-01
-6.911830465245372493e-03 1.274837668002855827e-02 -7.133142244995316350e-01 8.699636419406523435e-01 -1.882111958653255313e-01 -4.557848258249726503e-01
-5.302277562513527283e-03 6.241439331914844235e-02 -7.562882809749522650e-01 9.220491128653928170e-01 -3.114401159585461487e-01 -2.298488364901363212e-01
-5.065176372293071078e-02 -4.047637079566147877e-02 -8.544302362819724550e-01 9.832248968674527356e-01 -9.351411617523097686e-02 -1.566011246956807157e-01
2.473129034717556907e-02 3.943866854354396989e-02 -5.959791305083017576e-01 9.081140011168560289e-01 -3.807314088568050647e-01 -1.742772368539479699e-01
-2.037753755011158848e-03 7.482882266645032865e-02 -7.606758133836825087e-01 9.035663664543025497e-01 -3.464194583254023296e-01 -2.521138241074932229e-01
-4.920105237770816542e-02 -1.076892335553440577e-01 -7.134887630386382851e-01 9.892911277854232743e-01 -1.457746809901215024e-01 7.266833373177889084e-03
-5.644266027872792829e-02 -2.198142978303694040e-01 -7.996715991276069913e-01 9.895166214262181015e-01 6.814085013369866606e-02 1.273329512117714613e-01
-8.947233574198267675e-03 5.815463909654758736e-04 -6.623559213678773538e-01 8.630506055679598720e-01 -4.779327701830449193e-01 -1.634745222165783773e-01
-1.732106055753073262e-02 2.880295147818176874e-02 -7.643019601390288464e-01 9.409202207784460592e-01 -2.640235713281226526e-01 -2.120393640656941803e-01
-4.089997071489288871e-02 -8.260584831805672934e-02 -7.567910937278324868e-01 9.472583424520171214e-01 -2.876818621252054675e-01 1.412118226609626048e-01
-2.546142413984436859e-02 -3.406416778029439790e-02 -6.584616634637280308e-01 9.208921200805010310e-01 -3.726726942467373793e-01 -1.143361978400439655e-01
-2.908620580616672578e-03 3.091699484868916034e-02 -7.157922448327067588e-01 8.983571914164506511e-01 -2.951953923447665495e-01 -3.252906960992977825e-01
9.886783940077875643e-02 1.752073008500806273e-01 -6.638453582732058988e-01 5.758727537175400979e-01 -6.406456090326007047e-01 -5.078816546726471204e-01
2.616387600831853594e-02 1.151127178070476681e-01 -7.335333847362233151e-01 8.375085560575948884e-01 -5.079038084788586316e-01 -2.015270201809007677e-01
-3.596742444787697640e-02 -6.669920068463069951e-02 -6.484057428036282822e-01 9.506400411872203415e-01 -2.814478168002281788e-01 -1.306546536099847389e-01
-4.933799399548089576e-02 -1.088937476906512852e-01 -7.190087102116988760e-01 9.892911277854232743e-01 -1.457746809901215024e-01 7.266833373177889084e-03
-2.171997928426390445e-02 1.333181939058471384e-02 -7.656628649277442689e-01 9.489755190875438506e-01 -2.432313322852728277e-01 -2.007087022708722579e-01
4.377722440729908682e-02 1.144446487002025031e-01 -6.804072465451812546e-01 8.343445067353532085e-01 -3.893554384059307871e-01 -3.902199208962371935e-01
1.270003958910521091e-01 1.657733139606438200e-01 -6.277180835776258183e-01 4.051582956716440198e-01 -8.913371310152840010e-01 -2.033835645323663621e-01
2.241800648254858516e-02 6.292719217162437428e-02 -6.730946377080906373e-01 8.681825245569176897e-01 -4.883179831731640497e-01 -8.834393789995348412e-02
2.480535060127666766e-02 1.135377908301793970e-01 -7.352099105047701366e-01 8.375085560575948884e-01 -5.079038084788586316e-01 -2.015270201809007677e-01
-2.599380493867686770e-02 1.219605556855422705e-02 -7.846931371196050886e-01 9.506717444053073285e-01 -2.432766088521810810e-01 -1.924570756681940609e-01
-1.538408633721019894e-02 1.179808668262543464e-03 -7.275697919422310367e-01 9.304333468039981403e-01 -2.167718076894671053e-01 -2.954721146676136390e-01
-4.516965116718907325e-02 -9.279791437641521368e-02 -7.422296901907926570e-01 9.698533460344667123e-01 -2.281337829029138897e-01 8.567067341952573634e-02
-5.164901401744419196e-02 -7.997613932407557358e-02 -8.387800600379485827e-01 9.958117430727482233e-01 -6.619755661339274400e-02 -6.306231724914010406e-02
-4.039600340771889314e-02 -2.620159674855900706e-02 -8.129366548457638286e-01 9.537019700894170393e-01 -1.940138862254141838e-01 -2.298067975480200253e-01
-5.342644967335047346e-02 -1.840720246309457409e-01 -8.533538280822658972e-01 9.958852987036110882e-01 2.276680897414103122e-02 8.771627121095923463e-02
-2.650594632092007422e-02 -3.216407193099436734e-02 -7.407983581514003824e-01 9.413709081808229184e-01 -1.455948914624916601e-01 -3.043401728507721393e-01
5.983554137198522638e-02 1.613427039603965718e-01 -7.066274806814988318e-01 8.256328905841783250e-01 -5.024195600359676606e-01 -2.567195272644432480e-01
-4.842004008202859672e-02 -2.051372125874853791e-01 -8.642749319585893986e-01 8.854342111709684326e-01 3.116523134605213019e-01 3.447884760295069073e-01
2.011673478611750165e-02 8.633816540150857088e-02 -7.078395568432362950e-01 8.688650099670819360e-01 -3.789749011792922784e-01 -3.185147072444982630e-01
-5.323433179256165104e-02 -1.600762336794777918e-01 -7.311677478537152997e-01 9.967467970694786628e-01 -3.928291817529429991e-02 -7.037524331303282588e-02
1.714523739635218647e-01 1.747596199780023785e-01 -6.178643329412099039e-01 4.680897304241510987e-02 -9.836327352979378214e-01 -1.739987416420344379e-01
7.849046963055913984e-02 1.308626089826827321e-01 -6.133744402758707359e-01 6.223795518033786722e-01 -7.512977799218639730e-01 -2.195343694766361264e-01
-5.397058835919293918e-02 -1.606384167291588505e-01 -7.690169963737133463e-01 9.964091049050463056e-01 -8.057830248195299583e-02 2.600063136639965689e-02
-2.186671272048047732e-02 -5.758802274737019958e-03 -7.450050198469856388e-01 9.433020479103324529e-01 -2.445479957803248228e-01 -2.244493799679541934e-01
-4.899185647416110650e-02 -1.396598624591461890e-01 -7.993283821465272387e-01 9.500834517502885213e-01 1.071999378482108994e-01 -2.930010376015702578e-01
5.080831781693097293e-02 1.077596580124350056e-01 -6.624450254964403539e-01 7.611774561849716791e-01 -2.424990334963924854e-01 -6.015007056929284612e-01
-2.623176779074850098e-02 -2.931802342108691048e-02 -7.021815861087691291e-01 9.271953896086366775e-01 -3.744498907597471615e-01 9.797387330408654713e-03
2.558523711920249882e-02 1.214499289268702875e-01 -7.528930964068077936e-01 8.110660089908713344e-01 -5.524686047468504446e-01 -1.922247898391057641e-01
-5.164759794350094052e-02 -7.787428842590138345e-02 -8.409640465574882429e-01 9.958117430727482233e-01 -6.619755661339274400e-02 -6.306231724914010406e-02
-2.339318335095560628e-02 -2.524290353568149972e-02 -7.350369295096093047e-01 9.308393869183784197e-01 -1.660897303990120366e-01 -3.255030525469782554e-01
-4.506194716202976264e-02 -7.374710686809490823e-02 -7.974232990289620293e-01 9.743323110842248003e-01 -1.476774092219624301e-01 -1.699056514150205643e-01
-4.054352814851634734e-02 -3.191547606171759449e-02 -8.090033761400169388e-01 9.666363237967164901e-01 -1.620008077824730275e-01 -1.984186377198359774e-01
-4.223396271838397026e-02 -9.340310770612430744e-03 -8.344929282009203586e-01 9.510596674885960500e-01 -2.090548106937924477e-01 -2.275556964838802154e-01
4.790662217836748338e-02 8.564383964813508665e-02 -5.897270457849466130e-01 8.645374400051216712e-01 -4.779021226914436649e-01 -1.555139092055854710e-01
-4.140515530687002149e-02 -7.175146039374241669e-02 -7.002417879070257367e-01 9.663644435199494342e-01 -2.571402188933383237e-01 -4.320894336188119481e-03
-4.199711876070184868e-02 -9.010219495693704006e-02 -7.641762753209238035e-01 9.329795827177680412e-01 -3.094405172575409591e-01 1.838359717551625305e-01
5.435175990983963715e-03 4.617730010312036393e-02 -7.071487129033862118e-01 8.865844435775082077e-01 -3.054965648594219485e-01 -3.473325110977275587e-01
-1.532500156298284566e-02 1.609205024403017117e-02 -7.415210953637505487e-01 9.351531702402681168e-01 -2.570047769235675461e-01 -2.437972371214311429e-01
3.358236602799158366e-02 1.290262058485113494e-01 -7.395133665175958049e-01 8.432428683018172721e-01 -5.184094283521063495e-01 -1.421025321863279844e-01
6.539919058539073182e-02 1.069565651823067287e-01 -5.798146640700114762e-01 6.968816274426637980e-01 -6.759680243536743127e-01 -2.396314407256580348e-01
2.839213739673423706e-02 5.431096807265817922e-02 -6.123054178930728009e-01 8.948672036962109777e-01 -4.191797200370490084e-01 -1.533005220427676452e-01
-5.574078489268813330e-02 -2.201098937758230734e-01 -8.049677553481241477e-01 9.895166214262181015e-01 6.814085013369866606e-02 1.273329512117714613e-01
3.333995826361780407e-02 9.166759585489114848e-02 -6.817837315853227942e-01 8.533268950836659927e-01 -3.442890676126240668e-01 -3.915332017202377002e-01
-2.783410466713316309e-02 -3.321422916426081118e-02 -6.973432244482189457e-01 9.322476114684530302e-01 -3.614633056721169302e-01 -1.608320751435760032e-02
6.807527224461315529e-02 1.692598055972849291e-01 -7.000866540752068712e-01 7.920360130818289157e-01 -5.223548719626127657e-01 -3.159499038112897340e-01
-3.956548184228747544e-03 2.584246647606664588e-02 -7.144592038275783263e-01 9.031897122966866531e-01 -2.496834410420920025e-01 -3.491511461685448681e-01
-4.932826925622369602e-02 -1.096556995473184776e-01 -7.117836583967790398e-01 9.933791808156747782e-01 -1.048553100295541440e-01 -4.693790664894386538e-02
-1.475510257026364791e-02 3.917498543976842551e-02 -7.653602721039710621e-01 9.428424287555265959e-01 -2.541811061844020392e-01 -2.154996979052481443e-01
-5.058141687939794739e-02 -9.870299811380686683e-02 -8.155251367944700291e-01 9.875807798859290720e-01 -9.350322767177814132e-02 -1.262590575557229478e-01
-2.438535947344188867e-02 -4.427934767661113186e-02 -6.268482807662305589e-01 8.919318705604634134e-01 -4.099684226972847845e-01 -1.907444118961641455e-01
-5.820059983920019414e-02 -2.022884313043381566e-01 -7.706419862504106932e-01 9.884105254379625949e-01 -1.500559006177751009e-01 2.297520170181852409e-02
-4.173833179599775040e-02 -7.278973286294693201e-02 -7.036434755396520080e-01 9.657724893870106575e-01 -2.588355853605248669e-01 -1.695990843992934566e-02
4.184218297535809844e-02 8.787557077172870879e-02 -6.339738265639450754e-01 8.595358679919798961e-01 -4.911251762286228950e-01 -1.414006821400720648e-01
4.634984678660700186e-02 9.894826459957005438e-02 -6.475233125922515987e-01 8.494764226013475916e-01 -5.154764408015056754e-01 -1.125781791602119414e-01
3.466211189898267108e-03 4.301109662062035932e-02 -7.093897621866349645e-01 8.865844435775082077e-01 -3.054965648594219485e-01 -3.473325110977275587e-01
6.338471192688721612e-02 1.466094498139682289e-01 -6.765375484797186978e-01 7.370186538609840854e-01 -5.372684995380387907e-01 -4.100561708657577409e-01
-8.326775391505247185e-05 1.530630599510647213e-02 -6.569128898875602474e-01 8.677795201314275619e-01 -4.730506868519592789e-01 -1.522555486980978201e-01
2.609998098213527420e-02 5.569877442518591376e-02 -6.282950408624385918e-01 8.877885902981947908e-01 -4.318580216212854483e-01 -1.591542273949810293e-01
3.293111526650552984e-02 7.905945593806801286e-02 -6.613184297698927461e-01 8.665343042434753285e-01 -4.824796585469348642e-01 -1.277954563265421839e-01
-5.070230589229019619e-02 -2.023669282652986179e-01 -8.587273634462763150e-01 9.481162769534340340e-01 2.220479844581336182e-01 2.275306967730715557e-01
-2.327109865205490707e-02 4.159890891229345300e-02 -8.117080648162066092e-01 9.358832416977407309e-01 -2.863000896826777275e-01 -2.053163816090159688e-01
-2.387543385367169035e-02 -3.596926823346566909e-02 -6.434756500131418866e-01 8.940158376992201061e-01 -4.118932048137233237e-01 -1.762942703868784211e-01
4.472214945262006913e-02 7.334762430655225596e-02 -5.708521532334849269e-01 8.737462561999138622e-01 -4.577706833659084817e-01 -1.643577842006382905e-01
-1.487135086281080043e-02 4.523734460011341260e-03 -7.286437403837691118e-01 9.178655422563856137e-01 -2.323995034761232314e-01 -3.217348553117030940e-01
-3.477732415816979505e-02 -5.682021091795815687e-02 -7.562799503665994516e-01 9.598646725392034895e-01 -1.578275228190702539e-01 -2.318410736948985085e-01
8.654308333348810500e-02 1.414699404203672017e-01 -6.280644351113339185e-01 6.225912904385043634e-01 -7.606155146655919630e-01 -1.839677252131873830e-01
-1.132362622600411282e-02 5.790418128989738289e-02 -7.752327827293905571e-01 9.380856246186110026e-01 -2.862670229603049843e-01 -1.950552548621912741e-01
-7.518971751418444122e-03 8.355717657137723409e-02 -7.972641545584652212e-01 9.266012280638522558e-01 -3.217396288947820815e-01 -1.946632357411350323e-01
-1.589740651147298484e-02 -8.310069155259506429e-03 -7.236536032094045279e-01 9.168052655921195004e-01 -1.841630222546136730e-01 -3.543332982046840662e-01
-1.036596324223086098e-02 4.461776770490157029e-02 -7.541548128249493388e-01 9.333972687023430748e-01 -2.699478431261092548e-01 -2.364269459485688341e-01
2.484882598719722058e-01 1.738314866660084224e-01 -6.160711043658657626e-01 -1.139924651243044151e-01 -8.721085859039936494e-01 -4.758490646070671626e-01
4.123021402948182090e-02 1.448157519959908934e-01 -7.527069997143834845e-01 8.410246629448923095e-01 -5.254236616173341146e-01 -1.288700590946679492e-01
-4.393964781680712722e-02 -9.033554560501298736e-02 -6.702838141675520056e-01 9.822540320730472896e-01 -1.598046443168804343e-01 -9.818091530942391065e-02
-2.980360239045216214e-02 2.543623047902086984e-04 -7.893221353319735956e-01 9.535109608596366026e-01 -2.248780070941622800e-01 -2.006158753585824128e-01
-4.755950250857975126e-02 -2.245134619520532462e-02 -8.481065594641612471e-01 9.659774578949850143e-01 -1.471001738427085426e-01 -2.127183341750013001e-01
8.079091314712064098e-02 1.594184089575722274e-01 -6.652593111038226370e-01 6.206902386874000310e-01 -6.016044050439408597e-01 -5.028078832217176553e-01
-6.220580513038248896e-03 4.583247258977100891e-02 -7.402552849514983935e-01 9.158059609183354377e-01 -2.938335158956301707e-01 -2.737906259952242460e-01
-5.080234581086512380e-02 -1.378313231119113191e-01 -8.669298740855589935e-01 9.788408948239136764e-01 3.642012788186341221e-02 2.013555981476271295e-01
-5.147660306150150106e-02 -7.194305395257646896e-02 -8.435604581888003217e-01 9.960420291327941600e-01 -3.384189918036076272e-02 -8.218881956137545630e-02
-3.138242562670523483e-02 -2.218109706700571726e-02 -7.727669952619647953e-01 9.606310673181008841e-01 -2.045588470429972605e-01 -1.879990175498964244e-01
2.384458192090907480e-02 3.653853454112323401e-02 -5.942638188978427438e-01 9.081140011168560289e-01 -3.807314088568050647e-01 -1.742772368539479699e-01
2.396981581672426309e-02 5.256806106755579355e-02 -6.314592763879911530e-01 8.814989136355151356e-01 -4.424353280900474861e-01 -1.649564964384819254e-01
1.301247634057061189e-02 8.788565552758272059e-02 -7.295167592549410829e-01 8.675231395243861998e-01 -4.026533497617769686e-01 -2.920169212826072003e-01
2.971034555895368801e-02 5.211799824829088656e-02 -5.994682378736551076e-01 9.021337563404876470e-01 -4.020984817769432396e-01 -1.564336812316283742e-01
-1.539250952030549874e-02 -5.019675170659087041e-03 -7.100965574119582069e-01 8.989954309453197512e-01 -4.367852493945905135e-01 3.202906571763298321e-02
-1.410510547384664741e-02 6.635875759951592734e-02 -8.023784295215895535e-01 9.412361079167346212e-01 -2.853840724611345636e-01 -1.806391993429306841e-01
-5.388245751370174252e-02 -1.774982312748144830e-01 -7.958382491312481211e-01 9.901885683844088293e-01 -1.029635970305897569e-01 9.447273007253066679e-02
1.071179655721415797e-01 1.806874064546041825e-01 -6.633660720175463821e-01 5.005297722979624719e-01 -6.767452211807598594e-01 -5.398942976660840998e-01
2.180877308690870250e-02 4.301410074932673910e-02 -6.190381728042823051e-01 8.915986570157883317e-01 -4.191803711983020375e-01 -1.712882109477948944e-01
5.141676105668079727e-03 8.364898000194334604e-02 -7.486234420026708358e-01 8.743708709395207057e-01 -3.968079854895761316e-01 -2.793188191013420973e-01
1.170851782902704308e-01 1.590277592780774407e-01 -6.211869274199325330e-01 4.337494556812138136e-01 -8.578070011440781517e-01 -2.757327664323814265e-01
1.590426745844941356e-02 8.726959030472071499e-02 -7.202085285095496392e-01 8.748306206652188832e-01 -3.812445443398666534e-01 -2.988711805403713173e-01
-7.463388786021106329e-03 -2.427174010357711215e-02 -6.014923426316309829e-01 8.435350709246870471e-01 -4.693738345302462256e-01 -2.610302426510315854e-01
4.606756356518327405e-02 9.995040667183459349e-02 -6.557336857235906979e-01 8.337808220601634623e-01 -5.496892604014707029e-01 -5.149036573925402926e-02
-4.956526537792915743e-02 -6.132727835606411465e-02 -8.349364000688771492e-01 9.881523513565568795e-01 -9.489923424572060950e-02 -1.206195085717211013e-01
-3.056463974084410243e-02 2.721780168243580558e-02 -8.250354083799813498e-01 9.367687401789760449e-01 -2.852634527107640872e-01 -2.027044399391093044e-01
-2.348276336057868174e-02 2.719268977864712500e-02 -7.917443338842642397e-01 9.469772083532421725e-01 -2.565835617116040135e-01 -1.933883210509044492e-01
-5.313481563070188152e-02 -1.055534682995782625e-01 -8.516756703637494708e-01 9.992743936103321012e-01 -1.339014403473784941e-02 3.565656065063259328e-02
1.630502592238854825e-02 4.827103725724878058e-02 -6.621379209021081014e-01 8.778683331402473700e-01 -4.568885888320881605e-01 -1.435270255547246021e-01
3.693015743368405213e-02 8.619238199278651813e-02 -6.620173748718304330e-01 8.511986034469821716e-01 -5.210942553317901016e-01 -6.262359419671109650e-02
6.736818666226773722e-02 1.090034174949543189e-01 -5.798624437912666130e-01 6.968816274426637980e-01 -6.759680243536743127e-01 -2.396314407256580348e-01
1.684549259074112973e-02 4.179745177251673049e-02 -6.407639856492995944e-01 8.795195777898880962e-01 -4.409828546358572354e-01 -1.788279458068774697e-01
-6.096278001201637861e-03 5.364445811149920473e-02 -7.485128705824879436e-01 9.208941909250776270e-01 -2.977541077361093302e-01 -2.515877191889936970e-01
-3.430025589819417353e-02 -5.503997457048798170e-02 -6.656801533850846830e-01 9.429405184417231078e-01 -3.215230295588187848e-01 -8.652236788353329100e-02
-2.277230606110226124e-02 2.682201384952410950e-02 -7.877410041854150391e-01 9.472095505152097195e-01 -2.584297290738517550e-01 -1.897581158833269721e-01
-1.672985717238899966e-02 4.218905313165195042e-02 -7.788861249547633925e-01 9.449558036759105883e-01 -2.642643469075521279e-01 -1.929323302423393283e-01
-3.319495443184317107e-02 -2.977355181323175504e-02 -7.738644660215027171e-01 9.653631869553971345e-01 -1.892065619338519078e-01 -1.796518694377838288e-01
7.124624881638731699e-02 1.122741166502349286e-01 -5.775080999361428269e-01 7.098567808604460128e-01 -6.695018615615300206e-01 -2.187935283140032272e-01
1.054854479619521113e-01 1.537504529538772646e-01 -6.248283338610066684e-01 4.900313472290586669e-01 -8.402156144544330463e-01 -2.321788103161725736e-01
-4.297365843160992627e-02 -8.559736583255846132e-02 -7.469499823426187790e-01 9.602605015823916235e-01 -2.559950468572390059e-01 1.112038897039740737e-01
-5.416135537558650764e-02 -1.597381371216041179e-01 -7.595864526609067413e-01 9.939784594804378370e-01 -1.037857848615019313e-01 3.514730358900684110e-02
-6.972405244514093964e-03 3.427233759276975510e-03 -6.599449298490925875e-01 8.720959932164902284e-01 -4.584964551430198432e-01 -1.709666026948780393e-01
1.218135537162167298e-01 1.691835695814497276e-01 -6.375544469986186291e-01 4.407436194024547116e-01 -6.687752428733951815e-01 -5.987359488753415393e-01
-7.980035672594146950e-03 1.961020013215517693e-02 -7.204104338997385781e-01 9.031897122966866531e-01 -2.496834410420920025e-01 -3.491511461685448681e-01
2.510648928799646008e-03 2.535113506790096297e-02 -6.732055049498335553e-01 8.784293122190444114e-01 -4.621555692597178466e-01 -1.215490569136701698e-01
-4.013204865006796129e-02 -7.319492333976079790e-02 -7.697166865213203035e-01 9.685735031088392732e-01 -9.929524971555023227e-02 -2.280478512492445653e-01
-1.789733465420494107e-02 -2.081175804440553445e-02 -6.500089063711164128e-01 8.692821063890650013e-01 -4.623069329523185056e-01 -1.749883403430376183e-01
-5.265318236357984655e-02 -1.482918591269166697e-01 -7.288640196105794500e-01 9.975559061548205930e-01 -2.772609630348496848e-02 -6.413639902118357938e-02
3.791751082565759934e-02 8.870124334416977507e-02 -6.716607173299578015e-01 8.106397055331349133e-01 -2.815066792094930714e-01 -5.134367121404507239e-01
-5.055529619022895021e-02 -1.168378518790570419e-01 -8.065117699235062609e-01 9.885892835925474964e-01 -3.672983233805132003e-02 -1.460895197554988589e-01
1.458715146744014868e-02 8.647023180786114760e-02 -7.230442061833587397e-01 8.748306206652188832e-01 -3.812445443398666534e-01 -2.988711805403713173e-01
-4.468720329631616778e-02 -8.967593546291670326e-02 -7.837737689128984053e-01 9.810624632181011995e-01 -9.628572846589933398e-02 -1.680639811447502407e-01
-5.049295101508722433e-02 -8.827827602771373683e-02 -8.220525524904468417e-01 9.883180528675051812e-01 -8.893663386193077780e-02 -1.237647022922618856e-01
3.148968310251237801e-02 6.865462545600745092e-02 -6.344824084371711859e-01 8.815852827597677743e-01 -4.473421989305290114e-01 -1.506397898212123720e-01
-5.265544250570656365e-02 -1.505963726572722705e-01 -8.201135243773953754e-01 9.897415151308617265e-01 3.406687765633017312e-02 -1.387486254822546117e-01
-5.177849302031539008e-02 -1.513176102534534440e-01 -7.867301754940930758e-01 9.884885964497158728e-01 -1.205438067962867205e-01 9.143022110839665872e-02
-4.115930119130761095e-02 -8.748457086361294266e-02 -6.509973972158501487e-01 9.694161791640416581e-01 -2.048903380293145560e-01 -1.351007807424655094e-01
-4.005312501301437622e-02 -6.800657440150773003e-02 -7.154853879749931700e-01 9.571272477034052928e-01 -2.887146969123287055e-01 2.347883068907609047e-02
-5.211492166118891767e-02 -1.792396360072698869e-01 -8.603072870164559793e-01 9.714024369753210264e-01 -5.256170703045304378e-03 2.373808714027901834e-01
-2.355594934340832572e-02 -2.477267437796146568e-02 -6.817257360348560891e-01 9.189106566050543323e-01 -3.917823511474828879e-01 -4.593249946408384243e-02
-3.907838196017220794e-02 -7.115896948807928779e-02 -7.426367861913611979e-01 9.519651798396852049e-01 -2.920446274726766767e-01 9.204472791605954052e-02
-5.366595971258073666e-02 -1.566155636083240710e-01 -8.287755117970496688e-01 9.948733933525422124e-01 3.103810065721447284e-02 -9.624742857235363269e-02
-5.054888322691460101e-02 -6.253546280435057225e-02 -8.421891300849851936e-01 9.884998198854397788e-01 -9.593969739013161191e-02 -1.168917471472764036e-01
1.489206028106001937e-02 8.026365967919786570e-02 -7.149831521562229897e-01 8.764243331859011832e-01 -3.556304075022505562e-01 -3.246650604229404657e-01
-4.674475353306947745e-02 -3.413280716992843355e-02 -8.363974425272965307e-01 9.743500788746879415e-01 -1.168037764685105895e-01 -1.923507254979392178e-01
-2.668927264696300747e-02 1.073040038177089893e-02 -7.862758374426207508e-01 9.506717444053073285e-01 -2.432766088521810810e-01 -1.924570756681940609e-01
-4.394468185841607366e-02 -2.849724263308300864e-02 -8.275755461690248449e-01 9.642123202793989600e-01 -1.527603450904238547e-01 -2.166999732101328180e-01
-4.502644670205671606e-02 -2.288539100755448974e-01 -8.386469180355519137e-01 8.590647869930568836e-01 3.966674454201408184e-01 3.235160420944115933e-01
-4.983850271179185443e-02 -9.684836736434622451e-02 -8.111843597334338352e-01 9.859593174663977555e-01 -8.692754052983309165e-02 -1.425756886661582734e-01
-4.142228622511007208e-02 -1.979510672163463207e-03 -8.374785456557649610e-01 9.477365649663874736e-01 -2.014323444646512473e-01 -2.474275935080531008e-01
-5.549619576427906181e-02 -1.865954773755804930e-01 -7.886671539793814745e-01 9.925251094752319814e-01 -1.006695527725379735e-01 6.898947894973497807e-02
4.370012135596255259e-02 8.508333428853312452e-02 -6.114726302340500741e-01 8.760304238308811442e-01 -4.618123659846046780e-01 -1.389245663890594784e-01
2.210706992345483068e-01 1.781657124587121277e-01 -6.195900142673483879e-01 2.759639832160926814e-02 -7.944712040775907536e-01 -6.066744964898215242e-01
6.397892108868945271e-02 1.705355012966917327e-01 -7.131761468420220185e-01 7.774757146763442428e-01 -5.640549248484065803e-01 -2.781610232271338745e-01
-4.665402383437211586e-02 -8.730202618887639154e-02 -7.967918844176947735e-01 9.804543774235058295e-01 -1.165227125942392972e-01 -1.585297172165707480e-01
-5.254801607043348144e-02 -1.502405569104654226e-01 -8.571482655871246470e-01 9.786047988186111768e-01 -9.360609647683527240e-03 2.055359499362801878e-01
4.960710530267522372e-02 9.838975539686985183e-02 -6.231931548401913323e-01 8.439317310973617481e-01 -5.200817633562330178e-01 -1.315073863753721539e-01
-1.105932529313271608e-02 4.005919116541367675e-02 -7.514290935970984187e-01 9.302818047176195648e-01 -2.842475301108783325e-01 -2.319032242923624310e-01
1.997371268147824300e-02 1.143066053775628615e-01 -7.560396975086990379e-01 8.110660089908713344e-01 -5.524686047468504446e-01 -1.922247898391057641e-01
5.859140622513794514e-03 3.446068716721324005e-02 -6.843337139544254377e-01 8.807004685249782971e-01 -4.640166233750731561e-01 -9.515911922395704770e-02
-4.714070653930577115e-02 -2.127724569077373284e-01 -8.382772268827557438e-01 8.788548320921423240e-01 -8.235470182756714219e-02 4.699275339828312137e-01
2.972355015779970869e-02 1.105844671460102235e-01 -7.125079052376692701e-01 8.603998754140753658e-01 -4.287833646004707289e-01 -2.754212784614569753e-01
1.484869982688257796e-02 4.991460503403786358e-02 -6.776254926467148998e-01 8.804266878228232951e-01 -4.590929387381666449e-01 -1.186697980536186720e-01
-2.203512689291348831e-02 1.845863364159729819e-02 -7.733586349815062544e-01 9.488625248885410590e-01 -2.433211123159923772e-01 -2.011336500028052532e-01
8.349249124329400501e-03 5.808104061820083819e-02 -7.100332620043112719e-01 8.827040361443160288e-01 -3.230004196099316993e-01 -3.413272821008335178e-01
-1.864634554654516843e-02 -2.893492492468560662e-02 -6.336746142333067322e-01 8.643292226970289427e-01 -4.600673822445082717e-01 -2.031575708326796015e-01
-7.142844952750048750e-03 8.329204070295360973e-02 -7.950355659509888984e-01 9.266012280638522558e-01 -3.217396288947820815e-01 -1.946632357411350323e-01
-2.793855679997673050e-02 2.116367002936816663e-02 -8.053383416264641159e-01 9.446776583631902868e-01 -2.625445770116544009e-01 -1.966073927175962521e-01
-2.529083181332941071e-04 2.331784448144236244e-02 -6.866868148877337541e-01 8.823266917685667066e-01 -4.612398063118713365e-01 -9.358124847491566811e-02
-5.192656341355002952e-02 -1.552364166920653377e-01 -7.167153087026991720e-01 9.964213529389630564e-01 -6.521940837815711281e-03 -8.427307811510426072e-02
3.522517846142431824e-02 1.332451058549474210e-01 -7.451559659831011873e-01 8.432428683018172721e-01 -5.184094283521063495e-01 -1.421025321863279844e-01
2.228865272905028103e-02 1.233141692305272236e-01 -7.708177111302648710e-01 7.690372440583570501e-01 -5.903268652224968882e-01 -2.451446704452433234e-01
-2.090739455427619020e-02 3.584066575192999815e-02 -7.909131319769000523e-01 9.430211120698904770e-01 -2.762404701034952836e-01 -1.854787989703063911e-01
-2.891884221599803906e-02 -1.524633307385283264e-02 -7.677372798606916238e-01 9.605312648396182595e-01 -2.054366640635495178e-01 -1.875512365302965945e-01
-4.409075023377662800e-02 -8.390655009812829357e-02 -7.835973584894518895e-01 9.810624632181011995e-01 -9.628572846589933398e-02 -1.680639811447502407e-01
-3.646913541838617961e-02 -5.690163853401152688e-02 -6.853659837166310442e-01 9.518600336974433196e-01 -3.055358621006510900e-01 -2.470451820850040614e-02
-1.286073251568215295e-02 -1.458112379070356304e-02 -6.414302965063771733e-01 8.767074496576094944e-01 -4.454915741968887843e-01 -1.814422911959290841e-01
-2.194015002720320698e-02 -4.712657808932019937e-02 -6.099488630823768354e-01 8.894606292717188722e-01 -4.088798150877487880e-01 -2.041496651708399890e-01
9.136520419316597474e-02 1.599174495348684444e-01 -6.533218273698164769e-01 5.555258048194926523e-01 -6.266777958927844949e-01 -5.465034494992841996e-01
1.400153306591823098e-02 1.105046711631958722e-01 -7.674372138438916302e-01 8.037910003819457305e-01 -5.468361931175375057e-01 -2.342865886082906857e-01
3.045479539201903160e-02 7.118911094611095336e-02 -6.491247820888560449e-01 8.752432860783015967e-01 -4.659001999457563770e-01 -1.299468886328583317e-01
2.452122330076281914e-02 1.006294499403973253e-01 -7.131987108184217883e-01 8.557261212189166688e-01 -4.299660621623480616e-01 -2.878575877968681529e-01
2.656374285619921352e-02 6.634911126072186305e-02 -6.572696985514483448e-01 8.774058063231535698e-01 -4.591025469336129650e-01 -1.392260838689587110e-01
-5.149754562090037152e-02 -1.638912049626133904e-01 -8.018003256301249326e-01 9.844320883250317067e-01 -1.170226733352824899e-01 1.311455580699566748e-01
2.306546786649441017e-01 1.776451617261579352e-01 -6.194146929618714603e-01 -9.108500110501617508e-02 -8.742027494482896843e-01 -4.769413752556495023e-01
1.193554794001267516e-01 1.581432169088980155e-01 -6.150419813424726767e-01 4.280731937963980771e-01 -8.569059858638121696e-01 -2.871680207539126783e-01
-2.684824973169339796e-02 -5.994065741856348731e-03 -7.678772589681428506e-01 9.550219294565953643e-01 -2.220129397952924910e-01 -1.965791668017077276e-01
-2.046246262316557887e-02 -1.606284772108470052e-02 -7.048978857283709765e-01 9.143468026301503349e-01 -4.048868859816388555e-01 6.044342818887389612e-03
3.034940548304251515e-02 1.268881670810010354e-01 -7.487012671894223148e-01 8.149505792906768242e-01 -5.557868715094477219e-01 -1.641843682313604835e-01
-5.420176009474908518e-02 -1.562786072430405182e-01 -8.452425820470894635e-01 9.970899573974839614e-01 -5.377567053343539419e-03 7.604405716208660626e-02
2.637851484329735083e-02 6.036554713186042392e-02 -6.397789917060967557e-01 8.815852827597677743e-01 -4.473421989305290114e-01 -1.506397898212123720e-01
-2.967394646818299550e-02 -4.365455399182590485e-02 -7.373971795953533359e-01 9.061195602767873059e-01 -3.908680701636110255e-01 1.617698804177591376e-01
-4.931538595641574152e-02 -2.141019565351611198e-01 -8.337989675275182533e-01 9.280666259040887267e-01 -3.186527528787646245e-03 3.724005691796246631e-01
-7.809885935893037465e-03 7.237897890460787131e-02 -7.807362279673603078e-01 9.259136062302633086e-01 -3.121166655183364447e-01 -2.127608537851448378e-01
7.838713974807834384e-02 1.561194301498231574e-01 -6.645793792287938428e-01 6.824793981844220481e-01 -5.441384781258141734e-01 -4.879909708967491988e-01
-3.029008934511526543e-02 -3.991769943926653380e-02 -6.885587667929383704e-01 9.296245448670187317e-01 -3.682762008369437901e-01 -1.307078719493181239e-02
-5.859292250466246153e-03 7.008548091420077619e-02 -7.688664367919783027e-01 9.247096735893223229e-01 -3.164829021910937068e-01 -2.115433577095520157e-01
4.496802276983607322e-02 1.430735232267842383e-01 -7.223864209010038007e-01 8.587992288107612060e-01 -4.851848537839953401e-01 -1.644978487781668663e-01
-4.290941269512826145e-02 -7.762603886825848731e-02 -7.172598572192306898e-01 9.676244856964479890e-01 -2.483146679066191020e-01 4.519602176198892624e-02
-2.638353244034790518e-02 -1.610353159187057417e-02 -7.545552081228297236e-01 9.525100891925739610e-01 -2.250893092987585609e-01 -2.050837215035912764e-01
-5.463367759682868224e-02 -1.668196440952280923e-01 -7.529529858743188031e-01 9.973341843701023501e-01 -6.989018288330446638e-02 -2.097348381554696092e-02
7.306649425010990073e-02 1.324107272473506458e-01 -6.439817699954025754e-01 7.221017867066469309e-01 -6.896576954833651962e-01 -5.423350159856810127e-02
-5.244401298550274704e-02 -7.456312707354575964e-02 -8.573324431086052355e-01 9.985700331811128150e-01 -4.367328828535020635e-02 -3.083071071214412220e-02
-1.565582530668940126e-02 3.853085846498159606e-02 -7.687337024769368421e-01 9.441178000580241481e-01 -2.650000600303454301e-01 -1.960013974376455248e-01
1.136781232371859938e-03 9.562082091532746186e-02 -7.814028005861514137e-01 9.001907680843642678e-01 -3.753723149260621006e-01 -2.207990177576242274e-01
-5.632584132490010831e-02 -1.863628392901088004e-01 -7.566558952534634397e-01 9.937850515788679839e-01 -1.112355650761463755e-01 -4.233239962099675721e-03
-2.664956750226644619e-02 -3.068927677576881521e-02 -6.927694166699096545e-01 9.135074196392446444e-01 -4.048243595229810698e-01 -4.026701132263230121e-02
5.442514313876722909e-02 1.117387475500503519e-01 -6.537028886440677811e-01 8.014593579575097770e-01 -5.961082101995549554e-01 -4.814456641221027261e-02
-4.819945634306091464e-02 -1.196747113794559420e-01 -6.817259874177424850e-01 9.949586721856407134e-01 -3.912363348716208639e-02 -9.233949288007090028e-02
-7.501473551863244160e-03 7.164647534090422612e-03 -6.761498784511557059e-01 8.773911441081858609e-01 -4.638681251333292010e-01 -1.225199686819203049e-01
-3.151550761275880019e-02 1.715304461910277523e-02 -8.166451168749760958e-01 9.340996096334265308e-01 -2.727150856680403135e-01 -2.304005237228284597e-01
-4.086938814117836716e-02 -6.609969838409031351e-02 -7.795654081075283903e-01 9.753262707478655980e-01 -1.467514242058046703e-01 -1.649323651762421017e-01
4.402449058917221741e-02 8.919053258446101029e-02 -6.242330376710927275e-01 8.679134251773003017e-01 -4.742231923065104993e-01 -1.477790589888466899e-01
-5.327467308343895175e-02 -1.858204388838440857e-01 -8.074977847458921776e-01 9.827953954033361583e-01 -1.051220718333272797e-01 1.518636256233497350e-01
-5.058942610329808520e-02 -1.218345198747705638e-01 -7.448950975797087315e-01 9.866318546958524616e-01 -1.586954977408017442e-01 3.705836337753772025e-02
9.488526822156408136e-02 1.363868824306435634e-01 -5.906688331245345536e-01 5.634258020366995634e-01 -7.868904443274548077e-01 -2.517037826999079519e-01
-4.833260244086435425e-02 -1.096526728738807938e-01 -6.913620820018592239e-01 9.896579847189049817e-01 -1.101805096784600341e-01 -9.185493219805977716e-02
-2.651691363148202252e-02 1.684938868057200487e-02 -7.931591898599211765e-01 9.506717444053073285e-01 -2.432766088521810810e-01 -1.924570756681940609e-01
3.766150000324156033e-02 1.121005301962300221e-01 -6.921260616587848746e-01 8.585707730654679182e-01 -3.945477545218287196e-01 -3.273962385849102930e-01
-2.251948451366465875e-02 -1.290169118572468895e-02 -7.409604084539564983e-01 9.501780194178526262e-01 -2.123854689173500787e-01 -2.281537727234072555e-01
-5.860506423321301672e-02 -2.127359502854876405e-01 -7.815568634030214401e-01 9.941860886577620349e-01 -3.523285941672920502e-02 1.017480551986210541e-01
6.306959078158068388e-02 1.712455755839308869e-01 -7.171543356558860438e-01 8.111467366203508611e-01 -5.052713002610991211e-01 -2.945197528224778871e-01
3.224951608926194396e-02 7.894651170395294848e-02 -6.660111206474143009e-01 8.620304450233134963e-01 -4.992770336583891022e-01 -8.732671706979275306e-02
8.261848062601725995e-02 1.725975743832735554e-01 -6.801678799476530424e-01 6.479853970280030628e-01 -6.066411828928447436e-01 -4.605446780246532090e-01
7.654398140931153657e-03 1.021878252440954760e-01 -7.714582073190267009e-01 8.418031548811529818e-01 -4.815171633886090041e-01 -2.439439890514319698e-01
3.362142407313186560e-02 1.336756466767891616e-01 -7.554571123043790637e-01 7.964034804850375071e-01 -5.827849625513623621e-01 -1.615647972032450141e-01
3.811208798995576602e-02 7.366583231573362034e-02 -6.095409555095677723e-01 8.826840542260586675e-01 -4.457352847792193096e-01 -1.489594452118991885e-01
-3.750586213718010153e-02 -8.117796959876040497e-02 -6.317748151137115853e-01 9.612791414355830177e-01 -2.362177866566792517e-01 -1.419280434159792825e-01
-5.051602748578965657e-02 -1.736814009751708465e-01 -8.194112506261574946e-01 9.242632334960768636e-01 1.835599263632667899e-01 -3.347285895182672277e-01
-5.022676964014348433e-02 -4.606667389623490122e-02 -8.484236573468119103e-01 9.832248968674527356e-01 -9.351411617523097686e-02 -1.566011246956807157e-01
2.615786062899336933e-02 4.459481842407635871e-02 -6.006173343300015288e-01 9.021337563404876470e-01 -4.020984817769432396e-01 -1.564336812316283742e-01
2.774077056416982337e-02 6.998722996703042598e-02 -6.623201622320008530e-01 8.736962984559173417e-01 -4.710682190022965621e-01 -1.214475652717392495e-01
-9.861381088112526616e-03 5.799090350087528212e-03 -6.955523587084000425e-01 8.880214295694139892e-01 -4.574640658133911630e-01 -4.630949270911627336e-02
8.210881506452583078e-02 1.279232823267187347e-01 -5.943453106778560091e-01 6.279338416242250531e-01 -7.410451518324653319e-01 -2.378049063594799006e-01
5.601602034002634706e-02 1.404100626653737582e-01 -6.832651124567521439e-01 7.896634276481027115e-01 -4.822472066416274572e-01 -3.793010713422747537e-01
4.724620990198303422e-02 1.182475909294722211e-01 -6.767845899947989574e-01 8.343445067353532085e-01 -3.893554384059307871e-01 -3.902199208962371935e-01
-5.192543966590067173e-02 -1.697118567419315383e-01 -7.137065235256523366e-01 9.935051306616369260e-01 -6.122810896999483082e-02 -9.590971807362337620e-02
-4.999348151761275755e-02 -2.211100565881358726e-01 -8.310817659261537926e-01 9.210018732126078467e-01 1.442218862059834183e-01 3.618778759168012060e-01
1.194674462039540669e-01 1.774602274282718051e-01 -6.493571608347143975e-01 4.304152213151394291e-01 -7.054910270263770045e-01 -5.630498628412119455e-01
-6.960640926452852512e-03 -1.973158125530464352e-02 -6.082233473975761084e-01 8.441567121453192879e-01 -4.773089760934917103e-01 -2.440811067669657886e-01
-5.104401564453475010e-02 -1.225363064695465520e-01 -7.259689724075532036e-01 9.925609060890506763e-01 -1.199156164790138451e-01 2.104976551272250487e-02
-5.252409112234305427e-02 -1.451787699454904490e-01 -7.279174232778439224e-01 9.975802308043322242e-01 -2.103102960704616650e-02 -6.626747997353316100e-02
-2.644600070626993565e-02 4.194680365759834856e-03 -7.776985228732421485e-01 9.537544860756655973e-01 -2.262038469396891738e-01 -1.979499934837807562e-01
3.593493611010941530e-02 9.473783302033567111e-02 -6.789031015274099579e-01 8.429154616832827962e-01 -3.520481703691011321e-01 -4.068852543347161177e-01
-3.710938495526649311e-02 -6.465414502602052915e-02 -7.416838721916804156e-01 9.307452741003783281e-01 -3.444280178682210813e-01 1.228111364949446560e-01
4.841619932462268988e-02 1.223123467419627852e-01 -6.786069742884127676e-01 8.104353159389273697e-01 -4.209622351236337323e-01 -4.074130524157096311e-01
3.012793078926356144e-02 6.026231248642748700e-02 -6.184461556628905177e-01 8.948672036962109777e-01 -4.191797200370490084e-01 -1.533005220427676452e-01
2.216394891343553657e-03 -1.006543183261293141e-02 -5.954428086328629188e-01 8.485602484092324982e-01 -4.593198215918019023e-01 -2.626229356178493846e-01
2.918543406854884337e-02 9.340278813678122571e-02 -6.926875611949091516e-01 8.588658832777222862e-01 -3.653348948191022516e-01 -3.589983414573016951e-01
3.040942709822882801e-03 7.643296831970007588e-02 -7.449363335625668325e-01 8.834995800714889880e-01 -3.928142774837884987e-01 -2.551968562078926195e-01
-5.319258298583865591e-02 -1.628184020537368493e-01 -8.541782046027630582e-01 9.877943192251740223e-01 -7.448838248309682004e-03 1.555856603778942859e-01
1.177814359464858865e-02 4.312139212901294760e-02 -6.740126767280849585e-01 8.771878744950568629e-01 -4.664903433648000530e-01 -1.137022092407858204e-01
