-6.020470364017922044e-02 -1.856195534357784060e-01 -8.736641725159632887e-01 9.924066002011185939e-01 -1.226879816828684439e-01 8.763505453948720186e-03
-4.806156563776114304e-02 -1.098597271753226912e-01 -9.736463454180322996e-01 9.858885055446194867e-01 -2.865573781639652040e-02 1.649324204794029303e-01
-5.166328262484978784e-02 -1.846200337854004558e-01 -9.675946566312969566e-01 9.845749873463770507e-01 3.496306515099328188e-02 1.714341808599707251e-01
-1.398760720265461964e-02 3.509487173427333628e-02 -8.911284203462174203e-01 9.456693950801750015e-01 -2.940955234820217812e-01 -1.386261817858801815e-01
-5.407807022368345262e-02 -1.278988164776145020e-01 -7.816392201971631426e-01 9.978401465673698567e-01 -5.134004387341763176e-02 -4.097855284762191158e-02
-3.822287688652598048e-02 -5.086362660652542222e-02 -8.009161635804510349e-01 9.248008479634824974e-01 -3.804342324481462256e-01 3.631306598660816610e-03
8.695850421079177883e-02 1.402955717752485121e-01 -7.431511327812184708e-01 5.924042877793115336e-01 -8.030641765313676350e-01 -6.438235932833734354e-02
9.662940310601321470e-02 1.467275895368261029e-01 -7.417369179741916119e-01 5.228687742321443954e-01 -8.499394356794843786e-01 -6.489376402871589733e-02
-5.801326037355400422e-02 -1.857141640424527229e-01 -9.014387817147709869e-01 9.875971412785539139e-01 -1.134092875856680394e-01 1.085827796095657771e-01
-4.720369099849399536e-02 -8.951778216208050587e-02 -9.353022138419413434e-01 9.903202880477484094e-01 -1.181280264596412805e-01 -7.288001403522771648e-02
5.168327197630880748e-03 3.455336034011378260e-02 -8.129366601852776597e-01 8.618990130833381613e-01 -2.318914450506425473e-01 -4.509506058963582142e-01
1.221428731504311527e-01 1.758350730984334642e-01 -7.563059400334475324e-01 4.431126629864257094e-01 -7.144973055094003822e-01 -5.414284517098126859e-01
3.186361089482638714e-02 7.797982635321276668e-02 -7.811445819355399278e-01 8.318283491268657626e-01 -5.548040704146387503e-01 1.593866494477423970e-02
4.275981826772330685e-02 9.377000502128056414e-02 -7.638376550789737207e-01 8.373215251848910023e-01 -5.426268658702342318e-01 -6.669893475832285035e-02
-5.525320216424435549e-02 -1.963926151391842956e-01 -9.273197776310609930e-01 9.598288242845399720e-01 -1.449436885946748799e-01 2.402497767098396297e-01
-4.908552820459180510e-02 -1.896506016303896314e-01 -9.786698154542727845e-01 9.458055448697286760e-01 4.665585599982174925e-02 3.213644385967429074e-01
-6.157432372699742085e-02 -1.963360125364156383e-01 -8.799388596511193983e-01 9.867201290420618554e-01 -1.574986184688223212e-01 3.971866215809894546e-02
-9.750666743311905147e-04 3.822105738017649718e-03 -7.241860880034829417e-01 8.713661851682871218e-01 -4.581529774834737223e-01 -1.755472032482835731e-01
2.106733971044867648e-01 1.734655326776968765e-01 -7.231436196559979379e-01 -1.777635430106164552e-02 -8.633367066241270926e-01 -5.043151120313262847e-01
-9.505238720747261408e-03 6.905515544778114204e-03 -8.296278854986337548e-01 9.007077883332685886e-01 -1.895529596615083689e-01 -3.908902090349087310e-01
-5.128187182264393879e-02 -1.320148357683877394e-01 -8.925461200703574960e-01 9.684786379618389729e-01 -1.889713310412874381e-01 1.622928336559114060e-01
5.376057422438694326e-03 2.119028772628753915e-02 -7.388304743895286464e-01 8.694846127670311509e-01 -4.680626023659462120e-01 -1.578414027680441756e-01
9.708729976135468606e-03 3.828943684110634738e-02 -7.718336645850268907e-01 8.698673484684572577e-01 -4.812399571053848635e-01 -1.083462032268002750e-01
-2.801773960485478762e-02 7.214736589691941350e-03 -9.294402389846951884e-01 9.505282572408875197e-01 -2.562168353547510380e-01 -1.756387356689795565e-01
-4.737362156433100324e-02 -7.807337283862884891e-02 -8.021337732129800724e-01 9.668662525903606308e-01 -2.552831985921341085e-01 -3.716428961682716344e-04
4.023234167009138995e-02 1.229857061807856922e-01 -8.231689849650505320e-01 8.515343118589105975e-01 -4.958695425651633015e-01 -1.703018275979079343e-01
-2.927122658439982420e-05 4.782640593470826457e-02 -8.420778509948341206e-01 9.159067561320728412e-01 -3.243621815043551959e-01 -2.364402446314070039e-01
8.557405233264177291e-02 1.500261038927963864e-01 -7.603505051072997345e-01 6.290050032706514527e-01 -5.912647838591204019e-01 -5.047362293599653160e-01
8.320725356201738587e-02 1.583879336027216034e-01 -7.739484131829191815e-01 6.338369495271164444e-01 -6.233652802326126174e-01 -4.578934906882561884e-01
1.940703757240360983e-01 1.772164882084827642e-01 -7.290125087746966992e-01 -1.628669194138664469e-02 -8.633666552726640964e-01 -5.043141503357795319e-01
4.023655899147725312e-02 9.046535913032308085e-02 -7.725595654330020823e-01 8.359244382545406582e-01 -5.474821749929923431e-01 -3.864714211650788211e-02
1.550269298466929735e-01 1.735045721557237908e-01 -7.322911529181376222e-01 2.420217035762396163e-01 -7.322395035178980160e-01 -6.365931231845951555e-01
-5.500821039774804466e-02 -1.279467793045253599e-01 -8.048045603981766050e-01 9.978038592025788578e-01 -5.434383069535320826e-02 -3.787092058288651919e-02
-2.429273231634055882e-02 -1.962327892084906461e-02 -7.993734987862700647e-01 9.066409335267889835e-01 -4.218705059141744096e-01 5.243461966206262176e-03
-6.825275023434741566e-03 7.006769555965181029e-02 -9.223902539064642303e-01 9.400009739143240228e-01 -3.195631631749526469e-01 -1.194887182195085024e-01
5.235088201771950431e-03 4.565965626651630714e-03 -6.957470097723528202e-01 8.968519415913720483e-01 -4.152058216903953825e-01 -1.525146566667935633e-01
-3.773191678172769375e-02 -4.981009617616029977e-02 -9.073320197573301327e-01 9.720633184150315742e-01 -2.014396853761357409e-01 -1.204780401049110605e-01
-3.023316573536032753e-02 -2.926489610446693021e-02 -8.833988676429592735e-01 9.629614761680926893e-01 -2.343906113839073768e-01 -1.332900473075396830e-01
6.454021354431589003e-03 3.476906433060241580e-02 -7.840375547263411793e-01 8.673125350179748949e-01 -4.896001991943119691e-01 -8.978090860302435916e-02
9.133827671649867586e-02 1.358701609128199761e-01 -7.103395117151065641e-01 5.395029024875033219e-01 -8.084023540181488610e-01 -2.354193114964762967e-01
-1.231123330754386840e-02 1.164099404183462343e-03 -8.287004830510739106e-01 8.643737638674093837e-01 -4.845758318055380931e-01 1.343289230495768316e-01
1.649143874316627914e-02 3.868337347869613141e-02 -7.255339851230343529e-01 8.868061196881366071e-01 -4.376558499588464879e-01 -1.484326887193995748e-01
-3.206328858602449511e-02 1.151677423488716399e-02 -9.565683286177505407e-01 9.510253200063389922e-01 -2.499069585854559739e-01 -1.819267785605186427e-01
-5.835066333495445012e-02 -1.736965819001642097e-01 -8.806417875559179320e-01 9.848366451090949658e-01 -1.488112525223611038e-01 8.917395120206741965e-02
3.056758875989161114e-02 1.099085110238549323e-01 -8.326775359200336846e-01 8.487364439618461098e-01 -4.946961504500286821e-01 -1.868747372464311940e-01
-5.092879091631966754e-02 -1.535507968210431118e-01 -9.345078172277018203e-01 9.891899666778237732e-01 3.366447459000389969e-02 -1.427232040507257771e-01
-4.866073529472849518e-02 -1.188778770552827158e-01 -9.716316248545416867e-01 9.858885055446194867e-01 -2.865573781639652040e-02 1.649324204794029303e-01
-3.327587366929810747e-02 -4.823608892938979764e-02 -8.478782857977271714e-01 9.034120246312710156e-01 -4.001989942169313363e-01 1.539073707766601129e-01
1.252220806298133815e-01 1.601420733016041542e-01 -7.318286447760963265e-01 3.871729444503890782e-01 -9.026802712523210870e-01 -1.877909448760830824e-01
7.632740766269538457e-02 1.313943681433918653e-01 -7.416109408299070838e-01 6.634941569627528235e-01 -7.409899690435173270e-01 -1.034860833792312362e-01
-3.614625251696731989e-02 -4.782190939385146805e-02 -7.708807905880562528e-01 9.133662408401380661e-01 -4.022788121563800612e-01 -6.272054993067843753e-02
2.940217897169367448e-02 7.049064375049532427e-02 -7.565874635962434036e-01 8.657026637425507820e-01 -4.937986049582281933e-01 -8.198680217181210372e-02
-5.507758121843529114e-02 -1.229642958593641505e-01 -8.210736764830621759e-01 9.952490786208978424e-01 -9.478075150110473746e-02 -2.226837778420101902e-02
-5.390751350956878019e-02 -1.197564589545447034e-01 -7.882471706208354911e-01 9.943618964326444987e-01 -9.624699186843040100e-02 -4.450770134654595533e-02
6.553411251091044443e-02 1.251502707787830182e-01 -7.628561722731931338e-01 7.487444212799196919e-01 -3.624421846263656266e-01 -5.549932021254545544e-01
1.088861408241128814e-01 1.463367670992009040e-01 -7.111541051889728182e-01 4.143549295048642445e-01 -8.701496359249312196e-01 -2.667388301217666902e-01
3.216663647570970619e-02 6.580834855921970095e-02 -7.088385925787702435e-01 8.815196335663401106e-01 -4.603164666048186193e-01 -1.050327863551207969e-01
2.964170436305090927e-03 3.367052569680611257e-02 -8.170754837323168651e-01 8.877100485252893414e-01 -2.619481663548204331e-01 -3.786212195460998409e-01
-4.616013051109486842e-02 -1.046204673886257513e-01 -8.853054109765954305e-01 9.430921575680880631e-01 -2.783036780506847330e-01 1.820006733971869517e-01
-5.173234651666155232e-02 -1.454893619020684037e-01 -9.440287424635024349e-01 9.988389546950022790e-01 -2.296059780541021347e-02 -4.235036637638307094e-02
-3.648048623289990716e-02 -5.574230532452183196e-02 -8.867884874943448015e-01 9.734864420552724606e-01 -1.959483989236054657e-01 -1.180185243673316647e-01
-3.766717113987153032e-02 -6.845981137396494470e-03 -9.620011784727510173e-01 9.703378393889763309e-01 -1.791482215406086376e-01 -1.623280387633946331e-01
-7.560808906234252162e-03 4.338718821623421124e-02 -8.685661722358609671e-01 9.327211391292719034e-01 -3.132579343418603335e-01 -1.786077915245136427e-01
-5.193499069602602880e-02 -1.521791842383027338e-01 -9.581849858440026901e-01 9.994163415061163569e-01 -2.139328553304135211e-02 2.663275548327422027e-02
4.719492894949865042e-02 1.275870343424596876e-01 -8.058942463381880694e-01 8.568850839587671686e-01 -4.517979024886438766e-01 -2.482470708706120410e-01
-5.255876756379537773e-02 -1.036024781439883052e-01 -8.279175755532766079e-01 9.904207263809415851e-01 -1.375925486329704628e-01 1.162219065976327105e-02
4.211424858444576258e-02 1.337456509342979383e-01 -8.550339328020971630e-01 8.341016625701525022e-01 -5.429935608400641156e-01 -9.712059196656250282e-02
6.310299927322023106e-02 1.231261579483013957e-01 -7.648931694918935653e-01 7.674012247267594233e-01 -4.141456292590910970e-01 -4.894678314797216157e-01
4.242245952457123631e-02 1.157105729263777638e-01 -8.012142202534229263e-01 8.473376319835183024e-01 -4.427803444978231640e-01 -2.931970394648500400e-01
-5.848329892603342656e-02 -2.125421694936716899e-01 -9.188290280763576900e-01 9.789750289758705204e-01 -7.132883300378850067e-04 2.039788809201869002e-01
-4.859117813956377596e-02 -9.911211052975139879e-02 -9.600308627687917928e-01 9.979677588434081592e-01 -6.120791008144920581e-02 1.771846642705065741e-02
1.410126506923408025e-02 6.872259178325548779e-02 -8.217753925780361124e-01 8.905742162334358003e-01 -3.495035231868708903e-01 -2.910753384609662819e-01
8.742744553919360243e-03 7.483192950026743007e-02 -8.482631367732995642e-01 8.910531566489404698e-01 -3.817491477595126859e-01 -2.455440087048443576e-01
1.299970344197607167e-02 7.002390078717413147e-02 -8.267205548214594524e-01 8.915339405650001270e-01 -3.493918073242731626e-01 -2.882578668403014133e-01
-5.137775622415167304e-02 -1.078661231395017378e-01 -7.634519513928443857e-01 9.887377515825420682e-01 -1.432367241495770271e-01 -4.336933767533786288e-02
-5.031034771195804639e-02 -1.171087868428731110e-01 -9.507218532781397391e-01 9.979447835456594085e-01 -5.510401031764833313e-02 3.270714051884716922e-02
3.355188195441109744e-02 1.155539272185400895e-01 -8.344579335781910912e-01 8.369269163055876870e-01 -5.168425744196356586e-01 -1.800752343619279605e-01
-4.707919052283784933e-02 -1.264741146504069214e-01 -9.800174936125296554e-01 9.687331544346733381e-01 -2.181286984199289070e-02 2.471442376595164303e-01
-2.019694558065078527e-02 -2.381326493685040693e-02 -7.398715820573806834e-01 8.594162411645075439e-01 -4.870058090670739137e-01 -1.556568866372247950e-01
-5.106547799835551432e-02 -1.856275871527119370e-01 -9.521680131453269524e-01 9.864223619372801677e-01 1.113761270562878686e-01 -1.206908538043337115e-01
1.397349513911736174e-01 1.633840411798869463e-01 -7.228682305268360198e-01 3.183901734453499222e-01 -8.833525213330057912e-01 -3.439709588149292285e-01
3.841243965246434605e-02 1.108599081659539520e-01 -8.060658204331583310e-01 8.633081154663382328e-01 -4.203163308902946871e-01 -2.793443748438115826e-01
7.074798136770900359e-02 1.381905364439761363e-01 -7.677250219304857515e-01 7.371198123354670839e-01 -5.092393074435752620e-01 -4.442180883495332466e-01
-8.298180652705863802e-03 6.499370951445428146e-02 -9.204140862506570153e-01 9.411479143482194276e-01 -3.167835544599664210e-01 -1.178506807010717417e-01
1.923405669828095327e-02 1.091936454510556986e-01 -8.803553017177542239e-01 7.980453936987749186e-01 -5.714464196872696133e-01 -1.912394808159879056e-01
2.294488343996324217e-02 7.446010088031065899e-02 -8.034619330907244450e-01 8.717623909441274410e-01 -3.577715520160089091e-01 -3.347086050633215626e-01
2.168203679666819150e-02 6.107625048579146121e-02 -7.800195286082957091e-01 8.627012672831747553e-01 -4.994102048197610055e-01 -7.959881123414437598e-02
-4.039888664714593597e-02 -5.878722510212353730e-02 -9.149297177217841082e-01 9.773334266091591171e-01 -1.775791784618925839e-01 -1.152606116988755675e-01
-3.564245733011314754e-02 -4.916838784960605307e-02 -7.601744482921864998e-01 9.194317644200806772e-01 -3.838234108161482916e-01 -8.558516159262419265e-02
-5.757400897483695712e-02 -1.819863528242225414e-01 -9.015404093504042482e-01 9.875971412785539139e-01 -1.134092875856680394e-01 1.085827796095657771e-01
-1.247233262761665920e-02 3.112210483606436384e-03 -8.146306898672007746e-01 8.928470068197781329e-01 -4.496546404198484281e-01 2.519775311133966647e-02
1.221433179933582858e-01 1.680791977864093678e-01 -7.461464734511599195e-01 4.445662756212319100e-01 -7.074125838505563868e-01 -5.494799930754041828e-01
1.157771912085931859e-01 1.497163256578021573e-01 -7.114789680043188680e-01 4.137997904887431577e-01 -8.700096430388851720e-01 -2.680540139800631771e-01
-3.722478121261847683e-02 -4.898051135699807435e-02 -8.113216071192276280e-01 9.307797726658787463e-01 -3.603081455672795252e-01 6.186319611791112061e-02
2.656068067210114528e-02 6.600744030848314237e-02 -7.595890813572573341e-01 8.657026637425507820e-01 -4.937986049582281933e-01 -8.198680217181210372e-02
3.630269856196263051e-02 1.074578022807396865e-01 -8.074167057255975388e-01 8.609649054772824384e-01 -4.265328357382561775e-01 -2.771446762497455918e-01
6.418413259793568151e-03 6.096735147827655327e-02 -8.365518611023849971e-01 9.037359459752908331e-01 -3.435707556194982359e-01 -2.553829983283801286e-01
1.347603837192102028e-01 1.695772920713176091e-01 -7.389564979797601518e-01 3.719465820062357597e-01 -7.448074268011831700e-01 -5.540014775392557711e-01
-2.363961412066156384e-02 1.315378703411343095e-02 -9.125887366390970090e-01 9.518074322258228692e-01 -2.652843941273605455e-01 -1.539051727271217862e-01
-2.493964837057101661e-02 -2.650013085822998729e-02 -8.385016224716009825e-01 8.991875838006980759e-01 -4.179662364707457112e-01 1.294832587987465311e-01
-4.747010645279221147e-02 -2.062990788330427150e-01 -9.738683538309379495e-01 9.178322294143150817e-01 3.398755333583270977e-01 2.051063638036149384e-01
-4.773599463294094652e-02 -8.608510014808970490e-02 -9.564192255864237824e-01 9.950889050488435084e-01 -9.890702667435899431e-02 -3.933334861328309159e-03
-4.824321628479480428e-02 -1.403953964101327945e-01 -9.764846520069785374e-01 9.732088097410741545e-01 -1.756030785920507584e-02 2.292514955900002982e-01
3.231188442330400895e-02 1.257960380591854055e-01 -8.785185988003241242e-01 7.758891402763349321e-01 -6.116491244533847071e-01 -1.545360493757291231e-01
-4.254484573868381851e-03 6.574519138029806531e-02 -8.926646325900413625e-01 9.382204570104795138e-01 -3.158383245147919904e-01 -1.413807865826748611e-01
2.358550772939174700e-02 6.506754132093164888e-02 -7.891832891579180220e-01 8.400956917926232226e-01 -5.422345431818968997e-01 1.486367423598374503e-02
-5.413921742283475669e-02 -1.190951566548743290e-01 -7.959013924927278438e-01 9.968909765808195989e-01 -7.158114057767725469e-02 -3.293206834285579421e-02
4.107040493087551862e-03 5.199007207827695265e-02 -8.331212035579265152e-01 9.028229461221881635e-01 -3.293694996989397494e-01 -2.764533606656335851e-01
7.843943512342278768e-02 1.218997287457771472e-01 -6.940661588662242476e-01 6.229771410800113429e-01 -7.543232976889137076e-01 -2.071131194673535292e-01
-5.089699969311119176e-02 -1.021650757347600663e-01 -7.689955652933482266e-01 9.869214570487094829e-01 -1.442229505878462881e-01 -7.201234713983635516e-02
-5.632386268880854030e-02 -1.503019450813297131e-01 -8.179449207807932831e-01 9.987800473445596072e-01 -3.277784477981970923e-02 -3.693277566051030719e-02
2.934546744052636200e-02 7.316531826609004585e-02 -7.732022275142110823e-01 8.563399298625630207e-01 -5.100949361447743025e-01 -8.052999840083976957e-02
3.330912146303271343e-02 7.788682896331708405e-02 -7.600153973979371091e-01 8.626454672302371618e-01 -4.986286482810577403e-01 -8.492507863129153400e-02
-5.511938673525128979e-02 -1.260229127161107410e-01 -8.105140568887874153e-01 9.968909765808195989e-01 -7.158114057767725469e-02 -3.293206834285579421e-02
-3.771226095302638442e-02 -5.678757228394520212e-02 -8.406692425719219930e-01 9.322974684290845637e-01 -3.434869117904053026e-01 1.133056564757938256e-01
-4.254607788221503872e-02 -5.082859660928868567e-02 -9.444338533594461849e-01 9.789427547241915661e-01 -1.665797573011563726e-01 -1.179926583754231512e-01
1.959424417179021494e-01 1.693961439640357947e-01 -7.207427031498442327e-01 1.657412128358013159e-01 -2.032585092583505948e-01 -9.649952480617665085e-01
-2.046355526632508137e-02 -2.136495701292974794e-02 -7.487422116813121642e-01 8.663565238705136506e-01 -4.728810243925024581e-01 -1.606546305479489012e-01
-2.242402496665615516e-02 8.537689702322853735e-03 -8.959408220635475262e-01 9.559999850996471205e-01 -2.563104092669428180e-01 -1.427200146821993032e-01
9.641886214683924317e-02 1.364968918105848583e-01 -7.011638007130090999e-01 4.736499003572718358e-01 -8.451012306508656202e-01 -2.479106327770937979e-01
-4.847613435884207816e-02 -9.846828944951875606e-02 -9.377548935036501554e-01 9.897873313717170385e-01 -1.254046559314770659e-01 -6.778429705147474837e-02
-4.968606233895092594e-02 -1.611571706424259343e-01 -9.740784725911784125e-01 9.640307832889111195e-01 -4.793310725116618071e-02 2.614327181142727663e-01
-4.696610739159365333e-02 -8.084324978715498600e-02 -7.725064509485177755e-01 9.685388541558150877e-01 -2.360467736290696450e-01 -7.883152066177340211e-02
-2.132027308062174609e-02 2.039923729561206930e-03 -8.765086301796799484e-01 9.567914809551502087e-01 -2.525652550038737787e-01 -1.440862725469669037e-01
-4.650233236434597739e-02 -8.684092124398402890e-02 -7.438046401478550784e-01 9.766574194605818215e-01 -2.082854858119593811e-01 -5.251134556144594623e-02
-4.521428669732777822e-02 -6.125036961639962474e-02 -9.592983780492629897e-01 9.900598640447306753e-01 -1.279470073342908465e-01 -5.840401460454940075e-02
-5.665283363031126118e-02 -1.462328037525572610e-01 -8.336983378642439657e-01 9.981575377515534697e-01 -6.050780125313829499e-02 -4.509525170901948314e-03
1.497269519806899638e-02 8.505370977152215684e-02 -8.422485390248547477e-01 8.782482989536340989e-01 -4.077974705615228235e-01 -2.497621836641248372e-01
5.671635826286348936e-02 1.036834702763063387e-01 -7.050158821479788340e-01 7.504113495658171207e-01 -6.398584975599106439e-01 -1.657223869704483044e-01
-8.925406799417126558e-03 7.250910003751182692e-03 -8.277573153004827988e-01 8.637951762427039659e-01 -4.840553669360080358e-01 1.398152181998896237e-01
1.120654534939483082e-01 1.518648578442597097e-01 -7.243342637994357736e-01 4.211566591550482408e-01 -8.695332417605416975e-01 -2.579515650713559149e-01
1.171490356730277155e-01 1.595394558372716931e-01 -7.403384269500423720e-01 4.486048689596945360e-01 -5.645042000404185689e-01 -6.928843191199973717e-01
5.195927493423622284e-02 1.052221301209800425e-01 -7.478557635836368123e-01 8.200741879039198379e-01 -5.690917154247333576e-01 -6.010778459285194553e-02
-4.276986026070794811e-02 -6.600556965569673307e-02 -9.240258456296436274e-01 9.777198671427758114e-01 -1.771554965952743532e-01 -1.126045799263730579e-01
5.266566766772638047e-02 1.493413979570809291e-01 -8.485379541881438170e-01 8.650047096725662632e-01 -4.960684294671471317e-01 -7.538544640895561422e-02
-3.275760379085753543e-02 -5.405035597558439930e-02 -7.218009164333240024e-01 8.862298101954395602e-01 -4.366799059818013418e-01 -1.546201255745199565e-01
-1.810646284106509282e-02 2.628321640612757068e-02 -9.010351832825053142e-01 9.479182924127514953e-01 -2.883656066993308120e-01 -1.352634014884310509e-01
3.273327522118279348e-02 7.755469824133336132e-02 -7.639603741202131149e-01 8.657026637425507820e-01 -4.937986049582281933e-01 -8.198680217181210372e-02
-3.650601631354713494e-02 -4.063424147672933806e-02 -9.124626232439225770e-01 9.719168448900090684e-01 -1.990592523715817019e-01 -1.255111973662790814e-01
-4.854735572594520709e-02 -9.533137841474101370e-02 -9.494790890542279538e-01 9.969807918860450480e-01 -7.676638414170947056e-02 -1.167145561110883266e-02
-4.305183877591639563e-02 -2.171443336313109151e-01 -9.640379868687755094e-01 9.125102856484805791e-01 2.018942897156643657e-01 3.557578872856311802e-01
-5.642496151006593658e-02 -1.445214752634622624e-01 -8.271859669352669142e-01 9.987556492251506990e-01 -3.733896924786609534e-02 -3.305986261851294461e-02
-4.070520639515309846e-02 -4.054162948737805028e-02 -9.428580922328336777e-01 9.803479185379923022e-01 -1.499286887763434661e-01 -1.282160165503212768e-01
1.086627847679791196e-02 3.331555742092261879e-02 -7.439774650742340123e-01 8.751911673962040616e-01 -4.672841674742549412e-01 -1.252434722433156955e-01
-4.925527162505260841e-03 1.334726530973342346e-02 -7.769748353160349508e-01 8.706476779492863249e-01 -4.828997046499781676e-01 -9.370430155803748107e-02
-5.089100366201936010e-02 -9.272035105439993541e-02 -8.000443103258770838e-01 9.806035236047487835e-01 -1.917185894163563886e-01 -4.075183389927083955e-02
6.905795422667448946e-02 1.201681447171715489e-01 -7.187014821999146985e-01 6.763880526754353362e-01 -7.199490028898563043e-01 -1.554755139429817301e-01
-5.295513733835909009e-02 -1.182392481107179122e-01 -8.576666237276889815e-01 9.747598669294915696e-01 -1.917675451944173270e-01 1.143171484673549954e-01
-2.727932699257766200e-02 -2.635714901420148706e-02 -7.848295656700519096e-01 8.880793842982360742e-01 -4.568570552750622071e-01 -5.095721960492918118e-02
-2.745074709300905982e-02 1.956830245368627874e-02 -9.453381760926818922e-01 9.425144390298211272e-01 -2.717446979991786637e-01 -1.944771228953086628e-01
3.354921524715025194e-02 1.054079260496949833e-01 -8.128741118699867041e-01 8.663995719778934124e-01 -4.185713359665360622e-01 -2.723046426040374168e-01
1.001891075241353873e-01 1.488278421335597623e-01 -7.428810995726590205e-01 4.885586476741526352e-01 -8.708643773905474506e-01 5.390439662010249044e-02
-6.190530487480978838e-02 -2.084029056812620462e-01 -8.962137537542057553e-01 9.804840240009449204e-01 -1.560019062413861568e-01 1.196431524491409770e-01
-2.453620159223419972e-02 1.426156842897147517e-02 -9.200430392782810163e-01 9.518074322258228692e-01 -2.652843941273605455e-01 -1.539051727271217862e-01
5.878762862073436818e-02 1.254695821280565893e-01 -7.745363882047515691e-01 7.815731029454551226e-01 -4.439777978179293982e-01 -4.382090822848779821e-01
-2.104380795590525544e-02 5.941976828908332453e-03 -8.815304246473356642e-01 9.573195420524723831e-01 -2.521755325659633673e-01 -1.412331235210684266e-01
5.676269350195479665e-03 2.443848545700138750e-02 -7.468089275013151118e-01 8.694846127670311509e-01 -4.680626023659462120e-01 -1.578414027680441756e-01
-4.795415906505279269e-02 -1.291712397556126768e-01 -9.766221118104890797e-01 9.847927532113223137e-01 -1.385527775734889458e-02 1.731798617066385160e-01
-8.954691466934668748e-03 8.896551902520704810e-03 -7.934598240433656802e-01 8.829015838535780869e-01 -4.680278465319296366e-01 -3.787780484040897261e-02
9.399702995470443287e-04 2.420812446918790134e-02 -7.793895999098375826e-01 8.674028859945044356e-01 -4.851226164794592566e-01 -1.107622695168722499e-01
9.174058790392757012e-02 1.591808807204712073e-01 -7.636767149652928799e-01 5.678926825628479724e-01 -6.428340766834979014e-01 -5.140644424058596895e-01
-4.687819238719870274e-02 -1.129912627951169118e-01 -8.930921013592391100e-01 9.513072032512485121e-01 -2.446423727559973171e-01 1.875225706271208270e-01
5.120540859947705220e-02 1.481639309545091654e-01 -8.575453527910382734e-01 8.650047096725662632e-01 -4.960684294671471317e-01 -7.538544640895561422e-02
-4.280966705128647076e-02 -8.005683701195794033e-02 -8.624739876360679736e-01 9.345822583104085313e-01 -3.244245790632033777e-01 1.459612789443844039e-01
-2.217680519086395047e-02 1.645518129410569611e-03 -8.815387699518540954e-01 9.573195420524723831e-01 -2.521755325659633673e-01 -1.412331235210684266e-01
2.198399868838056270e-01 1.687537025129439427e-01 -7.166047694233798060e-01 1.382230315957384548e-01 -4.111116999423709006e-01 -9.010447068303422125e-01
1.510777616654749266e-02 5.139764413947210675e-02 -7.958764811253722371e-01 8.502329030302994139e-01 -5.258587304263767637e-01 2.401262665825407150e-02
-5.476313949952035104e-02 -1.310140202463526693e-01 -7.944179762063237060e-01 9.978401465673698567e-01 -5.134004387341763176e-02 -4.097855284762191158e-02
2.020737584111655799e-02 7.256904853113475828e-02 -8.087048433333742237e-01 8.793937611981280655e-01 -3.455089920426074879e-01 -3.275517503899361138e-01
-5.475148337767705986e-02 -1.197736033784280313e-01 -8.200797852972145918e-01 9.952490786208978424e-01 -9.478075150110473746e-02 -2.226837778420101902e-02
-5.758139246007202422e-02 -1.855545934292288091e-01 -9.052001030648777480e-01 9.875971412785539139e-01 -1.134092875856680394e-01 1.085827796095657771e-01
-1.098028591875420748e-02 2.432056376325750571e-02 -8.548259252661127849e-01 9.391925198008181930e-01 -2.860967306474282990e-01 -1.899106933878203229e-01
4.208060216951516747e-02 7.885492532400413535e-02 -6.866855089325517580e-01 8.619722533766530637e-01 -4.954121021393386171e-01 -1.075671114358689173e-01
9.509185076224900817e-04 5.323357710333096945e-03 -7.188778974693840196e-01 8.715103269500981131e-01 -4.528470515848295186e-01 -1.881470113774337538e-01
-3.189534679448877835e-02 -4.633599254003951257e-02 -8.684350625415225844e-01 9.663648164548368502e-01 -1.886675229214802296e-01 -1.747672947461341164e-01
-5.691984906174581832e-02 -1.823039881782346494e-01 -9.069431051698531032e-01 9.827225807208689323e-01 -1.343290044334868871e-01 1.273265404745749785e-01
-1.396332022073715380e-02 5.819895139789256375e-05 -7.982566262315405892e-01 8.717410284589883762e-01 -4.891589383336810704e-01 -2.812671949466041821e-02
-2.243499561093663386e-02 -2.698494255731238162e-02 -7.423050826052631779e-01 8.594162411645075439e-01 -4.870058090670739137e-01 -1.556568866372247950e-01
-3.108749238630091616e-02 -4.379868097803146787e-02 -8.667072004146567643e-01 9.663648164548368502e-01 -1.886675229214802296e-01 -1.747672947461341164e-01
2.751784797317823883e-01 1.617824876671917211e-01 -7.158226769924764810e-01 -1.620589925646767071e-01 -8.563174706716510931e-01 -4.903644281056978027e-01
-4.765843121603813987e-02 -1.019138236024286076e-01 -8.723968237458118447e-01 9.585509051758799304e-01 -2.424320286438553518e-01 1.496892570431377079e-01
9.911075213230562120e-02 1.372279785089751125e-01 -6.986165870102586384e-01 4.698905272330755056e-01 -8.446489396310594699e-01 -2.564586929638950075e-01
-4.297857175086038789e-02 -8.714585330238770744e-02 -8.743426702061450895e-01 9.332141078927382871e-01 -3.087433684898390207e-01 1.838177391970325092e-01
2.230362441202719814e-02 8.275827533887855636e-02 -8.148651645741074034e-01 8.741380804226929202e-01 -3.774127667700657440e-01 -3.056832017528832157e-01
-4.898384330655095736e-02 -1.013997115160405471e-01 -9.441520001253205230e-01 9.950283868100001650e-01 -9.930806870338279579e-02 7.511120601690744573e-03
-2.490124327679672095e-02 -1.687573671436050707e-02 -8.674771727850200120e-01 9.552248802783457338e-01 -2.550966099326301695e-01 -1.499037948088698391e-01
-4.807824493064841165e-03 3.713049649814403191e-02 -8.460560257253618710e-01 9.228245724574948294e-01 -3.050089951733204185e-01 -2.352962416444503435e-01
1.924526676352825427e-01 1.772940296734399068e-01 -7.291072062741077442e-01 -4.405252570234902826e-03 -8.510524407138251313e-01 -5.250622219364420307e-01
-4.663588706910445220e-02 -9.631147484912878920e-02 -9.822922844033248335e-01 9.805457689008555411e-01 -6.440161081122501314e-04 1.962895319009210771e-01
-2.819321426486317075e-02 -4.069738869902896766e-02 -8.551897181076189014e-01 8.549449018002012179e-01 -4.446678898713581907e-01 2.670948943787548324e-01
-4.214656288758204805e-02 -3.329140512575358424e-02 -9.623558320239026243e-01 9.824377452010887302e-01 -1.335297576494108573e-01 -1.303298915302650574e-01
-5.512951988890583965e-02 -1.276210928249703058e-01 -8.084681135203193314e-01 9.978038592025788578e-01 -5.434383069535320826e-02 -3.787092058288651919e-02
-5.120505862288103616e-02 -1.730525903730106008e-01 -9.697819100723198416e-01 9.878027280021527412e-01 -1.814341455206484183e-02 1.546498854183120664e-01
1.249921630546113084e-02 1.008269536759275331e-01 -8.862327010064238175e-01 8.386956111260532865e-01 -5.073568061559727838e-01 -1.979362097371441531e-01
4.791930962640409547e-02 1.384421445320527522e-01 -8.315929533270987051e-01 8.507452077580879291e-01 -5.122399263024249860e-01 -1.176556389568052391e-01
1.307400051106410166e-01 1.664769240311103349e-01 -7.378376208479229259e-01 4.196986643036711984e-01 -6.916029327093459189e-01 -5.878251565300230963e-01
-2.476620249986920957e-02 -8.301609696242398528e-03 -8.813296008125584002e-01 9.573195420524723831e-01 -2.521755325659633673e-01 -1.412331235210684266e-01
-4.654667398550229457e-02 -9.947608738520423433e-02 -9.135957105995667904e-01 9.902134456276474594e-01 -1.051551555928341430e-01 -9.175906140795667132e-02
-4.767639819319870881e-02 -9.630564056471518919e-02 -9.728579750394159564e-01 9.943313013798925626e-01 -4.705402425722313153e-02 9.534768952297802136e-02
2.947605752846636437e-02 6.794218450457031877e-02 -7.428794603387653961e-01 8.723215717033216965e-01 -4.775441117547260528e-01 -1.049128060316604077e-01
-4.865965792847735255e-02 -1.631907397425619854e-01 -9.780078095530913007e-01 9.557050480562673256e-01 -3.895963085301130946e-02 2.917361963890749976e-01
5.627597090420752984e-02 1.118005782236857343e-01 -7.643768019078486242e-01 7.592077401420668226e-01 -6.480714319999385520e-01 6.005852424031735137e-02
-1.754804047095322520e-02 2.941327408489473674e-02 -9.037628960064271189e-01 9.479658364697137740e-01 -2.864830757312192278e-01 -1.388820370165149698e-01
6.503878623667164183e-03 6.493486094708060541e-02 -8.415869735142248453e-01 9.037359459752908331e-01 -3.435707556194982359e-01 -2.553829983283801286e-01
6.547611262067309923e-02 1.098319575869804998e-01 -6.923584279930260488e-01 6.924121716815754279e-01 -6.980360649997560119e-01 -1.825131131367306037e-01
-3.023011249724120303e-02 -6.819894051126610063e-04 -9.298937198493304468e-01 9.505282572408875197e-01 -2.562168353547510380e-01 -1.756387356689795565e-01
9.772699701163527555e-03 3.559447813975849528e-02 -7.599686359541817371e-01 8.715769543760368832e-01 -4.771671535430691558e-01 -1.125394161180721941e-01
-4.762696300107300412e-02 -1.099835013305051901e-01 -9.136852818213266891e-01 9.878039215132957684e-01 -8.495046742555374675e-02 -1.304868986800383768e-01
1.029226941138762091e-01 1.540067732946306112e-01 -7.460050300220867348e-01 4.955056451061198852e-01 -5.680827429472983248e-01 -6.570815419972179106e-01
1.818057449344310517e-01 1.768320081485237061e-01 -7.288936997509704030e-01 6.599891376885048955e-02 -7.693518166799176994e-01 -6.354068976275296654e-01
7.757245808901784556e-02 1.545703308937355080e-01 -7.774702642845792155e-01 6.981536386614358713e-01 -5.754817185279252900e-01 -4.259134753256146322e-01
-4.693470282014450962e-02 -1.166977106802308956e-01 -8.972670519556162905e-01 9.246918383518238915e-01 -2.829863610732597512e-01 2.546835753087329235e-01
4.530056937271779993e-02 1.092671649745974027e-01 -7.853477072409639215e-01 8.411975515131598913e-01 -3.944529696416486098e-01 -3.698560991374204021e-01
7.368630941083481600e-02 1.283228186432783802e-01 -7.374787897053278751e-01 6.688451563801358635e-01 -7.320685566370145336e-01 -1.293127417164687265e-01
-2.305152680791048431e-02 -2.065128883591885178e-02 -7.684419879707033996e-01 8.897855099540419310e-01 -4.453617930835633842e-01 -9.967256160658727326e-02
-2.590373945654975488e-02 -2.905262309898540979e-02 -7.565239133913166381e-01 8.889972445287509517e-01 -4.400715294900916508e-01 -1.265738841647024715e-01
-4.146999459817047456e-02 -6.107033626368337659e-02 -8.178635200470256716e-01 9.307797726658787463e-01 -3.603081455672795252e-01 6.186319611791112061e-02
-4.855582881397349504e-02 -1.201415834870232513e-01 -9.724782657594194246e-01 9.858885055446194867e-01 -2.865573781639652040e-02 1.649324204794029303e-01
-5.535660258586237031e-02 -1.431062046257159104e-01 -7.999050121572943706e-01 9.988924929658689056e-01 -2.455759161901228949e-02 -4.013367900287259649e-02
8.559321676391454248e-02 1.659359586331889680e-01 -7.812992251698681612e-01 6.438008672691732936e-01 -6.218180540861121264e-01 -4.459402997218586129e-01
2.980631931791204864e-02 6.099760945855376565e-02 -7.078585691608247910e-01 8.870962803220415749e-01 -4.507794879272821187e-01 -9.928767649016280450e-02
-3.464419424676340453e-02 -4.150249409900465258e-02 -8.962136086129703916e-01 9.681603794945292663e-01 -2.169284861556624588e-01 -1.249300262996128341e-01
-4.256449788800477363e-02 -4.759425918613387207e-02 -9.488274012349784403e-01 9.803479185379923022e-01 -1.499286887763434661e-01 -1.282160165503212768e-01
-4.771581079842110440e-02 -1.269716087849084296e-01 -9.106564908189663798e-01 9.662424154688580291e-01 4.827724981490843364e-02 -2.530709420285464084e-01
-2.648730731716144454e-03 7.040244488451471994e-02 -8.934039073078965387e-01 9.262945120586637548e-01 -3.411212480527708868e-01 -1.600461528963514624e-01
7.175562461973952928e-03 1.601873852048210298e-02 -7.147763879509314577e-01 8.853635050840551468e-01 -4.323248652972392914e-01 -1.709581080586713708e-01
2.631195212031297026e-01 1.627331565165049121e-01 -7.152148537091641556e-01 3.908517953237497511e-02 2.898662358475471157e-01 -9.562687457281535686e-01
-4.797215158284234837e-02 -9.035755033340554798e-02 -9.634301412076319293e-01 9.975278256650274011e-01 -6.374318783899760033e-02 2.958112621461602212e-02
9.756897954132833992e-03 7.717670010045840634e-02 -8.482644392889101548e-01 8.863817176102394280e-01 -3.947043244103068949e-01 -2.419420322683211166e-01
-3.204457057134552783e-02 -4.177360983505871289e-02 -8.366406412232101353e-01 9.155535351488595097e-01 -3.838778086095334108e-01 1.199981347087063360e-01
-1.562335743412882061e-02 -2.063983042509427712e-02 -7.273297526759939791e-01 8.411901300849304874e-01 -5.032286057483330577e-01 -1.978891998171869171e-01
-5.192987258677761453e-02 -1.112246717952853209e-01 -7.649468043723537392e-01 9.887377515825420682e-01 -1.432367241495770271e-01 -4.336933767533786288e-02
5.088602309641412219e-02 1.392946251500194188e-01 -8.178142869900818512e-01 8.456999396472644204e-01 -4.858068708150403148e-01 -2.208694101715130698e-01
-5.813881978210353602e-02 -1.700280199967898198e-01 -8.403076261204874831e-01 9.949297522063293986e-01 -9.359478153446763871e-02 -3.680767642988676952e-02
3.008965308920962325e-02 8.235538308696400966e-02 -7.936044065447389606e-01 8.588075613921325457e-01 -3.420067746648623452e-01 -3.814196358068587811e-01
3.413833753354044570e-02 6.930315866067732200e-02 -7.076068385604956656e-01 8.815196335663401106e-01 -4.603164666048186193e-01 -1.050327863551207969e-01
-3.051805122915066115e-02 -4.088640254336318655e-03 -9.264824712063102208e-01 9.505282572408875197e-01 -2.562168353547510380e-01 -1.756387356689795565e-01
-5.249051449429645300e-02 -1.020194083799514373e-01 -8.076864350796360004e-01 9.892392089880606143e-01 -1.424228801258488886e-01 -3.348896261955868620e-02
-2.907385789875580745e-02 -4.117193022006771647e-02 -7.374978268737355513e-01 8.865994963230493520e-01 -4.389102877800221680e-01 -1.459420857757394718e-01
1.767933418838780191e-01 1.653418483032227937e-01 -7.078547077362310480e-01 -2.830917481193707345e-03 -9.598127865481596022e-01 -2.806267996554703825e-01
-5.146503471128499596e-02 -2.085678501841446708e-01 -9.457693550211520028e-01 9.388580090016169777e-01 -6.315889778648486885e-02 3.384620991542720003e-01
4.700308890490091651e-02 8.837753200608215731e-02 -6.954069824117852239e-01 8.190856413430819272e-01 -5.563841494541511556e-01 -1.397690608889296804e-01
-4.323520825268531431e-02 -6.967287929492611831e-02 -7.617360428137164297e-01 9.535897068486216543e-01 -2.892430973281451823e-01 -8.369648523313900912e-02
9.115218472975108316e-03 5.747110960103846145e-02 -8.235206860078870816e-01 8.905742162334358003e-01 -3.495035231868708903e-01 -2.910753384609662819e-01
-1.570327923450942978e-02 4.356351600205674718e-02 -9.232482025364807665e-01 9.426886281276991575e-01 -3.096693471651458807e-01 -1.242700520038083484e-01
-4.408821867716934684e-02 -8.000543340686760985e-02 -9.151820630723224159e-01 9.834625666535555810e-01 -1.524769798495261564e-01 -9.773510427255956146e-02
2.141800233433120704e-02 9.882066183631796341e-02 -8.445323004131664035e-01 8.551495199682879189e-01 -4.752486687864926340e-01 -2.070217411642394090e-01
-2.576830021048595251e-02 2.332240800624814370e-02 -9.428879972571301282e-01 9.358809120485477306e-01 -3.037294590147300855e-01 -1.785366466297550192e-01
-1.930948730949636274e-02 5.850506313412237244e-03 -8.704251586996347712e-01 9.508250430423176303e-01 -2.689190900095005388e-01 -1.536693220914217284e-01
-4.834783032169756578e-02 -1.999530094631033761e-01 -9.538524549620099879e-01 8.754040308851073204e-01 3.761602697908625892e-01 -3.035971576628667679e-01
3.762525409043391417e-02 7.892190300320769958e-02 -7.232891284869771287e-01 8.671630667284385696e-01 -4.896660471183778007e-01 -9.085911072419974865e-02
-3.545733717314176331e-02 -5.272868559714861958e-02 -7.444039234734920463e-01 9.217937193107003102e-01 -3.739177412156050040e-01 -1.023809642637037720e-01
6.504442709967392378e-02 1.531042522598796696e-01 -7.997147377637245924e-01 7.576364309239419503e-01 -5.710003225865999399e-01 -3.161418512991119312e-01
1.200281601838625450e-01 1.605751574126882963e-01 -7.392914996929865756e-01 4.528294871250079789e-01 -5.191113599775255549e-01 -7.248923034026406587e-01
-2.381819971007923670e-02 -1.430082893439807781e-02 -8.649575573458115896e-01 9.552248802783457338e-01 -2.550966099326301695e-01 -1.499037948088698391e-01
-2.522588925197294732e-02 2.184012342508685756e-02 -9.375033955136397035e-01 9.368182888993112911e-01 -3.018721352117869072e-01 -1.767617254001648264e-01
-5.538078050979069328e-02 -1.915618584653442369e-01 -9.234092454285168783e-01 9.661566581053137037e-01 -1.565124344773373699e-01 2.050491888614760783e-01
-2.083320553792614160e-02 2.421984066620066003e-02 -9.153367312862863425e-01 9.456697937468544479e-01 -2.923374182581759961e-01 -1.422936227697020883e-01
1.228947804674618838e-01 1.526444410117273331e-01 -7.108107476659677459e-01 3.641929327380168946e-01 -8.864978652404036374e-01 -2.854558506457516298e-01
-2.445762342369258574e-02 2.053034802186185642e-02 -9.311948455503241684e-01 9.368182888993112911e-01 -3.018721352117869072e-01 -1.767617254001648264e-01
-4.994502044342602476e-02 -1.177475107316388603e-01 -9.593671654054776177e-01 9.915016691713838259e-01 -7.340322035584979921e-02 1.074076685891201116e-01
-1.123493833697740071e-02 2.690908255618309347e-02 -8.602901784336511870e-01 9.427027745377135615e-01 -2.801987669373077194e-01 -1.811080613493198377e-01
5.390575495591046207e-02 1.044615503387009703e-01 -7.252710736135703495e-01 7.927503376269543489e-01 -6.011390533471000497e-01 -1.008897454318430920e-01
2.516887878407449500e-02 5.662347668492911240e-02 -7.290002301438647248e-01 8.882220551760261484e-01 -4.475702587051294534e-01 -1.036457631623209780e-01
1.688164903128109434e-02 3.343939384834674483e-02 -7.060962744656322787e-01 8.934648814075396572e-01 -4.284094259149066608e-01 -1.348549942666981971e-01
1.419160849877882657e-01 1.658066097439952480e-01 -7.317560279136640089e-01 1.849119971248762984e-01 2.215886823910407089e-01 -9.574476534805922423e-01
-1.985596415965060202e-02 -1.417258597473720558e-02 -8.322404723343755917e-01 8.936569883562405225e-01 -4.376800334057497910e-01 9.906248290849557769e-02
-3.712423762264879801e-02 -4.887675900572904103e-02 -7.814762522082231433e-01 9.353675208287419718e-01 -3.521234308095264054e-01 -3.311631702985693565e-02
-3.144390813864107043e-02 -4.389066863111817235e-02 -7.438745740408208018e-01 8.878519158203924677e-01 -4.379600726242606212e-01 -1.411026235086065839e-01
-4.945576509423747248e-03 1.292510741454863145e-02 -7.749855562492039551e-01 8.706476779492863249e-01 -4.828997046499781676e-01 -9.370430155803748107e-02
-5.078833204918339894e-02 -1.361498122598755189e-01 -9.326396058675631151e-01 9.954724159840609987e-01 -2.226436054594704492e-02 -9.240653258475224618e-02
-5.055899485656105419e-02 -1.612020041935123826e-01 -9.342764893782399271e-01 9.767247574539329458e-01 9.769132339691204148e-02 -1.909585125348332024e-01
-4.649822110402619668e-02 -8.337408919935006268e-02 -9.356740740305228288e-01 9.903202880477484094e-01 -1.181280264596412805e-01 -7.288001403522771648e-02
-4.600723512723013491e-03 1.718762309269846605e-02 -8.239672668139039757e-01 8.849240647386126257e-01 -2.056151810126238266e-01 -4.178896947564489373e-01
-3.951831810966473235e-02 -5.966907460282382114e-02 -8.345440039586854430e-01 9.322974684290845637e-01 -3.434869117904053026e-01 1.133056564757938256e-01
-5.379106368656082909e-02 -2.025563242813682441e-01 -9.365199630985416857e-01 9.586073006387217932e-01 -1.004601102022140979e-01 2.664203622479003331e-01
9.157674947211312186e-03 9.173145870126964141e-02 -8.791052786054476265e-01 8.610667397741024187e-01 -4.575539689279054523e-01 -2.218297436619350027e-01
-2.462352306872990851e-02 -2.062607417497780080e-02 -8.601134839078244942e-01 9.532927119086568313e-01 -2.521320936036058891e-01 -1.663202116307611056e-01
1.053040297370232077e-04 2.207889959407394881e-02 -7.766003539638987041e-01 8.674028859945044356e-01 -4.851226164794592566e-01 -1.107622695168722499e-01
-2.149224962563615893e-02 2.070806964830115837e-02 -9.125018608364372508e-01 9.456697937468544479e-01 -2.923374182581759961e-01 -1.422936227697020883e-01
1.903404569147866821e-01 1.690331017249359358e-01 -7.215792344785354473e-01 1.589978444429009374e-01 -2.868650523585137835e-01 -9.446841414980237106e-01
1.103408403513672469e-02 6.637272921682527138e-02 -8.283743760574274750e-01 8.915339405650001270e-01 -3.493918073242731626e-01 -2.882578668403014133e-01
-4.623402502820381232e-02 -1.302771209851335266e-01 -9.836659473509740126e-01 9.687331544346733381e-01 -2.181286984199289070e-02 2.471442376595164303e-01
2.326464278923066897e-02 6.984924626935457015e-02 -7.982778263512760875e-01 8.671285530310958167e-01 -3.312660673504478348e-01 -3.719554612320762343e-01
1.617723001412483402e-02 4.870737659474650566e-02 -7.659665647632127872e-01 8.715769543760368832e-01 -4.771671535430691558e-01 -1.125394161180721941e-01
8.757408651498099772e-03 3.473832377365249080e-02 -7.640663483785044008e-01 8.678316632110765205e-01 -4.830800160058973947e-01 -1.161976869995208633e-01
2.796879580123860093e-02 8.710713348556019253e-02 -8.040484035117602124e-01 8.732421469909104061e-01 -3.804949023035234523e-01 -3.044204034550537230e-01
-4.398222429425385771e-02 -4.020689427095458512e-02 -9.710963047241863988e-01 9.948020323494154438e-01 -7.486360445864566338e-02 -6.902432296612732998e-02
1.430806950615523196e-02 8.918158923382475678e-02 -8.524893008246789972e-01 8.541972248701803494e-01 -4.648614526173376893e-01 -2.329182923142389117e-01
1.797351479437023503e-01 1.769161023100521146e-01 -7.292219849897914052e-01 7.980602463025655846e-02 -7.546857520826069088e-01 -6.512145683537990948e-01
3.177875967762011644e-02 9.856166143430149240e-02 -8.079835298877493521e-01 8.663995719778934124e-01 -4.185713359665360622e-01 -2.723046426040374168e-01
3.388481350034737438e-02 7.648291542970710177e-02 -7.469441158253491420e-01 8.641775263751474423e-01 -4.933650269747709705e-01 -9.893509522062966799e-02
-5.187620391753433591e-02 -1.470194067425372730e-01 -9.465921118271074519e-01 9.988389546950022790e-01 -2.296059780541021347e-02 -4.235036637638307094e-02
7.067281882599117659e-02 1.153423935424287422e-01 -6.937184420615654101e-01 6.924121716815754279e-01 -6.980360649997560119e-01 -1.825131131367306037e-01
1.024018736419121840e-02 1.009381948330629608e-01 -8.957471990729477529e-01 8.420880690276806302e-01 -4.941840803653705372e-01 -2.160318928183185272e-01
2.830440600334847151e-02 7.231256292605799108e-02 -7.804526936859106367e-01 8.529336071045733325e-01 -5.207347958309541669e-01 -3.659964866601841949e-02
-6.195480278670797286e-02 -2.029233728138734039e-01 -8.888984619916107111e-01 9.861879023104650477e-01 -1.212546314159720501e-01 1.128305618911025349e-01
-5.696811014316412874e-02 -1.590485474398365962e-01 -8.276048156065813899e-01 9.987800473445596072e-01 -3.277784477981970923e-02 -3.693277566051030719e-02
-5.198363882683743747e-02 -1.498315250815047683e-01 -9.544736207299290287e-01 9.994163415061163569e-01 -2.139328553304135211e-02 2.663275548327422027e-02
4.386000208413327189e-02 1.184514969991636996e-01 -8.011968369134278012e-01 8.529674402897435836e-01 -4.282249016961474086e-01 -2.984459404530200866e-01
-1.727121571876172475e-04 7.817699675163021500e-02 -8.960112700499043292e-01 9.254244682801482380e-01 -3.485910201844626410e-01 -1.485727234560932919e-01
-4.946788417963994544e-02 -9.921724942886210596e-02 -8.537569441350455479e-01 9.648814995126036020e-01 -2.395032022733913912e-01 1.078976737427661953e-01
3.222547511252840668e-02 1.070743447128178483e-01 -8.204563506458937283e-01 8.608771563211879974e-01 -4.550179352110118036e-01 -2.277041948683694306e-01
-1.641172570382968751e-02 -7.839349276949340861e-03 -7.718464987150525092e-01 8.670987060065941110e-01 -4.869827491512386808e-01 -1.048219255251117282e-01
-4.291867229592059158e-02 -6.706519224383940270e-02 -7.692798778828798811e-01 9.421264093361597647e-01 -3.269368746020925309e-01 -7.423010748187366947e-02
1.439016654132608403e-02 9.823419819670207997e-02 -8.719766722922577262e-01 8.713046491633607005e-01 -4.530471845586163115e-01 -1.886172232587046693e-01
1.271828704779223995e-01 1.704390527693113444e-01 -7.454855132679829577e-01 4.017025440256629665e-01 -7.279416645421667997e-01 -5.556401705662484813e-01
-4.827985282128638422e-02 -1.218419042216332127e-01 -9.741836595196536885e-01 9.847927532113223137e-01 -1.385527775734889458e-02 1.731798617066385160e-01
-5.390809868777739211e-02 -2.156481718930605695e-01 -9.387644206138830993e-01 9.650059004241897664e-01 1.818275311787444226e-02 2.615970176350515541e-01
-4.543288380149940880e-02 -7.964358471715515808e-02 -8.426109963878334330e-01 9.544635069289788554e-01 -2.808603629408799041e-01 1.005826549140194370e-01
-4.978605105263798902e-02 -2.002878530654191025e-01 -9.703271819091480177e-01 9.521755389291386429e-01 2.939719183958106052e-01 8.332019118851824446e-02
-5.567356936779264270e-02 -1.680915140983010592e-01 -9.015043167717518013e-01 9.824233442579531905e-01 -1.358340153133790473e-01 1.280370764304775977e-01
