2.606555279020963609e-02 3.285655998293855046e-02 -8.309300869353020147e-01 4.612047154439979924e-01 -7.409680551986109753e-01 4.881153056680448965e-01
2.279806026403184346e-02 -6.475745716527193940e-02 -9.356198367245346370e-01 4.529146254138234351e-01 -5.817860819553567486e-01 6.755688691238599386e-01
-7.895132900796417511e-03 -1.248218620339781315e-01 -9.603587256879726475e-01 5.489840326451812524e-01 -4.583003102085733138e-01 6.989830881812234553e-01
-1.062659052107832597e-01 -5.613517824266208572e-02 -8.670271924356717230e-01 4.205139248962214693e-01 -5.934216448335404293e-01 6.863080870945863499e-01
-5.780950621970459835e-02 4.363094413673206454e-03 -8.250409683890309598e-01 2.403523227319868116e-01 -7.965519220909595965e-01 5.547393950050211187e-01
-1.165746770123829712e-01 -2.466182478275468978e-02 -8.315842234895138851e-01 3.622597234478869832e-01 -6.886885578460164581e-01 6.280732147285333911e-01
1.628598894403864711e-02 -3.868033442332830668e-02 -9.065865138314007643e-01 4.402251458420834429e-01 -6.261393676676642039e-01 6.435458905354413117e-01
-6.862184320768846546e-02 4.983204348123061039e-02 -7.420536106705291068e-01 3.130361336388077786e-01 -7.941271858199396849e-01 5.209322333837382857e-01
5.965284510388031702e-02 -3.847958674437617493e-02 -9.378444342302375558e-01 4.814286227284387820e-01 -5.874423652894533721e-01 6.504905446514430700e-01
7.071936332004424841e-02 4.446383004202591332e-02 -8.509465397184897695e-01 3.895981538386642518e-01 -7.409432955479823280e-01 5.470066830560662563e-01
8.051447641457572246e-02 1.203957491226339688e-01 -7.026541745135381767e-01 3.559125311974309924e-01 -9.274481572024230180e-01 1.147440013180105606e-01
4.045536625567815181e-02 1.077809639808262748e-01 -6.490450328905423838e-01 -1.052166032704801059e-02 -9.999166001177781649e-01 -7.489157019686372083e-03
7.657102423195173181e-03 9.909911881365923714e-02 -6.919696670389651194e-01 1.253106729315246470e-01 -9.286957334196712655e-01 3.490293253833370857e-01
5.870242096890101319e-02 2.374062198565339218e-02 -8.681630818993611998e-01 4.054240723262867441e-01 -7.006544565800156832e-01 5.871240533762289715e-01
7.168026885893145385e-03 -1.498348265325594349e-02 -8.755856366962122550e-01 4.487074132608601662e-01 -6.739617563657454014e-01 5.868877305253086263e-01
-4.742780464665672518e-02 8.168993328667570331e-02 -7.046641216878667402e-01 2.496904381154396169e-01 -8.380021054998130214e-01 4.851877536496568832e-01
8.088578413070572626e-02 7.775991173269167223e-02 -5.537186457647027549e-01 -2.466909445463702222e-01 -9.044614940299133821e-01 -3.479841716170385957e-01
5.419083385940259151e-02 -7.618594650146141845e-02 -9.639995452856457980e-01 4.372800599760954809e-01 -4.984383490422949481e-01 7.485621960473917147e-01
-4.053678298624788928e-02 -1.557267639988454133e-01 -9.662063432448658729e-01 2.531069195605059052e-01 -5.136048001642887773e-01 8.198457150700934060e-01
1.015612437869717194e-01 6.569558478922189748e-02 -8.421497808772971938e-01 3.523127601308507217e-01 -7.906776002655165891e-01 5.007041556521633074e-01
-1.261618076088399931e-01 -2.091388043358588522e-02 -8.218049739745655335e-01 3.535939676945620280e-01 -7.349870821452544334e-01 5.785890554526782470e-01
-8.410411172640909483e-02 -5.782476730097738798e-02 -8.808156299773427511e-01 3.446234887295840932e-01 -5.845837481092449606e-01 7.345042494515582332e-01
8.299971296993793879e-02 9.705994620893390601e-02 -5.856051339602325045e-01 6.141191914463060147e-02 -8.596043694869478502e-01 -5.072562509678122389e-01
-2.115647624487786149e-02 9.697977258571445491e-02 -6.852414613822953582e-01 1.747460218533226362e-01 -9.250374171203042950e-01 3.372975018790300150e-01
2.872693174535351224e-02 -7.833593043618068685e-02 -9.508899468184720538e-01 4.436221562152612430e-01 -5.526104012602930382e-01 7.055644031085046564e-01
1.290509525840781956e-02 5.564629125699160905e-02 -7.771427657166731784e-01 5.931814310617746777e-01 -7.185272800597445331e-01 3.631175259519303089e-01
6.740665276881906143e-02 -6.928412072931673660e-02 -9.668469012854865596e-01 4.358776811903846138e-01 -4.724444922132192137e-01 7.660331904150673443e-01
2.966755339649548850e-02 4.584378704080648709e-02 -8.145031433585819824e-01 4.783616313754734950e-01 -7.446967051238446711e-01 4.653997926573294475e-01
-5.104754896308862089e-02 8.564325270385175770e-02 -6.956697122219194229e-01 2.353500056239661298e-01 -8.736076025334128525e-01 4.259344217700913315e-01
7.379613135601019447e-02 8.558299851546433135e-02 -7.812186735885127131e-01 2.632256555484179250e-01 -8.630987327132876308e-01 4.310137258253182169e-01
1.015166233833238452e-01 1.025582843059806570e-01 -7.639088445139164962e-01 2.319874050930183784e-01 -8.262438891639477534e-01 5.133253154651948869e-01
8.477444472622727711e-02 7.286856631899160663e-02 -8.151301475259612461e-01 3.070341665500910255e-01 -8.620233524758212917e-01 4.032936403629954203e-01
-3.038923055602592987e-02 -1.439863840624407490e-02 -8.580051429987554101e-01 1.769841488639082583e-01 -7.317765216392332350e-01 6.581639107612198281e-01
8.577924124508815376e-03 3.366543737747008935e-02 -8.116634351105622702e-01 5.262767047618389649e-01 -7.341147781507223469e-01 4.290784573079096109e-01
-9.279001874877818024e-02 -3.007285225312623933e-02 -8.509306070185840287e-01 3.461733191283377642e-01 -6.706940089696181717e-01 6.559981550705242803e-01
8.811101177601377010e-02 9.742333608721892579e-02 -7.666258102485474790e-01 2.169854820102140869e-01 -8.518911657099251800e-01 4.766536922989058067e-01
-7.857623188006911119e-02 4.674259924212611356e-02 -7.406187616306241228e-01 3.385376290674080302e-01 -7.829186078720749009e-01 5.219489698745177764e-01
9.055167393267279929e-02 7.596635183188002460e-02 -8.126718274042752377e-01 2.595006041886154247e-01 -8.894970493237274178e-01 3.761042882899984230e-01
-7.671641335641035675e-02 4.136379034964605267e-02 -7.500120494728338416e-01 3.434295462936270971e-01 -8.019864813097908884e-01 4.887472051366575365e-01
4.831972768285413417e-02 -2.684501303768718067e-02 -9.175320600111648295e-01 4.602419212847957963e-01 -6.471524710359888299e-01 6.077590419928718957e-01
-6.921874721946180524e-03 -1.716140951778142298e-01 -9.879957035033705148e-01 5.869948745681334845e-01 -3.189138990117755257e-01 7.441309980425814263e-01
8.179064251610664027e-02 8.966485482165552356e-02 -5.734980605421206024e-01 1.395702657624568743e-01 -8.484459814421033697e-01 -5.105482910457571633e-01
-5.029554394667457712e-02 4.991819257759439604e-02 -7.531235663653672585e-01 3.082406339909635196e-01 -8.102296855696393685e-01 4.985133580743572046e-01
3.025853669320614781e-02 -7.255479034615532064e-02 -9.472781398964892352e-01 4.422078156177684516e-01 -5.727642286941875271e-01 6.902125659062676721e-01
3.651525506410533556e-02 -9.912991436098433917e-02 -9.694103253137946741e-01 3.706467681080760079e-01 -5.036575129224597491e-01 7.803525376186076778e-01
5.428752782092312323e-02 1.043199074389832975e-01 -7.252970659400785891e-01 4.232681373344848175e-01 -8.552953802940929107e-01 2.988543062513550619e-01
9.315941313139697311e-02 1.847112964549981612e-02 -8.981140125637080418e-01 3.975555360892028545e-01 -7.325274179509202455e-01 5.525877103908339860e-01
7.144950284419811226e-02 1.169454230097663056e-01 -7.038545109014425760e-01 3.648193626538511203e-01 -9.164162308227248310e-01 1.645847031698521867e-01
3.890559669327892838e-05 -1.107555099166998291e-01 -9.566816596573303189e-01 4.976449430581491029e-01 -4.832236428291173946e-01 7.203085600349404816e-01
-8.479172752487292020e-02 1.158712790121784603e-02 -7.981784114995651436e-01 3.092092724372967338e-01 -8.265361470560447232e-01 4.703484064483966498e-01
-4.766239704701523416e-02 -1.900037005880871781e-03 -8.376554368538484674e-01 2.200607130277604517e-01 -7.611639424209991622e-01 6.100842034832858474e-01
6.798643124987011066e-02 -1.960717053388262403e-03 -9.048938314412059425e-01 4.529590728392947629e-01 -6.784745224025240384e-01 5.783600961193928747e-01
-5.813685502485452933e-02 6.789361571518112183e-03 -8.213057226547109124e-01 2.512427028294139664e-01 -8.029377321432836778e-01 5.405257649507294593e-01
6.943508656940214352e-02 -1.431159179230364481e-02 -9.203890193049161228e-01 4.601843112307059669e-01 -6.648248085344068414e-01 5.884202355921406280e-01
9.530889452770313630e-02 9.027789589546089677e-02 -7.830529287433256602e-01 2.127078704207645554e-01 -8.597307177818274138e-01 4.643473427978318524e-01
2.084658589924908920e-02 5.994284111290591743e-02 -7.799804876627658423e-01 4.975003484242137564e-01 -7.693848442379179753e-01 4.006748866285242405e-01
1.108901512342825441e-02 -1.218450308591027681e-01 -9.708729417506997139e-01 4.279008798772669930e-01 -4.658474174948229463e-01 7.745237379278085976e-01
7.097829197617797070e-02 7.796395133031799873e-02 -7.946274623221539768e-01 3.080250701376907041e-01 -8.545343853197703288e-01 4.182003592452220864e-01
-7.877503475781684472e-02 -1.733064626795293925e-02 -8.438462980371567168e-01 2.932352692995175425e-01 -7.220209384414990605e-01 6.266568768400269107e-01
1.452902632917721544e-03 -3.822463036137684067e-02 -8.958258846543841747e-01 4.479931706870124986e-01 -6.377053996577163320e-01 6.266050927539527082e-01
-7.693126575279320145e-02 -1.097499671263123810e-01 -9.203963627582523177e-01 4.255887223448499013e-01 -5.004443377814101757e-01 7.539427724936449415e-01
-1.976713748213760821e-02 -1.089280027032576009e-01 -9.419241340554471709e-01 9.450843233595235260e-02 -5.645023276879199692e-01 8.200032184402211710e-01
-3.745030785387828964e-02 -3.107292579822852271e-02 -8.738240338004598096e-01 1.770947299277960407e-01 -7.081913508042257943e-01 6.834489500159371955e-01
-5.179432313727821979e-02 -9.903584462078028616e-02 -9.251346212491871057e-01 2.835809536376844853e-01 -5.442607891689151822e-01 7.895327960934688249e-01
-4.874158822592652290e-02 -4.237575352101660697e-02 -8.815875571523147380e-01 2.241714327345347146e-01 -6.726355934048390273e-01 7.052010544735920483e-01
-3.599947146979398660e-02 -4.888588403867190346e-02 -8.910920490970919428e-01 1.893979079405819221e-01 -6.425497978438832192e-01 7.424676354956597502e-01
-2.893860849119572407e-02 -6.844576934324574091e-02 -9.094789440964974325e-01 1.862278986761700950e-01 -6.291918167242074311e-01 7.546103812709904490e-01
-1.825645125143241995e-03 -1.296769044141482530e-02 -8.660963741367203594e-01 4.962128282379810185e-01 -6.620292341475378928e-01 5.616850738857928071e-01
-4.992524510012804478e-02 3.919237833735489396e-02 -7.710963181712351400e-01 2.884747973716978997e-01 -8.256630376907035940e-01 4.848327953766306542e-01
-4.040782241485904591e-02 -1.956782294673321820e-01 -9.852462059324980093e-01 3.422183640275213157e-01 -1.038611063074115909e-01 9.338626568821173368e-01
-4.164254606058642033e-02 6.553756449751828306e-02 -7.335400837740482238e-01 2.851836944212638447e-01 -8.021028408976634827e-01 5.246916171048828792e-01
1.693504159992005598e-02 -2.262031207479842793e-02 -8.906874810251166341e-01 4.338563246357144965e-01 -6.553342577968728211e-01 6.183087417556147880e-01
2.308015598561988929e-02 -1.636814647406276690e-01 -9.961379700445127661e-01 1.540345740410465347e-01 -3.696220190679235795e-01 9.163257679559955182e-01
3.921284046079183405e-02 -1.036783258920617456e-01 -9.732988668768534080e-01 3.521597763753934740e-01 -4.518497632750121951e-01 8.196433879020486035e-01
-1.260604569893607751e-01 -2.869106605205971883e-02 -8.302766247696633517e-01 3.828402860624968707e-01 -6.711533585075726283e-01 6.348121649209247375e-01
-1.105067329539239640e-01 -9.933612031055394365e-02 -8.935392592131293776e-01 4.697126297546252993e-01 -4.667127351237045363e-01 7.493659108355177345e-01
3.620509358700176733e-02 3.940209156159526355e-02 -8.306266174280024783e-01 4.552011207646927682e-01 -7.367400591471024995e-01 5.000060248661927220e-01
4.782866866197271055e-02 1.074337542228729070e-01 -6.440787101109937129e-01 -1.896912210488308492e-01 -9.787154743492545439e-01 7.831513855135220636e-02
5.928434890303038718e-02 1.059265314963558774e-01 -6.172038402450898964e-01 -2.549263747688767026e-02 -9.940454586527769365e-01 -1.059422086151810133e-01
-4.625725683832794879e-03 8.931465973112690665e-03 -8.360953527224910253e-01 1.879552885676420704e-02 -7.624418351253492432e-01 6.467837166670820093e-01
2.110984975600473448e-02 -1.634389870963807445e-01 -9.956949204471987613e-01 1.597131383566017526e-01 -3.747924968106554622e-01 9.132482125746098633e-01
2.584674516530074614e-02 -5.477612086458424207e-02 -9.286510293309405695e-01 4.520959478650236618e-01 -6.077773041577250179e-01 6.528522056903800497e-01
8.434823566993808475e-02 1.160178772702966238e-01 -7.259960590306708816e-01 2.826565352379227791e-01 -9.111488735784297743e-01 2.998549870588306243e-01
-7.615831585572913932e-03 -1.350276436145428664e-03 -8.478705202642258243e-01 5.032016995293060041e-03 -7.399398282667624116e-01 6.726542420512289233e-01
1.045610139726061566e-01 1.044388058848904344e-01 -7.622578267975003152e-01 2.319874050930183784e-01 -8.262438891639477534e-01 5.133253154651948869e-01
-6.692679130929256315e-02 -2.449534100555108770e-02 -8.573542558235323074e-01 2.537082252900993429e-01 -6.967931089669203715e-01 6.709034950843242306e-01
1.239616765590900033e-02 6.269753254563346923e-02 -7.630171775621159558e-01 3.583583075609322877e-02 -8.402466278344743467e-01 5.410188514708290652e-01
6.693926214006948316e-02 -3.966043253343836533e-02 -9.442285237599989944e-01 4.640811755606524813e-01 -5.766783461309021863e-01 6.723620658499185332e-01
-9.165202533962012177e-02 3.469138550664180244e-04 -8.130938226611853503e-01 3.005850444737160898e-01 -8.042000523068327800e-01 5.127483855736862939e-01
4.368667748093294639e-02 1.070997517129493315e-01 -6.782603869526223628e-01 5.216752971202626155e-01 -8.530293626151685960e-01 1.399252982291299997e-02
4.618069372820917534e-02 1.068208947072668835e-01 -6.541599768316541663e-01 -2.216661882897432434e-01 -9.660248398798186864e-01 1.328913454829430685e-01
-1.396199628002047291e-02 6.007269752634798732e-02 -7.567199426173529808e-01 2.497879525318388305e-01 -8.235991781790095168e-01 5.092056288699210453e-01
-5.162223967250854917e-02 -1.535020341996582056e-02 -8.526597944394549433e-01 2.079859437872901562e-01 -7.375890514146652421e-01 6.424206086514694380e-01
9.973238710404894181e-02 1.160211785005345192e-01 -7.392851377353572007e-01 3.011400432301800101e-01 -8.524255098628478189e-01 4.274171551287913040e-01
-2.283186710419858947e-02 8.949025197275131682e-02 -7.023529897453723025e-01 2.076676349444936676e-01 -8.876441751751972253e-01 4.110498408637378587e-01
5.777669121672709268e-02 6.021930246462580544e-02 -8.172867297259635011e-01 3.752808908272278199e-01 -7.987412274548556512e-01 4.702942744110680251e-01
-2.812204316323054301e-02 1.912781252270081417e-02 -8.155886422662239621e-01 2.229616910698972165e-01 -8.009544669122182770e-01 5.556617912441128571e-01
1.822150682129806618e-02 7.041791103309555377e-02 -7.548497776055695940e-01 5.954714066538362438e-01 -7.322647988142427788e-01 3.304573622651465481e-01
6.751538480263453990e-02 1.102942172041858071e-01 -7.250505387012209368e-01 3.389824175564611908e-01 -9.005514470433567675e-01 2.722094998630526508e-01
1.267180543878718840e-02 -4.011133703021971947e-02 -9.055078535926410765e-01 4.391743955451499759e-01 -6.263637987485530800e-01 6.440452172905518635e-01
8.514479326159929071e-03 9.299236843793404206e-02 -7.077073391310737538e-01 1.364405574685927103e-01 -8.965489844223797355e-01 4.214070393442181373e-01
2.200622289328117709e-02 -1.562743206751117109e-01 -9.928462110257316731e-01 1.850933894565495452e-01 -3.831078777552142656e-01 9.049689448712490147e-01
4.062662988843016715e-02 5.238175191636042921e-02 -8.147097204984223850e-01 4.515458589244422116e-01 -7.679339465747101467e-01 4.542948282628563317e-01
-2.837241474166590435e-02 -3.951630638009821089e-02 -8.841707177405163653e-01 1.500452135602128589e-01 -6.812895946138765035e-01 7.164711593347842244e-01
6.580689633605998901e-02 9.025693957123889777e-02 -7.669322331392094405e-01 3.000761538078148827e-01 -8.422904469837424468e-01 4.477734972459135876e-01
5.900332359617543876e-02 9.934908844288214969e-02 -5.948156411609949457e-01 -2.324183592517918562e-01 -9.198039867397211911e-01 -3.161365721652903416e-01
4.077377642659385515e-02 6.839730254959545952e-02 -7.865474937663988753e-01 4.332205377574675498e-01 -7.976455365916351736e-01 4.196207378342653449e-01
-1.108910541378251360e-02 7.278149482860292452e-02 -7.372985861484627756e-01 2.511656477548487310e-01 -8.290164820295141679e-01 4.996473655602473030e-01
-7.196669987853904216e-02 -1.480484164929582180e-01 -9.490848175958063182e-01 3.391417544777099446e-01 -5.441015882784454583e-01 7.674218735497793098e-01
-1.465179242509046138e-02 -6.710829334568915727e-02 -9.105638997873570784e-01 2.591969143344687032e-02 -6.410793999039235969e-01 7.670367478907512693e-01
-1.221880008584089183e-01 -5.690063440696636193e-02 -8.577914772745733885e-01 4.160640032267311494e-01 -5.661716374238577876e-01 7.115760129429142822e-01
-9.515625903704659494e-03 -1.825453823746466253e-01 -9.901488453747007146e-01 6.765181388562112597e-01 -2.227622057604471961e-01 7.019260698131023490e-01
-2.666248873512727310e-02 -2.231017060248502437e-02 -8.674197700192602944e-01 1.510518308871997284e-01 -7.053184890990478184e-01 6.926104051489995195e-01
2.419684832695536900e-02 -7.548456898365465961e-02 -9.457850679106908354e-01 4.507196689666793654e-01 -5.519126632458489778e-01 7.016011631656841052e-01
-8.603870160011183044e-02 4.380430911675494560e-02 -7.402154342240959695e-01 3.271945402564995775e-01 -7.834320527885485497e-01 5.283729284225855416e-01
8.763725116757130340e-02 8.536428075563809448e-02 -7.896305473439590994e-01 2.031269838828704544e-01 -8.845551423600400698e-01 4.198828747913605497e-01
1.397698276017785186e-02 -1.660045948885823797e-01 -9.953219991031696523e-01 2.364287143951371295e-01 -3.987470705497149215e-01 8.860599509838389398e-01
9.684393029771007355e-02 1.227725696430831542e-01 -7.178948313899119471e-01 3.441453209908121869e-01 -9.022989963673104796e-01 2.596546152000288044e-01
2.712389440514022601e-02 -7.489640776919471998e-02 -9.471881460034098366e-01 4.436221562152612430e-01 -5.526104012602930382e-01 7.055644031085046564e-01
-7.275256649526856689e-02 6.849944956252788930e-03 -8.138596574336927070e-01 2.741752899366182716e-01 -8.316810542738150014e-01 4.828400711935236234e-01
-3.240766853914264084e-02 3.909060973221586271e-02 -7.813668208278449212e-01 2.707500053834653864e-01 -8.256925991412850108e-01 4.949001579189105660e-01
-1.246850219888442773e-01 -5.466040662902023339e-02 -8.545489929932800210e-01 4.160640032267311494e-01 -5.661716374238577876e-01 7.115760129429142822e-01
1.587954733172087032e-02 -8.987936426568152171e-02 -9.518402215536160282e-01 4.433398864150605023e-01 -5.568173478082092398e-01 7.024273530361077045e-01
-8.255447004946829537e-02 -1.311506285445963003e-02 -8.371224855484598049e-01 2.848982381641038675e-01 -7.630369087733300804e-01 5.801789980175346972e-01
-6.701377361035232294e-02 2.274824150206707779e-02 -7.893003197345858091e-01 2.976599003232180407e-01 -8.355518966255179869e-01 4.617917407068597990e-01
5.880887828946308044e-02 8.287183419798273276e-02 -7.757274066447503724e-01 3.745635405541011820e-01 -8.262676288134838121e-01 4.206946156804471926e-01
-6.534791403675348220e-02 -3.826198849520832945e-02 -8.719783458183638647e-01 2.641884551163445893e-01 -6.567459130052515359e-01 7.063209369218342859e-01
2.401181947745216136e-02 -9.267292987052930253e-02 -9.587024692804979598e-01 4.239424877409861958e-01 -5.046234949790701085e-01 7.520823727512113699e-01
4.431004512964278885e-02 8.098041209570681909e-02 -7.661239308829106420e-01 4.178309671095188360e-01 -8.110260798858410780e-01 4.094557127081387415e-01
8.941830268285979808e-03 6.621086902978252919e-02 -7.567100571108610341e-01 1.707737935546408958e-01 -8.412440009726220858e-01 5.129764539065435613e-01
6.862278629100299066e-02 1.049056778756076724e-01 -7.398869329725217270e-01 3.412841461348805616e-01 -8.427723538113111035e-01 4.162449894573237996e-01
4.090428871687999679e-02 3.800858937399256843e-02 -8.367011337270436888e-01 4.356321299331921693e-01 -7.365963922542003717e-01 5.173494005872305568e-01
-1.216730195761491287e-02 5.278251239757443536e-02 -7.694864923058504225e-01 2.551366836722853138e-01 -8.226326863144926005e-01 5.081148846980473310e-01
4.583435273971278590e-02 4.789604000875290896e-02 -8.265077398596148983e-01 4.323248248837373020e-01 -7.571603414148424527e-01 4.896973179197587345e-01
3.778265345949982472e-03 7.719804466500639062e-02 -7.363885979354914957e-01 1.925180520512967952e-01 -8.525990664714406808e-01 4.858102834300672690e-01
-1.893813573239748124e-02 -1.527905534921824016e-01 -9.697307380566507762e-01 1.012432346888454959e-01 -5.031501371446237547e-01 8.582480684051001507e-01
-1.230816016167568666e-01 -9.832218022868184984e-03 -8.092761844672933247e-01 3.271767648646714544e-01 -8.013608209924627523e-01 5.007755975593993769e-01
6.306187326833256890e-02 9.477776004591599579e-02 -7.564245984843473991e-01 3.156396641138829451e-01 -8.446863773134869469e-01 4.322921771430671134e-01
-5.079236277956940271e-02 -6.387886979854709435e-02 -8.996313367382684500e-01 2.454514727213811531e-01 -6.041991276545018996e-01 7.580877183284556731e-01
7.274698016922356847e-02 5.778027317952248026e-02 -8.334985120855374907e-01 3.843376246258200513e-01 -7.722389808662492028e-01 5.058967747748931432e-01
-2.633922619240699863e-03 -1.265199794347757478e-01 -9.652634621484015298e-01 5.105991315676595699e-01 -4.516610163522608579e-01 7.316357380213153183e-01
5.878871092905722101e-02 1.135247418332150232e-01 -6.889082452315562488e-01 3.953798169188654787e-01 -9.158649468328152743e-01 6.975815032043744535e-02
-1.124899867668319731e-01 -1.637314436334163029e-02 -8.243257430712289668e-01 3.420101878884754809e-01 -7.438315454556667650e-01 5.742331089074576012e-01
2.275812998913107760e-02 -3.134926670732523374e-02 -9.036864797524952753e-01 4.357090900098213870e-01 -6.422160875382464384e-01 6.306473545412530912e-01
5.219526239136054735e-02 7.655226331806609663e-02 -7.822509925360751071e-01 3.745635405541011820e-01 -8.262676288134838121e-01 4.206946156804471926e-01
6.592626158756689780e-02 7.898960771747866316e-02 -7.888106077658075810e-01 3.080250701376907041e-01 -8.545343853197703288e-01 4.182003592452220864e-01
6.927796545205418266e-02 -4.831848573918164774e-02 -9.533069088993255669e-01 4.662085730178439080e-01 -5.624977540448885538e-01 6.828219703107990535e-01
3.464611885812606679e-02 1.038479422114927872e-02 -8.668763012155829006e-01 4.304273243857419939e-01 -6.845278417403097837e-01 5.883484956252412745e-01
-3.939193614918866165e-04 -9.808075451674348744e-02 -9.472790818451607420e-01 4.848433853788205461e-01 -5.136307138096821712e-01 7.078915040355837629e-01
-6.019523027502526186e-02 -1.476783081453707513e-01 -9.539095941945565649e-01 3.262953600226216611e-01 -5.512443532755437747e-01 7.678938735330130827e-01
-2.516923539118769843e-02 -7.366395309732205743e-02 -9.147055535449192254e-01 1.445097696525526054e-01 -6.084953573838529639e-01 7.802886174469437774e-01
1.063903321090966907e-02 7.089705634527459187e-03 -8.523855637781051486e-01 4.677968795455739737e-01 -6.829159878411381612e-01 5.610631274984895223e-01
-5.157295525824942550e-02 -1.308524531211983644e-01 -9.463358733101342457e-01 3.106288500122696972e-01 -5.278999022633109606e-01 7.904627826346043440e-01
-9.139691662729110266e-02 -1.208248874768346783e-02 -8.309141594255585739e-01 3.178041666089684303e-01 -7.571137027017675880e-01 5.707708409398632998e-01
-1.000595571040387571e-01 3.469386445762213944e-02 -7.447478046739971491e-01 3.416482751747431101e-01 -7.878297958130597856e-01 5.124457716668910923e-01
-1.352541967215876821e-02 -2.801276428805513433e-02 -8.753729187083075791e-01 4.738788783555098610e-02 -7.023626090645535003e-01 7.102402082918979342e-01
8.143455339757202371e-02 1.222907078044954132e-01 -6.830484928520772492e-01 3.440462933321908889e-01 -9.387093198698496233e-01 2.137664224952981126e-02
-1.522813545878677101e-02 -4.982732019698549869e-02 -8.957361450220450161e-01 5.234726864288545556e-02 -6.627082735810708725e-01 7.470458537418075418e-01
-6.059337951782658993e-02 4.439449541549741335e-02 -7.557495380106969973e-01 3.146074631629721119e-01 -8.105884226613073729e-01 4.939317292598367493e-01
-1.077512038646571829e-01 -5.009280044875091126e-02 -8.609804307846152804e-01 4.006813755495260976e-01 -5.866364852383643136e-01 7.037841071485756439e-01
6.043063158717437711e-02 9.191251956569912451e-02 -7.597738101732419702e-01 3.659990790245913894e-01 -8.356113416898889312e-01 4.096319809199161499e-01
-1.996138937569624794e-02 -1.794507984179074256e-01 -9.841487418621890360e-01 7.766920155195512765e-02 -4.528264576439474665e-01 8.882092627235520510e-01
-1.214953438033620076e-01 -4.280297437071604177e-02 -8.465098349595631122e-01 4.103647250994872375e-01 -6.274736634076458763e-01 6.617232005331313838e-01
-4.777241621870541993e-02 6.509853506228982511e-02 -7.308794880731233068e-01 2.851836944212638447e-01 -8.021028408976634827e-01 5.246916171048828792e-01
3.911375237114762815e-02 -6.997095451402127533e-03 -8.896540312893429503e-01 4.317521414462993645e-01 -6.602823161831092857e-01 6.145057780789399127e-01
8.998751584109938861e-02 1.217144091786219462e-01 -7.129423214275719678e-01 2.950961352882495725e-01 -9.279757421535214101e-01 2.275506381282205171e-01
1.469790075054965006e-02 -1.375677655925731935e-01 -9.817246305758621228e-01 3.439087920390103137e-01 -4.469269162574670551e-01 8.258226651544868790e-01
3.567239693141859014e-02 -1.115810604453632005e-01 -9.761343035678139435e-01 3.521597763753934740e-01 -4.518497632750121951e-01 8.196433879020486035e-01
5.836876701283193886e-02 -7.116861897352864952e-02 -9.629953592519456818e-01 3.923476188565936384e-01 -4.950775803552230347e-01 7.752170892125500590e-01
7.097169431021148334e-02 1.299459686597118080e-02 -8.893459902218628921e-01 4.099664179058630231e-01 -6.951008435204620861e-01 5.905610497878923670e-01
2.710977088562848900e-02 3.399513973353454621e-02 -8.302419525178259541e-01 4.748443737286639488e-01 -7.301601317680310732e-01 4.913135482710859758e-01
-1.630560077281073897e-02 4.580646388664123825e-02 -7.787068092297831923e-01 2.544257264531973317e-01 -8.229932320535151558e-01 5.078874774129321645e-01
-8.561807152279733713e-02 -3.073319936839306529e-02 -8.553904177776040507e-01 3.461733191283377642e-01 -6.706940089696181717e-01 6.559981550705242803e-01
-4.020513667887359865e-02 -6.835064730633218233e-02 -9.063835945495106738e-01 2.055005698434666794e-01 -6.108313161004995662e-01 7.646271111234167472e-01
7.845955857085877561e-02 1.001826988479767033e-01 -7.564894165245964475e-01 2.693219920175772275e-01 -8.489572618557695849e-01 4.546836616352500360e-01
-8.798981254007957886e-02 -1.626598174719106130e-02 -8.380320186269060168e-01 3.277975321532228259e-01 -7.073294705517867431e-01 6.262857159501453719e-01
-2.068472914873458607e-02 6.762449570341821925e-02 -7.410315113075847115e-01 2.511656477548487310e-01 -8.290164820295141679e-01 4.996473655602473030e-01
9.073143432165332867e-02 1.234311613735838836e-01 -7.062675245151758263e-01 3.132564376704344289e-01 -9.379700334858541710e-01 1.486022225290551946e-01
7.685606842048067766e-02 1.192002729159228058e-01 -6.602276117745602413e-01 3.033310079147715776e-01 -9.422872991928343822e-01 -1.417213654227282016e-01
1.428262874087309932e-02 1.880859021856554677e-03 -8.615834732497777981e-01 4.389983165086420724e-01 -6.909502725740127582e-01 5.743415350925576979e-01
9.001443187214117070e-02 1.457037650693414343e-02 -9.008295601562591459e-01 4.008942333332254915e-01 -7.174113492643688916e-01 5.697409671305403434e-01
-2.541301121864093945e-04 -1.590804317147146429e-01 -9.861620093112224428e-01 5.023351506395210553e-01 -4.271061416732852556e-01 7.518242747989248853e-01
9.642679425356785738e-03 3.052800503575009081e-02 -8.180951406699397133e-01 5.175465302023294356e-01 -7.258329867019249759e-01 4.531137434363390337e-01
-8.483587192135276511e-02 5.289204293183649708e-02 -7.277856432155463962e-01 3.312681216659260075e-01 -7.678619296922084558e-01 5.483151361190816697e-01
-9.720112039243379576e-02 -7.880811614727631365e-02 -8.887131753141814805e-01 4.427454541500550622e-01 -5.050281546244308473e-01 7.408933970998143881e-01
5.916361651137636013e-02 -3.076104682915971680e-02 -9.297883488129784491e-01 4.743557208355084764e-01 -6.208464623494228674e-01 6.241284485575320229e-01
-8.916653032401841705e-03 -2.164748576583220424e-02 -8.692157187584362843e-01 5.520153315856339837e-01 -6.239348878748618432e-01 5.531585029509952234e-01
-1.291496603067710837e-03 6.361476781899694233e-02 -7.569032552480059461e-01 2.260064937725098644e-01 -8.358491771522680303e-01 5.002771410193882495e-01
-3.395485696454461633e-02 -9.741889710269618918e-02 -9.302437503900830018e-01 2.457979543671217071e-01 -5.654046519706451557e-01 7.873378850016631292e-01
3.371146932069533225e-02 -5.310918065229360691e-02 -9.325377240954492164e-01 4.554490053562729179e-01 -6.061736017960613898e-01 6.520120919166851881e-01
-6.123780165310087342e-03 1.012161584622889993e-01 -6.786795248514614354e-01 1.259014099979773593e-01 -9.581706354099682743e-01 2.570172531146090456e-01
-2.428535519752253458e-02 -1.924858429650549985e-01 -9.889990488574079697e-01 1.626268665567922600e-01 -2.761516966239341286e-01 9.472553735533211228e-01
4.236703553121495824e-02 -4.443083187828468505e-02 -9.306721396405901459e-01 4.655476276811240099e-01 -5.987985557454995611e-01 6.516944805639995897e-01
9.220270288724052854e-02 5.656568069087091616e-02 -8.497129177924187537e-01 3.803857091802964052e-01 -7.414925471761228959e-01 5.527164867576037643e-01
-3.942109798219609051e-02 7.697416678896948361e-02 -7.167449011028582673e-01 2.656111035110714780e-01 -8.169761797274028847e-01 5.118600037604514874e-01
8.748582131204792056e-02 1.245250241531305480e-01 -6.808531098960695083e-01 3.087639454799062100e-01 -9.484225560285916012e-01 -7.182952866248555612e-02
-6.112293219681103583e-03 7.871043790064702339e-03 -8.372802217660129109e-01 7.307232803542144939e-02 -7.671530633434142654e-01 6.372884843446484648e-01
-3.182780998294629932e-02 -4.956980013432515236e-02 -8.927366106705659776e-01 1.538481698640010997e-01 -6.521019573244063450e-01 7.423569073452309652e-01
-4.446037857336294918e-02 -6.067676689697257264e-02 -8.991095899748957621e-01 2.055005698434666794e-01 -6.108313161004995662e-01 7.646271111234167472e-01
5.265751465447944535e-02 -5.712940621438262340e-02 -9.491127097696901993e-01 4.350379253879405606e-01 -5.569617339410346535e-01 7.074854276941345832e-01
4.462667089790871983e-02 -3.125593704311359095e-03 -8.892757746404418295e-01 4.323424475491100538e-01 -6.727051568249639013e-01 6.004563098413953082e-01
6.303115688141358586e-02 8.894325797938885947e-02 -7.675431854116272490e-01 3.000761538078148827e-01 -8.422904469837424468e-01 4.477734972459135876e-01
-4.178092644048790605e-02 -1.400729206890052037e-01 -9.559618607419089198e-01 2.827049505526227358e-01 -5.170734791879222358e-01 8.079065094759024790e-01
5.383810653360104025e-03 -3.943156006432266270e-02 -8.998366880355570530e-01 4.373655686430866218e-01 -6.404512993707358604e-01 6.312950914586977769e-01
1.719609788163256256e-02 1.161431653103931708e-03 -8.646758781622031487e-01 4.389983165086420724e-01 -6.909502725740127582e-01 5.743415350925576979e-01
-8.721891110218740750e-02 -8.569417392092272545e-02 -8.990953397919998480e-01 4.245061676984294707e-01 -4.978610486954640479e-01 7.562598030953685546e-01
-1.002357332556636782e-01 1.552527232458631064e-02 -7.792077892180183651e-01 3.137505222136143246e-01 -8.505936702289179641e-01 4.219609199643765129e-01
1.528428748468243711e-02 -1.202267926890912726e-02 -8.782047884689334616e-01 4.354780813206539647e-01 -6.735592509676994188e-01 5.972242260031935812e-01
-3.067800433817698645e-03 3.372022278828272490e-02 -8.031724140919177524e-01 1.892908186139584392e-01 -8.160966707542181009e-01 5.460359053874925817e-01
6.637645057784183344e-02 1.158937489628445588e-01 -6.621677526006780612e-01 3.346397558871859190e-01 -9.386564288060792460e-01 -8.330871767577820164e-02
-2.697443598955447455e-02 9.221609330044479302e-02 -6.946867455558789484e-01 2.226160735270971691e-01 -8.830498733099538811e-01 4.131162125294194354e-01
-5.256485246952622391e-03 9.759509210564452572e-03 -8.351050590485170622e-01 7.307232803542144939e-02 -7.671530633434142654e-01 6.372884843446484648e-01
8.011866452729092536e-02 2.691336426935915863e-02 -8.787158523386712217e-01 3.868400916826776892e-01 -7.057180445478533626e-01 5.935627894894455192e-01
-2.767411505326026252e-03 -1.788244640513118044e-01 -9.940975676770344993e-01 5.467590722455936136e-01 -2.643000210298745434e-01 7.944809725857162608e-01
8.474578015980578638e-02 1.228572109220781444e-01 -6.953408070931444973e-01 3.448524531215065858e-01 -9.317433020227056106e-01 1.137154550265905700e-01
1.927365374866413586e-02 -6.052236516376443415e-02 -9.294491041393617703e-01 4.496252470844609994e-01 -6.082327544640971917e-01 6.541330549523198812e-01
6.252103056190220186e-03 4.036228491756639961e-03 -8.524501979131321461e-01 4.545819165101503412e-01 -6.917020339774143656e-01 5.611627013384501428e-01
3.556862117499316744e-02 -3.881798651111506571e-02 -9.201747058772867804e-01 4.625441028915969754e-01 -6.248588016325810068e-01 6.289709300933570280e-01
5.384194554907763969e-03 -1.807147759694411604e-01 -9.986116238880873297e-01 2.545281192664973213e-01 -2.843214744173919728e-01 9.243250162620180177e-01
-1.481799504612958630e-03 7.098790538949401041e-02 -7.446717322266468431e-01 2.146790695919120195e-01 -8.380531405261398836e-01 5.015773427233581883e-01
-9.162996155344939331e-02 4.018141725508738576e-02 -7.419567033219794938e-01 3.459500427698105618e-01 -7.721072545600000669e-01 5.330749997546178065e-01
-4.432830953674554014e-02 4.600336029941646393e-03 -8.302927587882285021e-01 2.136299191010692378e-01 -7.899449188924998477e-01 5.747601958911148223e-01
2.050775244049015539e-02 -9.645388121283311744e-02 -9.594239436658364983e-01 4.365227634157933245e-01 -5.170230700182454342e-01 7.362981882965269342e-01
-8.473656829377480826e-02 -5.494101099758788402e-03 -8.258842311513276968e-01 3.132247889229698989e-01 -7.548300245037407041e-01 5.763001524482213034e-01
4.102551846519019579e-02 6.393174790488530268e-02 -7.950692849598191003e-01 4.368187016729944139e-01 -7.875969829829709834e-01 4.346037439609112263e-01
-7.865456449499021174e-02 -8.087983484645684673e-02 -9.006105169770304286e-01 3.777368604040876598e-01 -5.230485181500612590e-01 7.640255963991571253e-01
-1.149028192032501977e-01 -3.871030154422515357e-02 -8.467173161746071042e-01 4.103647250994872375e-01 -6.274736634076458763e-01 6.617232005331313838e-01
7.977180850313684429e-03 -8.259017201618864840e-04 -8.598408076541872447e-01 4.545819165101503412e-01 -6.917020339774143656e-01 5.611627013384501428e-01
1.272811576170376768e-02 -1.505389568716036242e-01 -9.876987134195650553e-01 3.221025915363444625e-01 -4.302503634665055809e-01 8.432879373396200418e-01
-1.202991216492281940e-01 4.292674333174698455e-04 -7.939677286231006104e-01 3.247781793566777986e-01 -8.396917520653919276e-01 4.352434901605239936e-01
-6.313927091617704823e-02 2.519299298942038676e-02 -7.873742726057991748e-01 2.976599003232180407e-01 -8.355518966255179869e-01 4.617917407068597990e-01
-1.200744050376841704e-01 -4.420440734489608503e-02 -8.487199213327042413e-01 4.103647250994872375e-01 -6.274736634076458763e-01 6.617232005331313838e-01
1.293571722735270199e-02 5.927064967290668340e-02 -7.694358551389608447e-01 6.535732935457072568e-01 -6.908211335089144978e-01 3.092056135668875272e-01
-1.983232101359997182e-02 8.909334779282007677e-02 -7.047013783254298946e-01 1.910870553533338678e-01 -8.866132857866599881e-01 4.211919025135389405e-01
-2.665238786419209943e-02 -1.728729749023384665e-01 -9.797856961658999442e-01 1.803006947263026682e-01 -4.757730443503497275e-01 8.608900450991477937e-01
-3.476234592911579130e-02 -1.654794317674021242e-01 -9.737224022017628711e-01 2.063113195068770334e-01 -5.100127860830981907e-01 8.350584395568295681e-01
3.155495738188610760e-02 9.710489681171763365e-02 -7.037646708023895803e-01 6.672918060403628671e-01 -7.408933105945505471e-01 7.614951022585582374e-02
-3.749865579596989990e-02 -3.755674151891845447e-02 -8.801627260364316419e-01 1.813653583090672761e-01 -6.790838531230711794e-01 7.113028379199304307e-01
9.029874075876215267e-02 3.789644761951611179e-03 -9.151108583582092670e-01 4.279740910604894477e-01 -7.140464110293436306e-01 5.540540589843752084e-01
9.341436904721363288e-02 5.158603421580497395e-02 -8.572005443450237960e-01 3.790739570692943650e-01 -7.407758434516032997e-01 5.545755898255825267e-01
5.008650910849599125e-02 8.325030322123667947e-02 -7.675363086658497647e-01 4.233039873426933108e-01 -8.071586117600424437e-01 4.114713960427601180e-01
3.286635190041352437e-03 -7.438457131453479754e-02 -9.307299260718598921e-01 4.682190989515122581e-01 -5.789934479431894099e-01 6.674859269047481725e-01
4.177762865289104399e-02 1.077388413936498784e-01 -6.452786973367876655e-01 -1.052166032704801059e-02 -9.999166001177781649e-01 -7.489157019686372083e-03
1.023906382843565027e-01 9.193813821128314634e-02 -7.831104732097426968e-01 1.963484058389329545e-01 -8.624030908741705526e-01 4.665921263536139119e-01
-5.213507153781535286e-02 -8.960732720854426570e-02 -9.185112394460572816e-01 2.819985137882841109e-01 -5.711427772342819731e-01 7.708908912643283040e-01
7.235284792442409074e-02 1.153973779073686340e-01 -6.457286314329954147e-01 2.902751707384374491e-01 -9.379872075633497452e-01 -1.895265778203163165e-01
6.238584016984526776e-02 5.976257357410603988e-02 -8.218624310560196378e-01 3.895084730995763134e-01 -8.041178568485006783e-01 4.490853167060916973e-01
4.322416832539810461e-02 -1.165353173260130597e-02 -8.975519132577629566e-01 4.344120961708319850e-01 -6.597519654463418481e-01 6.131993760516661895e-01
6.570099973661130965e-02 -2.896975833913120746e-02 -9.330627864076533884e-01 4.813401650260356046e-01 -6.197998060247209562e-01 6.198062971480903238e-01
-2.574720656399120608e-02 -2.635776728029058311e-02 -8.717412468534940784e-01 1.510518308871997284e-01 -7.053184890990478184e-01 6.926104051489995195e-01
6.592663678155540052e-02 -5.555334010744262391e-02 -9.564199805086297523e-01 4.344862064878992625e-01 -5.364817737855008817e-01 7.234701395135236801e-01
-8.800422815896433160e-02 5.055898664109412938e-02 -7.291386784265364573e-01 3.312681216659260075e-01 -7.678619296922084558e-01 5.483151361190816697e-01
3.158063210374321972e-02 4.660276565092945356e-02 -8.152347555725083517e-01 4.561565550862260454e-01 -7.525310422427349266e-01 4.749928712232742711e-01
5.981605093122845454e-03 1.040401455242917078e-01 -6.719079680740384086e-01 8.705764086381588551e-02 -9.791841365284942311e-01 1.833559214701678541e-01
6.462583045163515505e-02 1.134391513684373520e-01 -7.081065817079418290e-01 3.959406565663182720e-01 -9.040392787767347338e-01 1.610713472554134995e-01
-1.046220793621018136e-01 -7.370394816622378997e-02 -8.807992913349608211e-01 4.427454541500550622e-01 -5.050281546244308473e-01 7.408933970998143881e-01
-6.569260632718326894e-03 5.622032876597903711e-02 -7.665933273356422273e-01 2.286788538725972597e-01 -8.277043777268375813e-01 5.124562858267466270e-01
6.548515775647840986e-02 1.082451032007698544e-01 -7.284033062029041661e-01 3.227176101405382913e-01 -8.841358450979475148e-01 3.378715014885360080e-01
7.103223861296448227e-02 -1.243032049860546412e-02 -9.195125512921910049e-01 4.601843112307059669e-01 -6.648248085344068414e-01 5.884202355921406280e-01
-5.704954424779529187e-02 -8.060529697803837934e-02 -9.101476055237390783e-01 3.276553789346695611e-01 -5.488717192433970604e-01 7.690135164416651570e-01
1.521017948835992964e-02 -4.436756035447621260e-02 -9.113839924870702491e-01 4.402251458420834429e-01 -6.261393676676642039e-01 6.435458905354413117e-01
-4.278074394163669525e-02 -1.010168768795888239e-01 -9.298656611158880869e-01 2.947107678802490804e-01 -5.473760461588800252e-01 7.832783843480589647e-01
6.740963207229530574e-02 -4.393262537340004992e-02 -9.482664547714928505e-01 4.853034847141394215e-01 -5.752327854569223575e-01 6.584738189630500171e-01
-7.962503334117886078e-02 5.483218517341895831e-02 -7.280019758077633796e-01 3.112834339574253040e-01 -7.790935841970765274e-01 5.441652421890118552e-01
5.550427736972374931e-02 1.122377719635513499e-01 -6.664382806661138803e-01 3.757129607597036181e-01 -9.224595792096625946e-01 -8.892747517786434019e-02
-2.703556474033839280e-02 6.154526019341472615e-02 -7.476270524883023016e-01 2.658364409306652187e-01 -8.182802993116241597e-01 5.096551171447173401e-01
8.658565429689354942e-02 1.239869678734309838e-01 -6.866124936413650071e-01 3.458280714729665695e-01 -9.375817586427529493e-01 3.665229653993847675e-02
-4.001268760399984137e-02 5.030004401130615255e-02 -7.585961369555865863e-01 2.897218359641767771e-01 -8.117627158821323352e-01 5.070528087578367593e-01
6.151932881756180110e-02 1.071972763890487318e-01 -7.266984868042032364e-01 3.999224871599483255e-01 -8.642907913153488053e-01 3.050629972830030123e-01
2.114450806627420163e-03 -1.206907233565516907e-01 -9.646824475577969737e-01 4.714177953000782129e-01 -4.893891108695193060e-01 7.336644740184403712e-01
6.067747310357400614e-02 7.433826265205535633e-02 -7.939492648471040415e-01 3.393191025804347394e-01 -8.344974267125544465e-01 4.341389079938967055e-01
-6.770247888076647014e-02 -8.894518713705666657e-02 -9.115467696865335867e-01 3.777368604040876598e-01 -5.230485181500612590e-01 7.640255963991571253e-01
6.869390825559185641e-03 -8.751811097569239806e-02 -9.440588996689548429e-01 4.627387083370141374e-01 -5.519060610789506827e-01 6.937381260612027756e-01
-2.258367657701162989e-02 1.959100448525958466e-02 -8.171432712185673353e-01 2.229616910698972165e-01 -8.009544669122182770e-01 5.556617912441128571e-01
7.165473276911106526e-02 1.138811804483503276e-01 -6.392940282294709009e-01 2.902751707384374491e-01 -9.379872075633497452e-01 -1.895265778203163165e-01
-4.456857453659290869e-02 -2.948555944361785919e-02 -8.702769888886654481e-01 2.133347794815237120e-01 -7.049302072619310078e-01 6.764330526764793516e-01
-8.098250368691481405e-02 -2.352833149421006825e-02 -8.499825940114731360e-01 2.997064251757530218e-01 -7.252088597587091900e-01 6.198775430968953559e-01
-5.421713623730769344e-02 -7.733354223799478178e-02 -9.088563247561380898e-01 2.656417370883460416e-01 -5.655317797916775691e-01 7.807741501627366576e-01
4.314819566166996218e-03 -2.125296345273570420e-01 -9.990202089416103659e-01 2.433072696995963735e-01 1.182378821708325728e-01 9.627156255775035643e-01
8.518453315212912158e-02 2.923273625454608782e-02 -8.792597853934999153e-01 3.868400916826776892e-01 -7.057180445478533626e-01 5.935627894894455192e-01
7.623269624701975444e-02 1.880134121657730042e-02 -8.859184315645982633e-01 3.861103498791084720e-01 -7.095452299970075316e-01 5.894610795504027223e-01
-7.445328066925309407e-02 -1.290008377649731475e-01 -9.345300362878976586e-01 4.043913002007815671e-01 -5.142573472642578691e-01 7.563114815382941947e-01
2.873124609386406084e-02 -1.251949397087335214e-01 -9.804887362136194273e-01 2.883164627087309029e-01 -4.231441266200344220e-01 8.589660444034403763e-01
-4.452497524005199180e-03 9.344849923147846571e-02 -7.021214503177306554e-01 1.730055567889494939e-01 -8.919155808654661843e-01 4.177986045088752376e-01
-2.496730543483013237e-02 -8.500410593349083666e-02 -9.235863843674735341e-01 1.445097696525526054e-01 -6.084953573838529639e-01 7.802886174469437774e-01
6.400914344036801040e-02 6.961264745887765781e-02 -8.053645897268377762e-01 3.430907977933012054e-01 -8.243639383819061361e-01 4.502363840973194198e-01
-1.469169141820008372e-02 1.316838386804152286e-02 -8.288170972906321321e-01 1.794110960209765182e-01 -8.036021023896412485e-01 5.674815588717403436e-01
6.665309416238193729e-02 -6.059919909475983135e-02 -9.605979650946836479e-01 4.344862064878992625e-01 -5.364817737855008817e-01 7.234701395135236801e-01
-1.160692438419753947e-01 -1.267902644456899396e-02 -8.174087893745951572e-01 3.420101878884754809e-01 -7.438315454556667650e-01 5.742331089074576012e-01
3.059374104146418000e-02 -1.727205935085027178e-02 -8.946168412734784026e-01 4.389798385516711643e-01 -6.546522522316221560e-01 6.154081003636638902e-01
-1.565110324508981517e-03 -4.961154224695940584e-02 -9.048841035252430665e-01 4.567599324702362740e-01 -6.172325330747611138e-01 6.406202964345565354e-01
-4.204433384232570542e-02 -5.386532621843556634e-02 -8.938593822179013992e-01 1.893979079405819221e-01 -6.425497978438832192e-01 7.424676354956597502e-01
-2.253702540265177870e-02 5.776977462661032903e-02 -7.560771470831855190e-01 2.645037314087858582e-01 -8.224377193915993756e-01 5.036208631428742422e-01
-4.783172979782979173e-02 -1.345847799327769545e-01 -9.502744988212140642e-01 3.109162253325649661e-01 -5.190660177386601237e-01 7.961793579677122201e-01
-2.530830356287016789e-03 -1.936057754232479722e-01 -9.973242463651939005e-01 5.134335124716657983e-01 -2.269281881963291711e-02 8.578292745325418744e-01
-2.762034815813473650e-03 9.370513125573591562e-02 -7.022160203887674035e-01 1.540832572037008352e-01 -8.974361784361789551e-01 4.133602006523667272e-01
8.208427778544581666e-02 2.443553895061508288e-02 -8.829693616561583580e-01 3.861103498791084720e-01 -7.095452299970075316e-01 5.894610795504027223e-01
7.955211907939380156e-03 1.060637859614902284e-01 -6.589773434439430977e-01 6.317303249506688034e-02 -9.924767880609725035e-01 1.048760846215796988e-01
2.068585093270583833e-02 1.055235619416196591e-01 -6.702862150279553788e-01 7.090764628305705475e-02 -9.791710917135934000e-01 1.902526710745649219e-01
1.321262901831954384e-02 2.073170830779578339e-02 -8.364836364456541551e-01 4.728716747071886051e-01 -7.203983304468125626e-01 5.073643905016036459e-01
2.216826404841654424e-03 -6.197256860990649902e-02 -9.190977621763245509e-01 4.553668837128243552e-01 -6.005442339740129087e-01 6.572576543930371828e-01
1.676309086620285035e-02 -1.111736503857740400e-02 -8.782620595622232518e-01 4.354780813206539647e-01 -6.735592509676994188e-01 5.972242260031935812e-01
9.228055803851926975e-02 6.210703818093504108e-02 -5.296575383768368228e-01 -1.306837951125117692e-01 -8.296788999677413567e-01 -5.427289089806345279e-01
8.783531691268360586e-02 3.314235097474343278e-02 -8.763109920656010354e-01 3.826848129837568946e-01 -7.091357784187309887e-01 5.921813756595586398e-01
-1.581552073900439545e-02 5.924824623467425666e-02 -7.571441903366356030e-01 2.497879525318388305e-01 -8.235991781790095168e-01 5.092056288699210453e-01
5.107779232815033710e-02 1.003697527313122534e-01 -5.934392839660106445e-01 -1.309363832983255205e-01 -9.381069208298797868e-01 -3.206416514114088789e-01
3.804921736684020814e-03 -1.491384473006846512e-01 -9.829858388587300322e-01 4.152453633374763586e-01 -4.506881279130897644e-01 7.902224367764569823e-01
1.042964741377990084e-01 7.248357703793713303e-02 -8.307541636656473605e-01 2.941795612788451475e-01 -8.713767831416844301e-01 3.926332735867354984e-01
-9.871015187626626386e-02 -7.522288217409364708e-02 -8.853675375521061763e-01 4.427454541500550622e-01 -5.050281546244308473e-01 7.408933970998143881e-01
-1.218314298202370811e-02 9.361483463081186895e-02 -6.985518501118714862e-01 1.737130529836695414e-01 -8.919539966957672483e-01 4.174228587434328230e-01
-4.178359455763466096e-02 -1.177182281411217335e-01 -9.414983200365090177e-01 2.942575836258918831e-01 -5.329837039326971171e-01 7.933100565484055844e-01
7.813408993009487991e-02 1.061631721445134569e-01 -6.046699339544502338e-01 2.548439848636823157e-01 -9.029667219289069235e-01 -3.459850321441135246e-01
-5.687991101599556426e-02 -1.884830160305545413e-02 -8.549152288554828782e-01 2.480118743447242147e-01 -7.331164793734766816e-01 6.332695617626473705e-01
