9.026719660990591143e-02 1.353613943420951815e-01 -8.253192696474519474e-01 4.865802919181971831e-01 -8.639919439409428081e-01 -1.294509185828861542e-01
6.333538270321736885e-02 1.169999343520154028e-01 -8.413183941573249003e-01 6.476932833667261580e-01 -7.614687126915563598e-01 2.566729969228889047e-02
-6.548274202924933562e-02 -4.796979848511485900e-02 -9.563453492572377979e-01 5.941811413264358466e-01 -6.064799307303480047e-01 5.283283684540576175e-01
-3.046490132364258405e-02 -1.409587310362542811e-01 -1.063440412133740853e+00 8.647652445443597680e-01 -2.651030953994087946e-01 4.264990277102462257e-01
-1.921193112045156692e-02 2.149327943325854764e-02 -9.113862691273485472e-01 5.357101110228679186e-01 -7.347408232067744738e-01 4.161377171818217979e-01
7.319601948160413263e-02 6.151238095089869157e-02 -1.013913759490979061e+00 6.826666640361465088e-01 -6.023812337828328145e-01 4.136460745613709800e-01
-4.738295120974014146e-02 3.124680606911001482e-02 -8.448063613245764270e-01 6.244663493896731588e-01 -7.035649171487032838e-01 3.391727964290074948e-01
3.962758709401117962e-02 1.055061383396651564e-01 -8.184859288167841695e-01 3.865117500907967463e-01 -8.810037468375103709e-01 2.728388995360035429e-01
2.477596909213177281e-02 6.780630921135691325e-02 -8.895125042983502706e-01 7.659631135513020883e-01 -6.220518123915639297e-01 1.623331493539313386e-01
6.571719501614937953e-02 5.673482129090869075e-02 -1.008587464821698587e+00 6.802553847676997556e-01 -6.051997267860182994e-01 4.135044161707073229e-01
8.912994043950848988e-02 1.328020728806177386e-01 -8.131797223700550914e-01 5.105587505089107525e-01 -8.475265967487877194e-01 -1.450118273872784413e-01
3.892555360006234866e-02 5.857648925871952045e-02 -9.556840644530849582e-01 7.053314224185642800e-01 -6.398892417430308566e-01 3.050399037020135040e-01
2.476114321895914183e-02 5.488859873657921107e-02 -9.281421560417673078e-01 7.299715846776452244e-01 -6.378194289635152892e-01 2.456173072074986918e-01
1.607849813928419538e-02 -4.388274198998669967e-02 -1.057283681206303338e+00 7.574460507718249191e-01 -4.725563684376945517e-01 4.505174345340519637e-01
-3.259396315908128644e-02 -9.442271701768860381e-02 -1.026846843131829612e+00 4.674718966265689613e-01 -5.229575134647311829e-01 7.127309906094609904e-01
1.060839090041775928e-01 1.297645309272374980e-01 -7.734034887254243040e-01 3.601789544183171543e-01 -8.822088403080288188e-01 -3.032798754887821024e-01
-6.472797969173464672e-02 -1.845385901086781244e-01 -1.057714924624448383e+00 6.272689217081952595e-01 -3.594857680203966677e-01 6.908716830568635281e-01
6.298180409582435080e-02 9.882989240658258956e-02 -9.101117386004616838e-01 5.739415041992650401e-01 -7.666984639515155298e-01 2.876883993696505715e-01
-4.368778962766448060e-02 6.049996323797642711e-02 -7.972676895111504569e-01 5.894905599480949610e-01 -7.011378541821010613e-01 4.011316357070330296e-01
-5.993443827124107261e-03 -1.729842210241401002e-01 -1.108331196766621396e+00 5.188160301669969554e-01 -2.740366950648583377e-01 8.097739293158846552e-01
2.644669105487315944e-02 4.173752427972378387e-02 -9.606830902248234549e-01 7.226029502658167791e-01 -6.132037383482042969e-01 3.191021020659760565e-01
-6.622831993358537818e-03 2.208249794642604819e-02 -9.254106853169141722e-01 4.886962125564902060e-01 -7.399990992004480406e-01 4.621442902551833321e-01
6.970206172476053029e-03 -7.672597817465624803e-02 -1.073243723194176047e+00 7.484451210760991735e-01 -4.152931572283376505e-01 5.170701057851848637e-01
-8.280586484156714222e-02 -1.102307413215536935e-01 -9.877143977631910321e-01 7.443630020676785808e-01 -3.666096515515452348e-01 5.581407390094794696e-01
1.364267602085522234e-03 -1.012948663435889740e-01 -1.082885407805513012e+00 6.992938211331375387e-01 -3.884681692422525257e-01 6.000671905800115669e-01
1.018169874543251446e-01 1.312780237593590138e-01 -9.013005327319606463e-01 5.644055311506044337e-01 -7.478648122264753839e-01 3.494919441704813501e-01
3.977618047507163607e-02 3.389770826129943210e-02 -9.981326028055473865e-01 7.035104667426668179e-01 -5.850941855883688980e-01 4.034077554710601143e-01
-7.583261713870170784e-02 -6.661449815268805086e-02 -9.631200597077109737e-01 6.751063452244054908e-01 -4.749447047642163522e-01 5.644988485853421611e-01
-6.473782000491450084e-02 -1.510394807888964797e-01 -1.036233158316676173e+00 6.800016816075805659e-01 -3.923294601742151611e-01 6.194152950083421372e-01
8.035369032069207551e-02 1.142605847617922110e-01 -9.042736485353992659e-01 5.503983957147491335e-01 -7.594400514887276188e-01 3.468607994418352325e-01
5.018916574643985523e-02 1.113230940154533999e-01 -8.120853720205281068e-01 3.277044639830906658e-01 -9.161295789601152650e-01 2.309033972030672677e-01
-1.125315856060965687e-02 -1.467746299685040168e-01 -1.093740098669437222e+00 6.619614375166785747e-01 -3.266308006756784565e-01 6.746253592111830510e-01
9.975908947757816669e-02 1.264495953517304483e-01 -7.722192525771806038e-01 4.769085845865090878e-01 -8.018591746885069815e-01 -3.599723127069068274e-01
-7.304510865083119198e-02 -1.744233326003642032e-02 -9.064707360662542790e-01 6.073772204511170836e-01 -7.040995131367236981e-01 3.678814859131994131e-01
-2.886125165717028096e-02 -1.315513055757160932e-01 -1.060562746255528932e+00 8.279450775460344136e-01 -3.153971291448514624e-01 4.637149981340661919e-01
6.519513198775506169e-02 1.190466784427638008e-01 -7.910238110067445705e-01 2.570338948460621498e-01 -9.623068055202371740e-01 8.887738154165013282e-02
-5.428049203464522382e-02 -1.735598426338113009e-01 -1.060494159071169840e+00 6.066408842924507772e-01 -3.964575360338313259e-01 6.890633204770493236e-01
1.775944104310610630e-02 6.514172392460247651e-02 -8.796073765285210566e-01 5.032795982870678086e-01 -7.588255985455231167e-01 4.133924974404304398e-01
-8.697552209928281763e-02 -1.247056843830612050e-01 -9.915248068711948193e-01 7.598346465659298055e-01 -3.475985111679638639e-01 5.493874633733858426e-01
1.093626390867356163e-01 1.394189354542919590e-01 -7.984568980056415688e-01 4.186850660664445667e-01 -8.737358422245020684e-01 -2.475651297440273346e-01
8.004858715968320160e-02 8.844271606426884480e-02 -9.752661635607414725e-01 6.054846287467713362e-01 -7.510215312781248764e-01 2.633534201563464405e-01
-4.484724813033307000e-02 4.384173998342029421e-02 -8.247993207824714235e-01 6.266484337551400108e-01 -6.793968684773069588e-01 3.817481310700271413e-01
-1.050933346199387636e-01 -5.133858333026768833e-02 -9.072454562130825018e-01 6.931515784051295315e-01 -5.578948954813924832e-01 4.563925667123466257e-01
-4.087698082832720570e-02 -2.122471027103667862e-01 -1.084525401791073262e+00 5.898367448423789128e-01 1.446242950629535728e-01 7.944661274788812344e-01
-6.841268674736120103e-02 -1.599466116928628112e-01 -1.038243024998396713e+00 6.497569154131955793e-01 -4.337948822160263007e-01 6.242098613734912149e-01
-4.445601486501520039e-02 -1.379258982252239973e-01 -1.047480788816830266e+00 5.870804227409962550e-01 -4.391546736566563913e-01 6.800586370598997732e-01
9.787945399205150165e-02 1.407594866179810167e-01 -8.333733123339724935e-01 5.014637998970754573e-01 -8.579506282544099305e-01 -1.116009716384637473e-01
3.509782182570946041e-02 2.510803138022203729e-02 -1.002625929877768662e+00 7.051213817136954276e-01 -5.799898091389580346e-01 4.079407534742320318e-01
7.489125115261383026e-02 1.260730386164350680e-01 -8.378248286982908910e-01 6.041683033395089941e-01 -7.965934757599528737e-01 -2.048159213870685835e-02
1.883147349232040454e-02 6.372204450205672110e-02 -8.831592706077109334e-01 4.502372091908364848e-01 -7.716984358776188824e-01 4.491859075305940086e-01
-5.313639316020478398e-02 -7.014198871649524047e-02 -9.899659420557075373e-01 5.783673065336514263e-01 -5.478268408188426974e-01 6.044642348488914463e-01
4.073884251464183343e-02 8.204011839238800619e-02 -9.009702546945980162e-01 6.798978574974438027e-01 -6.935718391476057842e-01 2.381113338583308037e-01
7.879441733543637860e-02 1.253278926142294691e-01 -8.077629397219178164e-01 5.357442037671318324e-01 -8.282031629000355943e-01 -1.644921551086842293e-01
3.386539407440991578e-02 -7.521857098015435894e-03 -1.046305282414351501e+00 7.608569127770875573e-01 -5.246085257825486847e-01 3.819458769977500112e-01
3.476329267496065800e-02 1.005949568900516150e-01 -8.267074679107537793e-01 4.441907181079065570e-01 -8.394198274013382477e-01 3.131596387025153971e-01
-2.783616735222648603e-02 5.397688865831760940e-02 -8.335525276239156289e-01 5.913756157195035890e-01 -7.083083480474139382e-01 3.854531945888132749e-01
-4.955353677938269252e-02 -1.442859404507451475e-02 -9.323912683442772131e-01 5.398678041148480267e-01 -6.868930611090190430e-01 4.865394913884105721e-01
-4.078786958082511460e-02 -7.978252326143273065e-02 -1.008897722688683052e+00 5.441130773621296601e-01 -5.466615721573818698e-01 6.364763032273336174e-01
-5.111402122631015371e-02 2.638319666262781485e-02 -8.480257742257497622e-01 6.244663493896731588e-01 -7.035649171487032838e-01 3.391727964290074948e-01
3.550614272040401170e-02 -1.173387343598615920e-02 -1.055359011854372087e+00 7.608569127770875573e-01 -5.246085257825486847e-01 3.819458769977500112e-01
-7.787610485364056603e-03 -1.066465090734937948e-01 -1.075177528198158372e+00 7.215097182436440715e-01 -3.558269854877636473e-01 5.939788572657009880e-01
-1.362769765132947931e-02 -2.088806471121308350e-01 -1.105351704207682362e+00 5.277396331578524391e-01 2.073405161575986866e-01 8.237115939173831336e-01
-3.177496555376266296e-02 -1.355891747567945504e-01 -1.057193865895007079e+00 9.097991106839883324e-01 -2.169307322619297151e-01 3.538454967905157456e-01
-7.669444881133710701e-02 -1.371833927891770166e-01 -1.013231739616361038e+00 7.253094495894516491e-01 -3.792700718106402635e-01 5.745262526334182773e-01
-8.138288131011646442e-02 -2.431792380865756796e-03 -8.565624734385889338e-01 6.042814567929697400e-01 -7.517045390064464039e-01 2.641670059134419990e-01
-2.761004633862677166e-02 7.626583404191895899e-02 -7.915262315660757109e-01 5.585175094322676337e-01 -7.458494433352120812e-01 3.629969690426230189e-01
-9.763733659877156523e-03 3.060943701452004811e-02 -9.073512006886025327e-01 5.387751517414536284e-01 -7.411640094842157911e-01 4.004962508079881189e-01
-5.048788002942015962e-02 -2.087136567680976038e-02 -9.402835425959982230e-01 5.528927437839120662e-01 -6.495456356973798862e-01 5.219196116430038224e-01
2.907361893313836071e-02 3.143698738403276349e-02 -9.827331289441425533e-01 7.192893874581955949e-01 -5.777981820375789335e-01 3.857097845843194817e-01
3.902145450538890836e-02 9.182465244520564285e-02 -8.509560629955369437e-01 3.297080322382057171e-01 -8.417512077546784877e-01 4.274897866863610618e-01
-7.572428931015845466e-02 -1.143655285491569813e-02 -8.905527282690859359e-01 6.073772204511170836e-01 -7.040995131367236981e-01 3.678814859131994131e-01
4.971423502929676191e-03 -2.538313455901465565e-02 -1.016649792133062613e+00 7.350842823459148301e-01 -5.200370532553647562e-01 4.349857021667130064e-01
-7.160760181312868233e-02 -8.326437697050154130e-02 -9.819710645480581590e-01 6.516071081858602065e-01 -4.639229636650332167e-01 6.001530307729128211e-01
8.666018260359587000e-02 9.245432222161716063e-02 -9.777256509395756412e-01 5.676144764422463851e-01 -7.826277644051866655e-01 2.555534944299027722e-01
-6.917913772285699814e-02 -4.283065341120591979e-02 -9.463514656107068213e-01 5.909634541768336025e-01 -6.048572340038892436e-01 5.337695404390830900e-01
5.524935452661926261e-02 9.477679794388363388e-02 -9.037663546968404127e-01 6.387963007511544555e-01 -7.211655369028250329e-01 2.680663248718507807e-01
-1.718713031973127803e-02 3.595413150081477882e-02 -8.864098277512919566e-01 5.694449582489515826e-01 -7.349883312414134950e-01 3.681366491723042644e-01
-3.003584895877220787e-02 4.904219780789044469e-02 -8.392866500886571046e-01 5.971631272862030215e-01 -7.152901308838207628e-01 3.629824073835652420e-01
3.330103270065641347e-03 -4.799865599100131691e-02 -1.040119910735560760e+00 7.511852849852462821e-01 -4.821340635591562784e-01 4.508518740978791906e-01
-6.687733410946547497e-02 -1.224569742572141628e-01 -1.014968422992156061e+00 6.717963707304073218e-01 -4.097295064441668910e-01 6.170991555839890896e-01
-2.239841253297372367e-02 7.543787584557857997e-04 -9.404383657133535968e-01 5.012182667352774734e-01 -7.097076359686107505e-01 4.950710257515887336e-01
-1.493100964694079810e-02 -1.444279787393216823e-02 -9.650329743326981902e-01 3.503529633984456271e-01 -6.725550011248030424e-01 6.518608528665786883e-01
1.467520411317170884e-02 7.635938059176518300e-02 -8.539194742348663603e-01 5.275746296390451118e-01 -7.582740417851178139e-01 3.829954147455106317e-01
-1.523013381056399947e-02 -1.515869603337684224e-01 -1.092163729545685413e+00 6.618378053503057856e-01 -3.221399081875327419e-01 6.769022078277031618e-01
1.445652380295008380e-02 -7.578507234560698247e-02 -1.082408303803079397e+00 7.185572641872992605e-01 -4.018152301491514367e-01 5.676442362112453788e-01
-1.345143732304233952e-02 2.879852660744916873e-02 -9.057089516983407584e-01 5.456721474510806136e-01 -7.390403634900659657e-01 3.950458816752773217e-01
3.284614098511074668e-03 -1.473810503974329889e-01 -1.105292803431927817e+00 5.482211535618571885e-01 -2.979747985513230835e-01 7.814503094986943177e-01
8.943949673468372386e-02 1.286438863537603394e-01 -7.950214848235059861e-01 4.920847119325880148e-01 -8.401179060803553034e-01 -2.281546409025718425e-01
-1.821833124831799197e-02 -3.788299354079232434e-02 -9.913835191216004983e-01 7.738462476871491580e-01 -4.954259250948437887e-01 3.946075742867049541e-01
3.142674972104083503e-02 -4.369626623116313474e-02 -1.082463327807892561e+00 7.707063671377434311e-01 -3.852049770247664151e-01 5.075714938101735241e-01
-7.774769081697306683e-02 -1.530265763272104784e-01 -1.022817020557214462e+00 6.989256787883335598e-01 -4.003184489843251148e-01 5.926618217272404676e-01
-3.464924919214998345e-02 5.405594898682852811e-02 -8.226169932275673169e-01 6.027692607456189844e-01 -6.982311066851812908e-01 3.861897719481532931e-01
-7.911757919947683126e-02 -6.674634920329713950e-03 -8.730348452592172626e-01 6.023210128296174748e-01 -7.405642160902584648e-01 2.979497262132065893e-01
9.513702484308079283e-05 5.437757943777305619e-02 -8.761445055070307131e-01 5.593992079884266833e-01 -7.396100684421095250e-01 3.742318435956233369e-01
-3.094109614488935872e-02 -1.683134534949080607e-01 -1.077236655306972102e+00 8.981329300672276084e-01 -1.858499573098289781e-01 3.985185482468677765e-01
-4.004861801618223721e-02 3.759759233082528990e-02 -8.448058304348174952e-01 6.189082141918690327e-01 -7.036539530521791486e-01 3.490325726345225310e-01
-3.283029078105802190e-02 4.497598068107541008e-02 -8.425845583396532890e-01 6.001240138263957968e-01 -7.094808987209485496e-01 3.694428540099415348e-01
-5.106700252957586256e-02 -1.473578887444927377e-01 -1.047414593023645812e+00 6.127913119068996162e-01 -4.169009100825107894e-01 6.713273711266323218e-01
-2.146034016366413569e-02 1.528126398778560310e-02 -9.193230317763382287e-01 5.434584179606845034e-01 -7.184332025901066787e-01 4.341735613366994873e-01
-4.886746364892696065e-02 5.017400022626546108e-02 -8.071417803390275036e-01 6.145312144018816314e-01 -6.868497415099896752e-01 3.880577522913424282e-01
5.086362092367267829e-02 6.399741108266540635e-02 -9.703878000906801526e-01 6.702214770176632141e-01 -6.632408158217386607e-01 3.330387244336253105e-01
8.422324094596492228e-02 1.046774637174393563e-01 -9.325452161863638789e-01 5.075156570822431101e-01 -8.143195056498137019e-01 2.816231534065019582e-01
-2.786398441841599766e-02 7.346956584608728413e-02 -7.968810041376750419e-01 5.585175094322676337e-01 -7.458494433352120812e-01 3.629969690426230189e-01
2.032730827996398829e-03 -3.255394872095673797e-02 -1.020253788975706843e+00 7.372501991443469738e-01 -5.175780816198287670e-01 4.342523152366129513e-01
7.209076721801398191e-03 9.581264149904722416e-02 -7.980335190114739019e-01 4.489081405062932406e-01 -8.598436324965469391e-01 2.432085710708511428e-01
1.242240425467256992e-01 1.125712752293982072e-01 -7.187014359135616148e-01 -1.385036621096741583e-01 -9.371034784669105555e-01 -3.203963268007700149e-01
1.527286469104621042e-02 9.211249795886373992e-02 -8.213525470911448023e-01 4.681344973350420324e-01 -8.236675908190540518e-01 3.200340485623410225e-01
-7.431835150449374663e-03 8.961155524200424549e-02 -7.918130477730374039e-01 4.666628465697501560e-01 -8.542193973628845471e-01 2.292051674819050866e-01
5.745263853091878842e-03 -7.054130224569973330e-03 -9.950230943897626634e-01 7.271209106249144627e-01 -5.493961111026348654e-01 4.116540956158415976e-01
5.774172483381326271e-02 7.994954243750432288e-02 -9.495288376019362930e-01 5.969677961430228663e-01 -7.620456537810847975e-01 2.508303648314954559e-01
-7.906547523967277780e-02 -2.667574434296327707e-02 -9.121458301594976836e-01 6.277958882457956857e-01 -6.573308721138124699e-01 4.168794157400522171e-01
-3.123697465113638161e-02 -7.724589988312682842e-02 -1.014144394620548839e+00 4.477631791472339584e-01 -5.760650419213233508e-01 6.838546650247740999e-01
-6.426305204045733299e-02 -3.910509696745045893e-02 -9.475725866392107344e-01 5.909634541768336025e-01 -6.048572340038892436e-01 5.337695404390830900e-01
-8.512165101175254989e-02 -4.188882029728767387e-02 -9.245761456225410901e-01 6.537983211042641685e-01 -6.076192391379330315e-01 4.509397027881719699e-01
-1.009670899351331336e-01 -3.987914331550046487e-02 -8.989339594423959579e-01 6.751979029148691414e-01 -5.792017963573594663e-01 4.567636927293705629e-01
2.784449518583979530e-02 8.680612853356192704e-02 -8.500455684542574941e-01 4.796334761973494176e-01 -7.899158033043635063e-01 3.820795103127994641e-01
3.291256551216626552e-02 -3.736465586369847741e-02 -1.079373757277740653e+00 7.657570452725456223e-01 -4.336179150250382697e-01 4.749648948972955420e-01
4.754633830316112170e-03 -4.538876519613532778e-02 -1.039702410287372425e+00 7.511852849852462821e-01 -4.821340635591562784e-01 4.508518740978791906e-01
5.284013379594756921e-02 9.051543888307556074e-02 -9.095607014453348516e-01 6.427273275260356744e-01 -7.222797355609086312e-01 2.553694696891229410e-01
-1.546586456785504007e-02 3.258819008793884670e-02 -8.955832875165831153e-01 5.525156224929279603e-01 -7.432782376981703631e-01 3.771789340161433302e-01
-1.056929551153361208e-01 -6.059542537841104692e-02 -9.163042220739687771e-01 7.193716099618480131e-01 -5.086531561705134319e-01 4.730501596011508769e-01
-8.659778336617064871e-04 1.679416465957898202e-02 -9.435399180527130891e-01 7.637566875802315192e-01 -5.887553446195915585e-01 2.646561285108254835e-01
2.514476572401088197e-02 3.851220907281738964e-02 -9.635853163882419636e-01 7.312321406729731521e-01 -5.909979435667364056e-01 3.406185361173258430e-01
-1.458174494916752648e-02 -7.994457477355124131e-02 -1.043398327087846189e+00 7.572426300061619875e-01 -4.544494824210097428e-01 4.691047508058591164e-01
5.943421921656576873e-02 1.106711481005399900e-01 -8.656382031517024789e-01 6.717785378683003294e-01 -7.234157069140902951e-01 1.593214080075732730e-01
-1.144432300142850592e-03 -8.708473428269884742e-02 -1.070045606920662529e+00 7.362796283520803842e-01 -4.185175243427750602e-01 5.317286814642568915e-01
-1.413987689140972642e-02 -1.032518180004307340e-01 -1.063761644590959454e+00 7.697871146521334529e-01 -3.883476546076145564e-01 5.065707228771794135e-01
-2.122425292712518466e-02 -1.644643726261465488e-01 -1.091799195907054543e+00 7.391494564675756829e-01 -3.130410771475812259e-01 5.963751881340884076e-01
-3.201453843435574792e-02 3.409502497124647369e-02 -8.661068526210559115e-01 5.888364300616878433e-01 -7.267976315798203579e-01 3.536055165889960272e-01
1.963839343072850546e-02 6.914452492140465978e-02 -8.744086512175356374e-01 4.885374270408022190e-01 -7.696242361984938496e-01 4.111079145872018614e-01
-2.149353718597969698e-02 -6.448408314574685662e-02 -1.016447099779247187e+00 7.661023940259121812e-01 -4.631726022936880072e-01 4.455987683468828342e-01
-6.406072330149463478e-02 -2.400415433475936930e-02 -9.288520250764332742e-01 5.661425580508750999e-01 -6.820116945879600712e-01 4.629715460034992680e-01
-6.647531413603481598e-02 -1.059886488028910778e-01 -1.004225835750578666e+00 6.661613327074369373e-01 -4.187753584588753131e-01 6.171355426104478958e-01
5.738717570145229069e-02 9.994297041317051766e-02 -8.948810814579283290e-01 6.422106286005230258e-01 -7.187145163713379858e-01 2.664863082217073798e-01
-1.015397612323297311e-01 -1.138304127476545968e-01 -9.640437308954590279e-01 7.752952607083560821e-01 -3.354859170323021833e-01 5.351321875912132819e-01
9.300980251356397166e-02 1.027062092141045463e-01 -9.547386227203694675e-01 5.007819299190079398e-01 -8.380424416098772866e-01 2.165694455068610524e-01
-3.097879383522465779e-02 -1.206017446605180260e-01 -1.048844814381454160e+00 8.926966456834284358e-01 -2.812552881754705747e-01 3.521195275171321026e-01
1.047027378814813642e-01 1.422324971633683044e-01 -8.772013124814631579e-01 5.897676420475294057e-01 -7.787097471867504561e-01 2.139749004674250943e-01
4.348704387825028800e-02 -1.619419401233484698e-02 -1.076044546543397873e+00 7.700285065600285250e-01 -4.850276497281613142e-01 4.144927961787854831e-01
6.108766744658866016e-02 7.975616155695089415e-02 -9.568787457539442709e-01 6.251119408856466997e-01 -7.180279193693065443e-01 3.060571325232663842e-01
-2.135609862871695741e-02 6.622042623580003465e-03 -9.331521245384071239e-01 5.209661276350536774e-01 -6.969014342653131466e-01 4.928718746042285992e-01
1.294038682868696791e-02 7.110563835616129369e-02 -8.619011374247942392e-01 5.281066916572498826e-01 -7.528648724263248271e-01 3.928075942409060550e-01
-7.105744671633681953e-02 -1.190931933569781276e-01 -1.008072159719491490e+00 7.119909664435751795e-01 -3.866154439066606940e-01 5.861717856017973904e-01
8.165706772485203935e-02 1.286816915757781066e-01 -8.157046264673928349e-01 5.196887574427004886e-01 -8.411363698486626905e-01 -1.497103961168894937e-01
-7.362921804079022858e-02 -6.163322117564966340e-02 -9.611651626737008902e-01 6.532900354794495268e-01 -5.390917965215294982e-01 5.315939846033337357e-01
-4.177406260621936707e-02 -1.692818355809475863e-03 -9.224287430466729942e-01 5.478311417414042372e-01 -7.144142166355711421e-01 4.353083587611115690e-01
2.702412804850496189e-02 7.179549789751872579e-02 -8.846411700816436685e-01 7.604397072490441944e-01 -6.314614364995373430e-01 1.516176304158879662e-01
7.284760445985274946e-02 1.183918536403325561e-01 -8.791370990795576157e-01 6.136317825880224230e-01 -7.447791709768518675e-01 2.622213223154803985e-01
1.415389346347860865e-02 1.001782361030091190e-01 -7.954178877045114948e-01 4.489081405062932406e-01 -8.598436324965469391e-01 2.432085710708511428e-01
4.759004499959428036e-02 7.283517463627729727e-02 -9.439443722836690087e-01 6.548839326991239274e-01 -6.926732730103866142e-01 3.022098137877188284e-01
4.739938722371253056e-03 -8.641076869947901529e-02 -1.077353564483459758e+00 7.281153708168801586e-01 -3.633201849697194619e-01 5.812456021113328042e-01
3.270924398929350024e-02 -3.976583374133677018e-02 -1.081238103181666688e+00 7.657570452725456223e-01 -4.336179150250382697e-01 4.749648948972955420e-01
-4.971917117659435670e-02 2.081717028139942749e-02 -8.632313890026929171e-01 6.136070043841412858e-01 -7.235286549297827996e-01 3.162162704008440461e-01
-9.687584337704770177e-02 -8.401121361837995960e-02 -9.502676235573772612e-01 7.511038517496677613e-01 -4.012810005588337003e-01 5.242294940932971103e-01
-7.033939792037500159e-03 5.064473827288729080e-02 -8.728653804496425694e-01 5.593992079884266833e-01 -7.396100684421095250e-01 3.742318435956233369e-01
2.215236014917315588e-02 -5.280462333277005649e-02 -1.075662478188665450e+00 7.680942840165555507e-01 -4.070480804087496240e-01 4.943106625358661965e-01
-2.700837964957669007e-02 -7.627925734826508652e-02 -1.018151059803329428e+00 8.404181824490750685e-01 -4.068572496850454412e-01 3.580006382504281048e-01
7.205509993802947100e-02 1.127832902678523042e-01 -8.933114410389577653e-01 5.870667148002377544e-01 -7.487302279397386462e-01 3.078241675745484462e-01
-5.734406762148651360e-02 -1.006606781973853476e-01 -1.009924418967579118e+00 6.296903850319435225e-01 -4.437747526613869953e-01 6.376158623329937214e-01
2.307177525441667446e-02 1.045531267188784530e-01 -7.934411601724267182e-01 3.929208197915400880e-01 -9.017641386462326158e-01 1.800962732150845347e-01
4.450708416309571286e-02 6.412939094302796961e-02 -9.566694834365313538e-01 6.858391538520554054e-01 -6.523060742554628311e-01 3.226785405522395456e-01
2.426674170106874091e-03 -2.384704034574389175e-02 -1.010512967101886872e+00 7.350842823459148301e-01 -5.200370532553647562e-01 4.349857021667130064e-01
5.405378806646004425e-02 3.755279198899930809e-02 -1.016940417674965902e+00 6.881495962848269698e-01 -5.972338545993742809e-01 4.120216693978646094e-01
1.206010038439708776e-02 -2.450975180509096588e-02 -1.027870026622923261e+00 7.379405150844746686e-01 -5.218812690886132089e-01 4.278828544956188584e-01
5.014481183914960838e-02 1.043035255798885341e-01 -8.505921001180840602e-01 6.928247860315189799e-01 -7.190292058181730894e-01 5.468836293826476874e-02
7.097076954935939430e-02 1.218909370470173531e-01 -8.587417328046603737e-01 6.344039628322318825e-01 -7.606908355932651133e-01 1.374083861603089540e-01
-6.431095505594884923e-03 1.203948562547191639e-02 -9.398855294900314572e-01 3.698292339607494039e-01 -7.358106234840640081e-01 5.672821732400890049e-01
2.110650325291954857e-02 5.447003645351129741e-02 -9.181261402930497306e-01 7.458740692903346181e-01 -6.264559580459636567e-01 2.263289760260290551e-01
-5.075451611950227565e-02 -1.842416328722730132e-02 -9.366995696139152061e-01 5.398678041148480267e-01 -6.868930611090190430e-01 4.865394913884105721e-01
8.149267732108006479e-02 1.035188776233623847e-01 -9.311274965451793451e-01 4.952430445091796640e-01 -8.108404810048770450e-01 3.118846601374587468e-01
3.335999327671666792e-02 1.074607636308153730e-01 -8.001468090332352068e-01 3.754834712050112433e-01 -9.077156519476361485e-01 1.872550615099992932e-01
-5.218578898773210822e-02 5.746834592920241694e-03 -8.939453187166360726e-01 5.782690727407691078e-01 -7.456780454506420908e-01 3.310122838271129520e-01
-3.463604811605077577e-02 -3.867017140238342837e-02 -9.760984764125490987e-01 4.990803948015262170e-01 -6.348376439448139008e-01 5.898304208459838049e-01
-8.899080861730558623e-02 -2.406362594166639238e-02 -8.927859012775799519e-01 6.154378571843344137e-01 -7.034215164898262040e-01 3.555761719850028535e-01
-3.950017410623190423e-02 2.346676188088291093e-02 -8.760461319681678294e-01 5.663134002819379953e-01 -7.510658511017127559e-01 3.393953741139806302e-01
5.318643901443517036e-02 7.765050371766926696e-02 -9.449261444689422973e-01 6.335707358126342337e-01 -7.290017781339107605e-01 2.591226161480961188e-01
-2.280320630699409282e-02 8.195539336108278311e-03 -9.293254693850006021e-01 5.077463227042665617e-01 -7.283975387783375721e-01 4.600333654007664475e-01
-3.183661766738454801e-02 -1.280909103269184390e-01 -1.051867457660409899e+00 8.935542593238443576e-01 -2.520913702577343152e-01 3.714979497733384428e-01
-6.455521339070098563e-02 -4.548237820508550106e-03 -8.950331045480707237e-01 5.720138290437447592e-01 -7.428506317972254358e-01 3.478119006319027595e-01
-2.258954772911855521e-02 4.827598873288362069e-02 -8.530549252530094106e-01 5.907496899621100805e-01 -7.192606653441423470e-01 3.656212508845358422e-01
-1.276820353436434324e-02 -1.254771668004080465e-01 -1.080731564779844334e+00 7.430421660765283987e-01 -3.411792600349935478e-01 5.757473855383756778e-01
5.126862644644132605e-02 1.153226638246796359e-01 -7.894191655263478324e-01 2.746299192802451605e-01 -9.594246593229247555e-01 6.389624808402978584e-02
-5.023521570067909087e-02 -4.432111285941173900e-02 -9.680501329158666124e-01 5.663265175410254759e-01 -5.829456116274720490e-01 5.826222527625657399e-01
1.545642198849540294e-01 1.104140049112239258e-01 -7.157335137145819370e-01 -3.290075401797120259e-04 -8.677609787590808699e-01 -4.969816651518652040e-01
-1.201932164122321116e-02 -1.950480514523595943e-01 -1.108706435331196394e+00 5.233543927219462821e-01 4.055557983415636336e-02 8.511494725152322083e-01
-8.333314058666054305e-03 -9.209752058264104868e-02 -1.063775923503192500e+00 7.501783466707953041e-01 -4.312464277888334307e-01 5.012573856868766109e-01
2.732512559736566260e-02 -5.218251818101086320e-02 -1.082943846687364209e+00 7.452547280396676355e-01 -4.118556236279140026e-01 5.243761394462788106e-01
-1.231765730086778650e-02 -6.413774868431106058e-02 -1.031439774767771489e+00 7.473784900634179440e-01 -4.818093069739827206e-01 4.574769768018669969e-01
3.633049040529261892e-02 1.110449791900120359e-01 -7.843481430898388007e-01 3.336844679111625744e-01 -9.342980662968042305e-01 1.254663269124302316e-01
-2.831311789729336337e-02 -8.401795680092627450e-02 -1.023077090836361336e+00 8.575876960654447156e-01 -3.661949094429221008e-01 3.611711946643203497e-01
5.532970331456012192e-02 9.899107654657625377e-02 -8.925241807395087879e-01 6.377825522294719995e-01 -7.228159512592188252e-01 2.660272855871956277e-01
4.112377031233917235e-02 2.587139967116858577e-02 -1.012021538685755395e+00 7.078115773659132692e-01 -5.786423440586313527e-01 4.051861406922875886e-01
3.210751992975906938e-02 5.627254255580502879e-02 -9.445374096635090755e-01 7.201240076370691856e-01 -6.311316551718885171e-01 2.882607282734135357e-01
1.004499993367439642e-01 1.264958027554942410e-01 -9.085972198245341191e-01 5.413646861004840494e-01 -7.454972838760197673e-01 3.887905302046356648e-01
-8.709775303877728692e-02 -5.793314708702907573e-02 -9.402951135886348233e-01 6.899922532072423342e-01 -5.097776192533505224e-01 5.138457642351240695e-01
5.279273320352395604e-02 5.361860142386080941e-02 -9.914316473159789922e-01 6.925318609171221551e-01 -6.036482013721048423e-01 3.949790761482058765e-01
4.496657414400517111e-02 1.637572703266011384e-02 -1.032507477023213882e+00 7.160106887813927345e-01 -5.940911851364314433e-01 3.665847204862552333e-01
-4.006559709118672624e-02 -1.247737391470286200e-01 -1.042777806410748687e+00 5.870804227409962550e-01 -4.391546736566563913e-01 6.800586370598997732e-01
7.106401021959939113e-02 1.057926630157683262e-01 -9.084132111244939134e-01 5.440808676316212233e-01 -7.698591033100525838e-01 3.336060109288562225e-01
-2.130955741081856994e-02 -1.388162884647431983e-01 -1.077358626221573301e+00 7.782311608841042672e-01 -3.310437976492114909e-01 5.336349541277886077e-01
4.453978190091192196e-02 7.174084383158155220e-02 -9.392361152689888693e-01 6.853661365057930333e-01 -6.737028445852214498e-01 2.764014039922806365e-01
-5.930610259269257500e-02 -5.736095762113808255e-02 -9.722990842770320441e-01 5.706922973278266698e-01 -5.848341785961895800e-01 5.764367140601018846e-01
5.743221758991046838e-02 6.092371924299699870e-02 -9.880297324420750371e-01 6.860795800168287828e-01 -6.259933914832791491e-01 3.707115910019458949e-01
-1.819446702808373215e-02 -9.738216718870051913e-02 -1.053102650587252720e+00 7.783218150689364956e-01 -4.162144368576997655e-01 4.700858376286441986e-01
-3.486758010613883602e-02 -1.257169218798391032e-02 -9.457906394727404464e-01 5.215446898028928135e-01 -6.789027590307622484e-01 5.167999422589198977e-01
-8.908575816511064838e-02 -2.924568438648261076e-02 -9.010921387917583125e-01 6.394817044199753164e-01 -6.489541039964465963e-01 4.122156239376332798e-01
2.295333494606983243e-02 -5.533705746930325103e-02 -1.078992462228926197e+00 7.680942840165555507e-01 -4.070480804087496240e-01 4.943106625358661965e-01
8.370404772295063356e-02 8.985194622305221757e-02 -9.791294539207436864e-01 5.676144764422463851e-01 -7.826277644051866655e-01 2.555534944299027722e-01
7.141016683313092250e-02 7.183664154718949479e-02 -9.947616984612013269e-01 6.721919226597667940e-01 -6.329465488829743025e-01 3.841050447053495631e-01
-9.009843006025063106e-02 -3.623819767344515358e-02 -9.101171651811430507e-01 6.634354428880738785e-01 -5.952301127513156542e-01 4.533812148666518937e-01
6.777786465481548672e-02 5.227961042067341690e-02 -1.018462698417405221e+00 6.810755197627108570e-01 -6.027400515570210393e-01 4.157409850243208305e-01
2.810515939586220521e-02 4.294991474509997874e-03 -1.019392214053579160e+00 7.275678932464049176e-01 -5.520793249873432451e-01 4.072510032381839173e-01
1.118622355094068266e-01 1.197303672471659586e-01 -7.352534097203459185e-01 -9.640561059376165365e-02 -9.600953131773775073e-01 -2.625318035226918978e-01
7.731881522840676479e-02 1.261372735578319693e-01 -8.172235694105224324e-01 5.817461217272290597e-01 -8.068040207268452058e-01 -1.031441806129854699e-01
6.601455978404184577e-02 1.157068650863455617e-01 -8.692081397859001690e-01 6.430255912982014710e-01 -7.401464190274862354e-01 1.967266309791007861e-01
2.510170905829306118e-02 5.255903086499096738e-02 -9.348622235669807878e-01 7.381743472508840442e-01 -6.210340297395509079e-01 2.634679619350061563e-01
-4.133168008257726705e-02 -1.641422593880484115e-01 -1.065808735037599542e+00 5.422668927703092612e-01 -4.267277681587672844e-01 7.237748468187266138e-01
8.566854636284497448e-02 1.328996279135592762e-01 -8.284877945869492111e-01 5.439799386882623322e-01 -8.366207881825726833e-01 -6.443200358118213178e-02
2.368253061748336677e-02 -7.769854376597840236e-03 -1.027499448001540694e+00 7.390395075940483505e-01 -5.433696685271468541e-01 3.982085000848741840e-01
-5.341366666286515713e-03 -5.594905700107227764e-02 -1.034203148269417394e+00 7.469993679783988316e-01 -4.820004736248687527e-01 4.578946250670287155e-01
-1.635009130016326986e-02 4.335194376691894197e-02 -8.728494362107506177e-01 5.739965125333617024e-01 -7.317844802553695738e-01 3.674499667395776381e-01
5.444450099726654002e-02 7.154946293785408029e-02 -9.625387336282786865e-01 6.631094662440819576e-01 -6.708423588807932436e-01 3.320487393572544299e-01
-4.182724151384097783e-02 -6.462815077663855434e-02 -9.950145886774205417e-01 5.144298945985986693e-01 -5.756715266826296640e-01 6.355817625688806594e-01
3.952565528273804807e-02 3.932622386225477149e-03 -1.041064500020498107e+00 7.437283350418515404e-01 -5.533157379121054209e-01 3.751131267160046634e-01
-2.949091427917402766e-02 6.373833066797059133e-02 -8.131156975600710712e-01 5.876698199957672841e-01 -7.178074487193651931e-01 3.733586067430859634e-01
7.201735870119317651e-03 3.743939776252479951e-02 -9.154376338353892306e-01 8.372163983701768064e-01 -5.364120631310519416e-01 1.064462344451781450e-01
1.035710604021545730e-02 -9.959098294687065978e-03 -1.006790546402090758e+00 7.353200610955868965e-01 -5.324035077808561001e-01 4.193458151132812284e-01
2.099886724887604569e-02 6.827257360344572527e-03 -1.003292856203194194e+00 7.256543203031405875e-01 -5.530650978142892527e-01 4.093223729593312710e-01
-3.820564261566320591e-02 -3.928982396355795541e-03 -9.302122402539243495e-01 5.391964087328058319e-01 -7.083834044849844913e-01 4.554779742862523073e-01
-2.356101593786655637e-02 -8.440429067648048955e-02 -1.032638080434584271e+00 7.805773336700567722e-01 -4.364703897457856141e-01 4.474289050069374940e-01
-1.412695770262411415e-02 -8.194862736068526943e-02 -1.046063845712519091e+00 7.612801666294640723e-01 -4.266083689980349480e-01 4.883214181227891748e-01
7.012815529894007513e-03 -1.226939336886994636e-01 -1.098963586794665659e+00 5.879560156585990072e-01 -2.907524573508489807e-01 7.548315919430689247e-01
-8.874708484610528691e-02 -4.041905297660203233e-02 -9.174896377209412757e-01 6.463085433477935293e-01 -6.038834977521235770e-01 4.664868571978361689e-01
6.946485373302307975e-02 1.192581526863092795e-01 -7.586105205571391785e-01 1.578529078454161128e-01 -9.822075387925778278e-01 -1.017389317015549993e-01
-2.545361589962924151e-02 3.163505029915838346e-02 -8.822160741876439172e-01 5.717808286925376571e-01 -7.370005912630854805e-01 3.604120037090011719e-01
-9.528256356435647889e-02 -3.532754572734529697e-02 -9.008861646781635146e-01 6.483484764340038398e-01 -6.399205647413138687e-01 4.124874833578153210e-01
-3.723053151002919670e-02 4.697110151931543215e-02 -8.313459299993478657e-01 6.105159524973455820e-01 -7.033175724120941386e-01 3.641629636338893916e-01
-1.727085163307947799e-02 -2.027871396984294305e-01 -1.104195416203212599e+00 6.040797709930234571e-01 1.496317322997134103e-01 7.827502634723310093e-01
-5.063429110920376897e-02 -7.229534987308875414e-03 -9.202677548131572571e-01 5.583658923947687480e-01 -7.109820335839308614e-01 4.274717278733787817e-01
-7.676834659638318015e-02 -9.634978729367879580e-02 -9.857583784477363942e-01 7.039980568767889579e-01 -4.070207514471367305e-01 5.819972884860489248e-01
6.160537228043023311e-02 9.221613105275153210e-02 -9.247267688817971676e-01 5.858155516646729177e-01 -7.623019214993532744e-01 2.751652592646984807e-01
-7.785165163524206122e-02 -6.447280860480768261e-02 -9.587136156785809327e-01 6.672597007405938196e-01 -5.227090859495446828e-01 5.306031504178662095e-01
6.512470149247720497e-02 4.050989822971531873e-02 -1.031324215252036325e+00 6.809260578979035028e-01 -6.119294972192652615e-01 4.023456152471380221e-01
1.016006862944479399e-03 6.889759089374512813e-02 -8.490131877180250308e-01 5.559321725843701101e-01 -7.436042851428739109e-01 3.714728611928165281e-01
-6.974727613442639751e-02 -1.179761168895749196e-01 -1.008828393022817460e+00 6.661613327074369373e-01 -4.187753584588753131e-01 6.171355426104478958e-01
-1.690345074918299731e-02 -7.451447970324444336e-02 -1.034302389171253722e+00 7.586190267798393894e-01 -4.489114179265882854e-01 4.722030400820700913e-01
1.426207952572206006e-01 1.061376879427881753e-01 -7.077159049510153288e-01 -1.038098957118863963e-01 -9.270612915989576708e-01 -3.602511168215300486e-01
1.823188740450230882e-02 -3.500841322041199632e-02 -1.051460055631254997e+00 7.625002846943559343e-01 -4.947334732234267007e-01 4.169317765693941191e-01
-4.481076549906898299e-02 -2.916275811713567312e-02 -9.565186845372078972e-01 5.224728934574609518e-01 -6.538387968012452367e-01 5.472813749797161842e-01
1.098883072529825977e-01 1.359179858582867384e-01 -7.869637487079756966e-01 3.693456268692583699e-01 -8.823117853156102752e-01 -2.917357047153041338e-01
-6.547506488193420571e-02 -2.831841505438567608e-02 -9.328265567001747804e-01 5.794213248684033646e-01 -6.438568459104649921e-01 4.997192114197448465e-01
-7.619851840920627284e-02 -3.251474711324335663e-03 -8.700675060844312858e-01 5.916209629313901042e-01 -7.572020536424211024e-01 2.768206751307328295e-01
-4.709093193487502715e-02 -3.419067521553561390e-02 -9.599779413710316511e-01 5.266354030984109480e-01 -6.294120125319905279e-01 5.713979967446538577e-01
2.416691695243447166e-02 6.864322780450959893e-02 -8.815235577735937023e-01 8.342660729389902441e-01 -5.498919337033262300e-01 4.023656037700271138e-02
5.237911127471915444e-03 -2.184035706126322141e-02 -1.012864645407944630e+00 7.350842823459148301e-01 -5.200370532553647562e-01 4.349857021667130064e-01
-7.865496158648990765e-02 -1.023546726271711699e-02 -8.825064095860873925e-01 5.987560998275651691e-01 -7.375624261963166228e-01 3.122383710928010592e-01
3.883011649591664588e-02 2.031517544888834445e-02 -1.015951185121150679e+00 7.061531938019499632e-01 -5.838553013354488286e-01 4.005754036205893542e-01
-5.096115480729268565e-02 -1.344652746053443815e-01 -1.039287498141020283e+00 6.144607400265219566e-01 -4.295705108719324317e-01 6.617455516701913343e-01
6.950009260555498058e-02 6.964921447492354589e-02 -9.950235746074622689e-01 6.721919226597667940e-01 -6.329465488829743025e-01 3.841050447053495631e-01
-8.182420597657490483e-03 -4.258918002159346045e-02 -1.014745342772030545e+00 7.398014056256182469e-01 -5.031776395534446333e-01 4.466611056357864262e-01
3.190658208914717159e-02 3.843326842302631496e-02 -9.771667759033357825e-01 7.201510330250188163e-01 -5.920272845517730032e-01 3.617819564036497959e-01
4.157281677968599487e-02 6.669571154499566445e-02 -9.441441191954998979e-01 6.950658450728079973e-01 -6.633218077759033271e-01 2.772862245805420289e-01
-7.422157309163379679e-02 -5.060869177718846368e-02 -9.491793068952367740e-01 6.453256833639544610e-01 -5.738161756172160954e-01 5.042715131661488215e-01
-7.676368698799979073e-02 8.103811520717301570e-03 -8.383481385450352041e-01 6.309254753067089494e-01 -7.135994349418764982e-01 3.044813476383045892e-01
-4.997351050397502714e-03 8.271226685957445979e-02 -8.126547684571784336e-01 5.319359443635558460e-01 -7.627301750068345987e-01 3.678135821691407847e-01
-1.035987112906493895e-01 -1.069521148102660774e-01 -9.567583569423716572e-01 7.730116294930124976e-01 -3.450639207630274985e-01 5.323381549881658348e-01
-6.460985494272190877e-02 -4.573208588584320999e-02 -9.547583159140687892e-01 5.941811413264358466e-01 -6.064799307303480047e-01 5.283283684540576175e-01
-1.241437729880145481e-02 7.974258400322374596e-02 -8.076226010314181414e-01 5.456743822638010499e-01 -7.538164148786234975e-01 3.660604884449539242e-01
3.575598963781592698e-02 8.436639443280057049e-02 -8.750996177224786843e-01 7.330723189269269247e-01 -6.601214459080484431e-01 1.638433760497066960e-01
-3.908548681615103826e-02 -1.679471062453347374e-01 -1.069601235535377004e+00 5.425903199471251437e-01 -4.074153979013772631e-01 7.345804504971111815e-01
-3.779739874909383845e-02 6.299161159651983644e-02 -8.016512752988403934e-01 5.942667359473152722e-01 -7.091737640002624410e-01 3.793673931695024648e-01
3.537533414970235601e-02 3.417763858349851663e-02 -9.900349457642596551e-01 7.045562831453440200e-01 -5.858888274025312315e-01 4.004181886544424529e-01
2.465250296911943029e-02 9.648119974807504995e-02 -8.236502839073770454e-01 4.502215550652980403e-01 -8.327604592979984677e-01 3.221964754375369888e-01
-4.321278099688945218e-02 -8.520683673845702577e-03 -9.312546790542499675e-01 5.515880451970697207e-01 -6.772062132904447251e-01 4.869726615288498262e-01
-6.621007766387400351e-02 -1.652198334243304145e-01 -1.044017014252510922e+00 6.202504339938983424e-01 -4.414531062051453292e-01 6.483891995955894938e-01
-1.428877536801233944e-02 4.482344016741657278e-02 -8.731389176021686627e-01 5.739965125333617024e-01 -7.317844802553695738e-01 3.674499667395776381e-01
9.171773070966686425e-02 1.375332015847056111e-01 -8.460313337661867772e-01 5.049076567508682389e-01 -8.625012736860319107e-01 -3.405599865398271919e-02
5.735393303877925342e-02 8.500563048117888709e-02 -9.349499571028513367e-01 6.232621801091917657e-01 -7.246970698966009872e-01 2.938680175330727895e-01
9.243231530856245437e-02 1.260090895935064847e-01 -7.818523680859901237e-01 4.988308190556860477e-01 -8.121892301336853803e-01 -3.025168894707945255e-01
8.308775518840168239e-02 1.080742869549535384e-01 -9.222449848843040643e-01 5.143603908635453470e-01 -7.825230322462145560e-01 3.508434014127825851e-01
6.861942545017973849e-02 1.172813384671422682e-01 -8.717988131890551662e-01 6.430255912982014710e-01 -7.401464190274862354e-01 1.967266309791007861e-01
-6.164141367044191633e-02 5.573556896160036279e-03 -8.771711377731080672e-01 5.898479187170031501e-01 -7.476461708916967153e-01 3.051305227868941206e-01
1.797897461122350757e-02 2.910211435451983547e-02 -9.648073718601913873e-01 7.194819055211437719e-01 -6.048957206628744476e-01 3.412432486532235298e-01
4.878881039513550261e-02 8.653713728795421958e-03 -1.052146169458060943e+00 7.399549001756902111e-01 -5.694302713810625027e-01 3.580724950912508864e-01
-5.543363651686736629e-03 -6.165543412161481052e-02 -1.039953248725359325e+00 7.494220015871460028e-01 -4.829690110738336650e-01 4.528880632998388833e-01
-3.459128421459087971e-02 7.553801947429003051e-03 -9.159807413389782216e-01 5.413402313023173429e-01 -7.283930133508543792e-01 4.199933000361028013e-01
4.834620888193682207e-03 -3.830025821120218443e-02 -1.031682150071457027e+00 7.460949407444781301e-01 -5.019273844380701677e-01 4.375057029875738523e-01
-3.762081577179542113e-02 5.865529487432815520e-02 -8.098277616142399715e-01 6.016400395564808212e-01 -6.887044909125954462e-01 4.046175811791906107e-01
6.698669927010096614e-02 5.581605021973921194e-02 -1.012020625509880034e+00 6.802553847676997556e-01 -6.051997267860182994e-01 4.135044161707073229e-01
-6.881581288978906585e-02 -9.294520816344466196e-02 -9.923286505373806188e-01 6.541339956338466655e-01 -4.391047083101304316e-01 6.158699301767976975e-01
8.842608839213113303e-02 1.354418640261321194e-01 -8.446970571809047090e-01 5.548528790467190941e-01 -8.309653152925290387e-01 4.043423542438741303e-02
-6.737121053279671035e-02 -6.925607390848874390e-02 -9.748985367512548184e-01 6.201282804381800240e-01 -5.221192304373807325e-01 5.855189365069787266e-01
1.828001603229078426e-02 5.530339195404294916e-02 -9.055098035200095374e-01 7.677536694219336821e-01 -6.156109435722102452e-01 1.777005043416845231e-01
9.018392352201802520e-02 1.183169573773467514e-01 -9.102229759962364719e-01 5.485112218908536619e-01 -7.508444045156071889e-01 3.679240678012323795e-01
-4.310326619043132468e-02 -3.424696312107840257e-02 -9.637154094450693931e-01 5.304650686239452684e-01 -6.264171871122516944e-01 5.711464949206701558e-01
1.686238961870573441e-02 1.486195445440491140e-02 -9.848246177875134011e-01 7.239559907547877815e-01 -5.646352966197474288e-01 3.963265134474142637e-01
3.536536821226411720e-02 1.087400009846198334e-02 -1.023311452512128295e+00 7.259876669781215597e-01 -5.615326529456992066e-01 3.970176155681623964e-01
-1.673527900490201156e-02 5.761142954034335212e-02 -8.441656024607351316e-01 5.856778244082619933e-01 -7.185444370960443194e-01 3.750671645382113728e-01
-5.031716904180248001e-02 2.771713619786882188e-02 -8.467258301011839627e-01 6.244663493896731588e-01 -7.035649171487032838e-01 3.391727964290074948e-01
6.356894403905978541e-02 8.006984509852078935e-02 -9.614614365667367712e-01 6.347963770305713460e-01 -7.229440939727320714e-01 2.727368634761467292e-01
-7.783765637848384655e-02 -1.551731464415089801e-01 -1.024225681912665609e+00 6.734926773994001081e-01 -4.345697314072968775e-01 5.979605020684702898e-01
-8.406791494408170917e-02 -6.469460490478166903e-02 -9.510715081183641617e-01 6.899922532072423342e-01 -5.097776192533505224e-01 5.138457642351240695e-01
7.570152977261167260e-02 1.155905808195089035e-01 -8.933628635735532120e-01 5.613211315384375455e-01 -7.620892124532716583e-01 3.227051588536514193e-01
-4.270259829709817379e-02 1.519750566187867864e-02 -8.888914986745368729e-01 5.728221497697132403e-01 -7.397181938549665103e-01 3.531172304110216098e-01
1.092034454288529771e-02 -3.793391128888579100e-02 -1.041806878240809642e+00 7.560127180122847568e-01 -4.981784372165802277e-01 4.245739215921338627e-01
-6.728772503746266453e-02 -1.188179472389867819e-01 -1.012094253733883509e+00 6.711640211866365391e-01 -4.193749030962209412e-01 6.112802526808954751e-01
-1.013909106238805730e-01 -8.571938012224453174e-02 -9.451060871182781487e-01 7.511038517496677613e-01 -4.012810005588337003e-01 5.242294940932971103e-01
-1.203295638903207829e-02 -2.664822464712352651e-02 -9.888200601092881348e-01 7.439040896000547187e-01 -5.307743492680521147e-01 4.060607043723754028e-01
1.738118623606165966e-02 6.550883207528557239e-03 -9.973574287964072083e-01 7.231104559723262604e-01 -5.514916484625725923e-01 4.158944940000150470e-01
-3.929871749166296419e-02 -9.706199245023665323e-02 -1.023828873392243155e+00 5.679061342068502105e-01 -4.893401430582725031e-01 6.618374778765104827e-01
2.384143151320453156e-03 -1.358325903205923613e-01 -1.100373158640421289e+00 6.028749661506342949e-01 -2.901711738687838271e-01 7.431974603323693307e-01
4.696386665305345848e-02 6.852429060087905643e-02 -9.526138811888003044e-01 6.618927276433353990e-01 -6.964023617061255722e-01 2.773477378725053843e-01
-8.314894739155016812e-02 -1.037319954622103191e-01 -9.829309174606813970e-01 7.397979095309559217e-01 -3.741356938206470972e-01 5.592151067907326079e-01
