-2.682409425602622632e-01 1.839348841129053724e-01 -6.481835027151356954e-01 1.603248618870822817e-01 -8.733586959166550479e-01 -4.599353508131852619e-01
5.167609539696542409e-02 -2.715878658713802296e-02 -8.452385768925969600e-01 -9.943408539716052097e-01 -9.950608353450104970e-02 -3.721297438587536921e-02
4.169307440469564169e-02 8.856578303234099656e-03 -8.094264031865562314e-01 -9.613640458144717682e-01 -1.971264090277349834e-01 -1.921466894824376825e-01
-1.704731124589371413e-02 8.418658773516256993e-03 -5.944061226604163695e-01 -8.057010712407850495e-01 -4.877914051929040928e-01 -3.360138818879118694e-01
5.095716156870604835e-02 -2.157893165232167287e-01 -8.493778909436173752e-01 -9.124774756282455490e-01 4.045640362907723109e-01 6.093272528964391310e-02
1.100135048480525325e-02 1.150089787002902576e-02 -7.260689789712820863e-01 -8.884670365944034032e-01 -2.087772011949116380e-01 -4.087033216727978258e-01
-1.078444056217282426e-01 1.449385426554752332e-01 -6.047567934855005989e-01 -5.072032441441083339e-01 -8.105540811900833198e-01 -2.928258024761335454e-01
4.888673570655757694e-02 -2.079184109424654092e-01 -8.299535194112487302e-01 -8.278529226961917065e-01 3.148205441569681962e-01 -4.642710020667707993e-01
4.245561215441290802e-03 7.526263214754595754e-02 -7.702084721462348904e-01 -8.556059161347322473e-01 -4.177767546911930752e-01 -3.056159346548216749e-01
4.693564652098011075e-02 -1.399509323041217002e-01 -7.112039428693864851e-01 -9.900851715637758454e-01 -1.276564048422074715e-01 -5.861053960074827374e-02
-7.703781898333361688e-02 1.316480171877138228e-01 -6.351233259302929701e-01 -6.851527824292166224e-01 -7.009090011106141604e-01 -1.982226951981628238e-01
-6.213547329397201696e-02 1.115509740871075128e-01 -6.248674178997279949e-01 -7.936806955141902931e-01 -5.631406346292485710e-01 -2.300947178826114325e-01
-7.512618662753762014e-03 6.354381072118135687e-02 -7.246469670567027288e-01 -8.703721195786545684e-01 -3.479100379945340715e-01 -3.484407825195013353e-01
-1.465833841454014866e-02 7.735575605508211716e-02 -7.206370525668451821e-01 -8.741107317929813769e-01 -3.604122377542542388e-01 -3.256277743702297722e-01
4.355361393585971408e-02 -2.288596440727058701e-01 -8.514669345892726948e-01 -8.170214651189718902e-01 5.261487583699058224e-01 2.358885533480908070e-01
4.566724512900697391e-02 -1.384477556518153019e-01 -6.777031366044204974e-01 -9.865602626300130629e-01 -1.596760002449940374e-01 -3.467597360075539564e-02
-7.889244692566826922e-02 1.162109671949897866e-01 -5.923625691269287508e-01 -7.155250149990358688e-01 -6.081616192402823362e-01 -3.437490331530658194e-01
-3.178962918530414683e-02 9.489325280626385861e-02 -6.953419632644444182e-01 -8.656317233347433637e-01 -3.575444186892398624e-01 -3.504906678082824745e-01
-1.660042506693878428e-01 1.787476967343262779e-01 -6.371963378346515716e-01 1.361805391127778216e-02 -3.918926059621311575e-01 -9.199101771368112246e-01
-1.113355734592498952e-01 1.691451485956558809e-01 -6.516421438765006569e-01 -4.284988907374346900e-01 -6.836870359536388886e-01 -5.907289882050107410e-01
2.675498032925281537e-03 -9.545807438645118395e-03 -6.324261080057143047e-01 -9.266364032438872966e-01 -3.275855840807171404e-01 -1.844794332323452524e-01
-9.390574575766466592e-02 1.383900309667332740e-01 -6.123445128059582521e-01 -5.732190590632615379e-01 -7.714093121058948066e-01 -2.763106648736879389e-01
1.345306235431412145e-02 -4.095557858758235026e-02 -6.365808354952686710e-01 -9.452057910553579578e-01 -2.759111653868439040e-01 -1.745251883548299410e-01
2.075045105100318046e-02 -2.322688965090187116e-02 -7.234765668645265491e-01 -9.480374018294343008e-01 -3.127810835845955539e-01 -5.825013720277458229e-02
5.276699745257264901e-03 1.294066518517217844e-02 -7.070120765502682092e-01 -9.111826138998884161e-01 -4.080677333269238649e-01 -5.680641815845613452e-02
7.220856084221494685e-03 -3.791221755310660718e-02 -6.091456763474523139e-01 -9.418372601493739671e-01 -2.808792274650314114e-01 -1.845248898467838627e-01
7.206969838205045005e-03 3.968298662557931400e-02 -7.376287435724457886e-01 -8.708185647957761288e-01 -3.362195396644175882e-01 -3.586522666244728041e-01
-8.525593719117675884e-02 1.614674460151143964e-01 -6.669838552523363884e-01 -6.119168022497845083e-01 -5.788209343600095869e-01 -5.390029249187830995e-01
4.344123368845026478e-02 2.076839096541466603e-02 -8.329288145895595852e-01 -9.745080568386627062e-01 -1.921368458548815272e-01 -1.158338448877156840e-01
-7.828579309806781017e-02 1.326047067498708765e-01 -6.341925515225448340e-01 -6.851527824292166224e-01 -7.009090011106141604e-01 -1.982226951981628238e-01
4.582193444250256403e-02 -1.227430554145984842e-01 -7.856842551519380713e-01 -9.660441168185994743e-01 -2.087432506934622234e-01 1.522662787688023323e-01
-3.932408042367233070e-02 9.448504461563278500e-02 -6.790163166007118223e-01 -8.210585595156927319e-01 -2.837849020823069446e-01 -4.953069464444759817e-01
5.483616467253292492e-02 -7.360198694196380675e-02 -8.564951258143009838e-01 -9.983344046347388812e-01 -5.754034347585184478e-02 4.186334349128471681e-03
5.048590473129963702e-02 -2.046163307129829079e-01 -8.208221438128168179e-01 -9.654612140247450514e-01 -8.133548467389879744e-02 2.475261261902013121e-01
-5.982766812490353248e-02 1.372647982092727037e-01 -6.768593190360916445e-01 -7.858102563054446543e-01 -4.014307328295818600e-01 -4.704844395142909197e-01
-4.707735198450900549e-02 1.160694838867900036e-01 -6.810870551594184752e-01 -8.310397065639899550e-01 -3.540459092390364493e-01 -4.289807691087576536e-01
2.091703220736471774e-02 -5.085533232809355715e-04 -7.421856229946069972e-01 -9.036340235449089597e-01 -1.955287537590698066e-01 -3.810696234882331446e-01
4.389347621101998692e-02 1.780309986724311344e-02 -8.321703530243842462e-01 -9.722057468479837761e-01 -1.784400768255371417e-01 -1.515754755171516144e-01
2.249196211281534463e-02 7.261491593277530354e-02 -8.188722980502657345e-01 -8.575216846093957068e-01 -4.229720710571208686e-01 -2.928330369516288223e-01
3.139412329677003510e-02 -6.081028386522291211e-03 -7.653755497102024963e-01 -9.234606646626702942e-01 -1.898746044185817550e-01 -3.334187088596952675e-01
8.461330015617019376e-03 8.997888282027646789e-02 -8.048962428208416009e-01 -8.447857588421850972e-01 -4.530380510842898500e-01 -2.847692854350373781e-01
4.603420364232192058e-02 -1.165766866165603988e-01 -7.849388793672609221e-01 -9.338262437200300914e-01 4.931311105141617662e-02 -3.543116758140627542e-01
-3.545848200565825808e-02 3.766949628918093290e-02 -5.941879958565646769e-01 -7.888291121601042066e-01 -4.358088012552658319e-01 -4.333812646586719941e-01
5.271232680849135405e-02 -2.030586869455784094e-01 -7.967277013678715214e-01 -9.916442887995937649e-01 8.960842318667318340e-02 -9.280051177200530910e-02
5.257236963311859301e-02 -1.811531985235065589e-01 -7.823934355132268204e-01 -9.994262878587863996e-01 -2.101795987477119917e-02 -2.655824729738305578e-02
4.887818509520444610e-02 -2.184555157456905261e-01 -8.409035038463300582e-01 -8.966915718479576691e-01 3.953180141939868220e-01 -1.991680010206501872e-01
-1.645166633997252326e-01 1.814191228487539165e-01 -6.391658407241854745e-01 -4.453481158164469128e-02 -6.319206612071256446e-01 -7.737524982169274868e-01
-6.215792470642486633e-02 1.452011675392420598e-01 -6.807280865531386560e-01 -7.331669260879861705e-01 -4.755310307822819271e-01 -4.861445230112477756e-01
3.189952601413362232e-02 2.399771699134721492e-02 -7.884143977148370119e-01 -9.159635486232339252e-01 -2.788763999325120091e-01 -2.885112322843156329e-01
-2.519092725076635397e-02 1.069207001432826293e-01 -7.246443815153550405e-01 -8.835026346939487407e-01 -3.491201984004380643e-01 -3.123110333588770549e-01
2.798230125975264757e-02 -5.419239510490367166e-03 -7.568260108871704972e-01 -9.170134769386647511e-01 -1.754408371064862249e-01 -3.581993799383751398e-01
3.955864000520059598e-02 -8.550880665401117131e-02 -7.525362294785010731e-01 -9.783715264771838394e-01 -1.978988560199462787e-01 -6.020962518320309431e-02
2.057143681557553963e-02 -2.403442769375882873e-02 -7.190746031689970730e-01 -9.427483786983728020e-01 -3.151738343313741364e-01 -1.090456262967428869e-01
-4.537770219185965903e-02 6.801096022915702199e-02 -6.038306367460728463e-01 -8.443539774177741819e-01 -3.723216322057357197e-01 -3.852829648588707023e-01
-4.771028327142528419e-02 1.298071720436246579e-01 -6.923228293909128306e-01 -8.366393139025620762e-01 -3.774097354222173961e-01 -3.969843196414464259e-01
1.223978933780689622e-02 3.841631392183110505e-02 -7.488180091718008580e-01 -8.745984823670190922e-01 -3.326021921514563662e-01 -3.527793593981268794e-01
-6.903892707187446465e-02 1.243759450200249278e-01 -6.387343427154006381e-01 -7.341325199757449127e-01 -6.557305254803090788e-01 -1.762581092244557834e-01
2.818359978817341904e-02 -6.734444179648345352e-02 -6.813292639838490761e-01 -9.609194466756978414e-01 -2.535237799964845107e-01 -1.111733330289449845e-01
4.983142842479992840e-02 -1.616960681439971181e-01 -8.074478464433030300e-01 -9.179260085785821977e-01 1.520396761464431201e-01 -3.664638858772819585e-01
5.544711479072689936e-02 -1.827074630341728456e-01 -8.388561548601641826e-01 -9.818013684475898062e-01 6.895592306303323371e-02 -1.769495792279967838e-01
5.227247133833876763e-02 -1.805685419022428351e-01 -7.742018569715877208e-01 -9.977619974472198283e-01 1.859919640845359573e-02 -6.422667937153606066e-02
1.511927129003667533e-02 -2.125478826048526892e-02 -6.826956157774745071e-01 -9.420685281151728319e-01 -3.126294722820856520e-01 -1.215306603106237615e-01
4.375420963141793407e-02 -3.122271894594977337e-02 -7.895791157822388273e-01 -9.480938101000023766e-01 -1.093695727104688903e-01 -2.985907296203117456e-01
3.043759519815100387e-02 -6.871278606480789308e-02 -6.976154102248953714e-01 -9.623801681757497839e-01 -2.507185124954631750e-01 -1.047121740490474656e-01
-9.619348859288831067e-04 -2.013854576635237120e-02 -5.986431883661483822e-01 -8.905713301463574760e-01 -3.875748988179056886e-01 -2.380512628146256304e-01
5.121474261394396571e-02 -1.720494057365087037e-01 -7.568440161621561302e-01 -9.939210265377416142e-01 4.137325675012142046e-02 -1.020257155429473428e-01
1.520738168567745650e-02 7.046494116616024150e-02 -7.945492955721886741e-01 -8.424778194846817003e-01 -4.460483223370974026e-01 -3.021125912910562206e-01
4.434950830001141431e-02 -1.300561010895023295e-01 -6.803097432678544276e-01 -9.812478508648158071e-01 -1.911637445377063482e-01 -2.467950460408164376e-02
-1.599720458871703443e-01 1.747586958762199494e-01 -6.248126482960938421e-01 -2.511704671642181474e-01 -9.271512612157877253e-01 -2.780358524551872490e-01
4.710383122695546015e-02 -1.405138975701379356e-01 -7.128188582447455568e-01 -9.900851715637758454e-01 -1.276564048422074715e-01 -5.861053960074827374e-02
3.586985569093668349e-04 9.841412049590006483e-02 -7.935597130965835744e-01 -8.742699650626341024e-01 -4.117535701547633264e-01 -2.571206441618156258e-01
4.796877668904566544e-02 -3.426351034375479249e-02 -8.041901127033098673e-01 -9.707346299585040139e-01 -8.718351265427973229e-02 -2.237706712699128186e-01
-1.037903663470299831e-01 1.489747121605259628e-01 -6.227153444089500445e-01 -4.922617544315865956e-01 -8.226975438453527634e-01 -2.843362735824610521e-01
-9.879041882162629962e-02 1.377408266336764275e-01 -6.010564841786109058e-01 -5.790945165561730557e-01 -7.617162579893361762e-01 -2.905819733040836406e-01
-3.408741787081991104e-02 1.333963008945238116e-01 -7.285165599257552582e-01 -8.776634052586560486e-01 -3.451301794508361831e-01 -3.325539148799986910e-01
4.784759530510847292e-02 -1.930139757244679344e-01 -7.433310922925235875e-01 -9.825861547723787615e-01 1.661993551378427025e-01 -8.307961724391957348e-02
-4.755698948992991004e-02 1.002604188888132491e-01 -6.557633502174912143e-01 -8.342448903918030512e-01 -5.401864914623590863e-01 -1.106074920462212369e-01
5.842312762292711792e-02 -1.496504145264641317e-01 -8.497813641308855637e-01 -9.922541359926109195e-01 1.401450796159988462e-03 -1.242166073487072503e-01
6.005241470246015789e-02 -1.781514945837047725e-01 -8.645894772816640206e-01 -9.878797656045918973e-01 8.863085265186068651e-02 -1.274289632195945154e-01
2.637828763825512610e-02 -3.248112873847604914e-02 -7.434930980412693957e-01 -8.914740729846276635e-01 -6.306192806646375437e-02 -4.486615321428160108e-01
-2.027043832010797571e-03 7.802715744978007406e-02 -7.562377674418230278e-01 -8.710811925628949570e-01 -3.936545100863204638e-01 -2.936897728078112224e-01
-5.780312913863555266e-03 2.449722840408668709e-02 -6.601552221467072989e-01 -9.052663581190698583e-01 -4.014639838962893448e-01 -1.389945700088894565e-01
-5.853002295919424759e-03 6.012980667043942712e-02 -7.253837279318955389e-01 -8.703721195786545684e-01 -3.479100379945340715e-01 -3.484407825195013353e-01
3.717117917843731217e-02 -8.895658224290335647e-02 -7.156180982116365774e-01 -9.714600725557134275e-01 -2.223390922105965006e-01 -8.264777979483584058e-02
5.430892903816648964e-02 -1.684701508724154861e-01 -8.281587024084530180e-01 -9.774374148887798874e-01 6.576026200495428686e-02 -2.007278952128453697e-01
-6.652778161042029181e-02 1.591521285721994861e-01 -6.880153532495798530e-01 -6.831251285629117431e-01 -5.418450227976687739e-01 -4.896366305693428678e-01
-5.749078289799072761e-02 1.109639780839329765e-01 -6.416388545027623680e-01 -7.818639528573995134e-01 -5.990188471845159235e-01 -1.728154505243548467e-01
5.889585455735296682e-02 -1.414876411135192746e-01 -8.549775796005936179e-01 -9.902218131497239062e-01 -4.163994009283161768e-02 -1.331423154055026703e-01
-1.808083797112378099e-02 1.269287075716559743e-01 -7.712138785690700882e-01 -9.024251976372135164e-01 -3.421031716338553963e-01 -2.619049114230064812e-01
4.880559682008185629e-02 -2.203180842579282317e-01 -8.451162056889450769e-01 -9.099877634038446850e-01 3.860310491499854280e-01 -1.513350572320569243e-01
-5.071734307380992152e-02 1.657958575518416189e-01 -7.229395934111148003e-01 -8.219293521761759092e-01 -4.255544704363574682e-01 -3.785967943906596855e-01
-2.558747844422701312e-02 1.067125797556404548e-01 -7.232899207052808643e-01 -8.835026346939487407e-01 -3.491201984004380643e-01 -3.123110333588770549e-01
4.816083652672838861e-02 -1.566281411371355514e-01 -7.093859524982061293e-01 -9.976974275089264266e-01 -2.681905032012968718e-02 -6.229431500543951283e-02
-4.426427870462504993e-02 1.515844468683248125e-01 -7.217561815196573693e-01 -8.595076841590461036e-01 -3.645433936458324919e-01 -3.582661790076384634e-01
-8.572644990892308581e-02 1.627787549556954094e-01 -6.678578735679726597e-01 -6.119168022497845083e-01 -5.788209343600095869e-01 -5.390029249187830995e-01
-1.907584651716251120e-02 3.305692906214256765e-02 -6.242696626352842726e-01 -8.468702274916463102e-01 -4.297623724911455168e-01 -3.132333331224970152e-01
-1.193107005796907455e-01 1.740056769769519340e-01 -6.516186615945452898e-01 -4.199379957380981465e-01 -6.992648149579370198e-01 -5.785160311497956620e-01
4.707420658737040270e-02 -6.503336584169099044e-02 -7.907170378285636181e-01 -9.689518145669914206e-01 -4.752156888256819922e-02 -2.426398185341265001e-01
5.322800509488566367e-02 -5.157506721036243108e-02 -8.351632678874345572e-01 -9.955854278021667447e-01 -7.939212280182743331e-02 -5.006542504559644002e-02
-2.965882973781151788e-02 1.235624633236265951e-01 -7.304537141232272379e-01 -8.896354327952631369e-01 -3.388975863267296718e-01 -3.061000207401198825e-01
4.915816721881419160e-02 -1.678388435554178104e-01 -7.264240146715371660e-01 -9.962771775735848045e-01 4.539792515688292895e-02 -7.328583654064448061e-02
-8.107229324869583142e-02 1.295958880199490071e-01 -6.171297676593051618e-01 -6.317536731310073872e-01 -7.277951808102617326e-01 -2.668360381860717667e-01
2.055841072104396330e-02 -6.613342668055349760e-02 -6.331058192013925279e-01 -9.293963153340336625e-01 -3.233547062302501440e-01 -1.779444379638490670e-01
-1.816272406246629001e-01 1.868558236482277812e-01 -6.440311468414436913e-01 -3.812375576820031201e-03 -7.488594253077420770e-01 -6.627179090082142565e-01
-2.111434298043210825e-02 8.946301005069183521e-02 -7.166204027074293270e-01 -8.730942428306558423e-01 -3.564943302343356324e-01 -3.325931984372744177e-01
3.010741551406694722e-02 -8.391985297520135334e-02 -6.556634405068005877e-01 -9.439661900365081681e-01 -3.022459039646095413e-01 -1.325716621475909740e-01
-1.064066497614941792e-01 1.824952951636325815e-01 -6.712768544227986078e-01 -4.800732084511495912e-01 -6.680965762970064725e-01 -5.684863052595349187e-01
-2.910122247539958379e-02 7.209755499225976860e-02 -6.671923161949627756e-01 -8.609868022511678598e-01 -4.964347310248486411e-01 -1.106990703736699111e-01
4.669539361719385329e-02 -5.226102882910923023e-03 -8.212742196412624596e-01 -9.768898712355900127e-01 -1.538642791486646844e-01 -1.483642917934575312e-01
-3.648688789453581605e-02 5.640197966193531004e-02 -6.120703411567489649e-01 -8.449169272436377609e-01 -3.950077209963390734e-01 -3.606719928278987464e-01
-8.615608030875543388e-02 1.731632546660215877e-01 -6.789330509159270388e-01 -5.431961547679281521e-01 -6.393155482441728044e-01 -5.442550571364401790e-01
-4.296177647656512083e-02 7.289380559067032417e-02 -6.150412032768757253e-01 -8.483459397243344746e-01 -4.060723772041669455e-01 -3.397269359721021287e-01
5.125939012067034367e-02 -1.701878953322274735e-01 -7.573952333522081526e-01 -9.988616505081024943e-01 -1.172804504630847039e-02 -4.623695603757913691e-02
-6.858943643225903775e-02 1.363249923509974593e-01 -6.632026331580141987e-01 -7.182819165037231945e-01 -4.456028318663041166e-01 -5.343306136246255278e-01
2.025987995762887003e-02 4.277775379500088626e-02 -7.734286097143363570e-01 -8.649850758258115224e-01 -3.794527894393931455e-01 -3.283540759382752028e-01
-9.924157499841487762e-02 1.414961841517193009e-01 -6.101101401795198109e-01 -5.819340598294751032e-01 -7.622908490699877859e-01 -2.833115095341919298e-01
4.704041623652351067e-02 -2.279940648706599848e-01 -8.278726676884823332e-01 -8.965962478222451182e-01 2.233957242285390665e-01 3.823735330635187335e-01
-3.271992382856746956e-02 1.478304678351830825e-01 -7.482737983719540686e-01 -8.894760969149506646e-01 -3.429915945043197079e-01 -3.019752293091761408e-01
-2.535111389954847194e-02 1.386297433517729438e-01 -7.609020605766435574e-01 -9.026478483293397526e-01 -3.294604461498213399e-01 -2.769163706413431680e-01
4.872313566243972882e-02 -6.438189324684624737e-02 -7.974294225847478046e-01 -9.689518145669914206e-01 -4.752156888256819922e-02 -2.426398185341265001e-01
4.831470531064854801e-02 -1.713806264583316030e-02 -8.195828698735567741e-01 -9.768898712355900127e-01 -1.538642791486646844e-01 -1.483642917934575312e-01
-5.419761811946082614e-02 1.295329878281635261e-01 -6.795419333453028843e-01 -7.797786626845572000e-01 -4.231849597493021475e-01 -4.613672366606294539e-01
-1.432314529881314191e-01 1.748433187125269239e-01 -6.370579068805853895e-01 -3.714435555351364160e-01 -7.036710922701814308e-01 -6.057034579352387205e-01
3.453147925426874876e-02 -7.567556378179167431e-02 -7.206349501848942074e-01 -9.678907461039877314e-01 -2.314489311364293089e-01 -9.807596995222928049e-02
5.617607921046145064e-02 -1.866609362043801235e-01 -8.442829534163673877e-01 -9.719496657635279258e-01 9.879913641940220315e-02 -2.134304989099419791e-01
-9.019725116067975682e-03 1.745829460346014564e-02 -6.308855854809553021e-01 -8.722555984848762156e-01 -4.114704475701576603e-01 -2.643146641565778387e-01
-5.715615598649254753e-02 1.142104564496076585e-01 -6.604213916156318476e-01 -7.792048924076566685e-01 -6.267166145635088004e-01 8.125310949529652993e-03
5.190780773518361563e-02 -2.082501992043683803e-01 -7.933100335506273471e-01 -9.767201378029741754e-01 1.536980396375264568e-01 -1.496485383213630727e-01
1.750912566970191930e-02 8.106767548756871333e-02 -8.169409709733558289e-01 -8.366294427337628292e-01 -4.585756451783610799e-01 -2.995989873151170269e-01
4.906968027412963312e-02 -2.143690460797114949e-01 -7.831786725202407595e-01 -9.610515748077499421e-01 2.155147877465216355e-01 -1.730122736169765474e-01
-2.373640569954662237e-03 2.737468619323290067e-02 -6.954560587757682155e-01 -8.932259554288934922e-01 -4.374640513807011577e-01 -1.037911185878804959e-01
-1.201448821595594955e-02 3.929039271192966837e-02 -6.655665559635343120e-01 -8.909310027773300611e-01 -4.299061575941733881e-01 -1.463647633578349927e-01
4.097091752152298011e-02 1.215911092564882267e-03 -7.995501326857649138e-01 -9.535370273347840708e-01 -1.895309436770380163e-01 -2.341904329609446611e-01
5.121254960386417698e-02 -2.221263403631213440e-01 -8.079869163342765503e-01 -9.708703512160604676e-01 2.099327877339830506e-01 -1.154945269865280677e-01
9.916643278497162123e-03 6.730321996469626478e-02 -7.751992032192025484e-01 -8.542538809106964282e-01 -4.140298079548956345e-01 -3.143717943356967859e-01
5.881515592064778808e-02 -1.257255009932753687e-01 -8.624698742055202372e-01 -9.913193976381581285e-01 -9.254633948502674623e-02 -9.338643859919655565e-02
5.257716369626703329e-02 -1.795044911285552380e-01 -7.891089318297640487e-01 -9.979391028870298053e-01 -5.844343570735837518e-02 2.649361718885763842e-02
2.502812007930386995e-02 -7.743326521247059779e-02 -6.370496267600744833e-01 -9.266196131809888437e-01 -3.432457117793490942e-01 -1.534876992250608363e-01
-6.229285412326351912e-02 1.719139957678185449e-01 -7.087050367216647384e-01 -6.848999603702140559e-01 -5.563057494396134173e-01 -4.705698220512117835e-01
2.753447702305893488e-02 6.814416013367316505e-02 -8.279266811948379212e-01 -8.876175392652416729e-01 -3.741584675462586995e-01 -2.685899200494169525e-01
-1.448467915872720356e-02 3.746525111441522532e-02 -6.478817110985104488e-01 -8.776707573266836482e-01 -4.386292257245574255e-01 -1.931280509762388076e-01
4.848641432149065206e-02 -1.679256817634106891e-01 -7.116293650201048759e-01 -9.944686875118718961e-01 8.314865966320922341e-02 -6.417421565260020277e-02
-1.648514721814766937e-01 1.773004620764292716e-01 -6.340187011214104551e-01 -1.806254915682679318e-01 -9.829916581871268599e-01 3.319385078963082297e-02
5.998292813398032469e-02 -1.730865445246571876e-01 -8.606416037625397308e-01 -9.875143010484315198e-01 8.701091853331748005e-02 -1.313187164147454344e-01
4.081119322819904555e-02 -7.393210244989217861e-02 -7.701437176738719081e-01 -9.277948541451844777e-01 -4.081766236164904166e-02 -3.708512195760534369e-01
-7.808301999493146017e-02 1.290362565250055826e-01 -6.237142388321207376e-01 -6.855161520496796390e-01 -6.790293517226440034e-01 -2.626532786357831939e-01
-8.574762421459462824e-02 1.416794930151439591e-01 -6.450746127829941612e-01 -6.121383923761362089e-01 -7.847313204336588965e-01 -9.738245894207891995e-02
5.596073276541415481e-02 -9.141705139516960454e-02 -8.595399639876938336e-01 -9.963222784938646770e-01 -7.308299563137542199e-02 -4.473022609308118652e-02
5.652653722874245723e-02 -1.408658133913575916e-01 -8.361362630372665139e-01 -9.896429390991362540e-01 4.656353817366923505e-03 -1.434753339788779336e-01
4.259280229939628459e-02 -3.999688137489326029e-02 -7.825411409939742047e-01 -9.483158581186236225e-01 -1.163983311217131889e-01 -2.952091830428357766e-01
2.762632491151088832e-02 -2.200047634085730217e-02 -7.489174086004795061e-01 -9.113950747222575588e-01 -1.426559342353709847e-01 -3.860159351625839785e-01
3.969063788189094305e-02 -2.371448578361418091e-01 -8.368255659030461313e-01 -8.708414221607099215e-01 3.919971249122348178e-01 2.966032223521083977e-01
2.860225974747382383e-02 -2.912470393290154252e-02 -7.489439926404065639e-01 -9.098920523366094137e-01 -9.483565113672287605e-02 -4.038596939137979458e-01
8.663782301727242230e-03 6.305155771141875143e-02 -7.661974320747223510e-01 -8.606842140659476392e-01 -3.953750730151128767e-01 -3.207822240959997129e-01
5.089807435566414545e-02 -1.523233429777455517e-01 -8.075717277048597431e-01 -9.583620193187086800e-01 7.282371990303955489e-02 -2.761140086030598462e-01
-1.266574564772078304e-01 1.647584793677240866e-01 -6.330518379374293625e-01 -4.234663727845305869e-01 -8.897250441544600763e-01 -1.704862954171295630e-01
-1.559543145717559804e-03 8.571659236270774695e-02 -7.681091524569781948e-01 -8.713713532850927423e-01 -4.037981074420187166e-01 -2.786737395241076221e-01
-2.598352201192173916e-01 1.828301868188055845e-01 -6.433708716269836980e-01 1.438154609708673093e-01 -9.163128559512736526e-01 -3.737483955874016939e-01
5.142309824473254021e-02 -1.987669189997690045e-01 -8.304419186714707690e-01 -9.426907726213957783e-01 1.756348608260474564e-01 -2.837014326313681001e-01
-6.306786032999461833e-02 1.096662089253973849e-01 -6.174773070732063607e-01 -7.575181797310857057e-01 -5.813737609086823133e-01 -2.969356117137130213e-01
5.380119414756542873e-02 -6.910195270694025060e-02 -8.268635743550101225e-01 -9.949169729369580217e-01 -4.610146477043988722e-02 -8.952581699141345939e-02
-7.480367417006954060e-03 4.801979427299679637e-02 -7.101183807808565396e-01 -8.712366226795529300e-01 -2.943313160273538509e-01 -3.928305279729826238e-01
4.909523128342755532e-02 -2.962666980699851793e-02 -8.134237467535785360e-01 -9.845244293856477702e-01 -9.109047938156818180e-02 -1.497136350133166927e-01
5.410054447668000838e-02 -7.403650031507309770e-02 -8.278518187893839642e-01 -9.961298692894144935e-01 -4.290242724073752012e-02 -7.671157178879516036e-02
5.233509058139836773e-02 -6.623125066648311021e-02 -8.150564803027812166e-01 -9.844439106726937672e-01 -5.101823005604375072e-02 -1.681288997805013841e-01
4.228491090827828092e-02 -3.711180227238215779e-02 -7.826896462113903663e-01 -9.483158581186236225e-01 -1.163983311217131889e-01 -2.952091830428357766e-01
2.915252104986284371e-02 -4.875955910234307245e-02 -7.329377914423438334e-01 -9.604727994435515726e-01 -2.621029853675696519e-01 -9.377647141194214719e-02
4.975618059677397453e-02 -1.881410334580584098e-01 -7.547748261864865027e-01 -9.877896384611805081e-01 1.289342038638400800e-01 -8.745056445059747052e-02
-2.377798633377248283e-02 1.175851236329415184e-01 -7.409821374269478511e-01 -8.906180140099252407e-01 -3.371232820627426130e-01 -3.052006648293234536e-01
5.033785034362662364e-02 -1.507766945618641830e-01 -7.558852017769068787e-01 -9.957966140954301881e-01 -8.404159828752857941e-02 -3.641583602438165645e-02
-3.696556657427740172e-02 1.529087745422354760e-01 -7.415453456181090308e-01 -8.904132150595349682e-01 -3.285046890229585959e-01 -3.150380544271940697e-01
4.592905450075408791e-02 -1.254059970075907249e-01 -7.332801038002763061e-01 -9.836199110565085890e-01 -1.713162443058233730e-01 -5.605903147694987071e-02
4.207218045419779812e-02 -2.322480623337083716e-01 -8.490401567779906067e-01 -8.170214651189718902e-01 5.261487583699058224e-01 2.358885533480908070e-01
-6.547088117362033499e-02 1.766244279091821467e-01 -7.095759042698625008e-01 -6.905820160929247997e-01 -5.543932007494621894e-01 -4.644832160711491187e-01
5.209476540496241898e-02 -7.249374607405086046e-02 -8.120919519910290152e-01 -9.877234223862669804e-01 -2.526222390181188243e-02 -1.541566116424941124e-01
-3.491550323527545848e-03 3.044124744919992492e-02 -7.021422029956435606e-01 -8.759877471313992636e-01 -4.822669578537374102e-01 -8.003014316944841167e-03
-7.196035676191299066e-03 7.477652641260688904e-02 -7.377293091351485588e-01 -8.715737204554455664e-01 -3.756015241963550078e-01 -3.150916451333289903e-01
1.893393288709134883e-02 -5.997392147185617167e-02 -6.349200268432703131e-01 -9.368763116235379051e-01 -3.070029177739183601e-01 -1.673678141010884468e-01
-5.274011959809955796e-02 9.126271216461558089e-02 -6.140698437451795888e-01 -8.464086902754269781e-01 -4.560496310818966670e-01 -2.749746588620524679e-01
-1.885066540483338769e-03 -7.123565122086821660e-03 -6.163374196419445505e-01 -8.961737075597083768e-01 -3.811376682519057035e-01 -2.271712211486888733e-01
-3.881796160249251226e-02 1.441381365325268560e-01 -7.271799542236399017e-01 -8.776634052586560486e-01 -3.451301794508361831e-01 -3.325539148799986910e-01
-3.016130206770924888e-02 5.516262792315645286e-02 -6.256538163961375965e-01 -8.386646216455784231e-01 -4.383467857826928160e-01 -3.232549269447577145e-01
2.441330524236697691e-02 1.787503707135988662e-02 -7.620880598839365749e-01 -9.107052167193535608e-01 -2.317446038893670734e-01 -3.419216968961100167e-01
-3.270411807294091450e-02 7.002445566630258189e-02 -6.423225137703801879e-01 -8.635407074937240246e-01 -4.681310310265515695e-01 -1.874854242101411106e-01
4.804839415818497328e-02 -2.177685293580095549e-01 -7.822711737950358568e-01 -9.529531268543360856e-01 2.369499477006122845e-01 -1.890371929098104975e-01
1.832026866206046614e-02 -3.383523955562159347e-02 -6.783852651259871802e-01 -9.507556116821396230e-01 -2.792829660752415011e-01 -1.344053262156520434e-01
-4.308600856416061609e-02 1.293954184852201539e-01 -7.018657285362134290e-01 -8.696279732000314899e-01 -3.376202298375265975e-01 -3.602218325316516312e-01
-2.614357214848084948e-02 2.273246292514135083e-02 -5.949235832643642308e-01 -7.648722315304284924e-01 -5.104956645166537355e-01 -3.928926646596532235e-01
-8.028198519178543491e-02 1.246213098277328679e-01 -6.068779056989018761e-01 -6.286003090624647793e-01 -7.091257765672841495e-01 -3.193779648855251674e-01
-4.302112049751625339e-02 1.619824459798171468e-01 -7.358306726145606991e-01 -8.647757136902389785e-01 -3.659707947529386995e-01 -3.438434853235411426e-01
1.204804381701570469e-02 -5.185581507397619971e-02 -6.125816354636935968e-01 -9.419930172350614583e-01 -2.790712050106232134e-01 -1.864629132409540702e-01
5.065961917131876768e-02 -2.768602180800771792e-02 -8.285353668785565562e-01 -9.907922924046024260e-01 -9.637829032368262772e-02 -9.508868737088012335e-02
3.780201649599066599e-02 -1.198364828844835500e-02 -7.800148887397818642e-01 -9.352335799129022353e-01 -1.511003926155361776e-01 -3.201668664223826788e-01
5.346917828508738341e-02 -9.423010855761214388e-02 -8.169249744487261378e-01 -9.915086100283977411e-01 -2.195798869937653705e-02 -1.281737998649992716e-01
4.946323440896751439e-02 -1.549091712623698880e-01 -7.337176271313958775e-01 -9.986797454692962761e-01 -2.764177105588791830e-02 -4.329778842245087661e-02
1.512674527004762536e-02 -5.317030365596098901e-02 -6.264533811811616726e-01 -9.438350631899039556e-01 -2.773101290241046790e-01 -1.796509555609002995e-01
4.026072697249495624e-02 -1.108278299516139848e-01 -6.836676590044036272e-01 -9.687509878023593535e-01 -2.428138754976703062e-01 -5.062554195023263870e-02
2.731490719775548151e-02 -4.105874333176552649e-02 -7.420621498981304631e-01 -9.346680277029899564e-01 -3.469054388833580638e-01 7.779649389881146404e-02
9.752912202828442276e-03 -6.154532722819823845e-03 -6.810676754882760697e-01 -9.276021899593733799e-01 -3.467192196042204744e-01 -1.390681844981627169e-01
-3.817149618240561759e-02 1.119437671800467687e-01 -6.965360792363045617e-01 -8.658808391136718630e-01 -3.486443646803268348e-01 -3.587443092683905710e-01
1.886089883651234991e-02 -4.642966872057002065e-02 -6.577786653282903240e-01 -9.481390727970586685e-01 -2.805091342455465764e-01 -1.494888766442102057e-01
3.589865984347463679e-02 -1.013883456993957682e-01 -6.577100147399823626e-01 -9.524723855914842829e-01 -2.955323500702245476e-01 -7.387140683401843821e-02
1.382741435414700133e-02 -7.219109407435123429e-03 -7.098653724744207194e-01 -9.336008034539580169e-01 -3.419195244027549707e-01 -1.071474620432888714e-01
3.221016548592925410e-02 -5.681662826131179955e-02 -7.499714388377772822e-01 -9.573364640366260891e-01 -2.885140607379165778e-01 1.632578887428226544e-02
5.023138217762639079e-02 -1.491394751864541512e-01 -7.850269737234568668e-01 -9.914310027397540415e-01 -1.111432822117191521e-01 6.864209805689182320e-02
4.110943105640428585e-02 2.959086002090202672e-02 -8.315249842492573595e-01 -9.542572166162385239e-01 -2.330245434228326029e-01 -1.873305279403481571e-01
5.117357530668933258e-02 -2.269039436743749277e-02 -8.437594141238861090e-01 -9.943408539716052097e-01 -9.950608353450104970e-02 -3.721297438587536921e-02
4.085974876100483683e-02 -2.340700436088488934e-01 -8.389936978562523295e-01 -8.897652293427881220e-01 4.535285636639538320e-01 5.128039190067328751e-02
-5.594207279645936962e-03 8.964893184245460722e-02 -7.612351321808724647e-01 -8.710811925628949570e-01 -3.936545100863204638e-01 -2.936897728078112224e-01
3.269903056851997808e-02 -6.603724172142055870e-02 -7.252737448060020409e-01 -9.679276930865055029e-01 -2.308621331235523599e-01 -9.908913384361967003e-02
4.856259120913265781e-02 -9.097364398265024577e-02 -7.930187942708261106e-01 -9.672714581995101035e-01 -2.082388766755633933e-02 -2.528879037340506231e-01
-3.935356475394884146e-03 8.671364107969858903e-02 -7.622208774007673826e-01 -8.710811925628949570e-01 -3.936545100863204638e-01 -2.936897728078112224e-01
-4.440142905068547585e-02 8.728622924287134099e-02 -6.333960059404433185e-01 -8.487085887741889767e-01 -4.658352813621528532e-01 -2.503821518782208266e-01
-2.345611308472096701e-02 1.074727999814109186e-01 -7.301692010290060653e-01 -8.835026346939487407e-01 -3.491201984004380643e-01 -3.123110333588770549e-01
5.121692217635978595e-02 -1.811300689958899035e-01 -8.068142503034348989e-01 -9.869481448497253728e-01 -8.178204387223836358e-02 1.387265536145293743e-01
4.525433611007410872e-02 8.372543151530255877e-04 -8.196226768685264119e-01 -9.670819289073104841e-01 -1.911289277292344546e-01 -1.679948682727804288e-01
-1.287660052552968004e-01 1.626906096274260694e-01 -6.239018898971664395e-01 -3.898338193383793504e-01 -8.636769560079117225e-01 -3.195179321430322572e-01
1.376121128565666561e-02 -4.904778143416691980e-03 -7.193361376602716017e-01 -9.246031085812951300e-01 -3.735330103867564033e-01 -7.471399971366375625e-02
-2.990392411571742709e-02 1.158211597417918709e-01 -7.215055130001777339e-01 -8.749937635027826843e-01 -3.542001224349037858e-01 -3.300427049615486386e-01
4.810217743862624934e-02 -1.180797158899980770e-01 -7.911766736469982852e-01 -9.568388554539977164e-01 1.689093835862029089e-02 -2.901277320334078036e-01
4.429642506856458495e-02 -2.281338604891794963e-01 -8.340246047313779609e-01 -9.038934988604333531e-01 3.211733341094101246e-01 2.825318250655826091e-01
-2.538646720610452517e-02 5.179000991694657913e-02 -6.342915908430940553e-01 -8.559971398776499152e-01 -4.387857031394101215e-01 -2.733788639264864151e-01
-1.921394953535608685e-02 5.737427604003376980e-02 -6.821192333043741840e-01 -8.711558138593405998e-01 -4.877571106516045418e-01 -5.639635615771741717e-02
-6.188321024751065880e-02 1.030061357825855645e-01 -6.082827964437319546e-01 -8.012212000173565274e-01 -4.912961485078123913e-01 -3.415738325810934728e-01
1.632400714234413450e-02 -3.780724532464795756e-02 -6.578681099156621359e-01 -9.459226431063728624e-01 -2.843763706674847791e-01 -1.560782914586235637e-01
4.902621910913183834e-02 -1.374670831488840339e-01 -7.596789556065728366e-01 -9.889859377008882735e-01 -1.444668303508205298e-01 -3.218928328313609005e-02
4.314474913337999068e-02 -2.301988139985020887e-01 -8.404987960017639148e-01 -8.652947973275353366e-01 4.755117502530509244e-01 -1.585985154066059666e-01
1.361219679439601080e-02 -7.166372253792845960e-03 -7.081584218782851492e-01 -9.336008034539580169e-01 -3.419195244027549707e-01 -1.071474620432888714e-01
3.858386699641063594e-02 2.620111012684480864e-02 -8.149485284599818913e-01 -9.485552143530898705e-01 -2.415385457476140751e-01 -2.047001129498745575e-01
-3.443403755348346806e-02 8.654430532625308203e-02 -6.826133129807829825e-01 -8.322071887232066478e-01 -2.878665354283526656e-01 -4.738818975418815360e-01
5.485720416011365119e-02 -7.333991248019507136e-02 -8.478755804448144806e-01 -9.983344046347388812e-01 -5.754034347585184478e-02 4.186334349128471681e-03
-1.129070844369014191e-02 1.111903222619211179e-01 -7.734373312511181320e-01 -8.922736584400093873e-01 -3.684195262040629304e-01 -2.609880670943701131e-01
5.282873251497895856e-02 -1.959701354779112281e-01 -7.958264371682622906e-01 -9.997658528029429448e-01 1.932419242510700561e-02 -9.737307447228126661e-03
4.228169530070974985e-02 -1.591183269421393709e-02 -7.924531636301865856e-01 -9.444314416728316619e-01 -1.720019566256260624e-01 -2.801152957207677097e-01
-8.033969399916494891e-02 1.620259191683101341e-01 -6.731820390162104317e-01 -6.135672771272653314e-01 -5.804999996018133102e-01 -5.353082727746028002e-01
2.212990757046190415e-02 -4.796684002656605161e-02 -6.761668014210315825e-01 -9.520981123307994398e-01 -2.723645272502465131e-01 -1.390206775694829699e-01
4.794026503078380880e-02 -1.324209199557679351e-01 -7.504445638258090412e-01 -9.896217807363175689e-01 -1.341822438249567206e-01 -5.141844546832741170e-02
3.246909684800663304e-02 3.737552406692341844e-02 -8.043784225703864976e-01 -9.215124764426638748e-01 -2.878402498247304431e-01 -2.606966557924084160e-01
2.290977729189236714e-02 -2.675397067390178005e-02 -7.379846665583768006e-01 -8.559114879139126941e-01 -4.545194205061464654e-02 -5.151210011451867743e-01
-3.693242676086141291e-02 6.684339216069977441e-02 -6.234391450185432504e-01 -8.541903880036737506e-01 -4.156607318607653534e-01 -3.123858784117902743e-01
4.557781186163281650e-02 -1.196473183682895680e-01 -7.832263188976547053e-01 -9.470235393168752180e-01 -2.387607318770447462e-01 2.148016035630943010e-01
-6.630018598857854994e-02 1.298024691107193540e-01 -6.610866729127626851e-01 -7.071944621024882638e-01 -4.220233557137224589e-01 -5.672497509948339900e-01
3.288578629803771275e-02 2.886145885283846954e-02 -7.962826360389103630e-01 -9.201427012607020783e-01 -2.946877642607934611e-01 -2.578692128029895225e-01
3.558785853362618056e-03 4.273684178735896733e-02 -7.316336871760856786e-01 -8.708185647957761288e-01 -3.362195396644175882e-01 -3.586522666244728041e-01
-6.001624863039146246e-02 8.693297143267994520e-02 -5.894906113769035061e-01 -8.421398448186488972e-01 -4.385695489075440712e-01 -3.137789549027390490e-01
9.362994728402346603e-03 8.956854744118111084e-03 -7.216233919258540075e-01 -8.756911294195902640e-01 -1.708843319478640654e-01 -4.516232843317256607e-01
2.969610503450924310e-02 -6.839561995183861265e-02 -6.920053588050659732e-01 -9.609194466756978414e-01 -2.535237799964845107e-01 -1.111733330289449845e-01
3.670443557561199610e-02 -2.806038246997361041e-02 -7.696949496311620287e-01 -9.265611738071842796e-01 -1.333217281565344525e-01 -3.517239087614146276e-01
-7.857790650129839460e-02 1.532259303020724328e-01 -6.659258179422796742e-01 -6.770146661473909200e-01 -5.173428079982574923e-01 -5.234573151975384642e-01
4.847456201533607151e-02 -1.666823025212607889e-01 -7.109470722193521608e-01 -9.990316071478676507e-01 1.097127742077407854e-02 -4.260843802939674047e-02
-1.080254353287375402e-01 1.494169633579225942e-01 -6.166546503949399405e-01 -4.928537980275021213e-01 -8.177742280678561571e-01 -2.972212066422723620e-01
-8.759470261440013839e-02 1.430191360319885696e-01 -6.473449333888517954e-01 -5.622390193025880167e-01 -8.211801155734687052e-01 9.772667476389673702e-02
4.781559177537079985e-02 -1.055829294554795073e-01 -7.895241348061646791e-01 -9.662317705851859451e-01 4.791551134331978497e-03 -2.576299799121675727e-01
5.659285561697604411e-02 -1.299345161318224695e-01 -8.372326917114962797e-01 -9.936609478970129805e-01 -1.250029327721318903e-02 -1.117213645297697455e-01
-1.859695407212562726e-02 2.543693125622733045e-02 -6.146394195673309246e-01 -8.327424042594985254e-01 -4.696020457504020418e-01 -2.932814463534084704e-01
-9.005577805472481101e-02 1.436775529786987748e-01 -6.373043883062393666e-01 -6.250690459333233528e-01 -7.611362664291103641e-01 -1.730903571616827508e-01
-7.466083107157524268e-02 1.576519752704057808e-01 -6.754878215077415593e-01 -6.805951403793635279e-01 -5.256098200056352754e-01 -5.104160773385162386e-01
5.138893036723921753e-02 -1.114517245547440860e-01 -8.043469671226484152e-01 -9.787846530988807414e-01 -2.347821274049593718e-03 -2.048782335763590090e-01
-5.253402278935308950e-02 1.551801139839649180e-01 -7.077753740392682680e-01 -8.105094796166294469e-01 -4.342352083968424870e-01 -3.930829012309377535e-01
-1.772073657129533131e-02 7.996511151503102321e-02 -7.154131400214400749e-01 -8.726764860658937639e-01 -3.498909341436760578e-01 -3.406054680590869799e-01
1.034115606083081847e-02 -1.161312429435959991e-02 -6.717987277267107871e-01 -9.324589301309056388e-01 -3.282541103102044611e-01 -1.508959332904064032e-01
5.677189137011151576e-02 -1.746486738068107891e-01 -8.427369691251498374e-01 -9.756313521790127563e-01 6.041123563213043196e-02 -2.109358842272946732e-01
4.963030827810754192e-02 -1.671619782782845232e-01 -7.324231968263721360e-01 -9.962771775735848045e-01 4.539792515688292895e-02 -7.328583654064448061e-02
2.394105631403482988e-03 -2.706674880301605107e-02 -6.026573556502619056e-01 -9.266199766302520846e-01 -3.165867180106599621e-01 -2.028503608303178218e-01
3.920816048240145096e-02 -2.410137806241198499e-01 -8.344422495769476811e-01 -8.349048703569246221e-01 3.262818430443183426e-01 4.432538960391546601e-01
4.855910674003250521e-02 -1.110635004789203711e-01 -7.924145911782054519e-01 -9.662317705851859451e-01 4.791551134331978497e-03 -2.576299799121675727e-01
-5.416646818055578794e-02 1.410220944962723433e-01 -6.902892313915363065e-01 -7.967279399215722036e-01 -4.166934471177068944e-01 -4.377112757029342771e-01
-1.231524964822508852e-02 6.414536070203530338e-02 -7.130289473233042408e-01 -8.741501040864648742e-01 -3.469200727971928355e-01 -3.398647651875864040e-01
1.436820719843556401e-02 -4.481668765955416217e-02 -6.354330189577029886e-01 -9.452057910553579578e-01 -2.759111653868439040e-01 -1.745251883548299410e-01
4.854521803655913875e-02 -2.322313840133423402e-01 -8.134045856629815718e-01 -9.238896109571056448e-01 3.820190180366968002e-01 -2.212366659950606648e-02
5.452125721705405881e-02 -6.928929108056273989e-02 -8.614248610235369918e-01 -9.977012000208792530e-01 -6.542176023236184745e-02 1.767225975920497585e-02
3.687577348009361128e-02 -9.187746663817988879e-02 -7.034314588770399501e-01 -9.701810453026290526e-01 -2.325177041406467360e-01 -6.844162912044590708e-02
2.772503701630178730e-02 -5.922408359984687037e-02 -6.956864943189577932e-01 -9.610340226388278673e-01 -2.519479096080469716e-01 -1.137359141817939762e-01
-9.033439592506409266e-03 5.596333126513373252e-02 -7.134443151086101720e-01 -8.701800121324917425e-01 -3.302808630724957117e-01 -3.656518808555263567e-01
5.055991484559693716e-02 -1.852650340360661174e-01 -7.582421472082891967e-01 -9.798726107285546938e-01 1.456702913767518592e-01 -1.364911460652983854e-01
5.119665139104166013e-02 -2.963629911382142934e-02 -8.321543356665133118e-01 -9.907922924046024260e-01 -9.637829032368262772e-02 -9.508868737088012335e-02
4.570265906761186714e-02 -3.436586921738636613e-02 -7.952876858945603367e-01 -9.593620752583906786e-01 -1.336883903497524673e-01 -2.484991405248841989e-01
-3.577882313928269775e-02 7.047457942326083857e-02 -6.323197666220733426e-01 -8.620047719816781306e-01 -4.460830496979971138e-01 -2.407440255810083807e-01
-3.918052937863853412e-03 5.994617577922548186e-03 -6.301349151661879144e-01 -9.009635883121085431e-01 -3.757970061932496830e-01 -2.168898860527159744e-01
4.326400140285521084e-02 -2.360551547252302540e-01 -8.304229095709085851e-01 -8.428598971594938316e-01 3.540035521772583182e-01 4.053007263824856543e-01
2.651207087000778673e-02 -5.741612519898810912e-02 -6.895625652163865915e-01 -9.558063750997453090e-01 -2.675487748276282329e-01 -1.218680696775009675e-01
5.213788490680206639e-02 -1.019128078027775053e-01 -8.085886259853324320e-01 -9.849784886368228021e-01 -1.521250345109259085e-02 -1.720056878753453422e-01
4.858463501020830744e-02 -1.479597048041192686e-01 -7.262180833109859179e-01 -9.957901461833512657e-01 -6.617523757841087262e-02 -6.342572581831938672e-02
5.049672437672537290e-02 -1.995808779429575908e-01 -7.739034170701158954e-01 -9.685054847476871620e-01 1.892718401586286903e-01 -1.617816322597033507e-01
-1.627918650584203250e-02 4.776183387218265602e-02 -6.656593724902847287e-01 -8.796807910148549681e-01 -4.575659366291493502e-01 -1.295959858798414743e-01
3.003785964365148636e-02 -5.579333873482123646e-02 -7.238671057517422902e-01 -9.627171690268730986e-01 -2.478549773211269347e-01 -1.083677197232955358e-01
-1.403493506982218635e-02 1.010272851048292925e-01 -7.504613825642088010e-01 -8.782069329827365545e-01 -3.774805449259653889e-01 -2.937022660168821520e-01
5.003202559147010287e-02 -1.573063507355608459e-01 -7.972551489125244695e-01 -9.774199867960107202e-01 -1.476143706726161520e-01 1.511957902278147914e-01
1.583024946824083956e-02 7.613070373843583427e-02 -8.046513445081922011e-01 -8.424778194846817003e-01 -4.460483223370974026e-01 -3.021125912910562206e-01
5.339606905922701652e-02 -5.468420517976587542e-02 -8.335749655896836918e-01 -9.955854278021667447e-01 -7.939212280182743331e-02 -5.006542504559644002e-02
5.215792488885635791e-02 -2.000992078611645575e-01 -8.107652557987087283e-01 -9.873773099184773860e-01 -4.719855386165606320e-02 1.511897627867692939e-01
-4.023144429955999996e-02 1.606781761244900075e-01 -7.414817790006048570e-01 -8.690973384800360080e-01 -3.679736925714600093e-01 -3.305528366573826093e-01
-9.681880442239621464e-05 7.604693749741960052e-02 -7.591236394945286570e-01 -8.556059161347322473e-01 -4.177767546911930752e-01 -3.056159346548216749e-01
2.335410394304168399e-02 -1.080467517146676713e-03 -7.476794894558738136e-01 -9.063362168750557224e-01 -2.015951904104382186e-01 -3.713677977207918701e-01
-1.576113031810749644e-03 1.009664077970268831e-02 -6.489224949579792678e-01 -9.065708594634762640e-01 -3.784960409521634372e-01 -1.867351701078088511e-01
7.796851683109285759e-04 -2.615701418460456614e-03 -6.352094730956702184e-01 -9.266364032438872966e-01 -3.275855840807171404e-01 -1.844794332323452524e-01
1.274194105323162886e-02 -7.920476832994861535e-03 -6.985052400885071178e-01 -9.340153346968017578e-01 -3.386465718549483417e-01 -1.137271028476168483e-01
1.520814256596278273e-02 -8.539738645936580108e-03 -7.197872863689206424e-01 -9.368757831254667101e-01 -3.445216919357418917e-01 -5.973751567295921411e-02
-2.393624702124298384e-02 1.103623235796932084e-01 -7.321383571604070939e-01 -8.839508186275826240e-01 -3.595559054665565246e-01 -2.989155417367107548e-01
5.103719062453104111e-02 -1.755870353048066268e-01 -8.048251941662237785e-01 -9.869481448497253728e-01 -8.178204387223836358e-02 1.387265536145293743e-01
-1.245609908926538154e-03 -5.417506662155019068e-03 -6.216853744840151741e-01 -8.998192759552682274e-01 -3.695103103302597725e-01 -2.319211098174808472e-01
1.760772090942747115e-02 6.695703785409529152e-02 -7.963294536974812043e-01 -8.623875529719082778e-01 -4.105575017886844980e-01 -2.961929205841326573e-01
5.083650936817714350e-02 -1.640224883520867705e-01 -7.503357837886929227e-01 -9.973266355948032791e-01 -6.077135780158499090e-02 -4.057615068118308743e-02
3.619020781428024941e-02 -5.020807608877117523e-02 -7.619390394402124622e-01 -9.283185138081249121e-01 -8.363855191367869368e-02 -3.622558896068591161e-01
-2.744726451653340012e-03 2.277262776836893807e-02 -6.751470301404621788e-01 -9.024208710206229611e-01 -4.089751862976964691e-01 -1.355576207343011097e-01
-6.971322472648817936e-02 1.144035805347969059e-01 -6.097995456260514313e-01 -7.575181797310857057e-01 -5.813737609086823133e-01 -2.969356117137130213e-01
-3.676911511544946054e-02 3.305076402540101099e-02 -5.867551597861934143e-01 -7.812994679908303874e-01 -4.646418644057695446e-01 -4.167482203426619569e-01
3.405332254006229048e-02 3.707744837271084726e-02 -8.097068741279483950e-01 -9.234793514974558581e-01 -2.966657066207496474e-01 -2.432598320172270900e-01
2.549670324372991723e-02 -6.500620061847264819e-02 -6.648873572535225485e-01 -9.515053420369505854e-01 -2.817666857222930754e-01 -1.234711257429056963e-01
1.648536081271295348e-02 -6.245768162765041875e-02 -6.185118923277507230e-01 -9.293963153340336625e-01 -3.233547062302501440e-01 -1.779444379638490670e-01
