6.533935198231285990e-02 2.042524708298163946e-02 -6.095617819202395760e-01 -5.957442698352479749e-01 -7.604826807659623711e-01 2.583696135645262015e-01
1.097364506508811260e-01 -8.359789326309158275e-02 -7.038341649207179307e-01 -5.817533940582092500e-01 -5.837388244206354049e-01 5.664026600977153381e-01
-8.641418218377952543e-02 1.255401123849652356e-01 -6.602196563076021540e-01 -6.595413466813531134e-01 -7.044691817964880975e-01 2.621609885485136626e-01
-1.627843512860490185e-02 -4.156685766351610883e-02 -8.254314067663458543e-01 -6.600290801881032454e-01 -4.436040454910804010e-01 6.062813407404138433e-01
-6.485856022170752994e-03 4.197242793584536093e-03 -7.564281781186544817e-01 -7.611724514305567846e-01 -5.565598595973879625e-01 3.329528823544442573e-01
4.610535280370182259e-02 -8.678290585417730574e-02 -7.746781958115753763e-01 -6.201604789649328708e-01 -5.217224328971612479e-01 5.858384447455220467e-01
3.365653865225175234e-02 -1.376503898507384360e-01 -8.256875584681330205e-01 -8.403420389248846822e-01 -3.011894647018517612e-01 4.506774500329249200e-01
-5.783663389131316057e-02 3.037727628189600126e-02 -8.091344619822131712e-01 -6.691511468683181141e-01 -5.882282023327531917e-01 4.541192845775127718e-01
3.130511108512032403e-02 -3.741270037745945791e-03 -6.991036590166409548e-01 -5.831696160924910721e-01 -6.568559960359052763e-01 4.779679898677476335e-01
6.255568178690129599e-02 2.123222833184126856e-02 -6.136050604240642636e-01 -5.957442698352479749e-01 -7.604826807659623711e-01 2.583696135645262015e-01
3.691283732003554363e-02 -2.277556296705410543e-01 -8.503125031650167198e-01 -3.726450063090114284e-01 5.402758334534450008e-02 9.263998702022891996e-01
-4.060398298878076934e-02 8.252968873640385145e-03 -8.109686251969220327e-01 -6.577003396100125077e-01 -5.596001457198542806e-01 5.042597943393782867e-01
-1.985963952495332224e-02 5.573470166780774421e-02 -6.710880959120942846e-01 -6.912035364595940923e-01 -6.761513296381527205e-01 2.550628365997455460e-01
9.060864026006697214e-02 -6.267004128391043261e-02 -7.005240875441345327e-01 -5.879385652029933684e-01 -6.217381975495364088e-01 5.174648367327959742e-01
-3.837392998530617105e-02 8.769203095026199823e-02 -6.340772841155349893e-01 -7.010341511308447737e-01 -6.813988200365375114e-01 2.103491549806423278e-01
3.986287599051154679e-02 -1.292076133026018037e-01 -8.127135004142387320e-01 -5.156182892401546258e-01 -4.609532773177206777e-01 7.222602411396522593e-01
7.312728514409651270e-02 -6.578761418665904359e-02 -7.235920694036334089e-01 -5.954806275407902305e-01 -6.016005534277083511e-01 5.324280198666309083e-01
-3.328301439412858359e-02 -1.874074117622843288e-02 -8.270350974945955835e-01 -6.563388511761613087e-01 -4.693313165804771092e-01 5.907177225321691427e-01
-4.909220747381094242e-03 -1.734258983817408856e-03 -7.627593577881024434e-01 -7.636072069085076963e-01 -5.576231519833928507e-01 3.255156738614798373e-01
-8.700322068937618725e-02 8.015058982846742786e-02 -7.586441118807547568e-01 -5.833620469776147344e-01 -7.638384754708624769e-01 2.761150222940356724e-01
-3.963388145407116536e-02 4.267209571157572906e-02 -7.552052469134225010e-01 -6.712158763981138643e-01 -6.729485451968616472e-01 3.108206923429316926e-01
2.897838168446418769e-02 -1.071259481910370598e-01 -8.117761997367889393e-01 -7.993491611754459658e-01 -3.647629145729247568e-01 4.774818684310181971e-01
-3.857370977885465207e-02 6.482047952391870038e-02 -6.948398849685066825e-01 -6.601167415734376931e-01 -6.994015027222501013e-01 2.740135498188464025e-01
5.056339747651591304e-02 -9.738158800540845650e-02 -7.795294109800038340e-01 -6.095947248779153282e-01 -5.312509382770299604e-01 5.883593391634007741e-01
8.512057358203406476e-02 -5.604154994518193572e-02 -6.986235007162752142e-01 -5.888609041028046720e-01 -6.328241767351384661e-01 5.027687310868902415e-01
3.156260483296358110e-02 -7.415809169707637816e-02 -7.774178608864389384e-01 -4.987740190088709724e-01 -5.756664902874353285e-01 6.479448818548415590e-01
1.327567850693507114e-02 3.617873648762200828e-02 -6.592165113292499656e-01 -5.103321026976239683e-01 -7.465198247792484976e-01 4.269300834654100041e-01
-1.903878588959374563e-01 7.672666212919011797e-02 -4.373625199877386738e-01 1.159754323367637452e-01 -8.046375914752037506e-01 -5.823298425113412335e-01
-1.217386368822411316e-02 3.319523974664578825e-02 -7.088498084583024772e-01 -7.085216756942533944e-01 -6.573431944684166028e-01 2.567040314398368328e-01
-3.574854289258934392e-02 1.039816633708444266e-01 -5.692984018683829861e-01 -3.325893936888286162e-01 -9.224240010266159251e-01 1.962606876981407567e-01
4.112056013090096412e-02 5.127341409611862327e-02 -5.635156325186250204e-01 -6.951522742152351775e-01 -6.858793012522084176e-01 2.152507834298606482e-01
-6.109293597607972498e-02 1.139674320392608103e-01 -5.732724692203257089e-01 -6.371473486006645759e-01 -7.566213428024066712e-01 -1.468584345110160450e-01
2.122919339301988437e-02 -1.196080516920353665e-01 -8.330318614704065316e-01 -7.594019030055940700e-01 -3.667530669147941458e-01 5.374020260662167869e-01
8.123102213455891951e-02 -5.040905140908752587e-03 -6.338327112227912785e-01 -6.269841216839344700e-01 -6.594390547243171863e-01 4.147662525574187797e-01
9.471101192771892718e-02 -4.292613678191716658e-02 -6.689215039359104331e-01 -5.963279524588712688e-01 -6.564474139201610381e-01 4.620278843032559757e-01
-5.984438718445538215e-03 -2.352894331485717513e-02 -7.948270266739659862e-01 -7.484826137724285289e-01 -5.066674457195150527e-01 4.278573083733125948e-01
1.628246195807350749e-02 -9.735818700480741716e-02 -8.243760380251757836e-01 -7.578657205184883283e-01 -3.812933440624719506e-01 5.293910987508668731e-01
-3.693305035549031973e-02 -2.914185719680735878e-02 -8.384542364023060967e-01 -6.329692829713634561e-01 -4.310466346353936662e-01 6.430775113345351679e-01
3.843622302964765092e-02 -4.152312429082125056e-02 -7.370867892429332491e-01 -6.170518653765303396e-01 -5.945289519234644438e-01 5.155408041660048957e-01
3.671351239018984941e-02 4.703938616036942161e-02 -5.949568535792022494e-01 -6.337814819251612608e-01 -7.496892665116394738e-01 1.904915663382152902e-01
3.016186635787365677e-02 2.814709248351642337e-02 -6.521990578727416832e-01 -5.448325902046184943e-01 -7.191201466058479985e-01 4.313046062778718159e-01
-1.919137531927900611e-02 -2.384457181858758504e-02 -8.147911229706491509e-01 -6.664276915349730546e-01 -4.783550255639347770e-01 5.718833810079585467e-01
-6.799971263231545382e-02 1.169464650080963009e-01 -5.619510003308573198e-01 -6.016166886920832901e-01 -7.695946112230964697e-01 -2.139661054081785363e-01
2.924954542179862213e-02 -6.405808525853652624e-02 -7.702820027146469739e-01 -5.109181016988612045e-01 -5.951782502290763333e-01 6.202624797702076531e-01
8.448501942967713563e-02 -9.091598046506284498e-04 -6.222719527066158385e-01 -6.306311816168990170e-01 -6.580338969033049379e-01 4.114555909192682548e-01
-3.594140238647303143e-02 1.082746129157483167e-01 -5.261340975435327971e-01 -2.391857283304501813e-01 -9.709440867905545502e-01 -7.600505870531842380e-03
2.403038064651554645e-02 -1.730860288116732038e-01 -8.631636252657849395e-01 -7.954673400294471897e-01 -2.413707657584251709e-01 5.558523764307096160e-01
-1.434333289957771818e-01 1.111651172044534064e-01 -4.875222142817412507e-01 -1.543314302373274549e-01 -8.012915017242849824e-01 -5.780257251241860406e-01
2.873860840537575088e-03 -8.290079350259643709e-02 -8.321999834415100272e-01 -7.345538540180489573e-01 -3.942507087508875241e-01 5.522653476334122846e-01
-1.429772050781320109e-02 7.111425965566695040e-02 -6.268421175181428939e-01 -4.562446028893166194e-01 -7.949817405687857885e-01 3.998060711102237597e-01
-1.347159624888492890e-01 1.078213539138608984e-01 -4.834242047627180794e-01 2.410117398365821395e-01 -9.620209920141180593e-01 -1.281754741950109355e-01
-2.497696422655328388e-02 8.732654405219208993e-02 -6.051258285642371337e-01 -4.134913106183883968e-01 -8.399656680364202543e-01 3.514009285178652520e-01
7.827037497536594446e-02 -1.105270743613236822e-02 -6.470321503783640349e-01 -6.387605183837519185e-01 -6.324837696198840620e-01 4.381201676726855787e-01
3.569402653603370029e-02 1.903168700572433619e-02 -6.602990992400059600e-01 -5.729104597850080971e-01 -6.907417259035170121e-01 4.411909713092068697e-01
-1.281869474867551872e-01 1.222865127106276817e-01 -5.066450470634001890e-01 -1.822390410101187297e-01 -7.989041164153419805e-01 -5.731850876517405879e-01
7.094092047458000483e-02 -8.161730247456587539e-02 -7.425590486386413058e-01 -6.068862794574356734e-01 -5.511287400442327344e-01 5.726658324918360021e-01
-7.825088090036787236e-02 7.714611168424855003e-02 -7.486140091611228620e-01 -5.809651194935453455e-01 -7.627234150388204625e-01 2.841346900386677587e-01
-2.636139018069183840e-02 6.504236229754481111e-03 -7.926373667139900991e-01 -7.087706409494823889e-01 -5.501261980726974699e-01 4.415940949810573390e-01
7.117105854939606568e-02 2.022482101322743697e-02 -5.936298782788076434e-01 -5.871918781438391077e-01 -7.966137303219043009e-01 1.435697144405162495e-01
7.132414847835665721e-04 1.452738984176945095e-02 -7.166803068218007278e-01 -7.583543264381492621e-01 -5.895450760812322999e-01 2.780922847561850264e-01
3.943273581336666223e-02 -2.533644617455092438e-02 -7.168387835277504339e-01 -6.037839783609055822e-01 -6.145141078106720611e-01 5.077571454704807863e-01
-6.860583526558504397e-02 6.772707070677208563e-02 -7.538300742672561228e-01 -5.917763384127692206e-01 -7.566377821136073267e-01 2.780288329885528542e-01
9.130270649746020928e-02 -1.296738804466526507e-01 -7.609418451082815560e-01 -6.846171321993578252e-01 -3.892642988430260464e-01 6.162569982932236679e-01
1.483421718076461705e-02 -1.228359433235561536e-02 -7.278396735000870477e-01 -4.926227100203408038e-01 -6.601685698137568226e-01 5.670099866865433436e-01
-7.513788182783170955e-02 8.829658061973071070e-02 -7.165987388938116487e-01 -6.158034083708922024e-01 -7.130894142975870986e-01 3.350964778321555704e-01
2.994386109047543487e-02 5.926493885415899665e-02 -5.733089772734845102e-01 -6.785162959296084928e-01 -7.026196152494847968e-01 2.143392461137947069e-01
9.430359871270191374e-02 -1.180393077963071968e-01 -7.496881909282362422e-01 -6.506431378279736721e-01 -4.273887335381015284e-01 6.276960870055396935e-01
5.036155263494575263e-02 2.757639873396536268e-02 -6.219737243101488566e-01 -6.026795817448472592e-01 -7.328695496458997871e-01 3.157206755182054847e-01
1.599805551966942269e-02 -3.991903499874421141e-02 -7.700006785939833565e-01 -8.205909040795076326e-01 -4.643285563738010491e-01 3.332109840293356329e-01
1.422288856988865487e-02 1.584568750670243761e-02 -6.909477499546793355e-01 -5.270905640594573116e-01 -7.068424881995420961e-01 4.717512418164505617e-01
3.031858925194738305e-02 -2.181664303524180060e-01 -8.584124973458084895e-01 -6.571338175357150924e-01 1.751325657392496238e-01 7.331464589483636107e-01
-1.852810853965605395e-02 1.420221190527796171e-03 -7.861370558947652354e-01 -7.152601892905933179e-01 -5.540958514816304303e-01 4.258880709609410564e-01
-8.506662914567439393e-02 1.335232330198543871e-01 -6.111609760671560254e-01 -5.731826846483317750e-01 -8.192721796998787553e-01 1.595949839876786847e-02
-2.030807838573632854e-02 4.502329069244386667e-02 -7.003340919641402040e-01 -6.918714374839618486e-01 -6.741322740874851061e-01 2.585722162714162442e-01
-3.133804371667727601e-02 9.371091650513008187e-02 -5.971029829877798623e-01 -3.810166221243053153e-01 -8.693856406450453100e-01 3.146346158724249165e-01
-2.152799938149648276e-02 9.823103258627037884e-03 -7.795309850476255242e-01 -7.037133164258662088e-01 -5.937591108828853548e-01 3.901764812600495569e-01
3.693083497647754732e-02 -4.056469385715837789e-02 -7.377815568577086314e-01 -6.135760816687280128e-01 -5.976473954502737884e-01 5.160833098595173363e-01
-7.677173956163599322e-02 7.629188603043293715e-02 -7.478664241066241836e-01 -5.912858031998234898e-01 -7.573848803349736425e-01 2.770365354503216415e-01
2.140149229540792494e-02 5.024308537774221928e-02 -6.205663426533868376e-01 -5.670409036472057185e-01 -7.536668037137187470e-01 3.323416353256200551e-01
2.807296065301500415e-02 -1.013800955434496220e-01 -8.088631932944043701e-01 -7.999282275449093316e-01 -3.825396886187985013e-01 4.623615656694360365e-01
-3.169469925266918398e-02 9.117438586321098548e-02 -6.034082164318383956e-01 -3.553227226045723164e-01 -8.521523216198555462e-01 3.841642663741179353e-01
1.094086020796177783e-01 -8.080082248886551188e-02 -7.012882168027312346e-01 -5.817533940582092500e-01 -5.837388244206354049e-01 5.664026600977153381e-01
-2.775580103390618350e-02 8.767435367430777282e-02 -6.074181594281093943e-01 -3.697747497578995901e-01 -8.476967849910498343e-01 3.803640297889906985e-01
-1.077743392906172111e-02 7.674604149089302163e-02 -6.111452054808175216e-01 -4.774104860089332103e-01 -8.002090048500086761e-01 3.629666326340104665e-01
4.978263041963080365e-02 -5.672844122865677852e-02 -7.404769769008305857e-01 -6.194745771415961499e-01 -5.799408437593467358e-01 5.290745372959633208e-01
-6.258157487073884306e-02 6.499920377477128031e-02 -7.484313263868920263e-01 -5.917763384127692206e-01 -7.566377821136073267e-01 2.780288329885528542e-01
3.872389939370333989e-02 -2.278828253671231485e-01 -8.494406419106993456e-01 -5.166652540306730934e-01 1.428578258905089660e-01 8.441852029378725808e-01
-7.117128683067361350e-02 7.070511972591742023e-02 -7.511859928480508763e-01 -5.917763384127692206e-01 -7.566377821136073267e-01 2.780288329885528542e-01
1.911069030433584434e-02 -1.617149487007063235e-01 -8.642059852376514639e-01 -7.822236831794590062e-01 -2.988812693523322239e-01 5.466224440173490517e-01
7.606186095834738259e-02 -1.309262961015311422e-01 -7.788620029620354490e-01 -7.048118898877168137e-01 -3.938981896810693772e-01 5.899867931054738612e-01
-2.035924613815284778e-02 4.692226879348658855e-03 -7.849553722853923610e-01 -7.152601892905933179e-01 -5.540958514816304303e-01 4.258880709609410564e-01
-3.197641285581682979e-02 9.345315035548036608e-02 -5.985148013960643887e-01 -3.351858249110068466e-01 -8.764722381487343172e-01 3.456108773364577891e-01
3.604397453134759038e-02 -1.966541176920843237e-01 -8.505885849185139680e-01 -9.352137245563946211e-01 -2.153720377608288675e-02 3.534281231804617396e-01
-6.458800468112732562e-02 3.609810806003041495e-02 -8.115047200827820717e-01 -6.585418364619067821e-01 -5.806298137101740808e-01 4.787396673143640147e-01
-2.267120716671836358e-02 5.961934030510379623e-02 -6.684155384689711710e-01 -6.905628173187199348e-01 -6.762022292209970420e-01 2.566584121617414005e-01
-3.705562769377949983e-02 1.084592444468024941e-01 -5.336893568207733418e-01 -2.992447336894021315e-01 -9.525255693821937930e-01 5.610373456630923100e-02
7.194960665149636135e-03 -1.060055827344084413e-02 -7.478540765625648623e-01 -8.049493757466638089e-01 -5.156089471768399157e-01 2.936050341466355240e-01
-8.268951820985455392e-02 1.272136186116677448e-01 -6.442957103482581660e-01 -6.549951155595501451e-01 -7.336486919709466203e-01 1.809447301317470558e-01
-3.037299643303692162e-02 8.787979568077418369e-02 -6.094937944853862088e-01 -3.553227226045723164e-01 -8.521523216198555462e-01 3.841642663741179353e-01
-7.159167176919681297e-02 7.320340008789275044e-02 -7.452540322497217540e-01 -5.912858031998234898e-01 -7.573848803349736425e-01 2.770365354503216415e-01
4.267579232331350503e-02 -1.178409627674059240e-01 -8.029511289200670365e-01 -5.658410064193348799e-01 -4.766116398709968616e-01 6.728040578012541850e-01
8.786675568859117491e-02 -1.060126641810080067e-01 -7.471579619114445681e-01 -6.419241021844682704e-01 -4.891045827589553530e-01 5.905168534079721088e-01
3.613746706171291900e-02 -1.264629780512689372e-01 -8.131194853650310916e-01 -3.316771346679558974e-01 -4.939370875815361495e-01 8.037514739332827229e-01
2.392853200078032261e-02 1.544882157691367629e-02 -6.803644554293576396e-01 -5.413330831992311243e-01 -7.134812841532853778e-01 4.448628442531394334e-01
6.550379921120777493e-02 2.578035096073432939e-02 -5.856397961487818105e-01 -5.820311969501749116e-01 -8.018909125765280033e-01 1.349468417708605816e-01
4.175682527929634041e-02 -1.137577393341284229e-02 -6.964402315949536071e-01 -6.024649809206297224e-01 -6.311045954657652501e-01 4.886132789295621892e-01
2.119306304777552469e-02 4.292678463352176538e-02 -6.367959086223968779e-01 -5.290250975461942007e-01 -7.564586924671634627e-01 3.845811913720028064e-01
-7.695262004628782189e-03 -8.910697666836411152e-03 -7.797619246540364868e-01 -7.459797171047677367e-01 -5.406983671197328478e-01 3.887924092138959620e-01
4.341429754936602936e-02 -2.025064873604485172e-01 -8.478449744237200880e-01 -4.016615826335480643e-01 -1.934402746550236696e-01 8.951250377336689157e-01
-2.583562227514295349e-03 9.373540478145710175e-03 -7.369120917146830818e-01 -7.709025453877269562e-01 -5.661256156880102308e-01 2.919093228668704909e-01
1.101522274274292917e-01 -7.081759554004182777e-02 -6.882642827631773041e-01 -5.826185041894613725e-01 -6.335374213760422979e-01 5.091031470068023701e-01
-6.365008229346288959e-02 5.498435826809377341e-02 -7.772322605263725093e-01 -6.357960583959424428e-01 -7.001156700979570546e-01 3.249637219928894205e-01
-3.286189653803771316e-02 6.004140871724068795e-02 -6.932433740489900575e-01 -6.659932404213445567e-01 -6.935515588019468547e-01 2.746620450598643015e-01
-3.459076562396134341e-02 3.568174476010781832e-02 -7.594662768314752732e-01 -6.745604202607409228e-01 -6.750872403740719729e-01 2.987063060964273986e-01
-3.838642741723232582e-02 1.087000295849143983e-01 -5.380109164865960469e-01 -2.856169708160750664e-01 -9.568152951249855320e-01 5.410579448392232454e-02
-8.611552846167636055e-02 1.338154493991117189e-01 -6.232532902450160783e-01 -6.099912502207885945e-01 -7.862479668409881883e-01 9.861444768639021641e-02
-3.837763272714598412e-02 -2.500553442910125393e-02 -8.371035878016372944e-01 -6.329692829713634561e-01 -4.310466346353936662e-01 6.430775113345351679e-01
1.161753164388146936e-02 -3.123328293330888267e-02 -7.686849216381711480e-01 -8.205909040795076326e-01 -4.643285563738010491e-01 3.332109840293356329e-01
5.809880180840615305e-02 -1.021377017013832059e-02 -6.739148307566804608e-01 -6.223693342555302044e-01 -6.307035734907184832e-01 4.635400890585039679e-01
-8.532189082295375815e-02 1.337519814839908394e-01 -6.043710017311482163e-01 -5.799695748818339824e-01 -8.146201768708580815e-01 5.409218638293961448e-03
-1.713145168830429096e-02 9.456322631002384016e-02 -5.746704664233802662e-01 -4.372406196123779232e-01 -8.762981081752172496e-01 2.022925262324810902e-01
1.277283133376567147e-02 -9.574454342189636646e-02 -8.282408232017838268e-01 -7.585675667611087025e-01 -3.816029795206770103e-01 5.281613509895178860e-01
8.937704585619227898e-03 -6.266771619026252974e-03 -7.353092465075847795e-01 -8.204028360174900891e-01 -4.997131869854190001e-01 2.778955152702806686e-01
5.160115554874678684e-02 -1.326752241922072029e-01 -8.054270778820306065e-01 -5.973010098952719060e-01 -4.486038328423737620e-01 6.648203552368264768e-01
6.549738097994500796e-02 -1.024168707449129162e-01 -7.681138005467550434e-01 -6.270904212949838241e-01 -5.254147976693245292e-01 5.750625130454795064e-01
1.137277582931909073e-02 2.950220752767941310e-02 -6.725621286466330062e-01 -5.007295622504241983e-01 -7.432283513909755390e-01 4.437133344594807460e-01
-8.301507166378412420e-03 -8.182049831241525184e-02 -8.441107481619670727e-01 -6.609997603069840411e-01 -4.113164522683112612e-01 6.276130121081936464e-01
1.545335134031752822e-02 5.933961027671379868e-02 -6.095059223632931511e-01 -5.705545352186516261e-01 -7.574838247619833931e-01 3.173102229134529551e-01
-7.020195870041791991e-03 -1.201535145919077757e-01 -8.705404940474998909e-01 -6.812729095592253703e-01 -4.599009469355854196e-01 5.695246629501301561e-01
1.603964170815355000e-02 4.427149657418644885e-02 -6.411743254034480977e-01 -5.253041657239305717e-01 -7.538913108909830463e-01 3.945927328729715300e-01
2.362104142791683972e-02 -1.462411223797591142e-01 -8.474537293475672417e-01 -7.821318757894130114e-01 -3.410930752148812473e-01 5.214645174070711153e-01
6.517013341380079039e-02 -3.642416560712984086e-02 -6.987667508663112370e-01 -6.121311426970517111e-01 -6.129510355564774526e-01 4.995863210203453364e-01
-4.012557694317844120e-02 1.048512728113648595e-01 -5.725691782336016500e-01 -3.257593467489546257e-01 -9.245629859720813082e-01 1.976464848563802001e-01
5.392885948100462068e-02 3.423131478329053540e-02 -5.882360763756023792e-01 -6.233287179741550110e-01 -7.706507633959698289e-01 1.325092835461165186e-01
-3.137129173490721401e-02 6.453868135137963424e-02 -6.781654877972967954e-01 -6.757681259852776900e-01 -6.864382384746254839e-01 2.685888766538906958e-01
-5.356196464011696301e-02 6.928359892004853915e-02 -7.173372918508179596e-01 -6.277415072374813443e-01 -7.199147483807651904e-01 2.960799810103253438e-01
-4.727608232889413120e-02 9.324541859545949773e-02 -6.441150524263644650e-01 -6.731577472558429864e-01 -6.922857619204181301e-01 2.599982137471426036e-01
4.503778103299751730e-04 -9.289542493295455117e-02 -8.418786917485492349e-01 -6.912404283246164072e-01 -4.086570501853289961e-01 5.959749034845563953e-01
3.083318587154000937e-02 2.444977216403436057e-02 -6.575156270615060139e-01 -5.448325902046184943e-01 -7.191201466058479985e-01 4.313046062778718159e-01
-1.155033880652932693e-01 1.113366846296194729e-01 -4.856170483464022358e-01 6.325679259130249921e-02 -9.156255159116197806e-01 -3.970245493702384554e-01
-1.942604445116955306e-02 -4.050264971367439903e-02 -8.280793964475221536e-01 -6.600290801881032454e-01 -4.436040454910804010e-01 6.062813407404138433e-01
-9.848064246560961355e-02 1.419432129271453180e-01 -6.011033580352515004e-01 -5.430914936863490139e-01 -8.378005962974273135e-01 -5.605167552540608888e-02
-2.027512353297036135e-02 -5.548129356155063335e-02 -8.393927264598468607e-01 -6.335830989318005368e-01 -4.185359787608315951e-01 6.506920095027208806e-01
-1.413769672074908709e-02 -1.362997774101898894e-02 -7.973971144366533981e-01 -7.163100225770774321e-01 -5.159784709795190993e-01 4.697511777965696633e-01
7.235028124449914555e-02 -1.044138645327569725e-01 -7.625113276540621543e-01 -6.352971582770132741e-01 -5.084154430927684265e-01 5.813013486221542125e-01
-6.175092672074913858e-02 1.000012279281193711e-01 -6.636784590819531093e-01 -6.855139845723413616e-01 -6.715888372245387705e-01 2.811387747557136940e-01
-1.661562561117287812e-02 8.788635352358285802e-02 -5.932353127091003486e-01 -4.432452623290992766e-01 -8.270554549232258523e-01 3.457063955216097551e-01
8.704713846182253467e-02 -1.213162992125770478e-03 -6.187504624281964238e-01 -6.058234343658436272e-01 -7.140687442159744380e-01 3.508330014508268535e-01
6.366506861289378261e-02 -6.383023945215449135e-02 -7.321532676264584927e-01 -6.117505689267297431e-01 -5.847903043753276409e-01 5.327114991498060892e-01
7.427064522724242945e-02 -1.003463073863588434e-02 -6.513482182339378479e-01 -6.310420456969623171e-01 -6.357087872520473804e-01 4.445900070549539951e-01
5.986084721626921956e-02 3.004565282401138251e-02 -5.846748562618379053e-01 -6.233287179741550110e-01 -7.706507633959698289e-01 1.325092835461165186e-01
-8.598224490208689064e-02 1.330167347807714728e-01 -5.899141116407488061e-01 -5.304824573102894236e-01 -8.448998433178059875e-01 -6.879402043479965201e-02
4.927099240186964824e-02 -1.781837814785862395e-01 -8.347973487265660797e-01 -5.944866792007273970e-01 -3.551719227580322769e-01 7.214142315876874711e-01
4.645241115710548735e-02 -1.622367547840088964e-01 -8.280917423169756875e-01 -5.740702813049485265e-01 -4.082189953949985628e-01 7.097890981982997172e-01
3.661617047439832268e-02 -1.210195204477120152e-02 -7.036782105407345389e-01 -5.899007102967215310e-01 -6.359739813087532667e-01 4.975482359427245704e-01
-4.219191891056544262e-03 7.385044763311061911e-02 -6.084229789229148588e-01 -5.246129633713924045e-01 -7.732020157849651687e-01 3.562862352782554254e-01
-2.283495638119809740e-02 -7.909329574646531413e-02 -8.571174729751780408e-01 -6.285863271148208753e-01 -4.350411622524358868e-01 6.446847419555926662e-01
6.749718401676553514e-02 -9.965774199893238927e-02 -7.634276140857839676e-01 -6.233777843101367955e-01 -5.247211205274250334e-01 5.797136221454762817e-01
1.393181110410481385e-02 -1.136221476705747968e-01 -8.391238434543843994e-01 -7.354288473418767458e-01 -3.785933667854406437e-01 5.619710607526542390e-01
3.645651112205543914e-02 -1.739948473411340527e-02 -7.107007221681028719e-01 -5.967613526614564678e-01 -6.383324198708596464e-01 4.862176567253408965e-01
3.005931707115102464e-02 -5.146286811066261811e-03 -7.025545238107451240e-01 -5.831696160924910721e-01 -6.568559960359052763e-01 4.779679898677476335e-01
3.434839039589750176e-02 1.852757380244404381e-02 -6.627859045406049310e-01 -5.634826776957401195e-01 -6.938480113116189951e-01 4.483996087595862878e-01
9.826798738015809359e-03 -1.544272365887073284e-01 -8.731971168966393693e-01 -7.679110996243551091e-01 -2.980941748909469169e-01 5.669677292137528246e-01
5.854744084845787261e-02 -1.630908470200919114e-01 -8.179185677948055400e-01 -6.713087895905300861e-01 -3.658384372516173544e-01 6.445981281758360604e-01
-4.802154524775423955e-02 3.063754827115062335e-03 -8.251155889627550533e-01 -6.398277507256771024e-01 -5.054868632547719898e-01 5.788812317549881792e-01
2.490695202682277273e-02 2.559632558874403926e-02 -6.630668722738762844e-01 -5.380039069505724303e-01 -7.245458200818140071e-01 4.307959501990374918e-01
4.365093701358455092e-02 -2.609020703484392009e-02 -7.126525172678278564e-01 -6.126404251907798804e-01 -6.108926297486689805e-01 5.014797147849712200e-01
2.470218994764327575e-02 -2.003210896219781989e-01 -8.671619988935436174e-01 -6.342077199013536060e-01 8.196026512028828370e-02 7.688062714097343431e-01
-5.590148701596390872e-03 -1.231506943434119844e-01 -8.710978339584486418e-01 -7.189128228658693276e-01 -4.419231805914030087e-01 5.365335549385570335e-01
-2.983109946277858870e-03 -1.225595490174815824e-02 -7.746302374118502199e-01 -7.740887384203986032e-01 -5.231936040006669453e-01 3.564478612413167213e-01
-7.125493549444762709e-02 8.837485387285673455e-02 -7.090838083964197125e-01 -6.293447088675238055e-01 -7.096943453961835901e-01 3.166372901809486051e-01
-6.029873174778670880e-02 2.955515707778825010e-02 -8.135399947881174487e-01 -6.585418364619067821e-01 -5.806298137101740808e-01 4.787396673143640147e-01
-6.976067849785970443e-02 1.211301916382612198e-01 -6.209260657336661549e-01 -6.256236138035439209e-01 -7.774484466668348803e-01 6.456784514539684605e-02
1.164967389334515234e-02 -8.381798048604929829e-02 -8.209839605586276567e-01 -7.648246011193609029e-01 -3.874855978562487535e-01 5.146826604584575637e-01
4.060310917527987229e-02 4.920007544289075468e-02 -5.727639769561329031e-01 -6.833330634142820159e-01 -7.050398362663359286e-01 1.896701181588467400e-01
2.668345816704493015e-02 -1.109580919407480576e-01 -8.185544566816278511e-01 -8.014760464064041301e-01 -3.624491527653570522e-01 4.756750557853904326e-01
-2.433303079370102012e-02 1.288145962025811012e-02 -7.799359582105536148e-01 -7.037133164258662088e-01 -5.937591108828853548e-01 3.901764812600495569e-01
-3.456541849096229913e-02 5.552990112374540238e-02 -7.091046645059874143e-01 -6.688236288926951989e-01 -6.989466691532645326e-01 2.532755556984593870e-01
1.254184777821641499e-02 -7.177953860221433086e-03 -7.243332443762142692e-01 -8.768508613227526949e-01 -4.507602914713522146e-01 1.671757357699035496e-01
9.425575083953394162e-02 -5.559863153737925473e-02 -6.872299326396313912e-01 -6.013894973537231570e-01 -6.409955491031377184e-01 4.769228223754899409e-01
8.961033554174052673e-02 -9.096075974649794893e-02 -7.318656515448601629e-01 -6.001171033136464272e-01 -5.457683475844792298e-01 5.848045597337157009e-01
2.038307049303232990e-02 -1.068357426470529919e-01 -8.253300236773348786e-01 -7.801795404061619976e-01 -3.722933611855215874e-01 5.027101928037832623e-01
-8.128100297966754650e-02 1.195676673109195148e-01 -6.630459895774951651e-01 -6.678945887390120850e-01 -6.827678466252913303e-01 2.962176327429016376e-01
-7.665162053793414532e-02 1.263438359126745347e-01 -6.234960281753771927e-01 -6.180398784724241423e-01 -7.814195383357138702e-01 8.608259827044632828e-02
-1.649653245396051843e-03 5.992923714258115847e-02 -6.337181857714794253e-01 -4.993615934266343315e-01 -7.700334418568702821e-01 3.970975918240688407e-01
-8.004086985111799613e-02 8.472639660628793201e-02 -7.335811634744542342e-01 -6.075539373815388444e-01 -7.283377188819244452e-01 3.168633466118537800e-01
-1.931946971632628011e-03 6.093046995402105759e-02 -6.321316334581014162e-01 -4.993615934266343315e-01 -7.700334418568702821e-01 3.970975918240688407e-01
2.474414524849678082e-02 5.897732308819661484e-02 -5.896444265930181894e-01 -6.523639076124974068e-01 -7.223189600343199457e-01 2.295139473310747469e-01
-3.452852300934024926e-02 -5.786063402340053258e-02 -8.545942059564184401e-01 -6.214638234235596581e-01 -4.225364652075176419e-01 6.597314997373605605e-01
-4.365185523297277631e-02 9.885982928103310974e-02 -6.094380602009663583e-01 -7.090747902231842037e-01 -6.908546452109176617e-01 1.411835722045755581e-01
-1.902430495125902524e-02 -9.090251485427848499e-02 -8.615032741545991524e-01 -6.496510434617212004e-01 -4.529091010977604470e-01 6.105955026627000182e-01
-1.146274063055212067e-01 1.140297501553310666e-01 -4.955287799450197594e-01 1.521318884644212166e-01 -9.797964773024459006e-01 -1.298258509618432921e-01
9.294951011486356218e-02 -1.185039377051341630e-01 -7.514081411793879228e-01 -6.506431378279736721e-01 -4.273887335381015284e-01 6.276960870055396935e-01
-8.776621197977829691e-02 1.337356375623272586e-01 -5.871120172838814044e-01 -4.906752903392783693e-01 -8.596139993815918867e-01 -1.424834429596974483e-01
5.866215339632983167e-02 -1.162393028120243255e-01 -7.867797252455682733e-01 -6.240907932997540319e-01 -4.637722397757906290e-01 6.288290636825162316e-01
-1.591691927755327016e-02 8.639325136443622155e-02 -5.959115143221707100e-01 -4.432452623290992766e-01 -8.270554549232258523e-01 3.457063955216097551e-01
-2.869925632123813963e-02 3.799156049758298237e-02 -7.404859308380528082e-01 -6.854901013521882414e-01 -6.763109416776806881e-01 2.696420425586770198e-01
3.474523327704537746e-03 -4.196784550207228320e-02 -7.980676720579406025e-01 -7.783005295562680503e-01 -4.531647968165136708e-01 4.346147174437154925e-01
8.272936832380992089e-02 -9.072788255886561626e-02 -7.387879057293208485e-01 -6.122668370685619976e-01 -5.482982126270696810e-01 5.696476018171405808e-01
8.075936163815949920e-02 -1.656915278586369999e-01 -7.913725305832761681e-01 -7.960777957013400741e-01 -2.010248775733835813e-01 5.708319733405806673e-01
3.251483646226327462e-02 -3.172115156958169643e-03 -6.968454996780145683e-01 -5.831696160924910721e-01 -6.568559960359052763e-01 4.779679898677476335e-01
1.040391311493083643e-01 -4.079603824295766068e-02 -6.525172885956890267e-01 -6.143800411420369256e-01 -6.611278103975215537e-01 4.306357896938987073e-01
-7.228800009658863102e-02 8.806914495388971920e-02 -7.117637128094610466e-01 -6.250071625813750087e-01 -7.078274719362104284e-01 3.291600168525512515e-01
-3.428380686284344253e-02 1.011582656552728193e-01 -5.784920389808396735e-01 -3.663456014981248399e-01 -8.957887475468725436e-01 2.517010529008218978e-01
1.808817363620618748e-02 -7.686533799381846388e-02 -8.054010366455924830e-01 -7.862146235744252865e-01 -4.031095902874138326e-01 4.683686837268671299e-01
-4.461315879445142130e-02 7.452510565801533093e-02 -6.849852979713455525e-01 -6.491058099778154178e-01 -7.025806962781333542e-01 2.916196369766235197e-01
9.861778692665169876e-02 -1.190515992337516232e-01 -7.457912163917735926e-01 -6.535307696695388247e-01 -3.999572252849123988e-01 6.425976587550984442e-01
-5.655702973514845772e-02 2.434833223296930388e-02 -8.147079999962707486e-01 -6.585418364619067821e-01 -5.806298137101740808e-01 4.787396673143640147e-01
4.480539445781466651e-02 -5.780771003844005496e-02 -7.474550584819138477e-01 -6.235588489499085396e-01 -5.649735738197501078e-01 5.403510181184121297e-01
6.175883734051680618e-02 -5.466857792022449675e-02 -7.242378165863805339e-01 -6.158941608756841601e-01 -5.862076592696471300e-01 5.263411088000237159e-01
-8.046344365669978738e-02 8.843500218149297210e-02 -7.260909072265893105e-01 -6.158034083708922024e-01 -7.130894142975870986e-01 3.350964778321555704e-01
3.131595671826825633e-02 -2.190603983063599547e-01 -8.571927419862587216e-01 -7.375250981789179816e-01 1.399817638502882933e-01 6.606525829401860284e-01
4.464086344062342948e-02 -1.441677192806825325e-01 -8.186536505690529264e-01 -5.496627399171792883e-01 -4.321465789689734605e-01 7.149267141687685179e-01
3.536157509612126992e-02 5.782988116469204264e-03 -6.806513856448688227e-01 -5.790849609861421499e-01 -6.768520773009392144e-01 4.544577795715259994e-01
-1.293532137275752725e-01 1.238473908973567877e-01 -5.084358907256852911e-01 -1.807629264936533586e-01 -8.048325043412670743e-01 -5.653047004591542635e-01
-5.818282452405569571e-02 9.844876971135944899e-02 -6.586867237839579836e-01 -6.855139845723413616e-01 -6.715888372245387705e-01 2.811387747557136940e-01
-3.081504480033582863e-02 3.826333764730523168e-02 -7.451830700041220945e-01 -6.854901013521882414e-01 -6.763109416776806881e-01 2.696420425586770198e-01
-8.427358051458759547e-02 8.504133922594679651e-02 -7.407895056193233296e-01 -5.991318629878922275e-01 -7.329140052007859785e-01 3.223012127392634874e-01
8.410520736824361743e-02 -7.324409169676973641e-02 -7.197587207657961672e-01 -5.912092611673310794e-01 -5.811040983800574988e-01 5.592759930087104481e-01
-6.540475781547233636e-02 8.470188515108476035e-02 -7.056884621473250574e-01 -6.293447088675238055e-01 -7.096943453961835901e-01 3.166372901809486051e-01
1.903360873114670268e-02 -6.847308814322905501e-02 -7.961396274898607794e-01 -7.935004039058475289e-01 -4.321447565249264544e-01 4.284950622927512498e-01
-1.821174462478823740e-03 -1.169702542104537057e-01 -8.614619139453015828e-01 -6.893797808469307453e-01 -4.379613835569403091e-01 5.770141629737769451e-01
-6.037658469096091052e-02 2.741989371526195457e-02 -8.162367986602935277e-01 -6.585418364619067821e-01 -5.806298137101740808e-01 4.787396673143640147e-01
-4.599729305859718426e-02 1.828179295021883921e-02 -8.072457929160999912e-01 -6.766917716799296656e-01 -5.397605987173212938e-01 5.007461854203153484e-01
-2.263804473315468233e-02 2.081848441893655380e-02 -7.631570796245124022e-01 -7.244778457559108986e-01 -6.122014995014676275e-01 3.167667517543923950e-01
7.445829240502392643e-02 -1.340458732199805159e-01 -7.827410904739914299e-01 -6.615147323305365923e-01 -4.258272931956301188e-01 6.173081688098266406e-01
5.645573123051886993e-02 -1.375970967756821872e-01 -8.041607699956183630e-01 -6.211429473428949910e-01 -4.387244799304312326e-01 6.493860713596759648e-01
1.472412281854622133e-02 3.895521129251688919e-02 -6.526302312217090451e-01 -5.103321026976239683e-01 -7.465198247792484976e-01 4.269300834654100041e-01
-2.452719832820898435e-02 1.038795578201374276e-01 -5.398277263074265919e-01 -3.674758031797294433e-01 -9.233042015222411303e-01 1.116731190967174270e-01
9.748778039446334698e-02 -5.761323048708064110e-02 -6.858620809896818216e-01 -6.013894973537231570e-01 -6.409955491031377184e-01 4.769228223754899409e-01
1.286815580855101351e-02 2.713534139348752761e-02 -6.748391416954080402e-01 -5.007295622504241983e-01 -7.432283513909755390e-01 4.437133344594807460e-01
-7.194673208509977380e-02 7.063949325798930812e-02 -7.530151039261305801e-01 -5.917763384127692206e-01 -7.566377821136073267e-01 2.780288329885528542e-01
-7.855049425497678817e-02 9.502502762055275998e-02 -7.091382186258545772e-01 -6.357854097786614922e-01 -6.859480921393629194e-01 3.539097732515272265e-01
-6.475678301911681756e-02 7.220208601990318886e-02 -7.336022776833045489e-01 -5.988867563610982270e-01 -7.508315548868512712e-01 2.785437653968866334e-01
7.035435790154953573e-02 -9.410701065536020149e-02 -7.553373063956274613e-01 -6.188717089736128774e-01 -5.271042500152263166e-01 5.823735205587265984e-01
-1.389115524392708356e-01 1.094379982330491441e-01 -4.865244798319746100e-01 -2.365250293987851138e-01 -7.476994932085045953e-01 -6.204847929833972042e-01
-7.446317875490507388e-02 6.677227661907467193e-02 -7.696026430860405387e-01 -5.858595945832968388e-01 -7.679235599553000391e-01 2.589632049158218652e-01
-3.005096739156117719e-02 8.337856106363976394e-02 -6.178561550673513647e-01 -2.494934117546082630e-01 -8.414818175957483604e-01 4.792299950407955533e-01
-7.657495262289606974e-03 6.005699257031843485e-02 -6.404069236988029212e-01 -4.696645428956901513e-01 -7.767219132828175887e-01 4.196644928664582386e-01
-4.815398952970253305e-02 6.366994687082992710e-02 -7.199081800110157525e-01 -6.273689414785341700e-01 -7.284446527115071568e-01 2.752754969192047207e-01
-8.168276300567059445e-02 1.271351762189431855e-01 -6.409694428076175843e-01 -6.549951155595501451e-01 -7.336486919709466203e-01 1.809447301317470558e-01
-2.589576796754761157e-02 -3.834090385763909165e-03 -8.042805101769177067e-01 -6.864004656500127810e-01 -5.184037706421691372e-01 5.100116972574521013e-01
-2.792354780922898586e-02 9.233442076761487483e-02 -5.967537838907347458e-01 -4.066477534218667644e-01 -8.384857534712456539e-01 3.627385365007500528e-01
3.925004912228603066e-02 -9.098110159955531684e-02 -7.852929001713347956e-01 -6.074823851801078867e-01 -5.213508412887004617e-01 5.992982996667445272e-01
2.910060150756495559e-02 -2.201884182408105906e-01 -8.588912806746389350e-01 -5.690167048368308667e-01 2.172964807623251893e-01 7.930966076493728423e-01
6.145556623882374864e-02 -2.025528043213439267e-01 -8.314867390875834152e-01 -8.054775249359615863e-01 -9.879170364873729460e-02 5.843339422908937486e-01
5.398267159129560566e-02 -9.178966907494669203e-02 -7.708770323907419009e-01 -6.200683429800591950e-01 -5.266015882161826367e-01 5.815548274429142017e-01
6.440277830775111012e-02 -2.827234771100266969e-02 -6.895059100448605038e-01 -6.207628178409037023e-01 -6.203713393598619952e-01 4.793672134043713284e-01
-1.275885440909332695e-02 3.028347443180417348e-02 -7.173925750621211739e-01 -7.166026350478668094e-01 -6.411212677142311689e-01 2.746710460295206935e-01
-2.723183725420340665e-02 1.037922801763143110e-01 -5.517274674950379820e-01 -3.526071847652928470e-01 -9.324189378266437567e-01 7.913973486263310708e-02
-5.184753452140591912e-02 6.498884164638511762e-02 -7.247084955051691368e-01 -6.168750036452571583e-01 -7.380640977442218809e-01 2.733616972047687166e-01
-1.251210089754054566e-01 1.216420189493928883e-01 -5.067789461101378512e-01 -1.932110472008715663e-01 -7.871253543564464827e-01 -5.857500898581073923e-01
-9.967810374815912200e-02 1.430947105555124277e-01 -6.071246256849008871e-01 -5.327183193539341000e-01 -8.449746709088864494e-01 -4.721226267760181283e-02
-1.043532494965480756e-01 1.148142392100092862e-01 -4.947846959864968808e-01 2.474704089067864335e-02 -9.736615377665694959e-01 -2.266512604006303278e-01
4.434861850646632658e-02 -7.168482269744961936e-03 -6.875629081162126788e-01 -5.891167121127990347e-01 -6.484072833864507057e-01 4.821923831426707108e-01
-2.865665020448432757e-02 1.044623658760756024e-01 -5.501808194879271863e-01 -3.526071847652928470e-01 -9.324189378266437567e-01 7.913973486263310708e-02
1.968751390492998535e-02 7.094678476382834664e-02 -5.675032516488304202e-01 -6.347108838120304464e-01 -7.321175847468702758e-01 2.472770431620384957e-01
-1.700760172206243134e-02 1.953860109471943635e-02 -7.529755714182067017e-01 -7.219654945047967454e-01 -6.107186915563417307e-01 3.252514481568900551e-01
2.718831694051193279e-02 -1.124674806164843444e-01 -8.188539141184427717e-01 -8.014760464064041301e-01 -3.624491527653570522e-01 4.756750557853904326e-01
-9.262810770100286806e-02 1.356545021947592744e-01 -5.816347019774420479e-01 -5.036330386996642483e-01 -8.525560199486516000e-01 -1.396495441433916185e-01
8.802434951866109844e-03 -1.106857059376310237e-01 -8.439633118891457508e-01 -7.234980809861224493e-01 -3.894322546339417102e-01 5.699938998446590910e-01
1.035993178478556292e-01 -5.710837487891356340e-02 -6.776238765810747022e-01 -5.952304599865133605e-01 -6.584744165768176005e-01 4.605563398956345478e-01
2.640737823755252584e-03 7.458672061717856738e-02 -5.956418057355000739e-01 -5.585720111719535419e-01 -7.725099469316394352e-01 3.020359088370029865e-01
-1.373271590182961743e-02 5.279426778534962450e-03 -7.708866071130502373e-01 -7.384376702026451689e-01 -5.740108329675625010e-01 3.538663177833892282e-01
-9.834496779490184415e-02 1.346051408030081442e-01 -6.661460070792113441e-01 -6.600404752158101074e-01 -7.004091287821240241e-01 2.716130029942480650e-01
-1.544441212173393481e-02 1.875891924364869387e-02 -7.506046120845144554e-01 -7.478329851040508292e-01 -5.935764263066980462e-01 2.973429880177659301e-01
-1.272027243972678467e-01 1.081066159168505153e-01 -4.802131183419908189e-01 6.149761749742584799e-02 -9.036560407217065771e-01 -4.238204845324367587e-01
-3.923685366610996095e-02 6.840543155288889010e-02 -6.874324705927010726e-01 -6.638221193795184050e-01 -6.935659167830495742e-01 2.798330089524321274e-01
1.072021149090064338e-03 1.229642569504908745e-02 -7.204314781923496502e-01 -7.583543264381492621e-01 -5.895450760812322999e-01 2.780922847561850264e-01
6.011014585992197762e-02 9.077164233255757136e-03 -6.428023830437582520e-01 -6.153916029251867981e-01 -6.648827102211110063e-01 4.233487412266622174e-01
-4.623930636209459127e-02 8.482004292740369378e-02 -6.635786616258925186e-01 -6.705566710305461697e-01 -6.870279922261794958e-01 2.799040707708557174e-01
5.416164245845207087e-02 -1.655242737957371146e-01 -8.236082517540641579e-01 -6.107417685985874201e-01 -3.977951181471632847e-01 6.846557792550603816e-01
-9.721674669256601120e-02 1.415223986914810883e-01 -6.279672665486539795e-01 -5.649973301639199530e-01 -8.246673017092013280e-01 2.649261027734707563e-02
2.239101018506929261e-02 5.611631354968742852e-02 -6.040263082686011531e-01 -6.100992808776698473e-01 -7.531612176526305547e-01 2.460224536430705988e-01
-7.621141189241728564e-02 7.712540528480900381e-02 -7.443917608275844033e-01 -5.912858031998234898e-01 -7.573848803349736425e-01 2.770365354503216415e-01
-2.660847067258877499e-02 1.053957853172326903e-01 -5.273640207107872513e-01 -3.134342966858990054e-01 -9.477803779433696674e-01 5.891771250260188081e-02
5.175488618487946585e-02 3.787114642292623012e-02 -5.775117345057640961e-01 -6.250039524229312748e-01 -7.688043594365184807e-01 1.353141395683349901e-01
-9.779269488812432354e-02 1.410575972790538146e-01 -5.969863772719663508e-01 -4.927645946007397915e-01 -8.607962975587776233e-01 -1.273294483498175200e-01
1.836614707101148119e-03 -1.135061948915800159e-02 -7.625091584977087278e-01 -7.938253535239135905e-01 -5.076579223145925024e-01 3.348503277792403976e-01
2.842140525533918063e-02 1.121337796407404289e-02 -6.813400834671493600e-01 -5.644334344127888148e-01 -6.819284565379113427e-01 4.651757498847138295e-01
3.351962685316139251e-02 -1.453482256096678416e-01 -8.310873400010616585e-01 -8.403420389248846822e-01 -3.011894647018517612e-01 4.506774500329249200e-01
-2.006609643483444130e-02 8.817868375474530174e-02 -5.969600789666908991e-01 -4.497320395614852750e-01 -8.295410023073173100e-01 3.310631632828367477e-01
4.022781434199325379e-03 1.443368532412829704e-02 -7.058334485809413250e-01 -8.072735848736719566e-01 -5.557037317124801090e-01 1.987529162705150010e-01
-7.113934450103484575e-02 1.232617295831299753e-01 -5.908093590904504033e-01 -6.083932207690849747e-01 -7.933806734749447864e-01 -2.011953972292931589e-02
-9.047145844994615438e-02 9.385639854453259323e-02 -7.329244678598196838e-01 -6.149236570362633936e-01 -7.083058995636979382e-01 3.466578264808234389e-01
-8.550982117377320391e-02 1.325556735849337808e-01 -6.295507450432409335e-01 -6.099912502207885945e-01 -7.862479668409881883e-01 9.861444768639021641e-02
-2.450999725064635301e-02 3.569887079534606739e-02 -7.355863814915947207e-01 -6.854901013521882414e-01 -6.763109416776806881e-01 2.696420425586770198e-01
-6.447866055177245426e-02 1.172569645328718074e-01 -6.159876894842543082e-01 -6.661470477383627520e-01 -7.330399161218833504e-01 1.374794245023069073e-01
-3.214973561164022331e-02 3.281475708007356579e-03 -8.051145332508795605e-01 -6.796911983474721586e-01 -5.517533156768662517e-01 4.833095835265030504e-01
-5.365657167741840622e-03 -1.091961126248175568e-01 -8.597319874281817986e-01 -6.887719555588334153e-01 -4.461841602973821708e-01 5.714130627972904275e-01
6.181594159740825406e-02 -8.107235547019019106e-02 -7.520604511305103435e-01 -6.171637629473504250e-01 -5.525233353787548651e-01 5.602025112105468718e-01
-4.599736911071661966e-02 2.640499464837411936e-02 -7.967720088645553478e-01 -6.738880103357561824e-01 -5.962888584909415979e-01 4.362505550314926817e-01
-4.534156840425309504e-02 1.010150269552806540e-01 -5.920740762896311571e-01 -7.805528174460223401e-01 -6.125662840031710354e-01 -1.244983810321364098e-01
-9.082470955512510213e-02 1.267733592993601777e-01 -5.496022656586999622e-01 -4.109371476973246451e-01 -8.743425214236878462e-01 -2.581778764202217191e-01
9.857042718703153128e-02 -7.673603667351898416e-02 -7.082550421690666509e-01 -5.845138442840401849e-01 -5.844437999068876621e-01 5.628223614877881920e-01
1.456300060322984584e-02 6.185291228185436918e-02 -6.050995077051085635e-01 -5.695509623300776259e-01 -7.591016302990895026e-01 3.152402515322983989e-01
8.351534473853282348e-02 -8.173442724130150494e-02 -7.292326504920771946e-01 -5.931292021612317722e-01 -5.816323639147232827e-01 5.566880120772779161e-01
1.020787230696992010e-01 -5.376080825569905242e-02 -6.746963528148280931e-01 -5.892415790602801851e-01 -6.752018521024589770e-01 4.437305718833859935e-01
-4.230640217070892606e-02 6.263696552156094999e-02 -7.089613577073087258e-01 -6.486955333985047201e-01 -7.062949941263595433e-01 2.834457377010193846e-01
4.444781719768245432e-02 -1.703173184921624173e-01 -8.339727727299236504e-01 -5.022697276308240033e-01 -4.141113632083905927e-01 7.591026936899554212e-01
-8.393465609306370590e-02 1.278760208218507888e-01 -6.460924974663613263e-01 -6.468954780214555278e-01 -7.400253296031398254e-01 1.840889786520550075e-01
-2.248943749399875264e-02 5.798881813252605016e-02 -6.722391919146086803e-01 -6.912035364595940923e-01 -6.761513296381527205e-01 2.550628365997455460e-01
1.622059759346668791e-03 7.828711536181769126e-02 -5.884413498293463718e-01 -5.389808352842425654e-01 -7.891193100196460808e-01 2.946020599901129633e-01
6.012681984233336080e-02 -4.638513520560164083e-02 -7.167593928159881056e-01 -6.133848104385853928e-01 -5.965601578710654218e-01 5.175664714450408654e-01
9.384343279349040279e-02 -5.918524598301822676e-02 -6.924527603819552457e-01 -5.842341969317770278e-01 -6.349023749839790565e-01 5.055387001755494714e-01
-1.115421018330761856e-02 8.842455246338708219e-02 -5.835612152233505823e-01 -4.742337040047768792e-01 -8.393686931796850992e-01 2.656362002734896643e-01
-6.283994467117847219e-04 -8.129900812147511369e-02 -8.352238958573986460e-01 -6.914596495719715907e-01 -4.042532368118195163e-01 5.987176910205451730e-01
4.051127935954396825e-02 1.152348125454867415e-02 -6.657987051403438938e-01 -5.729104597850080971e-01 -6.907417259035170121e-01 4.411909713092068697e-01
-1.443215276506449457e-02 9.992553573018449209e-02 -5.384006129920830830e-01 -4.011197621490633636e-01 -9.121870435377202879e-01 8.377191662718595777e-02
7.196286299292505018e-02 -8.875516855421296258e-02 -7.484483487381413669e-01 -6.144447102370067526e-01 -5.528624561568410423e-01 5.628506041872798349e-01
-3.851942351470024478e-02 9.185685793430364843e-02 -6.189917917808726022e-01 -7.353871778553443539e-01 -6.615746900491077387e-01 1.467127401842773515e-01
