5.721827812147683295e-02 1.921119829804398549e-01 -6.793591240602365744e-01 7.983784829566117347e-01 -4.206117985902930734e-01 4.309031362598073067e-01
-1.180753582915020430e-02 7.402586441542506612e-02 -7.832201274938992430e-01 -2.750467564875120341e-01 -7.351926414980408664e-01 6.195490792768820754e-01
4.260011946404224786e-02 2.030945720441672542e-01 -6.519527860328453439e-01 -6.097074795802670533e-01 2.628262801870140386e-01 -7.477828132465572653e-01
1.332926163340163866e-02 1.978997823709189793e-02 -7.417728053454742954e-01 -8.335809536699010369e-01 4.248775599464189590e-01 -3.530182045344906205e-01
3.003770348500072341e-03 -7.813732160244642178e-02 -7.791171051679869342e-01 -9.765704333900663281e-01 1.825577051696655184e-01 -1.139424105042707719e-01
-7.988118824379672814e-03 1.178024208257069244e-01 -7.630820903322446114e-01 6.294474926660275083e-01 -5.320653084702392510e-01 5.663058903975134450e-01
-8.652860167835891084e-03 -1.424294786959299508e-01 -7.925962786367669599e-01 -9.581123385310503782e-01 2.560326827988456677e-01 -1.283277526234581356e-01
-3.611537438040620523e-02 9.841873189293903756e-02 -6.283589611592153013e-01 8.732944445690598023e-01 3.246484177394993731e-01 3.632632901134616454e-01
3.225468295527925827e-02 1.875418083844998807e-01 -6.560938646949769915e-01 4.108337465926363841e-01 -3.136698738744204684e-01 8.560530607878595877e-01
-7.851828068987036502e-03 -8.916399890595112787e-02 -7.142263326482706232e-01 6.397864539939120965e-01 -5.898904563920471800e-01 4.926484981642370031e-01
-2.278955685649014518e-02 1.470987526225343012e-01 -6.447789558297931656e-01 3.826080545954047563e-01 -4.070925600083231122e-01 8.293893682370119258e-01
7.083819208897119100e-03 7.070063401514030399e-02 -7.630065649585132670e-01 8.930957250069869457e-02 3.941807954249534340e-01 9.146831696155196534e-01
-1.689992986242334211e-02 3.039016698268915892e-02 -7.036704799242829989e-01 -6.967595748854067406e-01 2.685443127384071760e-01 -6.651391184567059245e-01
-4.016958970778672020e-03 1.668913600746482206e-01 -6.419412454002575430e-01 -5.276649064891340002e-01 2.604305251139560351e-01 -8.085454149574300420e-01
2.582662480660718324e-02 9.638118965624305201e-02 -7.346840638260301315e-01 8.241347661054077012e-01 -1.383882892351767369e-01 -5.492272468650347683e-01
6.783622035366250469e-02 2.167765017393944726e-01 -6.724840008553204518e-01 -8.752074908142021270e-01 3.385131580352708780e-01 -3.455729877459984833e-01
-7.110373201601523363e-03 -1.265397365528021789e-01 -7.901891771633776651e-01 9.624336842250493795e-01 -2.661477072249560094e-01 -5.372896246808677584e-02
-1.118398719268943499e-02 -9.911479299309562674e-02 -7.221042672563958709e-01 5.607241043982791329e-01 -5.933248519391328690e-01 5.775414260623682461e-01
-6.066069513890968296e-03 -1.376486392655626168e-01 -8.252220689815742416e-01 9.348477482692144624e-01 2.888775409864807742e-01 -2.064205752089256773e-01
-7.513182706292685989e-03 3.714497014771216826e-02 -7.884251995271477353e-01 -8.412287133085527557e-01 2.527822362201792572e-01 4.779491531081128675e-01
-2.246376982879291773e-02 4.705607335379499018e-02 -6.871389347822658422e-01 8.313397065670987685e-01 -2.743376638849097104e-01 4.833354305853239108e-01
-3.724090596935161128e-04 -1.364219536141476202e-02 -7.415133414371932741e-01 8.119961643296831344e-01 -2.196313889402435049e-01 5.407626855710938596e-01
1.261216788973956379e-02 8.830850104518842003e-02 -7.563011688158133294e-01 6.795316605599841520e-01 7.890304720579693898e-02 -7.293908632812932114e-01
-1.099070961176319867e-02 -7.733805231810012004e-02 -7.016945707492914241e-01 7.246403796166921152e-02 -7.194019167864194042e-01 6.908037675970764013e-01
-2.193752259775429841e-02 -8.106445051230040666e-02 -8.088527130476718119e-01 -4.829897050614616605e-01 -4.937114895458882824e-01 7.231665851621068564e-01
2.986228874804944949e-02 2.131322682111222444e-01 -6.463275603172318196e-01 -3.674194112097617926e-01 -2.310062032865800585e-01 9.009101566246167092e-01
1.904300676154412064e-02 1.560639593293424721e-01 -7.471169514775941600e-01 -3.443748202776527045e-01 -1.503184400102000329e-01 9.267202111487774507e-01
-4.055938355592082073e-02 1.343449622048035197e-01 -6.363240997784732622e-01 7.413931951021911493e-01 -2.795902747042092740e-01 6.100536112072357797e-01
3.392245099483642834e-02 2.286640972341111022e-01 -6.367969053294929571e-01 -8.303963526448836507e-01 -1.585339924024861957e-01 -5.341431182436057190e-01
5.446322867545193985e-02 2.096101766493555230e-01 -6.601670400852694964e-01 6.814375557269959360e-01 -4.181411082426638171e-01 6.006670219367916674e-01
-7.069662711830641301e-03 -1.357255087377385039e-01 -8.088232234135473986e-01 9.763878664253183848e-01 1.149887549021547661e-01 1.828778842382727254e-01
-2.370771563775320862e-02 6.031572660333211350e-02 -6.689952468008217856e-01 -9.318044348686690403e-01 2.783399269548803567e-01 -2.329536010063634199e-01
-1.727240401954018359e-02 6.208066186204530545e-02 -6.840805532098287456e-01 6.853659030829615251e-01 -2.069476433794362469e-01 6.981735112355481609e-01
-8.286476381932422405e-03 -1.462623115183118716e-01 -8.365218766393699434e-01 7.696188540701774938e-01 1.497973448542188335e-01 -6.206831518047941643e-01
-1.780737655831076197e-02 2.293219297368477017e-01 -6.334881760488387803e-01 6.978686475611433071e-01 -5.317721931752069642e-01 -4.797892092542424547e-01
-5.786033996965304470e-04 1.649332968726919812e-01 -6.447070902625731126e-01 -5.649074808354261901e-01 2.281204775265032458e-01 -7.929946947043545746e-01
-1.088938123511655563e-03 -7.736742165851721864e-02 -7.323726791358343702e-01 -9.958119413794777053e-01 8.076271210941055045e-02 4.284812409858917981e-02
5.918988400294777213e-02 1.880465766789265469e-01 -7.126010336583219473e-01 -6.660845341056381708e-01 5.878892026915029101e-01 4.590399533635649565e-01
5.870877404881858636e-02 1.854924961441084819e-01 -6.987405261428566439e-01 8.667688140639614458e-01 -4.966987967072795107e-01 -4.474514851572466284e-02
1.254226576411665789e-03 2.045932077262404836e-01 -6.344661240848330497e-01 -4.532987011428976087e-01 2.397634155792566779e-01 -8.585067222170893464e-01
7.142217829603184076e-02 2.395599758414976854e-01 -6.664303210127051624e-01 -9.373782942039001753e-01 -1.527768843239449836e-01 -3.130194197995622152e-01
-5.994462442476614257e-03 -4.298377934631979203e-02 -7.180706381021902951e-01 9.342582113050442727e-01 2.347622809080800177e-01 -2.684180807470598062e-01
-2.986349212489042976e-03 -5.639959385492440691e-02 -7.267372353242238514e-01 -9.531587787891344643e-01 -2.854489337878762800e-01 1.000362365174261581e-01
1.591869958067658811e-02 1.577949680467262417e-01 -7.444332398386376282e-01 2.210010781503239097e-01 2.398024383851619368e-01 -9.453323828161843689e-01
-1.329698753515551508e-02 8.922246056246764534e-02 -7.721241824667345321e-01 1.315358201551240780e-01 3.647768018429571879e-01 -9.217571333346671336e-01
4.282057553846503606e-02 1.873660501963916314e-01 -6.610814341495839797e-01 -5.876515268343933673e-01 5.778160155303911916e-01 -5.663870895472362665e-01
6.567146038919247086e-02 2.078409047714877833e-01 -6.767263599787274320e-01 -8.781580810097970868e-01 3.548290480819479287e-01 -3.208344298769215674e-01
5.935527685504923129e-03 -2.123663237483799648e-01 -8.632086386325866778e-01 -2.205210289982026672e-01 5.414065035000871218e-01 -8.113257506928918117e-01
3.789092341811943314e-03 -6.553744638118939869e-02 -7.742276782224828402e-01 -9.967966319078686022e-01 -4.283639200324900614e-02 -6.753901196548128816e-02
-4.097615090715217220e-03 -1.141161865908372208e-01 -7.907283835481390133e-01 9.663563535359294132e-01 -2.572065984974836739e-01 4.045616098245605912e-04
5.995803847192203613e-03 -2.318579055534596492e-02 -6.782950388666464381e-01 -9.816890515164539144e-01 1.504695349312882291e-01 1.168140624680387984e-01
-3.324014081514544382e-03 1.609350116746477988e-01 -6.464005554485060534e-01 4.755838289489681125e-01 -1.972004541588116000e-01 8.572817521222513282e-01
2.940667635924150772e-02 1.188852720404336982e-01 -7.402122326053305335e-01 -6.484541325354848951e-01 1.901828539592725353e-01 7.371144551950925550e-01
2.917004587212131475e-02 2.148312442469683392e-01 -6.437865492043345350e-01 2.817002689772128421e-01 3.985535689422268768e-01 -8.728115553437522101e-01
2.854516920900527707e-02 1.489806532487177315e-01 -7.402897206273465480e-01 6.957871130837716134e-01 -9.046198054119634208e-03 -7.181911024005493971e-01
7.035967550716264000e-03 9.938314564527850337e-02 -6.949861368625191993e-01 7.014825783935019210e-01 -4.804424082459997081e-01 5.264003082913123466e-01
-2.612693526591264651e-03 -8.144105650713949485e-02 -7.525365462265509731e-01 9.992700242266209232e-01 2.380002190813176183e-02 2.988273145649614562e-02
-2.510535744488971016e-02 -9.540776360680952584e-02 -8.189690529709710010e-01 1.804280732752776839e-01 4.712520495845568536e-01 -8.633465214712603419e-01
2.323437851066815357e-02 1.239880862768614478e-01 -7.466219583231042956e-01 7.389235356285581702e-01 -7.263634506776704691e-02 -6.698626500032579534e-01
-4.225381280171245507e-02 1.043662246201835647e-01 -6.213735247454318378e-01 -4.181333726401912920e-01 -2.007622915642306438e-01 -8.859226743742469878e-01
1.993929289829157736e-02 1.718103389429276040e-01 -6.559261265933155061e-01 -5.685380373787569663e-01 4.707803679665016339e-01 -6.746334895265997389e-01
-5.621918201936463265e-03 -2.480600772668880780e-02 -7.269575066450985057e-01 -9.760324497893674289e-01 -1.317094873147791334e-01 -1.732433776784663149e-01
-2.908955361299328177e-02 4.876447385121601696e-02 -6.706251289525673176e-01 8.742235882076478948e-01 -4.259242315748110741e-01 2.330700898415570266e-01
1.708229193763027669e-03 6.556056431323076250e-02 -7.033044206968962486e-01 -8.733135596358346797e-01 3.105978294942339790e-01 -3.753030973355513944e-01
6.249081786070895261e-02 2.280262645310651426e-01 -6.600170615317737521e-01 6.474308738870938607e-01 -3.354611375339555113e-01 6.843238186284462676e-01
-9.902834211054568903e-03 -9.967115472765371298e-02 -7.242474795194524528e-01 7.293398718592782881e-01 -5.059322274886868254e-01 4.605387415892688296e-01
3.969991924532070143e-02 1.507745930279008051e-01 -7.312185716405958935e-01 -9.225187604483966464e-01 6.342124390093108188e-02 3.807057688593807887e-01
-3.539482025756052284e-03 2.033680650570797721e-01 -6.342981877626037157e-01 4.786075928226589116e-01 -1.683360040975252769e-01 8.617411222733761811e-01
4.027271617502859585e-02 1.363354237481031739e-01 -7.032061337310173688e-01 -9.362281488960875198e-01 2.133723894596727400e-01 -2.791936185353728894e-01
9.612796291287022121e-03 7.988348372204728820e-02 -7.614965077664903603e-01 -5.551812257082702207e-01 5.486588639789607286e-02 8.299177917907508695e-01
1.634937221501425730e-02 1.632751698881675095e-01 -6.595560613697369901e-01 -6.516387607869739140e-01 4.709235842081799239e-01 -5.946409868790902831e-01
3.131982186235392207e-02 1.576434306813497832e-01 -7.372937925452212049e-01 6.669215401024460865e-01 -2.436087727311014167e-02 -7.447296200674886624e-01
1.732644154594063443e-02 5.049722464399582222e-02 -7.385943237685633767e-01 9.334960618175810465e-01 1.211266930292063428e-02 -3.583830155203021617e-01
1.782561376104037365e-02 8.492585945442901463e-02 -7.425586323674655542e-01 9.525990056219026947e-01 -1.987147897875219948e-01 -2.303639876540233278e-01
-3.165990578183838083e-02 3.156013484213544135e-02 -6.671521706673347873e-01 9.147763394198663578e-01 -2.289914745270852925e-01 3.327869490101748595e-01
1.337092266656678650e-02 7.356360195954693426e-02 -7.542874202960371255e-01 9.091358941311806774e-01 -4.044366166051536343e-02 -4.145313452970577628e-01
5.824231827949599705e-02 1.822807394188186436e-01 -6.954265254641346372e-01 -8.169338085459619814e-01 5.765807881051687733e-01 -1.318132173236566569e-02
1.554447192720139620e-02 3.098959394312316915e-02 -7.433273204685346691e-01 -9.658022307686137120e-01 2.212036495967216465e-02 2.583345514955762146e-01
-6.918484030383901910e-03 5.687824869314503373e-02 -6.971770339542628925e-01 6.624409536466685511e-01 -4.560365879302071268e-01 5.943085170184481125e-01
-3.589594308861918104e-02 1.175188622233545310e-01 -6.399247616733875210e-01 7.760158727007215873e-01 1.497515105755465037e-01 6.126776072265736062e-01
5.463553049140722206e-02 2.400469797267194283e-01 -6.503864174238576101e-01 -3.290351972088160770e-01 -1.712391115887620940e-01 -9.286619436910545922e-01
-1.883232756678987789e-03 1.367721675475406518e-01 -7.537467600701230896e-01 8.211064012092622599e-01 -4.136410568200740712e-01 3.933005898876152928e-01
4.569500674798943063e-02 1.892132513102772473e-01 -6.623578766920077410e-01 -6.518461058559562593e-01 5.210219306477358314e-01 -5.510288577420708878e-01
-1.377194412280502954e-02 4.829831112787738578e-02 -7.926186830310021358e-01 -3.803265840293912348e-01 3.768983420571601628e-01 -8.445704998607863612e-01
-3.489981588983510040e-03 1.670541705874704907e-02 -7.686710801694346396e-01 7.159773032113210256e-01 -4.309240856248017226e-02 -6.967923260272952390e-01
4.255763064284444168e-03 1.823769655393989442e-01 -6.409063491389936917e-01 -4.721855321717645104e-01 4.343347741506639603e-01 -7.670685283409555133e-01
5.446499855143938779e-03 1.138076128665476208e-02 -7.635066083096730960e-01 -7.155705052222786078e-01 -1.098313516996182737e-01 6.898521046135671630e-01
-5.444987532177863326e-02 1.277854158194320633e-01 -6.265767256050503997e-01 9.492125109252206316e-01 3.129623307153289735e-01 3.240661439069329741e-02
-1.263118752669219365e-02 -1.516518256017260202e-01 -7.984643428822938427e-01 8.897242479810480997e-01 -4.430782470137448192e-01 1.098746084306350262e-01
-5.524416567006183200e-03 -1.546016253798424278e-01 -8.190404415393892634e-01 -7.094042922828119879e-01 6.312569682305872731e-02 -7.019691563675186652e-01
1.300312674777052806e-02 5.992303063858864243e-02 -7.181013257604775823e-01 -5.346125617958426002e-01 6.595067561355345553e-01 -5.284318758190794663e-01
-2.218876766099695669e-02 1.381772938171662302e-01 -6.480368952155051154e-01 -4.529409759861443008e-01 3.321813104311136522e-01 -8.273451814526915360e-01
-3.079034542288446724e-02 2.010236087318873766e-01 -6.306661579224913661e-01 4.798850383950670762e-01 -1.170543332639611689e-01 -8.694875691973372733e-01
-2.354896337540325624e-02 1.029116020958420613e-01 -6.473781093433270684e-01 -6.985605359118461921e-01 -3.814249892202197650e-02 -7.145336433244678931e-01
-1.727425298075014812e-02 8.702930400649228071e-02 -6.539947464997735160e-01 -7.015020258725785940e-01 -5.199920517186241709e-01 -4.873429735269855234e-01
1.507497188684623268e-03 -1.927732475258751577e-01 -8.420736757247004878e-01 -4.904452747503806886e-01 5.628105583261179268e-01 -6.653628392927180002e-01
1.054296632491809847e-02 3.515222645620801750e-02 -7.306675315386801373e-01 6.474965688047830126e-01 -4.578884530576110556e-01 6.091685792476012606e-01
-2.070030491819137546e-03 -7.084309174537867237e-02 -7.391905095801619696e-01 -9.913359670595291995e-01 -9.611324138375071380e-02 8.952790204655158846e-02
-2.765795596370580235e-03 -6.107408125337886184e-02 -7.350503933477576801e-01 -9.670791007474651702e-01 -1.421576983291530649e-01 2.110668181008842348e-01
-3.943042566451029213e-02 2.467141673940554877e-02 -6.594281965287807079e-01 9.990496346600974409e-01 2.037064066493060946e-02 -3.853393938369593236e-02
-3.733456001946715980e-02 1.337133011952753858e-01 -6.373524013716463932e-01 -6.564700879084036655e-01 1.083495156472669418e-01 -7.465302446254508117e-01
-9.544108890725645084e-03 -1.329793653311983070e-01 -8.312639978938816121e-01 8.237095052471301582e-01 2.938479981850325995e-01 -4.849288658434114385e-01
4.467281061429308198e-02 2.357945104562717276e-01 -6.483422784493333424e-01 3.967495723671726204e-01 9.053101791644438401e-02 9.134516471173929064e-01
-1.494052118787471753e-02 -1.985151047387536880e-02 -7.889432467598632703e-01 -9.253070822386180172e-01 1.685134066575811329e-01 3.397205253376842093e-01
1.573232478544901768e-03 -8.610659864130618124e-02 -7.703640099345103742e-01 -9.869237308093506966e-01 1.364650545123329839e-01 -8.578367246917302513e-02
-5.458055198355048904e-02 1.296348928750487572e-01 -6.259875084677435364e-01 7.134113783471237591e-01 4.743461458692069255e-02 -6.991381570075025920e-01
-3.937371165685476029e-03 -6.852162297210562247e-02 -7.438468408688613254e-01 8.991297917709991649e-01 3.374105672930914901e-01 2.787825794930416379e-01
-1.112270324320104899e-02 8.551244461349338799e-02 -6.669725274641192803e-01 -8.709212548398802545e-01 4.454193990338855547e-01 -2.075999201166051911e-01
-8.053773238451940666e-03 4.434502254916615482e-02 -7.864856795619453722e-01 9.916906563611975756e-01 -8.213740706506121592e-02 -9.901054714789625510e-02
-1.923636715028665192e-02 -1.410613308078066501e-02 -8.055383094089743068e-01 -8.888191975235637532e-01 2.229884246417031535e-01 4.003455964405996381e-01
1.496017255614013296e-02 6.325648483386192567e-02 -7.521151618558143959e-01 -9.082514203765568173e-01 6.816353401877603413e-02 4.128354272758559262e-01
-4.532332680933334745e-02 1.760212611959263984e-01 -6.317596079136215126e-01 3.576997170687371552e-01 -3.207034560336833873e-01 -8.770405952388958815e-01
-8.507347370374142986e-03 -1.553277895558184407e-01 -8.258305218075903120e-01 2.987006504230010351e-01 6.089746600245964370e-01 -7.347977850298702540e-01
-4.598924762568703389e-02 1.643330563579815662e-01 -6.312967198896054510e-01 -4.229506322693627612e-02 3.194916540367849223e-01 9.466447119312869640e-01
-2.911115402691243081e-02 4.951056111682289318e-02 -6.690976553400893589e-01 9.480149609518562226e-01 -3.588437857400186837e-02 3.161960549814119559e-01
-8.363008880129684311e-03 -1.151436856944774295e-01 -7.460105038551064771e-01 8.973718533620157478e-01 -3.505412807805541320e-01 2.680383690115086259e-01
-3.961631507484347260e-03 2.414127952707667557e-01 -6.310117971880386811e-01 -1.075958375381586146e-01 2.061327128954390173e-02 9.939810002164056746e-01
6.704457458181910245e-02 2.047519137499686781e-01 -6.915520253920213190e-01 9.544076138762674910e-01 -2.974762350671129041e-01 2.477894560519987993e-02
-2.804219348110730328e-02 -2.509109268916168839e-02 -8.062826874708300950e-01 8.312840953769249364e-01 -5.734094475109214467e-02 -5.528822377581138481e-01
4.790518822382879710e-02 1.742342020781184053e-01 -7.204401702028561116e-01 -7.030036401374849531e-01 -1.853031892651960111e-01 6.866211546417666511e-01
-2.658605436969400937e-02 3.968700534422167636e-02 -6.806149844330610099e-01 -9.952479225710526567e-01 9.632623684157440302e-02 -1.424179461812838388e-02
-1.175874690616967970e-02 1.075907197260441428e-01 -6.607450020009056901e-01 6.962737190119071551e-01 1.820624751788777751e-01 6.943026453536441656e-01
-2.909673597097573935e-02 -4.433902287819466853e-02 -8.086203895349626247e-01 3.849678660539339048e-01 -9.404229385361061178e-02 -9.181262380918169264e-01
6.603549419640845908e-02 2.018227702114046285e-01 -6.917763541259789317e-01 8.856415607665427681e-01 -4.204831648706632841e-01 1.970607365848222048e-01
3.468886135529030399e-04 2.399268322000204165e-02 -7.330341714009701581e-01 9.968380116370750832e-01 2.633381160014226785e-02 -7.497005350171982718e-02
2.053690586300119247e-02 1.920019738681452426e-01 -6.490515228645844514e-01 4.525144570214308937e-01 -3.860443801136890785e-01 8.038659109386572243e-01
2.628200658742848445e-02 1.590248973784364472e-01 -7.410789993224766725e-01 5.831366998383210598e-01 2.475423922567156765e-01 -7.737404948285273587e-01
1.698917030383783125e-02 5.538822357438989014e-02 -7.226774015798214101e-01 -6.196548682282113640e-01 5.334890596342583002e-01 -5.756885160671806334e-01
5.275390519181338139e-03 1.422961974161914833e-01 -7.510995501100972138e-01 3.303216560629290699e-01 4.040366680190179971e-01 -8.530193282874274363e-01
-1.984068798030169320e-02 2.149709343156805674e-01 -6.298076797441100050e-01 1.861658691282574718e-01 -1.791640047933431082e-02 -9.823549622033701523e-01
-2.132703626166164174e-03 -2.104116373754496561e-01 -8.682477518720371767e-01 4.458056247020674712e-01 -5.192088907816793109e-01 7.291635431899057274e-01
5.586158709946056899e-02 2.050144347734890737e-01 -6.640794465330182028e-01 7.391411720697258492e-01 -5.334402448007550257e-01 4.112320913770013964e-01
-3.956498396533253414e-03 -1.151331984978143097e-01 -7.657142044537770253e-01 -9.411133071836893516e-01 3.112688364481108749e-01 -1.319752041029600975e-01
3.157719337180791425e-02 1.234877970792964408e-01 -6.964690555573567199e-01 -7.460352094036130088e-01 3.952864710389727976e-01 -5.358918474316087810e-01
-1.485985914727926301e-02 1.083522573833259686e-02 -7.901077652738821566e-01 8.930771104250068149e-01 -3.076281265030045842e-01 -3.282959192849826402e-01
-8.856501446009310344e-03 2.403325066058957515e-02 -7.824830269143546735e-01 8.364351536515550745e-01 -2.005402360465390887e-01 -5.100586706078996668e-01
-9.676290203732718781e-03 6.893236009523656671e-02 -7.848922004250117324e-01 5.606727237853164070e-01 7.317175275884986174e-01 -3.876023176181085383e-01
4.451615330324048408e-02 1.485600460425153257e-01 -7.041682168670649888e-01 9.869357989136453568e-01 -1.143545985796451392e-01 -1.134934121716896505e-01
-5.987235762250184452e-03 -1.319163251105299750e-01 -7.839894268843050629e-01 -9.807815856490473827e-01 1.532070977459278061e-01 -1.208100428441689911e-01
1.057582601457219412e-02 5.947760799255477626e-02 -7.196661062374238860e-01 4.185770973241395576e-01 -4.362673271257915819e-01 7.965325058515912993e-01
-1.837334764724210881e-02 -1.523089943670158375e-01 -7.820783883414187398e-01 -5.470902703605959871e-01 6.830374941907441100e-01 -4.838925682487786872e-01
-9.883505905805398464e-03 8.263172151359031437e-02 -6.748610029847217362e-01 -7.977120640144058639e-01 3.247730004794468495e-01 -5.081121540422486316e-01
9.555713390996358955e-03 7.699320757844125944e-03 -7.501692767982907073e-01 9.746909616712599034e-01 -2.219547250015304618e-01 2.671384071693127735e-02
1.910907663060234726e-02 1.474281227338062883e-01 -7.492263097187634724e-01 -4.501803219700365455e-01 -1.190463899018921606e-01 8.849664596821062990e-01
5.930257614912102376e-02 2.476646388242026986e-01 -6.541895164856353917e-01 -3.920305276929741400e-01 -3.054054285865682727e-01 -8.677785371548565330e-01
-3.187549957184671739e-02 5.295479803812847691e-02 -6.444220988858986310e-01 9.838808436550322556e-01 -1.383448894535571072e-01 1.133100924487534661e-01
-7.032301694451723907e-03 2.208815689459947829e-01 -6.314644238960880340e-01 1.758569407164679577e-01 -1.664996406054991829e-01 9.702330679172320727e-01
-3.491507215410775966e-02 3.303433166785915004e-02 -6.566905612980797891e-01 7.037617423511643988e-01 -5.146159875622867697e-01 4.897854584898839736e-01
-3.060081799605744116e-03 -3.574026202542470582e-02 -7.007527420978263422e-01 8.772918545169295923e-01 3.842384818475585995e-01 -2.876104849718276180e-01
1.904701134469975396e-02 2.251225978133475081e-01 -6.390185191080716143e-01 -2.843822175272670005e-01 -5.567459738279983278e-02 -9.570930433142524896e-01
-1.361093660957957141e-02 -1.366130377964761555e-01 -8.380343176305374842e-01 5.470643447251486435e-01 4.041080052680984802e-01 -7.330875273858382668e-01
-1.168506033934215609e-03 -1.217112501461873469e-02 -7.371975656230939089e-01 -7.407239663631137727e-01 1.475979436695020464e-01 -6.553951881726254314e-01
-7.181387282758033147e-03 -1.543766755393640722e-01 -8.239045315197319752e-01 5.091686681014160332e-01 1.526888138024814490e-01 -8.470143998560007992e-01
2.595358908477383032e-03 3.509182215427743973e-02 -7.662014590904205891e-01 8.922342974525314663e-01 1.061016068389685763e-01 -4.389309825878969229e-01
1.686112015698066138e-02 9.923446808186972556e-02 -7.519643689849067059e-01 6.960350936264232402e-01 -1.272108829679673425e-01 -7.066488093069756005e-01
-6.831581857374631993e-03 1.928014512258769200e-02 -7.801304522735139635e-01 -8.046860217646492064e-01 3.049603242054790275e-01 5.093914084837626310e-01
-1.290998203299834404e-02 1.788219530859244677e-01 -6.346607877804792963e-01 -2.139767202398734636e-01 2.229351007672031870e-01 -9.510593588421829558e-01
2.399420568573901527e-02 1.382867051755624632e-01 -7.473309017108507035e-01 -6.515948119924700466e-01 -3.377341505604750105e-02 7.578149889121683636e-01
1.622435545389131406e-03 -3.225591041970574807e-02 -7.489081678968462219e-01 -9.130698620874694305e-01 1.905891635437536868e-01 -3.605262787748792497e-01
1.448449025141309611e-02 1.221366793627889774e-01 -7.538463425778766380e-01 5.089335674354827921e-01 8.811439333876253110e-02 -8.562841103418510347e-01
-1.089584311181448009e-03 -1.705628731392691555e-02 -7.385177935233355750e-01 -8.121158052787239567e-01 -7.130329640900645582e-02 -5.791232673081778692e-01
6.413581366511832138e-02 1.934518182482381499e-01 -6.988518893119343156e-01 -8.204395064396869941e-01 5.644140873396846780e-01 9.119075767594946036e-02
3.414194853964562515e-02 1.105631608806218469e-01 -7.110323609545012857e-01 -9.376511155844489132e-01 3.235192571128787109e-01 -1.270656354817050748e-01
6.301172314920103212e-02 1.920393090981971362e-01 -7.034965093403043879e-01 -9.047736845024554331e-01 4.182230102040484510e-01 8.046175220386125870e-02
-5.340774239933141453e-03 1.212251007855903034e-02 -7.263400425829689144e-01 -8.076949713508640993e-01 1.726958566619417046e-01 -5.637419394956570962e-01
-8.907750913347348143e-04 -8.798882461460019733e-02 -7.792214268507761110e-01 9.881745602175900922e-01 -1.227141873307051045e-01 -9.193621031202649230e-02
2.180516271739722789e-02 1.712186963141033302e-01 -6.578682329814121710e-01 -5.673590548196338901e-01 3.630519393111430460e-01 -7.391190650203726120e-01
2.873429523407071851e-03 8.941219090261273705e-02 -6.882706490809177291e-01 -8.359736222311180409e-01 4.241096884888006513e-01 -3.482514537855032066e-01
2.497870049276384660e-02 2.299790752666938665e-01 -6.390523839326237576e-01 -1.807092566012136470e-01 5.154981457323181554e-02 -9.821846981072868132e-01
5.126073516672007349e-03 -2.520896276865159172e-02 -7.650738997994931401e-01 -8.840452191449500452e-01 1.475399557902204450e-01 4.435042411887144542e-01
2.032233023102890303e-03 -1.879356284830408300e-02 -7.432167861580456503e-01 -8.404563368042520244e-01 1.396209700907948825e-01 -5.235829739749783274e-01
-2.982879108595475753e-02 8.070238265029321123e-02 -6.346392302206341762e-01 -9.847937877463451839e-01 9.473629056667484671e-02 -1.456235930949145718e-01
-2.390559930687955956e-03 4.091643554837840618e-02 -7.742614896148450887e-01 7.191134555648741600e-01 -3.018591976443794622e-01 -6.259048352769271961e-01
-6.044646812436827756e-03 -1.334936759221004576e-01 -8.042212798377289529e-01 -9.898253095606169838e-01 8.658454884492763209e-03 -1.420242504371783676e-01
5.483960661527152725e-02 2.035756204007749537e-01 -6.637287764573154281e-01 7.674347759925225221e-01 -2.833771310329271098e-01 5.751010921610687499e-01
-2.731841008000967380e-02 -3.992283452776732716e-02 -8.081954260290193925e-01 1.780720503107892927e-01 8.545219494925682113e-02 -9.803000904194930643e-01
-1.671080086610900531e-02 -4.310267711752372756e-03 -7.990775273344802310e-01 -9.979599817481887847e-01 -3.117658905812188339e-02 -5.571261189224318428e-02
-6.263064805849568109e-03 -1.249831686085160903e-01 -7.689212540232817084e-01 -9.807614557942074818e-01 1.857171212555496498e-01 -6.013416417460610425e-02
-6.557484009555563514e-03 -8.101330947160682860e-02 -7.079500886112990443e-01 7.407092665749031024e-01 -4.706780527903715594e-01 4.793870597247418819e-01
-1.825289762010195993e-02 -1.046488250244412693e-01 -8.231799812001695527e-01 -6.656347319630669945e-01 -2.650940948728554014e-01 6.976069985801445217e-01
-3.039402482596430342e-03 -2.125949733766169525e-01 -8.656867956755855964e-01 5.205529501839744055e-01 6.083057576311489134e-01 -5.991566834205845904e-01
-1.168196135659218746e-02 5.656999800307906980e-03 -7.112970777968925518e-01 -9.812215598374163239e-01 -4.222751083830230540e-02 -1.882049091778134342e-01
-7.690681135472633538e-03 -7.559330641424129305e-02 -7.996182298741915107e-01 -4.501433639730046954e-01 -3.800228184909151818e-01 8.080554493952059048e-01
-2.443128195752786863e-02 -6.856928204341099231e-02 -8.040237540773552682e-01 5.065106724218845224e-01 2.673353148743191077e-01 -8.197431110682048550e-01
1.137683294769127954e-02 2.350165647909391656e-02 -7.399903032309251838e-01 7.783042113836550202e-01 -2.984612484281701228e-01 5.524160006092917463e-01
2.547843449827241757e-02 8.365020787280252890e-02 -7.146508605846468853e-01 -7.923737764061196120e-01 4.507146173172565939e-01 -4.110962566120784922e-01
8.683660015354178162e-04 9.854054878045130639e-02 -6.761722959599304472e-01 -8.531607971944602520e-01 3.743572034015040240e-01 -3.632813488082176634e-01
-3.117680445422579827e-02 2.029394824507992079e-01 -6.313994387565361466e-01 4.446179964720414213e-01 -2.516221148002268371e-01 -8.596517600497595168e-01
7.417692985235892905e-03 -2.325954578774520887e-01 -8.839475957579038257e-01 5.978787360497461734e-01 1.360490610449233487e-02 8.014710996096152673e-01
-3.096405887393537115e-02 1.119349930179115438e-01 -6.406660481087844694e-01 -7.656637480208424718e-01 -2.838893514220770520e-01 -5.772052157732365796e-01
9.648268456145124485e-04 -3.321329768603645954e-02 -7.473750987794538503e-01 -9.515075461340085639e-01 1.046181745149237230e-01 -2.892895214334641474e-01
-3.983191989300903860e-03 -9.047062156034865743e-02 -7.337800582644542491e-01 9.827899082896037752e-01 -2.638073184472186639e-02 -1.828334027234876091e-01
7.159329416368401255e-02 2.178931870690840877e-01 -6.856458242692907712e-01 -9.358419680597389601e-01 3.006312214215699496e-01 -1.839039954015403433e-01
-2.233998920858209364e-02 2.799946103290842578e-02 -7.966237095219930175e-01 8.564355363866459347e-01 -4.423125984830245799e-02 -5.143556820589718637e-01
8.184670842492849582e-03 1.214899988704652989e-01 -7.567369917090520648e-01 3.647427411575543399e-01 -1.351667353727774995e-02 -9.310102213774885671e-01
-3.182484595551855755e-02 -7.193803187924366349e-02 -8.114125803894406408e-01 5.286610074316169250e-01 1.487935601293806642e-01 -8.356901433458530093e-01
-4.125886434535826208e-02 1.032084610162892352e-01 -6.238422790160379483e-01 5.348279663886236213e-01 3.263542555079960161e-01 7.793920363208947100e-01
8.719299164743166825e-03 1.377307427214305782e-02 -7.590114453501709546e-01 -8.432760164534719438e-01 -4.003533412558446525e-02 5.359876230808102715e-01
-3.392010069419894303e-02 -6.222718388109028248e-02 -8.122585330951757054e-01 5.272510029549214439e-01 7.121173859031149078e-02 -8.467203010262449592e-01
-8.169351509705947631e-03 -1.214191350247428164e-01 -8.032046097343755742e-01 6.499791352588599747e-01 4.366235340005386600e-01 -6.220024222501270295e-01
-1.034238044319566070e-03 -1.827724987510742360e-01 -8.374902211973909161e-01 -8.187709749130899217e-01 1.955408883042271395e-01 -5.397942678845915054e-01
-1.664204713573806324e-02 1.564861830711562485e-01 -6.400172420138557916e-01 -3.572775029948426218e-01 4.365094808363763623e-01 -8.257192373886705905e-01
-5.787990258320453371e-03 -7.958300690790901660e-03 -6.933654052515815236e-01 8.603079301026396175e-01 -5.607867109369693570e-02 -5.066808147649533023e-01
-1.322321071965769368e-02 3.843517381350037340e-03 -7.094864486193100950e-01 9.574981898683028181e-01 2.717813282125564611e-01 9.660292973788237036e-02
-3.141712394292783383e-03 -7.372781513691785416e-02 -7.480593143112289622e-01 9.151419587103052367e-01 1.029777508665837976e-01 3.897573324959080487e-01
5.358429529046864967e-03 1.000369276181567457e-01 -6.903744800763192968e-01 4.145840845750088377e-01 -8.009110850879449517e-01 4.320433665737183349e-01
-3.375527023669633309e-02 2.059922074356254976e-02 -6.761822162512403089e-01 8.128326044468249245e-01 6.785336975054767628e-02 5.785318291690502157e-01
-8.861234117560316467e-03 1.156578348156008240e-01 -7.635414660745422077e-01 8.060884607010287972e-01 -3.541948866220887004e-01 4.740963781926750276e-01
-7.285679338317328779e-03 -3.153517584279535296e-02 -7.261316091321788901e-01 9.680051495194290645e-01 -2.299560836085769444e-01 1.004302251081462954e-01
-3.177729491164791795e-03 5.557592090293923121e-02 -7.037016670525433337e-01 8.207235930461227458e-01 -4.049348825070930857e-01 4.030391106907977861e-01
-7.117581112030103505e-03 -2.910232879277172349e-02 -7.044862080818029559e-01 8.457927808131397995e-01 2.493396979565219718e-01 -4.716611993235465539e-01
-5.866208487659525317e-04 -4.156988949003107697e-02 -7.518634503159660198e-01 9.396943877621717345e-01 -8.520638590936405188e-02 3.312315344416079110e-01
5.398973163827459898e-03 -2.084130833770312663e-01 -8.685080558953506280e-01 3.140823489426242676e-01 -5.244075666557974635e-01 7.914221263755701896e-01
5.853126417980074759e-04 2.428628416790788724e-01 -6.292809600959908822e-01 6.881739077972018337e-02 4.342587133633811769e-01 -8.981556304974389615e-01
2.121604641278350759e-02 1.520967108547407187e-01 -7.450696547176620665e-01 4.520910149632255126e-01 3.450734015430697021e-01 -8.225193382146199772e-01
-4.098279191428232451e-03 1.933183941948751483e-01 -6.362359233152855564e-01 2.939722524343583165e-01 -2.043196760773305642e-01 9.337203996734380063e-01
-2.958406273300701311e-03 6.372452773113963798e-02 -6.961849050062668409e-01 -8.294614487099122302e-01 1.478272718568567345e-01 -5.386471969660777681e-01
-8.457033364231640593e-03 -1.350660065920479026e-02 -7.199801144179376333e-01 -9.715661109526031458e-01 -1.586624214514576747e-01 -1.757427895180743993e-01
-1.074511608956050298e-03 -6.603327596688075840e-02 -7.070038288737133803e-01 -9.785934546690764346e-01 1.302117111773137825e-01 -1.593730239128260673e-01
-4.821089404863747183e-05 -8.449298838734663197e-02 -7.769537677362380323e-01 9.932126082910893716e-01 -7.808024073107472374e-02 -8.621015450043349737e-02
3.551690285091436278e-02 1.569858227775950688e-01 -6.783296628317923016e-01 5.760116156892566286e-01 -5.834739843930137893e-01 5.725108978243063085e-01
2.874175611842975583e-02 1.066715622101296335e-01 -7.373248960450439204e-01 -8.917403666128969064e-01 8.445392634151116518e-02 4.445971804663169658e-01
1.226698331028497173e-02 1.060055129149188036e-01 -6.938084197067727610e-01 -6.145551642712251406e-01 3.325822942677492677e-01 -7.153397567639925292e-01
1.062058118057368408e-03 -1.831046523187930541e-01 -8.507997791240463625e-01 -9.472478830872416156e-01 -3.105286602066938406e-01 7.933094715793512219e-02
2.888943818331070681e-02 2.345377372333827537e-01 -6.387091218296050421e-01 -2.776498728932421875e-02 2.074910485504360691e-01 -9.778428146958306755e-01
2.836506277380550223e-02 1.341033236506993243e-01 -7.408000728409606106e-01 7.456440664587801193e-01 1.290507349818193709e-03 -6.663432004197192837e-01
4.423226984081950891e-02 2.479374312646110134e-01 -6.523321615310029298e-01 6.147406132666292933e-02 5.546709279163112294e-01 8.297958191678626028e-01
2.939936588693264907e-02 1.360011399616016525e-01 -7.422451899486965932e-01 -7.732893425743924132e-01 -6.971437686594113281e-02 6.302090909524055151e-01
-3.968507498189633581e-02 3.275748956720191812e-02 -6.480582382529727070e-01 -6.128397375169576389e-01 3.205044085722366098e-01 -7.222910633573610406e-01
-2.258721613610555588e-03 -9.595336579240432151e-02 -7.506081339007815156e-01 -9.832001263064025220e-01 1.056789169296084019e-01 -1.488270074538195764e-01
-9.422373514974081987e-03 -1.389167095703945642e-01 -8.349224310574131502e-01 7.132575086053379865e-01 3.650089171411048383e-01 -5.983579337032176593e-01
-9.503545544374773085e-03 -1.026565651319115841e-01 -7.249233153113512351e-01 -7.314775101274114677e-01 4.946412433214204540e-01 -4.693300465378728026e-01
-1.127577922153251769e-02 -6.234828684066588515e-03 -7.172527836621941377e-01 9.904636029779337880e-01 -2.775441251967603051e-02 1.349501528774893211e-01
-3.423167856351040650e-02 7.019628943137902477e-02 -6.277655581626035985e-01 7.535286563338708943e-01 -2.851820589158767794e-01 5.923392249008777588e-01
6.264631190790242651e-04 -7.715390541992110662e-02 -7.595239738364841786e-01 -9.289300920237689718e-01 2.031744916381886951e-02 -3.696972888623715203e-01
-9.773338431244577712e-03 9.240888774330610622e-02 -7.727594904312814483e-01 -3.514262431775128648e-01 -3.122742952138522488e-01 8.826009065001187981e-01
5.266715806637069230e-02 2.234672025249161420e-01 -6.516537975762574098e-01 -7.370422726202117136e-01 4.109316651343188076e-02 -6.745962051751644983e-01
2.838043827410813291e-02 1.899319606304255559e-01 -6.518255975604797525e-01 -2.753443770860015127e-01 4.071504192352980445e-01 -8.708696860745830381e-01
-2.756093847919213746e-02 7.113790612383955048e-02 -6.464027316219840280e-01 -8.692898010686490595e-01 1.248617294025970575e-01 -4.782727153921926266e-01
1.946691001086596051e-04 1.072798800745880937e-01 -7.609157169236052676e-01 5.355089824362118112e-01 3.707967507288536212e-03 -8.445213915035534313e-01
-2.671669305694971547e-02 -6.111568289741557691e-02 -8.051900915021998895e-01 6.623438833667769643e-01 6.485270718781342703e-02 -7.463877722317194818e-01
5.711284688936444850e-03 3.557828910652524601e-02 -7.274489110786285240e-01 -8.816559008388719088e-01 2.725770332009544994e-01 -3.852072604291916780e-01
6.580481203835902154e-03 -2.030016571242407655e-02 -6.725213364002798899e-01 -8.371136576191497980e-01 5.039411675612648356e-01 -2.128004320119636639e-01
-3.765308687348830480e-02 9.301416568974864296e-02 -6.232070238210635216e-01 6.143725955942650474e-01 1.632099811116931032e-01 7.719513040654096825e-01
-1.287459308897422397e-02 4.028237519543665518e-02 -7.942199622258139247e-01 6.103633939975927625e-01 -3.918567128603028110e-02 -7.911516987491100661e-01
1.030092094227651189e-02 1.585846873963250858e-01 -7.421194261108199353e-01 4.870816396309427532e-01 2.252920760043730930e-01 -8.437979360155323239e-01
5.363071984703189285e-03 -1.042122694138441011e-02 -7.461248804157459835e-01 -9.686324127991082777e-01 -1.972924932238379336e-01 1.510858067208831479e-01
4.396867596886518343e-04 -9.274773832321719924e-02 -7.866572667383001649e-01 -8.700025604410946967e-01 3.512388339593963682e-01 -3.460156446532193231e-01
-2.298839939592502157e-02 1.920053456306318462e-02 -7.982901471726338016e-01 2.975162702549688509e-01 7.892779023798277005e-02 -9.514486180880823429e-01
3.731194427714715385e-03 1.358350438871586130e-01 -6.664306655394170997e-01 5.473621928731307040e-01 -2.817935107945144235e-01 7.880273136682633961e-01
-1.146364716802124317e-02 -1.595773976735911648e-01 -8.040302336087555846e-01 -9.412738852288515812e-01 1.125332408743523749e-01 -3.183390373241989924e-01
-1.373765557269254929e-02 -1.557452326525288477e-01 -7.936774175586875923e-01 -9.077426635428574864e-01 3.063187807252580330e-01 -2.866566959955932359e-01
-4.106471324744543315e-03 -9.427184329541084262e-02 -7.253152946748032681e-01 -8.166328982584758478e-01 4.819047028244556330e-01 -3.176138644291759960e-01
7.596458778474359137e-03 -3.076497117863055773e-03 -7.584440846548716753e-01 9.917628442856331050e-01 -1.156434437095476553e-01 -5.507317515331678487e-02
-9.221301942852923664e-03 -1.080383833575911459e-02 -7.100939175761591393e-01 -9.682589621863514351e-01 -2.421205752165356551e-01 6.206616793893302009e-02
5.090129873990936749e-02 1.685192419415355303e-01 -6.967283757364112207e-01 -9.861633573100041517e-01 1.640557632663045551e-01 2.382308204602436724e-02
-8.774162700673337340e-03 -1.051533147702264082e-01 -7.323958015335627625e-01 7.833922904131714882e-01 -4.748167956262974165e-01 4.010555197380784587e-01
-5.860566170693973925e-03 -1.335758616834908652e-01 -7.928780131306563117e-01 -9.767596465075468748e-01 2.139499357863071660e-01 1.288479458459661046e-02
-4.489830288534000721e-03 -1.267119685924104344e-01 -8.109322397046181408e-01 -9.789289503891052124e-01 -2.834121498384732998e-02 -2.022248392837148190e-01
-3.953565884419292173e-03 1.852089334126426901e-01 -6.383999755707117085e-01 3.584462095265029680e-01 -2.559902170663262422e-01 8.977668537222889267e-01
3.481817091705852879e-02 1.184434401124105085e-01 -7.246084864051342000e-01 9.549205680754175862e-01 -1.641162490322937428e-01 -2.473713109277061728e-01
1.945327329339489181e-02 2.028716752285303626e-01 -6.437130400267696562e-01 -4.699113946927852004e-01 1.077417091480917244e-01 -8.761135801069001028e-01
-4.950863688494874792e-02 1.514626783901577289e-01 -6.298959486910195027e-01 -7.650326782770283662e-02 2.102216201879699153e-01 9.746558984673658887e-01
-2.656845814051774640e-02 1.236505803255820019e-01 -6.472832706234153965e-01 -6.806378966101650496e-01 3.218898463162339629e-01 -6.581177558283939355e-01
-1.213789349292932309e-03 -7.719868140622070107e-02 -7.808698133866590618e-01 8.435338355641475161e-01 -1.393828366842502775e-01 5.186743613253789187e-01
-1.288524543304139965e-02 1.354882105652000131e-02 -7.144310215001509201e-01 9.558729501821929819e-01 -1.116852294178037434e-02 2.935679941773112200e-01
-1.805292079821206250e-02 -1.665587870455516317e-01 -7.988131802233519041e-01 -3.482514131954532188e-01 7.771606276280306203e-01 -5.241586707020836622e-01
-1.637846801703227856e-02 1.897290743430437437e-02 -7.082374400191258079e-01 9.126352930776528982e-01 2.756921882738098128e-01 3.018122581239284785e-01
1.330924837714665861e-02 1.605234762233537227e-01 -7.425116023725156778e-01 -6.417946226703468149e-01 4.212518797523008285e-01 -6.408170691520163054e-01
6.199204490835207720e-02 2.002148353406280890e-01 -6.802155533793871056e-01 8.194310355990909178e-01 -4.434371070030218576e-01 3.631753158321640584e-01
-1.055431719526390109e-02 2.671728779634595374e-02 -7.906079683760333099e-01 -9.136154313899489399e-01 1.305001313138480223e-01 3.850669542472137108e-01
2.424617149034081001e-02 9.250638691793076906e-02 -7.109904253774844696e-01 7.481751338033781895e-01 -3.753980521737841913e-01 5.470925621706311803e-01
-2.290574663747141707e-02 -1.376841405034098798e-01 -8.449366480844144878e-01 8.353634437399868329e-01 2.369510055099902784e-02 5.491870893172451362e-01
-4.055176877399781221e-02 1.848983080277472324e-01 -6.319908512734343509e-01 4.483621759636479687e-01 -2.880496355967391842e-01 -8.461671032353649258e-01
5.405058706867286317e-02 2.164807146626544221e-01 -6.565026253512318277e-01 5.799352817847194252e-01 -3.137311721934271103e-01 7.518296486142431734e-01
-6.356093167423593378e-03 7.176419271476232320e-02 -7.721860645516992472e-01 7.221801415723619888e-01 2.882519432472183118e-01 -6.287818861359840694e-01
1.387821487879766771e-03 -2.205617996544957382e-01 -8.769856681098260331e-01 6.900392238401491518e-01 -3.336550935782872096e-01 6.422773140095708877e-01
-2.382756155140712886e-02 5.988191540530774654e-02 -6.752602116511277064e-01 8.872631065389414706e-01 -3.608422749542699592e-01 2.873273958060629796e-01
5.638177538592123450e-02 1.843876397325235894e-01 -7.087089518071075789e-01 8.653544742540928425e-01 -4.430753985150168162e-01 -2.341918553647455159e-01
3.054357051749679794e-02 1.411315689059619571e-01 -6.826342170671495513e-01 -5.690865034561130020e-01 3.410839575728015216e-01 -7.481993621158542496e-01
5.262058891078132128e-02 2.493852872734860782e-01 -6.547278851181288495e-01 2.682380694549736933e-01 5.488578635764812530e-01 7.917091534681972576e-01
8.071049211827623429e-03 1.513328794840478053e-01 -6.611969461006341753e-01 -6.780293304006554944e-01 4.704652292079123943e-01 -5.647465761054114575e-01
-9.217439965277487296e-03 -9.548258798970010730e-02 -7.170020972804336257e-01 -6.369397506698417644e-01 6.189030200988427932e-01 -4.596376896308342896e-01
-1.045020833323731177e-02 -1.122560150703680870e-01 -7.383296488088796350e-01 7.512906780318205913e-01 -5.180021799446641317e-01 4.089450558144248626e-01
-1.105979616898495818e-02 -1.168466520680898069e-01 -8.261385023836053110e-01 -8.409012656617029791e-01 -4.363361369334112227e-01 3.201497103146804246e-01
-8.243091206154903178e-03 2.096563339998761683e-02 -7.802182612794993366e-01 7.733652195095592763e-01 -2.848579037018272864e-01 -5.663587307983621866e-01
-8.787409976594480129e-03 5.650025459910883868e-02 -6.934198701089769878e-01 -5.743386022874658048e-01 6.388205811813538748e-01 -5.119017825536433808e-01
1.129144453400693620e-03 2.821172989836944617e-02 -7.280469368896460569e-01 -6.500417554943391796e-01 3.870423481546979017e-01 -6.539449035268455335e-01
-8.654402655147037590e-03 1.373748733591143543e-02 -7.776829831366476320e-01 8.670442732180198009e-01 6.124444039742006629e-02 -4.944525728522837227e-01
-2.058733395744714520e-02 2.214214590357901635e-01 -6.365956208044341036e-01 -8.370057552677448998e-01 5.468781057913507659e-01 1.859309158628689659e-02
4.239423456001487067e-02 1.743039622079403106e-01 -6.714725229742115609e-01 4.993154635687350740e-01 -3.233782206340415910e-01 8.038100486188888283e-01
-2.856316053982053613e-02 9.697156433423348432e-02 -6.412322016383449341e-01 8.215224669083714959e-01 3.014975152279587567e-01 4.839422327883267094e-01
-2.294072273415462011e-03 -1.106607328479119606e-01 -7.675858517254913194e-01 -9.655622385835107568e-01 2.244919273461888909e-01 -1.315026158598874007e-01
1.678014378006509582e-03 1.946315581431422304e-02 -7.623474812413398860e-01 6.981509934227463354e-01 4.131840442371889632e-02 -7.147572873631372614e-01
-1.706961854030059414e-02 2.951584552061656958e-02 -7.064282200113589649e-01 7.072987295008650310e-01 -3.346946426721477685e-01 6.226620298468710235e-01
-8.544085999718760774e-04 2.416107632528764759e-01 -6.312147457376898751e-01 1.684943824089319697e-01 -4.219634043750990909e-02 9.847990210953272427e-01
5.144048004715883610e-02 1.707610210543217544e-01 -6.955965659735806605e-01 -9.681951208866772518e-01 2.402532675168199683e-01 -6.983248054253574089e-02
-2.588455740167908657e-03 -1.074344735477373580e-01 -7.599147389631774052e-01 -9.301916053934413675e-01 3.597513463899775221e-01 7.295578130738292200e-02
-1.023397742095982776e-02 -1.627129015446234783e-01 -8.100778728510927840e-01 -9.661255317514790830e-01 1.321422016085894990e-01 -2.216752026094856998e-01
-2.411473458130207123e-02 6.065476904396406577e-02 -6.733942334139426666e-01 9.114837766483555592e-01 -3.433487141118516384e-01 2.265148679989651970e-01
3.647489839722699301e-02 2.211707372549705231e-01 -6.416101874012382078e-01 3.875180478534780426e-01 -2.636445462682657781e-01 8.833579771592205976e-01
-8.583813325959642124e-03 -1.855649607244008736e-02 -7.254347838750352384e-01 9.637940177062508385e-01 1.968251573529420650e-01 1.798914919239734123e-01
-5.349781971420039528e-03 -4.333677258319049153e-02 -7.158820473142830654e-01 9.359338588888053145e-01 2.885836635900123626e-01 -2.018595573523251641e-01
-1.018758836447861832e-02 -1.575069833601053237e-01 -8.469282762964072120e-01 -5.247802115965083392e-01 -3.243080985109266234e-01 7.870387453975510317e-01
-1.371216214630493471e-03 -1.790473180639478856e-01 -8.524536029606579746e-01 -7.113338322906714861e-01 -4.643146627696665973e-01 5.276514692254324901e-01
-1.452931310990458920e-02 -1.629690361523377685e-03 -7.878993153255000603e-01 -9.339617076289992159e-01 -1.367827060558129797e-02 3.571112342057646827e-01
1.255798087054208791e-02 1.636275720173261949e-01 -7.394672895759363263e-01 2.238269452681586683e-02 4.176939351183812654e-01 -9.083120562620761174e-01
-7.096461438126085847e-03 1.934736045625488898e-01 -6.352312359811793652e-01 1.986110766509972814e-01 -3.599979697533252643e-01 9.115673875282156446e-01
3.640637191864315447e-02 1.157298747947960449e-01 -7.191652913030981420e-01 -8.662373268860217301e-01 4.341309836009497602e-01 -2.473119135566087534e-01
-6.301795692831040595e-03 -1.263253066669863534e-01 -7.704219277481930694e-01 -9.550266398648221688e-01 2.159367512965899294e-01 -2.032127864775787052e-01
-1.419936242041420008e-02 1.902089228390810016e-01 -6.317364800110946144e-01 -3.976566066317625547e-01 1.771018877764473642e-01 -9.002800367375312085e-01
-2.560809411433079275e-03 -8.390775244630094276e-02 -7.162286269068505185e-01 -8.277193986109080415e-01 4.838671200099554093e-01 -2.841710881431612212e-01
