-1.687888665771060392e-02 -7.090806028241664061e-03 -8.107214979526192744e-01 2.756220128031595107e-01 -1.033075618952612323e-01 9.556987253907957003e-01
-7.550585634079543711e-04 1.191691847661259518e-02 -7.890972498844719407e-01 -2.478614451272974084e-01 3.574755946271692131e-01 -9.004309541910249237e-01
-7.234585681064616136e-02 7.652818151957889448e-02 -7.625726536718395732e-01 9.889132241405195201e-01 6.669256462816569586e-02 1.326753064564782092e-01
1.522163931623583474e-02 1.387767359469457007e-01 -6.796909951422051011e-01 9.600017647412028010e-01 5.497607379786623172e-02 -2.745436996245730898e-01
-2.049247171840960086e-02 2.553239688090528370e-01 -7.225519293684418143e-01 -6.765461741985538957e-01 -5.931086322478866801e-01 -4.364715621095389131e-01
-1.710612922116448720e-02 2.029432364984492393e-02 -7.999214833331345087e-01 -3.279271288556358521e-01 2.928088158440244060e-01 -8.981797122650452270e-01
-1.988250242899394435e-02 8.387791127058995266e-02 -7.852006994266441664e-01 -4.867532500379974369e-02 4.158722379551581250e-02 -9.979485034573458702e-01
2.951881787769300089e-02 -6.669684932982344883e-02 -8.188055313588354922e-01 4.419305246544145138e-01 5.028849549791803986e-01 -7.428351993775347273e-01
-7.807796992644638022e-03 2.259456768707112928e-01 -7.032884188478930598e-01 7.999168172463962945e-01 5.133762432028565748e-01 3.107698801385311294e-01
6.938125747287872402e-02 -5.871348620923396572e-02 -7.949402842142833103e-01 -5.624088822372478313e-01 4.230706145401001428e-01 -7.104276911081884860e-01
-3.263227804168671812e-03 1.206575974891025416e-01 -7.429549933145197516e-01 7.127538507762578579e-01 2.803833337556090322e-01 -6.429363377160345339e-01
5.253952496628097471e-04 -1.398225978895027144e-01 -8.628472907146259585e-01 -2.865654665433070014e-01 -3.960111051570937013e-01 8.723849138866822672e-01
-4.502720767275375513e-02 -2.627258679683002265e-02 -8.014213277140393998e-01 5.935711926439216080e-02 -2.791609231413465508e-01 9.584080088268795983e-01
5.258632612762998565e-02 4.551593882271480485e-02 -7.203661827570616571e-01 -6.205153773482824375e-01 -1.771281320890163435e-01 7.639281977365246501e-01
4.675196189748453989e-04 1.966420521113914632e-01 -7.018565705954102896e-01 9.443700640534041790e-01 2.870597715293787267e-01 -1.605050456816544402e-01
-3.429272842633082803e-03 2.072247682315397632e-01 -6.716692704474737097e-01 8.731095112651522383e-01 4.063974883285830231e-01 2.692969788515019447e-01
-2.805086862491628502e-02 -1.434275424227604012e-01 -8.435080670645839218e-01 -9.963328403229152475e-01 8.069535260494478668e-02 2.844523443453632686e-02
1.099433837147926508e-02 1.182907465319515683e-01 -7.265076655170334963e-01 8.596246889801417712e-01 3.454088831375056734e-01 -3.764812047705641818e-01
2.213972265382133792e-02 3.777994274609829117e-02 -7.379861654562723805e-01 6.558107077216134284e-01 1.986729370790786819e-01 -7.283140666704501776e-01
2.487466560684790939e-02 1.244985294586772179e-01 -6.727977877802489015e-01 7.731167430280843078e-01 3.442425876511291949e-01 -5.327171317846849385e-01
-9.450400026127009703e-03 1.096365655539244532e-01 -7.680180171562906999e-01 8.683499575639878065e-01 2.088756720284440094e-01 -4.498214143782912622e-01
7.079147448808958791e-03 1.768436007294953982e-01 -6.929352749986305016e-01 9.607252261131360438e-01 2.729481584584498854e-01 5.006338686110584080e-02
1.819927218060228211e-02 1.358519337306685337e-01 -6.582264101649315524e-01 6.856073238005435666e-01 2.765506866172645073e-01 6.733961057821586937e-01
-3.310535503726960704e-02 2.488319300154237246e-01 -7.561930798099377737e-01 7.934961238472093559e-02 -5.464311357670578184e-01 8.337365608384449400e-01
8.065609601444152787e-03 1.348861119800071340e-01 -7.219137991258024467e-01 -9.330723478441148577e-01 -2.237722654777221931e-01 2.816060491034219626e-01
-2.683351297176071563e-03 5.569288599061328338e-02 -7.767107059418135728e-01 -9.727061838986227338e-01 -2.107280142610888918e-01 9.714105111103583934e-02
6.672475953427012274e-02 -1.134329554492147403e-02 -7.850320813182221080e-01 3.377908939597066285e-01 4.338076810218780555e-01 -8.352892958995239425e-01
-4.858677671293865769e-02 -1.078963279238988673e-02 -7.983833825384492044e-01 -1.147233550398679171e-02 -1.589684383320593697e-01 9.872170081255436935e-01
4.013571130736325043e-02 -3.450161833436169584e-02 -7.990786061291513809e-01 3.058698749167686540e-02 -3.952645571860008977e-01 9.180579317389173655e-01
5.687784478772472951e-02 -6.250628860475350435e-02 -8.113016870861977647e-01 -3.725330269143735107e-01 -2.289466034693105612e-01 8.993345298707712265e-01
7.199771356525167670e-03 4.503426108207029752e-03 -7.841646241683675189e-01 6.277606965509123782e-01 5.114889780454937585e-01 -5.867670178221416899e-01
6.037448020887065114e-02 -6.971824425856014418e-02 -8.090641585649929191e-01 6.268130898811064000e-01 1.968192436438828130e-01 -7.539015424345208993e-01
-3.394351244704216231e-02 7.191530246455649089e-02 -7.845769867635545847e-01 2.287492605548654273e-02 3.433927295577878236e-01 -9.389132926126927403e-01
-2.705594032976504915e-02 -7.824955345292410047e-02 -8.207081987660441724e-01 -5.366808467618759959e-01 1.073327709870271077e-03 -8.437846388069547565e-01
-2.364887894803087420e-02 -7.238414868130532698e-02 -8.251199263880891754e-01 7.898125412397968281e-01 1.179677628420321284e-01 6.018967989866537138e-01
-7.139402840849398690e-02 7.933472049507896140e-02 -7.643988555221855608e-01 8.640498760303979564e-01 -1.768159748560923714e-02 5.030955901637490513e-01
2.978145740361497554e-02 -1.316661824691499616e-01 -8.449488955564322668e-01 -6.077195030621468375e-01 -2.954330647388428085e-02 7.936020404714742016e-01
-7.095644849791561031e-04 8.864264207227258441e-02 -7.547868966103103983e-01 -6.448717287059898551e-01 -2.635223592942262383e-01 7.174234591005180794e-01
2.282963739932020522e-02 1.294261817840136886e-01 -6.694003717225315286e-01 8.120953965938956243e-01 4.529329440556612574e-01 -3.679032685639996303e-01
-5.432727745225697166e-03 1.636302676745300666e-01 -7.331036610272891885e-01 6.862837710920608458e-01 1.775319134899850104e-01 -7.053346760426884021e-01
-7.307659277463620859e-03 6.179205486271189401e-02 -7.849880360607497387e-01 7.932696525376239371e-01 2.492382502688931523e-01 -5.555209743706693848e-01
-6.524242993671235114e-02 8.166644243167410500e-02 -7.692505490687572278e-01 5.409385369240633512e-01 -7.115219360392661778e-03 8.410320284768630916e-01
2.935831009654292522e-04 1.982870213678213089e-01 -6.971779735855042626e-01 8.989758762525927871e-01 4.275736414006010566e-01 -9.499028947904790410e-02
-2.161839515881742307e-02 -1.446399725790846469e-01 -8.621396638919678335e-01 -5.535706861402416301e-01 5.044051121875774424e-01 -6.626726026064904129e-01
-1.071494244660716605e-02 2.337431648912368931e-01 -6.782528053265471923e-01 -9.087270500989287347e-01 -3.645777150441640302e-01 -2.032196794399484530e-01
4.611988094353351025e-02 9.885551043877736921e-02 -6.931035427803639015e-01 6.597095558417992445e-01 6.555310635596581781e-01 -3.675082674435494190e-01
2.095828315883445023e-02 -6.202293707044874427e-02 -8.221679958845207192e-01 -6.004842028893377925e-01 -3.727824591844021151e-01 7.074262931251468212e-01
-1.053927042748595451e-02 1.298537068853272136e-01 -7.672426138040069343e-01 -8.079754023186042078e-01 -3.016212742584351569e-01 5.061623812205007233e-01
-2.107272960879004453e-02 2.110291316172617504e-01 -7.601220755049932221e-01 -6.897709637629575452e-01 -5.831710747698413966e-02 7.216752264869831235e-01
4.599189253226581425e-02 6.464865860695172273e-02 -7.163136075189654450e-01 -4.119454671997536677e-01 -2.986773651209982394e-01 8.608674483437939173e-01
3.771919688415260180e-02 3.130867133915098133e-02 -7.356208374421274732e-01 -7.216357831560178404e-01 -4.381749305806407202e-01 5.359519816918782986e-01
1.576220619140589890e-02 1.415585460697106890e-01 -6.731398621025134199e-01 9.857313190998272523e-01 1.650478807240673140e-01 -3.306000021488417207e-02
-9.205043168700051751e-03 2.357901222351689585e-01 -7.275997925706139124e-01 -8.909751548633321194e-01 -3.229676234215928532e-01 3.191475953813059374e-01
6.990439657445270127e-02 -4.413422062155516329e-02 -7.944999002818627920e-01 -7.856998504964082253e-01 -3.190201828659131600e-01 5.300017621236000620e-01
-7.307088948356009472e-02 1.106538211140803418e-01 -7.545490583822973552e-01 8.148537205136189288e-01 9.172626295856199652e-02 -5.723632647617854508e-01
2.475556455750491883e-03 1.934555391905071753e-01 -6.856014649227617497e-01 9.018755401183248255e-01 4.316502488969359841e-01 1.727925818700382782e-02
1.994002116911654330e-03 1.999918465169107651e-01 -6.778699132450541898e-01 -9.243139743475305981e-01 -2.956521255710709006e-01 -2.413161773921929654e-01
3.003319195817868645e-02 1.078595771990273067e-01 -6.988726042853447007e-01 -7.767057178419152219e-01 -6.007352378624386535e-01 1.893288194175263561e-01
-4.492092988797438506e-03 1.791585090188962393e-01 -7.435273685238649177e-01 -9.645272595505036684e-01 4.540275003808705301e-02 2.600495258080168237e-01
2.729285766526862405e-04 1.848109455624984132e-01 -6.633733862905972778e-01 7.354191697451538667e-01 2.981833493240754196e-01 6.084778837042682520e-01
-4.436588118178542463e-03 3.270116745914852102e-02 -7.802239381315594358e-01 5.913817589111400874e-01 3.149308365300029777e-01 -7.423517922317415252e-01
-7.481103892009977399e-03 -1.572565281097199896e-01 -8.743389016561942118e-01 3.467167340629321859e-01 5.593347014703093922e-01 -7.529490009634477454e-01
5.353252116257293386e-02 9.910698189340139130e-02 -6.812387589557038492e-01 -8.473559316398829866e-01 -4.034468357203745414e-01 -3.452804307543699269e-01
-4.350539978926305784e-02 7.125049786775045080e-02 -7.871913059670136992e-01 7.721144085424234971e-02 -3.115294484864430946e-01 9.470943966294724792e-01
-2.398793856878003034e-02 1.832193138246779318e-01 -7.628694856408095859e-01 4.919265540064098885e-01 2.006030889102068393e-01 -8.472111107528407237e-01
4.919506350987488952e-02 7.365834499540879765e-02 -7.097045713321202820e-01 -4.907765936889367797e-01 -4.682686609864348815e-01 7.347535615599664061e-01
-1.246388594197758888e-02 2.027647710273101089e-01 -6.629337330923132932e-01 -2.892484629491482440e-01 7.947416402308135619e-02 9.539492564777161121e-01
-7.542844088582322838e-03 -2.255009104848040291e-01 -9.219166057204730702e-01 -9.148387307726392192e-01 3.278719476829008439e-01 -2.357330748981306956e-01
5.178663008058488615e-02 -1.077030950492275929e-01 -8.204247292200773645e-01 8.871855433892693599e-01 -3.116572352217428787e-01 -3.402522289934715727e-01
3.906826024838761652e-02 1.050509251092914403e-01 -6.917649975928824579e-01 -4.019110968967646302e-01 -7.930213019129449536e-01 4.578041993074520866e-01
1.859841361953787006e-02 1.404551202693128109e-01 -6.705756273310751192e-01 -9.114257034393109524e-01 -2.690724254162745743e-01 3.112928155142046793e-01
1.660191489399775793e-03 1.692312600393965916e-01 -7.200295542380701352e-01 8.978908480991124597e-01 7.928341534360933140e-02 -4.330198205063013894e-01
-3.629944001560970503e-03 -1.880856909586304734e-02 -8.127240705525199393e-01 -5.125600514300214794e-01 -1.787377746749303220e-01 -8.398422480337052187e-01
-3.475234805117165000e-03 1.621522826101197690e-01 -7.341059261214603060e-01 -9.613329108769727016e-01 -2.753888733852452586e-01 -5.366946900513875263e-05
1.711715219986887151e-02 1.117565933547852997e-01 -7.201922877834447956e-01 8.219847472917681808e-01 4.689681744530533880e-01 -3.231252490441722802e-01
-7.075098021249316693e-03 -1.777688727394907131e-01 -8.808922324348265054e-01 8.451507295628262195e-01 2.627380762944251935e-01 -4.654986010553922582e-01
-4.860219047564435374e-02 1.352913551880602638e-01 -7.778687400365954518e-01 4.077539159314296779e-01 -1.958652911203859898e-02 9.128817622890313954e-01
1.578390357810827843e-02 -1.669799124414134417e-01 -8.625956151398576077e-01 7.291497925012404568e-01 1.139592443229644481e-01 -6.747991336158759568e-01
3.840280738491995416e-02 -1.216860089200727801e-01 -8.335074890249899449e-01 6.354618270779166522e-01 2.427026550146656747e-01 -7.329963762363548296e-01
-3.825544978363911580e-02 5.590350601534720132e-02 -7.910785256195130843e-01 -4.429493886575391198e-02 -9.783316806629538398e-02 9.942165908980755695e-01
-2.406052018558536842e-02 1.137172399151758218e-01 -7.814330726380411818e-01 -3.318902902700307522e-01 -1.762365611764220019e-01 9.267089671138312168e-01
4.140663845379413677e-02 -3.701154285266390620e-02 -8.006105600326072214e-01 -5.021377652366015160e-02 -6.699261539428644774e-01 7.407276995701953526e-01
-3.214674845291144029e-02 -2.336189686937200066e-03 -7.980129987128452562e-01 -3.946514674614675644e-01 3.442226144694978118e-01 -8.519160820868998396e-01
5.589396701605255091e-02 -6.792929970103223081e-02 -8.117262357559072994e-01 4.530233094958242557e-01 3.006670070632347369e-01 -8.392670802057514701e-01
3.614705372254405774e-02 -1.236914106409246067e-01 -8.377052615612791131e-01 -5.634793701369358310e-01 -2.238426920028286915e-01 7.952266649622664607e-01
4.460559452387836965e-02 9.704694464391960818e-02 -6.996949922458087778e-01 -7.104980073235183102e-01 -5.887311423721592885e-01 3.854714303168031431e-01
1.673061132401855791e-02 -5.785969290987691416e-02 -8.194043097400335318e-01 6.004842028893377925e-01 3.727824591844021151e-01 -7.074262931251468212e-01
6.068329333511932738e-02 7.906139331385397817e-02 -6.995013559638972866e-01 -8.609285955802081780e-01 -2.000004696113332203e-01 4.677625096857770393e-01
8.554694888139350098e-03 -4.925003646761629689e-02 -8.195509114636563286e-01 3.349124558775328220e-01 5.247033584009459517e-01 -7.826365903667219515e-01
-2.890285606642037028e-02 -1.382968647039796994e-01 -8.382573072568821893e-01 4.168612946954226017e-01 6.252227593499272151e-01 -6.597902410431051301e-01
3.669438660940656932e-02 -9.085539468747654002e-02 -8.282624672688341239e-01 4.147959424817009300e-01 3.749626016878062074e-01 -8.290641551992397051e-01
-1.564645372762793821e-02 -1.272558309512312191e-01 -8.572515075991803402e-01 3.060741945584677728e-02 -3.957287434123141767e-01 9.178572587889496370e-01
-3.739662237269944511e-02 -7.865473492764558927e-02 -8.147855594708912630e-01 3.238659967849418231e-01 -4.763474807578116539e-03 9.460909710140212869e-01
4.097936106290842040e-02 -1.221234223697982221e-02 -7.813641336386922820e-01 -1.481221259018300094e-03 4.583104569258283911e-01 -8.887909377665931254e-01
1.278867540086819736e-02 5.368399999898446767e-02 -7.516625278979693903e-01 9.219704275802843574e-01 4.149511766364411686e-02 -3.850307596511058916e-01
-7.657119550893451074e-03 1.391476083118049489e-01 -7.537956789232647115e-01 9.850676767670265566e-01 9.714755376399537845e-02 -1.421408631832673797e-01
2.927939007040488567e-02 7.798279076965426715e-02 -7.252401559651560081e-01 -4.639881973935114368e-01 1.196247389308257303e-01 8.777271070869644420e-01
-1.041373364626294734e-02 -2.261285138601700773e-01 -9.173652203975593000e-01 -4.650832539268520138e-01 5.596947943146171056e-01 -6.858857806762943543e-01
-5.448628183270557215e-03 1.474712835285768575e-01 -7.518749686432151247e-01 -9.983542339291485712e-01 -3.785655778685664830e-02 4.307789024863332983e-02
5.570624304154640077e-02 5.143777679469689612e-02 -7.132118892140002497e-01 8.242820748391586072e-01 4.848549645308106171e-02 -5.640994750330388108e-01
3.546780614388701097e-02 -1.263269202082077380e-01 -8.387211898518202036e-01 -5.795000455574056408e-01 -3.264969135616970219e-01 7.467124363726980185e-01
8.755288848636163038e-03 -1.393534311987190133e-01 -8.576883519394703503e-01 -5.014585082093756530e-01 -2.220901056002819174e-01 8.361909767145798700e-01
-6.250024734535146106e-03 1.622983285579011337e-01 -7.508860279455898956e-01 -9.284594692014597195e-01 -6.374493510538568886e-02 3.659229390166103268e-01
-1.447401010639979418e-02 2.006071873590389854e-01 -7.531217859728864816e-01 7.449056405732022990e-01 1.645133588981340378e-01 -6.465685898543794830e-01
-6.913735435661021861e-03 1.966946009988669863e-01 -6.597376977189960412e-01 -3.417421529703606464e-01 -2.668625995853710631e-01 -9.011085693886838888e-01
-9.343354028972005246e-03 8.696021883726615109e-02 -7.810051273087954549e-01 -6.664274663198875848e-01 -1.030623918043828691e-01 7.384121989309323508e-01
2.946273866989584933e-02 -4.371590369842014157e-02 -8.040081184784314550e-01 1.744257635125399108e-01 4.805398698279141345e-01 -8.594516196557191456e-01
-1.338253600776182113e-02 1.579779306743413214e-01 -7.623282799793882347e-01 -7.251869115878497585e-01 3.226399148029322761e-02 6.877957386575144216e-01
-2.664013237169115395e-02 -9.276800216456961012e-02 -8.230507232351315094e-01 6.418939613981885506e-01 -2.430742307967073135e-01 7.272462173453567713e-01
2.587464530204851981e-02 1.234038012881002039e-01 -6.607836058686825664e-01 4.972028378069131560e-01 -1.587592432205117005e-02 8.674890737661616891e-01
-1.857891043403136350e-02 -1.234406728984177720e-01 -8.506021738249972541e-01 -5.933089561571257553e-01 4.917478241679151263e-01 -6.373135491811412479e-01
-1.391230340299620324e-02 2.482971826921971659e-01 -7.037355241724428945e-01 9.665784625521599560e-01 2.365198862807207369e-01 9.891622275470166037e-02
5.960925544081095012e-02 6.966150658779793337e-02 -7.053010446602161476e-01 -6.920353183535227215e-01 -3.096385436253668022e-01 6.520821194089746475e-01
-3.726628333138089916e-02 -3.650041511318364434e-02 -8.039524523890310137e-01 -1.324379411989926869e-01 1.937466971766161894e-01 -9.720711954708484148e-01
4.109163327936822541e-02 9.649833535966900744e-02 -7.011732515141211319e-01 5.534098589520655143e-01 6.243334979098619231e-01 -5.513122630617711684e-01
-2.148181876653051589e-02 1.884478541938460483e-01 -7.627919487801309018e-01 -4.969545702145610200e-01 1.555501577201563179e-01 8.537214437836825320e-01
6.742915487419883468e-03 1.838014085572343692e-01 -6.886145552994067387e-01 -8.330211233969042617e-01 -5.369222854358608465e-01 1.333801611068587134e-01
5.071194747991460833e-02 2.068794249070576158e-02 -7.724570962356596127e-01 7.824187916836251588e-01 -5.184853434937236605e-01 -3.449547550078577163e-01
-3.822428273408676885e-02 1.440638766964123518e-01 -7.765284509884077258e-01 3.050766960390980526e-02 2.299103795603067157e-01 -9.727335192465479397e-01
1.013702666519144396e-02 -7.150430059824670892e-02 -8.318296436188674647e-01 2.476084295000986479e-01 2.714820081507314797e-01 -9.300470874589850112e-01
2.749116103129443153e-03 1.236627902517826449e-01 -7.388628151856008186e-01 -5.583703791164847940e-01 -2.622050436844134413e-01 7.870648224839984497e-01
5.231151430824024749e-03 -1.676152899929770346e-01 -8.729539559210703903e-01 7.197234134947131379e-01 3.697761129163321114e-01 -5.875915540441386531e-01
5.066931517550282357e-03 -1.129634794528834030e-01 -8.475170719690182652e-01 -8.265839947438978486e-02 5.158076245528107062e-01 -8.527075016965189880e-01
-6.783636238755479803e-03 -2.036655991446377212e-01 -9.011824988023197092e-01 -7.067607752931555076e-01 3.298072154884960083e-01 -6.258725166667271633e-01
1.341363549038827353e-03 2.017652026310462199e-01 -6.770711484648362921e-01 -9.785726578380449237e-01 -1.985861536412666661e-01 -5.439754510777055491e-02
-1.770522313637962891e-02 1.263425031411963828e-01 -7.756706922110270241e-01 -5.319339762898049884e-01 -2.092101896359104263e-01 8.205347898907295878e-01
-3.037628737788790334e-02 -1.262062538485842766e-01 -8.288231709887678988e-01 9.604319852833904658e-01 2.202759678929572251e-01 -1.704373773954122873e-01
-5.347646965651627407e-03 1.731214372317278205e-01 -7.417278223699834694e-01 9.540900013692032999e-01 1.798457441320248235e-02 -2.989796387222541929e-01
6.161763616760598979e-03 -1.211487941587378603e-01 -8.503286800627106734e-01 2.644407778413434551e-01 3.324624360724031114e-01 -9.052843772072222128e-01
2.550854872506484392e-02 7.734311210251557100e-02 -7.279286917895739784e-01 -5.850940849762541474e-01 -8.384882494114520579e-02 8.066190465652227637e-01
5.015728930502387495e-03 1.892614371292835329e-01 -7.009636452922969330e-01 -9.710201349823193162e-01 -2.210961311009499997e-01 9.075460468268188585e-02
-4.266670187922091267e-02 1.452306814812936164e-01 -7.778550285650172036e-01 -1.268465660273352877e-02 -2.582199246920756641e-01 9.660028830075454431e-01
-2.728740986461689749e-02 -2.096618751534456287e-02 -8.058967108979802063e-01 -6.200008440483836258e-01 -2.566494702772396108e-01 -7.414377942792667042e-01
-2.345874105704399970e-02 1.786337971301004690e-01 -7.640388454414820396e-01 5.139768676372246103e-01 2.865427269655685394e-01 -8.085301757862611849e-01
8.863019707071224246e-03 1.705739493507024973e-01 -6.899113725652391560e-01 9.692736552335825539e-01 2.124883249486226588e-01 -1.239245457149578122e-01
-2.933101926650371824e-02 2.217450611408161021e-01 -7.648718032649461929e-01 -5.317561392745668858e-01 -2.131936454218778254e-01 8.196242296903734070e-01
-7.611709455557186949e-03 7.356574114439883016e-02 -7.841260375170516772e-01 -6.156058973321739680e-01 -1.358379947927397437e-03 7.880530020079651310e-01
6.204739447400249575e-02 7.404971948556325623e-02 -6.963458935867505861e-01 -9.760998852841507034e-01 2.027227482366531774e-01 -7.831028856827454421e-02
-1.611692177574070711e-02 1.291984162686172014e-02 -8.023579063462448202e-01 -1.174880374543193495e-01 3.014866978175613221e-01 -9.462041704062579273e-01
3.041144778372331312e-02 3.679377443332155443e-03 -7.714543531581805613e-01 -2.423171227953563583e-03 6.149297405546675366e-01 -7.885781777494030864e-01
5.182242443596175169e-02 5.493804770197708437e-02 -7.167693844220380806e-01 -4.589537698695847490e-01 -1.991495830580168325e-01 8.658526899480732952e-01
3.951779692513611442e-02 4.782386833495460426e-02 -7.243212358791631944e-01 5.214152261941255029e-01 4.164073269281050593e-01 -7.448027255411457936e-01
-9.711847935207311780e-03 -1.969750576452233559e-01 -8.971113398113875759e-01 9.560899524761845569e-01 -3.829164923164007223e-02 -2.905610992084249888e-01
-2.110403684273684174e-02 2.351818761510756084e-01 -7.538151384917161080e-01 -7.906040039898553085e-01 -2.686135425652950159e-01 5.502654574164467238e-01
5.298574905195886642e-02 7.374402267821064672e-02 -7.071310082058235302e-01 -4.297386123464423391e-01 -5.965208469613456632e-01 6.778551498654216134e-01
8.754330838673397494e-03 1.718384715375774197e-01 -7.020550747497816824e-01 -9.933676633548605972e-01 -1.028998607036521185e-01 5.130598471984528647e-02
-7.387916088193845210e-02 1.279132691433544078e-01 -7.553908482011429948e-01 9.395471284246833532e-01 5.247125354643914635e-02 -3.383754734318029089e-01
5.228169098993208121e-03 -6.402016276293517882e-02 -8.316643702110413372e-01 -6.294386000710932016e-01 -3.911299188890011713e-01 6.714346098395774787e-01
-3.171662612726069280e-02 4.658708459276719727e-02 -7.939140875680501530e-01 5.501414951969750833e-01 6.666277497051923406e-01 5.029431166498137262e-01
3.886872211969665761e-03 -1.249746708005555207e-01 -8.525163604735704892e-01 3.289285932628185916e-01 4.105051439346061315e-01 -8.504654651056511305e-01
-1.126320079011446096e-02 2.214776100041038198e-01 -7.462877135038400445e-01 -8.544407411477757952e-01 -2.421253659562047078e-01 4.596806794149755349e-01
-2.799139095427207336e-03 -1.916552835668788590e-01 -9.002767890876165469e-01 1.672404493189439401e-01 -7.384033806715073478e-01 6.532924915567962509e-01
7.117510417244521555e-03 -6.545880512076056312e-02 -8.316065651114860069e-01 -1.956134975961639766e-01 -3.349570081291140533e-01 9.217044874922699638e-01
-5.701908469293002352e-02 -6.075483268243824300e-03 -7.956714125325862197e-01 -6.715746893111808336e-02 1.892549507745689974e-01 -9.796287245554212708e-01
-5.583846433236882428e-02 7.110813787487997584e-02 -7.766159193835484587e-01 -8.007460556767407311e-01 5.564838161145368306e-02 -5.964134572108247268e-01
-2.251690203885034491e-03 2.001722127348356806e-01 -7.130811199192893524e-01 9.291907373948617987e-01 3.683113696606503673e-01 -3.084328968007021832e-02
-1.571444176364870590e-02 5.111603696051805062e-02 -7.938067421214922703e-01 1.323459529662744383e-01 -1.941027923290373769e-01 9.720126823984959197e-01
1.983907432305802299e-02 -6.510729763604883313e-02 -8.225483914236848548e-01 4.980401598331399282e-01 3.163365089766753124e-01 -8.073953258979335024e-01
-1.119498154230211956e-02 2.425016575384708883e-01 -7.189161128241002841e-01 -6.504251764047327411e-01 -6.877677938080863917e-01 3.223702090752644800e-01
-2.615988006199129745e-02 -9.840316266266087297e-02 -8.263585700380430277e-01 6.967691899565573443e-01 -3.190670220720245309e-01 6.424242611805481840e-01
4.270561748710077071e-02 -1.087339653809348272e-01 -8.333171940406509659e-01 -4.853347778467684281e-01 -1.431367374703419737e-01 8.625323343497183215e-01
-7.354395534890208197e-03 2.017187619815715705e-01 -7.437977345034658683e-01 -9.372222510662929773e-01 -2.099026905612479954e-01 2.784875447867989351e-01
-3.064192255846669675e-03 6.908153051349108509e-02 -7.704062683655865662e-01 -9.911182400125960745e-01 -1.329833838915993605e-01 -2.322134218754921353e-04
1.677813987719619856e-02 9.900116447210990933e-02 -7.320784645532409929e-01 7.156057107311877274e-01 3.912228353035376166e-02 -6.974079965846979867e-01
-7.500713320540599270e-03 1.403178217631046998e-01 -7.516262148005035115e-01 9.859179705040768127e-01 1.434345130585871764e-01 -8.597846184230292788e-02
-3.111128956520166355e-03 4.188703610013572165e-02 -7.902325457750004611e-01 -7.944445724670472497e-01 -2.464940029987984227e-01 5.550662372755875706e-01
-1.727746962926485566e-02 -1.364762664740171993e-01 -8.600395881678417620e-01 -3.709915916457962037e-01 4.857282653099267988e-01 -7.914753888827674722e-01
-6.157867366982771457e-03 3.066025465452919957e-02 -7.977972075159694976e-01 -6.159113609670919809e-01 -1.928289628718076743e-01 7.638522020060213302e-01
3.881364406009028128e-02 8.886456345418372593e-02 -7.099187481486423090e-01 7.893627307688716455e-01 2.599801498652974940e-01 -5.561625670153713674e-01
-1.217916078194115383e-02 9.916115416325743670e-02 -7.800351955093696166e-01 -6.536180675232574622e-01 -3.728222808992663895e-01 6.586250592501253776e-01
-2.469764904305261910e-02 2.187593699511292122e-01 -7.618899145961526287e-01 -6.162158597113638336e-01 -1.349794415278741666e-01 7.759243291745708815e-01
1.612674439819552705e-02 1.198316833685697386e-01 -7.128513602596683318e-01 -7.942320613612745550e-01 -6.000467630296801858e-01 -9.559976403435112291e-02
3.419878326615378994e-02 -1.033188445415388623e-01 -8.357055781372735304e-01 -4.839809261469703583e-01 -3.716332530103861886e-01 7.922443994013710356e-01
-3.433142347014396523e-03 1.935260509868496070e-01 -7.308408480692061282e-01 9.751492297245296648e-01 5.639505503954407584e-02 -2.142512019446868865e-01
-4.286757804451319341e-03 3.236542255090636006e-02 -7.842012816002681408e-01 9.395366910218316825e-01 1.849162100920726803e-01 2.882304658930624486e-01
-3.515393040894238853e-03 6.748376429629372730e-02 -7.773941060208140463e-01 -9.811856244548997630e-01 -1.364989339514314781e-01 1.365386809412299784e-01
-1.299851835232212864e-02 -1.627765191204678386e-01 -8.766734602244128371e-01 -4.298171922474651185e-01 4.209302248926724555e-01 -7.987959232621995032e-01
2.356938233020975174e-02 -4.598676228970690477e-02 -8.092578345844273491e-01 -5.583980019143636175e-01 -2.621736051534743206e-01 7.870556982951566471e-01
5.511450362802279741e-03 -1.359291380685815065e-01 -8.589710180495274683e-01 -3.020588861331955366e-01 -6.883418727968974027e-01 6.595042800940971173e-01
-2.486740450543039119e-02 -1.317190441207646556e-01 -8.481674744005437416e-01 -8.647430326974362425e-01 2.747100491202739136e-01 -4.204210702540699396e-01
-9.442012891628730545e-03 -1.804197144766074914e-02 -8.128959674516740286e-01 -1.327682772547917889e-01 1.402531537803551887e-01 -9.811736020753202281e-01
3.410618803104615605e-03 1.896910322595020681e-01 -6.798609638292205659e-01 9.411211732202218183e-01 3.296179547783992803e-01 7.511951280658199503e-02
-3.946415012971747627e-02 -2.314656911712423010e-03 -7.979611116327901543e-01 8.520043747325820038e-02 -3.913753294380094803e-03 9.963561451556949278e-01
-6.964008603727082046e-03 1.171549919344938157e-01 -7.483250295714326539e-01 5.075456190623867103e-01 2.751658769890592549e-01 -8.165054713297520417e-01
-6.394271391436946424e-04 1.750859995314738293e-01 -7.263547977002371425e-01 -9.158973735560312912e-01 -5.627682881524387337e-02 3.974480087403426398e-01
-2.738994183134457056e-02 -8.538794402156305030e-02 -8.193330549548647479e-01 -7.038475407761420888e-01 -2.172559639811421847e-02 -7.100187587694588576e-01
-2.361266494120659032e-02 2.513308331975352972e-01 -7.476215534098795690e-01 7.689267909794613720e-01 3.597061392241019950e-01 -5.285480900717725028e-01
2.006247346752220925e-02 1.105514689380058951e-01 -7.153826517840137234e-01 8.379854879880810348e-01 4.541684780012884004e-01 -3.025083726301985854e-01
2.394639360873935391e-03 7.835088030919949709e-02 -7.570383674808652819e-01 -6.716650171858855600e-01 -3.025369403335768093e-01 6.762673320679345457e-01
2.757302470634735367e-02 -4.990692153472485459e-02 -8.087583887857794362e-01 2.735491091648650230e-01 5.720093975227051875e-01 -7.732891658498912690e-01
-5.198262655768068341e-02 1.190991452513599225e-01 -7.787672843822766033e-01 2.824495281017224690e-01 -1.150199687754670658e-01 9.523616281948811269e-01
-6.115253823199633121e-02 1.638034622441705834e-02 -7.936313226560582912e-01 4.240785770587214565e-02 -5.787375323888179768e-01 8.144104875364145402e-01
2.757992207528043790e-02 1.181166312630558407e-01 -6.775212198151127074e-01 6.373156604249994306e-01 7.040869020635113218e-01 -3.131938430423792941e-01
-2.392845915991636402e-02 1.603864152516381036e-01 -7.692323969336933853e-01 1.283697869494458410e-01 2.439198308730708697e-01 -9.612618342082485112e-01
2.258936265078972244e-02 1.192796005275295751e-01 -6.860217488889693849e-01 6.538848842092364055e-01 7.335207116511482939e-01 -1.854236332873091253e-01
-3.456468712599953391e-02 2.072134757146858741e-01 -7.704277712727036764e-01 -3.810830503332797714e-01 -8.212652602928598167e-02 9.208859551926307230e-01
-1.009127445121019498e-02 1.003200789082239336e-01 -7.738871013593131565e-01 8.249956238669421404e-01 2.468578198552086045e-01 -5.083733248083814882e-01
-2.823028811194937607e-02 -2.848283007100051861e-02 -8.047443984361214442e-01 -5.261337449379538400e-01 4.274678978242085203e-01 -7.351560914304636762e-01
1.380221121895663060e-02 1.562128956375443412e-01 -6.723842399469316389e-01 -9.708465090703568556e-01 -2.352274081423533780e-01 -4.609904862935833292e-02
-2.555520542959613395e-02 -1.708924152023569010e-01 -8.726405111389466951e-01 9.587656771093672203e-01 4.793313636196646493e-02 2.801263836833686183e-01
-3.099251342784962223e-03 1.821021057592885073e-01 -6.575267051120399220e-01 -4.078804824813391794e-01 -1.700676327172165880e-01 -8.970565825591783060e-01
4.460343322988334289e-03 1.865136130815004123e-01 -6.845881612541668826e-01 9.826096105550977677e-01 1.753478595250904937e-01 -6.108585273799771453e-02
-8.322576946697479022e-03 -4.433145997963232332e-02 -8.195350757787787099e-01 6.960958221580166860e-01 5.345515547145902602e-01 4.792757470667269315e-01
-7.114771186892605848e-02 4.383203228662460593e-02 -7.734948657809062045e-01 9.374074977710984413e-01 2.043351153105597839e-01 -2.819828785113524527e-01
-4.502306674983650760e-03 4.529524511461203995e-02 -7.802671984422502316e-01 9.934615018936285846e-01 -4.793502868723299726e-02 -1.036169738991148809e-01
4.642278629167102127e-02 3.217370093579360879e-02 -7.264767902715290049e-01 7.672760099179425364e-01 5.425454071769289510e-02 -6.390179726861469067e-01
2.612819672200939261e-02 -2.437017748297273800e-02 -7.950107056228356006e-01 -4.631015275550633414e-01 -1.957412851276131571e-01 8.644202244699953352e-01
-7.150870180994785275e-02 1.015765367001164321e-01 -7.600544478978566998e-01 -9.527863812450352299e-01 1.066299809368394941e-01 -2.843029350523832433e-01
-5.764976347552796393e-02 -2.593482970445253402e-02 -7.954817070691271308e-01 -9.146234925748962796e-01 -1.611629331899456230e-01 -3.707969468532766322e-01
-6.998933263380728576e-02 1.242504951993616547e-01 -7.654945298222146643e-01 7.294931148908962992e-01 -2.469625143542355725e-02 6.835421643847698903e-01
-4.732146875627918706e-03 2.214766384854995607e-01 -7.225620827204897179e-01 9.863775915823310703e-01 -5.475821792622041773e-02 -1.551153905767719554e-01
5.711376030244817714e-02 -3.500719006098097774e-02 -7.978537783066410594e-01 2.908784012202174085e-01 4.079514920001473532e-01 -8.654278340095283850e-01
-6.155789021733183708e-02 8.761149412590156504e-02 -7.740075598511224619e-01 7.439056691092738038e-01 1.233467384601417832e-01 6.568028148373978858e-01
3.740104108463809720e-03 1.104528086347179999e-01 -7.431421731244156614e-01 -3.873510871827340885e-01 -4.994404595701117389e-01 7.749311986252389595e-01
1.899625466222027922e-02 1.075504060921794319e-01 -7.236433490101256139e-01 7.553558733304277517e-01 5.945314657429519034e-01 -2.756262702769167183e-01
-4.133731619293169561e-03 9.172917592558162136e-02 -7.549484744168859507e-01 7.218936686285143400e-01 9.210427398225774775e-02 -6.858471651237363353e-01
-5.503133713569622991e-03 -1.492412075458961485e-01 -8.651227330400909077e-01 8.236722787464696438e-01 3.221829978735870625e-01 -4.666498613583699995e-01
4.611368487137769596e-03 -4.016106601793529435e-02 -8.124670684093503459e-01 -2.996616229703594758e-01 4.290655952716794230e-01 -8.521183172969171160e-01
1.009489080442275283e-02 1.656029859253221603e-01 -6.926300515924154189e-01 9.471746712467923324e-01 2.112612613522218963e-01 -2.413064889313985273e-01
4.726801493959050665e-02 -1.158013240261474286e-01 -8.283808682316058380e-01 -7.827175848431990879e-01 3.953564710642197555e-02 6.211200487708522511e-01
-5.092058329424033192e-03 2.142645778442290871e-01 -6.918862486653440946e-01 9.464414972040045004e-01 3.220566423970997461e-01 2.297849991076559087e-02
-2.891892815792923913e-02 -9.904697424968235409e-02 -8.238284777916925483e-01 6.944361163703303141e-01 -1.811042625299607300e-01 6.963904984805379117e-01
3.761908936430236744e-02 -4.697185018461355610e-02 -8.052899144849450241e-01 -1.204524433806866551e-01 5.687065476833248479e-01 -8.136731969935696585e-01
4.971373239051870598e-03 -1.103173388032008817e-01 -8.483375256725582680e-01 6.447501773621498733e-02 -4.652198385845262019e-01 8.828439691561029701e-01
-2.007599087278946412e-02 -1.105113039126015828e-01 -8.422700587022405871e-01 6.560901349240254588e-01 -5.237885334826684058e-01 5.433151084292150435e-01
3.278356739969651851e-02 7.348755773623684429e-02 -7.215165048210170351e-01 6.460060852705399315e-01 7.563646609381273478e-02 -7.595757123488556806e-01
5.467283999516243248e-02 4.724874283881049658e-02 -7.179133388029294016e-01 -7.842013963128752208e-01 1.419205425311752082e-02 6.203440622888345413e-01
3.122364163440019200e-02 8.010106990079841893e-02 -7.239952417212716096e-01 -5.434811392599253610e-01 -1.162562408101295297e-01 8.313319058844251819e-01
1.643285642446662767e-02 1.205730649917191311e-01 -7.084859932825869899e-01 -7.284668807185679107e-01 -6.658126273170735798e-01 1.613367565103987489e-01
-1.009482338938104233e-02 2.392285621485697733e-01 -7.050910603454317860e-01 -8.789649210106026400e-01 -2.323468961756637585e-01 -4.164559850336652103e-01
-3.287820451489389256e-02 -1.123682617937553641e-01 -8.190441635718458402e-01 9.273419756371710232e-01 1.170773845751712366e-01 3.554289608942776679e-01
-7.091314192115422133e-02 1.076288739066027650e-01 -7.537365994900575572e-01 -1.407737764825879312e-01 4.382298762647774404e-01 -8.877709836460010440e-01
-2.822845162869224225e-03 1.976232810935312223e-01 -7.333160890224592610e-01 -9.604704623121976814e-01 -2.699963348065554380e-01 6.781202118223332576e-02
-5.957089498629625918e-02 6.150269088286323960e-02 -7.748520746768873257e-01 6.422703861676588577e-01 -1.778080508709906915e-01 7.455689425515963364e-01
5.752616609527536756e-02 -6.729327984593697076e-02 -8.106165218736401945e-01 5.049444965551526110e-01 2.408382608574903827e-01 -8.288715144736261697e-01
-6.717150063127565185e-02 -2.430811163430072162e-03 -7.923535834868623562e-01 9.476379758830324462e-01 1.793819415558421670e-01 2.642051962168148194e-01
1.123586188663531615e-03 -6.584182894988711843e-02 -8.299329211968879960e-01 7.888959509848390006e-01 4.774022529680206628e-02 -6.126696086867186031e-01
1.330158495120020018e-02 1.551908771992303038e-01 -6.922418108985320950e-01 -9.855847563224154895e-01 -7.609914833937461709e-02 1.511013160991880322e-01
-4.826822462399226257e-03 1.672316032724646406e-01 -7.401701349812275232e-01 9.954534901495428745e-01 -4.756654700063406294e-02 -8.252134605985536608e-02
-5.745670270555559150e-02 -9.560437369537008387e-03 -7.982319639949664314e-01 -1.614968679975566090e-01 -2.983929873498034069e-01 9.406808102259978099e-01
-1.471351624383579644e-03 1.902909389988065303e-01 -7.304554088284038738e-01 -8.772722123867919830e-01 -1.336548495878294163e-01 4.610095948628814000e-01
1.705899311385877803e-02 -5.863726965228783367e-02 -8.223450546842524522e-01 -5.147104490792180354e-01 -5.760555162951943586e-01 6.350064533172452563e-01
1.148610143657463611e-02 1.511148185008839573e-01 -6.565503807528806357e-01 -6.396853438378986567e-01 -3.610734549927003267e-01 -6.785489083173176228e-01
-5.834524914560616261e-03 9.688135979371303996e-02 -7.655919085911191413e-01 9.770856863937170678e-01 2.020462953123273175e-01 -6.693919625363498049e-02
-4.914755598066718884e-02 -2.685009858476312961e-02 -8.021406277388029027e-01 -1.794810314558931974e-01 -4.586195755287771347e-01 8.703187027114451801e-01
2.586111726324056420e-02 9.648479309522479952e-02 -7.249686379399591374e-01 -7.235258964500715928e-01 -3.780366037441179050e-01 5.775799541152144556e-01
7.717187615648720724e-03 9.608322687517283078e-02 -7.429330406770202622e-01 6.499465447508915306e-01 1.570925815036958439e-01 -7.435666814771100253e-01
-7.308209709784843633e-02 1.109362115543254673e-01 -7.619439553024613954e-01 8.823921204144907771e-01 -1.414240389480588000e-01 4.487576038776798781e-01
-6.169939453640273935e-02 4.587588084456987320e-02 -7.772966943375907434e-01 -4.765028694200102444e-01 4.453412669487289421e-01 -7.580344130624926402e-01
1.056242634125058484e-02 1.469358021709155915e-01 -7.105949674158063001e-01 -8.507406391723532080e-01 -3.767231095235406002e-01 3.664970171932236398e-01
1.458756647416524672e-02 1.110606947679347589e-01 -7.313339654594015471e-01 -7.183501351830222648e-01 -5.535423552084435261e-01 4.213833697155396352e-01
2.094780665934767652e-02 1.324363053551916025e-01 -6.750847964901858234e-01 -8.420438160981050801e-01 -4.787831564043580346e-01 2.484530155067970758e-01
3.930861648235448036e-02 -1.150148485458599296e-01 -8.337140339159156976e-01 6.106770459709131016e-01 -1.615980462601735931e-02 -7.917148515966390132e-01
4.072985731440123200e-03 2.773908845232537015e-02 -7.748121281084218159e-01 -7.915926499596822596e-01 -2.363993517318349058e-01 5.634682094231903138e-01
1.353356453528379265e-02 8.546552628829473530e-02 -7.363936752178913414e-01 7.725527143332169278e-01 7.152264632587072846e-02 -6.309095138281901605e-01
-4.223525367841494960e-02 1.753304474708706484e-01 -7.718505940006964439e-01 2.345223425405612225e-02 2.560366640297530652e-02 9.993970407076550044e-01
-1.680503762731303322e-02 2.449146693769480576e-01 -7.428984292686952040e-01 -7.552169594433465472e-01 -2.060967683352015467e-01 6.222310392859976558e-01
1.327750899396286030e-02 1.341790466138924609e-01 -6.897182697230409554e-01 9.654957280238236628e-01 1.847061122023311852e-01 -1.835800950071834470e-01
-1.235268300989458834e-02 1.452050752521232002e-01 -7.640822902330136612e-01 -6.730178460107927307e-01 -3.566382225972611897e-01 6.479630831564858751e-01
-7.523644714856575315e-03 -2.208279985483050378e-01 -9.189539003441037357e-01 -9.251450155469790326e-01 2.027512700802177603e-01 -3.209339849399533429e-01
-2.904496443076141909e-02 -9.288270424185067486e-02 -8.213089362439648378e-01 5.565511876932519586e-01 -2.755197522450718028e-01 7.837982148487228073e-01
-5.116785455509814673e-02 1.286022247763467519e-01 -7.778223851263208477e-01 4.237973325712981465e-01 -1.664597384529566126e-01 8.903297009420866326e-01
4.207784329948986712e-02 -1.233647312918307454e-01 -8.294924370135985381e-01 8.069819804472566638e-01 -2.929871257786221816e-01 -5.127754161047556325e-01
-7.953922573303261190e-04 1.724716598358413677e-01 -6.564761493561231953e-01 -2.818847764804803258e-01 -2.073154467586552641e-01 -9.367824071382899742e-01
-4.896426143157101007e-02 3.940409497506481944e-03 -7.947888309622987979e-01 -9.511562784203446419e-02 1.501251360432162840e-01 -9.840810235281551854e-01
-5.347539217403485950e-02 -3.371958242646740794e-02 -8.054617486557044126e-01 2.104387551203620033e-01 -1.749146283117650469e-01 9.618317956617723485e-01
-1.236881511839240701e-02 -1.938167111618112684e-02 -8.140191836254588864e-01 2.738731165113839627e-01 -1.984178341279940472e-01 9.410759157221576521e-01
-1.089892940983789096e-02 1.240683384546561047e-01 -7.705808296655095591e-01 -7.293088273994769999e-01 -1.998469103625082066e-01 6.543468856010239421e-01
-6.412688212162948390e-03 2.179962322251970952e-01 -6.788683024188705284e-01 9.364705356960846272e-01 3.491429671347577313e-01 -3.349812343140582543e-02
-2.989903926564919934e-02 -8.303063880568267718e-02 -8.174136258938011768e-01 -6.422976508067231860e-01 -1.705358812241422051e-01 -7.472424245071139781e-01
-1.648643780195710451e-02 -1.635990528429138724e-01 -8.747275035030516177e-01 -4.494305332990241597e-01 4.838286817726868971e-01 -7.509474032398402166e-01
2.477647988655203373e-02 -1.401132439773541266e-02 -7.880364519001948898e-01 -3.473059686528227608e-01 -5.413302541423096192e-01 7.657284897980138894e-01
1.152669308161390939e-02 1.289220218418937469e-01 -7.141255485120194813e-01 -8.423487376973463059e-01 -4.941142639983112650e-01 2.151736466510109080e-01
-4.999088335390610566e-02 6.229778029259481348e-02 -7.823146935317069062e-01 -8.041092490893280154e-01 -5.108957145648441306e-02 -5.922821719563992060e-01
-3.034622054971840288e-02 1.922068302932999628e-01 -7.671517233016036386e-01 5.353264927846903554e-01 -4.069914331140679631e-02 -8.436641072468120672e-01
-4.401450414470165634e-02 5.641677985131605955e-02 -7.893135497155936431e-01 6.411536853147653536e-01 -1.894051175622774030e-01 7.436717375620205406e-01
1.513000525467517350e-02 1.227991568074267292e-01 -7.079168505004151957e-01 -8.280513442089805221e-01 -5.407460788517238770e-01 1.480697455937078910e-01
-7.097435627844661532e-02 1.755855669105682929e-02 -7.886015346808038506e-01 9.122581218277274751e-01 8.801786712924339340e-02 4.000474649655537118e-01
3.936394264446062448e-03 1.364821469832253886e-01 -7.279566864973692208e-01 7.358101263324132724e-01 3.543039304127117983e-01 -5.771067343921593151e-01
4.623942729381899652e-02 6.796005518236652998e-02 -7.131724680574661468e-01 5.517671267029428117e-01 2.087460726949126599e-01 -8.074516177607354850e-01
-9.169943160394048581e-03 -1.805676562256264550e-01 -8.895603166132067807e-01 7.036396858393945131e-01 5.195188969167144899e-01 -4.847590208116589472e-01
-1.893306941091614168e-02 2.167773641517037608e-01 -7.540028454529892343e-01 6.381842682610442408e-01 -8.212397982049099432e-02 -7.654910134564343327e-01
5.514821818728660174e-02 9.292889348485250389e-02 -6.921494706896685889e-01 7.177098347060825168e-01 6.614457580146667626e-01 -2.176743034227301699e-01
6.827268500476890711e-02 -5.387798533448567156e-02 -7.961353562532864636e-01 9.169726196388520156e-01 -9.321454719988760129e-02 -3.879075444264792338e-01
4.237096536106792904e-02 1.018461703854095929e-01 -6.947906612455020392e-01 -4.827059418873677066e-01 -6.592700973689773480e-01 5.765049109779796233e-01
-3.463050161601029936e-02 6.718650128390633858e-02 -7.878587276982842447e-01 -3.236272189691563050e-01 -3.716572343737636896e-01 8.701358073771789936e-01
3.940696416696112814e-02 -1.169141923164381397e-01 -8.333694090515840758e-01 6.448335398195488288e-01 -1.594809989672226203e-01 -7.474995096267333938e-01
-1.984582589509622380e-02 2.701034996201759700e-02 -7.974376519141764819e-01 6.822716951123598550e-01 -1.396317447361044572e-01 -7.176407944859727328e-01
-4.109917053307494267e-02 -3.227880730379591168e-02 -8.024078483651746474e-01 -3.144060451955531937e-02 3.385960499630736309e-01 -9.404064032836275677e-01
5.937727964680381693e-02 6.830977114447553400e-02 -7.029072790325157083e-01 8.548770882611494981e-01 2.573236952495889240e-01 -4.505215642222197281e-01
-2.277130463861575665e-02 4.140231317678282064e-02 -7.930888803013360633e-01 -1.895311146231994648e-01 -1.562543088420734749e-01 -9.693619280526616366e-01
3.556401120845777142e-02 -1.196135018968169372e-01 -8.359181395376052981e-01 6.906914511274419022e-01 -2.038025524880632822e-01 -6.938370406218010711e-01
1.556554802417139428e-02 -1.212209767995627852e-01 -8.468893071176669674e-01 2.960239672601399086e-01 2.418951920793285804e-01 -9.240435741113469659e-01
7.101711741505301045e-02 3.336597999684812969e-03 -7.747685361624871980e-01 1.830165600932001924e-01 -7.618203336420211746e-01 -6.213973913537228499e-01
2.681723131585857234e-03 -5.580185492478675208e-02 -8.223048542125068749e-01 5.054358973299265534e-01 4.960666900720224759e-01 -7.060116094592778779e-01
-1.058348990294522701e-02 2.157418060633861309e-02 -8.002265563034536289e-01 1.186913021553832048e-01 3.347027109278614687e-01 -9.348189504338260125e-01
4.449519422247396640e-03 1.923453590218104081e-01 -6.868178438224457061e-01 -9.635475285093142439e-01 -2.479031657580234860e-01 -1.005991088963611307e-01
-9.960636242625411224e-03 2.304889653895379753e-01 -6.967160138472793252e-01 -8.654130136385671523e-01 -4.103753056063769167e-01 -2.874933466595112064e-01
-6.487690546630639488e-02 1.163062042808298557e-01 -7.693815416877209934e-01 -7.133476423123201737e-01 1.015048136558940051e-01 -6.934204453375572008e-01
-6.256669824825364379e-02 -6.449605123936627202e-03 -7.950744080722610407e-01 -4.401279921228890557e-01 1.092866622565028256e-01 -8.912596568916980599e-01
5.866848165160876843e-02 8.702281347881145324e-02 -6.909850382316696793e-01 6.083370244698592666e-01 6.915237952745638683e-01 -3.895136778448490267e-01
-3.395293871637382332e-02 -3.518725742037656645e-02 -8.039310952922767983e-01 -1.339870195775202388e-01 2.382847900217736348e-01 -9.619084350545079598e-01
3.837391012371631910e-02 -1.169906737224028215e-01 -8.361716242532863941e-01 -6.696536647190636238e-01 1.743967167323223488e-01 7.219070262307424324e-01
-5.042585878188498086e-03 6.572940788733254436e-02 -7.831959388998543936e-01 -8.262637954180303002e-01 -1.938006420312177736e-01 5.288945561543237917e-01
-5.342081638759495210e-03 1.445348613760611411e-01 -7.447364728632366315e-01 -9.918033997229757093e-01 1.114833411974880395e-01 -6.242980805185693177e-02
-6.954629748034149572e-02 6.714451260832815516e-02 -7.681908929636884764e-01 7.036560482331672972e-01 -1.062514958213153921e-01 7.025516247370121592e-01
5.256034056305000299e-03 1.729599715953283046e-01 -6.647026257287942386e-01 8.605770927935624259e-01 2.973436763070218536e-01 4.135139725803778088e-01
-3.082790176737276733e-02 2.485535622355465601e-01 -7.561591547390053014e-01 1.222805699003874300e-02 -5.910725208842475542e-01 8.065257278461668289e-01
-7.977585743395942605e-03 8.072870114046599987e-02 -7.780872064925310472e-01 7.828854919829479897e-01 6.288710512735387614e-02 -6.189794168236277816e-01
-6.809651578239832304e-02 7.366751332315565892e-02 -7.658977632360350896e-01 -7.320786461853781013e-01 5.224887500860399270e-02 -6.792134501463582552e-01
-3.248689771426935269e-03 9.951739769776095368e-02 -7.587911208082031012e-01 -9.744898688394448838e-01 1.812479325312026102e-01 1.323581598634796241e-01
1.770217045387790719e-02 7.884483551370985444e-02 -7.331673565056017194e-01 7.762141454365731885e-01 1.063634921209957868e-01 -6.214325449861770601e-01
