2.093077297075375195e-02 8.851914709154141969e-02 -8.620450287917830190e-01 -2.369791637632641945e-01 -3.566661361778784012e-01 9.036759060891282891e-01
1.063208220931076940e-02 -4.267050206037660554e-02 -9.748062172373076484e-01 -9.739890726278348509e-01 1.934094597738873766e-01 1.180595920353088024e-01
2.225878440186190507e-02 2.291563364704274908e-01 -8.020095624043784843e-01 -2.440258673360275743e-01 -1.146110205797750831e-01 9.629723204913845924e-01
-6.321820300465723352e-02 9.278054152587794645e-02 -8.427998276037378389e-01 -5.565509430064596863e-01 4.193713909775022008e-01 -7.172019828947876485e-01
7.364202512193435135e-02 1.687242295205660936e-01 -8.159046826082991810e-01 2.908257560349317150e-01 -6.976796117782720907e-01 6.547240173810867647e-01
4.111808170579390326e-02 2.160077096176463429e-01 -7.902807646083959137e-01 -1.410210719079827433e-03 5.874149343839411321e-03 9.999817526711244353e-01
-7.810606235199061068e-03 1.541589663800683185e-01 -8.311466437644682292e-01 -1.104245820975079673e-01 -6.057182355857775313e-01 7.879795877733402065e-01
2.708880496898873405e-02 1.184509933642922813e-01 -8.449002279108656088e-01 -3.267183864794617754e-01 -4.472770401734315060e-01 8.325853381305434731e-01
-6.091492417530921730e-03 8.393525374550306339e-02 -8.660851231228338110e-01 2.469071239429683484e-02 -5.656663140001620960e-01 8.242645145382228034e-01
-8.636958655391272638e-03 -1.785499079958580149e-02 -9.124569527196717544e-01 2.298417629864031309e-01 -2.379280524018544951e-01 9.436964585435099195e-01
-1.572450310964426667e-02 -8.012255274151570961e-02 -9.308576703459410240e-01 -3.653413098460710495e-01 4.041726652000253162e-01 -8.385524336766695397e-01
2.512445522783930685e-02 2.111303637695301216e-01 -8.005868612978731536e-01 -2.900844706999522460e-01 -3.907608251978028635e-01 8.735885629685525844e-01
-3.826955262562635462e-02 -8.458668594765807180e-02 -9.123688188042240466e-01 -7.325816915861858014e-01 3.843553871116769938e-01 -5.617784274524569854e-01
8.832827855937050096e-03 1.756677284413448933e-02 -9.014509821949000523e-01 -3.430872678007106380e-01 -3.480697960782780376e-01 8.724325439431231954e-01
1.143181390227470708e-02 4.023216208994372621e-03 -9.049127551310737205e-01 -3.829538362864199352e-01 5.527091813666207276e-01 -7.401749253430256470e-01
-2.680916931437539105e-02 4.385140102847090438e-02 -8.867906534262339768e-01 5.502193509320840031e-02 3.654292834749680030e-01 -9.292115073747042597e-01
-1.813065957723866695e-02 9.334422599921309016e-02 -8.571129822380559871e-01 -3.275326069245110272e-02 6.858453518125290360e-01 -7.270098880422196652e-01
5.248298134559762837e-04 -1.876077791075117240e-01 -1.004319293663022528e+00 9.520139846414764628e-01 2.934066453778497729e-01 8.707418386166701496e-02
5.410751309839947898e-02 1.760983973273108072e-01 -8.038605658165958179e-01 -7.635709144424840389e-02 4.214012146016347105e-01 -9.036540327572502029e-01
-4.054975852638301875e-02 -1.099425579881580656e-01 -9.294138742305584344e-01 -2.651410585870574432e-01 5.645197411833537959e-01 -7.816761995005437891e-01
1.315631961441639589e-02 2.243475749786329188e-01 -8.041219122869546210e-01 3.644642124177008280e-01 3.918070330869893869e-02 -9.303927720887458230e-01
-4.946695106744521120e-02 1.796040480441271903e-01 -8.397050465287948517e-01 -6.090610818293147322e-01 3.400505334138963914e-02 7.923940023423664547e-01
4.601688357989023453e-02 1.426898427454943719e-01 -8.259511486538539948e-01 -1.952137600610394097e-01 5.793409280981820508e-01 -7.913631763692114962e-01
-1.176254144050290808e-02 -1.602386618688166620e-01 -9.884731092341044745e-01 2.703639203902106769e-01 -2.418005298888611376e-01 9.318990579975396926e-01
7.555839730438403123e-02 1.579332445542425689e-01 -8.302426882277318398e-01 -5.764612739600174507e-01 6.556722756522298523e-01 -4.876333320902294655e-01
-6.519278990703104848e-02 1.372543054294824427e-01 -8.378373380744451593e-01 -4.288910129739038624e-01 -1.836552114807293024e-01 -8.844903969440184310e-01
4.836279732837489576e-02 1.858229009257852948e-01 -7.991573453437266217e-01 -9.891433607026141328e-02 -4.032131848654527673e-01 9.097445145041753722e-01
-5.912733031847516862e-02 1.376291513130813438e-01 -8.419897977613802764e-01 4.117285443353614349e-01 -7.136205195646351182e-03 9.112785964538451244e-01
1.088498659280597199e-02 -2.310157093854785931e-02 -9.330745149969825736e-01 9.413859830812503215e-01 -3.226799606392204423e-01 9.833653369942919886e-02
-4.904774678835068652e-02 1.038476550729663384e-01 -8.426338001960681501e-01 -3.072176110182497921e-01 2.736583420188378191e-01 -9.114430598362907032e-01
-2.689854717229483994e-02 -1.172234527959680611e-01 -9.454476157479846377e-01 -5.168600304254549194e-01 5.062195367377337885e-01 -6.903604055662753147e-01
-6.697307093842926919e-03 -1.422909380821850978e-01 -9.858848092566230292e-01 9.814752034127147695e-01 1.409072497672220203e-01 -1.298136050227713112e-01
-3.969598966692505781e-02 -1.901223394879938619e-02 -8.806389793149211886e-01 9.833073762933314255e-01 6.198846497993349552e-02 1.710673374334100993e-01
3.260471383255407474e-02 1.683101321183676224e-01 -8.110172162777440352e-01 1.200378784979244523e-01 5.538823101944274629e-01 -8.238964098595170649e-01
3.998088134459691634e-02 8.533785485316859598e-02 -9.319694161028089230e-01 9.048386811590892753e-01 1.862625016984916643e-02 -4.253469453080508944e-01
4.014069658569805604e-02 1.499415039635666469e-01 -8.209298808936767999e-01 1.923472173482126957e-01 6.584868434868282883e-01 -7.275971584147045146e-01
7.043785567774079812e-03 -2.215191884379973386e-01 -1.021446061895651347e+00 8.078168336756978707e-02 6.579230722251646624e-01 -7.487399753359655907e-01
7.883242709353636968e-03 -1.801869038933930911e-01 -1.010105360861407675e+00 -9.098039277682506976e-01 -4.088538161960216799e-01 7.138186043676346404e-02
1.916170065922637861e-02 -2.435945984852070367e-01 -1.033652741251751772e+00 -6.203891299656861813e-01 1.086759164048905213e-01 7.767283132562996517e-01
7.766893297144131757e-03 6.956004698639978168e-02 -8.752816837879429102e-01 2.666779497884092520e-01 4.186619643909547106e-01 -8.681042740759646881e-01
-1.833314116217830622e-02 -5.333044027827959360e-02 -9.218549905720353488e-01 6.463566036701596795e-01 -2.387891013203523316e-01 7.247088422136123143e-01
3.857914340429520559e-03 -1.637504888049200469e-01 -1.003413376933278922e+00 9.965302003833310662e-01 -5.179466997772347314e-02 6.515268134050231086e-02
-4.152318198400939235e-03 1.178411516682134480e-01 -8.436743961353286858e-01 1.588843409666984216e-02 2.950110787614195762e-01 -9.553617226317890898e-01
3.296791140707711065e-02 5.614204150882257799e-02 -8.891286931354761558e-01 -8.751659745123117062e-01 4.819802536752269551e-01 -4.218473803497641700e-02
-4.521988225113655196e-02 1.882218919272672097e-01 -8.367093452911528173e-01 6.211313969641821808e-01 -1.587962889815637268e-01 -7.674500155130674628e-01
6.086929160556812241e-02 1.130004529721010398e-01 -8.778190933590801492e-01 8.961683960753966671e-01 -4.421728640775771102e-01 -3.695083421363927478e-02
4.571484566993926774e-02 8.399145207195711504e-02 -8.750855854156357472e-01 -7.535847737665024582e-01 5.425536628470108980e-01 -3.711408245916653637e-01
2.633067105064350669e-02 1.705817262538473489e-01 -8.150824444014979075e-01 -9.228464485534595418e-01 -9.517461405147073505e-02 3.732240951927150441e-01
-1.423665230573162299e-02 -6.032302771959625193e-02 -9.265164158628905744e-01 4.343937121865379392e-01 -3.208025688150988319e-01 8.416577776355617102e-01
-6.433385458558300851e-02 1.639805540974529352e-01 -8.463453145054906646e-01 1.917230374280328442e-01 5.429051063386567538e-02 9.799463339257324934e-01
1.810510571173785943e-02 9.792889550210531757e-02 -8.579324535870123114e-01 -2.982305463699085890e-01 -3.603164432856704180e-01 8.838725031982102021e-01
5.799615594561709914e-03 -1.581005468114440038e-01 -1.008302669952012121e+00 -9.959249868859042509e-01 -3.129338174917192794e-02 -8.458217752583584159e-02
5.403877166236303181e-02 2.316768384605608355e-01 -7.905266594854365447e-01 3.899390063070600210e-01 -6.018023679669052273e-01 -6.969802588809013155e-01
-3.943763478072515039e-02 -4.371227974350724334e-03 -8.609862917455852749e-01 9.450184366964453631e-01 -2.739285020613246857e-01 1.786150331361992527e-01
8.848469914811234877e-03 2.033742550629726031e-01 -8.096780305478298301e-01 -2.544030679412488394e-01 -1.368792341420901892e-01 9.573626033446026584e-01
2.807337622799068941e-02 1.626991916546966788e-01 -8.155305826188004037e-01 3.754002634004184880e-01 4.713275842656158288e-01 -7.980757799540311170e-01
-4.572774203160029360e-02 -1.108718668312320688e-01 -9.289606869927284905e-01 1.635357057301908279e-01 8.623935534170472650e-01 -4.790964746019811260e-01
-2.039717046960032656e-02 -1.732472934993164737e-01 -9.919526523575552535e-01 -2.062244722152284104e-01 -6.938437130588887003e-01 6.899654838527830014e-01
-7.157857438451273660e-03 -1.414886531309369755e-01 -9.822065722432967716e-01 7.047039627049545008e-01 -2.987020125577904972e-01 6.435599681784595072e-01
-1.710971226227506192e-02 1.165789810764588513e-01 -8.449131759310449796e-01 -1.985029157809434786e-01 2.816308937588570815e-01 -9.387654830185496735e-01
2.373698922943431877e-02 7.989672181709311927e-02 -8.657791455251381274e-01 -2.815607285270469440e-01 -3.652883671371613405e-01 8.872924912257430519e-01
-2.331585787669376506e-02 1.002098569235609360e-01 -8.510979406008793990e-01 2.105763744924718239e-01 -3.615360146736753544e-01 9.082671966990123469e-01
4.128629496455189785e-02 5.960524825130509435e-02 -9.385181657633894226e-01 -9.078998076412831963e-01 -2.703909392763911845e-01 -3.203227735303127988e-01
5.740108513332595024e-03 -1.590017747598788389e-01 -1.005978082972005305e+00 -9.959624971383256309e-01 8.574415382744635106e-02 2.658278349619782113e-02
-4.920075682795494593e-02 1.507713236910639409e-01 -8.422186881138449266e-01 1.689008689368209568e-02 2.926346602222582582e-01 -9.560751438047782047e-01
6.553587151681914032e-03 -1.449200537689719626e-01 -1.002290880713075039e+00 -9.910606105911307084e-01 5.024030873126057034e-02 1.235911708550543192e-01
-4.604866964679393132e-02 8.387089039934869650e-02 -8.538211578963563753e-01 -2.739927425758432733e-01 4.767698722697627511e-01 -8.352355750994098216e-01
2.893402008942029188e-02 2.847528337172021418e-02 -9.372849968351703032e-01 8.551937475103357222e-01 -4.252070934013653103e-01 2.963824926347556343e-01
5.668787111696482056e-02 1.153765510287649287e-01 -9.079734125061661443e-01 -8.751385584477041624e-01 1.172952259001427550e-01 4.694404472338410961e-01
-5.735125636752270994e-02 5.038510783081558142e-02 -8.689190450684011191e-01 -5.296672981297281257e-01 4.567403296716994743e-01 -7.147312953434604710e-01
-4.707677780365504550e-02 -4.385150391603420683e-02 -8.785884656891660427e-01 -5.927562001768235111e-01 5.814698608921067269e-01 -5.572547783788377451e-01
1.130927952760552024e-02 6.156841547573330131e-02 -8.774209318884093056e-01 4.137847820103473517e-01 5.339628668643111586e-01 -7.373369724804902381e-01
-5.224134556687574926e-02 -7.577126163097983036e-02 -8.980809074189147756e-01 -2.220176298187357886e-02 6.564035464080472115e-01 -7.540831956644009626e-01
2.513060870786172629e-02 1.057901343606522798e-01 -8.494549512579548933e-01 2.609763012753945621e-01 2.339555529986317994e-01 -9.365661585780894471e-01
-4.425931627484681538e-04 1.494272833758277241e-01 -8.314939206347999878e-01 -4.073712350181128705e-02 4.501220187196052214e-01 -8.920373619039650981e-01
1.667700077650719273e-02 -5.869994217555915030e-03 -9.400375819292652313e-01 9.387442650605922756e-01 -2.209565235551153861e-01 -2.644568386604631560e-01
4.783178767206128917e-02 1.350354501718984690e-01 -8.322524421769840197e-01 -9.238084278222544188e-02 6.553736781136940692e-01 -7.496339919737990964e-01
-6.458103615437822687e-02 7.556047602132517915e-02 -8.489980719832678213e-01 -4.761568551140207828e-01 4.578438833418304044e-01 -7.507686912854036887e-01
7.227992977596572888e-02 1.512399467109065143e-01 -8.361898350497926069e-01 -5.321472637782106441e-01 7.360954703745876682e-01 -4.183093928510066561e-01
-2.912749319879182064e-02 1.646781976687585747e-01 -8.345347439270811574e-01 -3.421289024640266074e-01 -3.755670044143411546e-01 8.613345687327305100e-01
2.998260124142853103e-02 1.886556680499126837e-02 -9.592230469897704559e-01 7.912250292014794129e-01 -4.934368661644557008e-01 3.612243240355212937e-01
1.285603572802394845e-02 6.023673784299538037e-02 -8.771714706534866623e-01 4.409367235882318270e-01 4.745224194144441188e-01 -7.618420303870991894e-01
3.583539488435212150e-03 -8.622069872967159931e-02 -9.604517065374703622e-01 9.864027693469274993e-01 -1.570379625636140475e-01 4.846292333920108886e-02
-3.388374348651436441e-02 1.643727887824864287e-01 -8.351362227722413101e-01 4.024978316025875080e-01 4.635407883940544371e-01 -7.893829444890695379e-01
1.889249908395244232e-02 2.993964507273876550e-03 -9.451815769252487343e-01 -9.435222654198630599e-01 3.150025528935211927e-01 1.026602470654246063e-01
1.723858806247042380e-02 2.114054094591189259e-01 -8.028602176739761953e-01 3.466534425870982927e-01 1.288106874601344931e-01 -9.291066663944247406e-01
5.157754231600046591e-02 1.472225746228676135e-01 -8.255196532923826380e-01 2.773706526359663305e-01 -5.634943062467642205e-01 7.781643064827478140e-01
-4.252287815813732275e-02 1.687671592119234232e-01 -8.369868319263119583e-01 9.742426944779213061e-02 1.732430351393146051e-01 -9.800486531281403790e-01
-5.775730479959959029e-02 -7.872171791570158061e-02 -9.013853355426041380e-01 2.526697747864508070e-01 5.768409814855182116e-01 -7.767962840978245298e-01
3.621873113331194188e-02 6.610517650717918914e-02 -8.867997721917477705e-01 7.317560851899829188e-01 -6.782939336250656259e-01 -6.671110398476146064e-02
4.634168396776172823e-03 -8.316028351017790143e-02 -9.655729352304692759e-01 -6.661546260175924550e-01 1.549912816504936570e-02 7.456525942162912646e-01
-1.257065376475091124e-02 6.571029592813140696e-02 -8.719279551957259677e-01 -2.069043414622467048e-01 4.829393418922998671e-01 -8.508584991270323750e-01
-2.773309096913057631e-02 1.941105440532949200e-01 -8.252683127088673576e-01 5.977280625608779596e-01 8.347808257642529151e-02 -7.973409389693861815e-01
5.068133003146781113e-02 1.809763109457072916e-01 -8.001127013427995482e-01 3.869999443467711520e-02 6.695061539722532151e-01 -7.417976949438689349e-01
4.699764531944500973e-03 1.145128163786102299e-01 -8.503449712595834153e-01 3.423098471962924272e-01 -6.101366644642133297e-01 7.145328678157042424e-01
-6.538231135555463980e-02 1.132102774440814780e-01 -8.341890245495445777e-01 -4.760842350592741079e-01 -8.902580617646742300e-02 -8.748818245698419815e-01
-2.584905587309313524e-02 1.292637654137320236e-01 -8.439497568777507563e-01 -7.823485205239485984e-02 9.515507638004053192e-02 -9.923834034099162649e-01
-1.920632085546234921e-02 1.067227124795899207e-01 -8.462083738048203907e-01 -1.412309405732069534e-01 3.857852029534259430e-01 -9.117146475772949232e-01
1.677851796067999710e-02 1.418856657965696273e-02 -9.012004974525846812e-01 -5.802031510234602063e-01 3.536325692847113178e-01 -7.336949703272754864e-01
8.370475080365273601e-02 1.979405633491796157e-01 -7.994423076779556547e-01 5.618223519189475823e-01 -4.140553591412914347e-01 7.161800084131352273e-01
1.742775422220509476e-02 8.147508138621184504e-02 -8.670524276778874828e-01 -3.669883071689133414e-01 -6.057583697118316124e-01 7.059577748883847370e-01
-4.454642222814666347e-02 -1.030188270838162112e-01 -9.227909302532371072e-01 -1.184982096639553978e-01 6.959312723053300287e-01 -7.082639610582495138e-01
4.403079919120957836e-02 1.261338970492663636e-01 -8.407318966707024721e-01 2.680146998612735754e-01 -6.138981016485594022e-01 7.424939336119631417e-01
2.218918580650514061e-03 1.940711669886773516e-01 -8.128959428523278019e-01 -2.116077812245529266e-01 -1.317414610868043456e-01 9.684349923231478918e-01
6.916945230562446256e-02 1.390430484422980340e-01 -8.848990234640055075e-01 -9.036975116694426768e-01 1.406244545573789029e-01 4.044200417670933412e-01
6.148800031114532577e-02 1.247881201180240096e-01 -9.002110048996976310e-01 -9.057621853977884108e-01 -1.178873551165214029e-01 4.070594981167418580e-01
-2.401582983210262534e-03 2.685517273087199147e-02 -8.990305510298014502e-01 1.281015723330206912e-01 -1.983419898729807951e-01 9.717254973597401202e-01
-8.545824734086015975e-04 -1.449685022762123021e-01 -9.889164857937395858e-01 -2.660236636659621401e-01 -1.585776639065247517e-01 9.508335999951244011e-01
4.232610529822645323e-02 1.594601319892595404e-01 -8.142895930058761111e-01 1.670514022308657864e-01 5.316077276392616735e-01 -8.303535710327992758e-01
-2.898930635555533805e-02 -5.203337455070211615e-02 -9.080865417680389351e-01 -9.334893619949993226e-01 -8.298059207494637435e-02 -3.488722293061752855e-01
4.134947253411049711e-02 4.805627102265002532e-02 -9.477605070244826679e-01 8.831320566905858094e-01 -4.357463035534158147e-01 1.737899001236563601e-01
-4.931645843223649017e-02 -4.353407205126142571e-02 -8.770583595173707669e-01 -2.766899193083130482e-01 6.381112871740052261e-01 -7.185100373232743420e-01
3.863734469415879696e-02 4.269504208084665131e-02 -9.430052442282724767e-01 -8.821023511180117183e-01 3.494153914266185379e-01 -3.159182273726211521e-01
5.189966800478762465e-02 1.335388118643082156e-01 -8.348983535212023410e-01 -1.050393101909686960e-01 6.577941664752823270e-01 -7.458375009783926313e-01
-5.911142830161099024e-03 1.298096019515254107e-01 -8.419112173233589402e-01 -1.781798578963542656e-01 -2.526426820892508363e-01 9.510118892142118696e-01
-3.732509438933827306e-02 6.391445657534283904e-05 -8.743311233269015492e-01 9.849522215929109592e-01 1.680984213340366573e-01 -4.015024189458640813e-02
2.635753217340402327e-02 1.893755954823541643e-01 -8.054163136756373742e-01 6.193597598721835018e-01 2.085446640571366195e-01 -7.569033035628576211e-01
8.142876019618407180e-02 1.962766308414759797e-01 -7.964931405088819805e-01 -4.910959503531198145e-01 3.501985304965121171e-01 -7.976125354988156113e-01
5.130783576244617866e-02 9.847512976977486343e-02 -8.702118325511307706e-01 8.143532132616201347e-01 -4.935824539373309117e-01 3.052952754558718174e-01
2.388328866436286238e-02 1.776465262637128006e-01 -8.099406411353834434e-01 5.411590645281003642e-01 2.952816441016593574e-01 -7.873726040037791751e-01
-6.219122757021053327e-02 8.737440595435112811e-02 -8.455841807495841911e-01 -5.483534003655570199e-01 1.370824955638908216e-01 -8.249345051078338376e-01
-1.684321041686756212e-02 9.166657460771086841e-02 -8.583791682414747548e-01 -1.348715078347475504e-01 4.768492101959027618e-01 -8.685761377737274413e-01
2.865368757336162614e-03 -1.138472446848780156e-01 -9.725850644617405338e-01 -8.269442487433122935e-01 4.010835049160101917e-01 -3.940751597787504612e-01
5.493115266547164005e-02 1.001213053785751927e-01 -8.805126688295916715e-01 8.432436263466801529e-01 -5.362387195362896541e-01 3.725885526664569208e-02
3.974304130983561528e-02 7.362273452945758412e-02 -9.382415875112515291e-01 -9.977952535822095514e-01 6.626735217177266712e-02 3.642796310036667141e-03
-9.227266567589835836e-03 -8.986413580709312621e-02 -9.449411959288864793e-01 7.273181890473477962e-01 -4.051641800243986347e-01 5.539406458331458394e-01
4.018040551184511033e-02 1.107804139221465062e-01 -8.503450052926129210e-01 2.908559733753386389e-01 -5.760917264095479773e-01 7.638855447737904480e-01
8.200451143697036135e-03 1.572667916551202250e-01 -8.279802495889583280e-01 -2.187369620009174120e-01 -7.057077155190425444e-01 6.738922478493897250e-01
-5.896474855688452893e-02 -7.721585052663190729e-02 -9.008116783449838794e-01 4.828963501186470109e-01 6.453230222363528501e-01 -5.919200216362245914e-01
7.319417725513737566e-03 -4.945250269341507077e-02 -9.722289842294798978e-01 9.378373611535846255e-01 -3.328576276617683516e-01 9.832031189871404120e-02
-1.636367033581461600e-02 -1.833851491027067571e-01 -9.970467203027786329e-01 7.306064510882563923e-01 6.656723803137908346e-01 1.519687326906266622e-01
-4.891048915264121361e-02 -9.975456126955369041e-02 -9.191886951265946237e-01 -1.227983409390759513e-02 6.711735392378541665e-01 -7.411985468830594170e-01
1.312601943572974141e-03 1.575180699605005230e-01 -8.267847911338992439e-01 6.209345069280461371e-02 6.060092451118036516e-01 -7.930303892160011081e-01
5.321552792034677654e-03 -1.524910725142923917e-01 -9.977412745363141156e-01 -9.437994829718360235e-01 1.069901441565693501e-01 -3.127229524602432864e-01
3.502730204526117996e-02 9.920752277253232221e-02 -8.526331176027589498e-01 -1.382902045881178321e-01 7.050749830575087085e-01 -6.955178556884289431e-01
-7.324204125188651070e-04 -7.308430901249715617e-02 -9.750061971967967089e-01 -1.781814189304499751e-01 8.970149539652840787e-01 -4.044941956451176268e-01
1.591690849574544514e-02 -1.764613170619610399e-02 -9.681221623702405132e-01 7.468106907412450646e-01 -4.592825069248530068e-01 4.809712787967767023e-01
9.000295011025287190e-04 -9.574034330235971224e-02 -9.891609461413048976e-01 -9.848687935895673595e-01 -1.181653680171274590e-01 1.267691019720783019e-01
-1.955969029598578560e-02 -4.246878662210535477e-02 -9.173348649306747316e-01 5.325398764860417300e-01 -2.331115426695657133e-01 8.136708724210585109e-01
3.713480427308673421e-02 5.821998625511702607e-02 -9.321252100063067703e-01 -3.455496161593447635e-01 9.357666761974268166e-01 7.025802794378367688e-02
-1.635589569065084431e-02 -4.525763189089637706e-02 -9.182381617060091372e-01 -5.253693221853861228e-01 2.159641931961172601e-01 -8.230106576245644900e-01
1.619692987384427699e-02 1.995348634437483226e-01 -8.061725668462790262e-01 3.944528780488809061e-01 1.212357384395004178e-01 -9.108835396053569511e-01
8.345419362491080309e-03 4.605515546194053483e-02 -8.882575529590421848e-01 -4.151750237861531745e-01 -5.079018065072722354e-01 7.547618528852768627e-01
5.793918552400159801e-03 -1.750436800116717262e-01 -1.016210492983008473e+00 -6.861508869940797783e-01 -8.073359444725952683e-03 7.274144493646752530e-01
-4.964561860620845396e-02 1.463272905432373705e-01 -8.444411074472635281e-01 1.591180805404810578e-02 5.180916101879902425e-02 9.985302324912247451e-01
-6.353475551190704285e-02 1.127194085606272461e-01 -8.369356318309584264e-01 5.032271863320501026e-01 -8.763747924056751459e-02 8.596988258504760783e-01
4.248806080677776896e-03 2.023043357725066438e-01 -8.095040899762698805e-01 2.638625111508712262e-01 1.562684578243421496e-01 -9.518176003302093457e-01
-2.063901278838588260e-02 1.332823981601119201e-01 -8.430102168598042622e-01 2.495477605246852193e-01 1.001527226325441972e-01 -9.631694281726362883e-01
2.750927267856117034e-02 1.056463326550043796e-01 -8.489832007664317448e-01 1.284924464900148722e-01 3.907575438725860439e-01 -9.114813399635094404e-01
-7.329339721824727760e-02 1.315930570551068490e-01 -8.391330423703770025e-01 9.243480639083389017e-01 1.539990292560635965e-01 3.490916151056849825e-01
2.138865944885971412e-02 2.309286127383225196e-01 -8.024718328192722572e-01 -3.110137782172228138e-01 -2.763254936194312755e-02 9.500036168219612165e-01
-4.256024484222787480e-02 -5.694280089750346219e-02 -8.931881798450373999e-01 6.171424827031972704e-01 -3.630542302131448684e-01 6.980879471580028195e-01
-1.164651665193749096e-02 1.405251890151603955e-01 -8.378356665671942149e-01 2.372177233891822890e-01 6.141972922489613573e-01 -7.526549261807146118e-01
3.689407946375728581e-02 6.395772498448153154e-02 -8.893112373592811926e-01 -8.662139279406662062e-01 3.761337496909668565e-01 3.289328706362676935e-01
1.070394863381173185e-02 2.434202210799308042e-01 -8.019968890452192634e-01 5.498069339579781944e-01 2.525599687322946374e-01 -7.961945726803655310e-01
5.283289682505402929e-02 1.242071422916782714e-01 -9.074112058810720471e-01 1.383835639413937696e-02 6.383303658937591329e-01 -7.696381252707328313e-01
-6.677425298322325897e-03 3.666163110102566014e-02 -8.932810625554367112e-01 -3.136172302736625617e-02 -5.153689016326892247e-01 8.563943820218988812e-01
-5.097451704946202866e-02 1.203717264736681447e-01 -8.433692426697503297e-01 2.820624928515073071e-01 2.211644498963775129e-01 9.335561237699777637e-01
5.831042295697483682e-03 -1.399471690898238252e-01 -9.944800303027244714e-01 -9.558948808522503837e-01 7.841109631218931564e-02 -2.830488946022974850e-01
1.725444463096732425e-02 1.930708899447587668e-01 -8.091249262828217326e-01 -5.053636752062209414e-01 -3.233479499473581598e-01 8.000335362013908380e-01
-4.647406027653325222e-02 -5.566080932882283561e-02 -8.897426263600204388e-01 5.243988623372608515e-01 -4.117773727448531540e-01 7.452819791694502705e-01
3.527057214799769053e-02 1.856423175440310436e-01 -8.030551770249124699e-01 -2.673672504832064756e-01 -3.474724866369259813e-01 8.987644988535103963e-01
6.281521608344989294e-02 1.144554240530173683e-01 -8.897447003891356676e-01 -9.677957166362590735e-01 2.240226929134882250e-01 -1.148271915545203137e-01
1.307441858327499686e-03 1.388718003987783091e-02 -9.019811038312331997e-01 -1.976711247880037214e-01 3.728002602341717875e-01 -9.066124267813558957e-01
8.437943152050399881e-03 2.403315372721686882e-01 -8.056020979193343479e-01 -5.248392762602520634e-01 -6.982655953034215546e-02 8.483324735495927360e-01
2.793096282036745207e-03 -1.142857769049257510e-01 -9.977748292785842965e-01 -8.600838338327488897e-01 -1.971744143246072778e-01 4.705082880410382806e-01
6.608710231691664050e-02 1.448854969878563548e-01 -8.904527581790422364e-01 -7.647301536361498231e-01 -1.756021329383903595e-01 6.199610334747810425e-01
-7.075127813733919635e-02 1.039320024661585240e-01 -8.327948589303144633e-01 -2.249950645857676790e-01 -1.455948024648305028e-01 -9.634206632656751035e-01
4.602993518062108158e-02 8.164599867452945747e-02 -8.864487928844887454e-01 -7.320865931781324054e-01 6.762697587888143458e-01 8.190502693091823716e-02
5.272486086661882371e-02 1.297278090133940909e-01 -8.408072145742376824e-01 2.975861703874346231e-01 -6.031707538838557703e-01 7.400185895322641816e-01
-5.076487312468882379e-02 -6.752862972809041409e-02 -8.919903179381125646e-01 -1.820781121885398091e-01 6.742194307924443963e-01 -7.157343922180695595e-01
7.323555296457462394e-02 1.511168470938788200e-01 -8.381807074532499069e-01 -7.508339467457143535e-01 6.081806494830764853e-01 -2.576134352253334758e-01
-7.595442662993430460e-02 1.125174377658042513e-01 -8.349345283399957074e-01 9.776126496670242139e-01 8.757205104597669612e-03 -2.102303940199329590e-01
4.414629512551174889e-02 2.227513384789506223e-01 -7.923524591239083925e-01 -1.981536391324837873e-02 3.050528950598645483e-01 9.521292362744570026e-01
-2.472764787950233051e-02 1.907025476712412015e-01 -8.240803382195691640e-01 4.535201293632949437e-01 1.578512132385697098e-01 -8.771559078871963289e-01
2.970691588211477052e-02 4.740163155465278860e-02 -8.985106549711564528e-01 9.007399023569089280e-01 -1.828979651164529818e-01 3.939745710808335022e-01
-1.934002376763434977e-02 -2.295497457843645103e-02 -9.070810991006970081e-01 -5.942506075039165614e-01 1.697175486979161929e-01 -7.861693005613971108e-01
4.390705499735902961e-02 2.355068850148141768e-01 -7.781088608517915395e-01 8.294304473283460322e-01 -3.217820487804957108e-01 -4.566195857903231903e-01
5.201244787712641475e-03 -1.223504241691555500e-01 -9.983627132736810905e-01 -9.175594653106183829e-01 -1.999800675059879851e-01 3.436460391437569650e-01
3.971842965404576153e-02 8.463415369358776030e-02 -8.652718371908585393e-01 -5.680807659952786803e-01 5.402238648110658792e-01 -6.208400914847660435e-01
7.948723641064057294e-03 -1.909620868008288230e-01 -1.013444921629345075e+00 9.856742144017793805e-01 6.981607297052733196e-02 1.535319478753828237e-01
5.554070109018375417e-02 9.475360334183943745e-02 -8.890274204872302688e-01 -8.515875853409644591e-01 4.590841203394682157e-01 -2.530619587083018374e-01
1.306130228868327380e-02 5.057594953561986295e-02 -8.835807972458765702e-01 -3.996233138911379212e-01 -3.549569719841134674e-01 8.451667025117199916e-01
2.262456433356760735e-02 1.629875261382082718e-02 -9.395888539394069428e-01 7.681093415344436570e-01 -6.071597863532147699e-01 2.033839553235253228e-01
1.514786201400715460e-02 2.009338444795050454e-03 -9.125696887492841247e-01 7.807506221835058824e-01 -4.134466506869540203e-01 4.684979540999171244e-01
3.038615093636574602e-02 1.309968794733621933e-01 -8.343298517059225539e-01 2.044681631289884116e-01 3.913074803785421274e-01 -8.972576141033601349e-01
-1.764579832500215786e-02 1.371920459699225714e-01 -8.427692205370099776e-01 -1.876305679156939910e-01 -3.811886623281331987e-01 9.052568550947972525e-01
-4.003661138653637902e-02 -2.227704847712517339e-02 -8.800801534392760361e-01 9.412685997310784591e-01 -3.239349972799191457e-01 9.528662391728250081e-02
1.415581623982441369e-02 -1.919674579190135469e-02 -9.399689958240785570e-01 -9.258069549593634928e-01 2.385838957085123502e-01 2.931880059917546522e-01
2.496236292035946061e-02 6.199800707266989001e-03 -9.724868296112194610e-01 -3.452586951813068628e-01 -2.138938131061955683e-01 9.138084427912632757e-01
-3.728610992004643184e-03 1.518730205440284031e-01 -8.322348545140427767e-01 -5.545945826905722409e-02 -4.146721470369754137e-01 9.082792846697803624e-01
4.625527344580409456e-02 7.246724040345185747e-02 -9.016097413288014506e-01 -8.312986976874873202e-01 4.952008933916329791e-01 -2.524253363020759200e-01
-1.553394623261114202e-02 -5.835746047624128241e-02 -9.233386039820673519e-01 -3.673989007180950006e-01 2.111086907064170237e-01 -9.057875956643245408e-01
3.443977270012363312e-02 1.085372914160940144e-01 -8.474231680858838045e-01 -1.435445371337240039e-01 3.740018306212209431e-01 -9.162519285387836776e-01
-3.285846362533755005e-02 -7.103170345404472182e-03 -8.890399765833022494e-01 -9.108881619818552933e-01 -2.933046112820563919e-02 -4.116096213784661839e-01
-2.545928607019156895e-02 9.913157557428627087e-02 -8.490643061455389606e-01 -3.342884394880157317e-01 5.748499132515044741e-01 -7.468593016488479508e-01
3.913993989696526454e-02 7.038444409148443548e-02 -9.183358203065260517e-01 7.862322865413083894e-01 -3.016583782421556337e-01 -5.392967776988276674e-01
7.412413940970256909e-02 1.440215632230498755e-01 -8.711073858262952108e-01 -9.594285789189942459e-01 2.265980327026219932e-01 1.677800152842423287e-01
4.603236161240317065e-02 1.124348742384013444e-01 -9.165855133010942790e-01 1.299273231536675621e-01 6.214332512263831543e-01 -7.726186672403984046e-01
-1.184835690887546533e-02 2.203350324024718754e-01 -8.146575541960910938e-01 4.581271320343565656e-01 2.186489604153199137e-02 -8.886177227666957057e-01
1.871742708501022978e-02 4.877927735523535091e-03 -9.202131249100707899e-01 9.771861101166288144e-01 -2.122781549066362627e-01 -6.729869580145024337e-03
9.436651989144419911e-03 1.305722346950931867e-01 -8.436748663051724106e-01 2.863681512019168318e-01 -4.650945977082215355e-01 8.376635942667102208e-01
-5.993617314332977397e-02 1.443591507280579112e-01 -8.424373204573714080e-01 3.752650449129881216e-01 1.547775224266891569e-01 9.139037501935906027e-01
-3.434006362906763532e-02 1.336182577656601644e-01 -8.456488714687002695e-01 -5.862747501983132936e-02 -1.861846975223657441e-01 9.807640274710854866e-01
5.669843430573558163e-02 1.672083713737545219e-01 -8.095407880862245387e-01 -3.898490459313414536e-01 5.017462794100988610e-01 -7.721841700556584254e-01
-1.163490650591668917e-02 3.611001667169880247e-02 -8.934985543013604925e-01 6.087154086176728429e-02 -2.028960422089067517e-01 9.773064266488151741e-01
1.611243628450166263e-02 1.145033475773718640e-01 -8.509453183008701682e-01 -2.390806578804928750e-01 3.582601480892753099e-01 -9.024910555337825047e-01
4.438771812755028939e-02 5.977709141718064167e-02 -9.424178106194920357e-01 -7.464480872632800468e-01 -1.680862681193369401e-01 -6.438650941701258290e-01
3.791292653256161244e-02 1.628352463804180750e-01 -8.131637305211425470e-01 1.615898971594812439e-01 5.240163471392449424e-01 -8.362389449594118673e-01
-5.383715617078806137e-02 1.415786827808793724e-01 -8.439916711387355219e-01 1.267137986439356434e-01 -1.283728886584226958e-01 9.835974861144757275e-01
-6.567514185190970188e-02 1.095081630777433035e-01 -8.355291316905127941e-01 4.746600534374996738e-01 -1.182959300015952037e-01 8.721834134032633301e-01
-4.743579769522652395e-02 -6.788163684493107863e-02 -8.936025105231020227e-01 -4.037121474690167910e-01 4.840696758030573754e-01 -7.763330799044169117e-01
-4.880263752819920947e-02 -2.970290417284542420e-02 -8.692119280115718771e-01 4.221239997126680077e-01 -4.792341439876993126e-01 7.695102105254720826e-01
4.344929525460007082e-03 -1.496149710669408828e-01 -9.941234956311882920e-01 -8.990772037289621599e-01 1.988691750293173077e-01 -3.900144009624114672e-01
-3.976137925050419325e-02 -5.151641577555811369e-02 -8.925361894211617519e-01 7.206100857070869559e-01 -4.305986193496434411e-01 5.434205860946067501e-01
-4.271562503535779320e-02 -8.577654320268637833e-02 -9.119297977460090188e-01 3.668074311367557905e-01 -5.706687427254749645e-01 7.347036780491708052e-01
-3.515403736068074131e-02 -1.350971181641044683e-01 -9.596338845382694771e-01 1.509993998835103268e-01 -6.983605389287218523e-01 6.996368621663704435e-01
5.002251350526701508e-03 -6.567626392418983439e-02 -9.639869820285985602e-01 9.605671231038435121e-01 -6.343870897847238288e-02 -2.707144846792470805e-01
-3.621928785480878904e-02 -3.626003686243029454e-03 -8.736364974929820004e-01 -9.751411334845063728e-01 2.149164366052267183e-01 -5.395085785660665156e-02
-1.473893734900516735e-02 -1.632638095042099058e-01 -9.884326165041734669e-01 3.653413098460710495e-01 -4.041726652000253162e-01 8.385524336766695397e-01
5.687683505690403415e-03 -1.649389783259516962e-01 -1.002690868470736296e+00 -9.985782174598233363e-01 -2.596564978760898534e-02 -4.655457706680601188e-02
5.180337326670611704e-03 -1.435917561804553877e-01 -1.011303270921286579e+00 -9.437839504560420201e-01 -1.028123289505064597e-02 3.304030131698942885e-01
4.499036724531287057e-02 8.156507954402759941e-02 -9.156078648895512595e-01 -9.364966150959549429e-01 2.020965988148905670e-02 3.500937868076116066e-01
5.196374281939591944e-02 9.400436742664436407e-02 -8.842845180062491872e-01 8.853102486202314436e-01 -4.613313879739078249e-01 5.830192242157655053e-02
-5.544140288750699919e-02 -3.065690734578765606e-02 -8.694288400267418115e-01 7.883900997357233820e-01 2.699121278982969940e-01 -5.528005913999273213e-01
3.062584135668403040e-02 7.572685862759800934e-02 -8.662007479915144748e-01 -3.135063244235979929e-01 6.587983188202775064e-01 -6.838849023527141524e-01
-1.887181906384011339e-04 -9.910780121978306212e-02 -9.614314621901315361e-01 -1.405562793067714408e-02 -3.726759306617009604e-01 9.278551018499113789e-01
2.112951143891701571e-03 -1.123086534457894137e-01 -9.944618699582045140e-01 8.204060225981923971e-01 4.346416042922092160e-01 -3.715112836818135200e-01
5.229550358045319952e-02 1.259540252128898696e-01 -8.416050968187440695e-01 -2.160416824439183314e-01 5.784845493872000644e-01 -7.865631681988988211e-01
1.823003588375886330e-02 1.342858555629924122e-01 -8.423569475297562059e-01 2.164344196013869848e-01 -6.372852451293431475e-01 7.396104774489363765e-01
6.157065266859655661e-03 8.884591496264807042e-02 -8.671934717534892645e-01 3.082492366934566075e-01 -5.380660219122416210e-01 7.845172809705572847e-01
5.432674671019418339e-02 2.072275363091274913e-01 -7.903251474851362701e-01 -1.292106211694075690e-01 -2.800097065603723290e-01 9.512618880250538478e-01
5.296029062491898476e-02 1.231826013650707125e-01 -8.467894579366339602e-01 3.171163223931827146e-01 -6.524473011549182244e-01 6.882948185824779852e-01
2.463444162668951970e-02 2.180254732240150331e-02 -9.284717363401374657e-01 8.825535300398548166e-01 -4.219424335986983188e-01 2.075183108619559347e-01
-2.394563931949580948e-02 2.124810191752640742e-01 -8.239034532145587120e-01 7.327722246803149986e-01 -1.665888982694987974e-01 -6.597673875771800089e-01
4.440620825368006563e-02 6.711590525457479528e-02 -9.094186765918980120e-01 -9.419261220199175444e-01 3.155238285715084023e-01 -1.149777989878768558e-01
1.284133740111633587e-02 1.756992227260977257e-01 -8.136193340615857084e-01 3.255670457330893108e-01 3.003093185600971271e-01 -8.965603225207987581e-01
-6.402366608939430437e-02 5.386274588163294380e-02 -8.651566971196467115e-01 3.497920283831854049e-01 -5.243497410401998238e-01 7.763394141421986472e-01
-5.557224973591722711e-02 1.771916909168252119e-01 -8.435425118307596781e-01 -6.776513355250557424e-01 4.267512773652669122e-01 5.988923231501815936e-01
-1.416449717082355697e-03 -8.758590672204474847e-02 -9.846395183064565737e-01 9.219052350228865711e-01 3.756092867025565551e-01 -9.491259863786730144e-02
-6.369589325630813093e-02 9.018829410550571746e-02 -8.457072150705639002e-01 5.469702421016818805e-01 -3.100210633101027069e-01 7.776313358907938067e-01
3.517248896528524932e-02 3.188019064601083086e-02 -9.547426819600747239e-01 9.393120914691593937e-01 -3.403866502852006537e-01 -4.277526303196763774e-02
-2.790121471991512808e-02 -4.289836098646022250e-02 -9.089269899610533665e-01 7.996562141517661315e-01 -2.530093483607912530e-01 5.445513830764848739e-01
6.381870805960963844e-02 1.607139682081046295e-01 -8.205942262649756902e-01 2.867663595575462576e-01 -7.242753217697091017e-01 6.270488922735579784e-01
-1.362098147149967339e-02 6.443734679147962441e-02 -8.741906091789548583e-01 1.038884174972028868e-01 -3.945676001698252833e-01 9.129751396429980348e-01
7.291554662587559910e-03 -5.296869744309551375e-02 -9.611806056153960887e-01 -4.616658566070229175e-01 -2.325535329524958117e-01 -8.560277397109372632e-01
-1.900687427158015072e-02 6.007634873395938796e-02 -8.758890683137453559e-01 1.573131345250389501e-01 5.009737447958150236e-01 -8.510451719686590311e-01
-8.105063631237589133e-03 1.873276619144078059e-01 -8.169525726703094071e-01 2.615167231151878102e-01 3.382821314343998353e-01 -9.039768819407349998e-01
6.658790792157028016e-02 2.247504095572806782e-01 -7.853769188660297829e-01 -2.141711961712118029e-01 2.297202656531942278e-01 9.493994408460635359e-01
6.118785750017791819e-02 2.316485480174725886e-01 -7.878410801898637628e-01 3.491791713921077456e-01 -4.359564611626464137e-01 -8.294672207124660357e-01
-5.834935820345574925e-02 8.218367090086045601e-02 -8.493279724742558434e-01 -3.851067993487941044e-01 1.354664668225994406e-01 -9.128754512319461334e-01
-3.289364074061307958e-02 -1.192578756744546165e-01 -9.429012753257719481e-01 -3.097550416524347261e-01 7.010846774145483851e-01 -6.422866099066963930e-01
1.045505147535579285e-02 -2.257840953099000958e-01 -1.020668947202990839e+00 5.190686645834948765e-01 4.309648249624811189e-01 -7.381307750612795537e-01
-3.828517673279774325e-02 -1.431191751900547926e-01 -9.673634772492539780e-01 -2.197211833109091739e-01 -6.854060118486251518e-01 6.942198502824706852e-01
2.541286938639566485e-03 -1.188004731537872505e-01 -1.003169751132287679e+00 -9.252949694588666896e-01 -2.846865095448619098e-01 2.505649831426534635e-01
-5.367600283044837023e-02 1.263989758393539997e-01 -8.428594345590871839e-01 3.440119870651061618e-01 1.718342566541523064e-01 9.231081957146909378e-01
2.895177718703391065e-02 1.089523110922424876e-01 -8.475358018683993855e-01 1.679618567981950306e-01 3.184404191794656391e-01 -9.329440037288994070e-01
-1.889673643796087321e-02 -1.428851895156524610e-01 -9.753094719631030252e-01 5.464236829351891700e-01 -4.381663007072610361e-01 7.137446683878330145e-01
1.022989912379479796e-02 2.065245524348991585e-02 -8.993472131612302300e-01 -2.551397102056187083e-01 -6.870803744305422622e-01 6.803119044589610587e-01
-8.969744509438567701e-03 1.658486167280443790e-01 -8.237487917032776386e-01 3.283138988932826074e-01 3.874339991197496280e-01 -8.614550946622634431e-01
4.677521839336777620e-02 1.002514217157021714e-01 -9.172328089247683280e-01 9.147182514535073805e-01 -3.222298397047097529e-01 -2.438410360495444906e-01
-1.604855681657647078e-03 9.391530654448861093e-02 -8.601907623202488251e-01 2.301327411473086393e-01 -5.095019015231880832e-01 8.291240762372549256e-01
5.264518633285473342e-02 9.102682827010954991e-02 -8.874705089605369190e-01 -7.840089715468597786e-01 5.385106276985875962e-01 -3.087656658207127980e-01
-2.044150991821027524e-02 3.114278031948286216e-02 -8.946144856788316169e-01 1.602443275082263974e-01 -1.145370397355370135e-01 9.804096195111797751e-01
1.802130434339073916e-03 -1.897020807586346780e-01 -1.012518872954223381e+00 -6.312759421991250841e-01 -3.848758853285054737e-01 6.733210509802927124e-01
-4.346386137741255901e-02 1.215619356510386634e-01 -8.432867212205567009e-01 4.139612038274532307e-02 3.765657755075491053e-02 -9.984329438597372430e-01
-2.697300943002927179e-02 1.476298457977456291e-01 -8.419433005932369651e-01 -3.952404072988457417e-01 -2.164152126832196987e-01 8.927202675852717872e-01
5.491354123870105519e-02 9.529001928572874980e-02 -8.858794061261556774e-01 -8.610801075910043956e-01 4.435090814940394477e-01 -2.486779904683515952e-01
-1.144729514844043325e-02 2.311573912194282987e-01 -8.204850058263823964e-01 6.729612617268830865e-01 -7.139857714815942558e-01 -1.932549050782262634e-01
5.125164848882869358e-04 2.194622724281415638e-01 -8.087264496787561763e-01 3.739507362190935269e-01 5.475843982694003631e-02 -9.258306325397305248e-01
-5.580261461381080812e-02 -6.734036441225306480e-02 -8.936390943854957136e-01 -1.562554736085520757e-01 -5.704216205770793469e-01 8.063519093705834306e-01
6.849451690427400471e-03 2.381585485361014665e-01 -8.048616553131916485e-01 5.520981644823007572e-01 3.561511576834284348e-02 -8.330181152316448179e-01
1.454966052984278235e-03 -1.193914866855034507e-01 -9.753428936957819761e-01 -6.618939087373366670e-01 3.397295700275029806e-01 -6.681917934435727124e-01
-1.528444057636523662e-02 -1.575116238229453194e-02 -9.078804794382361321e-01 -4.576681452273692607e-01 1.104126667421713309e-01 -8.822408468593039288e-01
-4.385319505374624116e-02 -1.070593019622097797e-01 -9.262243204569891031e-01 -2.031179552067656768e-01 5.222991674582032617e-01 -8.282189782570125169e-01
1.259451316947513130e-03 1.507639252896365856e-01 -8.326114518589927682e-01 3.524815798285495239e-02 -5.893573018173191569e-01 8.071031768946428375e-01
2.024925490904768127e-03 -1.498570385688929585e-01 -1.016060869486216545e+00 9.581923523866346937e-01 1.431066496924412144e-02 2.857667242628249005e-01
2.191401812661504869e-02 -1.994508457902877379e-03 -9.654917772083840832e-01 6.410810940066201669e-01 -4.544387140553119986e-01 6.184662368108944097e-01
7.302701364257075008e-03 2.312151549369337589e-01 -8.064867984721060257e-01 -3.612266970575203073e-01 -2.595408285910048019e-01 8.956304101733085776e-01
5.859874240552701008e-02 1.100207962074348927e-01 -8.635820865615447817e-01 -7.882168341994303384e-01 5.286904599491026868e-01 -3.149612989613703729e-01
-3.691347150245062603e-02 -7.080538841779353276e-02 -9.048777207385908516e-01 -6.490353226038150236e-01 3.645634956477680766e-01 -6.677174609470996058e-01
4.929487873524714819e-02 1.113688099046008240e-01 -8.504413978214946379e-01 -4.388182565029664084e-01 4.840124916819708578e-01 -7.570802108465831681e-01
3.382754076237275837e-02 2.040524230030655584e-01 -7.957255475851761073e-01 -7.820373682331224208e-01 -1.042431290023795448e-01 6.144517269426502670e-01
-4.723165482294604256e-02 -1.267187531916867949e-01 -9.502145107471469121e-01 4.408330608585435129e-01 7.604077146397791864e-01 -4.769133254275831901e-01
-6.212146541277055456e-02 8.322241001551701489e-02 -8.471403480922413687e-01 -4.651396256613993252e-01 3.339475312031656151e-01 -8.198317967991263222e-01
7.005406274434940184e-02 1.928587885709633631e-01 -7.949842363002002088e-01 -1.022488110420518709e-01 5.819512072618304721e-01 -8.067700868320444307e-01
8.082855854214525404e-02 1.686109912769469255e-01 -8.222739966126092481e-01 5.438811361715958359e-01 -7.195277083214255409e-01 4.318254122610336587e-01
-3.841149159454609191e-02 6.351552614735037072e-03 -8.572106294779296976e-01 9.364939902889048984e-01 -2.414721724226432942e-01 2.543033544769974785e-01
3.387598929910712320e-02 1.970587197754970488e-01 -7.985144018401006960e-01 -5.329872351192552760e-01 -3.147804220600179947e-01 7.853902807443243761e-01
-7.470899909225828250e-02 6.477671356331413111e-02 -8.560825977379492580e-01 -5.481331480381603782e-01 -3.988265322890156006e-01 7.351785151676393237e-01
-5.648729880656636754e-02 1.639769634838732504e-01 -8.404075805331043814e-01 1.513713074150907500e-01 -4.775966336753166563e-03 -9.884654356309057199e-01
5.650264645632225961e-03 -1.550533071375975736e-01 -1.010340584120704932e+00 -9.577934408008265121e-01 -5.340207691995543793e-02 2.824534349933610078e-01
2.030180790581833511e-02 3.604480200434508150e-03 -9.400669601510937001e-01 -9.721322500096516439e-01 1.260108856780912390e-01 1.976869878919576828e-01
2.653245301129826626e-03 -1.090321341806037153e-01 -9.686319344260644337e-01 -8.455005168617467648e-01 3.341336296497838809e-01 -4.165136174527552804e-01
8.147555559499364275e-02 1.624860069126593531e-01 -8.306822083986971084e-01 -6.280345754051269713e-01 6.993608658331719186e-01 -3.412725471478446071e-01
2.541895179408396391e-02 1.686978667772806306e-01 -8.136399459400120993e-01 5.062046984078868439e-01 2.397278579784130059e-01 -8.284246238607722024e-01
-6.214035696219923771e-02 1.180669075403255885e-01 -8.378506293021360518e-01 3.257781332947554676e-01 1.096937014587050924e-01 9.390611799703323381e-01
9.148647805658728302e-03 3.832986648495360221e-02 -8.924592303032182761e-01 -6.406890905753420684e-01 -3.732785330457301098e-01 6.709550104030590489e-01
-1.454969835407804099e-02 -1.326114013235826228e-01 -9.706489524984132089e-01 4.999914978402531518e-01 -5.499085394771769941e-01 6.690359484344156060e-01
1.778012468639517812e-02 2.315695971182135937e-01 -8.017965723597992866e-01 2.052927847846501910e-02 1.501585498732249668e-01 -9.884487637834969975e-01
6.077412503385532655e-02 1.085693191486670206e-01 -8.920041476193186769e-01 -9.465995341827181386e-01 2.547353349190190075e-01 1.976340836717091765e-01
-7.540415597587342422e-02 7.711391696075181601e-02 -8.488454284136849326e-01 -8.519116120916037094e-01 -2.520296534899959529e-01 4.590508239238848542e-01
6.780377509393148948e-03 4.696372395764251105e-03 -9.042485663150359176e-01 1.864426771610015188e-01 3.424156804605444915e-01 -9.208640670086875035e-01
2.420153300964520207e-02 1.079107848940282083e-01 -8.490479173089502396e-01 2.277870660596863217e-01 2.533712849086694474e-01 -9.401680937575206398e-01
1.366668353795260846e-02 5.773033832103368485e-02 -8.777672680746555489e-01 4.001242492223920366e-01 3.977973867069698466e-01 -8.256257168434875116e-01
-2.532446990943310050e-02 6.418916342550648468e-02 -8.760146571148345052e-01 -1.622932689291534669e-01 -5.524663117611634533e-01 8.175829433331559537e-01
-5.992779321736539655e-02 1.567759892744288175e-01 -8.424179381063230387e-01 4.277165908909754538e-02 -3.441485535360773451e-02 9.984919643691461122e-01
-4.757264303175411102e-02 -1.144354415107473773e-02 -8.568874190502502319e-01 3.230595653634277947e-02 -5.076188036107504020e-01 8.609758854887064050e-01
-3.913183388332604207e-02 -2.445927646655989690e-02 -8.784628031872894205e-01 -9.745693895682312480e-01 1.614321799744816988e-01 -1.554160744108915304e-01
-1.428040474703925859e-02 2.169357172516182819e-01 -8.159986100650974405e-01 6.755818734454985819e-01 -5.446614599820872454e-02 -7.352704068653738156e-01
7.170425759011145317e-02 1.379245904268709688e-01 -8.552196087574219785e-01 -8.877081596636661187e-01 4.364668549526461994e-01 -1.465295458066142587e-01
4.268942376598119232e-02 5.307260782441550195e-02 -9.421877287175708382e-01 -7.430705475025907170e-01 2.905632171996130886e-01 -6.028425816453334418e-01
-4.097964390539764537e-03 1.484188989859322738e-01 -8.339336091642015614e-01 4.979468688071850974e-02 -1.418071668446083955e-01 9.886410959443050483e-01
