-3.751876997861838814e-02 2.300404475048752340e-01 -6.233726937980800242e-01 -6.869476659881565972e-01 -6.676773748130955255e-01 2.868968932493295987e-01
-4.278710752543327112e-02 2.392862097914906783e-01 -6.142301373944690779e-01 4.978580286017628143e-01 7.463519955779973625e-02 -8.640410698246545618e-01
3.099574449073212376e-02 -1.393462291829081212e-01 -8.374689633635400421e-01 5.716009553179307590e-02 -2.999642367005954102e-01 -9.522364098160840395e-01
-3.834922296770949118e-02 1.533706141581312188e-01 -6.712646907511422567e-01 -1.033058531099074057e-01 2.438008787748275896e-01 -9.643075402701440924e-01
4.183227654630970738e-02 -1.537253801704572403e-02 -8.117594103357670399e-01 5.449319569698666266e-01 -4.664556673881693483e-01 6.967555329055156177e-01
-8.493481362915322741e-02 1.856291744860966431e-01 -6.480780172787926618e-01 5.829695114719274374e-01 -1.891292240830451943e-01 7.901750978687746008e-01
1.673735958693526107e-02 4.845805273027981031e-02 -7.215985509025074629e-01 1.028816832542513576e-01 1.629947705212965725e-01 -9.812482173402821140e-01
4.953390086384135832e-02 1.206918502242354668e-01 -7.039084976479524913e-01 3.672506357470738947e-01 -4.552822949238184980e-01 8.110764467497937336e-01
-6.473348123867979365e-02 2.012923579093295334e-01 -6.489359208131980639e-01 -2.356520833335606357e-01 4.585332149919967848e-01 -8.568636918259845414e-01
2.252006707005161507e-02 1.685335552365852807e-01 -6.558870750394261151e-01 -3.378945117232380335e-01 -5.145463782508189476e-01 7.880795160237830110e-01
-3.402761683559689387e-02 7.823998268196340200e-02 -7.055118755823364118e-01 5.521124900319357431e-01 -4.644860695058607991e-01 6.924048595913608883e-01
-4.183604877006696227e-02 4.706466504559993214e-02 -6.616583456948658126e-01 8.839486266559797301e-01 4.527700375345615202e-01 1.167652283171632943e-01
2.941672514238720046e-02 1.851670703419382169e-01 -6.314096611591998309e-01 6.143185591755024877e-01 6.853409685303852861e-01 -3.910504631200020786e-01
5.307932308642982627e-02 1.492129831170386500e-01 -6.614832459163946243e-01 -2.298942508606316160e-01 8.750315044752591254e-01 -4.259911966191245458e-01
-3.475055987944496855e-02 1.511574250575155876e-01 -6.723100045596090979e-01 -5.681350019256538320e-02 2.969035702129852461e-01 -9.532158707190372393e-01
2.925727453146946544e-02 1.223310753860707041e-02 -7.682574521728843253e-01 9.129548514128529302e-01 -3.548962106669199534e-01 2.014003945775604820e-01
-4.214365327298127961e-02 3.986745803376763597e-02 -6.773515709080903946e-01 8.590542514055085066e-01 4.535784073823320717e-01 -2.372602400290209634e-01
-4.825238661551947694e-03 -2.223846836595598508e-01 -8.577276645583404857e-01 -4.222778171778924228e-01 4.627576151214413680e-01 -7.794464925616065853e-01
1.212268605196865218e-02 6.315467351645785710e-02 -7.192634644972853986e-01 1.645155507310729348e-01 -3.728808736787389000e-01 9.131782343070996566e-01
1.491728361093581055e-02 -3.458668959135825088e-02 -7.806669118676760055e-01 -5.005701157263147127e-01 4.920464208225622249e-01 -7.122639110592713374e-01
-6.785323043038823942e-02 1.471419696281633660e-01 -6.614072407357605154e-01 4.107254022582710884e-01 -3.518098783897423421e-02 9.110800963880482106e-01
-6.529809118130511236e-02 2.163824936880647809e-01 -6.401605527003760843e-01 2.015920161335658847e-03 6.051117268738491761e-01 -7.961380119462022620e-01
1.603335884014678303e-03 -1.323294354755510382e-01 -8.149572811303578135e-01 7.609569805865323833e-01 -4.934375993952581640e-01 4.212645358912526228e-01
7.199173563471606731e-03 -1.306950406597054935e-02 -7.642035613061434196e-01 3.458690749224505590e-01 -4.813084056464562721e-01 8.054295758577247888e-01
5.135346198036360582e-02 -9.275899913272704633e-03 -8.117059468102545416e-01 -1.105086797868848753e-01 3.667941935856583457e-01 -9.237152435916634596e-01
3.451197791289882522e-02 2.033470144047943087e-02 -7.774602289542668077e-01 9.963077861077822561e-01 -3.126113417518568138e-02 -7.995959499078836297e-02
-6.268342952953824543e-02 2.287896391278086694e-01 -6.227354057249783192e-01 1.773720327689705112e-01 9.771462388917685482e-01 -1.171511408867795118e-01
-1.745779022530309990e-02 -4.492703944136625799e-02 -7.020427437658346426e-01 -4.614206358450893553e-01 4.981557906994333318e-01 -7.341197484122978789e-01
1.520736770848940371e-02 1.205278601642034569e-01 -6.913107972474193952e-01 1.296946466153200694e-01 -8.231979585654828346e-01 5.527426341914912777e-01
3.429596537531574840e-02 1.065573790147925359e-01 -7.075161394499910328e-01 3.951618972484389758e-01 -2.940575671510727296e-01 8.702742223944166522e-01
5.834922545634523873e-03 -8.530668682180955753e-02 -7.984039565309821729e-01 -9.961837656671201913e-01 -8.333759813889284052e-02 2.593742002814629702e-02
-6.210125548187419436e-02 1.191018170469976128e-01 -6.716858225490458523e-01 8.499883294715218085e-01 -2.325462522217016936e-01 4.726966049590924368e-01
-6.433577640981831547e-02 2.216107449442652200e-01 -6.378561752820151032e-01 -1.985220409342981218e-01 -5.371912661973652359e-01 8.197649314190942338e-01
-1.952091815186955898e-03 1.416948592408191210e-01 -6.726544179651610111e-01 -3.279657739958363044e-02 5.227799066713126885e-01 -8.518365768688302975e-01
-7.037217765743476738e-02 1.157792955051894640e-01 -6.575949631513823279e-01 7.832820452114315213e-01 5.633673312978247916e-01 2.628430856533303106e-01
-1.177644988477149005e-02 1.506392529875626440e-01 -6.680198703154599515e-01 5.637605623639160152e-02 -3.283939716351784166e-01 9.428569030753845004e-01
-3.049782077887991730e-02 1.837676591501516410e-01 -6.559822838891116170e-01 3.887870671193786043e-01 4.850716703928370510e-01 -7.832943833725699578e-01
-6.080070182603650175e-02 9.118195748345363227e-02 -6.377868244949177479e-01 6.885190072101221581e-01 4.279404908203253699e-01 -5.854985166734811841e-01
-5.567495450006843677e-02 2.288903377189863420e-01 -6.134881880704746715e-01 -3.394169978178270819e-01 5.152157251646236613e-01 -7.869872032856851662e-01
2.603462529270735015e-02 1.630968970742955604e-01 -6.580294667314923185e-01 -2.913754456699660378e-01 -5.954644238954035496e-01 7.486804856115482076e-01
-7.007188909516678249e-03 3.485011110513466792e-02 -7.247907412056943111e-01 7.240223246359073217e-02 4.128832121102402053e-01 -9.079016300744363610e-01
2.631877904041893951e-02 -6.078594430679160054e-02 -8.134480527033799424e-01 6.703354980992266565e-01 -4.181013991716526212e-01 6.130591651698619193e-01
1.553164752322690016e-02 -1.596692330301849316e-01 -8.420760069668327130e-01 2.673253078678908268e-01 -3.824448898598267754e-01 8.844620319682707787e-01
-3.379748772845847515e-02 1.232468475786113390e-02 -6.682609494218362256e-01 9.137680245324356632e-01 1.814782405258674042e-02 -4.058308192144190474e-01
4.133360119590122513e-03 -1.417809801864737262e-01 -8.234671717293376991e-01 5.337276442421280409e-01 -4.713745122963932666e-01 7.020974796487208236e-01
2.347640874554211485e-02 6.807653125410584316e-02 -7.170791649744516771e-01 -1.419169655387520490e-01 -3.983311055802946643e-01 9.061963943977335845e-01
4.360341924811161202e-02 3.075057384431740745e-03 -8.039373988247457969e-01 -3.532033473529399559e-01 1.655286929816918162e-01 -9.207864286676097354e-01
4.046637144462889024e-02 1.698531871557984740e-01 -6.259267766435258062e-01 -8.598633755603093606e-03 6.814597400755184609e-01 -7.318050875429495949e-01
2.895624381595319694e-02 -7.898665663986208230e-02 -8.241662444212370930e-01 6.924820667858525569e-01 -2.013536683496528201e-01 6.927664017705622568e-01
1.209045838360546868e-02 -1.398278083837762586e-01 -8.277013141264664142e-01 5.009268960298884910e-01 -3.594855221086513675e-01 7.873007076258292658e-01
-2.177813834896913381e-02 8.580970647917257610e-02 -7.043123882257930068e-01 -1.473258709620443030e-01 -4.727187948591510258e-01 8.688106978693269644e-01
-2.440859657366772906e-02 3.511903157474289411e-02 -7.257088482030338294e-01 7.710059804317100918e-01 -5.514831170826869911e-02 6.344355301007856829e-01
1.107739470849613238e-02 -1.471693036515165851e-02 -7.676794258986745501e-01 4.146344842834426281e-01 -5.301781894523068805e-01 7.395872713020938960e-01
3.071569735260327658e-02 1.786867636935834114e-01 -6.395177986191359354e-01 4.064090457635178288e-01 6.805753422838684008e-01 -6.096301263854848607e-01
3.332689411502444410e-02 -1.068021778405028599e-01 -8.322417699644283351e-01 2.593364280857017312e-01 -2.602731652721808620e-01 9.300551040163961281e-01
2.814256537642033113e-03 -9.466399984275609969e-02 -7.425019575041080788e-01 6.073436496554542874e-01 7.355498144292431650e-01 -3.001668897735044750e-01
3.559310662571694289e-02 3.092201150865694914e-02 -7.849600532567287958e-01 -9.580001284954053897e-01 -1.404894447707447092e-01 -2.499969394028551117e-01
-7.003649391296112858e-02 1.261760687935589986e-01 -6.559698420256298013e-01 -9.207425833564540918e-01 -1.723705197024202884e-01 -3.500307116977030564e-01
1.233066853476925094e-02 1.863121887000961652e-01 -6.417983450986154415e-01 2.293051139211833844e-01 5.430049658837092785e-01 -8.078148127852229354e-01
7.281644622404614964e-02 8.971888334167398005e-02 -7.292119212644028181e-01 7.057962099526658983e-01 4.770342839067959195e-01 -5.237270300394880618e-01
5.416641663291278663e-02 -3.600230230233620460e-02 -8.188366555645971712e-01 -1.768372092163909490e-02 3.785228304381402231e-01 -9.254230129251511672e-01
8.688203590934910625e-03 5.917276967964942708e-02 -7.182125317877702253e-01 -3.571354271734319408e-01 2.339690407581269255e-02 -9.337595362497335127e-01
2.756712461340132814e-02 1.405471562673986374e-01 -6.708861550937218476e-01 -1.402742468508232643e-01 -6.532229121540967798e-01 7.440584403844602290e-01
-8.571096017765537575e-03 -2.117452142726886435e-02 -7.569884120949739170e-01 -8.408705798015131405e-01 -9.751326618855107875e-02 -5.323794050688925861e-01
5.841175933164219347e-02 7.968773748783966604e-02 -7.302029980428330624e-01 6.833932643533520146e-01 -1.675807842382042168e-01 7.105563503273879533e-01
-2.189531016379274789e-02 9.591353001204364070e-02 -6.962431398752487732e-01 3.263590571801651408e-02 3.687098832282558747e-01 -9.289714310288398336e-01
6.714978393271781379e-03 1.102108762341733883e-01 -6.948734091668035129e-01 -5.233764184315808921e-01 3.875875521135953572e-01 -7.588497967821575818e-01
-1.208213515611427681e-02 2.138556766428669018e-03 -7.472154332384588482e-01 5.833350328949862273e-01 -2.309264901110338886e-01 7.787125243389911855e-01
2.399461436686036245e-02 -1.576560374926525565e-01 -8.415960298337624712e-01 -1.688890244176052269e-01 3.321294936653848007e-01 -9.279905693857264382e-01
6.592823385634574707e-02 1.084476917637391541e-01 -7.203475067299324186e-01 -6.598472946790645555e-01 3.677442405842601958e-01 -6.552600409164484052e-01
-3.343911394658142383e-02 1.778066117819059738e-02 -6.745659951364227913e-01 9.989187597678663710e-01 -1.576306668504806260e-02 4.373599332941348339e-02
-4.643125257132595107e-02 7.551397044638340217e-02 -6.920769429213009527e-01 8.189647614224898620e-01 -9.051835218621134480e-03 5.737724146622763532e-01
-3.144393426021690335e-02 1.834436878271237803e-01 -6.584522501771389313e-01 -5.060591039073072256e-02 -5.687170483037861102e-01 8.209750061982120650e-01
-6.881128028721276990e-02 1.741735091714162187e-01 -6.574795538125091099e-01 -3.160240756874614365e-01 2.676547947830015262e-01 -9.102140926263200260e-01
-4.052514398224181524e-02 9.604222975315328259e-02 -6.927399955490661787e-01 -4.438970224264483511e-01 2.105372778128890010e-01 -8.709933915547646288e-01
3.608001864357739119e-02 -3.627797595221769061e-02 -8.156080267615839485e-01 7.868009982729893270e-01 -1.990855406160959851e-01 5.842166863709253866e-01
-5.345283252032408117e-02 1.033571975857114217e-01 -6.836155228539102513e-01 7.439505104227900345e-01 9.750527743903546554e-03 6.681635767163497386e-01
1.055671725531549116e-02 1.682270421325221255e-01 -6.600159653988590946e-01 -1.656520747589934339e-01 -3.546032525928114465e-01 9.202260175514707097e-01
4.659275228169753452e-02 5.406996513978668678e-02 -7.325587702194882311e-01 5.960675281547804794e-01 2.240556548978464291e-01 7.710399246392803940e-01
-6.774234751745264460e-02 1.302040324313404884e-01 -6.593244079242918110e-01 -8.521468715341249389e-01 5.744036784865779594e-02 -5.201406670084685047e-01
3.141317485552037186e-02 2.019473927739896119e-02 -7.666503717722612521e-01 9.790674357462131328e-01 -2.031112399484646391e-01 -1.314459843175686156e-02
6.742167551120900604e-02 1.341269793786884490e-01 -7.013503264175146024e-01 2.066398209551733867e-01 -8.904922699138662079e-01 4.053683530065760876e-01
-4.417586271468913750e-02 1.585197755884791004e-01 -6.711607730756845580e-01 -1.180338299993003298e-01 -4.152573903166956182e-01 9.020140324646084284e-01
3.392034305492495211e-02 3.571274420818658368e-02 -7.701462577928862574e-01 -9.196288348143828451e-01 3.795347192165832856e-02 3.909505597221116235e-01
-1.499978922435056192e-02 -2.327460397915447343e-01 -8.647492640048151102e-01 3.085691103731988405e-01 5.483371905213110242e-01 -7.772460547437267664e-01
3.801904948388404315e-02 -4.250865390570868901e-02 -8.175221667176971740e-01 -5.384102464176754310e-01 2.727755917789147500e-01 -7.973129141573721546e-01
1.093983720092340899e-02 6.536955671850712760e-03 -7.478493399706485079e-01 -2.021865276011974855e-01 6.897935375649296708e-01 -6.952017574706136349e-01
-3.458007968113776566e-03 -1.466850417422931596e-01 -8.008270286327775489e-01 9.482762207228868645e-01 1.024437895606159082e-01 -3.004621094114514057e-01
1.424438048103922327e-02 -1.751455226515797048e-01 -8.493413882794744740e-01 6.297632974818248575e-02 -4.608679523464688232e-01 8.852314456634609030e-01
-4.108749959609383356e-02 4.306921235205748988e-02 -6.698001701054923096e-01 8.093145903279838071e-01 5.795500213224457076e-01 -9.555975443354867982e-02
3.162203112374858960e-02 -5.722793534754874387e-03 -7.902920985683753452e-01 9.263803925113021087e-01 -8.518902998147295791e-02 3.668272039277097329e-01
2.923724113564194621e-02 -5.062700965044045209e-02 -8.119187677430269590e-01 5.473222573305975835e-01 -4.208765594131724241e-01 7.233956513327056692e-01
-3.570554259613265002e-02 3.540629746649595622e-02 -6.636305269404181306e-01 -9.642644772378643481e-01 -2.296024551095196820e-01 -1.321995860238193155e-01
3.336100390621761502e-02 9.944863444994136992e-02 -7.069275261634468954e-01 -4.084240338913250890e-01 1.111788455696272188e-01 -9.059961770547063642e-01
3.342170307193632200e-02 8.540449691350103512e-02 -7.095517294040990519e-01 -4.230043461171700825e-01 9.673213466714331021e-02 -9.009496197283859420e-01
-4.975187684521056863e-02 1.429341806048042562e-01 -6.738734084863641227e-01 8.691414755946398618e-02 2.102664960628882196e-01 -9.737730390534783398e-01
1.019494469732834703e-02 -1.401816310967710644e-01 -7.817263819487040299e-01 7.377377864704018351e-02 5.157710281177312339e-01 -8.535441852291631992e-01
-6.424258905776000783e-02 1.044014309846632016e-01 -6.374481376238960717e-01 -6.493680974252452609e-01 -4.563460093081395108e-01 6.083332917364071557e-01
-4.397173643902697188e-02 1.019702223106382505e-01 -6.917645478222445021e-01 6.286181462337329107e-01 7.395775085512609759e-02 7.741895616153167126e-01
-3.440470160664334948e-02 2.043083664699610336e-01 -6.448011298815028436e-01 6.570647282269623801e-01 4.755454923595390793e-01 -5.849123247261522884e-01
1.183006327079491431e-02 -6.725745807173839907e-02 -8.008727123645714707e-01 -5.761884275740780659e-01 3.617766875767285395e-01 -7.328877978624843692e-01
5.707765421575480835e-02 1.556237060930515947e-01 -6.556009914892375612e-01 -3.272717763492413168e-01 -6.920247366859985094e-01 6.434243919994693250e-01
-7.417580579476559799e-02 1.488499451984630628e-01 -6.553002325366228398e-01 -6.924613070517648961e-01 -1.704805543281700531e-01 -7.010233368669841481e-01
8.572715626276015272e-03 1.970091103701351876e-01 -6.351725962814555038e-01 -3.229991008513316553e-01 -6.644946356508503182e-01 6.738831204596795743e-01
-7.948209150535839873e-02 1.568012242123652811e-01 -6.541134296278396931e-01 6.246398387135680963e-01 1.107212516552228826e-01 7.730238523640705628e-01
3.186581942582701610e-02 1.572480441633313519e-01 -6.594170584434427829e-01 -1.977857859059160006e-01 -4.797896801680820444e-01 8.547997693599296287e-01
-4.357033253287692642e-02 9.813111018418688158e-02 -6.903363189960620705e-01 -5.933889400639362766e-01 1.594810353031342331e-01 -7.889584052334054354e-01
-4.076864669375061118e-02 1.205222899979933315e-01 -6.832191756623297030e-01 -3.898473027797684232e-01 3.175346395254194931e-01 -8.644020090309839643e-01
-2.953819254492372811e-03 -6.726693993880092370e-02 -7.458440353763520214e-01 -6.142084150057882663e-01 -6.502481253575097542e-01 4.471301806019376546e-01
-2.076042153018700653e-02 1.515762295814544192e-01 -6.667518329962979218e-01 -6.326149843740502821e-02 4.264088300540214149e-01 -9.023156279636382893e-01
2.564351662585047896e-03 -1.401146759332551062e-01 -8.215684424368173699e-01 9.525371386351259018e-01 -1.488951416810314343e-01 2.655244551912172568e-01
-1.657969621126985718e-02 9.797101816821018883e-02 -6.942659600817292498e-01 4.939700284923532192e-01 4.937771131236887157e-01 -7.156659650329193489e-01
7.483457545680186149e-04 1.768273787003360464e-01 -6.557238500103516055e-01 -2.239734178278308674e-01 -5.273658165155759026e-01 8.195859952911467294e-01
-2.789928828766176459e-03 -2.149063416794401160e-01 -8.572676661208638027e-01 -8.029430858221727751e-01 -1.300974216294126795e-01 5.816846755895719312e-01
2.105268995635189988e-02 1.940982505823384274e-01 -6.112185601573350002e-01 -6.937109433804961684e-04 2.086303658481652723e-01 -9.779943196211251522e-01
-3.326625655747520675e-03 1.572994766819775792e-01 -6.662230514336930920e-01 8.010864122877470184e-02 -3.688472304665296186e-01 9.260314930809049327e-01
-9.645497250292353955e-03 -2.073034434597386955e-01 -8.604815570977554229e-01 7.939615687543829514e-01 -3.223961372825128180e-01 5.154471437561707337e-01
5.234622083929116321e-02 -2.888365973553218974e-02 -8.179575755205897858e-01 4.275209446162270277e-01 2.607705071535723618e-01 -8.655776016703052855e-01
-1.019578176623451432e-02 -3.601112202312976851e-02 -7.418070228361408613e-01 -9.920779007072967337e-01 1.249005743363994919e-01 -1.346422885429270078e-02
-4.943926504019906937e-02 6.454753511496641449e-02 -6.447379744783374722e-01 6.957472106979125659e-01 6.334267610747850163e-01 -3.386832696788864006e-01
1.592056290038813826e-02 2.000634300514942121e-01 -6.270754347160054643e-01 -4.745486526871752764e-01 -6.611567693723231498e-01 5.810983587534380712e-01
2.121439128784290227e-03 1.648270905734747771e-01 -6.609168829624643138e-01 9.261456661623175546e-02 5.427330377384720350e-01 -8.347834400595508519e-01
-1.080649917930747751e-02 -2.232111433342817974e-01 -8.587015396411890045e-01 -5.251095799109291307e-02 3.938393008319576172e-01 -9.176781594933227648e-01
1.928367685940593143e-02 1.021918415238894512e-01 -7.021825505217418328e-01 2.621817714844796865e-01 -1.879506971600822807e-01 9.465385645277740734e-01
3.011394490731303386e-02 1.160064731531922078e-01 -6.975582817818158921e-01 -3.193579537891285680e-01 7.675964193779600819e-01 -5.557033689926269560e-01
4.077276546880644059e-02 -5.148369045343235972e-02 -8.219475499631073712e-01 -3.726498643275994449e-01 2.562227386124885098e-01 -8.918979688476356138e-01
5.333334577993103370e-02 8.465117596689490653e-02 -7.210437031993078838e-01 -4.790031582785580500e-01 3.328177241523343488e-01 -8.122735603534237958e-01
6.873780775850449332e-02 7.196291008975749803e-02 -7.353925746196890989e-01 -3.317432895746971755e-02 3.275978911254494585e-01 -9.442346560195615801e-01
1.646367437695472891e-02 -1.654588066187956119e-01 -8.431933754277165516e-01 -2.708788383886314155e-01 4.085311633341212612e-01 -8.716231659943964871e-01
-1.493895875353231338e-02 -5.228508021275557471e-02 -7.129620354477858024e-01 5.924686231754019428e-01 -3.260701457498834110e-01 7.366540508293519807e-01
3.092750918100053981e-02 4.719227211002114536e-03 -7.758689196467157823e-01 7.487083764341962988e-01 -3.041987583762681968e-01 5.889812241995552311e-01
5.421449145090139615e-03 -1.370193747062832812e-01 -7.850961455180482940e-01 -5.830901686056295663e-01 -6.677321419197517205e-01 4.627522468046147419e-01
4.111863831949698345e-02 1.772114939736311734e-01 -6.324849684141624628e-01 -6.980617260035631988e-01 -7.120528167878032999e-01 7.543615044182276630e-02
1.245065663794117303e-02 -9.988635997143498896e-03 -7.622427670641713782e-01 -3.410755135786170400e-01 4.821209793884940753e-01 -8.069862794809846696e-01
-1.948262640693806036e-03 -1.624233656062288311e-01 -8.308656943816371543e-01 4.472576854179227124e-01 -5.489780800425937413e-01 7.061045464145871975e-01
-4.837257426086764367e-04 -1.413881533300866133e-01 -8.129999561557765819e-01 -9.022919845521524262e-01 2.734272900136954787e-01 -3.333267041338048298e-01
-3.867112008266617579e-02 1.716766469070325485e-01 -6.637160026790844825e-01 8.684142162241395568e-02 3.760497433532322131e-01 -9.225210881137440033e-01
-3.239696693696720448e-02 3.409143297133427480e-02 -7.057249058032818434e-01 -8.215215574294224554e-01 1.016825875241611776e-01 -5.610374159297464303e-01
-4.572741566521578566e-02 6.787984519721279586e-02 -6.888135919728439749e-01 8.066534072528296351e-01 3.129614000203209123e-01 5.013635833052907387e-01
-1.756364391585118687e-02 -1.513758951880660522e-02 -7.413144662859647571e-01 9.923301381423362821e-01 9.386757329013128981e-02 8.043491542255548632e-02
4.022153703810669306e-02 1.481063855430017062e-01 -6.633949051047184353e-01 2.402247162447529102e-03 -6.537310283508733777e-01 7.567231804166435483e-01
-6.074011404604726105e-02 1.203168609294168745e-01 -6.733120910727409258e-01 8.039585629566042835e-01 -3.654905996391806799e-01 4.691132599108064349e-01
3.410277571331190444e-02 5.015625670215485832e-02 -7.811998716510980545e-01 -8.835761121360961035e-01 1.386222846563419167e-02 -4.680823567326882761e-01
-3.200537752711668862e-03 -1.904391390415988150e-01 -8.554672857304291833e-01 6.504856918865232762e-01 -6.392239165257707079e-01 4.101964763285584903e-01
-8.758570452345014121e-03 -2.209364780611164092e-01 -8.656038135741346284e-01 -1.650736681982522547e-01 -1.459879450244258858e-01 9.754169385319891861e-01
2.357509361262522321e-02 1.753157934653780947e-01 -6.499942035509786997e-01 -2.379622171243955808e-01 -6.439165341120006714e-01 7.271488708087435748e-01
-6.354362817042567835e-02 1.221923099309142613e-01 -6.662561148389439802e-01 -8.334870072159613619e-01 1.102088433900308140e-01 -5.414364409982133086e-01
-5.794902416422563485e-02 1.004719987121791974e-01 -6.749884439576667727e-01 -8.566874315876156221e-01 -7.763535907301713501e-02 -5.099601901927424130e-01
2.065731732377323882e-02 -2.505608345289694547e-02 -7.792804210750691185e-01 -8.270625092882286644e-01 4.004759970223221166e-01 -3.944446495249184226e-01
-2.373916243802366363e-02 6.256806931041970776e-02 -7.143582885640208380e-01 -2.511085855168580516e-01 4.039485093391094184e-01 -8.796420181428545870e-01
-3.114154578086321054e-02 6.054941570418553853e-02 -7.101989472440066731e-01 -6.484361516460073194e-01 1.429360326052336594e-01 -7.477297959969174679e-01
-2.469221241517791099e-02 -3.598419772898730357e-02 -7.045081780495640045e-01 8.889056676986295535e-01 -7.013519539646719848e-03 4.580365973117438427e-01
-3.675807261978275564e-02 3.211830298550690660e-02 -6.886501842737025036e-01 -8.232504796632389432e-01 -5.436991080153086298e-01 1.632480556625550694e-01
2.694915750840514226e-02 1.907188044439011576e-01 -6.213509727199937327e-01 7.244176730214797466e-01 6.753681448092820894e-01 -1.381915481895072961e-01
3.825594341831880379e-02 1.651406681250179864e-01 -6.488681265051029490e-01 3.948477631584983993e-01 5.065325737128743011e-01 -7.664985294810041649e-01
2.006182443900037318e-02 8.419542130162543936e-02 -7.082832135711314425e-01 8.028295443532569629e-05 -6.113871832550079599e-01 7.913316028733812235e-01
-4.686632106823528793e-03 -7.888892881030636073e-02 -7.368646930301164799e-01 -8.529902165702661909e-01 -4.929623613496538770e-01 1.714520362316638014e-01
4.656056792964884811e-02 9.213703012311080798e-02 -7.162846562460817301e-01 5.914587754642307571e-01 -1.790496363824121140e-01 7.862046455202859052e-01
3.003330619288091183e-02 1.297983544301258840e-01 -6.818631996090691594e-01 1.081752695093244655e-02 -8.027552269643926097e-01 5.962105556697333553e-01
-2.247073641474836569e-02 1.301869406651810501e-01 -6.768828934259719654e-01 4.089648483378518495e-01 4.865714937152587627e-01 -7.720077294481575425e-01
3.630318290098389494e-02 3.902074894389346606e-03 -7.929284716699910307e-01 -9.346806127139708487e-01 2.367331148188259460e-01 -2.651972559526449280e-01
1.093106873380334833e-02 -6.915374223562405220e-02 -8.008826679605476340e-01 -6.416444948339347087e-01 2.405933241021586677e-01 -7.282905976646810720e-01
-8.225169362883205312e-03 -2.465659895698010372e-03 -7.490076557088747311e-01 -4.719416651408509522e-01 1.659520562684777822e-01 -8.658700709253926986e-01
-3.675390760690721431e-02 3.406613713496231544e-02 -6.645827607185772479e-01 9.606422852210639851e-01 2.098278752487764687e-01 1.820402774493489195e-01
-2.854487053594307114e-02 1.704026426396657856e-01 -6.625964608498107200e-01 4.471863865093513302e-01 3.827223749268919284e-01 -8.084231067028135875e-01
6.944291317860873392e-02 9.934299178548730569e-02 -7.285401122528086804e-01 1.393508932747060669e-01 -4.040369443175353958e-01 9.040660795373810510e-01
6.549919643481151577e-02 1.444004752457289653e-01 -6.715439178272584186e-01 -1.991749714769793234e-01 9.032895773947979823e-01 -3.799964080186437609e-01
-4.006807607628735945e-02 4.250351853248106326e-02 -6.589165680815081139e-01 8.582597853677986777e-01 4.795228422978106697e-01 1.828879015546110431e-01
-3.711698271395053039e-02 8.667902646150923984e-02 -6.985624784914113983e-01 -6.499329229192415402e-01 3.130514041489898536e-01 -6.925214899669158708e-01
5.200306124937398994e-02 1.249482743059836254e-01 -7.012211608134109042e-01 5.031622414228995588e-01 -6.687578566099980915e-01 5.473487809693969863e-01
-1.232667952883710789e-02 -3.229532794314975142e-02 -7.467809811460425218e-01 8.997482737379152162e-01 -2.136164999929917596e-01 3.805535899664931332e-01
-8.131800327113389293e-02 1.824705593412218607e-01 -6.513217595348115285e-01 4.995131837314431000e-01 -2.827529911462831058e-01 8.188634350588060995e-01
2.573660440347429190e-02 -1.324168535420262860e-01 -8.333952640336129702e-01 -4.775745934935725634e-01 2.038279553190970872e-01 -8.546207768828728568e-01
-2.065569821694188818e-02 -8.639584423671442179e-03 -7.163896161840396237e-01 -9.052753895004891360e-01 -1.805424402917955307e-01 -3.845528525680457776e-01
1.558636558120538723e-02 1.861955629519810029e-01 -6.428898180512551130e-01 -3.952031207480464770e-01 -6.300474013558570174e-01 6.684719630588379369e-01
2.655631853298476980e-02 -5.484185989196663918e-02 -8.089853908135817839e-01 -6.118567438215323229e-01 3.402887355456585272e-01 -7.140272414276983559e-01
-4.953439657565620463e-02 2.203131731018090622e-01 -6.370919491569938531e-01 6.777462865457249686e-02 -8.012226030448375003e-01 5.945157189518117669e-01
2.014377352757485903e-02 1.576722960054037226e-01 -6.625062794335337957e-01 -3.292711368318136933e-01 -5.946412972727846413e-02 9.423611493080891188e-01
-2.607082401861896687e-02 1.646705600335592601e-01 -6.657809365583845507e-01 -4.754822793673730841e-01 -2.803391951241961388e-01 8.338624213170451327e-01
-2.509754136604270755e-02 1.750567932296532569e-01 -6.585471905947388738e-01 -1.209631372558723772e-01 4.006719021040155981e-01 -9.082014899181608536e-01
7.882893269717633836e-03 -1.032750028634314976e-01 -8.042979640897091054e-01 -9.828002823811931021e-01 -1.592836780178658040e-01 9.344685585159133445e-02
4.298774080864610492e-02 -1.144706062039777539e-01 -8.304053673125657564e-01 7.465688857922502253e-01 1.336650567188288896e-01 -6.517427033571380202e-01
3.377626504266679347e-02 6.988742382191001634e-02 -7.172462170304858553e-01 3.210508687934948147e-01 -4.683250234649468657e-01 8.231634175809194875e-01
-6.044208967543175659e-02 8.459512718152657762e-02 -6.638802269791242994e-01 9.666275424024738383e-01 1.737120891879966877e-01 1.882957894879618288e-01
-1.676289719615906004e-02 -2.559723098104701652e-02 -7.300959595755215359e-01 9.635532539917900374e-01 -1.963057590738999658e-01 1.817393069103458159e-01
9.040032987121984775e-03 2.049621903165760872e-01 -6.230031736161069089e-01 4.060657649173802786e-01 7.415757432465756027e-01 -5.340187371154233587e-01
4.322419102485586251e-02 -1.030866339156978617e-01 -8.305092775347001632e-01 3.395900282805306980e-01 -5.310591844506028919e-02 -9.390731463089201370e-01
3.328506200782187924e-02 -8.647082917411601927e-03 -7.986975415606647477e-01 9.652983451804140191e-01 -2.341348878668537137e-01 1.156717730283851192e-01
-1.613607113259231049e-02 6.408927120991473811e-03 -7.393143355271254435e-01 -7.896388723121595676e-01 1.019353409146515482e-01 -6.050451533614615851e-01
3.940093170673665546e-02 -1.332855115889180764e-01 -8.358342529058104819e-01 -7.093864271569667590e-01 5.022611119668880519e-01 -4.944741372117034683e-01
-1.590417436159739101e-02 5.067408880289081541e-02 -7.203088490220428408e-01 1.678966335430598922e-01 4.061293391649399842e-01 -8.982592500577749606e-01
3.216196841814186053e-02 -7.395073800693730340e-03 -7.881717591617283247e-01 -9.515044336804862057e-01 2.359599623096833299e-01 -1.973884719865631188e-01
-7.397508228810251683e-03 1.619036949966689287e-01 -6.631188003253740693e-01 3.110897183368412436e-02 3.658107778142342670e-01 -9.301691817655517447e-01
-4.581270112569006334e-03 3.130339954849519976e-03 -7.487406330057204684e-01 -2.618170852295148010e-01 -7.415061904132305148e-01 6.177543067116400000e-01
-5.947460147229700206e-02 1.745782999568330218e-01 -6.622706635235391381e-01 3.193269850025357015e-01 -2.383667605586219373e-01 9.171758632399671374e-01
2.775777933882866109e-03 -1.230328906082215762e-01 -8.119113436383957882e-01 7.258723673089612083e-01 -1.921930987195082374e-01 6.604325243216583319e-01
1.375761038989812418e-02 -1.200204261270970962e-01 -8.224726934416896063e-01 5.652525325399986311e-01 -4.369063910969004372e-01 6.997159279849215485e-01
5.243496634422287542e-03 -1.374061589550134577e-01 -8.152234991242904849e-01 -2.061382403988163969e-01 4.644364734473356848e-01 -8.612814801080318494e-01
3.997922149683962034e-02 1.714379769947390053e-01 -6.265066349281795954e-01 6.018477158782808978e-01 -2.070173750205762941e-01 7.713126041571510827e-01
9.715091050056787192e-03 -1.212522234785613634e-01 -8.184705433438052014e-01 7.145063184870390494e-01 -1.593966519943865179e-01 6.812293506412349098e-01
-4.350866623516622339e-04 1.459420070246124912e-01 -6.706203556223192530e-01 -1.616387351120094906e-01 3.042542290684488449e-01 -9.387770147406430121e-01
-8.004922011582583236e-03 -4.145343682772567595e-02 -7.339689438261270960e-01 -9.258946412033676188e-01 -2.476817102833238915e-01 -2.852593272480581921e-01
-4.901472416849336766e-02 6.454275208097307037e-02 -6.497846795697046485e-01 -8.272059349367374415e-01 -4.706635174697194612e-01 3.069302763307482640e-01
3.447908091402457353e-02 2.159101304941639030e-02 -7.802409173471033244e-01 9.975685183307778647e-01 5.615691456126705589e-02 -4.127289888407686957e-02
-4.346598433512575271e-02 2.219582824939227428e-01 -6.303667153731900008e-01 -4.603066062457287361e-02 9.696163818251732902e-01 -2.402607965913816090e-01
3.496123462213662769e-02 5.865390417657341711e-03 -7.804608930529456368e-01 -9.567601486948957845e-01 1.979083347894490807e-01 -2.131720171368380878e-01
2.878092186129169866e-02 2.303366659602260405e-02 -7.555337766706666791e-01 9.062532964715356298e-01 -2.533767819620673656e-01 3.383861241200971648e-01
-4.814160734930218039e-02 1.217012503933648099e-01 -6.794827120825334132e-01 -4.261770564901433689e-01 2.567009387031057854e-01 -8.674547507451563222e-01
8.030215430569052903e-03 1.598599725300423602e-01 -6.654252303943460900e-01 1.228876593593142275e-01 -5.923300077581924450e-01 7.962686638857319199e-01
-4.262703706774721713e-02 5.063748823760053086e-02 -6.494668424137280960e-01 6.236069053279357233e-01 5.314606117828495346e-01 -5.732922864915542815e-01
8.128524855270070296e-04 -1.476903877727565040e-01 -8.235615115711087952e-01 7.250548637030692634e-01 -2.951341178186381864e-01 6.222469743758807237e-01
-3.468139737942575046e-02 8.058940506528444736e-02 -7.045966510479865219e-01 4.497482546549549376e-01 -2.258276170070028510e-01 8.641344772845023225e-01
-1.682874844541802986e-02 -2.329306389993567733e-02 -7.297133595000039330e-01 9.490317454825951682e-01 2.847141366199107404e-01 1.351909999779478122e-01
-1.114894909317610400e-02 1.749151548650621987e-02 -7.398924479704740431e-01 -1.786724520077794531e-01 -6.107591763848621014e-01 7.713944408376383066e-01
3.014754001211980908e-02 -2.064221531884559424e-02 -7.947931014664022520e-01 -9.207597642012140815e-01 2.775378218629203086e-01 -2.741791641677220337e-01
-3.388911510930321669e-02 -7.402797825692182185e-03 -6.898581513694742595e-01 9.204831951626372133e-01 3.831366779121243155e-02 3.888994089524527853e-01
-1.200125941353512998e-02 4.375324514004657467e-02 -7.252304758703068677e-01 -3.488105481216466353e-01 -5.425477206204054603e-01 7.641813740000987787e-01
1.614258607432803722e-02 6.753215082471633601e-02 -7.164361468635204178e-01 1.607652973347444003e-01 3.995345280420731782e-01 -9.025113185301717467e-01
-6.679809840248852881e-02 9.971356684328067099e-02 -6.507725156980694869e-01 8.936851841874671187e-01 4.271891514124709910e-01 1.372451109486451937e-01
4.877152548559046674e-02 -5.387656781325812771e-02 -8.243343434632229849e-01 -4.697021463417584697e-02 2.765301875466495973e-01 -9.598566842568917457e-01
5.264249620855009082e-02 2.789087802612293891e-03 -8.053299316122876084e-01 -7.041772009884590400e-01 -1.822302596489719095e-01 6.862409213070347347e-01
3.556811088564141438e-02 -8.012235720075597256e-02 -8.296477599601062014e-01 4.403328358423663769e-01 -1.788397124445655351e-01 8.798427989884128886e-01
-8.182991782576910095e-03 -1.920882770252283211e-01 -8.453796655999240572e-01 8.181811349501154629e-01 -5.569652918921265128e-01 1.427210357279521669e-01
7.707115084018721835e-05 6.561325769827602850e-02 -7.111263726404560837e-01 -4.729079801801701621e-01 3.374175220438547784e-01 -8.139456112663157050e-01
-2.476137999478704010e-03 -1.363511841231256072e-01 -8.079591646148451822e-01 9.533969484201126887e-01 -9.622576558132206470e-02 2.859630409362464154e-01
-1.719761186475421422e-02 1.459741036586570395e-01 -6.697412452173807651e-01 4.456341746432970069e-02 -5.625406714367575667e-01 8.255677408931274552e-01
-6.676274986246616416e-02 1.442836723978919433e-01 -6.626958795510656808e-01 5.280731367654767361e-01 -2.433117535858432545e-01 8.135958166028460781e-01
-1.168248838798735968e-03 -1.717480392523670629e-01 -8.393465383391602863e-01 3.368502923948108463e-01 -5.430410583815948877e-01 7.691802710843068658e-01
-7.282648268506110648e-03 1.340014960077577644e-01 -6.775681905337120892e-01 3.728184046547431962e-01 -4.219357519143578927e-01 8.264240185323498133e-01
1.472941228130771399e-03 2.201365498253834152e-01 -6.048340649125835133e-01 -7.358779223833296079e-01 -6.750365110509698452e-01 5.300369889854879280e-02
1.303815220435316537e-02 6.276447785585467787e-02 -7.179085414436099377e-01 -3.221123509363348764e-02 2.313855048406327497e-01 -9.723287430099905038e-01
-1.434049946993350448e-03 -1.895869828702162752e-01 -8.557822016035661061e-01 2.043391121850433312e-01 -5.496374300832397308e-01 8.100272974924487279e-01
-4.919990388164537098e-02 2.428853919757317792e-01 -6.261451110524434149e-01 8.671476463260961998e-01 3.532300382625802593e-01 3.511175010450597878e-01
-3.093693574908966057e-02 3.078081515204194110e-02 -7.077268047105850224e-01 -9.077251102130866611e-01 -5.851773530497706571e-02 -4.154645579870998029e-01
4.626836121698348937e-03 -1.548394673932415033e-01 -8.325219349137435998e-01 6.182994621556375803e-01 -4.954580173640880658e-01 6.101041944845948528e-01
-6.019234794824986773e-02 1.049272480792494272e-01 -6.716360368827509753e-01 -8.337378220137874330e-01 -6.071422548412450798e-02 -5.488123786573777529e-01
9.359289175551824616e-03 -1.347159241974707211e-01 -8.241145565589570454e-01 3.551510962328706111e-01 -3.011770498880749769e-01 8.849633232317067888e-01
-6.120981308865481099e-03 1.233495903590807324e-01 -6.842963259688877864e-01 6.365731791476411106e-01 -3.171152758984699394e-01 7.030024817749239707e-01
1.967151141941253165e-02 1.179244677472727210e-01 -6.958776928356669167e-01 -3.472304428428182183e-02 -7.843442063498861083e-01 6.193532725036650088e-01
1.016889417028080285e-02 -4.232330687310661282e-02 -7.852065442987542498e-01 4.579491892486118876e-01 -6.092838668912156086e-01 6.473451240355689862e-01
-4.046266833003623296e-03 1.487776741219397347e-01 -6.701643531489925865e-01 2.069521840333928275e-01 -5.379812117938955751e-01 8.171578851608668481e-01
2.606041130887169072e-03 2.187330739274922220e-01 -6.092523044785224107e-01 -6.479828872992412503e-01 -7.572131515700935012e-01 8.213659876465133347e-02
-5.721512641010263744e-02 2.226453082630387159e-01 -6.339805954400564714e-01 -2.485059109374118946e-01 -6.561325750067606988e-01 7.125551601414200631e-01
-3.209300605228165848e-02 2.092418104248691402e-01 -6.410307543163539234e-01 -8.528220414683161943e-01 -4.791326179938061314e-01 2.076692080213502212e-01
3.129285346898200842e-02 2.291583887245171591e-02 -7.640135834708600138e-01 9.831735627674241806e-01 -1.045872518894171432e-01 1.497706654102508306e-01
3.648573677565877110e-02 1.035832437487445995e-01 -7.092151042632184321e-01 4.319651069772720287e-01 -3.218927358020719914e-02 9.013157033029505216e-01
-2.231061184715744938e-02 2.140542374634490583e-02 -7.305258700946393180e-01 9.535165410853010393e-01 1.102547259890798576e-01 2.804462538059591115e-01
1.697232542657721097e-02 6.208226109312348952e-03 -7.540503737323334121e-01 4.613503471405858702e-01 -4.815786560050020482e-01 7.451428421944860103e-01
-3.923085256384563346e-02 2.135961684709754560e-01 -6.414104843776176068e-01 -1.204335026128023831e-02 4.894511330253535908e-01 -8.719475592572535350e-01
-3.187340203576292854e-03 -7.957301318625567554e-02 -7.689435517266500764e-01 -9.999264032575675420e-01 -5.900063019844216210e-03 1.060081717352492035e-02
2.871888347165332464e-03 2.077611240249447461e-02 -7.372314986902871459e-01 -2.153232848506653196e-02 -5.111084650220658609e-01 8.592464697703440235e-01
-6.249431541806869939e-02 1.722584557579859843e-01 -6.602133209351953580e-01 -3.825797922251532035e-01 2.956194906879076045e-01 -8.753523972129056974e-01
-1.153070298503016018e-02 1.071662758608592086e-01 -6.898891651003538072e-01 4.701717438342092881e-01 -6.422986680135126525e-01 6.053023644163024741e-01
-3.405169534242105840e-03 -3.162333966149109832e-02 -7.669537365784308003e-01 4.998169455754335466e-01 -5.922659784295347674e-01 6.319842021052028969e-01
3.868920900218025122e-02 -5.476060746410482682e-02 -8.216850593339583009e-01 -4.789873800574618867e-01 1.443731406184258770e-01 -8.658680534663816264e-01
6.312938961472318311e-02 9.186873059974279276e-02 -7.266439513977277498e-01 -5.804668825698668932e-01 2.046139284208007558e-01 -7.881569250700191098e-01
4.996642685319033911e-02 1.644084550038152348e-01 -6.344143075100830975e-01 6.259016230281526649e-01 3.906242291715346648e-01 6.750258290427622043e-01
2.931011832264471609e-02 8.893774449321330267e-02 -7.068711049314765349e-01 -5.136881954666729921e-01 -6.783867072283425448e-02 -8.552908000164340940e-01
-2.592332913929370000e-02 3.324421083343861300e-02 -7.198477863451788750e-01 -9.189021144948934516e-01 -3.659100246976456500e-02 -3.927849316293480220e-01
4.380006925696593167e-02 -4.188546514514075725e-02 -8.207369338487808808e-01 -3.367561458685963127e-01 2.156384169239515536e-01 -9.165671668602692890e-01
-3.804582018932366888e-02 1.645012853513919127e-01 -6.683655585539330923e-01 2.031771132499936641e-02 -3.225432780062685856e-01 9.463366337722981525e-01
3.337774874386630758e-02 -6.093882083155519047e-02 -8.188652365936918143e-01 -7.464702534200445827e-01 2.777941503595118267e-01 -6.046590533391947853e-01
8.615168527237707791e-03 -1.668526231130591231e-01 -8.429930850486382354e-01 3.053715851060733177e-01 -4.975987764793480816e-01 8.118766240359799324e-01
-2.474112066834690746e-02 9.458935359193508530e-02 -6.970777052460402912e-01 1.527077034561135915e-01 3.739794326124738499e-01 -9.147785203468715709e-01
-6.260718436627528416e-02 8.861713567116474843e-02 -6.524957068612435851e-01 8.928234809165012109e-01 4.415313873651509624e-01 8.897339993249128720e-02
-4.096767579807369247e-02 6.128935019847779608e-02 -6.443782455412007115e-01 -9.355135062799923018e-01 -1.191612384186254286e-01 -3.325884526351660653e-01
6.200525107011989681e-03 2.072371856119553934e-01 -6.218908668301372789e-01 4.354636515261821605e-01 7.746838124913113521e-01 -4.585154292533791254e-01
-2.186497281112662755e-02 1.207952904630829188e-01 -6.817506638907765426e-01 4.054943397444710773e-01 5.180824815253165516e-01 -7.531035007034327933e-01
-1.872736968937652527e-02 4.499220892726499277e-02 -7.257834379802625691e-01 8.015585509502114181e-02 -5.948135394866159720e-01 7.998574198801868818e-01
-2.500734355254794665e-04 -1.342672516781458769e-01 -8.142315573150188390e-01 8.081476338226549760e-01 -5.376365423214682915e-01 2.405085243966624264e-01
2.397143765951151653e-02 -3.468357020358878856e-02 -7.955821477738135306e-01 8.425935554476220446e-01 -2.821038217847677276e-01 4.587521488260988822e-01
-1.524138380425974285e-02 -4.966930550958157525e-02 -7.187686974547954355e-01 -8.228357816166451677e-01 2.174154667442345645e-01 -5.250445612628619196e-01
3.281657789720989621e-02 1.714186690103423338e-01 -6.482756245789494942e-01 -3.158821729779904830e-01 -6.505032738468283782e-01 6.906981565845250470e-01
1.439697787348390504e-02 2.036234092333546741e-01 -6.183304218862017976e-01 6.248442925316655128e-01 7.680647433739785646e-01 -1.401647604659131408e-01
1.418518953358757773e-02 2.021944042446476297e-01 -6.259078745132491406e-01 -3.330157253342801993e-01 -5.784110863230270683e-01 7.446751922138261648e-01
-7.040565539565048214e-02 1.186819315389687768e-01 -6.528863792619599149e-01 -9.720811620084522930e-01 -1.999290881845398327e-01 -1.228274161822009020e-01
-5.823784254595022053e-02 7.628349654973140548e-02 -6.604519073758077230e-01 9.555633756741126472e-01 2.933644490328570775e-01 2.891254250222097949e-02
-6.454581246757212787e-02 2.176596994682401531e-01 -6.411492360241277666e-01 -5.877372642834959721e-02 -4.106391594548353119e-01 9.099017143647722961e-01
6.888863585538210210e-03 5.711531409617083554e-02 -7.203752969960542929e-01 3.555776327765831080e-01 1.261316608621089186e-01 9.260968368357421765e-01
-6.762912479316680880e-02 1.699528784175449725e-01 -6.589513850068636769e-01 -3.672559858829260171e-01 4.553316892954507589e-01 -8.110462955691932763e-01
-3.377712592653513233e-03 -1.191550157188686898e-01 -7.995453180040826835e-01 9.880006772738981757e-01 1.289236658679268899e-01 8.504910396643577952e-02
1.709524699035898420e-03 1.623473002298094769e-01 -6.622270828207108551e-01 1.200547164089216107e-01 5.060962529568407975e-01 -8.540804691661195713e-01
-5.529931464516205097e-03 -7.848856062628885299e-02 -7.327990995673910879e-01 5.985506221504542923e-01 6.928976580199809332e-01 -4.020323223743704211e-01
3.440390117347070197e-03 -1.732145199259185753e-01 -8.368421712639305676e-01 -8.371517687904768135e-01 -1.166940127683156747e-01 5.343776037550641567e-01
-1.728545978582780515e-02 -1.631708997252060561e-02 -7.175009937174058328e-01 -8.911704930014712200e-01 -5.326546338668965846e-02 -4.505307345938965313e-01
7.652108070073108254e-03 9.358270504432250614e-02 -7.032554171814987543e-01 -1.273108017528512825e-01 1.178983194236381399e-01 9.848309225619025220e-01
-3.194549510717837899e-03 2.089034739676072505e-01 -6.271942122331997105e-01 -3.739775866674158733e-01 -7.277889482494294127e-01 5.748599929342836923e-01
-4.885565645666114371e-02 6.009829788924094668e-02 -6.750547716396223530e-01 -9.043357186390665881e-01 -3.805064133004275040e-01 -1.933695359429898897e-01
8.556301810516947493e-03 -3.582242502637276310e-02 -7.776130912400772699e-01 -5.139930962423543415e-01 5.517728120591178786e-01 -6.567783955700516874e-01
3.440300388703382978e-02 -9.956878271945518444e-02 -8.307897739887555311e-01 4.783782090122161157e-01 -1.747482140400895001e-01 8.605912797792361069e-01
2.139593924227958452e-02 -7.633169695169927937e-02 -8.168528515576525262e-01 6.506720056755834758e-01 -2.624879628930624764e-01 7.125489529613833195e-01
-1.672978168219849474e-02 1.603821266895392172e-01 -6.646794738519548051e-01 1.885081364976846086e-01 -3.059326239792923841e-01 9.332041106099540073e-01
1.075170734845718769e-02 -8.825816667972878615e-03 -7.627492833623185087e-01 3.792247234785818821e-01 -5.333674999850669396e-01 7.561135622790222666e-01
-1.145396050472484092e-02 -3.709349891749756656e-02 -7.301992927225144925e-01 9.084608832635687747e-01 3.917493271347636807e-01 1.457096025299526032e-01
-8.109016394210555312e-02 1.937504023174397572e-01 -6.460300528915255969e-01 -4.339885611043972635e-01 2.462525099693843034e-01 -8.666104258340728839e-01
-5.747142749478785506e-02 8.757771877378646430e-02 -6.704240069329919782e-01 -9.642353615558755253e-01 -2.008513317223818706e-01 -1.729419268730277570e-01
-1.116407536026967420e-02 8.505283759064666271e-02 -7.005648088577377530e-01 -4.266471981453955897e-01 -3.461076803207810970e-01 8.355726431242537222e-01
3.050399968574946455e-02 -1.024588942348120257e-01 -8.282686547776784147e-01 -1.728995843044923431e-01 3.361926724775325948e-01 -9.257862716198314024e-01
-2.193419854561356325e-02 4.232237464858261411e-02 -7.235145555739138645e-01 -3.655495657439892798e-01 2.534518690912170302e-01 -8.956202683272355136e-01
3.240461623643371702e-02 3.348070503148322524e-02 -7.760848821575113687e-01 9.995838186880282583e-01 2.823696253932528669e-02 5.904520608093452236e-03
-4.194626568274390649e-02 3.825560532546153775e-02 -6.854686949782953231e-01 9.399578821945058227e-01 2.535959642937997138e-01 2.284037359464977934e-01
1.939794162305671574e-02 -9.456017509656954034e-02 -8.186368509528044735e-01 -5.642976581925410740e-01 3.416166024454536099e-01 -7.515758444043014741e-01
-2.600593233474616725e-02 1.963246343550864859e-01 -6.464305587677509068e-01 -2.802532195908178370e-01 -6.494794269620912663e-01 7.068483619999231804e-01
-5.547859433432694720e-02 8.702152672605598105e-02 -6.785363708665407279e-01 7.371634060168249514e-01 3.250588129029753914e-01 5.923908177747034820e-01
4.824383257582656737e-02 1.407510364505629996e-01 -6.712349251299558617e-01 2.043215841561485113e-01 -6.823368131376889023e-01 7.019039561685235240e-01
-1.091409813572877772e-02 -2.276349786986320012e-01 -8.610991418288782562e-01 -7.436472896350339312e-02 4.636239008823401231e-01 -8.829058645273724082e-01
-6.569529862315222346e-02 1.905431917523710827e-01 -6.546939572306164079e-01 1.869924885562511130e-01 -2.788183649446242529e-01 9.419629125359164634e-01
4.787539810707629011e-03 2.089916115451009582e-01 -6.204764416204867628e-01 4.941664607883280436e-01 7.065601872117550641e-01 -5.065295755227203767e-01
-5.132363915443682693e-03 -1.909859763162951307e-01 -8.355347906270349512e-01 5.944934505727377666e-02 7.925589688354161000e-01 -6.068904812985644881e-01
-8.915886694756897449e-03 -2.011687317625676374e-01 -8.536098401078974218e-01 4.091287417212864930e-01 -5.657891815969193772e-01 7.158884512865429928e-01
-3.176824962234529176e-02 5.695121017510983846e-02 -7.130642343983278897e-01 6.292170319394886358e-01 -2.283891023119679065e-01 7.429161087649088779e-01
3.438594063346082225e-02 1.832641047708538640e-01 -6.313526297957484656e-01 -7.088755651368477961e-01 -6.819203574397959544e-01 1.802222496283295283e-01
5.955142911365285396e-02 8.821889875372519729e-02 -7.250000052709273390e-01 -6.013351804720161731e-01 4.154021396850141046e-01 -6.825225733056745625e-01
