-5.379028519675691650e-02 -6.283004732165772821e-02 -8.054031664090420817e-01 1.989973170662067553e-02 -6.052139258105243558e-01 7.958141144029914349e-01
2.029989703745655599e-02 1.060211364491472630e-01 -6.845908556948248069e-01 -5.319594045893719647e-01 -5.058365917332984241e-01 6.790791811950661616e-01
6.618600113981397415e-02 8.972880893624797516e-02 -7.045171903008354830e-01 -6.443348491047262705e-01 4.468105363559062293e-01 -6.206391438110689940e-01
-1.577747078771205708e-02 5.200684565485570732e-02 -7.587895558220969505e-01 5.183597172195911762e-01 4.973952351797642502e-01 -6.956300623064624045e-01
-7.124988173487760423e-02 1.206951841994994418e-01 -7.424593233883077792e-01 6.330836910170486442e-01 2.765558946252260064e-01 -7.229950741991754137e-01
-9.845089230002185277e-03 -7.716489862343485495e-02 -8.112311362961511785e-01 7.475751441936318020e-02 -5.904313648295165251e-01 8.036181415718496313e-01
2.558660868658897691e-02 -6.805298406017368240e-02 -8.414988435710394343e-01 -6.662036477472973450e-01 2.806767204445245190e-01 -6.909365226478486610e-01
-1.557648151944931829e-02 1.420096993047588463e-01 -7.135684727693899498e-01 -7.888952733075456081e-01 -5.000769438379677745e-02 6.124895739973291731e-01
-6.584757023495394976e-03 2.097366787500787588e-01 -6.790019765683356079e-01 9.347452144217834880e-01 -7.779659826751877949e-02 -3.466973801654351650e-01
1.629994159621185471e-03 -8.265661312028281527e-02 -8.135234538614125599e-01 -3.419036748136293768e-01 1.011581396646840103e-01 -9.342745356309978266e-01
6.477617474670821496e-03 -8.934418883939483635e-02 -8.219529042840940658e-01 6.945153949313208619e-01 -5.980101336082194186e-01 4.000403058508868459e-01
5.826686197647903270e-02 -2.147780155506159340e-03 -8.046272481410353672e-01 -7.183642158773544395e-01 -1.448006104387464799e-01 6.804304788613454447e-01
1.427965929601285322e-02 2.014387936023818715e-01 -6.402128331144578688e-01 7.558047478793794571e-01 6.253368446588405960e-02 -6.518042047962783192e-01
-2.073413266499588362e-02 -1.026707447495527198e-01 -8.263603321116311795e-01 1.608816598974404932e-01 5.820749497593745714e-01 -7.970607532498799053e-01
1.522870530227266039e-02 -2.699164540264341935e-03 -7.634858178854879718e-01 -1.523316596645552523e-01 2.271664121196508845e-01 -9.618682272892307150e-01
5.837008683770518458e-02 1.172071605920933790e-01 -6.671135782323808217e-01 3.556384935321947605e-02 -5.428988495235527179e-01 8.390447257477902099e-01
7.511007406646870443e-02 1.034040499040348865e-01 -7.045014399813906980e-01 -8.874975373565084924e-01 3.878034674712545482e-01 -2.489108109411970748e-01
6.037610168764682289e-02 6.306955803695714347e-02 -7.428839031119158776e-01 -9.432380522921146593e-01 3.304688746944735578e-01 -3.304995561791380237e-02
-1.872652960523429715e-03 -1.045503591290082301e-01 -8.291614812849444904e-01 2.075107136145157294e-01 6.157838166519243872e-01 -7.600984113157872590e-01
1.468818657649424188e-02 2.376699737761495956e-01 -6.512790583964382929e-01 -9.908671274800139317e-01 -1.048618098236956814e-01 -8.477226268069597281e-02
9.999780962560989028e-03 -1.852405308009748980e-02 -7.735624078412618454e-01 -1.795620166286920807e-03 3.225015551084858267e-01 -9.465672309460255729e-01
-6.441808354317718477e-02 1.255114532450841147e-01 -7.397734181172986867e-01 -2.183467408801191001e-01 -2.295440811729331787e-01 9.484904931234175995e-01
-1.960278336810952586e-03 8.183560293140064446e-02 -7.257870741892583633e-01 -1.114810131725629469e-02 2.497857066657477587e-01 -9.682369650981692555e-01
-4.114071335418617581e-02 -1.178051053666456377e-01 -8.581284920514580250e-01 -3.607269734409002115e-01 -5.031348707971744494e-01 7.853224512390299950e-01
4.130383022689355921e-02 8.891175303620378612e-02 -6.890681521040058488e-01 9.147827914437479946e-02 -7.186818116951784186e-01 6.892954214147369862e-01
1.834570625074598846e-03 -9.906909862062851513e-02 -8.245374850144188139e-01 -7.944575355877572242e-01 5.847119322736543667e-01 -1.641620553131470095e-01
-4.639219905099091490e-02 -9.380692298485807101e-02 -8.264398607694093402e-01 -2.181411388677048369e-01 -6.357122031959714370e-01 7.404623138561643447e-01
7.366343637812323986e-02 1.191932017516362519e-01 -7.075942083812566397e-01 6.071212886421258892e-01 -7.229850068389258588e-01 3.296914023198703747e-01
2.683596373030463361e-02 4.031178642137353552e-02 -7.361628784085716415e-01 4.138585222438227462e-01 -5.687247576743811317e-01 7.108257687889314447e-01
8.147454586242528635e-03 1.933439031713212186e-01 -6.562357623238240789e-01 -8.537139126951454049e-01 -5.631693431592552090e-02 5.176880896640384533e-01
-4.200290275748758129e-02 7.121078387398223353e-02 -7.637899539236764346e-01 5.660282647289112401e-02 3.189454018629950260e-01 -9.460813657744941985e-01
-2.167952814377306289e-02 -1.437909305385573211e-01 -8.606414238158764940e-01 -2.053617234437243866e-01 -4.086008388152573279e-01 8.893097981376857364e-01
-7.218470588522477548e-03 6.286586037489970413e-02 -7.401557644391695279e-01 3.866562371964858413e-01 4.821370648429885719e-01 -7.861557129103894370e-01
-4.062982225123267649e-02 -3.559067840174690023e-02 -7.936060016248447369e-01 2.437050894866077400e-01 -3.711960930689789384e-01 8.960029519196073267e-01
7.319319018902628593e-02 1.058952823020242601e-01 -7.197798336251702844e-01 3.683158453706680269e-01 6.452740525579343522e-01 -6.693017519358143153e-01
3.840644738982669504e-02 1.005822812227698121e-01 -6.760394191587315582e-01 1.453003862242094046e-01 7.562353922013133056e-01 -6.379622475861889130e-01
-5.662399956827549735e-02 -5.421179535420860007e-02 -7.980326139414354314e-01 3.041336848206677504e-02 4.818449998436108994e-01 -8.757285099523052230e-01
-9.424657789695837715e-03 -8.358721280212892679e-02 -8.138961799600705760e-01 4.654678490026886023e-02 6.543203798996586329e-01 -7.547835698154897743e-01
3.430157847165296592e-02 -3.826655167198701486e-03 -7.877414391458767984e-01 7.985028078666026596e-01 -4.784327868251747051e-01 3.653701333166795018e-01
-3.014743780322984637e-02 6.778315723142812332e-02 -7.601405761521624616e-01 4.017777048871460921e-01 4.025623951285765556e-01 -8.225072606876859815e-01
1.266775365072916057e-03 1.050984350738355111e-01 -7.096327113106591922e-01 4.463141688610145486e-01 5.542585996960671668e-01 -7.025674824078158576e-01
-4.904090632997096244e-02 4.964067405852660465e-03 -7.744154832060657911e-01 3.968365128763218230e-01 -3.176507803655284623e-01 8.611729000504672049e-01
-1.125009754563763807e-02 -3.076272770427307401e-02 -7.886498673428807837e-01 -3.259573479993692624e-01 -3.027501967440938691e-01 8.955970777401134342e-01
2.439307487444406300e-02 -2.839948432028372837e-03 -7.711188358582911073e-01 -7.996269103012771939e-01 4.063378224957923668e-01 -4.421384153536209172e-01
1.861000218264717912e-02 -8.455414364448780862e-02 -8.410165230161549266e-01 -5.296608906037808540e-01 2.218904451835818775e-02 -8.479192103426905769e-01
7.271982486105314780e-02 1.060466316032051409e-01 -6.941196523293517995e-01 -8.409876893251589935e-01 4.804564260457195868e-01 -2.487997770796908370e-01
5.603817810737347915e-02 -9.929170669041947894e-03 -8.021222117740761659e-01 -6.625372352083879202e-01 5.611235110629828604e-01 -4.961701495402315865e-01
2.801445205743886488e-02 4.079688392860725960e-02 -7.342988863655415255e-01 -3.971912757641311020e-01 5.027135085250211688e-01 -7.678008978917161276e-01
7.566948499008714114e-03 -8.920292925358189184e-02 -8.199041507743306534e-01 -7.257296331338338735e-01 3.838018201357654147e-01 -5.709751854957486605e-01
-5.410715993512613814e-02 1.292552577268408498e-01 -7.349040129572932400e-01 4.561031795013701928e-01 2.598305917012781463e-01 -8.511509579768471445e-01
2.641094805304033261e-02 1.088027486759035739e-01 -6.756580695274245763e-01 3.002468627699357295e-01 7.245610208837841570e-01 -6.203733943462275136e-01
-6.771200659448702031e-02 1.986543533089453126e-02 -7.475223288709367253e-01 1.685780012537736461e-01 -8.570902951937472425e-01 -4.868035367352806508e-01
1.986600421197018754e-02 2.125343149844983737e-01 -6.264317441942387488e-01 2.317943803188552976e-01 2.977690887273987119e-01 -9.260696167411242019e-01
2.243048750985559767e-02 2.215406030372848722e-01 -6.253326083624485277e-01 9.375016311794969193e-01 -1.084415534459413494e-01 -3.306525684491403716e-01
-1.261000137484245831e-02 1.871989609268472632e-01 -6.907099487053531828e-01 -8.102936878897720741e-01 1.282210761918846018e-02 5.858837196254855773e-01
-1.700105184822666565e-02 -9.559390508760157168e-02 -8.229549837473069118e-01 -4.005717191266305877e-02 -5.215487629428859906e-01 8.522806526321625720e-01
-9.166397646239863228e-04 -1.156405104900355835e-01 -8.368240074631893011e-01 -2.838142506520588589e-03 4.900108657076011620e-01 -8.717117048861967588e-01
1.639180971841184067e-02 8.550929941387937216e-02 -7.033270424850162073e-01 -7.014526171190800241e-01 -3.874316791356930412e-01 5.982147774327298828e-01
1.119239181580409560e-02 2.030757828236661455e-01 -6.454109281065109061e-01 9.483694164822032979e-01 -3.253846229209796884e-03 -3.171511664268665820e-01
-9.606331469465417133e-03 -2.111903808218328418e-02 -7.836315761458816365e-01 -4.544212079835258100e-01 -2.995256935006575527e-01 8.389193791227758101e-01
3.019448956983379617e-02 1.364935250233729191e-01 -6.486894555506773630e-01 3.307272268010385541e-01 5.624599513970547360e-01 -7.577983270811021743e-01
-1.679788122509989537e-05 1.213465709247432828e-01 -7.024848052330284753e-01 -5.206204538952624583e-01 -4.892372679741791019e-01 6.997151124643888886e-01
6.125216277933138304e-02 6.667849922610911972e-02 -7.452450236944838657e-01 7.054769588950636772e-01 -6.821790689234162874e-01 1.921821489914015135e-01
-4.100028922146405075e-02 -1.015445767835480018e-01 -8.295931980915106640e-01 6.116553491872163406e-02 5.582044141297940465e-01 -8.274458347131370406e-01
6.281843374141489467e-02 7.359512975653376143e-02 -7.227946685482622424e-01 -7.228739636509189381e-01 5.821274191327854286e-01 -3.722645572296837679e-01
6.515384772461517426e-02 7.521880814264439441e-02 -7.324687988210045742e-01 -9.380053657768105957e-01 3.128586365861729113e-01 1.492159753087877461e-01
-6.142892338544523462e-02 7.416488778950959537e-02 -7.667942345787168712e-01 5.130058732004519895e-01 5.900069501574853881e-01 -6.234715493330102998e-01
1.053875425256903947e-02 -1.178400284920191471e-01 -8.399507480631007716e-01 -5.280825551147302344e-01 4.987096151833342872e-01 -6.873263669518204777e-01
-6.381492111322119298e-02 8.149093337018381566e-02 -7.623027660351824331e-01 2.997475851505342348e-01 4.623989317048504688e-01 -8.344690606335480876e-01
7.305619984246637666e-02 1.061429339521356291e-01 -7.006107567577157802e-01 7.992184838062980079e-01 -5.409963547216100066e-01 2.618640092114456475e-01
-5.876296067772035503e-02 1.097087342835994656e-01 -7.473002915107229693e-01 -3.279018294303436276e-01 -3.061209845907678084e-01 8.937395219242643130e-01
-3.661359803549452119e-02 9.357161951966885827e-02 -7.452417816781702342e-01 4.316062583716983037e-01 5.483189651810468357e-01 -7.162837078680269753e-01
-1.470506871101073115e-02 -1.180957382062397393e-01 -8.409709714511283130e-01 -6.181934503015832499e-02 -5.709836950313358361e-01 8.186305568377010289e-01
-1.591293245923984523e-02 5.240793483532197455e-02 -7.608032840943927955e-01 -5.193796365792072711e-01 -4.219372840308913131e-01 7.431108406230430008e-01
2.968646513524796776e-02 4.329008590168877124e-02 -7.328443224016115698e-01 -5.457364959589584563e-01 6.758900031925697549e-01 -4.953225015712346413e-01
-2.056868404385259544e-02 -1.084535986239693051e-01 -8.312080997689574868e-01 1.908439705636235384e-01 6.444276866203701992e-01 -7.404671063704508782e-01
-3.510240992620759087e-02 1.568973758667118745e-01 -7.314885990951546235e-01 -4.915568603163297801e-01 -8.479159041711595290e-02 8.667077011717896351e-01
-2.611127210297501527e-02 -1.071454057050355742e-02 -7.848302418328219066e-01 1.145009292687708402e-01 -2.923319656575449899e-01 9.494374961267244561e-01
4.766392412683062574e-02 1.707474619023350570e-01 -6.113899832884891472e-01 -2.416534451375524639e-01 -5.134208518389900000e-01 8.234091579221582968e-01
4.563346035527591354e-02 -5.403838611756133815e-03 -7.972965176158456346e-01 9.735264068627523526e-02 -7.419456460561895117e-01 6.633544464686075282e-01
-6.446086616703000476e-03 3.901830704447615400e-02 -7.596587424338645533e-01 -6.677622287155410286e-01 -4.838852916884150424e-01 5.656400183760612599e-01
-1.040362627057576927e-02 1.613354392001161430e-01 -6.898404363819705676e-01 7.436017127744098953e-01 2.840092000947044837e-01 -6.053059284531500106e-01
5.863485283504719925e-02 4.689127159376358517e-02 -7.600796766572428531e-01 6.183627270996714387e-01 -5.534754514093839228e-01 5.579358945443787521e-01
-2.909058766254877040e-02 1.285685645819426570e-01 -7.259391328493833839e-01 -5.868770167185941578e-01 1.854909865632673460e-01 7.881424117196514922e-01
2.492322780383117442e-02 1.203925181987609283e-01 -6.695532375279032999e-01 -3.652195292357593437e-01 -6.291692682499939737e-01 6.861200531645883505e-01
7.004869277752605317e-02 9.402547114740318623e-02 -7.106789735594438717e-01 8.291371080464168264e-01 -4.801167286057594352e-01 2.863906125789182910e-01
5.754181812561158689e-03 -8.596806058501194059e-02 -8.188902157614349475e-01 6.244648204189047203e-01 -3.579743840969235036e-01 6.941887555914555419e-01
6.008331745919230464e-03 3.857393234092181683e-02 -7.479205481804466205e-01 -9.306581099121705725e-01 -2.453525021611247248e-01 2.714362395443570275e-01
2.013202118811712599e-02 1.793337067596028900e-01 -6.297485452464034461e-01 7.666177399047907626e-01 -1.549795517933439670e-01 -6.231200360999514798e-01
2.362582213907768805e-02 -1.373265880290731045e-01 -8.644291561243312438e-01 -8.613895149659884787e-01 2.845544164461382142e-01 -4.207575163768992876e-01
-3.372502468736221504e-02 -7.516732305642659547e-03 -7.813361443799483608e-01 -3.219223330473018896e-01 3.748002205953176458e-01 -8.694198100613323987e-01
-1.903802574689151747e-03 1.567118880187672869e-01 -6.851441495798888948e-01 -8.557160416217338694e-01 -3.581675299367161891e-01 3.734515719745499784e-01
-9.720225577448620910e-03 9.992932012252656038e-02 -7.181597090533824446e-01 4.720851766575741015e-01 3.759685819331017309e-01 -7.973601516124314559e-01
-3.337833038366135475e-03 1.651038469262829378e-01 -6.776789533994280745e-01 7.796763035930566188e-01 3.943949959882728229e-01 -4.863717187037894796e-01
9.435314347524629067e-03 1.509592054438073649e-01 -6.700082462127522342e-01 9.513637100804726021e-01 2.739356085407372299e-01 -1.409481234899378765e-01
-2.306494996452662649e-02 1.843216670871548613e-01 -7.101766827389708325e-01 7.847484783480919157e-01 3.293195476332281268e-01 -5.250890031956489956e-01
-1.872711881284139625e-03 8.328334064097836498e-02 -7.272580401679984430e-01 -3.457399078318593721e-01 -5.364590234365744781e-01 7.698542929060629980e-01
2.724390501255099031e-02 2.734000957296460824e-02 -7.439161815074788464e-01 -3.976703346777722969e-01 6.331501350764912051e-01 -6.640626562078983941e-01
-2.037392418329515495e-02 1.992811176455253352e-01 -7.152255571119899846e-01 -8.212632789267890754e-01 4.708878848211214274e-01 3.221664579299171605e-01
-3.282855000407493805e-03 7.338017917987570138e-02 -7.341924580726734151e-01 -4.437941040975645346e-01 -2.585833664154529865e-01 8.580101606516624679e-01
-1.274581583522533743e-02 -6.583162003096314219e-02 -8.043096115856339656e-01 -5.742544272017231777e-02 -3.556859879998805485e-01 9.328396413472900273e-01
-3.121896225040887360e-02 -7.056504693316074939e-02 -8.077869790139021733e-01 1.674458899508118881e-02 4.582585630937882626e-01 -8.886611885812287781e-01
-9.373545878186190922e-03 1.920716872645928872e-02 -7.709005824610142277e-01 -5.562218574777186841e-01 -2.129562274125613719e-01 8.032850617746141175e-01
-7.021057051166118557e-02 -3.530640990393710266e-02 -7.894767714064467867e-01 4.532825331877319286e-01 5.259619048823730436e-01 -7.196520129336249072e-01
9.796938089469478528e-03 -1.564764587980451982e-01 -8.580842472001865007e-01 -5.100577086140030136e-01 3.629074845631554691e-01 -7.798328612795667469e-01
3.156267676057941327e-03 2.017264835539211987e-01 -6.638220014217650622e-01 -8.732123801829605458e-01 -3.766258991162180214e-02 4.858823606762830427e-01
-9.700675068605021586e-03 -7.540920765862681174e-02 -8.099303307476433123e-01 1.770495707240234973e-01 -5.302695543521779298e-01 8.291366891131894956e-01
1.178099474659361455e-02 3.045948056045413247e-03 -7.581346822690057108e-01 -4.094318468012769600e-03 7.147170616224199913e-01 -6.994017145976240135e-01
-7.842480608822526011e-03 1.725074717588715167e-01 -6.844920897794843917e-01 -8.651181370929069692e-01 -1.104970893689033590e-01 4.892453393890416335e-01
7.384352046496085904e-03 1.875992168878619706e-02 -7.529242013098592645e-01 -8.142160007472016847e-01 -4.003248620848795514e-01 4.204667750535766024e-01
-1.689349334551305468e-02 5.009585424250728031e-02 -7.606042223890957521e-01 4.085841878523852611e-01 5.230735141659650367e-01 -7.479659485665607344e-01
-3.981971384937114944e-02 -4.559021562849902703e-02 -7.954316781746044729e-01 -2.647475019883951397e-01 2.588224581941908076e-01 -9.289347099367216698e-01
-4.403208338649432230e-02 -1.091500047819273650e-01 -8.403570594097190538e-01 4.515178853569593032e-01 6.685633939007330495e-01 -5.908930423847561508e-01
2.788540869168117456e-02 1.062998503109570808e-01 -6.768424317823614755e-01 5.027980911702152333e-01 3.275304866182353059e-01 -7.999486607596827392e-01
1.092314597622887767e-02 -2.032087568506149855e-01 -8.808003565791663325e-01 -4.249352798383334573e-01 -3.672499292165131712e-01 8.273798991026937166e-01
-1.890926644413191623e-02 -1.346781973836837787e-01 -8.534843754131423710e-01 -6.998270672928175173e-02 -5.714290795214875818e-01 8.176620498935172066e-01
4.856698262498822943e-02 -2.710078000034604057e-02 -8.143823540805663619e-01 -8.069345480920648850e-01 4.940320865289921648e-01 -3.237111869788644181e-01
-8.143490680455807776e-03 1.137618895840355193e-01 -7.087702590325080099e-01 6.597115254313318244e-01 3.321014617644666433e-01 -6.741582323957556744e-01
-1.043708882441888620e-02 -8.119690722723682530e-02 -8.119871610281862440e-01 3.212786403529211809e-03 6.054103875858637407e-01 -7.959069924348319836e-01
-1.877843182688189363e-03 -1.856039757679729951e-01 -8.692848944150729507e-01 6.150145640483694054e-01 1.884265055353231133e-01 -7.656712989397873592e-01
1.641303465310471263e-02 1.328505235459998546e-01 -6.662454592198705505e-01 7.433795095972292044e-01 3.603107559429946094e-01 -5.635273408298582254e-01
-2.896461893104852747e-02 -2.986445221559696703e-03 -7.823382920720814981e-01 3.078465716696805049e-02 -5.465984728115248492e-01 8.368287844016965016e-01
-1.953763104023003086e-02 9.517351337749221929e-02 -7.346417967389060610e-01 -4.547714386311645929e-01 -6.443122979407989170e-01 6.148533169200504078e-01
-6.668317657437554391e-02 7.565184036423724945e-02 -7.738214524922176762e-01 -1.578718709192483971e-01 -4.525752711618095669e-01 8.776400721852157805e-01
1.730250985238722394e-02 1.162046004668263882e-01 -6.813508715747333966e-01 -7.579595267886831689e-01 -3.166422272388547121e-01 5.702938327559687881e-01
4.402082339757784277e-03 2.274110412588501717e-01 -6.806404398356219465e-01 -4.368934686390075761e-01 8.644502571898400323e-01 -2.486963005454563558e-01
-3.202579968449652259e-02 7.482337657873699976e-02 -7.598259914882734556e-01 -5.688048934670542067e-01 -2.582633263868960305e-01 7.808719788873902390e-01
7.508722487838729275e-03 -1.065960880587495524e-01 -8.308298930214875755e-01 -6.093455691183431444e-01 2.575713137597710478e-01 -7.499033242518052811e-01
6.267162220597501110e-02 1.526326229801715402e-02 -7.859590569428561713e-01 8.701171586179287099e-01 -4.266551885811888933e-01 2.467011964612504937e-01
-8.239704466128639198e-05 1.536799689066794816e-01 -6.815884829696728930e-01 8.004270443924418332e-01 4.766606635336514963e-01 -3.634709870744003979e-01
-1.461498753245831254e-03 2.039697217308936439e-01 -6.684286699241746010e-01 8.368784635958735896e-01 -3.783836891725604005e-03 -5.473756660172123256e-01
1.452694323922668583e-02 -1.779114292088978810e-01 -8.710493309013578322e-01 -8.363577819196108543e-01 2.094794414117574499e-01 -5.065807183937490743e-01
3.286492105279682080e-02 8.007796896607156933e-02 -6.974627233784040925e-01 -9.737217713444906719e-02 -5.745415493854295619e-01 8.126627019556683651e-01
-4.270194295719396960e-02 -4.988160761864458836e-03 -7.819179777263257636e-01 6.816644812518575514e-02 -3.692605885207222438e-01 9.268225035654487076e-01
1.500721793672849663e-02 -2.286578594154060895e-01 -8.834214067359020817e-01 -9.840730915480010443e-01 4.954252913074702613e-02 -1.707210833449948340e-01
6.364203562982387319e-02 8.102632647234893348e-02 -7.123923456320758740e-01 -6.674232645936392094e-01 6.264384144641544916e-01 -4.026426439944055802e-01
1.993639286573338498e-02 1.086396261380728340e-01 -6.803725373623069617e-01 6.257331142591836537e-01 5.948220673757278476e-01 -5.046234020359818828e-01
-7.410115170083668434e-02 -3.129316357182313629e-02 -7.902457945232235215e-01 6.365976727789930401e-01 4.363412367225880661e-01 -6.358849960077471719e-01
-1.952608174318874040e-02 -5.670515751606233085e-02 -8.010700224483108256e-01 2.782844154641951895e-01 4.402184804406704122e-01 -8.536776168954286481e-01
1.042340230724463426e-02 1.577095368688225530e-01 -6.651944666578426535e-01 -4.483414985266898078e-01 -5.380803707083348097e-01 7.137642575509249854e-01
-1.448554096963686720e-02 1.565945030107217528e-01 -7.031946884900768246e-01 -9.430270593751903796e-01 -9.130703530072277474e-02 3.199421675721624281e-01
6.184275790857873822e-02 9.008487828830319399e-02 -7.013995296546807756e-01 6.475912200154692044e-01 -5.523461720594133872e-01 5.249183917240743957e-01
-3.309656694285938866e-02 -1.261243922167475384e-01 -8.522631715677952968e-01 -5.632035971566270449e-01 -6.564243720959355155e-01 5.019051223770213399e-01
6.966141948911799830e-02 3.730057087958825457e-02 -7.674506901825021155e-01 3.269705261516336336e-01 -2.743260688255818036e-01 9.043425694894750011e-01
-6.546634359818608029e-02 1.195958336279327391e-02 -7.528548548396526430e-01 -2.955837439717735049e-01 6.201338273455517802e-01 -7.266803193161256447e-01
2.289235548319515368e-02 -1.068269158350326348e-01 -8.560381080406387344e-01 -9.406197288835830284e-01 2.184474772098367046e-01 -2.598369206553074462e-01
-2.264600330260882130e-02 -6.904571933698760988e-02 -8.082853059027218512e-01 1.834947889583867300e-02 -3.678274164840161231e-01 9.297130139494367285e-01
5.482391078393019507e-02 8.741492732204701743e-02 -6.976494918506753740e-01 4.915122688988051158e-01 -7.565151680788917421e-01 4.313936601162735585e-01
-1.054028651545390986e-02 7.658347030574147452e-02 -7.359861759609043208e-01 4.206675003857240358e-01 4.445523490992393523e-01 -7.908299836434975472e-01
3.489796341507515193e-02 1.560594080885316240e-03 -7.833439680782741110e-01 4.467177499853132727e-01 -4.905189378779070131e-01 7.482208386774517050e-01
-3.624316173589380713e-02 8.223187117330285623e-02 -7.551687807866896973e-01 3.533409332335730180e-01 6.100325874448535579e-01 -7.092322801148891465e-01
-6.940417637821234831e-02 8.656400099222764932e-02 -7.690197807663791130e-01 -9.806381313100021035e-01 2.393539720579043392e-02 -1.943603667969064641e-01
-2.441755889477023947e-02 -5.248101224347204163e-02 -8.005246387693161214e-01 1.237369930771446414e-01 3.507684290493475188e-01 -9.282514022216608041e-01
-7.256523397547014198e-02 -4.271814553647451662e-02 -8.006786892305158831e-01 -8.953060710399723954e-01 -3.426435232103529627e-01 2.846444363780264997e-01
3.099266570147007904e-02 6.835905111540988011e-02 -7.081853202230442568e-01 1.919479990656143553e-01 -7.617720167283963395e-01 6.187563011269128221e-01
-7.646440773285658604e-03 2.151406191025020953e-01 -6.865808700084928828e-01 9.244069117835788107e-01 -3.665744509520919014e-01 -1.053329642415846423e-01
2.000061589510717525e-02 -7.081292424811604092e-02 -8.349057778743936842e-01 -7.520207924555466494e-01 5.545014267734185154e-01 -3.563606255196758998e-01
-1.694781341142717612e-02 -1.800913291355982909e-02 -7.837696896756266574e-01 4.043082226095511822e-01 5.533417976783642223e-01 -7.282497621505839014e-01
-2.524650175113911030e-02 -6.121896217854878863e-02 -8.055268561625059665e-01 -6.038477672646005295e-02 -4.147663579371475562e-01 9.079221040723975955e-01
7.783820206302441425e-02 1.239847691156048537e-01 -7.015711391147876341e-01 -8.706604131076809416e-01 -3.238345798986003166e-01 3.702453374575556122e-01
-5.691676332991116305e-02 -2.743754081208780657e-02 -7.822849275364439636e-01 -2.294435055028040127e-01 3.834891305753711510e-01 -8.945902774528298185e-01
4.490171081001212428e-02 1.620015196608694530e-01 -6.172961170563892042e-01 4.425373536036933397e-01 6.108943311067122073e-01 -6.564821451396238849e-01
2.613547773384330974e-02 1.233368187880731909e-01 -6.629549378176952112e-01 6.012002524283752702e-01 5.657747054454888014e-01 -5.643201566115888523e-01
2.575662342333545976e-02 2.020176961702509766e-01 -6.223684053085863921e-01 -6.092029444032258656e-01 2.212649462358363961e-01 7.615205815325625238e-01
7.449268638113308583e-02 1.205231715881194543e-01 -6.819795884751546078e-01 7.814808324859542354e-01 -6.053202719281641775e-01 1.512450886801724459e-01
-8.910309897679517463e-04 1.095240047239061792e-01 -7.079079109362348410e-01 3.224489811669816741e-01 6.134978035871547775e-01 -7.208655211189619605e-01
4.888797557424398588e-02 2.379833269977425433e-02 -7.644241029257106135e-01 -5.569080919905189386e-01 6.351375987612534191e-01 -5.352136094264314803e-01
2.102922396358267512e-02 9.507859201602424440e-03 -7.568482117846918600e-01 -5.951288543604340564e-01 4.590702185974160354e-01 -6.596030481316453864e-01
-1.422424378539869673e-02 -1.405872859636638217e-01 -8.565093158688293906e-01 -3.048697616058257953e-01 -3.423519674096345833e-01 8.887348079540710044e-01
1.775032038683196575e-02 1.562669688747791441e-01 -6.465701127575642637e-01 7.700791687838223210e-01 3.724377387753862734e-01 -5.179461405793988060e-01
7.914447182560534200e-03 6.429526340473594448e-02 -7.314300985732340443e-01 -9.974892420434698925e-01 1.547817689038896846e-03 7.080124481918147195e-02
-9.284013588553850435e-03 1.313271629435432131e-01 -7.064864340126670861e-01 -7.058877618243954988e-01 -7.179295167765452346e-02 7.046759821336010532e-01
6.757871138313319148e-02 2.498035309915516353e-02 -7.830236463276537551e-01 -5.909027814659559841e-01 -4.512599484551567119e-01 6.687289150141825234e-01
3.956307513694471562e-02 -1.233374628243278683e-02 -7.994732237416999343e-01 -4.613711578581683459e-01 6.562740864419471798e-01 -5.970267817790091414e-01
2.596733898772123073e-02 -5.809967798221991886e-02 -8.233305416655392062e-01 -7.040143053843470611e-01 5.580925036624166946e-01 -4.391999717327071950e-01
-1.492928878649917718e-02 1.721259154527164659e-01 -6.963612936065772807e-01 -8.806096044221991548e-01 -1.667354465132412367e-01 4.435380654187505711e-01
-2.312358264188496201e-02 1.911300757130564021e-01 -7.143787599811766142e-01 -9.046548759300345743e-01 1.469248852480372347e-01 4.000157916268614611e-01
1.415197464597524844e-02 -2.449129442649471411e-01 -8.969811284426221221e-01 -1.106334668983473130e-01 -1.843840811993294471e-01 9.766077752108731636e-01
2.205661048828414655e-02 2.216828772215419796e-01 -6.163318895787507357e-01 7.827310184575408947e-01 -5.975261103132932794e-01 1.740537280218006355e-01
3.385457990964505642e-02 1.114363672634833408e-01 -6.688681386787309613e-01 4.995143208704085347e-01 5.738876346916749194e-01 -6.489517901919751308e-01
1.524725091977172792e-02 -1.755532940932314767e-01 -8.711853506599035457e-01 -7.854523092282817975e-01 2.271887370378196935e-01 -5.757168989104975987e-01
1.523885398907898550e-02 1.291802152698072192e-01 -6.707966761666726008e-01 5.777395571773082938e-01 7.564105102924432167e-01 -3.066922626863832213e-01
-6.472749698063232082e-02 -7.466369279088078126e-02 -8.246264893018424580e-01 8.496319593381522761e-01 6.225540371773549686e-02 5.236886464103972516e-01
4.623600654383400177e-02 -2.745502635655812720e-02 -8.135625853984105316e-01 8.905656313938393742e-01 3.374211335086358954e-01 -3.050243184433650279e-01
4.653804689642376813e-02 8.476267800071167480e-02 -6.956320780017437588e-01 3.266898853104020506e-01 -7.264551060237460778e-01 6.045963097537927489e-01
1.441277603500301738e-03 2.243125003997810951e-01 -6.861013720267609139e-01 -5.276737528003648814e-01 8.202803387042080230e-01 -2.206820711813473612e-01
7.093160119693383940e-03 -2.059968893593519812e-01 -8.739205786697940015e-01 -5.981413288489949576e-01 2.449838843756466378e-01 -7.630267669741201964e-01
-3.122630543580667481e-02 -2.902775232187299048e-02 -7.909706819095400077e-01 -1.908709086319056170e-01 1.435489882609808088e-01 -9.710622967695119456e-01
4.132127884188398909e-02 1.001050622210016283e-01 -6.762827564449068740e-01 -1.435804706906093908e-01 5.588884891692867951e-01 -8.167180083176414085e-01
-2.362654052717733447e-02 -7.147530528933869476e-02 -8.095899964421492401e-01 -1.530721632533712795e-01 -3.972326238312652857e-01 9.048619537813830105e-01
6.935038394209054602e-02 1.087088963800231373e-01 -6.845155568450059791e-01 -6.455146144067966940e-01 6.847102908161214474e-01 -3.383529226085494890e-01
-7.346494384831238345e-03 2.099812537162053794e-01 -7.099791129752592855e-01 -9.139576397514551087e-02 8.173931050602076809e-01 -5.687840768933598579e-01
-4.537312095617172802e-02 1.591523877862279640e-02 -7.688983013541407230e-01 1.237817294934970003e-01 -9.872700737598969489e-01 9.987935172860387678e-02
3.287137965430261127e-02 1.059185081843640602e-01 -6.742880451780516315e-01 3.675484015730352549e-01 6.357497220419142669e-01 -6.787712894817632403e-01
-1.374932218349152711e-02 1.604882693889457534e-01 -6.952969949110184844e-01 9.091876131290583807e-01 1.908395267302342435e-01 -3.700785851276264804e-01
5.562364937028129591e-02 1.296276423611822937e-01 -6.491759920601923861e-01 -2.714521771839329967e-01 8.336948788389910714e-01 -4.809018241800945281e-01
4.373354896893088400e-02 1.235927262217713235e-01 -6.562065446013195524e-01 -8.283893209607730290e-02 4.614460563142613880e-01 -8.832922780377947536e-01
-8.386796348405079274e-03 2.133140838394668171e-01 -6.936590844096086617e-01 -8.176701754166902925e-01 5.228507115820723028e-01 2.409203553711454227e-01
5.618655492580042210e-02 1.181984408857151558e-01 -6.640045780092430627e-01 -7.065961215943488138e-01 5.753746848250759216e-01 -4.119051990570995470e-01
-3.207075427960889846e-02 9.336034794083070132e-02 -7.456622970648887350e-01 -1.768823670546246229e-01 -5.608363106278785315e-01 8.088110168058190164e-01
-1.351585829949221614e-02 9.395950328540686458e-02 -7.303834693980357784e-01 -7.429729757590450845e-01 -4.352544887715333322e-01 5.084728973072021319e-01
-2.716072211920204926e-02 -1.106485019130493547e-01 -8.339191325240018493e-01 1.211439284712845649e-01 7.020042890378855871e-01 -7.017935072134516838e-01
4.527255426014179657e-02 -3.180486253120442391e-02 -8.163952311286816199e-01 9.054995018134854856e-01 -6.803574215816178550e-02 -4.188577204785865482e-01
-3.789672777356521000e-02 -4.768651600117041617e-02 -7.972210234031934517e-01 -1.615662821093152013e-01 5.580164693499358730e-01 -8.139496031202455573e-01
1.401255480288660961e-02 -1.355727999659703253e-01 -8.512352819562856165e-01 -5.714227976925125851e-01 3.589199633840337023e-01 -7.380057223095670693e-01
5.674386914777857643e-02 8.117271802278493154e-02 -7.070126807443248840e-01 3.695652701589727807e-01 -7.278084224456713436e-01 5.776819291872203888e-01
4.887821859786429211e-03 5.987668510481706195e-03 -7.622574377611910368e-01 -8.667133944608083063e-01 -1.286323038848218026e-01 4.819352884563510298e-01
6.647658829777619571e-02 7.043420810870083815e-02 -7.498770459816849199e-01 7.524444997853892980e-01 -5.413743896750707885e-01 3.751546946882846068e-01
-1.308892910546910655e-02 1.599979977172382439e-01 -6.975668876493268389e-01 -9.090367654594402325e-01 -7.593321930152387156e-02 4.097393137710182431e-01
7.213481380026144987e-03 1.711243854103632889e-01 -6.576594377701983074e-01 8.163474671416095507e-01 2.497582268686739659e-01 -5.207663977282853685e-01
-2.114669684221439500e-02 6.198759078396701150e-02 -7.559127831098555461e-01 7.288514091754492163e-01 4.375772016711780288e-01 -5.265945460414330759e-01
6.010488273264312682e-03 2.212481425892501019e-01 -6.589827000753388786e-01 8.462564992304477673e-01 -1.985917632371914099e-01 -4.943796608726644948e-01
4.812486062593967703e-03 -1.756743873835735215e-01 -8.644503860075439805e-01 -7.732824087502544741e-02 5.082686210228044565e-01 -8.577198563906229811e-01
-2.742766799883476769e-02 1.326683670608607701e-01 -7.229681258427451684e-01 6.964472226850804137e-01 1.151899625289746210e-01 -7.083025755613284735e-01
4.078775282202727094e-03 -4.855179624206360650e-02 -7.963857888443330868e-01 -6.274998234245559026e-01 2.857652693857374859e-01 -7.242804583965027909e-01
-1.365039510452674063e-02 1.938152773539608409e-01 -6.903594956025859153e-01 9.271791128047844888e-01 5.641992203210030588e-02 -3.703453593288627554e-01
-5.186425629132829750e-03 2.200406470821321403e-01 -6.873995656206295379e-01 8.494066776143351927e-01 -5.195331791739964400e-01 -9.270151973693432912e-02
-6.691216385417740609e-02 1.250665650205940727e-01 -7.390690827569261767e-01 2.411711793539428883e-01 -1.309962486605940240e-03 -9.704817083527705890e-01
2.039491465417956825e-02 -9.047510879219641811e-02 -8.563980914747714168e-01 9.825864469869465267e-01 1.577794720729195910e-01 -9.813007892567662815e-02
-1.531338423231655421e-02 5.711781534685839157e-02 -7.572547742037299967e-01 -4.730503911892625091e-01 -6.675582709770456757e-01 5.749689402444476682e-01
-2.794550781847500616e-03 -1.857486093994291654e-01 -8.721376445966115831e-01 -4.953418293285932750e-01 -2.097734512930277129e-01 8.429896625997348458e-01
1.011856039418864914e-02 -2.059220577487722303e-01 -8.841524553341246762e-01 -8.339698109885793631e-01 -3.303927821099232331e-01 4.419671525004292278e-01
1.414559365990518576e-02 -6.076953107120511635e-03 -7.675915350487988453e-01 9.580992755497766411e-02 -5.919406517302026050e-01 8.002666571906721371e-01
-7.137911378929846784e-02 8.701837674721472904e-02 -7.663453680930210066e-01 9.023505213357936316e-01 3.752127403496747227e-01 -2.120823805135844120e-01
1.188938427820971852e-02 -7.888925441464025856e-02 -8.214837374310053342e-01 8.633133930017431457e-01 -4.269343736981802140e-01 2.691041174318232199e-01
1.763463631844168402e-03 -9.173442191776617286e-05 -7.690230396560944204e-01 -9.967132254141133352e-01 -5.537641367546942972e-02 5.912866557802479855e-02
1.692677522296347908e-02 -1.414217519872845996e-01 -8.588611632172171717e-01 7.051452471955832468e-01 -3.249797028951018629e-01 6.302050246258682487e-01
-4.337217373682433069e-02 8.192603833413793224e-02 -7.577563471397662509e-01 3.255460152395814322e-01 7.381893193868667158e-01 -5.908437362829400685e-01
4.226635968316016199e-03 4.730013518624830854e-02 -7.460679050039726867e-01 -3.113327600078462098e-01 -4.732180126919487972e-01 8.240974608684215053e-01
-1.934083962651325997e-02 -1.446224975842392846e-01 -8.604404150509749050e-01 -2.260915563916947868e-01 -4.590699043694922987e-01 8.591492484024916276e-01
-2.171724013827907446e-03 -1.639889196894784573e-01 -8.609199586900294632e-01 1.281622977321574264e-01 3.331412926250413853e-01 -9.341259575603980680e-01
-4.715240901678160318e-02 1.693271092978801962e-01 -7.396794421489076843e-01 -8.124448635082572867e-01 5.163013615281997204e-01 2.708620457782456303e-01
-4.119727670177276979e-02 -1.182309701991595408e-01 -8.548525836493664487e-01 -9.575158147563136435e-01 -2.883797691003490704e-01 -7.571427753126562347e-04
-3.748327039625139884e-02 5.966540997879016955e-02 -7.697738576824871837e-01 -2.226009847747183745e-01 8.198234263086862095e-01 -5.275778153531588410e-01
-3.254684538529001216e-03 -1.204298569310104788e-01 -8.444145531782983882e-01 7.568371889700299393e-01 -3.031604955420786340e-01 5.790433345913105212e-01
-1.644626442789558565e-02 -2.110968300764319225e-03 -7.788901606725970872e-01 3.838929254011426706e-01 1.456314460366943397e-01 -9.118210919649831769e-01
-3.909142724106754591e-02 -6.967377987236207789e-04 -7.801149749356005580e-01 2.354766881483628949e-01 -3.570364852753902807e-01 9.039223846773983828e-01
2.377886573173901980e-02 -1.161099318494701604e-01 -8.626748073011530904e-01 -9.964118397592004461e-01 6.289555240944628978e-02 5.663563431971037343e-02
6.870334193914764964e-03 -2.168589548909378162e-01 -8.833626084586027050e-01 9.239878466768890464e-01 2.813185490117116050e-01 -2.590489011274728637e-01
6.122205020398893693e-02 1.353786390623229752e-01 -6.410934362238251971e-01 -7.808374287558153548e-02 8.529629422449670484e-01 -5.160980025686489059e-01
-8.893831981245310311e-03 1.530187291870091781e-01 -6.963158509207196811e-01 -6.960543000187702223e-01 -4.515177673477926423e-01 5.582473620131529479e-01
7.217760327180730573e-02 8.798181278515894432e-02 -7.274565274920085090e-01 -7.555581410118547003e-01 6.537910836316010998e-01 4.109883835982289235e-02
-1.962657109709235737e-02 -7.792820123544345889e-02 -8.123203944525944076e-01 -9.803308584955360006e-02 -5.457827553207874605e-01 8.321722766790922154e-01
-9.080244885140626929e-03 1.888056778861553764e-01 -6.809779707085866773e-01 8.792870249650147629e-01 5.589553212455433684e-02 -4.730010752806872998e-01
2.111671615690785195e-02 -1.000341698806855306e-01 -8.587321836300223499e-01 9.837241583146446589e-01 8.634759182219907403e-02 -1.575781511969557569e-01
-6.434525003169964952e-02 -8.574238374734173898e-03 -7.708573408166201624e-01 4.925348784806442282e-02 -5.590223805428932158e-01 8.276883906319799644e-01
1.411408344343482481e-02 1.683586982489384265e-01 -6.487690750692342023e-01 -8.728637448855031122e-01 -1.791628011143133192e-01 4.538827751317827675e-01
8.808746565102595905e-03 1.844579779320903445e-01 -6.556907430674092652e-01 -8.197354259974991564e-01 -6.129971672562454371e-02 5.694525231255513908e-01
-3.154719862138931352e-02 1.152306539406219637e-03 -7.795213771798437108e-01 1.136844796830806387e-01 7.122355334528386595e-02 -9.909606674979885010e-01
-1.056397852282844017e-02 -1.434219261598193296e-01 -8.553121948132650365e-01 2.345109829543013669e-01 4.373955093014555429e-01 -8.681530782740608521e-01
-5.274041008487728027e-03 1.969007791470518409e-01 -6.777497389030486818e-01 -9.255635780350016661e-01 -6.688064044946258335e-02 3.726379515670876774e-01
3.529974744789261820e-02 1.216581702864902720e-01 -6.589156843553307663e-01 2.393495986557417909e-01 4.414000226624234524e-01 -8.647992770677757068e-01
2.781375697599075200e-02 7.859474405017931320e-02 -6.996568293990916843e-01 -2.539746936082569739e-01 -6.115158177924246985e-01 7.493632360853139662e-01
1.709829203512655896e-02 -1.716660448178517206e-01 -8.763408694256594744e-01 2.615565091640202344e-01 -2.150783349115537035e-02 9.649484989430516801e-01
-6.140968097477408211e-02 1.229683239171820708e-01 -7.390509645596778920e-01 9.919146116412336234e-02 4.365607631475503791e-01 -8.941899988884658423e-01
1.605953330424671546e-02 -2.233246730880836528e-01 -8.843483503909665977e-01 -7.963379072455919472e-01 2.049544997380488287e-02 -6.045046517720789048e-01
5.403533827495836384e-02 1.450074576520369307e-01 -6.306391073151710325e-01 -1.414797938417573786e-01 -7.228760790090065225e-01 6.763384081442207485e-01
-2.624900299212091712e-02 5.986441792237365972e-02 -7.674992027110543180e-01 -7.484517846631697502e-01 -3.671727248468071303e-01 5.522717774457489570e-01
8.151804247761807939e-03 1.388091917057376196e-02 -7.546189789991941677e-01 -6.075547920651450662e-01 -4.962558595155507901e-01 6.201671520930144288e-01
4.726060084952544808e-03 1.918147754839920061e-01 -6.588690209089191896e-01 9.105639835757886047e-01 2.697900391455239702e-02 -4.124868060464111919e-01
2.689172519240959694e-02 7.376201785827077306e-02 -7.009562518957084265e-01 1.292367573624024768e-01 6.537394619415919372e-01 -7.456021569488444634e-01
1.493280777875421149e-02 2.085412789145281720e-01 -6.393771844313824726e-01 8.603277160738774798e-01 -3.638783806596708192e-01 -3.569716305865234252e-01
9.766775789379849790e-03 -1.313897159345522869e-01 -8.475984968498427863e-01 -4.281714993067263220e-01 3.375626904453938315e-01 -8.382843176397236640e-01
5.449001405492881478e-02 9.483137018707119004e-02 -6.858930506197011834e-01 -4.819115063121522935e-01 6.255470741177365790e-01 -6.135569722093388023e-01
1.292656236660506656e-02 1.884062957468032526e-02 -7.462102864464994489e-01 1.570397102756515839e-01 6.609699114479692383e-01 -7.337965014614086234e-01
-2.660211738153712285e-02 1.833094078983886141e-02 -7.740139965603953787e-01 -4.246455498463039963e-02 3.163530240438064411e-01 -9.476906276566716691e-01
-1.409608493931314467e-02 6.659894722987367427e-03 -7.771931659683641858e-01 -4.792989427109732858e-01 -3.182054815048051544e-01 8.179350799766680336e-01
1.355287030898608656e-02 2.017154422141683445e-01 -6.326574750751088327e-01 9.159798687274907092e-01 -1.558042705277291606e-01 3.697376223368284975e-01
-3.845441033673119985e-02 1.294252958836445422e-01 -7.321591296543868976e-01 -4.011303774079665319e-01 6.764058301823169805e-02 9.135202087800227133e-01
4.126684635456804445e-02 1.277180818718288979e-01 -6.550414766962709967e-01 1.135306419774810387e-03 -5.310079703675155693e-01 8.473660640393293475e-01
-1.936508058001304433e-02 9.677997409162837628e-02 -7.308185048863508060e-01 5.000147965702390618e-01 4.278633265264444874e-01 -7.529396901641907114e-01
-5.709336560809799566e-02 9.039778844955874415e-02 -7.553212536129554344e-01 1.555051041325903050e-01 5.153970094034026062e-01 -8.427242047590309815e-01
-1.452015752999211151e-02 1.128685097819049771e-01 -7.158373594793435712e-01 -4.813870039900237652e-01 -2.382986406359451637e-01 8.434929224721271490e-01
1.244192789654954487e-02 -6.550069613870562399e-03 -7.655796414423566842e-01 -1.475605410584964194e-01 5.449739041263311767e-01 -8.253661796704709896e-01
-5.504330649200599168e-02 1.450142106528927444e-01 -7.359016347577511663e-01 1.560654617916849562e-01 -5.545867459391319587e-02 -9.861885758048684059e-01
-1.252542912583878842e-02 -4.357434662935161934e-02 -7.930823327741244322e-01 2.468033661634887188e-01 3.881034503905141930e-01 -8.879548469631486363e-01
5.899684623864575109e-03 -1.964049379777901283e-01 -8.793456979465934520e-01 9.938390686123019790e-01 6.968199640494655844e-02 8.618773159129503036e-02
-1.730547667032658263e-02 -1.255602475031783981e-02 -7.842607677745624395e-01 -2.186237635449618799e-01 -3.712306708144024192e-01 9.024363905894561277e-01
-4.918379380656914129e-02 -3.533327072131516727e-02 -7.885372211160447398e-01 -2.133064606526353935e-01 5.003979153898835408e-01 -8.391080264884281936e-01
-1.784536505381293867e-02 -1.339972842544181475e-01 -8.506580632171781842e-01 5.095564871055936057e-03 6.283266416969668366e-01 -7.779329447661003094e-01
-3.245969178067318727e-03 1.712556100752126442e-01 -6.742304198390981496e-01 8.483369207834873249e-01 2.057979627232882081e-01 -4.878233977317358305e-01
6.159054810389612278e-02 1.051122591003283702e-01 -6.820410598805253244e-01 5.048952934681600890e-01 -7.435977132815474455e-01 4.383414005500210764e-01
-8.288597804708964373e-03 2.141391725108169330e-01 -7.075325766096739466e-01 3.239205863509216909e-01 -8.237330976286207918e-01 4.653377672285285427e-01
1.858539940980035929e-02 2.232905066405496408e-01 -6.419025796998460986e-01 8.699862591884529595e-01 -5.656182626642963091e-02 -4.898210577677197808e-01
-6.049695594293796191e-02 -7.584217332815362811e-02 -8.197481567612693309e-01 -6.714207410138700594e-01 -6.155102072723170892e-01 4.127243308553238399e-01
-2.718798676999800712e-02 -3.305010036551635222e-02 -7.946314366307022370e-01 -3.754247289553030477e-03 -6.172389577468025967e-01 7.867667854370377079e-01
-1.310215424625610706e-02 -1.140518351262731628e-01 -8.376141141754670505e-01 -1.439596522909893095e-01 -7.764034865888648218e-01 6.135741556852861711e-01
9.022982993005319169e-03 -1.203781978556463517e-01 -8.408419440647492138e-01 -4.337755573666213227e-01 4.567799520029043325e-01 -7.766536173092233319e-01
1.552807314559405578e-02 2.510382528600599294e-02 -7.436341413032397929e-01 -3.285853840879218030e-02 -5.648926264174997103e-01 8.245099375221484062e-01
-4.427390706292661654e-02 9.930533261146094748e-02 -7.457139198427824578e-01 -4.581855007558489068e-01 -4.905427550156568617e-01 7.412380537983470630e-01
-8.556331293599244228e-03 -1.100118769223357024e-01 -8.320019007668782995e-01 -1.356083230618417845e-01 5.244245529817088691e-01 -8.405886455016449155e-01
3.053696549098552232e-02 3.876366171853336956e-02 -7.392378055158688177e-01 2.483142041317680793e-01 -4.795111263306426341e-01 8.416704436722993732e-01
-3.363339448257779418e-02 1.126635865892522403e-01 -7.299799799613330142e-01 -5.810993581794969831e-01 -2.272399778898170630e-01 7.814637089283239524e-01
3.886211121470983798e-02 1.787808039442672359e-01 -6.097508026848691420e-01 6.463423036303160840e-01 1.699559997611431450e-01 -7.438794154182830631e-01
-2.282796957957438505e-02 -2.254218425991969671e-02 -7.870578929453364569e-01 2.955127077964837534e-01 5.146814649696531685e-01 -8.048448478728565947e-01
-6.156357247104386060e-02 1.164405101996780489e-01 -7.427608757216209723e-01 -9.157931413013976982e-04 4.399667060086367432e-01 -8.980136184528785259e-01
-6.251456156977552858e-02 -2.298013693827455697e-02 -7.786348548644986822e-01 1.009141946915112220e-01 6.693389122768474975e-01 -7.360718346885788410e-01
6.133241312151088004e-02 7.692118948362602904e-02 -7.180116683276774880e-01 6.273042284145313729e-01 -6.054641879037558905e-01 4.897984505684915280e-01
-1.608887501625529820e-02 -8.955822239059010870e-03 -7.808366169520849498e-01 4.798174323234661864e-01 2.582288698341859146e-01 -8.385064593804121280e-01
1.947359702404564616e-02 2.102936745532599933e-02 -7.457782760782815101e-01 -5.208956973409281099e-01 5.986715657041890015e-01 -6.084899579360395494e-01
6.486120408665176085e-02 2.315458716169030429e-02 -7.846588103314935392e-01 6.346256161822199093e-01 -5.999822929607221411e-01 4.871053021872497335e-01
-1.725199332041601682e-02 -5.951522233164632802e-02 -8.031386103000476284e-01 -3.305809021814442028e-01 -1.264921171414609413e-01 9.352625360902538931e-01
-1.892812007837368221e-02 5.978616643465886615e-02 -7.551857885116092239e-01 6.321612120162787285e-01 5.509005237815070011e-01 -5.448677040524340098e-01
-2.007238888093813844e-02 1.785633354339965229e-01 -7.032353578727452703e-01 9.726211669344698718e-01 1.630956342225274233e-02 -2.318233460460908391e-01
2.276106618969200510e-03 8.730333722770929061e-02 -7.233078605279317230e-01 -2.870992122565627080e-01 -3.253816083020490968e-01 9.009444218709793395e-01
5.734079362515584477e-02 1.753091731977916568e-01 -6.054180330702572110e-01 -3.922079785878387348e-01 2.947821552988864613e-01 -8.713646667437144888e-01
-6.594647601101425935e-03 7.646456735746647027e-02 -7.352871002003859013e-01 -5.924436576646433528e-01 -3.516835738040063886e-01 7.247959550172594634e-01
-7.156060946759547348e-02 -1.193431628896152348e-02 -7.808028263535355951e-01 -9.592901064833270208e-01 2.296318694698151197e-01 1.644131872052989607e-01
5.463850196750013460e-02 5.751447362906118854e-02 -7.319143688790947788e-01 -7.789356545201530091e-01 5.587142708306970240e-01 -2.847764205256173575e-01
-4.293366648393669160e-02 1.015010272318672829e-01 -7.436212195647952106e-01 -4.046670896980580356e-01 -3.849393120780508770e-01 8.294976024873010889e-01
-3.527003508486344086e-02 1.071685639552320407e-01 -7.335556720598350733e-01 -4.682860377788506945e-01 -4.624410519134064534e-01 7.528987052230911026e-01
-7.527562083111785478e-03 3.341836594593179666e-02 -7.639339700192303573e-01 -7.260398248724502235e-01 -2.887508267353301461e-01 6.240906446653764483e-01
