4.349854254558974814e-02 -2.661886633068052260e-02 -9.227296864456061565e-01 5.081041199750039317e-01 5.921772759185194301e-01 -6.254248773035403497e-01
2.842388025931258388e-03 8.819338502330055507e-02 -8.174576276596011715e-01 6.528380609331786433e-01 4.773103258077678879e-01 -5.881983671129067393e-01
-5.017733192026360874e-03 1.428531994970441421e-01 -8.943625809285382644e-01 -8.765649836128865946e-01 4.546870694269600222e-01 1.577767359266335212e-01
2.057073786747241201e-02 3.334355856271241370e-02 -8.676049237899268185e-01 5.290106284138283987e-01 1.683823455904064903e-01 -8.317422321360621318e-01
-7.538957839275947127e-03 -7.813865703866418322e-02 -9.741179804301155487e-01 7.946455650866885989e-01 3.750834260953240795e-01 -4.773372490772653243e-01
-2.966554330362218897e-02 1.234919173725065461e-01 -9.470913370916139717e-01 9.869565831431570402e-01 -5.993975080797016297e-02 1.494119448486737056e-01
-1.806717356506333354e-03 -3.706475574688199853e-02 -9.441381360556317937e-01 5.193860945781566540e-01 6.889853090038476902e-01 -5.055070016683474998e-01
-1.538136876606670603e-02 1.702987554577959639e-01 -7.973386943867983856e-01 -9.663986076731904129e-01 1.963290267420189639e-01 -1.659175829918305145e-01
-7.859070625160684623e-04 -1.270058728759068389e-01 -1.003999857271453910e+00 9.094108713457565996e-01 2.925702463518369822e-01 -2.955918098117356063e-01
-9.278434307718345930e-03 1.766534494451729165e-01 -8.164990964478940905e-01 -9.788284818351526972e-01 1.551008795029052423e-01 -1.335609236480323758e-01
2.657705402907365681e-03 1.950071408418768970e-01 -8.565390716137348814e-01 6.612331226879546442e-01 -4.498879200537660439e-01 6.003096008311317178e-01
-1.025070834671428996e-02 1.569966168942901197e-01 -8.232641558275902716e-01 9.777098891480977549e-01 6.951069404942315788e-02 1.981202565988197939e-01
2.219085139449636173e-04 5.111232104459883380e-02 -8.657284251898731409e-01 -7.213207255809513940e-01 -5.520023797693198730e-01 4.183178021270162472e-01
-2.170236014420912074e-02 -3.263399790522152066e-02 -9.724479792742661832e-01 6.928513779717671017e-01 5.801363204428663933e-02 -7.187429210362032972e-01
3.680122914338315038e-02 6.048398005148843126e-02 -8.346128121292019086e-01 -2.455377099158838061e-01 7.183514134141982810e-01 -6.509089643376305689e-01
4.575927214883676597e-02 -2.420952678727083390e-02 -9.209518162861983770e-01 -5.638267405566136370e-01 -5.934020519757983170e-01 5.744331217332588890e-01
-1.749547376748374072e-02 -4.716656971407332671e-02 -9.734816500675698148e-01 7.502520762465669790e-01 1.216865059395645932e-01 -6.498570737938733632e-01
2.841384191409706064e-02 -1.619488693958530401e-01 -1.011945665490066260e+00 4.728448776742980586e-01 -5.528493025846440423e-01 6.861307239067863106e-01
-5.195657759581417956e-02 1.138971674203505865e-03 -9.801870730264335974e-01 9.027124010361162743e-01 3.627191496371564017e-01 -2.313982270937012253e-01
-3.674390665885737210e-03 5.886718546575483296e-02 -9.263923833151285203e-01 9.944618270393892345e-01 9.682649227199777164e-02 -4.086936451403162113e-02
-2.168750541483600858e-02 1.000956551582709957e-02 -9.564526230947395513e-01 5.499176415171324050e-01 1.862181898267487312e-01 -8.141949234218325282e-01
1.699298578143440888e-02 2.165388310505175218e-01 -8.416483196407843481e-01 -2.272525111678664611e-01 8.940423775419673591e-01 -3.860628489339588687e-01
-1.253752659506027212e-02 -3.729492914764594852e-02 -9.622851757204249346e-01 8.819667265299940828e-01 2.782753187883771351e-01 -3.803912988584176036e-01
1.313087251223010558e-02 7.492217187659964972e-02 -8.267232018915298131e-01 -2.468905550782843905e-01 -8.219227858848459078e-01 5.133108101885546226e-01
-5.247844802607134172e-03 1.258153042795866206e-01 -8.410322464787588492e-01 9.662898738992579117e-01 7.799463733770248090e-03 2.573383919379734763e-01
-9.515335029939288661e-03 1.338211426347189481e-01 -8.968731491820810531e-01 -8.807379909814869734e-01 3.847548786769117712e-01 2.761598714082282302e-01
4.892696456663655352e-02 -2.712476027151735497e-02 -9.205550620891489455e-01 -4.756993760350806677e-01 -7.852478370885913606e-01 3.963532994533081055e-01
-2.827742656035340391e-02 -7.822985393779710583e-02 -1.025129140733145094e+00 -5.484100303771928253e-01 -8.004313585888905846e-02 -8.323698306543565462e-01
-6.085385594372408509e-03 5.836997190705355693e-02 -8.725789072710841143e-01 9.987438935942181129e-01 3.599436887511273109e-02 3.485742987576148644e-02
-1.560518937239036051e-03 6.087233245021721195e-02 -8.987631390740912218e-01 -9.472535267091723998e-01 -7.159986506358487213e-02 3.123847234739748902e-01
4.699353798021838058e-02 3.640348092458443180e-02 -8.675583748118639305e-01 2.192332305046736790e-02 6.664178368590054635e-01 -7.452560866055295552e-01
-1.727197073634479871e-02 1.126319417913166088e-01 -9.274045833855494303e-01 -9.465727383192134026e-01 -1.785434651773603887e-01 2.685559198999847297e-01
-2.483305748006384497e-02 -1.137139784319930562e-02 -9.695680323843954840e-01 -4.645388997399380049e-01 -1.714556422041330352e-01 8.687960482096913628e-01
-3.625209687270110944e-03 1.049258036301636138e-01 -8.083741440340272977e-01 6.444783023156885893e-01 5.673059193376979170e-01 -5.126516475431418529e-01
-4.912044624359225564e-02 -6.010479543234897165e-03 -9.861939651157215492e-01 -8.744362676183996541e-01 -4.372850212567948036e-01 2.101024132608836081e-01
-2.143565117890853383e-03 4.861364758211927928e-02 -8.869874104624003719e-01 -9.235484364338152341e-01 1.455461157136569150e-01 -3.547881251695468308e-01
5.319124913564163282e-02 2.021437266200556276e-02 -8.771892358942424694e-01 -5.679579173158371130e-01 -1.392404114756258249e-01 8.111941271794040897e-01
5.014423746665280096e-02 8.004947452758345849e-02 -8.212115055741371350e-01 -4.886465693641937613e-01 5.738766882523023138e-01 -6.571834423729602248e-01
-2.177637501884203096e-03 5.757778435238767450e-02 -9.298080641158612547e-01 -9.996710496415731617e-01 2.558826152305450005e-02 -1.741660341012675689e-03
6.016857642883802898e-02 5.578585563723754276e-02 -8.581837480861058687e-01 3.618719847513798826e-01 -8.418699721318790852e-01 4.003793409689942462e-01
1.886823599582678965e-02 3.089627641660725160e-03 -8.997192416014005989e-01 2.828308533144023307e-01 8.932374536800501419e-01 -3.494761218690441429e-01
-2.866083961326648232e-03 3.537588834788293196e-02 -8.994837174402205981e-01 8.672287986055096098e-01 -3.026979482675899447e-01 3.953329773543260428e-01
-2.938411340925865811e-03 3.965490415080914766e-02 -8.861382721061638046e-01 -9.997212888008515375e-01 -1.159037455572960347e-03 2.357968088294019882e-02
-7.397196873027626733e-03 2.070401264964906451e-01 -7.792677492082864532e-01 3.438678811749177333e-01 6.301738679447472791e-01 -6.961578674810974254e-01
-1.257376327891151883e-02 2.066375242373226229e-01 -7.845826819845889144e-01 3.260423404274548909e-01 -5.137503822450317781e-01 7.935722632449241365e-01
-1.900492750527779315e-02 1.721661279979195824e-01 -7.767635562528890647e-01 9.991428239348797424e-01 -4.089419886020227712e-02 6.425097588051441148e-03
-6.765206613938879940e-03 1.062492719113684314e-01 -8.776234554131380206e-01 -8.850739435271889333e-01 -2.880621071144193190e-01 3.656013360670767320e-01
5.149745711334170056e-02 -4.178462943524788656e-03 -8.914560170826126839e-01 3.194018358187056261e-01 7.379474889413549787e-01 -5.944879904933229042e-01
1.772156045669148750e-02 -1.087710527854464787e-01 -9.827282330306406077e-01 -2.182152350664094687e-01 2.553146210703114982e-01 -9.419111186585680251e-01
-9.857458752991390960e-03 3.330517648955640814e-02 -9.398574669229162737e-01 6.750450588298864130e-01 1.274992064053902807e-01 -7.266760770214961696e-01
3.262848653241222883e-04 -1.702806272773605967e-01 -1.024656893274119129e+00 -9.646621720800667710e-01 -2.447934576292764772e-02 2.623502532661003417e-01
3.596591353646761552e-02 -6.942730923423519329e-02 -9.599788771479149663e-01 -3.214457810321988962e-01 8.591793718801518098e-01 -3.980997573375639753e-01
-3.090559602356017597e-03 1.644452053354444332e-01 -9.080361928483676737e-01 -7.332295477037025222e-01 4.468378296460938093e-01 5.125528112998626318e-01
-2.140416012079184374e-02 1.139978623290140679e-02 -9.579789065470600828e-01 -4.367195972738515675e-01 -3.306701357149746667e-01 8.366201376390635103e-01
-1.634422786867468363e-02 1.799448029711761265e-01 -7.451961085935847606e-01 8.361804502274751139e-01 2.987500695096631520e-01 -4.599463562474959688e-01
4.370189754379045360e-02 -9.140849139267234746e-02 -9.934845262389393472e-01 7.361038949973117695e-01 -4.626357370606707931e-01 4.940842342800634279e-01
-3.509441204466042484e-03 6.052649547498332311e-02 -8.647291007151628461e-01 -9.636237995545599011e-01 -1.936547515888704663e-01 1.841928612055486747e-01
-8.392009232561932139e-03 1.236601233416615708e-01 -8.654343716693774224e-01 9.332768865457615748e-01 -5.048943125058335396e-02 -3.555911562053287178e-01
-6.091693584914915569e-03 6.846165058326179886e-02 -9.303733986703182079e-01 9.627797301762138771e-01 1.294064110131569745e-01 -2.372955371483222720e-01
1.932500514018378399e-02 1.981346253905711952e-01 -8.829542480934361448e-01 4.134769949999624883e-01 7.966940768667269968e-01 -4.408121169968842179e-01
-1.510586921210103819e-03 1.790363577288199004e-01 -8.645252794907668514e-01 9.163690466858656070e-01 -3.432088814476642602e-01 2.060956912977097433e-01
3.603890391894445933e-02 -1.321582992306135629e-01 -1.002008210310759262e+00 -5.041435711718201818e-01 8.576466831843682082e-01 -1.013973691422784956e-01
-5.020873038458097300e-03 1.546427425110120102e-01 -9.048901615531532716e-01 -8.618971899380302171e-01 2.662582540343162441e-01 4.315550673268994109e-01
3.997518314280291279e-02 5.374478440608562030e-02 -8.467516386673730189e-01 3.093269517126177037e-01 -7.728041679852752921e-01 5.541575181198628020e-01
3.139377460171705481e-03 -1.500010282883973978e-01 -1.008923989020413581e+00 9.325160696587246889e-01 1.320359532740076891e-01 -3.361254034899309739e-01
-3.270616802850198623e-02 -7.666337272061143904e-02 -1.021793420479610193e+00 9.683975964921002211e-01 2.480185343142052301e-01 2.632302689580082872e-02
4.876824015548705121e-02 -3.313646138274038699e-02 -9.250656720017615964e-01 -6.715721681246545893e-01 -3.658374736078106593e-01 6.443242707710189476e-01
-3.019759000885798711e-02 -4.676326327296296409e-02 -9.887803944139853529e-01 -6.755654041476713001e-01 -3.396321031714927829e-01 6.544168543169576191e-01
3.352638022443135690e-02 9.778630665047395587e-02 -7.988602690934488715e-01 2.556786830789108400e-01 -6.860661793011864074e-01 6.811325925530992142e-01
4.074810742025425370e-02 -1.069849759037400511e-01 -9.986201724743793973e-01 -9.560765840117326775e-01 1.778902569770981212e-01 2.329648513769371487e-01
1.037472148312536084e-02 1.846673321302408008e-02 -8.917163648351542626e-01 -5.611228344447264371e-01 -3.426856320771883291e-01 7.534638161402141820e-01
-5.425697941156335663e-02 3.047519319452355116e-02 -9.568873855900206227e-01 5.587438321565459942e-01 5.914076031501432906e-01 -5.814141183040021366e-01
-1.055775536640057334e-02 1.186280902032276763e-01 -8.846495476620864773e-01 -9.609604959593870399e-01 3.833259416808413450e-02 2.740174035163350785e-01
-6.692648127209438122e-03 8.007157799365244299e-02 -8.497029878439456008e-01 9.947364969555995140e-01 4.732568852081749794e-02 -9.088223605597117727e-02
-2.316962890249060335e-03 2.039915799190306078e-01 -8.037771394563806293e-01 -8.707442623381745905e-01 4.704185139094053114e-01 -1.432161002695391538e-01
-5.284421618906018532e-03 8.549792185557415769e-02 -8.650920763344159825e-01 9.629387905364898970e-01 -1.481932281855898037e-01 2.253611608065063110e-01
4.821123767944669042e-02 6.060113532994909624e-02 -8.415499861250524960e-01 -2.657387493365628295e-01 8.516705433974769424e-01 -4.517080944704065515e-01
-9.572110018787539226e-03 1.055322153801495494e-01 -8.910828924704844445e-01 8.488992845315758151e-01 5.109622976760753721e-01 1.352314130495006483e-01
5.452296783997905016e-02 7.428149122253156766e-02 -8.355050748588194187e-01 8.943437738268279480e-01 4.260387861676304677e-01 -1.365289965465198707e-01
-5.657672505087815197e-03 1.918979937032415928e-01 -8.230120581915612021e-01 9.749692076186711187e-01 -2.206067746728424817e-01 2.770731246198967351e-02
-2.250820584207786478e-03 -1.359400138835495098e-01 -1.017598443134862141e+00 -8.090131247936536152e-01 -3.817506534904291371e-01 4.469498880984741351e-01
-5.996685167910494399e-03 1.872800920286557536e-01 -8.149656777377072281e-01 -9.540439957257002002e-01 2.542916744176521027e-01 -1.585427341179879157e-01
-8.704557605430909752e-04 1.581233464220633406e-02 -9.246479192692655946e-01 -9.544097055968316923e-01 2.430694797591926581e-01 1.732609069356516318e-01
-6.517648738496042114e-03 1.435532536903079970e-01 -8.481837035950366976e-01 9.801976651410233554e-01 6.949944964551038338e-06 -1.980215574218738839e-01
-6.178170904165194294e-03 7.765092201671908168e-02 -8.652031127151115220e-01 9.508351890392366945e-01 1.646396063229242368e-01 2.623094419088868312e-01
3.365655875246399004e-02 3.363056065069335715e-02 -8.674790525550679643e-01 4.128962385815554414e-01 -7.620325713774482868e-01 4.988216678584413977e-01
-4.920966064680386623e-03 2.163734860743007221e-02 -9.389861188851608143e-01 -8.485678076560125849e-01 -2.593087998427193730e-01 4.611850194162827599e-01
-1.561629100909204745e-03 -1.523288549197681918e-01 -1.019948367497673702e+00 9.072827607107034620e-01 1.429629464387698612e-01 -3.954738778512558173e-01
-7.331301425551601907e-03 -1.695360653976420856e-02 -9.406474019371109385e-01 8.800505580894174562e-01 1.576856718508274635e-01 -4.479355356515694053e-01
7.486234552876312905e-03 8.617759055035098884e-03 -8.986258155384240220e-01 2.407515346067559403e-01 5.679668506751133217e-01 -7.870529557270498078e-01
-2.259670801337728026e-03 6.438195183639359997e-02 -8.781611916531257833e-01 -9.027438049814219267e-01 3.292282055044499223e-01 -2.768797776436268676e-01
5.724066702151203029e-02 5.085450609589602794e-02 -8.582614110215791570e-01 6.042324146590891676e-01 -4.566539623761264322e-01 6.529704034038833482e-01
-1.005386141925914030e-02 -1.035024292848414768e-01 -9.970808611923070996e-01 7.217363498364369745e-01 5.011086444873122936e-01 -4.774795992970432001e-01
-8.611667413567249824e-03 2.052760173716462744e-01 -7.864299694452346889e-01 6.992986623211848718e-01 -5.492058460624117400e-01 4.575525319858606554e-01
-1.560006023390766647e-02 1.653277092257112446e-01 -7.978395933001568574e-01 -9.944186917565779327e-01 -1.504887238370485915e-02 -1.044269932781507482e-01
2.357271684272257278e-02 4.907337584485970544e-02 -8.497904381511115490e-01 5.498647905145936932e-01 5.933031485636260927e-01 -5.879116311630768754e-01
-7.990262206339077480e-03 -1.286147656039679232e-01 -1.021377623814739399e+00 -7.977796880945607905e-01 -4.339830726022833041e-01 4.185764708609726603e-01
9.201015511516004788e-03 6.524746006811665833e-02 -8.413530601470484704e-01 -3.018858024195729683e-01 -7.845115312518868844e-01 5.416702129804722432e-01
-5.536385483586654015e-04 2.465757079312725503e-02 -9.253395488006022074e-01 -9.786833555586788025e-01 -7.340241837548250325e-03 2.052437828587535262e-01
3.474509066900051402e-02 -5.289765125906923868e-03 -9.055414150059201139e-01 -3.887231353037566839e-01 -6.932821066439918134e-01 6.068395543196620778e-01
-5.399602985022559053e-03 1.763346603128629064e-01 -8.528826486872750356e-01 9.639009840327469325e-01 -2.314942113307733584e-01 1.315496982172351392e-01
7.639695021511698839e-03 -1.097967728125825715e-01 -9.842156393869491149e-01 -2.199559085532860336e-01 -4.405149555031719899e-01 8.703826585304518249e-01
3.385847255983965437e-02 6.737834356952090986e-02 -8.293145516358660929e-01 2.688225054505380060e-02 -7.308795533945448009e-01 6.819768493397879716e-01
-6.898152472392485865e-04 6.722321458127986094e-02 -8.906830813810383551e-01 -8.811831643244441015e-01 -4.253688404854812366e-01 2.063433557331012802e-01
-7.534558439747637837e-03 -9.044448517980033242e-02 -9.837702002311370375e-01 3.592094435583550460e-01 6.707173003449832249e-01 -6.489274833727068925e-01
5.169900273177145678e-03 1.227513975559775539e-02 -8.965297043486973871e-01 2.958983321166436808e-01 6.336789919106945446e-01 -7.147692720463256766e-01
-1.141756310558306002e-02 1.752629342917453870e-01 -8.109919622879855350e-01 9.382491628314211241e-01 -1.005364903089178696e-01 3.310300931373194588e-01
5.687355178633830832e-02 4.985741286772917003e-02 -8.561488415650169159e-01 -2.134005837858422572e-01 6.301359089948781467e-01 -7.465848424894924174e-01
-8.609867093228132026e-03 1.286318235649361874e-01 -8.799971678905963435e-01 9.590579754638873800e-01 -2.708584719007992581e-01 -8.272537638882997146e-02
1.024332964416601807e-02 5.667604292184304920e-02 -8.485531893754963972e-01 3.043052990654662171e-01 6.422823832370189168e-01 -7.034711260201461647e-01
1.706604863111971584e-02 2.249470921399778223e-01 -8.217263810799299018e-01 -1.296113718369846513e-01 9.144336637476208063e-01 -3.834213959805031768e-01
-1.840370536976243011e-03 2.029132047926830718e-01 -7.486752982832027836e-01 -1.718936806509454851e-01 8.398825366001532178e-01 5.148299595656441463e-01
-6.306168187600311170e-03 1.482709451300063819e-01 -8.420418887257574703e-01 9.872996138476628492e-01 1.513126397135199086e-01 4.841443544215583844e-02
-1.224056038782120499e-02 1.423761966888920649e-01 -9.075968196718323666e-01 8.371518975553393638e-01 -3.783668962492646726e-01 -3.949875849215931933e-01
1.325624739401624896e-02 -1.568838367249783816e-01 -1.006857188062739050e+00 -1.410938183504764076e-01 -4.110628509901214089e-01 9.006219334210976424e-01
-7.360144829453626331e-03 1.066447959851166694e-01 -8.347506368078964067e-01 -9.994892267230589544e-01 -2.907199365811998990e-02 1.327045022913908752e-02
-2.542318723769111666e-02 1.092510221585749480e-01 -9.581455243442726921e-01 5.713846853958065575e-01 -1.968429029838094368e-01 7.967260588433403568e-01
-1.758582273653551409e-02 1.828827468134045786e-01 -7.831503681437177455e-01 9.643458766713720598e-01 -2.310243705232443434e-01 -1.290921003441399262e-01
5.723198010693370669e-02 -3.690390543000715562e-02 -9.285263787276314407e-01 -9.236755455708528517e-01 2.406486093101547763e-01 2.981807058672240607e-01
2.927721836581758611e-03 -2.063303734615255514e-01 -1.030528739640375502e+00 9.575059968745052164e-01 2.253496550984050439e-01 1.799994413779945901e-01
-1.083410321077796744e-02 2.020599220828262210e-01 -7.769552524405027860e-01 -7.381662581812538093e-01 5.410607110721106228e-01 4.029440187133052631e-01
-5.792735963928242159e-03 -1.543328711760314810e-02 -9.353502056795964803e-01 9.687243809275613016e-01 1.225074372290281682e-01 -2.157892527909786029e-01
-3.092134091267526724e-02 -4.265720580950291968e-02 -9.841494469132912037e-01 5.646702950351205619e-01 3.904055012049478246e-01 -7.271389155683138927e-01
-1.533875163539828376e-02 1.211866842353817725e-01 -9.021747498915975161e-01 9.708706420493857792e-01 3.149044523401631906e-02 -2.375258896743197290e-01
-6.084283073384101105e-03 -4.305404379180060442e-02 -9.563556681231764056e-01 -4.506457865262724072e-01 -5.230459237270921324e-01 7.234233454614181769e-01
-4.794307449984204668e-03 1.366278171622642146e-01 -8.787239714292071069e-01 -7.909113926095836522e-01 5.954968219824721132e-01 1.408641332956873105e-01
-2.379705416501380968e-02 -4.844273450833373740e-02 -9.830310680512597266e-01 -7.057275619736359529e-01 -2.427290043897492866e-01 6.656059184673082108e-01
3.204379447989211954e-02 -1.484295975347472429e-01 -1.002810604346225931e+00 -6.262042985423443842e-01 1.601729625036320825e-01 -7.630287010132059677e-01
-1.952058323794900185e-02 1.788151871572485688e-02 -9.547716094207775450e-01 -4.589468663267420312e-01 -2.201042140970882466e-01 8.607682085355886636e-01
-1.726532274498297770e-02 1.744502611245375423e-01 -7.529664797072682658e-01 9.348754465979757233e-01 6.118977300888560344e-02 -3.496622813907107052e-01
-6.518834819559159513e-03 1.531387728057825581e-01 -8.598468820603591967e-01 9.664856982832413790e-01 1.499461824920247655e-01 2.083783514908011392e-01
-1.096558162891486145e-02 -1.335819824003910417e-01 -1.029677765902853759e+00 9.451736935758753289e-01 2.846387863281148456e-01 -1.600857591723732209e-01
1.519728582870073785e-02 -1.684205430554467850e-02 -9.169498141107773614e-01 -1.254584054840147261e-02 6.256830161109970811e-01 -7.799765158228674222e-01
-6.504551385692181227e-03 -7.339677322601973093e-03 -9.358203489727308089e-01 9.561345246741356219e-01 8.531201602202530265e-02 -2.802296034476419728e-01
4.520717537648365203e-02 -7.710678416459235129e-02 -9.734027594334871969e-01 2.353530585922625207e-01 -7.159338238861340242e-01 6.573033528189591301e-01
-1.485363092851174453e-02 -1.044025508784303252e-01 -1.034473736796899690e+00 -4.526332299380034230e-01 -5.254292923909467117e-01 7.204493166444393415e-01
9.315626281247831042e-03 1.225158833290736389e-02 -8.962332286997287678e-01 -9.464995527088984062e-01 2.422129316447774183e-02 -3.217948502995280347e-01
-9.476382912583443049e-03 8.833277875189698980e-02 -9.332542132692324133e-01 -9.091494955133430089e-01 -2.659878126063281445e-01 3.204647848870998961e-01
2.804808039937090394e-02 2.871461151910567611e-02 -8.713024078285727114e-01 4.546097449710135435e-02 -8.175956005021935979e-01 5.739954127318712684e-01
-4.608240384979451522e-03 1.243028957436940057e-01 -8.576721295410562051e-01 -9.192043742250324279e-01 -2.969173057880980515e-01 2.586569773447140452e-01
-1.843254082011115680e-03 7.959863614782609897e-02 -8.807543395000784203e-01 9.210431584078135892e-01 1.513818741948791922e-02 -3.891662056651528090e-01
-3.217747799009795361e-03 9.333624919375775597e-02 -8.674975195201747313e-01 9.866930823939744633e-01 -1.931889898813296882e-02 1.614420679307718709e-01
-4.027948563632443441e-02 -4.012386644438922095e-02 -9.953713960333058219e-01 -8.648338590020242522e-01 -1.372180935868288765e-01 4.829426375006284911e-01
-6.187712874818439420e-04 7.016151854040818259e-02 -8.431135557206885789e-01 5.460039682048666299e-01 7.928192526609865176e-01 -2.707716737670570750e-01
2.001908160705146225e-02 -2.948291100773805032e-02 -9.270236886164888723e-01 9.701526172428925898e-02 5.878173590036003260e-01 -8.031555213323258169e-01
5.574459090205363676e-02 2.979114114487514241e-03 -8.832656866805385087e-01 2.595607785828525915e-01 6.653104108041475451e-01 -6.999930424633374892e-01
-2.971844352899204525e-02 1.303256762973550031e-01 -9.456469111484513412e-01 8.918938608159002746e-01 -1.171787795985354125e-01 4.368002686019155090e-01
-2.100048363562563580e-02 -5.591914517731084305e-02 -9.831584244564146591e-01 -6.764530039300853392e-01 -2.573397413018851942e-01 6.900634688350362200e-01
-5.827969236947332966e-03 1.491957078163625161e-01 -8.362133025895096550e-01 -9.578312280319986050e-01 -1.432601557323739949e-01 -2.490700029835980212e-01
-9.654119908095802616e-03 9.304208853400909585e-02 -9.299200433834214907e-01 -7.939385617353319491e-01 -4.156868752841925696e-01 4.436958213755196612e-01
-9.817719703304247231e-03 9.342490754504183259e-03 -9.453680022632837687e-01 8.548466289256865247e-01 1.658947865544132746e-02 -5.186154936099871549e-01
1.845975323273641930e-02 7.172967862679108242e-02 -8.278136750453223280e-01 -2.813770463503106334e-01 -7.617388217212770485e-01 5.835931161947131018e-01
1.629339215551050060e-02 4.517479725795134349e-02 -8.638129429583314423e-01 -5.126973905402525400e-01 -5.661341881113268748e-01 6.454715073376553480e-01
-1.421781501121939864e-02 -1.976575550166570494e-02 -9.601255582787109333e-01 8.241248420732599778e-01 3.859887310014303297e-01 -4.145249621164328047e-01
-7.296565359006259265e-03 1.357777253444647225e-01 -8.725433857576240237e-01 9.424188939514620555e-01 -3.247801778183037058e-01 -7.977759346843042720e-02
1.787640964062586118e-03 -9.089928471597880089e-02 -9.831235188354456866e-01 -9.286835832682784897e-01 8.178582487663227374e-02 -3.617428382390443509e-01
-3.474493276387439784e-03 4.316022880590788396e-02 -9.264224895583995645e-01 9.958671906482701175e-01 8.927869099698355904e-02 1.666895090242071636e-02
-2.480112291740155933e-02 3.481026067427170096e-03 -9.642193895367409118e-01 -6.972915489475084438e-01 -2.275297139190975981e-01 6.797166505613041476e-01
-6.191831961165271576e-03 1.731824402491151382e-01 -8.406547562634862913e-01 -9.657160536121681682e-01 1.721400965259438365e-01 -1.943200734967414078e-01
8.712608009276891913e-03 -1.477874949748001487e-01 -1.011823568969034692e+00 -9.847661876205262566e-01 7.792087719358987800e-03 -1.737090644966699793e-01
2.569498843222839043e-02 9.280464964689114082e-02 -8.005563562510336073e-01 -4.036406437181157270e-02 7.228597166946735264e-01 -6.898148826224933527e-01
-3.544628566241483144e-03 1.140522335724702685e-01 -8.549416753712896222e-01 9.797804609081234295e-01 1.391065293442451944e-01 -1.438041095256455959e-01
-5.243738167934863109e-02 3.892807780634384256e-03 -9.783976096135801326e-01 8.966786776515105473e-01 3.453037437248598907e-01 -2.770066309941598970e-01
-7.075080828368730465e-03 9.244096995224387880e-02 -8.353549241645030765e-01 9.296672489154842456e-01 2.973901931431786605e-01 -2.174347702557664352e-01
2.274097217932058781e-03 1.562121840720304480e-02 -8.975124012973811904e-01 -5.189504359848661208e-01 -5.264851627397330036e-01 6.734269213552679378e-01
-5.400028536745115661e-03 1.391198156109756112e-01 -8.790658623969570540e-01 8.941267602484193056e-01 -4.425822663885626840e-01 6.825155006319748308e-02
2.132117160603780662e-02 8.036078134598165224e-02 -8.147230956702935512e-01 1.420278966950467014e-01 6.663313841578104579e-01 -7.320044829416808563e-01
-1.033129987897570858e-02 4.834378305383938042e-03 -9.503242688446141839e-01 -8.526082949219586649e-01 -1.214318979157076039e-01 5.082454029293915765e-01
-5.469246421985048123e-03 8.813499888144346595e-02 -9.118772492427482668e-01 -9.866585172970901985e-01 7.508957820615641543e-02 -1.444525025395174966e-01
-1.000702145457138537e-02 1.492071894753399797e-01 -8.215888939630022758e-01 -7.489150695443840267e-01 1.671325336871524458e-01 -6.412432727075139116e-01
-2.345908347225561519e-03 4.882445770034690539e-03 -9.097531368725430001e-01 8.300479539671311580e-01 3.625852326751810017e-01 -4.237361716455941840e-01
-9.992694857348554446e-04 7.601970175589471343e-03 -9.096489751413502356e-01 -9.846135428543443258e-01 -1.318936948764258266e-01 1.146308181932786802e-01
-8.356425341918756119e-03 1.309064553603106196e-01 -8.721830120668079278e-01 9.729623037848202927e-01 6.293188492524726119e-02 2.222249609595884912e-01
-4.489355123884000709e-02 -3.000533164894806856e-02 -9.915595616931011103e-01 8.720193751994265163e-01 1.706190133918647489e-01 -4.587715788341608647e-01
5.356089807702203373e-03 -3.583746052449469227e-02 -9.374060257791831940e-01 1.332210539287816686e-01 7.804337487694261721e-01 -6.108807695220110912e-01
5.346854316336440392e-03 -1.816535885623761504e-01 -1.024775924198409349e+00 -2.134986379747946250e-01 -1.842658378708743050e-01 9.594083763323375535e-01
-1.446257459638730127e-02 -1.124582341444076844e-01 -1.017288168881266275e+00 -8.720423863343971238e-01 -3.996783294459477776e-01 2.824877154984028471e-01
-3.941940739139614125e-02 4.708313093069504789e-03 -9.695777943980761204e-01 -2.469724496786755708e-01 -3.655949617031218901e-01 8.974101253479410678e-01
-4.662892130864776559e-03 1.514505120692292706e-01 -8.969019143575402975e-01 9.045254518655850839e-01 -3.308023601282697457e-01 -2.690789948340929216e-01
-2.535412215799446797e-02 1.476334010919812811e-01 -9.262400957991310246e-01 8.016301046064827629e-01 1.656118401889302982e-01 -5.744230964871064327e-01
5.141334119328541848e-03 6.675676239450011040e-02 -8.403537687988743565e-01 4.523877425764985527e-01 6.405880065391829081e-01 -6.204775066387946403e-01
-4.097791638837785556e-03 1.877735643426411971e-01 -8.326668637095355763e-01 -8.816226719247499677e-01 4.670985938226145939e-01 -6.753049679367621738e-02
-8.649405985317300607e-03 1.235587182811107992e-01 -7.987159962423956427e-01 8.540391116873342625e-01 3.522658602255622218e-01 -3.827870941239449043e-01
3.144061312038633899e-02 -1.408247408464591115e-02 -9.164716833175483579e-01 -3.678819290495631833e-01 -5.426625177542139244e-01 7.551028261789446416e-01
-6.212998508943460250e-03 1.612175420497274081e-01 -8.431822215116558938e-01 -9.872889741708981148e-01 -1.124783930663457582e-01 -1.122902158417565383e-01
4.824272279552626469e-02 -1.756436617561585312e-02 -9.090022812213072179e-01 3.618451386910035428e-01 6.856087737195329934e-01 -6.316713583854238756e-01
2.873749395881103341e-02 -1.639120339439235630e-01 -1.013048695515356812e+00 -2.752176296350217211e-01 -2.621508443513756448e-01 9.249498316903144168e-01
-4.501488738226019914e-03 9.184660919475418073e-02 -8.826074173020508340e-01 -8.815248924573472200e-01 -3.363480947207281857e-01 3.313364199055072734e-01
7.056578888347432056e-03 2.215949339957523634e-01 -8.078176693714113066e-01 -8.856090763792465737e-01 4.644030475479580811e-01 -5.135490518646460348e-03
-3.013866697010112936e-02 1.314412601616779808e-01 -9.433020876109791120e-01 9.889686802528580012e-01 -8.634220752787286068e-02 1.203576864106914307e-01
-5.326696166679849298e-02 3.076568670493518703e-02 -9.675206861066357744e-01 -9.170864416853415912e-01 5.772045540958876952e-02 -3.944880321432175929e-01
-1.067091313094380677e-02 1.674316703966178821e-01 -8.253123788542339190e-01 9.740395398701510166e-01 1.144568734836583224e-01 1.953115431352951681e-01
1.421451573363293917e-03 -2.398970946891639811e-01 -1.039004472221313424e+00 8.290402793448400365e-01 1.587230923970366636e-01 -5.361895142239836431e-01
-1.109521705376823823e-03 6.156083857034933687e-02 -8.969613168966473760e-01 -8.954589465262986492e-01 -2.634929035098817485e-01 3.587823363627924977e-01
-1.352749402368395209e-03 -1.854926341738595275e-01 -1.032886364537598967e+00 2.609094848484072582e-01 2.770899903091444960e-02 9.649655186009724606e-01
-8.499119193081244861e-03 1.691984282301263742e-01 -8.290476360972669490e-01 -9.992209886498060190e-01 1.817886467450884405e-02 -3.502777070911492624e-02
2.415481624903585700e-02 2.544689056731457011e-02 -8.721309838640790568e-01 3.352094138401085638e-02 9.173114876519724570e-01 -3.967568286878686568e-01
-1.115508188305483700e-04 -1.290831066435849384e-01 -1.007666945951660509e+00 -7.153787173569099433e-01 -4.387666285333741145e-01 5.437988014314102392e-01
-1.182623542034799864e-02 -1.300920460110360222e-01 -1.034942755028100514e+00 9.673742184201351568e-01 2.277258136481494499e-01 1.110318663011714418e-01
-2.416073229062171493e-03 -3.058079860228361119e-02 -9.398832367449996283e-01 8.670108700082223008e-01 3.532089068137354015e-01 -3.514763426392048529e-01
-4.814936741081499855e-02 -2.729640701116639243e-02 -1.001000769023522974e+00 9.972229225184817691e-01 6.882815694950508711e-02 -2.844516856396750795e-02
4.590335815587572033e-02 6.422192127103447390e-02 -8.378078742573853432e-01 2.633310859277490090e-01 -8.314609658201738140e-01 4.892130430615031500e-01
-1.551172796955289403e-02 1.886505365062513540e-01 -7.597962637388795404e-01 -9.204450465616988986e-01 3.608125149272672361e-01 -1.503171491610071631e-01
5.024183907661743109e-02 8.409969666280871226e-02 -8.179399056203822127e-01 -5.775707795357216678e-01 4.526647497942681286e-01 -6.793427845500321638e-01
5.339853326362554303e-02 6.263112002902457287e-02 -8.438601924439714796e-01 3.107777345051548901e-01 -7.358001933042042086e-01 6.016770523040902985e-01
-2.412130535600915532e-02 1.388397744947265922e-01 -9.282807252130075293e-01 -7.212226744211783780e-01 -2.414389031878159675e-01 6.492650536785632420e-01
-4.331753140574664575e-03 6.548622592225683547e-02 -8.980895803423770696e-01 8.638708246855548722e-01 3.264557849119132937e-01 -3.836063330481470635e-01
1.864633708535028134e-02 1.050210744393799689e-01 -7.918106934525586116e-01 -1.939561682014911970e-01 -5.965057302832187380e-01 7.788208513874540495e-01
-4.710655943215118213e-03 7.655677269291660814e-02 -8.581132090557102021e-01 -9.902053564441756217e-01 1.111201619227419890e-01 8.453201573088539589e-02
-6.459814483533356071e-03 9.412014353207613648e-02 -8.585884889011071719e-01 9.096778495587464208e-01 -1.813708968608583882e-01 3.736185324553139564e-01
-4.105161008654729243e-03 6.178014123556955367e-02 -9.243346125146282288e-01 9.420876253458204674e-01 3.320382017366708682e-01 4.713320228618975843e-02
-5.025034324420587888e-03 7.371907786831351228e-02 -9.142303341596869082e-01 -9.278596200601648691e-01 -2.523614195171965946e-01 -2.745728307773225851e-01
6.080132134060169807e-02 4.282236372511766254e-02 -8.647085340042690582e-01 -9.192520603282806624e-01 2.507950917779036559e-01 -3.034426989108881534e-01
-7.050504213556303690e-03 1.574217620904254100e-01 -8.494859587503005294e-01 9.968866421319141358e-01 7.001946115500663759e-02 -3.625324535154578892e-02
3.859952272355714892e-02 -7.540767163314003596e-02 -9.723085870005223619e-01 -1.695445915181874319e-01 -5.582402377868340704e-01 8.121714525902951065e-01
-1.140526628453309051e-02 1.594988534108390810e-01 -8.198707721950050376e-01 8.867657617007078663e-01 -1.727852292996324979e-02 4.618960234952474986e-01
-2.087982528226522971e-02 -8.875465424702730366e-02 -1.004740012804742122e+00 -7.716464947953268760e-01 -4.834994347008158000e-01 4.132674481665321031e-01
2.570047358830031270e-02 -1.591101970361303297e-01 -1.006672710486343769e+00 -3.071922540064950247e-01 5.965115172962840440e-01 -7.414896687151438792e-01
-3.246474180724177438e-03 1.078809816978222313e-01 -8.084276676758502811e-01 -7.977689571726065410e-01 -4.340392822918187621e-01 4.185386390756949404e-01
-7.123371573297104971e-03 6.953582867832233672e-02 -9.068043768525814174e-01 9.907259654454682041e-01 9.393172553511111578e-02 -9.817786069242502578e-02
-3.912680171677703628e-02 3.527563749264753246e-02 -9.485113495452581756e-01 2.752148501298563588e-01 6.901565573036170242e-01 -6.692837310728687594e-01
-1.034704728214323570e-02 1.629378842000750727e-01 -8.140482633254731981e-01 -8.157624241533402154e-01 3.103488705754312016e-01 -4.880729923607942666e-01
-1.024949637303211418e-02 1.060089634683982762e-01 -9.086765585625433683e-01 -8.417212282978132620e-01 -4.251811128504511261e-01 3.327557589405069072e-01
-1.217559155344092280e-02 1.949643496325337844e-01 -7.674567489537439391e-01 -7.525347747177619784e-01 6.038890719783447381e-01 2.626964057341114045e-01
3.803514869232169082e-02 -6.539212977173822737e-03 -9.017744715261108990e-01 4.476770904962295017e-01 7.043377932382092199e-01 -5.509024375160818110e-01
-2.175298603516364476e-02 1.065697883847358945e-01 -9.593521676707457146e-01 -9.917788645142128212e-01 -1.226210595278120763e-01 3.658906480323832061e-02
1.788318915853551877e-02 6.563679861855969966e-02 -8.354881862444377694e-01 -2.666142218834671174e-01 -7.894216930053187253e-01 5.529287904442036217e-01
5.018311503712448614e-04 8.943231583630839587e-02 -8.700462227177599983e-01 -8.495247329972531736e-01 -3.714493676037427528e-01 3.746105915917563034e-01
-1.746098285817538481e-02 1.496412389324652259e-01 -9.169601514918642726e-01 6.650417501034422418e-01 -2.086602433097505538e-01 -7.170637164724391610e-01
-7.207212548754690510e-04 3.776959831433040343e-02 -8.974627759622405554e-01 -8.899464546553780275e-01 3.953805830566604618e-01 -2.273092659530155102e-01
-6.840319797080159775e-03 1.034078539805412672e-01 -8.329991458377240532e-01 -9.837448949384465235e-01 -1.500187576947129564e-01 9.869323189702493282e-02
-1.685484971508205377e-03 -1.411267395542464831e-01 -1.019373682876433929e+00 -8.543081978772372187e-01 -1.460415337054518647e-01 4.988279998884452282e-01
-4.307829958862897067e-03 3.503079966862609335e-02 -8.954405027539851236e-01 9.429615312596051346e-01 -2.473700985840873445e-01 2.227814734017171117e-01
-4.398957510154564987e-02 -1.201153910826260884e-02 -9.809563299349846055e-01 -8.759180252214511242e-01 -3.195156628379863251e-01 3.614932285580957916e-01
-1.672331356924863788e-02 -1.069596681043730874e-01 -1.016341083996365358e+00 -8.962067829471523916e-01 -4.133753923674550190e-01 1.610409487818822982e-01
-1.773227013161633031e-02 -4.295062920175084231e-02 -9.725751773583249937e-01 7.036972123276041824e-01 6.091378293871119176e-02 -7.078839907855344338e-01
-2.852019297538912253e-03 4.127996488971020367e-02 -8.880610277823997034e-01 -9.872047473366450943e-01 -1.926958814210904050e-02 -1.582891967533613942e-01
4.493953271053563459e-02 5.741447375441117995e-02 -8.461618716743832813e-01 3.878898974511317821e-01 -7.463734996669707522e-01 5.408031309545360266e-01
-2.982701967584180242e-02 1.274356790688020435e-01 -9.461139561203499859e-01 9.595965403821171691e-01 -9.391540488631952566e-02 2.652439941105371735e-01
-3.234318255437890373e-03 5.512164548903941697e-02 -8.702426608501778738e-01 -9.922184896914866270e-01 -6.863467871196535751e-03 1.243195942847569596e-01
-4.959169852066272477e-02 -1.988212241423114451e-02 -1.000151386289473532e+00 9.692624725993652657e-01 9.686081567888299437e-02 2.261597700666195254e-01
-1.895984369098973818e-02 1.194235783442113980e-01 -9.289398585850808798e-01 -8.480577155364811270e-01 6.670519946286847246e-02 5.256886221744425658e-01
-4.085478524100708171e-03 5.671812553854219119e-02 -8.646612719052622076e-01 8.647158830977382804e-01 2.491831799968665384e-01 -4.360896517061007005e-01
-4.021443012259181930e-03 1.340779696900810392e-01 -8.509339163861395772e-01 -9.740309030710527782e-01 -9.020423565446429592e-02 2.076704016767517702e-01
7.860613510523896397e-03 2.218881940927782404e-01 -8.189992330150409616e-01 7.132910027513020834e-01 -5.159153546648768129e-01 4.743914967777738689e-01
3.449311790791548607e-03 -1.878310878703445819e-01 -1.021538330214613488e+00 5.544475182331137786e-01 7.043697651641973867e-02 -8.292325258118898867e-01
-8.514666195571320151e-03 1.265363940649630037e-01 -8.735953196926419251e-01 9.646486591019549639e-01 -2.030375675731523055e-02 2.627560122134988685e-01
1.776198593043648924e-02 -1.266120634913469045e-01 -9.901727984237789215e-01 6.766467308945429970e-03 4.137220296835568689e-01 -9.103781066538645383e-01
6.318201169216621903e-04 -9.022042710877913041e-03 -9.210869118418660850e-01 -8.087749224777747159e-01 -4.202421314588671297e-01 4.114361137746391228e-01
-5.466344130289070916e-03 1.060924453333265682e-01 -8.218062236863020731e-01 -9.556955510614141280e-01 -2.066435799920042782e-01 2.096293026499595202e-01
-7.064866471298609889e-03 1.162524888659516725e-01 -8.639011646809445777e-01 8.862055590223200108e-01 2.835478838549230773e-01 -3.663881885641682712e-01
-2.183988419881770227e-02 -8.957449273713065374e-03 -9.663285409690164363e-01 -4.848067628704727516e-01 -2.724938652026269725e-01 8.310893430323756936e-01
2.510044778005468113e-03 1.826608052302034768e-01 -9.093090637830681944e-01 6.855915878699910815e-01 -7.247796658837165618e-01 6.825401499833004537e-02
2.783489496731269414e-02 -1.646905944994604964e-01 -1.010754408050317465e+00 -2.043658162843448589e-01 4.872611372590276435e-01 -8.490060054272128287e-01
3.562954557962559610e-02 5.317785248606447107e-02 -8.431784839940482668e-01 -1.710132555537079158e-01 6.165235970802346310e-01 -7.685396025372868145e-01
-7.088402393500639782e-03 8.218709133851312409e-02 -9.162535387803246723e-01 9.207712203847374655e-01 3.055248295707448936e-01 2.425591437710986342e-01
-1.199552804656064432e-02 7.427532828585167723e-02 -9.457395736771863071e-01 -7.827519395269241231e-01 -4.702249236424029810e-01 4.076615291541932362e-01
1.844752791261768804e-02 6.379012675808284905e-02 -8.348138950145076453e-01 2.814406758685981114e-01 8.223366112565838604e-01 -4.945236533813774926e-01
-7.738761859803829947e-03 8.575871592565652290e-02 -8.477716688029588443e-01 9.847397130134855070e-01 1.013858810398998722e-01 -1.414517611763167759e-01
1.040376433697282749e-02 -1.873208416329275317e-01 -1.017354567683000255e+00 -2.010038778158045047e-01 3.588589444956640229e-01 -9.114920180991532561e-01
-4.565901623040596186e-02 -1.078041463854948097e-02 -9.833188431515625938e-01 -7.575883066457996806e-01 -4.529577090702289199e-01 4.699885864863100338e-01
-3.009208500047272448e-03 1.849006011474866873e-01 -8.419573338612960089e-01 -9.436145977742594892e-01 2.667361249990749528e-01 -1.960697082361272381e-01
2.443269670384632525e-02 9.663865275256429410e-02 -7.988844630823130899e-01 -3.009473586476230783e-03 -7.020925343582687939e-01 7.120793609332568552e-01
2.449706018504261423e-02 -1.317725497259343570e-01 -9.945765982835935715e-01 1.773726677650990513e-01 -4.437822620970434673e-01 8.784055103298947786e-01
3.015489116116347804e-02 4.244292739785935492e-02 -8.541415067342225109e-01 4.414793533525738362e-02 8.146610339198434581e-01 -5.782545802830147963e-01
1.160389185476830677e-03 2.948393024840168311e-02 -9.112454862136417644e-01 -6.805198201677579162e-01 -4.101027325578750493e-01 6.072137375812628468e-01
7.204994124747627314e-03 -1.295307556741933652e-01 -1.003902598748074748e+00 -9.895518584097030557e-01 -3.736131476410618768e-02 -1.392524745812453724e-01
3.347977673306748447e-02 -9.548764501399503724e-02 -9.818662569391527484e-01 -2.931149129662494746e-01 1.890672459953423312e-01 -9.371964704844576444e-01
-4.147427469704296349e-02 -4.603603517911200593e-02 -9.992577806344798974e-01 9.099804154376653909e-01 2.979137521137638078e-01 -2.884147011187070397e-01
-1.110558138888335759e-02 -1.259008355423026360e-01 -1.020464802307684105e+00 8.492353238962939699e-01 4.634277729777987465e-01 -2.530495285109118364e-01
-1.157495098364312060e-02 1.017561811354587981e-01 -9.240081587703121713e-01 -8.576920084066859129e-01 -4.437622200740662382e-01 2.596911834280125064e-01
1.245170142094732119e-02 8.575327351425286737e-02 -8.147036822815197921e-01 -3.837931503083247264e-01 -6.494936939937994147e-01 6.563998470739466073e-01
-1.584135869953854150e-03 9.578982245143233265e-02 -8.621860912944783184e-01 -3.000289870654387347e-01 6.246106395467564409e-01 -7.210021885441670886e-01
1.898149934424598478e-02 -1.062304228337161011e-01 -9.842221763070375662e-01 4.539059308425748979e-02 -4.496023377701755669e-02 9.979570488944778939e-01
5.152618349316418628e-02 8.531788634399044280e-02 -8.282541157952185706e-01 9.474545509646173924e-01 2.618790465602412465e-01 -1.837096590523599748e-01
-1.739704483772499611e-03 5.424929149564550190e-02 -8.965100477499582388e-01 2.221685742490820958e-01 -3.071294543642250074e-01 9.253716133954312806e-01
6.175358201855832112e-03 2.411756814790888548e-03 -9.059843891982927166e-01 -3.701368153864811883e-01 -6.213893502701455240e-01 6.905606514031915610e-01
-7.127203784973945577e-03 1.682445716550010351e-01 -8.386604352671263030e-01 -9.758415820583199451e-01 1.411216897632983358e-01 -1.667869161663065591e-01
-3.284599071076825527e-02 -7.184571305170898980e-02 -1.007884955174661812e+00 8.842212146247591109e-01 3.885643392722414879e-01 -2.591729111104053018e-01
-5.288808670084584919e-03 -1.530434750994361321e-03 -9.314020543398601193e-01 9.157639446640752912e-01 -1.136467442978462555e-01 -3.853061317495383720e-01
2.868721048360635406e-02 -1.583117819593053421e-01 -1.007526331421025656e+00 -2.453410525311549573e-01 5.455763983056269861e-01 -8.013452199612629556e-01
1.907481501357704765e-02 9.671805015022921781e-02 -7.972399662666105336e-01 2.553371826474541972e-01 6.658262501578656734e-01 -7.010551531501469924e-01
-2.844083282475964175e-02 1.286967087213850280e-01 -9.373825074262731594e-01 7.670872832167030531e-01 3.347159238760049615e-01 -5.473046228847791017e-01
-3.550646000879118143e-03 4.284307335151497226e-02 -9.293562567957990295e-01 9.387873932007918532e-01 -2.202979194628980342e-01 -2.648528969967676727e-01
7.176744975399064995e-03 1.946104507042004106e-01 -8.740524700788327994e-01 8.403180625965925854e-01 -4.480483493585744603e-01 3.051527983010579592e-01
1.693600737646972290e-02 2.033566962178796067e-01 -8.700733748034318316e-01 -3.140969901211414506e-01 8.685700302372516557e-01 -3.833134270678491551e-01
-4.002011821210831044e-02 -4.670908446692124266e-02 -1.012661155493989051e+00 -9.916210166754066968e-01 -8.917271476555067855e-02 -9.346649789616945370e-02
-2.424344755570612738e-03 1.702235316825914946e-01 -8.657841081897211799e-01 9.326087018271927986e-01 5.736539718137693283e-02 3.563007444314719718e-01
-6.689203167594713617e-03 1.098576636612615121e-01 -8.087846233320084011e-01 9.474288543953180985e-01 2.916995448821734782e-01 -1.314912216640635456e-01
5.622114409438615928e-02 -4.002448446368438162e-02 -9.315143818360058781e-01 -9.753348167299138449e-01 1.849315975927156019e-01 1.205085037921864027e-01
-3.051766046245837048e-03 -5.997562062347953915e-02 -9.664813553569306936e-01 -2.884686579876493129e-01 -5.908150314730987729e-01 7.534742410621918518e-01
2.466276842302881148e-02 8.127951528492301236e-02 -8.156107788703852446e-01 -7.845049719762785603e-03 -7.499152552746937150e-01 6.614873884672219928e-01
-4.789065376554096920e-02 1.010396010893484025e-03 -9.760109502886583632e-01 -7.046982942538140282e-01 -3.724591395230406055e-01 6.038828557439939182e-01
-5.667587029398914178e-02 2.512201740437734060e-02 -9.680925690472071965e-01 9.820684880543498751e-01 1.707539643571270582e-01 -7.990349446030790836e-02
-1.744700375671935644e-02 -3.181328406877024367e-02 -9.682844403207304662e-01 7.843480340788967498e-01 2.857465245528433839e-01 -5.505879449665975756e-01
1.940575484622104538e-03 -1.630783424317133745e-01 -1.016104127225820219e+00 7.208239676196207535e-01 3.392775140936058476e-01 -6.044034878585424764e-01
-4.010648192532146813e-03 7.852975730787230269e-02 -8.879586448860306014e-01 9.421316838033247931e-01 1.329967258818613163e-01 -3.077332631982077626e-01
-3.906325676793298042e-03 1.392355286268324166e-01 -8.684023473088289258e-01 -8.893773059840004436e-01 4.544064705479011201e-01 -5.022715525332276110e-02
-1.831253371549617162e-02 -1.056192556551976691e-01 -1.021784977120411941e+00 -9.227582055818381868e-01 -3.690346192721375429e-01 1.110438823621303084e-01
-1.269618267607725871e-02 1.369382355320915012e-01 -9.048150804411938530e-01 8.505452606847669905e-01 -3.752606819414732731e-01 -3.684456270815304468e-01
-1.562087116639992654e-02 1.286883925063880829e-01 -9.056659114625280615e-01 9.575549636282580934e-01 -1.104793451456152209e-01 -2.662382503080303886e-01
-1.119161121983775799e-02 1.126845310179392934e-01 -8.830299101698112496e-01 9.777388423474645540e-01 1.490442960520934057e-01 -1.476907376221541224e-01
6.766463802576686004e-03 8.183380034075300735e-02 -8.204939502951578145e-01 5.599539289957420340e-01 6.810641539224396857e-01 -4.718084522813712489e-01
4.788157074885012604e-02 9.611915775928552008e-02 -8.146590239790891808e-01 9.960105228495512719e-01 4.260122545918834658e-02 7.841029245155752003e-02
3.426975026774193439e-02 3.689223409643251073e-02 -8.632058153535291378e-01 4.320932245295273089e-01 -7.630757217571916273e-01 4.806359206097858272e-01
-1.766218545134888226e-02 -9.713227313605608815e-02 -1.003270630416275511e+00 7.815881352689991735e-01 4.049560627294306325e-01 -4.744792662123458737e-01
3.666507804392066944e-02 9.753417539271359848e-02 -7.976426811495873626e-01 -3.019955476921530324e-01 6.237634013565531710e-01 -7.209146331586147038e-01
-1.151888577819411806e-02 1.258583169700921434e-01 -8.887450635439850810e-01 9.068933242596418642e-01 -1.669957796274204598e-01 -3.868551511870124138e-01
1.633958068763667615e-02 4.510367854046588854e-02 -8.615017863086480432e-01 5.523439342967921828e-01 5.611130213549110346e-01 -6.164968414448721568e-01
-2.038453652367329990e-04 1.774557106371970894e-01 -8.692695927700716529e-01 9.183198077749286092e-01 -1.097168361773228351e-01 3.803300494405573162e-01
-1.887448997559981745e-02 1.780294592716299140e-01 -7.703706232201020798e-01 9.790028082158560574e-01 -2.024842527769512568e-01 2.352931964225888142e-02
-7.828070115485854727e-03 1.085079659005624142e-01 -8.792219985829337059e-01 -9.495700927450889672e-01 -1.528534584232401905e-01 2.737744677871514765e-01
