2.632046455946192298e-02 8.901548038600234913e-02 -6.482903838376072869e-01 3.451352582940052094e-01 4.984783739342332209e-01 -7.952364203192738845e-01
5.027797229973940407e-02 7.065088192548954482e-02 -6.732528524326399921e-01 2.411962414879417760e-01 -7.272597459154259703e-01 6.425866751366081653e-01
-1.998429102329869061e-02 1.542817767419086550e-01 -6.848270520236351411e-01 7.791655084506560192e-01 -1.216827369701664607e-01 -6.148938298310367978e-01
2.252464667604986079e-02 9.210789340027009109e-02 -6.524080888431416092e-01 -6.145071678922258140e-01 -5.006564245975823058e-01 6.096917951869136321e-01
2.790758638021665836e-02 1.110375652195547298e-02 -7.244865452024480401e-01 -3.270831860821880599e-01 8.030336641738804460e-01 -4.981501014611925404e-01
6.837071291273204288e-02 9.830667675775195402e-02 -6.576534977339867361e-01 5.913866139500345565e-01 -6.683876321215170835e-01 4.511317391491141415e-01
1.257530294421332212e-02 -1.035034898692887145e-01 -8.060017243556237831e-01 7.694193947257509381e-01 -1.175557278521080495e-01 6.278331353703946460e-01
9.580956252226735873e-03 2.167926687119791362e-01 -6.152576306292669717e-01 8.810392923798291420e-01 -1.629389601393391174e-01 -4.440953282253271017e-01
-2.723653849096126581e-02 1.257655712818431526e-01 -6.906681672563862451e-01 6.904528765534837520e-01 6.546566109961252100e-02 -7.204089619624469698e-01
-3.014732326870068688e-02 -1.116643459655491388e-01 -8.087367917682207752e-01 2.761815795387559946e-01 6.689530002041209622e-01 -6.900910219973761528e-01
3.314185111837408826e-02 1.930568237888612704e-01 -5.644589514145701425e-01 -7.462544737813724405e-01 3.316997568476242469e-02 6.648338236539710344e-01
5.796041118976465178e-02 6.188976376376705696e-02 -6.956752631458777980e-01 8.609329809929469057e-01 -4.819697298947931419e-01 1.627869211691726770e-01
-3.788416974128211434e-02 -6.872626067340512068e-02 -7.830990828884305532e-01 -3.866085007921335470e-01 -4.981608273296690426e-01 7.761247691122081793e-01
2.592341139416444798e-02 -8.224986740073809630e-03 -7.413616089081331850e-01 -6.956307210406195152e-01 3.852331230417695984e-01 -6.063772265314656407e-01
-1.004561603049911912e-02 2.001137897303693902e-01 -6.578567315353354150e-01 -9.370736716596173022e-01 1.982116897737805916e-01 2.874109599848039820e-01
-8.655997265464499685e-03 9.172940794702265366e-02 -6.919357447789743487e-01 -5.425616111175919354e-01 -5.842316526841856428e-01 6.035729236334149705e-01
1.230952389025279960e-02 -1.177862646425722887e-01 -8.095594543922277619e-01 -4.416035428004950747e-01 4.297813279901873118e-01 -7.875749622080696621e-01
-3.250180826466794737e-02 2.716008154714011358e-03 -7.492359838293881635e-01 -1.701901145178031094e-01 1.823454307762726878e-01 -9.683932407836355338e-01
6.182569660371649289e-02 1.867727193026868723e-02 -7.373174914629211374e-01 1.923350899456783558e-01 -6.656813636521464739e-01 7.210239491596700523e-01
-2.369029825168832842e-02 -7.319331401542113202e-02 -7.800100504083666841e-01 2.679833761600730058e-01 5.194744195335291304e-01 -8.113761381456514599e-01
3.579985389013746327e-02 6.586204125763268913e-02 -6.726041227359670360e-01 2.638804712206855307e-01 -7.048623978394596978e-01 6.584345806686919822e-01
-3.394591381627314053e-02 1.399359484880018101e-01 -6.992717462899337155e-01 -4.855848999301454194e-01 9.014406802502641924e-02 8.695293853342336288e-01
-4.794275600809155130e-02 -9.866596295190113719e-03 -7.541907451715751387e-01 3.864714623267603844e-01 -3.865816375438346220e-01 8.373735404948874361e-01
-4.432399773791409481e-02 1.429895750415020039e-01 -7.027881554555438504e-01 3.861783177699667502e-01 1.017537580152032793e-02 -9.223680223271276679e-01
4.571112023089022453e-02 1.521048656964098522e-01 -5.790300030226877004e-01 -3.233161356448918666e-01 -6.204032569130765173e-01 7.145393447832673051e-01
2.841611332317317204e-02 -6.136075414044139809e-02 -7.993548554789137173e-01 -7.667124336141880603e-01 5.996628147935679776e-01 -2.292521596305348852e-01
-2.828880492116126952e-02 1.345522336432438404e-01 -6.928835278967617750e-01 6.786041940422047336e-01 -9.773869959572457911e-02 -7.279721797085837443e-01
-5.834402697999104513e-03 6.550392254754075841e-03 -7.374693424719407364e-01 6.278089661137561395e-01 1.563902048333797590e-01 -7.624945940131969691e-01
2.656598760243615923e-02 1.001086267916756478e-01 -6.401966145798159147e-01 4.107069883246004527e-01 6.064074082617808559e-01 -6.808743092132102381e-01
-9.088567198490151919e-03 1.196361326661000563e-01 -6.743804833957078859e-01 -8.489117321204640021e-01 -2.420826999248941180e-01 4.698349044774207117e-01
-1.025719721170261639e-02 -1.043095479186456898e-01 -7.988285029799223613e-01 -1.569826320310958589e-01 5.311887361680994735e-01 -8.325833170372358705e-01
-5.340051271037285670e-03 1.747764697711919751e-02 -7.359859259151035893e-01 -6.025691100676423551e-01 -5.687344723567672872e-02 7.960376112922178393e-01
-3.159134488309161409e-02 -5.804398766934802667e-02 -7.764354040793381984e-01 -4.432877728698526865e-03 -4.338994264158793635e-01 9.009504078199938037e-01
-2.471129961291577970e-02 -8.382561751036568531e-02 -7.866959591206761360e-01 1.828103971328277622e-01 4.867808062136551595e-01 -8.541807802813884409e-01
3.925558921635560056e-02 1.787891875023552568e-01 -5.610164069338927639e-01 4.029203746223525284e-01 4.866918906010926360e-01 -7.751039771135983525e-01
3.857416805635843771e-02 1.680336156074039577e-01 -5.688173565198126891e-01 3.658564949875688366e-01 6.529012637191862201e-01 -6.632261793003203509e-01
-1.776209265095994236e-02 1.509567109689047559e-01 -6.795014699251319401e-01 9.469277586180989692e-01 1.526346853028398010e-01 -2.828965761563874692e-01
-1.594604392698850681e-02 -6.809045129711513433e-02 -7.746130462337994516e-01 3.060124171195423015e-01 4.048956872308822064e-01 -8.616355859819666563e-01
4.566821557088907024e-02 8.518963897125524098e-02 -6.529899024844183497e-01 1.179380966142575815e-01 -7.605007938684272828e-01 6.385367239967473241e-01
-8.625007611264477042e-03 -1.127103798977329013e-01 -8.076405003532479698e-01 -8.315474351044958856e-02 -5.900019703650378755e-01 8.031083137392392990e-01
5.994365493612059843e-03 1.983965644641406956e-01 -6.171315883442757277e-01 9.423328049212966739e-01 -4.589984827454095251e-02 -3.315148393323230636e-01
8.503223460723970117e-03 1.655317431245767190e-01 -6.204187211808139812e-01 -6.468780970953583731e-01 -3.618386778897480505e-01 6.712834711813537858e-01
-7.692696159508676836e-03 1.671792977456296736e-01 -6.466082762664883132e-01 9.136164400816091380e-01 1.641193078742060052e-01 -3.719809849918397360e-01
-2.431204627359456662e-03 -1.908636698248394603e-01 -8.438252445834829585e-01 5.006861448916244406e-01 1.687012040375333310e-01 8.490307933578438160e-01
-5.621154770721074889e-02 -2.246270494261624895e-02 -7.560442560253914923e-01 8.561561941992551494e-02 -4.031227286171945590e-01 9.111322798494024822e-01
-1.963428042887842631e-02 1.438350425197691407e-01 -6.849150150833612782e-01 7.856885945054612463e-01 3.231763272033172374e-02 -6.177774705178122883e-01
7.790855959060772815e-03 2.213657932812660989e-01 -6.188406791214627889e-01 8.867680474996270101e-01 -2.893684492054428570e-01 -3.604279824571565150e-01
8.314914282335128873e-03 7.683176281055580092e-02 -6.813070529173862466e-01 -9.389014912319162409e-01 -2.805524762311490394e-01 1.993847984251919114e-01
5.586766040795090177e-02 -1.227694286633248914e-02 -7.685718784808355242e-01 7.197863434455619158e-01 2.519161998056126950e-01 -6.468739043003406408e-01
8.815325074953233447e-03 6.014078989474441750e-02 -6.906480601975547584e-01 -8.557436077549270825e-01 -2.806235853133315916e-01 4.346875672853698358e-01
-5.370279596779408554e-02 1.095821175181281928e-02 -7.374007839370478878e-01 5.360306896029227719e-01 -6.108452509804017660e-01 5.826999048897339994e-01
-7.027748030694491721e-02 1.220285631131057397e-01 -7.194537112528180955e-01 1.998919629669324016e-01 -6.511394266471489667e-01 7.321616284720531276e-01
-2.475952557338000071e-02 -1.069751399456188995e-01 -8.039269428056889932e-01 2.732916391485780694e-01 7.691846531368550233e-01 -5.776388572025079604e-01
-5.459650660749695156e-02 1.314578104189675911e-01 -7.059662935338515410e-01 4.452830424635909057e-01 1.787391900190875016e-01 -8.773684026939245761e-01
3.774654355616212376e-02 1.168251426888342603e-01 -6.217205080756791347e-01 2.646923591565941876e-03 -6.423355213821674292e-01 7.664189923052531217e-01
-4.353323178158022277e-02 -1.094992190885237388e-01 -8.206964559928123792e-01 8.751156081717774704e-01 4.803994763051579464e-01 -5.821525143697468818e-02
3.902893687738404754e-02 6.865280484765656777e-02 -6.708207640989606313e-01 2.398895767179796135e-01 -8.217292378641692929e-01 5.169275100255741329e-01
4.171207071666391264e-03 -2.600644215876198040e-02 -7.489510270727086638e-01 -2.610717993538925197e-01 -6.845106717739046776e-01 6.806516405693581184e-01
-5.821956571290756721e-02 1.016475907011363672e-01 -7.229853141336229916e-01 -2.367761106863129628e-01 -5.630219880092142137e-01 7.917975211039846029e-01
-8.656246909705267098e-03 -9.287239969743671386e-02 -7.933227090295177364e-01 6.903868760099224344e-02 -5.409029107690408456e-01 8.382468018047617431e-01
4.587802431721905300e-02 -3.565930298604661625e-02 -7.859279679739298308e-01 8.399064921512539028e-01 -1.657351178983787476e-01 -5.168064968026099271e-01
1.011523813388871297e-02 -3.713713336078753452e-02 -7.588895862361971778e-01 -2.963507590844532968e-01 6.145401776219745482e-01 -7.311064202141985824e-01
-5.082993621048073271e-03 9.819283548974043485e-02 -6.843086011845789240e-01 -5.053713842545821677e-01 -4.093332209553569578e-01 7.596354903497601896e-01
-6.785869238773706291e-02 -3.537415416371241655e-02 -7.672602208256994460e-01 -4.013131419087215823e-01 -4.929152139092348173e-01 7.719989339553285923e-01
3.304912651474283675e-02 1.409324194360059290e-01 -5.989170349899954893e-01 -5.234803471500177885e-01 -6.248999089515588912e-01 5.791963656136234206e-01
-1.911040194526482036e-02 -2.728545425464640184e-02 -7.587465609407118006e-01 5.561236381712748589e-01 4.913977308476569772e-01 -6.702647008346169777e-01
2.138952340219915302e-02 7.027296487140874404e-02 -6.684968077203148340e-01 -3.291313972723978742e-01 -6.241298250785975998e-01 7.086144824775161277e-01
-1.933260821590099265e-02 -9.087646678174328418e-02 -7.918752348883398851e-01 -8.063689227764458956e-02 -5.397140381357190542e-01 8.379775943562209894e-01
3.635126391222632397e-02 -7.173222263833291083e-03 -7.554885950867868960e-01 4.305614976001684302e-01 -7.153299740504388549e-01 5.503815267696573477e-01
1.762337630018797133e-02 1.084637949007545843e-01 -6.439244713869247683e-01 -7.116524899370104684e-01 -4.262695647354357020e-01 5.584308298676885496e-01
6.510667948018698803e-02 7.684795998242892334e-02 -6.843936942845070259e-01 8.417714085508182231e-01 -5.336029721858631669e-01 8.178486302968523969e-02
-7.532521786669404452e-03 3.982293711733276946e-03 -7.400498017488780222e-01 6.311169005738455073e-01 -8.293018487201641101e-03 -7.756433998007292718e-01
-1.934735058569806918e-02 6.043080135651285323e-02 -7.293286839023707113e-01 -7.220197946377848730e-01 -4.746760940127653927e-01 5.033587407843390649e-01
-1.084125593377337736e-02 5.988493146902366948e-02 -7.122656858076088504e-01 5.860505917275320442e-01 5.966110038122834913e-01 -5.482700193024498958e-01
4.206984436973558450e-02 6.872005250520252240e-02 -6.695911144282966632e-01 -3.060042598269860359e-01 7.712900140845171393e-01 -5.580977576923631389e-01
2.556673002254459745e-02 -6.499975568072800802e-02 -8.048512913273354608e-01 7.115398185038710466e-01 -4.909911850574043557e-01 5.026318164217261630e-01
-4.318011613378999747e-02 -9.362153538456038926e-02 -8.009846389474789552e-01 -2.821396816088424520e-01 -5.784131922065085529e-01 7.653988366486701445e-01
4.051300288608052774e-02 -4.248008920960836404e-02 -7.942777892232648629e-01 8.693917397165117356e-01 1.472193473290077936e-01 -4.716825910341805872e-01
6.860971087277772246e-03 8.049357155987367507e-02 -6.775338020581034293e-01 9.149525720729525524e-01 2.506160548097487450e-01 -3.163121621573938280e-01
3.692449287061591590e-02 8.664579186842395753e-02 -6.477074322190140565e-01 6.864520033242757502e-02 7.357862888950378322e-01 -6.737257405987904235e-01
-6.020085985070692224e-03 -1.384994169823783039e-01 -8.226774383704587024e-01 4.215349747669268621e-01 5.372402548884606110e-01 -7.305348544563962099e-01
9.861117592893813011e-03 1.111656814426551232e-01 -6.653041461749035212e-01 -2.695684270386902726e-01 -5.935932123048910380e-01 7.582743312610855657e-01
-5.653139318547178993e-02 1.240190158019427863e-01 -7.096045780484517840e-01 2.315306496938087377e-01 4.729765429279214062e-01 -8.501098447214423537e-01
-7.063928742902103597e-02 -1.441712570171417226e-02 -7.530235343532879488e-01 -5.911420541810397111e-01 -5.307354273568619663e-01 6.073474935545135622e-01
3.382173735594418834e-02 6.213477169718589765e-02 -6.766101631018122120e-01 8.946387303926685297e-02 -7.709913402558522533e-01 6.305303867945609708e-01
-6.323958141129365322e-03 -2.681954465109480032e-02 -7.534810269632279400e-01 -2.536919650624942513e-01 -5.363697343154254504e-01 8.049521072542948907e-01
1.967568824684597442e-02 1.592098640562857603e-01 -5.948827147608314325e-01 7.425428813719379129e-01 3.383965045098306645e-01 -5.780293029418043238e-01
1.323453559474941851e-02 1.893542706280083032e-01 -6.046291786207608210e-01 -8.085888785468031692e-01 4.306055357539650408e-01 -4.009524885425504448e-01
7.312634045338194111e-02 8.891883264161373757e-02 -6.967200230523951099e-01 -5.450398989322113863e-01 -6.284085602039322094e-01 5.550082792485043770e-01
1.642013338777215808e-02 2.111798754826666735e-01 -5.890831440309658440e-01 8.641915966588805675e-01 -4.969994948317083550e-01 7.851360647175523177e-02
1.363714077993059652e-02 -1.329053387914077289e-01 -8.203237475349757224e-01 4.023729527055280308e-01 -3.303342053894896546e-01 8.538005151560459360e-01
6.712539004443475454e-02 2.028227526383084151e-02 -7.416712039511791366e-01 9.751371644535088423e-01 -1.537477458297968891e-01 -1.595905421816307679e-01
3.389449023284692164e-02 2.069303841365590924e-01 -5.739502576434534209e-01 -5.452850410701218786e-01 6.819550170641897058e-01 4.874439236323869773e-01
-2.691390322627131362e-02 1.913782908773481450e-01 -6.998873520983804886e-01 4.542016578982249198e-01 -7.919792284283623252e-01 4.080070534935883453e-01
3.383879047601227180e-02 1.274983069661752254e-02 -7.260321604336169576e-01 -3.244445235834423902e-01 7.015839428613660500e-01 -6.344412677591305671e-01
-5.450193810824706733e-03 -4.230178528399734794e-03 -7.423031530568101610e-01 -6.769566388421210945e-01 -2.358401929226363047e-01 6.972152555199804258e-01
1.354367823874235398e-02 -2.713166568566289724e-02 -7.522315952652522952e-01 5.928789708391591917e-01 -5.176024511099406311e-01 6.169134692496841543e-01
5.372429544004322932e-02 1.101875250577059456e-01 -6.292780752791075072e-01 1.928654004390114862e-01 -6.758221241746706909e-01 7.113841393997589746e-01
8.951218335706787391e-03 1.595628751817542157e-01 -6.150489868993522791e-01 9.423055941828615278e-01 2.753596272783950250e-01 -1.903608227466660474e-01
7.826452309308696079e-03 -1.836402527793963846e-01 -8.440631726095711995e-01 -9.225447176301686536e-01 -2.106256706439275928e-01 3.233389411105135891e-01
6.935165023743403157e-02 2.228500018284339940e-02 -7.361900602046620445e-01 -7.202184556585103925e-01 5.488314122249289273e-01 -4.243459167755246897e-01
4.754586618964576350e-02 -2.442872138486576385e-03 -7.547833378435830909e-01 2.700523106793765726e-01 -6.777987823000947154e-01 6.838571197327978357e-01
-1.499912695133407033e-02 1.999459804454563061e-01 -6.764921250546441778e-01 -8.676269062406853916e-01 4.573278484390483345e-01 1.951276264636248037e-01
-4.010604538296526356e-02 -6.792232649952800738e-02 -7.831774929718193778e-01 -1.404286928362291631e-01 -5.307108487617746562e-01 8.358383678887111312e-01
1.457764598353264614e-02 4.060773046421427279e-02 -6.951221939428535723e-01 -8.936564766536460314e-02 -7.469966040876847568e-01 6.587942429156592450e-01
1.056647771163210861e-02 3.327706825173062238e-02 -7.033342517340603894e-01 -5.678713789766260955e-01 -5.379259715668895936e-01 6.230230702413860344e-01
-9.230616946904735692e-03 1.928254193789489257e-01 -6.523493605839308929e-01 -9.064062176276520555e-01 1.094384563646682573e-01 4.079840596327901081e-01
-1.314858564387596900e-02 1.997996768161167669e-01 -6.673233368977322666e-01 -9.582882352038901708e-01 2.049185312903495648e-01 1.992286470455990055e-01
3.685123004090268273e-02 6.463712323263642867e-02 -6.719029026155852735e-01 -3.486041333797983977e-01 7.283509343173277806e-01 -5.898983596091746939e-01
-5.476890025128653382e-03 3.537038888936312742e-02 -7.253334346667689170e-01 7.160279902774453475e-01 3.651683817670994259e-01 -5.949419888500395714e-01
2.390638380238127580e-02 -3.361011266843300614e-03 -7.385459241295385668e-01 7.582763780148641386e-01 -3.865101899726758328e-01 5.250017215133153670e-01
1.868960064217048758e-02 -1.572112910270085651e-01 -8.383545777813528055e-01 7.420689942125888727e-01 -3.655862054140610606e-01 5.618543710244361389e-01
-3.447968570646531977e-02 7.851979482704196656e-02 -7.295576130710361706e-01 -3.416302617705319067e-01 -3.832293872927212686e-01 8.581515023338496251e-01
3.415827834012211475e-03 -2.266696750135964531e-03 -7.302879179727187475e-01 5.628610111813679984e-01 3.818597739648105227e-01 -7.330556562222487749e-01
-5.214105198074397984e-02 7.282168247838384512e-02 -7.397129063320276865e-01 -4.350146440101456680e-01 -5.320162417487305229e-01 7.264440639252843779e-01
7.764096061035957730e-02 1.100018121028831786e-01 -6.650729631420710941e-01 -9.890120947049316769e-01 1.369094262389175531e-01 -5.577531294662126798e-02
2.073394702218663010e-02 2.190891670054363194e-01 -5.694417524919827001e-01 -8.444088730378167540e-01 3.186130245232770553e-01 -4.306499689296794386e-01
2.253844444286187687e-02 2.090859068125689724e-01 -5.868171878534670372e-01 5.580997859138453476e-01 -2.337021986224643577e-01 7.961833402690275951e-01
-3.317449735364057933e-02 -2.283476950167977887e-02 -7.615351554253602107e-01 5.372559726124850193e-03 -3.734326907960362485e-01 9.276417201952600333e-01
5.031782467540744930e-02 -2.536787688188771317e-02 -7.766258376026351495e-01 8.840799774398168109e-01 -4.625735270114646469e-01 6.654566551013552100e-02
1.138981739390114954e-02 3.543667084977902143e-02 -7.009211217659921944e-01 -6.525737195261527290e-01 -3.366633505814422000e-01 6.788264350768015154e-01
3.587590304148482317e-02 3.836353881278961597e-02 -7.001455124420735698e-01 -1.321671881744981326e-02 5.236122882969416192e-01 -8.518541482484786043e-01
-3.796765742668374577e-02 1.163178757622966852e-01 -7.001672984919488085e-01 5.556038629136383911e-01 1.977913626228750554e-01 -8.075784323440226009e-01
4.508375978393938666e-02 -3.734335757353524771e-02 -7.915167665109656969e-01 -5.392979465832470343e-01 -3.419948453642410180e-01 7.695435338922562707e-01
5.076030146210054605e-02 4.659017156816335631e-02 -7.073708472456544660e-01 8.107411420476046127e-01 -5.447726282843753376e-01 2.142932198261993382e-01
1.081129431728971094e-02 -1.038228938871587070e-01 -8.042185309993750142e-01 7.633093373597278353e-01 -9.009240087528418151e-02 6.397204192488938901e-01
-2.081650298773283711e-02 -3.492237166617747843e-03 -7.522004580401209228e-01 -2.995266650223407101e-01 -5.086490610305749449e-01 8.071926100091036949e-01
7.547681036332678714e-03 2.240047933038673278e-01 -6.200397409382510938e-01 8.646076060638040461e-01 1.809644300109332013e-02 -5.021217046566759379e-01
9.353208042799165262e-03 -2.408754181739247713e-01 -8.602150264676180491e-01 7.860598946995477065e-02 9.129777959241419660e-01 -4.003656360989850671e-01
6.373006815715209772e-02 5.907221513702824028e-02 -7.135104357741834935e-01 5.112757307909895355e-01 -5.087640162582821590e-01 6.926444274408637414e-01
6.580454943342193760e-03 2.169091072095969963e-01 -6.236249394834153525e-01 -8.941659498862760680e-01 7.333399683914625100e-02 4.416892334793431907e-01
6.278917358149911643e-02 1.089856983276058233e-01 -6.331293554662290601e-01 -5.528843828164099472e-01 5.868964795528617273e-01 -5.914992658712051599e-01
-1.070967548470585368e-02 -1.129129307138752730e-01 -8.080782642906944035e-01 -1.837000455089332074e-01 -5.792289149702185558e-01 7.941965483068025300e-01
-1.847269688787282066e-02 7.742090731712927831e-02 -7.101205831535362112e-01 6.917911165273988860e-01 3.798230676548047802e-01 -6.141331194220587264e-01
-1.863084631832091775e-02 1.856363220413660420e-01 -6.761541718074023377e-01 -8.118674630253773783e-01 -1.159732443759008413e-01 5.722075052545756435e-01
1.549753250922690853e-02 -2.397814102640512257e-01 -8.622871877408180286e-01 -9.743255091353494324e-01 3.007798340884253879e-02 2.231257877570392567e-01
-1.134704202148871348e-02 2.074321763978391187e-01 -6.702898702445857504e-01 7.592776605823399194e-01 -6.494907835888091840e-01 -4.073274080888446974e-02
-3.404383806964170374e-03 2.170993576445194584e-01 -6.476750416555558942e-01 8.237224202539811246e-01 -5.110635461279109393e-01 -2.455512699826422063e-01
-6.668248744339899670e-02 1.031932743569537181e-01 -7.267547631830593158e-01 -7.415167121239170100e-01 -4.609724254624132378e-01 4.875011677978177693e-01
-5.165916083901386791e-02 1.503547218174938749e-01 -7.056101791115170219e-01 1.634792848936449383e-01 -1.194618326006607750e-01 -9.792871866630107336e-01
-2.927962803892166649e-02 1.024257720388772608e-01 -7.012879538923724176e-01 4.800111785596627989e-01 6.476960299423976108e-01 -5.916748441962194072e-01
-2.373149223274040927e-03 9.197820710885330764e-02 -6.868410477038340289e-01 -4.120707895036012092e-01 -6.265413684354569357e-01 6.615463536872558947e-01
3.737691637671963774e-02 9.381184004406845078e-02 -6.405997702682922901e-01 -7.260663933299729700e-02 9.006392366894268031e-01 -4.284591477145220928e-01
4.256248718684055299e-02 -8.765896570821014172e-03 -7.604217136406992150e-01 3.055273666752639783e-01 -7.254312300559248028e-01 6.167678320665131997e-01
1.058312930072251822e-02 1.863594413814961548e-01 -6.047498892001679227e-01 9.410451734519783562e-01 -2.985641310509854485e-01 1.590391183718837531e-01
3.562588634156629158e-02 1.213522428325343044e-01 -6.163457039223848577e-01 1.305859570795165348e-01 5.604549358129718994e-01 -8.178249034704825338e-01
-4.182935908804435304e-02 -9.257976819120276174e-03 -7.539437905047626787e-01 -2.467130707983526683e-02 3.819215642137213651e-01 -9.238653827238666461e-01
3.852433239205364790e-02 5.497441567918762151e-02 -6.893895386902326727e-01 2.480593900310036071e-01 -7.300442662098349800e-01 6.367903174449107695e-01
-5.739000867115889165e-02 -7.134035052799872489e-02 -7.901167140533155164e-01 -5.448070648008351835e-01 -6.227913001844204155e-01 5.615302828500862153e-01
2.330851357239422522e-02 4.172036718446972547e-02 -6.924494178328999272e-01 -4.026001516796355317e-01 7.172838965837942116e-01 -5.686975730290251274e-01
-4.317305979249898978e-02 -7.595121242735218894e-03 -7.532110119150879912e-01 -1.343931691846504961e-01 8.314864828584465906e-02 -9.874334298395728293e-01
5.485628501250744415e-02 1.305326107919597134e-01 -6.022650904432065300e-01 -6.523988657749958675e-02 -8.645414861233622350e-01 4.983089162065667543e-01
6.420532084434628188e-03 1.608396749660480074e-01 -6.259574151402849118e-01 -8.016935165418330733e-01 -9.883177205232700213e-02 5.895080884668050247e-01
1.572187619207658649e-02 2.005164373599551964e-01 -5.964979017595019029e-01 -9.686037322594932553e-01 1.774847587994026477e-01 -1.740861000967572625e-01
-3.110163080028189100e-02 -1.140010954056419612e-01 -8.119538425852762531e-01 4.966579851946940627e-01 5.916316514091398693e-01 -6.350612842814788994e-01
-2.065584583917768127e-02 1.966949052342781834e-01 -6.836385328259724226e-01 8.162689732109222884e-01 -4.678729876615047578e-01 -3.388212372179230658e-01
-5.283076597797700495e-03 1.890605237200662370e-01 -6.381956881788697356e-01 9.065098943523536290e-01 3.028088741841376552e-01 -2.941880302742102549e-01
-6.130940073473126195e-02 1.200187566053144417e-02 -7.317203486586167926e-01 3.679687548674709929e-01 -5.387909373560394455e-01 7.578280288193909309e-01
-2.788103194924285849e-02 -1.359614635871054800e-01 -8.339688047321606179e-01 -6.627081936508238957e-01 -5.195511228933719083e-01 5.393370752769537368e-01
-1.235711671093109656e-02 2.024577691806210555e-01 -6.616684237181351680e-01 9.229746706131685130e-01 -8.688415410398792060e-02 -3.749251941016335521e-01
6.775436449610656997e-02 9.746324050088976676e-02 -6.543060090815303598e-01 -5.992592831317254953e-01 6.113830685731375114e-01 -5.168162681674646208e-01
8.178792130892236986e-03 1.375931921458233287e-01 -6.406780068048204546e-01 9.416449356908974666e-01 3.360934031370104713e-01 -1.860213577707128460e-02
2.041001846418260407e-02 -1.526370854665852761e-01 -8.377988436036096775e-01 7.781793874445597226e-01 -3.564740080725145033e-01 5.170716802582857596e-01
2.475911711567716639e-02 1.803576237595591603e-01 -5.782744834778760223e-01 -8.312958813763727806e-01 -1.912290062049590011e-01 5.218990561330256739e-01
3.222990093235780784e-02 -1.867828976374301744e-02 -7.646561694515764396e-01 4.612382287318970708e-01 -5.729210148517197565e-01 6.775107431602378494e-01
-1.824468373745324196e-02 1.875602945143614586e-01 -6.757159332379741867e-01 -8.974243000995851816e-01 1.053478780858431441e-01 4.284057074474850180e-01
2.232428169687031630e-02 8.056287006423908104e-02 -6.574911496365181129e-01 3.307298858040564893e-01 6.316285059276907088e-01 -7.011869744480347943e-01
1.936003778715935861e-02 -1.819768774735823144e-02 -7.443116217073589835e-01 -6.478139735266007504e-01 6.538518178723103924e-01 -3.909154076891208085e-01
2.200983561454389163e-03 6.772357609282406155e-02 -6.972443415454721016e-01 5.618634313568109384e-01 4.113901413694868170e-01 -7.176821274686614460e-01
-2.372609086974789006e-02 -1.439910147016886521e-01 -8.336910701686887082e-01 5.136414138834426435e-01 5.549857179892585535e-01 -6.543419219122104113e-01
-3.608545075768709171e-02 -1.204747612897984210e-01 -8.237105153963241166e-01 5.959753901159244860e-01 7.161072390537965848e-01 -3.633232122379744800e-01
-6.469031810780621547e-03 -6.374596198131347868e-02 -7.767600780994706744e-01 4.640260739971405757e-01 -4.832740552970876124e-01 7.423786029564075628e-01
-3.713155593602370658e-02 -7.282928083857537205e-02 -7.837234437554587707e-01 3.135056563332958013e-01 4.418861632233915815e-01 -8.405062892083197124e-01
3.743531901241829024e-02 -3.578040648318186329e-02 -7.801142404661447483e-01 -6.132548422375647679e-01 7.884511270920137038e-01 -4.757434875553293724e-02
5.898725053312296046e-02 -1.400789148350073919e-03 -7.660447440431733535e-01 2.969933109131334126e-01 -6.564028647904464053e-01 6.934913498867522064e-01
-5.852963434225982170e-02 1.413680701879271862e-01 -7.086745817858050023e-01 -4.024447051359681393e-01 2.169046235694263025e-01 8.893765476907006251e-01
1.432746945515320572e-02 1.881737171142384701e-01 -5.886431057051754179e-01 7.578345985813593755e-01 1.194994359587114308e-01 -6.414098580459921539e-01
1.030187293735943845e-02 -1.628522696339194387e-01 -8.304433320608826108e-01 -5.228638013785231742e-01 3.084915570449377475e-01 -7.946360200997624190e-01
3.681998554894123227e-02 -8.092057019553761110e-03 -7.571832878581996606e-01 5.761468244484946322e-01 -5.987879361459645944e-01 5.563342917742639671e-01
4.490581844089712449e-02 1.776389120960479226e-02 -7.280121111416993918e-01 -3.474319452740538550e-01 7.434568295318608744e-01 -5.714568977845317921e-01
-2.198578877838265264e-02 8.775551729183060645e-02 -7.102436474580464676e-01 7.642705112668241041e-01 3.363234810315380852e-01 -5.502518529862265861e-01
7.423200208755777012e-03 1.970071962173573499e-01 -6.178103512900838812e-01 -8.976330335673432526e-01 -2.783979326000362783e-03 4.407348256126366048e-01
-4.816849321062050687e-02 -7.688235954402240779e-02 -7.902954047904933166e-01 -2.012362620630558097e-01 -5.972076402988262256e-01 7.764322257606239841e-01
-1.746281621650545152e-02 8.990508240803082862e-02 -7.032399660984653966e-01 6.683602764018502507e-01 4.905431361022551950e-01 -5.591618482613124330e-01
-5.855974262300232824e-02 1.165672355967708462e-01 -7.144084348938594120e-01 1.824497170418289127e-01 6.141608820722536111e-01 -7.678010886183921357e-01
-2.795625159547658958e-02 7.717098242479590586e-02 -7.265766756308335017e-01 -6.489417269117930820e-01 -3.196271366915076073e-01 6.904441531095242279e-01
-2.763118618276546798e-02 1.188775763644097372e-01 -6.929911061468072564e-01 -6.101687511969151601e-01 7.903408633992324572e-02 7.883195470487908141e-01
1.667214630801099398e-02 6.821933597950197159e-02 -6.701280162074323421e-01 4.592009440639588935e-01 5.212659365555989410e-01 -7.193165619931067845e-01
-6.316516697519002077e-02 2.312192234743727995e-02 -7.220460908431506342e-01 5.259441956428757559e-01 -2.533312272548335908e-01 8.119150154832266431e-01
1.749068781630022315e-02 -2.402663334689136287e-01 -8.595171103688261649e-01 -8.590376535433406069e-01 1.010618440075055080e-01 5.018374373047057579e-01
6.372030249152500596e-03 5.471173177469063065e-02 -6.940429477395509972e-01 9.185502209949906183e-01 2.067245851304871929e-01 -3.369427806211046650e-01
5.126826556287657211e-02 1.686901943536381621e-01 -5.680019591833598280e-01 6.429848841063228182e-01 -7.601902775175044258e-02 7.620968089622583985e-01
-2.238083854427035460e-02 -1.265293699032375985e-01 -8.212300364410619613e-01 -3.178537110176417602e-01 -5.199214665289978443e-01 7.928749504396324088e-01
3.671002098428586408e-02 1.407440845125748907e-01 -5.932797827897127174e-01 4.818553580419538407e-01 7.110119674658069711e-01 -5.121302530086098148e-01
8.604306589612377085e-03 6.841820515946092640e-02 -6.811150343157880149e-01 9.325301129349657936e-01 -3.546833203337698779e-03 -3.610747961901076275e-01
-1.473848075566165823e-02 -9.605068399173671834e-02 -7.946889859877400708e-01 -1.710774986651136115e-02 -6.092575321220013995e-01 7.927878558902838879e-01
-4.758115821905485772e-03 1.603631972560654595e-01 -6.445546283049763403e-01 7.892457425650747371e-01 3.610368579587936999e-01 -4.967328709056263447e-01
-4.055375712110658587e-02 7.913620898130606027e-03 -7.455893354538769557e-01 -4.427449113011299175e-01 3.099247835336567114e-01 -8.413819418483917678e-01
1.248316482139405145e-02 2.308062252172143891e-01 -6.126975329694392958e-01 9.647401581111488822e-01 -7.293702645793362360e-02 -2.528964560826231223e-01
-4.555516736066351352e-02 -7.148213959273026948e-03 -7.541607347060231836e-01 2.633873775062988698e-01 -3.597006134664060273e-01 8.951215325542367651e-01
1.367284227300323042e-02 -1.658790788075037992e-01 -8.369474382305893689e-01 -1.306468482291262279e-01 4.817913571825553909e-01 8.664920595089068422e-01
-1.629116232552454274e-02 -1.007084940107516036e-01 -7.984647708132982524e-01 -1.881208405002324224e-01 -6.361562634039962250e-01 7.482751886180322165e-01
-2.517796217337853540e-03 -1.281734766758542143e-01 -8.174547012899118226e-01 8.182308674488410205e-02 -4.727775575794245233e-01 8.773746996151490229e-01
2.199992438967353706e-02 1.567268155613439906e-01 -5.942127339365705918e-01 5.324750449785573547e-01 5.490015631201500268e-01 -6.442574098655873271e-01
1.410410929716936733e-02 4.965026066483554934e-02 -6.868364595618247082e-01 5.087669630821994859e-01 7.022131640452170531e-01 -4.980490432856196081e-01
-1.505689358254038053e-02 -3.361082424617664599e-02 -7.591843648732095051e-01 6.169667968406771230e-01 4.061867998656521483e-01 -6.740654680452449199e-01
-6.546920204894740407e-03 1.685677665919963208e-01 -6.471783610818303556e-01 -9.247082784230936658e-01 -2.286142272960333122e-01 3.043848466885895609e-01
1.657883053113854560e-02 2.866209109944893585e-02 -7.023206090160563075e-01 -9.134481560897823871e-02 6.191999209260998782e-01 -7.799022904098137365e-01
-3.134833049536522864e-02 -9.531200128713468445e-02 -7.984653554136615927e-01 -2.296681605328079467e-01 -6.339921251620587173e-01 7.384487262295011956e-01
-4.206885999324787989e-02 9.560909198196337888e-02 -7.203824459922540946e-01 -3.365359197376684430e-01 -6.773739047558181570e-01 6.541469008427519549e-01
-3.633301102428294904e-02 1.668225250568721729e-01 -7.005141428033473394e-01 5.864706181165382226e-01 1.556415761518210594e-01 -7.948760367874869726e-01
3.950406467688041996e-03 1.356614525533631765e-01 -6.526674737731029685e-01 6.852841398549496255e-01 4.717413767094125188e-01 -5.548384640267561840e-01
5.832898438301095667e-02 9.784364508363480040e-02 -6.428223968734568805e-01 -5.236860831637065727e-01 5.754859449197274879e-01 -6.281471272723483379e-01
7.252465132522184499e-02 1.108940151234549532e-01 -6.723328887755866123e-01 5.162031876421291354e-01 -7.707768222112777456e-01 3.734131216360629391e-01
2.842644590161107210e-02 1.694274557134970716e-01 -5.796681888401662430e-01 -6.089562971113133827e-01 -3.283415096216691920e-01 7.220554558119764987e-01
5.044076929355313828e-03 6.909191263348139767e-02 -6.975152013803316287e-01 -3.937405493509678056e-01 -4.292752437083958150e-01 8.128290994642696221e-01
-6.630839014882354554e-02 -5.536032023926169832e-02 -7.799584453214318813e-01 7.424524707165462978e-01 5.491042810957761366e-01 -3.837301359147948232e-01
-3.808011170083141616e-03 2.146155052832548205e-01 -6.615106397015295681e-01 -5.140828614850826428e-01 8.156676902915335203e-01 -2.653394628429485147e-01
1.805963488424872088e-02 -9.632261220273762026e-02 -8.080766364368829890e-01 -6.695025204042436284e-01 2.450428429736963010e-01 -7.012277663353995161e-01
2.882012817506463334e-02 -9.942317854667715935e-03 -7.480902205227737412e-01 6.604650935432561099e-01 -5.006592977242266818e-01 5.595767398786176683e-01
2.370485447989311746e-03 2.274496998760453317e-02 -7.178417769602296605e-01 7.663310987736703384e-01 6.020065848367502914e-01 -2.243317161382487324e-01
1.857220764037549252e-02 2.189223144081926531e-01 -5.952492235122330833e-01 8.662188991747481470e-01 -4.933758584568865846e-01 -7.902582492083148891e-02
1.122148060110276895e-02 -1.715671146401806790e-01 -8.344538203415504674e-01 -6.158910257580740844e-01 4.456686693744006666e-02 -7.865697926834260834e-01
6.836117734514587929e-02 7.678398025484589606e-02 -6.930092139142645102e-01 -6.879969665903828968e-01 6.415276542843088015e-01 -3.392675091294534706e-01
-4.269369575198905808e-02 5.955071881506917089e-03 -7.460766737907555957e-01 -7.646265331567324297e-02 4.508080924975915171e-01 -8.893399385986272554e-01
-6.798990212085493246e-04 -1.889170564837076016e-01 -8.399473125256688988e-01 4.711913230497102312e-01 3.586911303357743219e-01 -8.058035803476601977e-01
-8.101817039281126185e-04 -6.271010712356404893e-02 -7.721237239491792748e-01 -7.089642610270784351e-01 -3.868824313726958453e-01 5.896538483563723565e-01
1.096225282423213265e-02 1.789580660869829754e-01 -6.106882275986474928e-01 -9.493903769607781040e-01 2.004158469663125663e-01 -2.418499543498970339e-01
2.914589354881650177e-02 4.358312061444134106e-02 -6.971464673392319122e-01 4.609289598642135055e-01 -6.545718752698342913e-01 5.992329714428495935e-01
-6.539358501975787996e-02 -4.935349988437742058e-02 -7.735439150273628606e-01 4.224091186360788286e-01 5.251086501078138236e-01 -7.388040620320388552e-01
-4.537661103646416227e-02 -8.538684080701514079e-02 -7.956853385831029746e-01 -3.304529531869141445e-01 -5.851355505501127929e-01 7.405519787377949914e-01
4.654908522419561739e-02 9.670184261671542492e-02 -6.380353337773509992e-01 -1.572819343269141190e-01 5.881664267932994461e-01 -7.932985866164053990e-01
2.485148564468236954e-02 1.698106167660093646e-01 -5.807730280224324693e-01 6.865528683347076333e-01 4.209686378963115039e-01 -5.928157933870433771e-01
1.123824201390798833e-02 1.315669871903600574e-01 -6.484479739148745203e-01 -4.553091788603694789e-01 -5.681229519324935140e-01 6.855143055640819938e-01
-6.370501266799782902e-02 -3.185381983004065276e-02 -7.633132136077500629e-01 -2.410563643504850528e-01 -5.395605539959373864e-01 8.067008353644634644e-01
-3.848187893536115373e-02 -7.546350177616409360e-02 -7.869410384943974490e-01 -2.958808590708206787e-01 -4.424307481576885692e-01 8.465870010342357865e-01
7.267431262524676888e-03 4.501388679595681036e-02 -6.964948195083361382e-01 8.559888986605272976e-01 2.199058635297689024e-01 -4.678935953346278209e-01
-4.282449868993759567e-02 -1.075043064204509735e-01 -8.155217978623858777e-01 7.274702856161208153e-01 6.209921240388488473e-01 -2.918146079745131405e-01
1.499285619091155278e-02 -1.465490825551993281e-01 -8.273524632808998414e-01 3.922249482426656830e-01 -3.293228037143729470e-01 8.588981784412764720e-01
7.316807992398734195e-02 1.148515553787360227e-01 -6.468968200751324948e-01 9.153566852697382350e-01 -3.430719340538091466e-01 2.107695110697383190e-01
-5.778889509886486059e-02 1.032754674438788045e-01 -7.219730189115579622e-01 -3.194771090374678435e-01 -2.482069870348484752e-01 9.145095233993709716e-01
-1.409788531347034093e-02 -1.521813525683827217e-01 -8.334270814122278770e-01 4.017721315631260226e-01 3.213035719612955532e-01 -8.575215268109218636e-01
-1.493092118636485388e-02 1.487985048699871082e-01 -6.779894674235185104e-01 -8.606128605919016739e-01 4.943558095547268688e-02 5.068546414105519204e-01
1.685250390548900107e-02 -7.181910994107472412e-02 -7.911809692039025732e-01 9.030180980366103727e-01 -3.849742618325137089e-01 1.906649740902982004e-01
4.735624046188931062e-03 -7.887879179816267849e-02 -7.833558572582205448e-01 7.660775775300139312e-01 -6.201315473464107386e-01 -1.690029857472701846e-01
-1.449011195898068649e-02 9.180107504250372211e-03 -7.456557246214658985e-01 -5.683922902500780916e-01 -2.183665614144779110e-01 7.932504328648601888e-01
-7.121700763869792672e-02 -2.558706909853350128e-02 -7.636000780432509183e-01 -6.247997295715486121e-01 -4.250175676034464445e-01 6.549697436949051266e-01
-1.209963704128840661e-02 -1.608179822571012829e-01 -8.364217665172389848e-01 6.400245840246053808e-01 4.317149747729653320e-01 -6.356026371884472281e-01
-6.168670454531770264e-02 7.544688535600518886e-02 -7.444062337859540524e-01 4.814624995698415511e-01 5.402132347921069222e-01 -6.901909318901604529e-01
-6.514027504422448614e-03 1.945173100114824249e-01 -6.421492452921376826e-01 8.930648077335041624e-01 -1.123699671054964599e-01 -4.356698746535372924e-01
2.743164033507491245e-02 1.501512636281987223e-01 -5.934307262994993337e-01 4.942851634179594167e-01 4.684042966857653867e-01 -7.323111306481656646e-01
3.560158336839452237e-02 -2.337083215121884758e-02 -7.704063898134519972e-01 2.465493973485049228e-01 -5.967231501176665232e-01 7.636326844633732902e-01
2.867671272969061352e-02 6.912989153830755018e-02 -6.653695904878538236e-01 6.426843965748500753e-02 6.108406863945905485e-01 -7.891408134857667012e-01
-1.252856224777216566e-02 1.177418563772963667e-01 -6.802702000767569812e-01 -7.667909105922794399e-01 -1.986148332203721834e-01 6.103964674356388009e-01
-4.427614093504389503e-02 1.498727280988870758e-01 -7.034493313876045706e-01 3.430101507060255850e-01 -1.864298467458661568e-01 -9.206453979437155821e-01
-7.057351886056645318e-02 -4.697230582108092439e-02 -7.769474532901753383e-01 7.128009094541237767e-01 5.075594561166141272e-01 -4.840436571095431684e-01
6.329533774636693366e-03 5.662731362274655428e-02 -7.051659088338596559e-01 -4.458321085506405934e-01 -4.742860022744214143e-01 7.591353759586212391e-01
-7.171759534001618738e-03 1.696332671325877228e-01 -6.446463640254551652e-01 8.085906074414634936e-01 1.756672692059670637e-01 -5.615356089217883317e-01
-5.034955208025718859e-02 -9.467240471681133418e-02 -8.046802173439796535e-01 7.025995727257207113e-01 6.100314256998401463e-01 -3.663543367619047642e-01
-6.690069071621034501e-03 2.103079574875114655e-01 -6.575639258191297021e-01 -9.076229831137911930e-01 3.959246748547455841e-01 1.395140579468133468e-01
-1.772656725401296597e-03 1.679347116909691573e-01 -6.343995406419375982e-01 8.747191327619905366e-01 3.826807508942876024e-01 -2.973581706883052789e-01
6.684469285690328166e-02 5.540105475654760747e-02 -7.169501800881944442e-01 -5.955667869523809665e-01 5.458546648827165004e-01 -5.893580296432673338e-01
2.042350480930732112e-02 1.901450793866766575e-01 -5.809072462026354522e-01 7.849189058480529058e-01 2.461844084106015185e-01 -5.685908443668590273e-01
1.164277701015142483e-02 1.064036067812725028e-01 -6.567643965837660636e-01 -9.629959493997215514e-01 -1.585366778558077172e-01 2.179562415123119379e-01
-6.223203223104906145e-02 1.496770671450935175e-02 -7.268805161426372674e-01 -2.047053224082456824e-01 5.595409348470774535e-01 -8.031249424642438184e-01
-1.823139572919221102e-02 -4.804335944433016370e-02 -7.675124349953086345e-01 3.328534082348289513e-01 2.456068982125864941e-01 -9.104316889129302481e-01
7.212911972335501846e-03 2.954787867551249628e-02 -7.059722735867324239e-01 6.693206886264032596e-01 5.065862233211907428e-01 -5.434889273185332659e-01
-1.401865466780268139e-02 3.946848490145113061e-03 -7.468198661005310823e-01 -4.426078659719573927e-01 -4.253731874081497777e-01 7.894022602032381153e-01
-3.491810269949277568e-02 -1.182880058834077375e-01 -8.194493527559048029e-01 5.824262612734101285e-01 6.621986139002634664e-01 -4.714580001735547143e-01
4.604004508834055182e-02 -2.166211276045092171e-02 -7.687765948008594696e-01 1.138824464468927572e-01 4.457934743530275190e-01 -8.878620200321258871e-01
8.948144083304358093e-03 1.501448449060567292e-01 -6.331468289540871375e-01 -7.230402386774964496e-01 -5.066123604613999021e-01 4.696346766167483477e-01
1.740231758395712619e-02 1.232594736319524154e-01 -6.285675784259209253e-01 7.281499095356496198e-01 4.614092689741257636e-01 -5.068522425204290416e-01
4.476464205794609269e-02 2.253063717742497668e-02 -7.250455882237686334e-01 3.322888281595350879e-01 -5.588145003554244594e-01 7.598095082801218370e-01
-9.062484618252313051e-03 -1.536486898836627035e-01 -8.336840900227703299e-01 -4.634489195826595465e-01 -3.678893997676553895e-01 8.061466916611763622e-01
3.885567650281966223e-03 2.085619759104356541e-01 -6.262395599837193849e-01 -9.195120284262849886e-01 6.793012250496872906e-02 3.871474241627329560e-01
1.363359142578258673e-02 -2.134819445653561576e-01 -8.480465313095441049e-01 -9.991898751936248990e-01 2.892366632937993023e-02 2.798240226669237302e-02
6.310389124538713992e-03 -1.967661042587365017e-01 -8.499058524681056825e-01 9.060346192410452248e-01 -2.383533136738843691e-02 4.225318280500783286e-01
1.758397095401684207e-02 1.190094851830909711e-01 -6.352905220529049268e-01 -6.839539669999628035e-01 -4.146559023476981132e-01 6.002228366808696203e-01
1.513179787936103429e-02 1.483622817010921968e-01 -6.137854178712113251e-01 -8.539713982768305511e-01 -2.963804834685434542e-01 4.276581110467418956e-01
1.174201881927361760e-02 1.885992495652639711e-01 -5.966446772804832044e-01 -9.626767913049020242e-01 -1.330639651294184822e-01 2.356849097140820970e-01
1.278775229544838743e-02 1.617012906826753582e-01 -6.041718147891778079e-01 9.060738632070840515e-01 1.207781382187785163e-01 -4.055154691764495389e-01
6.857593562237707281e-03 -1.041841060018821874e-01 -7.993021673647504599e-01 3.529939220151022405e-02 -9.098126987200670923e-01 4.135151824998845038e-01
5.171826119719090398e-02 7.570674994564269289e-02 -6.680722792068757299e-01 4.198587871966341090e-01 -7.511875618686122413e-01 5.093484521500594164e-01
1.152646639080270700e-02 2.133359641901654835e-01 -6.145423634094900889e-01 -8.754454576465666715e-01 6.057202426888803198e-02 4.795062883445456725e-01
2.931505007674570229e-02 1.490251344768653563e-01 -5.949231534382881659e-01 -6.025848105698110579e-01 -5.464996651814925110e-01 5.815751559575611518e-01
6.984886583915833613e-02 7.360369678043818253e-02 -7.084450711829103353e-01 9.804064626381095993e-01 -1.824057475568022779e-01 -7.437278585392101404e-02
-5.300088525822932613e-03 8.046777798711747531e-02 -6.952163188209119493e-01 6.243586519146645530e-01 5.346494689512834020e-01 -5.694964610332652333e-01
2.642528384699045080e-03 2.021223579810033436e-02 -7.223342643121415385e-01 9.179507546863725498e-01 1.981574063638537331e-01 -3.436568845140010597e-01
-3.197058718502440028e-02 8.376786443840220087e-02 -7.227203032783588998e-01 3.986711323785264716e-01 4.897381222369312503e-01 -7.753824216706669548e-01
-3.354004657467124506e-02 1.814324621020618200e-01 -7.027634219273727334e-01 -7.526283077006671318e-01 5.297554467479492768e-01 3.910368231874215006e-01
9.867818573658980116e-03 1.953666128627783716e-01 -6.067494075512116503e-01 9.288665361976743418e-01 1.389637145862692713e-01 -3.433599335398946351e-01
-2.882090079776026409e-02 -1.768973986640995019e-02 -7.575812868381234244e-01 3.325158765135768357e-01 5.550968036421115581e-01 -7.624308037144869044e-01
-1.311493946265428027e-02 1.508566769015547149e-01 -6.656518891062580545e-01 8.529563637755879224e-01 2.839433430702607564e-01 -4.379972824354179117e-01
1.888545062462523502e-02 1.735098254629223735e-01 -5.899209051669399573e-01 -8.351753169518261188e-01 -1.295544568642782446e-01 5.345070931812024861e-01
7.034779861914791654e-02 1.026699449149749560e-01 -6.804163327269076023e-01 9.164899585920296410e-01 2.696255516803788277e-01 -2.955473188527196204e-01
6.229828871227879872e-02 8.347612762847819723e-02 -6.643343846293074950e-01 -6.327709647094305057e-01 5.763992989973847347e-01 -5.170732581907714343e-01
-1.343016909575195372e-02 1.413200257537224058e-01 -6.748848898567311183e-01 8.967206257624652510e-01 2.344904528652453635e-01 -3.753749416879406664e-01
3.079022211845313869e-02 1.629267401193611464e-01 -5.790377491832412460e-01 6.617446298588642861e-01 4.232324146612040372e-01 -6.188443811112784854e-01
-1.356383026080992989e-02 1.230461833551706706e-02 -7.439477539381845750e-01 -5.059114477561474921e-01 -3.191337324139595921e-01 8.013783550014399459e-01
-4.856489303225377391e-02 1.134818548362649393e-01 -7.129000230267630300e-01 -6.039654038974492378e-01 -4.621921499408840894e-01 6.493105631575805115e-01
-5.993259231486144228e-02 7.779730402145608459e-02 -7.423119699713838227e-01 -6.819420827093441995e-01 -5.215230359067715149e-01 5.128047570456287785e-01
-4.363700056477575612e-02 1.211424056550433337e-01 -7.045618093183176889e-01 -5.182402168037810730e-01 -3.880578127841322056e-01 7.621274247948077729e-01
-1.807905137892395347e-02 1.458730202330270169e-02 -7.453653402363381586e-01 -3.255352875597485873e-01 -3.363952257347324615e-01 8.836656769708042258e-01
-2.877214343090813472e-03 9.203275249827296001e-02 -6.849027079915289695e-01 5.133351446448110034e-01 5.729043283736582337e-01 -6.389582613936677369e-01
1.694179118135237527e-02 3.401905076231953595e-02 -6.977459041958310459e-01 -1.018398833626910915e-01 6.452999963427342722e-01 -7.571106609186935010e-01
-2.006172625354613048e-02 1.198469176083089144e-01 -6.843917888917236958e-01 6.339869068975243493e-01 -4.293907731874502254e-02 -7.721507867777670509e-01
-6.764802095468060161e-02 1.230011852072517287e-01 -7.164642981708776448e-01 -9.391790200297589486e-01 -3.893912401791749939e-02 3.412132953984339245e-01
3.814184841236562679e-02 7.617879790881830482e-02 -6.614073493495684630e-01 1.772348575115116620e-01 -7.734696662357772867e-01 6.085494891099568759e-01
1.591169671867439725e-02 3.678454588107772649e-02 -6.975435519727937184e-01 2.761034098068873913e-02 -6.528998251316732171e-01 7.569408744505482511e-01
-8.951229557259127514e-03 6.976604659410841347e-02 -7.043266105087602202e-01 6.219716235950100147e-01 3.001408958678130623e-01 -7.232335321804801431e-01
-1.985196189431941496e-02 -4.706010840346071950e-02 -7.696392055588658909e-01 -2.523368024874530491e-01 -3.833043839723836443e-01 8.884840388763095564e-01
6.366611792124818314e-02 6.289629775841064710e-03 -7.498507283588997652e-01 -5.507413839968888780e-01 6.496642450776290989e-01 -5.240422660634407315e-01
2.427800859200623593e-02 1.505462293096093973e-01 -5.990499035392408134e-01 -5.951435733054638577e-01 -3.367939399693639646e-01 7.296396159427722683e-01
