-1.448678334235273604e-02 8.435443177076420995e-02 -8.166317657780685080e-01 -6.394155113881878627e-01 -2.255513883568851241e-01 7.350335876723347317e-01
-3.955733713814398034e-02 2.038094665118547477e-01 -7.758994001968769760e-01 3.663661748697698561e-01 2.978654787019556771e-01 -8.815055204075287199e-01
3.917898924432017954e-02 1.333387885082981672e-01 -7.653582110731769195e-01 -2.780193273933808662e-01 -6.795321564844390982e-01 6.789265806398653291e-01
2.408746204663370430e-02 1.720572816817995676e-01 -7.454943634306138156e-01 5.317239956920470911e-01 8.201013476350195175e-01 -2.114317195042131892e-01
-6.776402635122581730e-02 1.363117265056248972e-01 -7.913898204262976854e-01 6.493372693415192520e-01 -2.049691163713038000e-01 7.323583630833107039e-01
-3.172874092150027719e-02 -4.856233008236240239e-02 -8.247134863740136490e-01 -9.243432439383096888e-01 -3.775139095863364602e-01 -5.543298164848872028e-02
5.671355816138547862e-02 -3.036966918177742142e-02 -9.015297101010919523e-01 -3.882357413047760608e-01 3.115205812391387830e-01 -8.673107497534894295e-01
-3.342383452534741783e-02 4.084152987293390713e-02 -8.276442380709712054e-01 6.934418068989414152e-01 -3.406669926885051436e-01 6.348893293616619804e-01
5.003636182874850874e-02 -2.117927410813667810e-02 -8.948563703157689231e-01 -3.466354461893718097e-01 3.984783094904031375e-01 -8.491518735248514416e-01
4.696829473771142044e-02 1.351050856665255706e-01 -7.605006890381229567e-01 -1.643407992257921446e-01 -7.863217093665978430e-01 5.955587889441474880e-01
-2.818534882974391836e-02 -2.140174850162360545e-02 -8.297628027311697574e-01 -6.249567731731815456e-01 1.984095683733645352e-02 -7.804071809617997291e-01
5.185588545541432171e-02 1.567856247889369559e-02 -8.824498680532364414e-01 7.557868500338447149e-01 -1.727869042828531487e-01 6.316097869921480923e-01
4.150155259301455124e-02 -7.894856204053650461e-02 -9.161003360519752725e-01 3.150710814343544719e-01 -3.661823412409715428e-01 8.755802114067372521e-01
-5.805877438854772053e-03 -1.401000948939364610e-01 -8.844089228199013553e-01 4.924665087294420318e-01 4.822752883796406764e-01 -7.244910517033101849e-01
-5.622944928222321087e-02 1.193671468716344941e-01 -8.035880973789624182e-01 4.657407792226366805e-01 -4.132582036233332229e-02 8.839557133366304775e-01
1.991060259868359522e-02 2.387303815810532318e-02 -8.371717036207568796e-01 1.863595480906549418e-01 -7.432360794241934521e-01 6.425498027994408501e-01
-9.791409835767249728e-03 -1.421526697998489186e-01 -9.057793098075679339e-01 -9.843690226419211653e-01 1.511418599027016252e-01 -9.040887925497696764e-02
-2.942180418667861286e-02 1.323353836361545327e-02 -8.328463706383945064e-01 5.399727419157683839e-01 -8.336367230061816347e-01 -1.161001810656712430e-01
5.034854624197614148e-02 1.250565240131194800e-01 -7.747886761996497507e-01 -1.099411702812248814e-01 -7.451407399961005318e-01 6.577828035721654532e-01
-2.915951292077710588e-02 1.007538805073862204e-01 -8.127077066517151005e-01 1.315544047420231233e-01 4.993747987987097181e-01 -8.563400311311623048e-01
4.449601587527209079e-02 1.274014301362802748e-01 -7.713825407444224735e-01 -2.128680467851011837e-01 -8.583950581100435739e-01 4.667388122602947331e-01
2.737211009004322446e-02 -1.036583415827447147e-01 -9.178243622976950400e-01 -2.478076150124847721e-01 1.685642817257933246e-01 -9.540322158439364930e-01
1.993186750399784588e-02 1.668324070020410776e-01 -7.577715239780840051e-01 -7.722219964640307799e-01 -3.922816467579894883e-01 4.997882529571360255e-01
6.519654158771050201e-02 1.754408639941339512e-02 -8.828719577058316004e-01 -7.624904371282116289e-01 2.290969364540717257e-01 -6.050809259887371949e-01
-1.057031528430801663e-03 -1.043076554757385588e-01 -9.069717062902515892e-01 1.174240978656147100e-02 -1.699996849566669799e-01 9.853741537746147916e-01
-9.443039887864207796e-03 1.274430654227612369e-01 -7.905891723819441497e-01 4.161751516492460251e-02 -4.961283962534241421e-01 8.672511728804420672e-01
2.504101652332050079e-02 -1.207021159643694164e-01 -9.242832351964519466e-01 1.267959725031228280e-01 -2.657900220835958116e-01 9.556560288711564155e-01
2.855916250818533661e-02 -3.833966662631674988e-02 -8.877378350232471016e-01 4.484585738547662848e-01 -4.547363303352468522e-01 7.694801994914372001e-01
-1.187243318964251171e-02 8.366207445197935966e-02 -8.087449837689458798e-01 9.891294195785256260e-01 7.839484972416989328e-02 1.244075514628187190e-01
-3.908262712228505360e-03 2.190340553484259323e-01 -7.147779061159392766e-01 7.374703073384538676e-01 4.542488287364667698e-01 4.997955055677015812e-01
-4.516482425783721610e-02 7.551982254806043071e-02 -8.119301643816745351e-01 -7.354542587163630518e-01 -1.106597537817379830e-02 -6.774840053646244975e-01
2.527915286180742668e-02 3.214733189672692310e-02 -8.283076907406723421e-01 -4.268920864113377733e-02 5.891677557270856846e-01 -8.068822634542803796e-01
3.603897505583631561e-02 1.323284439863977625e-02 -8.562545135098779125e-01 6.690839458524225902e-01 -3.834259773816139916e-01 6.366405526445093610e-01
-1.225075189431395692e-02 -1.635858917533210832e-01 -9.145133404404952593e-01 9.112950977944156428e-01 -4.785840469403640496e-02 4.089631008245223076e-01
3.465493075666900569e-02 -1.262946366215557115e-01 -9.252692985523587321e-01 8.639920620508509397e-02 3.207297885844906382e-01 -9.432219144409649259e-01
1.692477296950313861e-02 -3.682503830415664349e-03 -8.559327019376716805e-01 -1.434511125143104471e-01 7.138517915610274045e-01 -6.854468600872849482e-01
-8.319878932336885816e-03 1.367646458570467016e-01 -7.843092597123187959e-01 -1.278599165269925925e-02 5.759545909940960717e-01 -8.173816902342995183e-01
-7.066982243075931036e-02 1.935254594630716474e-01 -7.840654758553410320e-01 -6.774948094094944417e-02 3.495055339780702153e-01 -9.344816154162347566e-01
-2.550956663082603118e-02 2.323309362133365585e-01 -7.306658209464820253e-01 -7.117846917649531813e-01 -3.671047645696291495e-01 -5.988293950695371404e-01
1.190474243581877978e-02 -1.192495800896381936e-01 -9.157455095344211315e-01 -4.065191648138856695e-01 1.967003591650049177e-01 -8.922169788472862351e-01
-2.815363815095201297e-02 -5.378490403387897745e-02 -8.387525422885550030e-01 3.869125444887434040e-01 -4.141137507294726516e-01 8.238983458983359931e-01
-1.341847154364415699e-02 1.419293341932323371e-01 -7.829776653173216028e-01 6.982483894373940903e-01 4.985571218297347729e-01 -5.137022317655784986e-01
4.242996047676816235e-03 4.129296132485679727e-02 -8.278951584156781784e-01 4.094341228037858271e-01 5.437502495843565820e-01 -7.325976830162952425e-01
-1.380965269472933868e-02 1.064742125055035543e-01 -8.047024662256503369e-01 -8.046190133686518253e-01 -3.000517104487080422e-01 5.124033707758582912e-01
-1.298984403521170200e-02 2.153637841013216481e-01 -7.408371412678562695e-01 -5.330261083477604300e-01 -7.122443092157307865e-01 4.567178689403861847e-01
-2.450640888071391188e-03 1.496358227143947117e-02 -8.419987528868534410e-01 -5.207909767253199318e-01 3.818610714308742771e-01 -7.635174396745314507e-01
-1.994322143493939756e-02 -5.556634818414254995e-02 -8.437040008526083268e-01 -9.699632240149760332e-01 -7.424971563682140722e-03 2.431382607812927754e-01
4.624897741732070938e-02 -5.776211858752678188e-03 -8.806783521533650960e-01 -7.972263279022010485e-01 4.009527979473909154e-01 -4.512948436640185634e-01
-3.511455521148030418e-02 9.745118161524343736e-02 -8.145128272717545581e-01 -5.956731343370826742e-02 4.327464542455130014e-01 -8.995455750034159204e-01
-7.836453321800246341e-02 1.734657552721681761e-01 -7.854010702019039725e-01 3.363918527063844977e-01 -2.486356107801841048e-02 9.413938202279029666e-01
-1.252498286168185135e-02 2.175074940215354913e-01 -7.334375151557048778e-01 5.283263534261785077e-01 6.849884893440254530e-01 -5.016592805297105384e-01
-2.001161624871691802e-02 1.436691305739192133e-02 -8.478607066225369859e-01 6.266052891433435690e-01 -1.563052690849322524e-01 7.635014567594965440e-01
-5.131680201162411303e-02 1.945197904285714818e-01 -7.841376448399116628e-01 -2.366681480028791640e-01 -1.980692604302272120e-01 9.511870246137245077e-01
-2.600223867765676621e-03 1.802504363585746283e-01 -7.630961031769829539e-01 5.424069353679376038e-01 5.438256172190417681e-01 -6.403502280167391314e-01
-2.982483918314581331e-02 8.017549791338953249e-03 -8.336685558550998021e-01 5.987402504138578108e-01 3.197100516559728267e-01 7.343674798113583035e-01
1.775128181069395364e-02 1.905714245848064148e-01 -7.276695815346799767e-01 7.471956259033651904e-01 6.478932373633512487e-01 -1.480981080558242124e-01
-5.153083069535289301e-02 2.866486838011299623e-02 -7.852773286774873407e-01 -9.927296680548942653e-01 -1.108523246440646093e-01 4.689955527109338634e-02
-3.234744237538672573e-02 2.296589195064337730e-01 -7.529348085270050062e-01 1.867320511424136187e-01 8.201842867490450883e-01 -5.407669339429946875e-01
3.333299214026443883e-04 -1.595470696632670382e-01 -9.344491073587585239e-01 -2.105423772664161697e-01 -4.672728958355381046e-01 8.586780235876985135e-01
-6.769411613398677863e-02 1.437876527550820682e-01 -7.899266456367937117e-01 6.518630208543666482e-01 -7.703577458236740561e-02 7.544137402494165423e-01
1.760598826169132783e-02 1.395119525046782938e-01 -7.742198919285894210e-01 -5.704520878542496121e-01 -2.961098353194756561e-01 7.660961955849932004e-01
5.132060758872879214e-02 1.501300550209976048e-01 -7.412197284628468941e-01 -6.689307054339356240e-01 -6.449693081464267230e-01 3.695217217928829512e-01
6.596448062575165083e-02 7.631944210829816333e-02 -8.137672452785064126e-01 3.108601797559861768e-01 -4.696939845473857011e-01 8.262889987904208366e-01
-2.872783878562036944e-02 1.668227447971781796e-01 -7.874844898171141638e-01 -5.001398764161758548e-01 -3.192918891840392792e-01 8.049303035168321463e-01
-2.228098107189823221e-02 1.447486743004583465e-01 -7.896800205812978257e-01 7.738716581094012836e-01 2.150776123979760424e-01 -5.957048576436086984e-01
-4.619323990103958721e-03 -9.467917344629496468e-02 -8.991922274403346682e-01 4.715135742627729609e-01 8.668509251297640272e-01 1.620013052034348922e-01
2.663038362442481100e-02 2.001038756636694046e-02 -8.428267254530573682e-01 4.243733001546592942e-01 -5.807354934586854700e-01 6.947327462795604980e-01
-5.517418620251759998e-02 3.910013458861853752e-02 -7.789844647949478729e-01 9.542234791405760364e-01 -5.047026241342279090e-02 2.948055366996604754e-01
4.734209847890296502e-02 -4.740085563318408718e-02 -9.067465346761036660e-01 4.580671280431005687e-01 -3.699235967811372872e-01 8.082889574594297466e-01
2.771480090847718014e-02 -7.214461127267499108e-02 -9.057446462037330726e-01 -3.677274618042047916e-01 3.719426307502862183e-01 -8.523116761288637155e-01
1.949223743064893832e-03 1.976809569040571535e-01 -7.432919352635070087e-01 5.810807551991181708e-01 5.752507653720979608e-01 -5.757010620765241615e-01
2.412511918695147404e-04 1.404052228228448440e-01 -7.814655447958130940e-01 1.833041780135334919e-01 5.748921326194535997e-01 -7.974325138687530234e-01
-5.254560245655868350e-02 1.211628383987434637e-01 -8.051368884961130901e-01 4.208887130305448698e-01 -1.577143779015263980e-01 8.932966283640759730e-01
-2.594453992174216954e-03 7.847948745939069271e-02 -8.132800281243549589e-01 -7.077263908451561503e-02 -4.157008696115706559e-01 9.067436355228508660e-01
-5.806126180557576177e-02 1.906309573339294017e-01 -7.846565786439567702e-01 9.501051622525473472e-02 3.190658692357491999e-01 -9.429580971047686333e-01
-5.479879846674840654e-02 1.897750839816217047e-02 -7.891789922653945633e-01 9.081540919116795063e-01 -2.147725920044258607e-01 -3.593450696305334757e-01
-3.419583434660962429e-02 2.089918468883897595e-01 -7.712874239916239771e-01 -3.684553458193130515e-01 -5.436955955985383060e-01 7.540794105821488902e-01
-1.400346027049725883e-02 1.921516821950238971e-02 -8.494031929554874960e-01 -1.952430739635507839e-02 -2.821542450941503799e-01 9.591703620296253563e-01
2.218062616195943040e-03 -7.333878630716281211e-02 -8.969594359745025614e-01 3.328502385911717987e-01 -3.527699931851411841e-01 8.745078905178359507e-01
-5.902043901572076590e-02 6.217258931065899885e-02 -7.678980591523650867e-01 3.286161302814757934e-01 2.599081717798008562e-01 -9.079973464503680036e-01
2.375395107308311132e-02 -1.292270166380267704e-01 -9.263491932886727120e-01 2.829156831165936525e-01 -3.053696964620717380e-01 9.092348787465936999e-01
6.579280646599064419e-02 1.217750563451688306e-01 -7.815505721683365659e-01 -2.950206117311335308e-01 8.023668038226094978e-01 -5.188162977174847201e-01
-2.585550667004786127e-02 1.918184528007257084e-01 -7.725438141593838903e-01 5.720442573223364358e-01 4.954807243003853667e-01 -6.536545108169161677e-01
6.165715876491355968e-02 -4.464196659197247619e-02 -9.066408808470570735e-01 2.905188161706319105e-01 1.798328507416890043e-01 -9.398185799636713522e-01
2.689923122404444186e-02 1.493330108609902951e-01 -7.582098994338303255e-01 6.036415632538253417e-01 4.051975221768124857e-01 -6.866089361013658632e-01
-4.758094091814684540e-02 3.717670563482340651e-02 -8.090087758020269026e-01 4.937361195412117709e-01 8.692202744971276873e-01 2.609135227472972329e-02
2.606390285462665754e-02 3.755730321745689992e-02 -8.262487610179042319e-01 -2.637274174643144398e-01 -5.242381099344114448e-01 8.097050409686226136e-01
1.159673276099746492e-02 1.719830709304390470e-01 -7.604501363080914400e-01 -4.552984216955651142e-01 -5.493604650410269796e-01 7.006471484644990477e-01
-4.579998682875183885e-02 7.962499133882491864e-02 -8.118228499715820501e-01 -7.795987842305168725e-01 -9.462138397072866747e-02 -6.190900817504376707e-01
-6.812830802179629941e-02 2.156700388897726806e-01 -7.783284290518609483e-01 4.201971028896293869e-02 -3.519963744134336769e-01 9.350576968011273804e-01
1.840247119192114575e-02 -1.165431425824949574e-01 -9.179148402640352478e-01 -4.199159642924999991e-01 1.868332838596223344e-01 -8.881238128631219197e-01
6.134372772124017242e-02 -5.753643653977343064e-02 -9.090529021625601835e-01 3.966172843699922734e-01 1.979153930817279528e-01 -8.963951287910245647e-01
-4.372394050354266697e-03 -1.453460293222478827e-01 -9.197859435408110018e-01 -7.463220150370954986e-01 4.485263709651364783e-01 -4.917596409017461201e-01
-4.606494149800534343e-02 -6.975895348680295760e-03 -8.147890524372145560e-01 6.877183089053540144e-01 1.190116263661280815e-01 7.161562402060384080e-01
3.476578898729157374e-02 5.663884543970148372e-02 -8.143251433085335611e-01 5.936437893133374166e-02 4.624583260236536653e-01 -8.846514382543538835e-01
6.600956779536731878e-03 -8.462674085678752178e-03 -8.601227254163835712e-01 9.088666351510686636e-02 5.266216075922137696e-01 -8.452273639749744438e-01
-5.235991439145516041e-02 5.532717467091810559e-02 -8.032395605844654396e-01 -9.316279121011156183e-01 -1.224836486893694648e-01 -3.421508281414132324e-01
6.803432433162132087e-02 -3.026820750269603594e-02 -8.989287180304906810e-01 7.805691403539853912e-01 -1.648379738368001279e-02 -6.248520637325717386e-01
-6.686058063918117259e-03 -1.041249194940211814e-01 -8.748738480997110267e-01 9.948761222508369917e-01 -7.562459522934805722e-02 -6.710008920661141019e-02
-2.751680467877374442e-02 2.139095444849046235e-01 -7.562588627469010172e-01 9.661371567866597898e-01 2.573111937456586396e-01 -1.923392444025143200e-02
-7.592904587014655260e-02 1.086781913365760383e-01 -7.669811446498531193e-01 9.416425211071133283e-01 3.364727683653260804e-01 9.769267711211124597e-03
4.747164826196609289e-02 1.388147541509174576e-01 -7.542033504456632231e-01 2.036050792208837779e-01 5.009440865340000215e-01 -8.411896301560508604e-01
-2.856120782184317503e-02 2.318395957070226443e-01 -7.511619519166159442e-01 7.598052182273080934e-02 -7.810578988524840005e-01 6.198189404525229484e-01
-4.908437805859329484e-02 2.130836772231220477e-01 -7.747872273887972394e-01 2.826159679118225299e-01 3.784035127432031076e-01 -8.814414309668384684e-01
7.870205682986844073e-03 -1.342505733974072024e-01 -9.205843017856529809e-01 -4.001704292696329768e-01 5.931840757761379646e-01 -6.985673051208212136e-01
4.388881309203186004e-02 7.624767560056504301e-02 -8.080942982656579288e-01 1.808046532455480360e-01 -3.450012370610091028e-01 9.210232482359661521e-01
2.841653739691376440e-02 7.066008006660361163e-02 -8.093117392324796766e-01 2.698440076193825976e-01 5.810321095487344101e-01 -7.678449708276128272e-01
-8.397466057724465097e-03 -1.590297993989345238e-01 -9.216201848729346224e-01 -9.228006321885753316e-01 2.956203751959660120e-02 -3.841420039126881014e-01
-1.658791708358498223e-04 2.130027861854537075e-01 -7.120948889404710158e-01 -5.041687518730446627e-01 -3.644518873136903259e-01 -7.829359434003941853e-01
8.539089095356567835e-03 1.703759282137521647e-01 -7.638226881372870425e-01 -4.115864619061294638e-01 -5.764620417376831174e-01 7.058952463441124925e-01
3.963809115863639598e-02 -4.534686855616028994e-02 -9.012697002517796596e-01 5.032477001466167943e-01 -3.304257956331533297e-01 7.984738855324813311e-01
-8.277900697365030147e-02 1.680027302660300481e-01 -7.830958975601893801e-01 4.496468052456931708e-01 4.018579110465732573e-01 7.977016797410081406e-01
-7.093123127668668482e-02 1.747583566183278925e-01 -7.866820077613883022e-01 -2.717425739586354916e-01 -3.146582568454437529e-05 -9.623699769362284995e-01
-5.692950120733070250e-04 2.038435570006969511e-01 -7.419571823069356364e-01 -5.226532738433949943e-01 -5.635777635770856664e-01 6.396981004678936600e-01
-7.451051618291920642e-02 2.360475054042353305e-01 -7.677162142216483742e-01 2.964126957521028838e-01 -6.833819384662161989e-01 6.671796159769329826e-01
3.916055754480377016e-02 -1.562628551579905989e-02 -8.783065491044788065e-01 -7.714983270657489456e-01 3.736812144528604551e-01 -5.149297828828567347e-01
3.643953124460867082e-02 -2.869721745369005483e-02 -8.875742071522997323e-01 6.730270049064627225e-01 -5.201893283789763567e-01 5.257734429459759440e-01
-7.300116115153816587e-02 1.102129346269570959e-01 -7.639758079285654535e-01 -9.295985094340833976e-01 -3.395897112906540172e-01 1.432670207809892404e-01
-5.170986718921709996e-02 3.537267248646808193e-02 -7.803510766016090727e-01 -9.168144461494349695e-01 -2.788402851245365133e-01 2.858310107797477073e-01
-3.492816624235212108e-02 1.929478306370430440e-01 -7.798209138613632074e-01 -3.682473547808149950e-01 -2.123550041446030379e-01 9.051514999775883696e-01
-6.666732020302601480e-02 2.061995155669874569e-01 -7.816000330001676710e-01 5.580380288328119776e-02 -3.269478971268576784e-01 9.433933475216418341e-01
-9.282379449178567929e-03 -2.136875178088536165e-01 -9.695361513642973827e-01 -7.259252085221565842e-01 -2.379259884644616962e-01 6.453090853577627684e-01
4.698349362321686427e-04 -6.160161731311135369e-02 -8.904430991151978114e-01 4.693771192745863630e-01 -4.817440971540206673e-01 7.400052329265978113e-01
1.145828795579094915e-02 -1.073917398560188252e-01 -9.122808189702867887e-01 -3.842038967059990262e-01 2.281653584857629979e-01 -8.946104934232490535e-01
5.546365382729138982e-02 2.727944510438668271e-02 -8.816430850271513853e-01 5.244290742102719616e-01 -2.321821321524277226e-01 8.191859395962002299e-01
1.024677711541991526e-02 1.655331830361789769e-01 -7.639743767786901785e-01 4.932928853542166148e-01 6.002535466240057627e-01 -6.295695426433953745e-01
-6.090266488072377388e-02 9.258736508984324876e-02 -7.994253854919480817e-01 8.132919085837779782e-01 3.187067595018034938e-01 4.868082506285357769e-01
-2.591366315392439404e-02 2.163371860737022256e-01 -7.550931222898675799e-01 -9.689651943482238128e-01 -1.639394637429292256e-01 1.850143355780567989e-01
-7.266446924414243780e-02 1.121570541998726939e-01 -7.797997034582235809e-01 -8.958249212247664239e-01 -1.671589072037554802e-01 -4.117713081979938461e-01
-7.230079665883066935e-03 9.863837508756363726e-02 -8.023952604101085573e-01 2.409551360836023615e-01 2.989809406727334529e-01 -9.233368938309460816e-01
2.666731202193677042e-02 -6.126148356730995448e-02 -8.992742591741589298e-01 -4.916782105743999765e-01 4.466324424153879646e-01 -7.475105341253867053e-01
-7.018684645927205680e-03 -1.212635866131353685e-01 -8.797994536997075787e-01 -9.398971014027497350e-01 -1.515592044900135882e-01 3.059791599260694994e-01
-6.473235210767204484e-02 8.942817682826333103e-02 -7.904491065907702785e-01 -8.551012851052762764e-01 -1.614107890204141138e-01 -4.926949861720864021e-01
7.182490743894155705e-02 1.275491877028145371e-01 -7.743309750327210805e-01 -3.836656506630412578e-01 -8.585440827606251046e-01 3.401510347742924267e-01
-1.316046719426431852e-02 1.764026297958679879e-01 -7.731475300766981196e-01 -4.173195529191288111e-01 -3.430544676425657524e-01 8.415212552169162308e-01
2.486088124108829997e-02 -8.954097632304281254e-03 -8.656358044846130806e-01 4.140850534262502380e-01 -5.981224565515242952e-01 6.861363534296582856e-01
5.002329167049938963e-02 6.534442548452816524e-02 -8.110165312202746168e-01 -9.210009215058855003e-02 2.233750496902094096e-01 -9.703716608608009553e-01
2.756675800782570993e-03 6.880296982925901417e-02 -8.182590228337628391e-01 2.963953091753448663e-02 -3.882937120150917742e-01 9.210588968228521356e-01
-6.045337614906187013e-02 2.287107818804939297e-01 -7.692957378816521752e-01 3.302758019592680339e-01 4.714512831614351418e-01 -8.177111851048621816e-01
5.928569895667487599e-02 -5.871460707548915164e-02 -9.100124238869322646e-01 1.869130458117655158e-01 2.524564681607658345e-01 -9.493836131876096651e-01
-7.210324333228783356e-02 1.236093934242614156e-01 -7.886575454081136138e-01 7.309723355594883731e-01 -1.008742298073339178e-01 6.749102417414359900e-01
2.474953275162581744e-03 2.011578995092907773e-01 -7.391237011379255817e-01 4.835258202754453283e-01 6.234400043613955722e-01 -6.144309091255261146e-01
-4.519757028416265116e-02 1.317429668052778613e-01 -8.029209294853352219e-01 1.739643039674959035e-01 -4.187974008945997140e-01 8.912604321684164388e-01
-5.141022378061877590e-02 4.525656558731831758e-02 -8.053958569746348939e-01 8.915440756863703964e-01 3.252857110923497164e-01 3.151798966743911135e-01
-1.067368424260374017e-02 1.669921538278711926e-01 -7.751900580186650291e-01 -3.143623002277053380e-01 -3.273212963626236927e-01 8.910876012733188745e-01
-7.527451000568123607e-02 1.209203004773296564e-01 -7.769516871009911618e-01 -8.953110558932348972e-01 -2.057899897835369918e-01 -3.950551775388250753e-01
-2.598279839562590496e-02 4.322686817091812156e-02 -8.336250784353903542e-01 -7.499519490823877144e-01 1.694615763451177703e-01 -6.394175851586784143e-01
-4.314512458776535719e-02 6.380824695858033913e-02 -8.116442409319829521e-01 -5.769039492590229967e-01 1.173071035760814423e-01 -8.083445285148732617e-01
6.091036805317396469e-02 5.503334559908946294e-02 -8.204933782537627840e-01 -1.159384709449080147e-01 4.330257765306884665e-01 -8.938942598624015634e-01
-4.526006467697496483e-02 4.711101125821809399e-02 -8.134439583504099458e-01 -7.592844639619790170e-01 8.949583042939347755e-02 -6.445755185559898237e-01
-6.687185221870174667e-02 1.745023826224021690e-01 -7.889116897393287919e-01 1.701520664505399849e-01 3.745633668574698677e-02 9.847056906125275511e-01
-2.082566181019347012e-02 2.659173445224730092e-02 -8.437641413825670567e-01 6.761378316760671137e-01 -2.224997498055043266e-01 7.023756074301514829e-01
1.529177850290153531e-02 6.330590825922663423e-02 -8.182248436755321652e-01 3.026467094491273047e-01 3.414496926933771603e-01 -8.898410400848084656e-01
4.915465057422224032e-02 1.273245381657901187e-01 -7.677300841050260782e-01 1.495344601935291555e-02 8.018043706526576386e-01 -5.973994858170212918e-01
-5.398516552400026147e-02 2.394579910400430334e-01 -7.573956460335432572e-01 -4.731964369012484073e-01 -8.288681284396819393e-01 2.984338415140983525e-01
-6.263351928657279188e-02 8.310582870403415701e-02 -7.621522384843463227e-01 5.202779766647545184e-02 3.096026982326444132e-01 -9.494415608751504143e-01
-3.809930508530474241e-02 1.945629221064029690e-01 -7.806203951193395607e-01 -3.011900306389692639e-01 -2.669434794011950052e-01 9.154374605885866600e-01
-5.060038259166362712e-02 -4.772229412979944740e-03 -8.023099481458181303e-01 -6.041985834519033594e-01 -4.337686722840981557e-01 6.684226288057610876e-01
-2.478303735384039877e-02 -6.554641280552052883e-03 -8.340527439399970655e-01 -8.759687864292942105e-01 -1.680729604730853977e-01 -4.521395416897334152e-01
1.960923765806381683e-03 1.863186177158255852e-01 -7.571401211837903711e-01 -5.218236605101466141e-01 -3.851785170623178156e-01 7.611422845470251497e-01
-2.321051319797378179e-02 -3.179537401769249889e-03 -8.450536653045656044e-01 9.321450075127347690e-01 6.241903039483802373e-02 3.566644776448194554e-01
6.457190539586608879e-02 1.348141720033710911e-01 -7.494534807641726193e-01 -5.810851738955677970e-01 6.194675058095151510e-01 -5.278257571631910228e-01
2.500658957731964269e-02 -1.406503897866255848e-01 -9.281520775612412955e-01 -1.870027539019321061e-01 1.415086522676680392e-01 -9.721138160557545316e-01
6.907502241852974539e-03 -1.525163731119162924e-01 -9.319210065202446769e-01 -2.025887604322625379e-01 -6.887665972025518446e-01 6.961022688689764149e-01
-1.196532187340105038e-02 6.048707814460925480e-02 -8.278722234516315837e-01 -3.990351568976553964e-01 -1.125766294536833662e-01 9.099985967354627947e-01
2.770827595590096351e-02 1.416269260462124369e-01 -7.637352272398140185e-01 -5.363335954625642055e-01 -4.826499766053145013e-01 6.923837624187092477e-01
1.995989843710039777e-02 1.906276556772796560e-01 -7.205579172969032165e-01 -8.586082826244917365e-01 -4.223094079792166222e-01 -2.905969389736655084e-01
4.312134826961760287e-02 1.180721616130012003e-01 -7.850322556273242602e-01 -1.768102307491110081e-01 -7.593427382559078120e-01 6.262082306712885016e-01
4.130863394060924065e-02 1.059909430980928019e-01 -7.986762101989373086e-01 1.923442895602335279e-01 -9.385751525140286766e-01 2.864966969387902074e-01
1.177151930539687167e-03 -1.893221932990497569e-01 -9.574071814200679764e-01 -4.868200763079365556e-01 -2.439792050884997399e-01 8.387373610302086835e-01
-1.031899626988854249e-02 3.519115568031470909e-02 -8.394894768058357437e-01 3.222813794880273752e-01 3.433291242944538912e-01 -8.821903563554169825e-01
3.230088965291458974e-02 -4.567597693472272291e-02 -8.952639199729298669e-01 6.079365905238033330e-01 -4.168379678641599972e-01 6.757656475799659335e-01
3.187103869347819585e-02 -3.689608359670655535e-02 -8.892817031081662327e-01 7.069770362110164852e-01 -3.615486107574190644e-01 6.078372087406851421e-01
7.350757889648516785e-02 5.207610564104121070e-02 -8.202480139559993333e-01 -5.423808501767650725e-01 4.015726141777323788e-01 -7.379447465115470672e-01
4.531255471427889786e-02 1.390840758086785700e-01 -7.568719957079157457e-01 -2.815700709167024973e-01 -6.647247481751065168e-01 6.919966071647345451e-01
-9.107888942402411064e-03 -1.474520778519444464e-01 -9.131871989874682516e-01 -9.046567431907777124e-01 2.321885999968152647e-01 -3.573298630550968968e-01
-4.567691102750451315e-02 2.338017930268031785e-01 -7.528681613400740602e-01 4.599304918625558569e-01 7.937447078797422728e-01 -3.980367839383310291e-01
-1.971992455710465039e-02 -4.818973753332851662e-02 -8.449783192031511403e-01 6.587268725387938062e-01 -5.785320876878159019e-02 7.501545931542479284e-01
1.283297388573547727e-02 -7.375579009092513016e-02 -9.023744390095815859e-01 3.781542666996329793e-01 -3.700595127754262026e-01 8.485607271028260401e-01
6.434153625617793082e-02 1.363553913847135868e-01 -7.482888385521030417e-01 -9.129730966100262357e-01 -1.105151276228371615e-01 -3.927677830892032929e-01
2.875561681309383999e-02 -4.781116312889868714e-02 -8.915992753878293486e-01 -3.776738654761623848e-01 7.687763858782725723e-01 -5.160865429869634369e-01
2.891122339910467270e-02 9.942339395894045362e-02 -8.021021021295762221e-01 1.020008307516941104e-01 -1.931807706089476162e-01 9.758468221974683221e-01
-4.721599146167208133e-02 -1.210137013325748075e-03 -8.101710609688385079e-01 -5.434589838464928269e-01 2.927673360972825045e-01 -7.867271571460071611e-01
-3.252753575980948247e-02 -5.650424639800799564e-02 -8.352987636415932782e-01 6.645735020747246535e-01 3.118203404281650465e-02 7.465719932418360960e-01
-4.024871789928327614e-02 4.228155541505969339e-02 -8.215089347990996993e-01 7.463638419799648593e-01 -7.179241687383819404e-02 6.616546412323569548e-01
3.655226714778982144e-02 1.673572924443977594e-01 -7.251080885848020241e-01 -7.205019781752005636e-01 -6.125787862291257602e-01 -3.249986617013579937e-01
3.527137029838998093e-03 -1.584658418476079245e-01 -9.289701874079981936e-01 -9.571260319641721193e-01 6.884572666779206762e-02 2.813716845315141768e-01
4.195591673998189108e-02 1.596143417824570088e-01 -7.320448842659319499e-01 6.147366694002168730e-01 7.853100393025184145e-01 7.339597717453941184e-02
5.089865111719139162e-02 6.678383586416936080e-02 -8.107882068442938683e-01 -2.232731090796088169e-01 5.645428797831154588e-01 -7.946322769986829959e-01
4.814437304280884400e-02 -8.192852608485048926e-02 -9.172501255878297011e-01 -1.075205087529748915e-01 3.047736010766653458e-01 -9.463362997815643052e-01
-1.014853442267710931e-02 2.282836718544539734e-01 -7.153914424328083888e-01 8.043864672080919265e-01 5.895558887545145899e-01 -7.339118071921145459e-02
-7.742618250440434780e-02 1.954644228891895541e-01 -7.820820394762908467e-01 -3.433294903034952994e-01 2.117208052704583621e-01 -9.150405246236751333e-01
-2.421591684138469161e-02 -6.789146216160860114e-02 -8.354184372535531367e-01 -8.186871802137312137e-01 -4.016441034787816139e-02 -5.728334147857443437e-01
-7.748740774299781031e-02 1.492893056523281470e-01 -7.819191097655463496e-01 9.537696823633252663e-01 1.549818454453945164e-02 3.001386334352598717e-01
4.479794071978033393e-02 5.411884433540334327e-02 -8.169450378437049798e-01 4.531301076450152676e-01 -3.554889887087343547e-01 8.174965959883000455e-01
2.507921713882684325e-02 1.176997855360536610e-01 -7.887632080291319125e-01 1.044855234825261547e-01 8.412904209499192376e-01 -5.303896709029028989e-01
-1.770361011475176174e-02 -8.255948656542462516e-02 -8.463499809941591456e-01 -8.570407336330059245e-01 -4.765406756409453215e-01 -1.959340842055573295e-01
-7.590612368742279126e-02 1.929642169772641802e-01 -7.831245556946303532e-01 -1.275360625693152117e-01 2.092256030879047490e-01 -9.695149301361056793e-01
-2.472217103511852813e-03 2.210229422983790368e-02 -8.383912269166635678e-01 -5.714666766730747138e-01 3.818812830876805453e-01 -7.263556450386670083e-01
-1.636118600921450048e-02 1.943395724835530192e-01 -7.620416341325489951e-01 5.403599155688842970e-01 4.320753420447036031e-01 -7.220263571666484248e-01
-7.617418653391502814e-02 1.173970645144958441e-01 -7.716231588031634558e-01 -9.847753577319495744e-01 -7.799957460035901458e-02 -1.553498025942546545e-01
-1.564151912442619807e-02 5.626613478277388281e-02 -8.329773874208387108e-01 -3.412963264361905114e-01 -2.607787888153924039e-01 9.030566100002467289e-01
-6.645868509743675656e-02 9.137672518977124625e-02 -7.645457487954826492e-01 -9.806423247738692561e-01 -1.278939909351642368e-01 1.482692076756911004e-01
9.457396002340403771e-03 2.049364163301447272e-01 -7.202163254060832687e-01 -8.363015433359074491e-01 -5.481018216734374615e-01 1.356914486025784065e-02
-9.838780305535940393e-03 -2.188627990108547305e-01 -9.613375722116385136e-01 5.404642952184433025e-01 2.943153940329205631e-01 -7.882111356922572032e-01
-5.092224727170346216e-02 2.081690353373731872e-01 -7.780814201236441185e-01 1.554378944906323889e-01 2.074751390406611995e-01 -9.658121596026718603e-01
3.088122917210590554e-02 -9.239929991915098173e-02 -9.172546989600035561e-01 2.492665873362932827e-01 -2.639752224299224403e-01 9.317635163392000708e-01
-3.048261189127092138e-02 1.238335850567614249e-01 -8.055616737009084760e-01 -1.913416688964751922e-01 -3.797968033979212676e-01 9.050650550499848013e-01
-3.302558771969787976e-02 -2.851726942901008574e-02 -8.255106096414152050e-01 -5.776193753432865563e-01 -4.063854105331751038e-02 -8.152940366573824260e-01
-3.556460276683874600e-02 -1.252386194808274497e-02 -8.230349036151324293e-01 -7.308637409243957661e-01 -1.063542490666652962e-01 -6.741861507829002287e-01
-5.509698346473382996e-02 1.543282462791434849e-02 -7.937208118058999284e-01 -8.741049524185570130e-01 4.750223521008151706e-01 1.014608158944198535e-01
-5.300594429167353183e-02 1.410061102369645769e-01 -7.982736483462581356e-01 -5.391122970855277696e-01 2.603869050932884899e-01 -8.009722784136191764e-01
2.473345027206121441e-02 -1.157794107083293667e-01 -9.232008087903165183e-01 3.415759677736919242e-01 -3.782716746801896290e-01 8.603699194963235763e-01
-1.175310802934209295e-02 5.821378034203644053e-02 -8.260485429672199675e-01 5.721675118394161652e-01 3.801688713102499007e-01 -7.267021175710045577e-01
4.067417573642720385e-02 -1.332300616767343737e-01 -9.269819260581320108e-01 -3.682408054614749737e-01 -7.431378337589980565e-02 9.267557233669742045e-01
2.342861308224354622e-02 9.310018469152965548e-02 -8.035234501982934097e-01 -1.155989254897969859e-01 -4.305758150548913421e-01 8.951208610659346920e-01
-1.362644626793850684e-02 4.394891656867769975e-03 -8.527411055554682262e-01 -3.825604533497197202e-01 2.714162768365888101e-01 -8.831651624702033798e-01
-7.408874540431013844e-02 1.016578289736762980e-01 -7.721152694643672598e-01 9.506326716301960467e-01 2.875283689862528358e-01 1.167260067737320856e-01
-6.231699826903058098e-02 2.440655322071761391e-01 -7.554917722792297008e-01 -3.408070290812379999e-01 -9.059032327603392387e-01 2.513760167621139074e-01
6.973192702023059408e-02 8.332729148664350105e-02 -8.106920017869388984e-01 -3.548579645686422146e-01 3.847336228180678330e-01 -8.520891176722567018e-01
-6.618317173707855905e-04 2.131086405521092908e-01 -7.259216863752332438e-01 7.185206341780678851e-01 5.674773023394141802e-01 -4.021164129825193778e-01
6.994193523806839508e-02 6.119718719036742333e-02 -8.188647328014374560e-01 2.256518007849836471e-01 2.543929214090597801e-01 -9.404070960703444504e-01
4.796888157819906989e-02 1.198031051090507485e-03 -8.788934517651669776e-01 -8.176449295832788344e-01 4.374096789936331997e-01 -3.743388062296531538e-01
-2.131203440492785220e-02 2.219669064567384165e-01 -7.417419740794813920e-01 -5.640571926206870979e-01 -7.514938545100212641e-01 3.421936149119967352e-01
-1.075289742463221045e-02 -1.557659399203887296e-01 -9.112497942242385740e-01 -9.986800409566478631e-01 3.639684106533547236e-02 -3.624149217806382772e-02
9.702509180452416684e-03 -5.121648049387946336e-03 -8.593216904830731639e-01 -1.853009765280148879e-01 -6.165611740849348266e-01 7.651900853440081196e-01
3.942995826296397111e-03 -1.560858249420470634e-01 -9.297014928201382533e-01 -9.650501113012824872e-01 -2.171861307651700712e-01 -1.466576533312753672e-01
-3.338902512534882433e-02 9.699092556860598735e-03 -8.274996225158138818e-01 -8.284643071230033406e-01 1.645560886927023292e-01 -5.353206380267452325e-01
-5.560463031331840111e-02 6.703728998939496864e-02 -8.003098504206994646e-01 -8.394865014079185839e-01 -2.382764440825027863e-01 -4.883510521635950341e-01
-3.287583178309522181e-02 -1.337505641342164736e-02 -8.279616568681077426e-01 6.721991975028387412e-01 1.883345950836378124e-01 7.160155858437869947e-01
1.683257619968223096e-02 1.807758634799131181e-01 -7.474231368605300796e-01 -7.073938995482813574e-01 -5.337821777441258408e-01 4.633254337985499016e-01
-7.142399325267340116e-02 9.878877501945357298e-02 -7.818974061304579948e-01 9.209970094162720500e-01 1.816955808208123579e-01 3.446029955709482562e-01
7.458551107197408832e-03 -2.460765926820546179e-02 -8.721117719615937292e-01 1.094013989082052302e-01 -4.751180605813205560e-01 8.730945896215209778e-01
-6.507649678954061101e-02 8.008208864128781024e-02 -7.837623899068705269e-01 -9.459595448626161307e-01 -2.659236504841275273e-01 -1.855940505417885134e-01
1.062565899112158027e-02 -9.155070348588095416e-03 -8.622360240296764733e-01 -2.753924421982740026e-03 -7.436931583931810641e-01 6.685154463880791376e-01
-7.696831131893713818e-02 1.822098338213362090e-01 -7.857627030425333725e-01 2.564589062342521597e-01 9.306520162560802389e-02 9.620642897746053412e-01
-3.767650765359129711e-02 1.072261254948715936e-01 -8.131875641204334704e-01 2.463221880425263410e-01 -2.513532228251723621e-01 9.360272095688999539e-01
-7.937419941711049143e-02 1.779104098360285158e-01 -7.850157675376265853e-01 3.498442326688437909e-01 -4.543958665177671996e-02 9.357052189836623235e-01
1.029604017743034235e-02 1.605553325112255014e-02 -8.426889201873273283e-01 -9.166151508997123776e-02 -5.703364866492901530e-01 8.162808699509960242e-01
8.079450453552895067e-03 -8.154849785105575122e-02 -9.001959847198590658e-01 -5.199199864511290237e-01 2.688018630801757847e-01 -8.108198111129772956e-01
-1.534626307869101439e-02 1.755677276139372689e-01 -7.746064759643198627e-01 -4.236645573800508213e-01 -4.543041760709393695e-01 7.836555738489137113e-01
4.017923127910522953e-03 9.449449717400888737e-02 -8.066561460507104542e-01 -1.436902866866972620e-02 -2.806762947192284474e-01 9.596949247535924155e-01
-2.629353302521605235e-02 2.276156416355163692e-01 -7.431730291471040362e-01 -6.788261265162796043e-01 -6.532255899707015701e-01 3.353974039349926772e-01
-9.487117555337119812e-03 -2.857322995607233102e-02 -8.675968632274225767e-01 7.255180845166738779e-01 1.000994578912577267e-02 6.881303001790833873e-01
6.164041863487119792e-03 -1.195256277569863718e-02 -8.649029342753917771e-01 -3.113083502316172507e-02 -5.807413232801903469e-01 8.134927083542505821e-01
6.497042149070546280e-02 1.086914285704478067e-01 -7.964157767311489389e-01 3.482543559965386448e-01 -4.342159978592080583e-01 8.307679403615478853e-01
-3.936830632825679549e-02 6.478498620645367634e-03 -8.186890850230894578e-01 -7.191062558290335360e-01 -2.942803564824600926e-01 -6.295119257139651925e-01
9.963145101634625703e-03 -1.294748868149349641e-01 -9.207327680843558904e-01 3.882591608980611175e-01 -4.911727072527909410e-01 7.797462379702114754e-01
-4.955806115471429740e-02 2.070114024026285249e-01 -7.782724244110141854e-01 1.653086443735511946e-01 4.873619279032436191e-01 -8.574097056400820094e-01
-2.005900681580160411e-02 -7.862986771636373828e-02 -8.449876452851273756e-01 -8.723346934528145580e-01 -4.815555277540335410e-01 8.447754901817600137e-02
-3.282527908964671254e-02 -4.492963289548547456e-02 -8.321335085847667568e-01 4.742850212337224591e-01 -4.671058691504573201e-01 7.462344307511701302e-01
3.357251436033176217e-02 -1.018891119219196284e-01 -9.211697697015495123e-01 3.747454078571189062e-01 -3.188248576640206888e-01 8.705840507530093753e-01
6.250422299572336304e-02 -3.478222956832857649e-02 -9.035476023234827458e-01 1.813300563283028188e-01 2.923049937191944392e-01 -9.389766777288964805e-01
-9.966437329436094589e-03 -1.271977026945035338e-01 -8.901039361600714406e-01 9.754515777862086123e-01 -1.518700503898344663e-02 2.196897227280832365e-01
-6.546268943958117453e-03 -2.190877472367960821e-01 -9.624584302668424129e-01 -9.654617171086259386e-01 2.445557712767518488e-01 8.986738859506486488e-02
2.758427496855173772e-02 1.853590113907632730e-02 -8.444969521862840667e-01 3.692026891141834688e-01 -5.502126004077645405e-01 7.489696046592152490e-01
-9.045564755907556029e-03 -8.885474696415607276e-02 -8.837865439855254746e-01 9.971923639308170051e-01 6.634781856994259597e-02 -3.471824144565799353e-02
-6.781444187277064703e-03 -9.384756548237957463e-02 -8.659276862660388874e-01 -9.891399003858765138e-01 -1.251774092215812151e-01 -7.702514969275356393e-02
-1.315405911559313842e-02 2.198544494443995662e-02 -8.458861016176595360e-01 1.485934393837448908e-01 4.676787845300105495e-01 -8.713188533898719168e-01
-2.520552399249151310e-02 8.353318695841352448e-02 -8.229638765515970844e-01 -9.507407437679696316e-02 -2.842508747323643226e-01 9.540242976964898869e-01
1.057955231098739977e-02 1.072751837690763682e-01 -8.014296349644122186e-01 2.913968685231609589e-03 -3.301639496089729398e-01 9.439191041424602746e-01
1.882301048869992194e-02 1.912821757465661687e-01 -7.189341215144899877e-01 -7.790123114831797313e-01 -5.200276855176183544e-01 -3.503013343577530692e-01
-1.769486552718510866e-02 -2.394430046704806581e-01 -9.798997414151128238e-01 3.039029474182667334e-01 7.557777043406074258e-01 -5.800371196502266402e-01
4.834934961776192475e-02 1.251904754757839355e-01 -7.748609921534089784e-01 6.097911035550585002e-02 -8.644222367462087719e-01 4.990548514130809243e-01
9.346559667852492870e-03 -2.455765010310806060e-02 -8.724754521188106127e-01 2.178440564057675943e-01 -5.035769237098685069e-01 8.360348371901651365e-01
4.531140640969416600e-02 -5.611514881565104335e-02 -9.070928354411637029e-01 -6.254004453296714283e-01 2.737932876576668617e-01 -7.306924925131327297e-01
-8.051848111105383565e-02 2.097477501417455703e-01 -7.782491061468439497e-01 2.112755640997520112e-01 -3.012649888695928535e-01 9.298397939945007851e-01
-4.114010312763637794e-02 -2.427740316514924793e-02 -8.079265537331510316e-01 -8.072891516732659811e-01 2.951937708719936868e-03 -5.901487199464405808e-01
-6.383808048572800486e-02 7.525048286037248901e-02 -7.789060864484771418e-01 -8.891289353473920132e-01 -4.394806873451793661e-01 -1.276967571186587991e-01
-7.324355480030580665e-03 -1.037438115111281867e-01 -8.611971915576972503e-01 -9.646879156264269728e-01 -2.046643893373781553e-01 -1.658002206919446664e-01
6.990567203778359773e-02 1.256506852320768142e-01 -7.753974226336305398e-01 1.927774214141591003e-01 9.235546060872982244e-01 -3.314871873358650745e-01
-2.239944890848675693e-02 2.563212829862972220e-03 -8.467868304061464402e-01 8.511300991481062228e-01 -3.995035104448211444e-02 5.234324443283561168e-01
-1.082768181573277172e-02 -9.869117114000326707e-02 -8.533483810039127482e-01 -9.411007329416409828e-01 -2.636177134706133574e-01 -2.117430320016025491e-01
6.942432639976819919e-03 -1.217033796349238362e-01 -9.116872444175563306e-01 -9.790412895056006537e-01 1.697464773618525546e-01 -1.125357137376971767e-01
1.924743095498089715e-03 -1.808732989718783435e-01 -9.499546153147818695e-01 -7.700878608180408702e-02 -5.447999962568913501e-01 8.350225212200553804e-01
2.363997229385559132e-02 1.610703352777305142e-01 -7.577603536391404049e-01 -6.255040097906858776e-01 -3.729355541289355869e-01 6.853202216499358901e-01
4.377824734379488075e-02 2.312065192167308755e-02 -8.605716373158217580e-01 -7.986120253118287327e-01 1.475714223426907766e-03 -6.018443779706427188e-01
3.047577592387688480e-02 1.782645300159819632e-02 -8.447770444341510254e-01 -5.196852305005202899e-01 6.356140524646146650e-01 -5.708958201888773010e-01
2.723953404576028720e-02 -5.356679673445179091e-02 -8.947704923594858029e-01 -2.065474193846629225e-01 6.890449628049402087e-01 -6.946619341655871915e-01
-3.127820058241025623e-03 1.012580385445968345e-01 -8.014909526752612701e-01 4.431721425567565209e-01 -9.092761820665608286e-02 -8.918131083971115869e-01
5.950046896556017428e-02 4.125972268720538849e-02 -8.242846062561859366e-01 3.331950264636205066e-03 7.413301526552162901e-01 -6.711322543818226682e-01
-5.806482534750714158e-02 6.010248263430773008e-02 -7.685096688385126829e-01 9.728145989443916231e-02 3.932782639287166759e-01 -9.142584561720067393e-01
2.904557623746778852e-02 -1.359096077679247672e-02 -8.687534541317296632e-01 -3.197149655364349141e-01 3.093482123411984697e-01 -8.955925548670783387e-01
8.949188469264186818e-03 5.991315896645916378e-02 -8.207784574217039664e-01 5.613967515225917748e-02 3.212997920972330279e-01 -9.453120016545190074e-01
4.449335941122820742e-02 1.600013529261119696e-03 -8.710052718560161722e-01 -8.877410170857565896e-01 2.200381263982162383e-01 -4.043502312534378862e-01
1.007647639774043175e-02 -3.354442185298731061e-02 -8.758056279588076753e-01 -1.877057802880295334e-01 5.377595194187968497e-01 -8.219374911274740514e-01
-1.464877700137350719e-02 -2.145921031043722949e-01 -9.657436157654927245e-01 6.566126601819191055e-01 2.753807388768373388e-01 -7.021575771466620486e-01
-1.171018238908097531e-02 2.322016638117603837e-01 -7.182169914721403536e-01 -8.951430810409568561e-01 -2.438703364258673623e-01 3.731569689501149090e-01
-7.386496664012205671e-02 1.082191473563831885e-01 -7.714735205651953587e-01 -9.951156674476380193e-01 -9.776498058014741754e-02 1.366810054124293315e-02
5.332124200161404530e-03 1.930485604407121969e-01 -7.447038581213177855e-01 6.462401216329598519e-01 5.683143644588254384e-01 -5.093058887756731767e-01
1.128667132719101025e-02 7.010217771842862378e-02 -8.170812046124220629e-01 -5.148864424220510327e-02 -5.801600356605439712e-01 8.128734541959501403e-01
2.705933782817287678e-02 1.729510869527194680e-03 -8.575471841840843767e-01 4.207921351231084794e-01 -6.157276577201310497e-01 6.661932381351648447e-01
5.441420728721724220e-02 -2.198827269819829400e-02 -8.984264587909503996e-01 3.203239910609037566e-01 -4.166942718473902740e-01 8.507399276867091409e-01
7.973884538322689036e-03 -7.746581513087708037e-02 -8.990154675205048740e-01 -5.360984654942989591e-01 3.040753684249443145e-01 -7.874875272738560694e-01
-3.214435546732544169e-02 1.590095497993367635e-01 -7.905095403759464512e-01 3.810823665575665542e-01 2.076199613951351108e-01 -9.009274008093920427e-01
-5.343789204879199894e-02 8.600895432999697277e-02 -8.071036156005256812e-01 7.556834953467755911e-01 -3.435053936151202802e-02 6.540355459040836372e-01
-1.164542578517269340e-02 1.059261010015036114e-01 -8.023874194942469673e-01 -3.693880382228280634e-01 -4.791553238385630742e-01 7.962177169939463894e-01
-9.154698488231628045e-03 -1.885343829856005460e-01 -9.495041913774140419e-01 6.643589276435760693e-01 -5.473161882575802162e-01 5.089913607630982550e-01
-2.984611773430088238e-02 2.324684337492013420e-01 -7.433235205697901193e-01 -8.156817860658204244e-01 -4.839345234712116861e-01 3.169709779666970983e-01
-6.696256342017350982e-02 1.018906553550694427e-01 -7.889494115635145022e-01 -8.856276267906023625e-01 -1.073793997014602375e-01 -4.518112118850075021e-01
-5.339576874725452532e-02 2.391892263986365452e-01 -7.442102998199063846e-01 3.783085283992762560e-01 9.112800190318567362e-01 1.626388153353091337e-01
-6.935308474185142291e-02 1.026750471870325199e-01 -7.882936750315325813e-01 8.996239844441100697e-01 2.801691249647094914e-02 4.357656930359117831e-01
7.904947389960613469e-02 6.443256038705398592e-02 -8.168818890134270649e-01 -3.706869014607795942e-01 -4.908011689233936492e-01 7.884829951678327120e-01
3.381276406935201234e-02 -6.954350429384933974e-02 -9.090108827536039771e-01 3.405918435125113164e-01 -4.282953068163138366e-01 8.369948185573603539e-01
-9.565894827817059826e-03 -1.536252138406936640e-01 -9.164017956965110345e-01 -9.640900351308541172e-01 1.630742345856306119e-01 -2.096120182043459401e-01
5.977240938061896547e-02 -6.095296273702581480e-02 -9.120816598895410410e-01 -1.879863211977108040e-01 -2.663176088621944659e-01 9.453761548994527031e-01
2.763143654723152626e-02 7.094753632498345883e-03 -8.512902518632327054e-01 -3.862769838511977971e-01 4.743482462042793446e-01 -7.910649992698107758e-01
7.667637361164507392e-02 1.041919624020477830e-01 -8.008583288768839070e-01 1.862141048203583560e-01 4.911847339808852464e-01 -8.509182477007291023e-01
1.797074452121134175e-02 -6.144035721182324744e-02 -8.978481936958202514e-01 1.790912579383681646e-01 -6.003873548054593501e-01 7.793980661508956853e-01
-5.526001224010399643e-02 3.854444162268291091e-02 -7.809073032283663229e-01 9.768647439280382372e-01 1.985477995500157800e-01 -7.946095496692082150e-02
-4.727067871584431785e-02 2.268516891504626654e-01 -7.661344430953612727e-01 -1.588550471138821529e-01 -6.977082498413098577e-01 6.985472583224574539e-01
-2.160565742798178229e-02 1.944700919268266548e-01 -7.688224843830329114e-01 -6.895060683076955632e-01 -3.867981138873759495e-01 6.123467978686847335e-01
