-6.051894584755205392e-02 6.340255028193184095e-02 -7.784613701913016826e-01 7.674050938453299553e-01 4.719628048731047687e-01 -4.339821802292720410e-01
5.709278469444820786e-02 1.453419040023409270e-01 -7.494542282461329474e-01 -8.619157126541538982e-01 -3.873819993888823476e-01 -3.271643177813773340e-01
-7.294830017823339396e-02 9.963892419740788542e-02 -7.743484951332965105e-01 9.510563250015634518e-01 2.759978569641304280e-01 -1.389857892941855910e-01
-7.195667889873727519e-02 9.701379834574989924e-02 -7.736924281712691531e-01 9.366299166980436297e-01 2.576330215133678658e-01 -2.373807603242273911e-01
-1.097522253048712274e-02 -1.611063050210482517e-01 -9.310567705436232355e-01 9.591051724442333226e-01 -1.127701836895140253e-01 2.596153960406643590e-01
1.146883746945251544e-03 -9.532018920116980265e-02 -9.142267371639215545e-01 -9.728569769154347957e-02 3.593769308636192705e-01 -9.281075986046634085e-01
-3.372036454984296029e-03 -1.043748824052469076e-01 -8.885912430884034263e-01 -9.784381659205576565e-01 -3.413764581094056588e-02 2.036992307508841415e-01
-2.097958972199788844e-02 -1.414416564457927038e-02 -8.575222644966504770e-01 -9.357564364092041398e-01 -2.271852270276925739e-02 -3.519144220473933715e-01
-7.665160459877916853e-03 -1.420157440002154103e-01 -9.075324376327315035e-01 -9.742751022529492211e-01 6.449158399865292934e-02 2.159371684619157128e-01
4.951557350988012446e-02 1.483947770939965105e-01 -7.434282065975553744e-01 6.927469667082382099e-01 6.978267455555451360e-01 1.820425041134397237e-01
-7.380138934083227062e-03 1.082141611792909091e-03 -8.676593208893309539e-01 -1.710052136747269858e-01 2.151483238946174659e-01 -9.614928058084457607e-01
-3.861063770363658276e-02 9.565551914223503760e-02 -8.263233355109681488e-01 3.440102863192767702e-01 -3.143995869674794941e-01 8.847654054161520065e-01
-9.914286419407652290e-03 8.483315631713479743e-02 -8.217946459989059482e-01 -5.233924746578444420e-01 -3.946575340279757649e-01 7.551859031433881819e-01
-1.757982879241664492e-02 -3.714160657264099774e-02 -8.553977631520701674e-01 -8.446809616689302525e-01 -6.880348123430575502e-02 -5.308296845166929900e-01
5.830102694310058953e-02 -1.119577298719123077e-03 -9.045626044145373967e-01 -1.830464576947107291e-01 2.714661448282331135e-01 -9.448810118409171066e-01
-4.308175836068376535e-02 1.792598886718678175e-01 -7.955805169733562998e-01 3.174847734298039126e-01 4.611773271343525549e-01 -8.285643557246719082e-01
5.285925762369272918e-02 1.453043308315829230e-01 -7.566100714397269167e-01 2.634935374719853396e-01 8.340190585380559130e-01 -4.847508284735513873e-01
-3.578295788421020918e-02 1.608295622382417966e-01 -8.015528842970004453e-01 -3.201907991992304914e-01 -3.515529563463217766e-01 8.797092536698242204e-01
-5.108073332153395540e-02 4.151342255005357335e-02 -7.856750866802156841e-01 -8.934411705449043506e-01 7.150067032898238528e-02 -4.434529613362137579e-01
-3.554658094776933647e-02 -3.666955295141084703e-02 -8.347318425602797687e-01 -5.647494372067349833e-01 2.348240541454592323e-01 -7.911483658387764573e-01
-3.466354381682792973e-02 7.524293673063366106e-02 -8.340656719136056996e-01 4.209592018942696634e-01 -1.874673726609083491e-01 8.874961039509726701e-01
5.033844476454403527e-02 1.389910132096384976e-01 -7.674610084044115599e-01 -4.449358668297119512e-02 -5.521900910740985546e-01 8.325301340273898454e-01
-1.321372296138561414e-02 -8.112450081382259481e-02 -8.712790439895934380e-01 -8.740010297062276168e-01 -4.673635269621463362e-01 -1.330170430356842903e-01
-4.767053770859068507e-02 4.486290505618511365e-02 -8.192488640529420607e-01 -8.855989657389795600e-01 -9.237652549737959684e-02 -4.551714505755845575e-01
1.372188816066789892e-02 7.602420339440232877e-02 -8.227618779474973332e-01 3.358480274386212855e-02 5.352886953307289808e-01 -8.440012284800193498e-01
-4.946077458027152429e-02 6.515840928651051023e-02 -8.183876981417319563e-01 6.685546728303948250e-01 6.641247982107150241e-03 7.436333392619538518e-01
-5.472141868758955557e-02 1.665925251765356663e-01 -7.984045495461200570e-01 -2.836819860575173768e-01 4.195549764497122358e-01 -8.622633892974606029e-01
9.093155471533121911e-03 8.748616852357744833e-02 -8.188300680472361259e-01 -4.137224754059866116e-01 -2.605501419631232052e-01 8.723229544537615121e-01
-1.477212624005138156e-02 -3.943122395333764282e-03 -8.684680880743448350e-01 7.616624246983771940e-01 -3.439375588708587506e-01 5.491605470174852899e-01
5.643502434088971953e-02 9.200983664210128643e-02 -8.171173289086830493e-01 1.055847848443076109e-01 -4.896144558218410991e-01 8.655226963284462505e-01
-7.766748563541178707e-02 1.388489063714972993e-01 -7.893692798448270764e-01 9.844745057488941686e-01 4.016777101434356595e-03 1.754816601020972311e-01
1.619448785775285879e-02 -1.755195287990450881e-01 -9.597091896144317458e-01 -2.894101377591038471e-01 -6.427665405764028395e-02 9.550446502155861550e-01
-8.332076889697335662e-03 -1.007306968202106023e-01 -8.689873198670715615e-01 -9.276255331164533491e-01 -3.561824108796520227e-01 -1.124498132073800394e-01
6.436735730654319365e-02 -4.924545709620335721e-02 -9.199976187701204289e-01 6.749719131879664547e-01 1.327024895629847490e-01 -7.258119354703133075e-01
3.771178179513844791e-02 -1.122097606194315256e-01 -9.359323889803232710e-01 -2.171958473126364350e-02 2.099999277690511312e-01 -9.774601219364884575e-01
2.401782309512059954e-02 1.301374398190659754e-01 -7.870510194942055282e-01 -4.313675642565607538e-01 -5.840035789975742686e-01 6.876495068167985947e-01
-6.235494973092964993e-03 -1.049865742930884832e-01 -8.800117259664007596e-01 9.501122400111072785e-01 1.142780555169675277e-01 2.902193263866775785e-01
3.010979676857265808e-02 1.346771946634965911e-01 -7.796409919344262640e-01 -4.255103697892294590e-01 -7.246869555367527749e-01 5.420052967238472297e-01
6.119687037150085135e-02 4.531001340135439731e-02 -8.359751987175250143e-01 1.079167958044000182e-02 1.239272148892819891e-01 -9.922326264851498712e-01
3.903701717818471723e-02 6.597546602918824554e-02 -8.232104757507747728e-01 7.368702015254265103e-02 -3.650826382370389589e-01 9.280543574160525777e-01
2.909287605797260604e-02 4.873191759741137691e-02 -8.303148700291104189e-01 1.850303520006758851e-01 -3.272649241873746596e-03 -9.827273572082168007e-01
1.092185488420501166e-03 -1.181677378453881988e-01 -8.771029604076856501e-01 -6.192561379681650324e-01 -6.687361799039925891e-01 4.114775294911834358e-01
8.028407572561268787e-03 1.208770740429191970e-01 -8.045053989685821971e-01 -3.691340374782257627e-01 -4.730753713011890405e-01 7.999623462659138928e-01
-3.889368790812957038e-03 2.588124999417313471e-02 -8.470219581926294872e-01 -5.366284864570652902e-01 3.053330637542093773e-01 -7.866394267396384921e-01
-5.349264496057777596e-02 1.155184979788289462e-01 -8.129730565673042308e-01 -5.765298597535760683e-01 7.613549708980292541e-02 -8.135211779022171186e-01
-5.101427179537503659e-02 1.944293639014310904e-01 -7.903471547146974086e-01 9.228443856698760606e-02 3.098065265779586519e-01 -9.463104662255810151e-01
-4.177976455357988034e-02 4.231446262574116435e-02 -8.271666192490776393e-01 -7.695954716133913687e-01 1.136263800376447336e-01 -6.283405572073972323e-01
-4.862336750595808166e-02 9.478577225851844701e-02 -8.211019071304860306e-01 7.809462365808449436e-01 -1.932558306739115273e-01 5.939487852338378726e-01
1.632428188141154743e-02 -4.473646311658720925e-02 -8.968923992851277616e-01 -1.730585997705685608e-01 5.547700579207079929e-01 -8.138064289990001310e-01
-5.230429605872786818e-03 -1.090564968409140911e-01 -8.797922003204682317e-01 8.295607362154598929e-01 4.412372862014795616e-01 -3.422552296097429170e-01
-3.517778522763006111e-03 5.197970624270677187e-02 -8.380703211182394252e-01 -8.707591507321097435e-01 -9.497999920805112739e-02 4.824492731539077872e-01
-4.992016857198709051e-02 8.361178963653288776e-02 -8.201854855962136259e-01 8.345224316600825532e-01 4.017979039288147730e-02 5.495069567349688544e-01
5.160028766508278908e-02 9.861673771881719619e-03 -8.988449017760088422e-01 8.583640168568219542e-01 -2.156467010936696793e-01 4.655187588839349022e-01
-6.700677072804486767e-02 2.207851255663940415e-01 -7.832984882342467481e-01 -1.598314597676830373e-01 -3.035223595130183694e-01 9.393232040912125047e-01
6.898684788153898462e-02 1.069041316904520006e-01 -8.106122893458491685e-01 -1.207104113216779934e-01 6.051269466827072785e-01 -7.869246310778532649e-01
6.490528999485581374e-02 1.175416445194376637e-02 -8.982106671459711977e-01 -7.315487222519861943e-01 3.921866209994723240e-02 -6.806602408798214654e-01
-2.035639772357850444e-02 7.909419605152507096e-03 -8.594534887058312700e-01 5.684284619756895252e-01 -3.997454360207632895e-01 7.190915588410993209e-01
3.112867370626865374e-02 4.101476702553228521e-02 -8.327724085199339488e-01 3.318436202289486853e-02 5.797647166968115107e-01 -8.141078991083426919e-01
-2.971708723977894550e-03 -4.723990728311115023e-02 -8.908291977708966414e-01 5.237279699453303294e-01 -6.939825938501212876e-01 4.940619120413970999e-01
-6.483718673391672405e-02 9.858533066005130407e-02 -7.707693246042391921e-01 -7.343551676680972751e-01 -3.662498598272360684e-01 5.714748707473413791e-01
-2.103346704829626990e-02 -5.513223425040806452e-02 -8.525696693692376149e-01 -2.509231192562341173e-01 3.500422247514455298e-01 -9.025009856580656908e-01
5.130702719156836518e-03 -1.408838150775164888e-01 -9.383068482634185914e-01 2.238802319380944206e-01 -4.642545065004865523e-01 8.569395515095186155e-01
-6.311950557975452500e-03 -1.228481620301477978e-01 -8.903782178651054036e-01 7.891183881268697409e-01 3.141123768298841878e-01 -5.278499637608512485e-01
-2.592037950496002552e-02 1.364837050126160856e-01 -8.051176258045179557e-01 5.472810615283298930e-01 3.007645956338342308e-01 -7.810403944135291265e-01
-2.943238793482091595e-02 1.810142337449663075e-01 -7.889189789826932531e-01 3.372330219593880352e-01 3.848987415055918349e-01 -8.591430891810458714e-01
-3.366615763798683908e-02 -1.080350511998585429e-02 -8.353785337297345848e-01 -7.674810481634298798e-01 7.837145739759439345e-02 -6.362631180379231255e-01
4.755797622415224024e-02 1.281492381109396450e-01 -7.812431588094725932e-01 -2.504857823340557732e-01 -8.579834730160206258e-01 4.484654199376616468e-01
-2.224417249992350146e-02 -7.241510021002023345e-02 -8.526283672316559148e-01 -7.166787102535229215e-01 -6.573943164460203104e-01 2.328182530941605988e-01
6.047804326818429464e-03 -7.122422939139561038e-02 -9.080088958744574335e-01 -9.823798514452729558e-01 3.210812425978711027e-02 1.841165278590757848e-01
-7.053082028201018705e-02 1.179734859983641998e-01 -7.991340929154796546e-01 7.613009862190429633e-01 1.265279467937255875e-01 6.359335555402598761e-01
3.764512129902652243e-02 5.365005712884286793e-02 -8.274052694364665284e-01 3.175132935028784353e-01 6.190428434870445112e-02 -9.462310331141278175e-01
4.749917212477048310e-03 -1.372864728004540569e-01 -9.290075612202535194e-01 2.062470990765384871e-01 3.771705820767689010e-01 -9.028867515576822766e-01
5.552163946792829791e-02 6.370030221824304895e-02 -8.268821462563009650e-01 -5.181738962311733809e-01 3.230908082089564703e-01 -7.919015992631209810e-01
2.029244292634984487e-02 1.148589485332132537e-01 -8.071025586331160850e-01 -8.805240238895847837e-02 -6.551373574706697012e-01 7.503611245792795037e-01
2.542588899268458102e-02 6.743856596651284785e-02 -8.257477026155241040e-01 -4.553433764808850204e-01 -2.042007860326378876e-01 8.665820494786631301e-01
-4.908242595496296184e-02 1.699126580792196251e-01 -7.991234547387284781e-01 -4.897318710662054708e-02 2.758481385811817344e-01 -9.599528276878595001e-01
-7.188392029167707531e-02 1.096765055464249128e-01 -7.703455358758214411e-01 -5.876825457376159134e-01 -1.985944150498471783e-01 7.843401581879918538e-01
1.110620589294147517e-02 -1.828781328641566895e-01 -9.628313625143323229e-01 -5.172176993216811569e-01 8.500131402312147699e-01 -9.981739799582062256e-02
4.371387063524678762e-02 1.201907521619509228e-01 -7.912411804854352360e-01 -8.017489770512880101e-03 9.277301338139815057e-01 -3.731655378934017886e-01
-1.777107953388287753e-02 1.151154012646788682e-01 -8.088198505248035408e-01 7.162286400107956696e-01 5.258389694618330612e-01 -4.588135933291466184e-01
1.413791004197132058e-02 -1.724112395999005953e-01 -9.584090153629130082e-01 -1.425864749909726281e-01 -4.518480925120147429e-01 8.806261399952323154e-01
-6.869760493234676468e-02 9.100319874171054757e-02 -7.819211262245473471e-01 -9.433247077644424383e-01 -1.612479972295114139e-01 2.900647843337774701e-01
2.988900607892939001e-02 -6.374960739907448160e-02 -9.183464508074846711e-01 1.024860617577863786e-01 -2.669572261821477888e-01 9.582434171621075913e-01
2.434660380639015742e-02 1.546966155759146311e-01 -7.692389483199940647e-01 6.119833579519721178e-01 3.363596282553173999e-01 -7.157782967300512222e-01
2.273497232902191648e-03 -1.584308132156592441e-01 -9.400449548726976801e-01 6.000413467642964349e-01 4.392706365243874145e-01 -6.685743713759516593e-01
-6.271922506764200655e-02 6.638340475191058243e-02 -7.805969109700582331e-01 9.175483619441726635e-01 3.925813027280720680e-01 -6.312625635894672516e-02
-3.525195256825545270e-02 1.116306070864803990e-01 -8.214621194113483904e-01 5.411291010026847426e-02 -4.358181449065459678e-01 8.984065547015435138e-01
2.778745192667089053e-02 1.764934203672382795e-01 -7.441361171495428639e-01 7.676550165256853520e-01 5.552153314485063218e-01 -3.200651673135877506e-01
-7.320855992330220843e-03 -8.667935073957222514e-02 -8.933509404262014453e-01 -8.970376347512220017e-01 -4.396516027005107907e-01 -4.505496734884505139e-02
5.776022126214033076e-02 1.456949400847636356e-01 -7.535826526105032785e-01 -6.797846035763509542e-01 -7.157804532448667212e-01 1.598475382766857689e-01
-6.149864134336972821e-02 1.518113477317720728e-01 -7.998705514877049172e-01 -5.064705670023476047e-01 3.088474650068214755e-01 -8.050470844113285507e-01
3.258719775685876147e-02 1.550407746828989242e-01 -7.641634601050877329e-01 -7.279490306426475987e-01 -3.411004673667728526e-01 5.947610275973020943e-01
1.189132940254487153e-02 1.877490288865594353e-02 -8.527526879901869972e-01 -4.193790867010822182e-02 -5.235931408284034694e-01 8.509356231195315257e-01
-6.304603394241589664e-02 7.745913917143494587e-02 -8.023085554773524697e-01 9.327438153931333353e-01 6.993593605441079941e-02 3.536918711167306162e-01
4.628240288832641269e-02 -3.396030692023067291e-03 -8.975229968787034052e-01 7.535312899411732435e-01 -3.598288963208844948e-01 5.501942933656125412e-01
-8.882261812710330259e-03 -1.356410676101129920e-01 -9.151126526658353022e-01 -9.712814062391655900e-01 1.496174406293607206e-01 -1.850055441158149350e-01
-4.477865078500539719e-02 9.150173759526208928e-02 -8.241921155295923729e-01 5.690559331971656309e-01 6.185352529090865081e-02 8.199691983862503752e-01
-2.874123821127924291e-02 1.456172793870211535e-01 -8.051714467871006198e-01 -4.461931277147175856e-01 -4.594670339168997475e-01 7.679855060636002761e-01
-5.510022656322011159e-02 1.257231770613874700e-01 -8.120841329534299602e-01 4.269571067261736519e-01 8.082309630246606313e-02 9.006526834024851658e-01
-6.074227544080847141e-02 2.414925912012382825e-01 -7.627527159344625884e-01 -2.598952783224216523e-01 -9.636135573138930877e-01 6.247684744427879633e-02
-3.196947416307839573e-02 2.218865886013174360e-01 -7.703899106422982257e-01 -4.555790946417882514e-01 -4.896857157434696961e-01 7.434080900300820138e-01
1.529613081016820315e-02 1.942590891285507770e-01 -7.314226962528554976e-01 8.457964523457262018e-01 5.208548258042016155e-01 1.154929072967635501e-01
7.178322481945347347e-03 8.078805012015852216e-02 -8.205854849713415389e-01 8.416710990838373319e-02 4.326660349521774251e-01 -8.976168446550183422e-01
2.243857449887965566e-02 -1.496270604164710027e-01 -9.455303794923771710e-01 -1.764506655382515055e-01 4.067971892425171765e-01 -8.963153515674581184e-01
-1.815215721234703788e-02 3.068434272866514892e-02 -8.529906820109747212e-01 -3.069964590571053753e-01 3.136217663502477992e-01 -8.985513684802610701e-01
5.339374628992653998e-02 1.014974408336550699e-01 -8.123991362563753871e-01 -1.037813010909438005e-01 -4.833428396875967814e-01 8.692578103569740255e-01
-5.997625144973734584e-02 8.326749444821528179e-02 -8.090180038572304388e-01 7.838827295902754955e-01 -1.128459394376622876e-01 6.105683092026072956e-01
4.576728131538902039e-02 -3.446982881113876129e-02 -9.145851319688326209e-01 4.009331040309641048e-01 -5.481544094697601288e-01 7.340159327091987373e-01
-1.068757711674468182e-02 -1.368254703651280713e-01 -9.161415044662202245e-01 9.827158043130851395e-01 3.562523268516680497e-02 1.816603719841340947e-01
-7.364384255826987580e-02 1.827528947175910690e-01 -7.934249711737028088e-01 -2.458873725131810739e-01 1.186852608680019072e-01 -9.620047863141111266e-01
3.321147513414592772e-02 -7.241521708466051865e-02 -9.223320689905519787e-01 -2.867907224193445015e-01 3.076698353999136049e-01 -9.072432716307026190e-01
-3.175637738235155549e-02 1.820438069730978270e-01 -7.912731533276934348e-01 -3.880338688057581309e-01 -3.425102153310367603e-01 8.556380479230236702e-01
1.926993106613477877e-02 -6.078724079801717251e-02 -9.092645048643148709e-01 -3.261554853737547166e-01 5.190020809583300032e-01 -7.901009045188682745e-01
3.266628389859271148e-02 -7.402701025791563749e-02 -9.247389923322103522e-01 3.310614155867657726e-01 -3.941700596966239978e-01 8.573379165465893070e-01
-4.138532473595816358e-02 2.078766399475002469e-01 -7.819280587454793263e-01 3.656231305002917154e-01 4.326546603014509995e-01 -8.240932419105272411e-01
1.008108727209294786e-02 3.175335471569117746e-02 -8.428172168225669392e-01 1.764246550798920232e-01 4.267460760813787113e-01 -8.869961260507779333e-01
-1.985900016724776243e-02 2.145700854125416890e-01 -7.558027101081132848e-01 6.709143255209683021e-01 6.271261096855533790e-01 -3.957105133319149259e-01
6.288847171375616142e-03 -8.081475538722722451e-02 -9.080088865363863393e-01 -9.551074533654509979e-01 -4.628160840969895717e-02 -2.926222227527741637e-01
1.381250807711549219e-02 -1.489129053142206616e-01 -9.445248316199910121e-01 1.404806268974169992e-01 -4.810570127482251546e-01 8.653608172041664659e-01
-1.255732869475572472e-02 -8.949409784398643097e-02 -8.573262941287593808e-01 -7.199175785990882259e-01 1.511263429139582670e-01 -6.774064573810012480e-01
6.954110188828671602e-02 9.539548034273452604e-02 -8.170911585564273327e-01 -4.200344238879757941e-01 5.081278320914903723e-01 -7.519156794502284136e-01
1.232777708262059596e-02 -1.268699756675663315e-01 -9.347820466585117227e-01 6.000654934075808633e-01 -4.289060533058569047e-01 6.752488438043490193e-01
-4.221693573638211905e-02 3.567776490084929863e-02 -8.287140708585629678e-01 1.430750257243473267e-01 9.714751213455765644e-01 -1.891180203486028943e-01
-6.121675035677925925e-02 2.396411863700509404e-01 -7.513058238296294045e-01 4.480084012981028208e-02 9.759388099579890952e-01 2.133924177224837126e-01
5.631535665136896962e-02 7.169763034912955690e-02 -8.250333107921450360e-01 4.171897032483098400e-01 -3.105519831844200662e-01 8.541137027608273202e-01
8.314149156521871697e-03 1.754616019079145439e-01 -7.679164753767249163e-01 5.008156538717246642e-01 5.325081552609359781e-01 -6.823626201790597978e-01
2.623773299886983726e-02 1.312296325118213758e-01 -7.826339026394977250e-01 2.245357706901571215e-01 4.734688173992758764e-01 -8.517106120221283883e-01
5.888979172401149348e-02 -1.657750854735386137e-02 -9.121009562155499850e-01 2.373321308132500529e-01 -3.381426934255428174e-01 9.106772087664003479e-01
6.626214305086843004e-02 -3.165310529494482633e-02 -9.148285526435586679e-01 7.987914051351145961e-01 1.714285357147665723e-01 -5.766667566497658548e-01
2.945482250162455989e-02 -1.074979898112666116e-01 -9.338209042791260073e-01 -5.145993564414202970e-01 2.978706327780311081e-01 -8.040277286751320585e-01
-8.771972210855296173e-03 1.832491939994189967e-01 -7.746469580230749274e-01 5.428109632601529899e-01 4.242939986086255444e-01 -7.247971170674510910e-01
-6.475415439504977888e-02 1.774233245276476412e-01 -7.973946468221527750e-01 8.809809517470539031e-02 -8.732652404402993507e-02 9.922765762754737207e-01
1.648607357709323167e-03 1.657656893889529470e-02 -8.540875712979776324e-01 1.060455235209863678e-01 4.485216815366244725e-01 -8.874585331905480157e-01
6.352264778963100100e-02 1.349918130621657331e-01 -7.614296386108014847e-01 8.925767346470778740e-01 4.154730693909076122e-01 1.751824802246448320e-01
-6.545613491383031612e-02 2.431050374301928774e-01 -7.628169273217179081e-01 -3.822638040487111311e-01 -8.966018351143655307e-01 2.235610283205928528e-01
-4.856984480968697809e-02 -9.467593543538162237e-03 -8.212828924670545483e-01 8.822838005865348832e-01 7.831749357531753164e-02 4.641569405089833178e-01
1.861053174729193974e-02 1.857468246296279935e-01 -7.491154018500653100e-01 -7.061292182074135892e-01 -5.633000227446254282e-01 4.290391725352030172e-01
-1.204141792188647732e-02 1.462678700357721018e-01 -7.918919235314748617e-01 -5.132588981135974837e-01 -2.899516186950005792e-01 8.077706124410350963e-01
-6.407709069733738549e-02 7.604989863317775101e-02 -7.856690333086872036e-01 -9.193185055206176681e-01 -3.878750325401909560e-01 -6.638105557524826006e-02
3.487867394589560383e-02 -1.122178660125387750e-02 -8.842841569520691891e-01 -6.356791178415406307e-01 4.916266639405168504e-01 -5.951598797322609213e-01
5.267798013810928714e-02 -3.478293488838299363e-02 -9.184249624131113343e-01 3.502780186919035033e-01 -4.204933227001980134e-01 8.369532096753210526e-01
-1.341558621017676159e-02 -7.169042048857347804e-02 -8.789823303067486604e-01 9.494228875036394566e-01 7.755486455418390823e-02 3.042719567561785743e-01
-5.018111546898972736e-02 5.862677553636340411e-02 -8.163704999127423534e-01 -7.080847131909452363e-01 1.813496744684965634e-01 -6.824429166717661532e-01
5.754925665757910751e-03 -6.408246165299646968e-02 -9.076492283871903100e-01 6.644925389111551173e-01 -4.219634445257572364e-01 6.167629343721664492e-01
-4.715511466798721213e-02 -1.728860096889230785e-02 -8.149843277483806991e-01 7.171110781586401695e-01 5.223996226281218958e-01 -4.613570589685915269e-01
1.799658169468777366e-02 1.555436088202213074e-01 -7.761345109724341329e-01 -7.376712002682919156e-01 -3.197845988406197160e-01 5.946251009157635936e-01
1.981447581812836867e-02 1.724325302156360373e-01 -7.605181644171904454e-01 5.784019604016868987e-01 6.212970242860818004e-01 -5.286219630480228915e-01
-1.911887134369140082e-02 6.423997862620088074e-03 -8.611238037124477884e-01 7.564613166738860528e-01 -1.648629618356815540e-01 6.329190155073378676e-01
4.624132705157301543e-02 -5.269970640637671941e-03 -8.956144420617205837e-01 -8.146288503133092274e-01 3.693587160860486440e-01 -4.471621351238072029e-01
-4.164555210186654532e-02 7.909603603391641979e-02 -8.284306129743790326e-01 5.855267652534361655e-01 -1.885589505281087264e-01 7.884186256980398877e-01
2.528632745206650447e-05 -1.864969018035830539e-01 -9.666888060823618511e-01 -4.705565372394352602e-02 6.883679973892551374e-01 -7.238337278843249845e-01
4.425531168666040072e-02 1.381051718749299988e-03 -8.901017582268057060e-01 9.034701606512256511e-01 -2.455677577842472481e-01 3.513376511984815376e-01
-4.218407836401016214e-02 1.763536197145717799e-01 -7.962899211787782816e-01 2.975137262039830310e-01 4.024397628067861721e-01 -8.657527476319315518e-01
-2.454622734617101232e-02 1.218402189696345950e-01 -8.137568367999113983e-01 -3.834046211618536426e-01 -2.677490615125515117e-01 8.839181729837233270e-01
5.386845054482741757e-02 -3.082447741356586848e-02 -9.151757905796901182e-01 -3.517986435059263228e-01 3.717168257827517808e-01 -8.591066964337931156e-01
-8.419115651029342867e-03 -2.225876569066045640e-01 -9.848843153790143301e-01 -6.978183315132217013e-01 -2.935841134365710370e-01 6.533436649587767153e-01
-8.362305093657467631e-03 -1.229887301282908130e-01 -8.949671849331082285e-01 9.285369811761173819e-01 -1.304235078018119443e-01 3.475755791205896728e-01
-2.857348685993265237e-03 1.475377931660286912e-01 -7.881977126179888771e-01 1.769799604000948379e-01 6.905391302715554458e-01 -7.013086361799523161e-01
-1.648258394346041600e-02 -2.271763519233212236e-02 -8.658600510618664758e-01 -9.221313274704352470e-01 -1.842709947021651251e-01 -3.401735078001926205e-01
2.871014065962781969e-02 8.471656441297795159e-02 -8.169032601944056227e-01 -7.924676403495432842e-02 -7.077135021109665081e-02 9.943396634849112070e-01
-4.843500466882724037e-02 2.073698651246347335e-02 -8.102075155690329211e-01 8.045342433545025207e-01 5.208573449749264173e-01 2.853634129591044455e-01
-3.857232300849479378e-03 -2.002054776110026857e-01 -9.708900415067373002e-01 -8.838889466534912698e-01 -3.399814027947598016e-02 4.664594906755771819e-01
-5.497078289246104359e-03 1.875919600105346863e-01 -7.714660121715034569e-01 -4.972777732416167606e-01 -4.424300676468333471e-01 7.463045299888496631e-01
-4.838384367190148340e-03 1.375483217166003080e-01 -7.954855179456743475e-01 4.475837776877984731e-02 -5.870137921260180081e-01 8.083387257043543883e-01
-5.979267538376347585e-02 9.251946149523446183e-02 -8.105225999967632378e-01 9.082001037655088593e-01 -6.237952433453370499e-02 4.138615305438722025e-01
1.106180149675535865e-03 -7.386855955812859920e-02 -9.054667001257845627e-01 9.221488402051619682e-01 2.680609318523908755e-02 -3.859053638865609925e-01
4.826793731263542137e-02 1.261855759021636159e-01 -7.815343478289443757e-01 -3.076005421176828195e-02 8.661779086401630856e-01 -4.987881811437021029e-01
-4.769055813173828789e-02 1.433611470144599250e-03 -8.180914588552858913e-01 -7.049975323905719460e-01 1.526335912031562270e-01 -6.925904028786654676e-01
2.692065641006186061e-02 1.805904063529622239e-01 -7.333820395232327760e-01 -7.699648413380270062e-01 -4.235788585754747260e-01 -4.772159822042899013e-01
7.671167586596047694e-02 7.501171666734407495e-02 -8.282128131374106861e-01 -2.716390098338664072e-01 -2.721637044206120515e-01 9.231138425635954103e-01
-6.101547651809860473e-02 1.952533792908796861e-01 -7.926449151985635044e-01 -5.102030903430247039e-02 -2.312371781891378042e-01 9.715586937952690461e-01
1.729138899968410067e-02 -7.516324668985044366e-02 -9.185925045828068347e-01 3.915091489728512175e-01 -4.166690562889571736e-01 8.204312791464155596e-01
-7.260391245098504753e-02 1.152974188821989238e-01 -7.688260652922983551e-01 -6.885099918089963023e-01 -1.472817810946069894e-01 7.101141233187636681e-01
4.393669417047921591e-03 9.077869739149905040e-03 -8.613507271035371060e-01 -2.230605579993062415e-01 -3.275152720051862643e-01 9.181381889826862874e-01
5.112042070314494480e-02 -2.643678824449109330e-02 -9.117054957078722932e-01 -2.979964547853329870e-01 3.394216506323419202e-01 -8.921833085287964593e-01
-1.883344705275760700e-02 -7.421994102732813910e-03 -8.656528552031640400e-01 7.723531724160958012e-01 -1.959117219788645003e-01 6.042260953071031393e-01
6.516420051904742161e-02 -5.323137981193200308e-02 -9.227327347461737883e-01 -2.455537090959671875e-01 -2.427670536279432634e-01 9.384921595953907847e-01
-7.805350681750850006e-02 2.280956325529792939e-01 -7.758847417105805278e-01 -7.892734662139412327e-01 4.714845294089339833e-01 -3.933824272367373309e-01
-4.920423101555060352e-02 4.156763882176901098e-02 -8.008566250031444733e-01 -9.201701361398654244e-01 -1.223852820103836780e-01 -3.718988616594308683e-01
1.701505281509758591e-02 -8.369408537798880832e-02 -9.222726618975747304e-01 3.616310367618369437e-01 -2.704115936249783525e-01 8.922446768032626929e-01
-1.360184944562211826e-02 -8.398831178150915899e-02 -8.697418560319947201e-01 7.989659039389666040e-01 5.910451748930529714e-01 1.109913761453133058e-01
-1.418501283184404882e-02 1.215113255483075104e-02 -8.632244487830478263e-01 3.360848329260813228e-01 -3.111688535931410038e-01 8.889437156707834520e-01
2.473895309069945939e-02 -1.429326854073844910e-01 -9.427880625742923737e-01 -2.473749250165490354e-01 3.115740579978892311e-01 -9.174569487751372820e-01
-1.471734351945754721e-02 2.130982300865345846e-01 -7.503578357227149720e-01 5.850191858350016760e-01 7.171125867820382638e-01 -3.788166972081953854e-01
-5.764641717420667180e-03 -1.436992330863096357e-01 -9.327286782129903253e-01 7.679652625956145950e-01 -3.917651318036267649e-01 5.067044868060039953e-01
-4.867190691552330389e-02 6.067810994062801389e-02 -8.197619456724233311e-01 5.320830498016074772e-01 -1.198956483202644058e-01 8.381602839717972042e-01
-1.292081529889264717e-02 2.126713054473186593e-01 -7.488152506559979660e-01 5.297734149295094674e-01 7.040120375538028163e-01 -4.729769337010725216e-01
1.865854344033189213e-02 3.722528285354460148e-02 -8.387320312317515514e-01 9.285745436942255404e-02 5.284424493549485513e-01 -8.438756252480417164e-01
-2.331997531598932992e-03 -1.311280130488449436e-01 -9.260359722557747197e-01 -6.462386715968344575e-01 2.629272663479735317e-01 -7.164110774852247010e-01
2.928770352997153714e-02 -1.577659911801775061e-01 -9.481640690180364039e-01 4.784908953864547843e-01 1.041734046760413174e-01 -8.718912574343606892e-01
-9.776036547635725063e-03 -8.131251393557942242e-02 -8.939149220011994856e-01 8.054301073830545388e-01 -3.585683013154657983e-01 4.719227854349297702e-01
6.645353455664393394e-02 -3.312494149077414851e-02 -9.173705299008572123e-01 -3.990237068073432813e-01 -2.628477522981892411e-01 8.784595269661076289e-01
3.822463521488678878e-02 1.607032076541239085e-01 -7.504160371516486183e-01 6.214294251198595465e-01 6.180733124475732421e-01 -4.814673924943263517e-01
-2.921604806046861416e-02 7.856790869418857348e-02 -8.344361529854530390e-01 1.766435534381788075e-01 -3.502748645707490782e-01 9.198394285301522144e-01
6.890914708473291905e-02 -2.582872314453476745e-02 -9.132695133883613758e-01 -9.608541411001960686e-01 -4.592240764317519902e-02 2.732223490252190801e-01
-6.320264960011185915e-03 -1.462839634329509697e-01 -9.078424938891785922e-01 -8.388469165158939367e-01 -5.031370452741195098e-01 2.078195475036107298e-01
-7.320139982279999513e-02 1.068263899768749359e-01 -7.823319929007797047e-01 -9.622645715401670907e-01 -2.373589137969807916e-01 -1.330700582390202946e-01
2.134768311896437926e-02 -5.723553629704913187e-02 -9.078393661534156500e-01 -2.988769474316247399e-01 5.436976311371035653e-01 -7.842610892998937988e-01
-7.768873798352592119e-02 2.152821218133632863e-01 -7.839263545426993218e-01 2.957728554746179572e-01 -2.850172421461212857e-01 9.117475471005173082e-01
2.933627768867554803e-02 1.743332832580639924e-01 -7.444444997581013412e-01 6.688470191254846098e-01 6.313092341452529732e-01 -3.925459411201292492e-01
2.293315326205880994e-02 -2.370196804093341672e-02 -8.846088999749966986e-01 -3.463410721079431820e-01 3.799910187827166830e-01 -8.577031464414676121e-01
-4.845189432283943110e-02 2.288951139087929687e-01 -7.708470553017526816e-01 -2.052001730621893227e-01 -9.093825506123736080e-01 3.618235282799906471e-01
2.226421036270092788e-02 1.816410635096183390e-01 -7.455117866973428598e-01 7.489949843621581671e-01 5.264042411624596518e-01 -4.023743136514872365e-01
-5.138505947425612425e-02 6.201762730391654696e-03 -8.130109137563679145e-01 -4.345227109591012216e-01 2.549720162936484069e-01 -8.638166961618101158e-01
-6.680099864239738908e-03 -2.170291040714009689e-01 -9.806677613279879413e-01 -9.168008304717609747e-01 9.801966014870507060e-02 3.871283811226218230e-01
4.969326449869267137e-02 1.174711515383707570e-02 -8.922743099164759384e-01 -9.408593212332581057e-01 2.228368952975902650e-01 -2.552008145414579876e-01
-6.769958597113100163e-02 8.377873196805682432e-02 -7.923200157672717348e-01 9.629684987596542900e-01 5.966756679628484883e-02 2.629286060305890405e-01
3.069513162644174273e-02 1.543102297004951551e-01 -7.663715713061655110e-01 -5.710519978588179946e-01 -4.347574508217852962e-01 6.963372564328264014e-01
2.832499881604997813e-02 -1.355995438006185883e-01 -9.413930853785842379e-01 -1.780936841127474246e-01 2.760761014181910555e-01 -9.444917288705506619e-01
6.396352924152148844e-02 -2.408364555881377725e-02 -9.135008253676031309e-01 2.086263538663370443e-01 3.244212212028932396e-01 -9.226190523209790717e-01
-2.281557324356317182e-02 -3.961261692579273047e-02 -8.470240451902733003e-01 -8.235865903295751522e-01 1.615801682406355078e-01 -5.436883091079230956e-01
-4.505084181075171695e-02 4.410415659514173997e-02 -8.235524173562840389e-01 -6.718484226203350618e-01 1.445927160950160606e-01 -7.264383273718657552e-01
4.355571025097457194e-02 -2.103862468359956467e-02 -9.031997120843560101e-01 -8.405013349939564060e-01 2.431943111114648337e-01 -4.841632296203393637e-01
-2.777673571482791939e-02 7.198886509633404748e-03 -8.460220697246396693e-01 6.831486302568809954e-01 1.847656812098079915e-01 7.065193500713360386e-01
-1.558430447929135335e-02 6.615322889954271604e-03 -8.618629490258364889e-01 -6.049685570373068977e-01 2.997818172584849061e-01 -7.376611058185184033e-01
6.204945775397943675e-03 -3.784444335680052507e-02 -8.918914063403001746e-01 3.925638781057303461e-01 -6.134099518567657228e-01 6.852895975933603889e-01
-4.924694197609224416e-02 1.208596633850785584e-01 -8.153386974944299981e-01 2.141721578056836328e-01 -2.993659800056548970e-01 9.297904585637085662e-01
5.688459665064084236e-02 -8.351528147512086997e-02 -9.297839017809813589e-01 7.174096561332670152e-01 -2.874779946779939394e-02 -6.960581508124928929e-01
-6.045315099328883723e-02 8.963246034680359686e-02 -7.726175802178816276e-01 -5.832189419831177446e-01 -2.812394218475230412e-01 7.620761466618438673e-01
1.987159335991653831e-03 1.475286654849657653e-01 -7.887749588161102610e-01 -2.964633612104695670e-01 -5.048071888925849127e-01 8.107275605911993255e-01
-3.606625330319063877e-02 8.840192580241908182e-02 -8.274302993029216680e-01 -3.205355254172554402e-01 4.602387494331425799e-01 -8.279113904674229030e-01
-2.143831784820736386e-02 1.341318099238206496e-01 -8.018207411781863581e-01 6.856751100427502799e-01 3.935148163425511991e-01 -6.123689515208545764e-01
-9.477569323102548113e-03 -7.893692767228252527e-02 -8.928621833027211574e-01 8.564597823177426683e-01 -3.211781396155932722e-01 4.041302313677008207e-01
1.761477700896320331e-02 4.109673499586211087e-02 -8.363413623869395686e-01 7.619992784522042206e-02 5.789703527778817804e-01 -8.117800820423216601e-01
2.291747433524393349e-02 2.447817992920861205e-02 -8.475836004506660526e-01 -2.063330607041266862e-01 5.971247707169879959e-01 -7.751571945461459556e-01
-4.802681849740086939e-03 4.529959667920885336e-02 -8.379873566913732530e-01 -5.639259701032123262e-01 3.498210814124579349e-01 -7.480726644134040315e-01
-4.849865373518936346e-02 4.162325754653344034e-02 -8.209525034216476058e-01 9.412281559935001818e-01 3.013998767375069554e-01 1.524718750054930294e-01
-2.342902794634985075e-02 3.330033664075300864e-03 -8.555881346536845511e-01 8.691246447680202047e-01 -2.496587253549948093e-01 4.269576942871300407e-01
4.601558939380127888e-02 6.673505302747497142e-04 -8.940396626187669948e-01 8.899957907677533697e-01 -2.731110680774774813e-01 3.651271517009672118e-01
5.922455023867934792e-02 -7.500879365709847701e-02 -9.262298672420286039e-01 3.806689008728965096e-01 2.497955773526581436e-01 -8.903332844745687202e-01
-6.044307611887297926e-02 7.154445184152928572e-02 -8.014134484863294494e-01 -9.030342929222656689e-01 -2.956523651142575204e-01 -3.116388050431611045e-01
4.822973821130879801e-02 1.428535531995095142e-01 -7.624562495472895218e-01 2.125586455470603042e-01 8.342129012008773215e-01 -5.088296941740079182e-01
-4.508902771431128054e-02 5.093326868409204372e-02 -8.228331928968416475e-01 -7.000047438181825621e-01 1.594542489655807471e-01 -6.961089721579973855e-01
3.049500856765861162e-02 -5.930692950803537894e-03 -8.807829533203098693e-01 4.811534471302738036e-01 -3.811173277397011949e-01 7.894561056899894735e-01
5.724778696649538562e-02 1.339981679779280455e-01 -7.701058543391303690e-01 -2.595875084224247842e-01 9.217545648026612692e-01 -2.880674360917839238e-01
5.376324096609209381e-03 -8.710792385492463485e-02 -9.154162941022709887e-01 5.627661824463856544e-01 -4.464820943221860239e-02 8.254094506905154116e-01
-1.514213561977815516e-02 -2.725027331028392896e-02 -8.708726301680381754e-01 8.990404642560453352e-01 5.953717138823237665e-02 4.337989959109669336e-01
3.258039920310680515e-02 1.591101833818239775e-01 -7.606615525238999975e-01 -6.548858334093589084e-01 -5.858683397459049091e-01 4.773707507620322810e-01
6.504030348965941788e-02 1.276970489782988938e-01 -7.827677048965669959e-01 -8.540078149888163939e-02 8.909143418715833596e-01 -4.460698846222457270e-01
-4.101495551662691363e-03 -1.325008224614308561e-01 -9.246529496147134486e-01 -8.704558547994535322e-01 1.041386881617322735e-01 -4.811047063512332023e-01
1.508504472223113659e-02 1.215153923095437238e-01 -7.986610382107165451e-01 2.618594521285554366e-01 7.017173097950964999e-01 -6.625876881325712953e-01
-7.466321751697917175e-02 1.072080659847311629e-01 -7.848452565691905747e-01 9.430867051759920239e-01 2.492952583542151490e-01 2.200893924804114277e-01
4.767195011471666438e-02 4.443407260608469439e-02 -8.852931575065675629e-01 9.118319551741866924e-01 -1.182226435547556603e-01 3.931741243700371258e-01
3.050777689475531532e-03 1.454955771119173513e-01 -7.892331294860570612e-01 -3.853204392569958281e-01 -2.840039872108603425e-01 8.779919671267667480e-01
1.149415257759428370e-02 -1.704707427180977009e-01 -9.576082862967378873e-01 6.105920999936106236e-02 -5.193985647458504440e-01 8.523478772274878379e-01
2.166751620282726318e-02 -1.036210206300316183e-01 -9.310738215891453118e-01 4.563424233769550753e-01 -1.434174563861374263e-01 8.781702715477097687e-01
-6.870239311623403677e-02 9.443778876608042994e-02 -7.907450975652472458e-01 -9.471725817728011698e-01 -1.231964482169569386e-01 -2.961194615093257765e-01
6.777964280812408260e-02 1.290957973063839859e-01 -7.849052811686803022e-01 1.078226971121203637e-01 -7.983139083362840172e-01 5.925109026375083854e-01
6.450378525683364561e-02 1.731695532958894791e-03 -8.994472510529520903e-01 2.437935428466170840e-01 5.287449224075240206e-01 -8.130150770401223248e-01
4.390347042574695158e-02 -1.967141417482625668e-03 -8.915460637963683599e-01 8.619207174188633358e-01 -2.934639548026445888e-01 4.134871027199558124e-01
-1.952808390647914338e-02 1.962882324087465713e-01 -7.734334173650274646e-01 -4.394190458372526642e-01 -5.266185195163320953e-01 7.277251109161380072e-01
-5.046319347346817086e-02 1.381848716746036064e-02 -8.102188235137668393e-01 -9.003480060928975570e-01 2.827176507882785822e-02 4.342512812000342559e-01
-4.490106027974832131e-02 7.544111023985206228e-03 -8.219674700778984988e-01 6.257914304463146893e-01 -5.323497956546294207e-02 7.781716536411616980e-01
-1.279541526332394867e-02 -7.446863512897444748e-03 -8.685483165901698444e-01 -4.499764286793735968e-01 2.279411641839392821e-01 -8.634605024570765064e-01
5.952615893928193264e-02 7.448152573678991015e-03 -9.038126637857458734e-01 5.217342341593104310e-02 -2.762747457265228301e-01 9.596615021781416122e-01
3.442807607453381852e-02 -1.317086929619213087e-01 -9.422573170277418475e-01 -6.214454547509372373e-02 -1.857424031931433350e-01 9.806313349693299708e-01
1.579081924915098564e-02 1.922868976197132096e-01 -7.289614368506340814e-01 7.758012377018111971e-01 5.075728266134234001e-01 3.748363179629177755e-01
-8.480949783826925020e-03 -1.828119884795380012e-01 -9.485741795512854235e-01 -9.987082270062495049e-01 4.165075339108736258e-02 -2.910484585062862381e-02
-6.527722824570587890e-02 1.189716029185401425e-01 -8.055571723350912761e-01 6.905083619781317017e-01 1.228223834710870099e-01 7.128203589662397421e-01
4.312098641833664314e-02 1.610556329144954835e-01 -7.399978113805613100e-01 -7.574133880263014262e-01 -6.055862928026247705e-01 -2.441110436012528806e-01
-4.200770745485674779e-02 7.705216640223534752e-02 -8.254750995356749943e-01 -6.493426401971177375e-01 -9.864364555324293959e-02 -7.540713274046446646e-01
-3.613134835032161957e-02 2.300570183989290585e-01 -7.630020250499203183e-01 -9.028131795437513429e-02 -9.627464772529634729e-01 2.548891997818469313e-01
-2.945147253540804713e-02 1.547774666793171050e-01 -7.998873002035599145e-01 4.211155592625479560e-01 2.299274549882095731e-01 -8.773796505445271565e-01
-6.323915531885680730e-02 1.344447592598022045e-01 -8.040757379752625500e-01 7.080288051963113949e-01 -3.018310280705989168e-01 6.384302949470123112e-01
1.897823750124195616e-02 -7.433745217881927714e-02 -9.191252332725169394e-01 3.132360068453710622e-01 -4.901561490902776597e-01 8.134065118528105431e-01
4.407241739357566773e-02 1.408897452479210277e-01 -7.654448742719827115e-01 2.891578299777695094e-01 4.470023195933214288e-01 -8.465085207136060497e-01
-2.828587231298263990e-03 1.843564170804637154e-03 -8.681739521144796745e-01 -2.841597117539987338e-01 -4.290778581398451696e-01 8.574062338646759596e-01
-3.571289013561848580e-02 5.970190584156007119e-02 -8.351112104386043677e-01 7.978728546772360097e-01 -2.838179259131385843e-02 6.021572731591823269e-01
1.798506673087040333e-02 8.772861868654113771e-02 -8.170202854606217757e-01 -8.907504735421084563e-02 -3.551119008015951040e-01 9.305703486829587368e-01
1.035806782753691431e-02 -1.798653389599170205e-01 -9.630762005652360180e-01 -2.259239974529719114e-02 -6.310036684646909144e-01 7.754508068587272485e-01
9.215203284190148780e-03 -4.655846859439404135e-03 -8.688711304161497173e-01 -1.318686850543162280e-02 6.314721615058691562e-01 -7.752864088465154513e-01
5.994411761414103479e-02 -7.511966519807843079e-02 -9.290795793293495919e-01 -4.961825769326609903e-01 -1.456220315077435268e-01 8.559188479569905805e-01
5.290494451043313562e-02 1.473096431041309717e-01 -7.478549284045643564e-01 7.779275103347207398e-01 1.269808732711077692e-01 6.153898329414697610e-01
-9.231922574330583137e-03 -4.000088009527640043e-02 -8.756251154527330272e-01 -7.977935409838192715e-01 3.693040274256163547e-01 -4.765920701099828904e-01
-2.009086811013236981e-02 1.652400426071081729e-01 -7.898178585735057267e-01 -5.452377328815065649e-01 -2.698156622431032159e-01 7.936720500625875641e-01
1.042784445607853813e-02 -3.586225946001689313e-02 -8.922765274979812533e-01 1.399043075967312255e-01 -3.999941508104774002e-01 9.057767186416773031e-01
-1.166458709058256285e-02 1.388557487732999529e-01 -7.953654887022487685e-01 -1.871832809974520728e-01 -5.484336489255065006e-01 8.149742032980449302e-01
-2.623947675033633329e-03 3.506468449493239936e-02 -8.440053362970996176e-01 -2.053381238589154500e-01 2.339471598310766398e-01 -9.503183578659698538e-01
7.771432203344513789e-02 8.100344754307649275e-02 -8.262019179209549868e-01 -4.483203933585399037e-01 -2.733210836479816885e-01 8.510607558408137541e-01
-2.886161388277027479e-02 3.219321546800500700e-02 -8.451248772420685285e-01 4.889838554217121880e-01 2.726002379817915044e-01 8.286035839828285177e-01
-6.985894822202396749e-03 -1.715123533499345876e-01 -9.450523899249753113e-01 -9.679982569372339585e-01 1.894971054832859381e-01 -1.645303059619511454e-01
-1.981049979473427716e-02 1.354966481088849539e-01 -8.023246003784320068e-01 -6.743685381304274085e-01 -1.983073370364761001e-01 7.112673722710272095e-01
7.790124338193681053e-02 1.157887235549728833e-01 -8.065027727230966725e-01 -2.879833905022374241e-01 -7.247490363539278446e-01 6.259428097669059721e-01
4.803034683103576605e-03 -5.919084840624510430e-02 -8.973394991540041277e-01 1.377021817634338507e-01 5.298064218378225609e-01 -8.368651411768764925e-01
2.548391273420059708e-02 -1.106261974430767098e-01 -9.331866956572785199e-01 -4.142238027201179951e-01 3.066908595441847907e-01 -8.569476984811464915e-01
4.090319039174458715e-02 -4.881476772278547580e-03 -8.852935734946811852e-01 -6.645966865435211091e-01 4.683978642230867129e-01 -5.821637957023981791e-01
2.069782582721279782e-02 1.038691288567979987e-01 -8.126571999681804215e-01 -1.469396474297484691e-02 -5.501026598227220371e-02 9.983776630297233057e-01
-4.141624474768609843e-02 1.639942604169276896e-01 -8.025444335759578385e-01 -3.604343744284328466e-01 -2.689232563615390204e-01 8.931782262898543268e-01
-1.897079489122505472e-02 2.272046125650494797e-01 -7.384732266657498823e-01 -4.092349963752279218e-01 -7.705066269539684320e-01 4.887189944761562432e-01
-2.416332470846392633e-02 2.117072193475744157e-01 -7.621903410623070974e-01 4.225061585123578989e-01 4.180473994248457004e-01 -8.041920901459140847e-01
3.464027930456350934e-02 -9.173659592494433357e-02 -9.305543133586566817e-01 -3.273523015934841629e-01 3.905592664527176017e-01 -8.604091643104250231e-01
2.246883686240812653e-02 1.834288723053637271e-01 -7.314359798722197548e-01 8.047275908583926274e-01 4.521425313911081045e-01 3.846825130136385384e-01
-5.619503976725052224e-02 1.160276814104602428e-01 -8.112189738374370185e-01 -5.638948054618937444e-01 8.966251168662184301e-02 -8.209648484381896205e-01
4.205218618481748605e-02 3.020003286067056078e-02 -8.755795861152450010e-01 5.012907346021908683e-01 3.887125533205260108e-02 8.644053591405517212e-01
1.594229268289174255e-03 -1.713008736900067108e-01 -9.519321616730734847e-01 -7.980410087656578666e-01 5.825615778651496157e-01 -1.541186436598720177e-01
-5.619533435388518461e-02 2.045587176847937505e-01 -7.879649438755603752e-01 -4.833515462214763719e-02 2.301496680986282184e-01 -9.719541363159809322e-01
-5.313514295069200061e-03 9.447716998860283821e-02 -8.167437472367712337e-01 -1.235690548665158983e-01 -3.560333054774327821e-01 9.262672260585543826e-01
4.434863200266138394e-02 5.007450489383620529e-02 -8.295242630868104872e-01 -4.612863081798617149e-01 3.854625627209266048e-01 -7.991455153014433987e-01
-4.732130122614121304e-02 2.343352770666420615e-01 -7.551123544637249330e-01 4.999570501352678664e-01 8.547072389259057212e-01 -1.397085671950579200e-01
-7.913747177124429155e-02 2.254408019919471318e-01 -7.755812899382420467e-01 -8.253751435117656632e-01 3.649964077138160290e-01 -4.307359920286929489e-01
4.522750906700909179e-02 -1.176318842639622886e-01 -9.354711669438806609e-01 5.136592768161621914e-01 2.409246516323798257e-02 -8.576559336138562806e-01
-7.850812744460530096e-03 -1.192828878286342487e-01 -8.920148220015052809e-01 9.928290304666450572e-01 -2.624395410308659818e-02 -1.166266313313412961e-01
1.587345698174017633e-02 -1.121965720417453932e-01 -9.288976537800603950e-01 -2.337070200760663630e-01 2.922814143826596434e-01 -9.273362947569976367e-01
2.507480359801009598e-03 -8.176570384497089394e-02 -9.085958785476935251e-01 4.104150646177022743e-01 3.930773635010322842e-01 -8.228302747456031074e-01
-3.949479127385429472e-02 5.787125998294672356e-04 -8.297021470381023001e-01 7.695911385558008577e-01 -1.135477298832234111e-01 6.283600818756333029e-01
-9.300866131657061636e-03 -1.351511146662873197e-01 -9.199267677596016934e-01 8.390531814572624869e-01 -4.086461081867930334e-01 3.591630784897497652e-01
2.368277318506604133e-03 -5.043575395558188429e-02 -8.972633889803454110e-01 3.003260219323102831e-01 -5.333034411388337670e-01 7.908171218554843618e-01
-5.290477536657559737e-02 4.200827288074841098e-02 -7.899559990077174021e-01 -9.815975411707323905e-01 -1.550932496313751352e-01 -1.114107314685276462e-01
2.704952750201609565e-02 -4.902977961635977822e-02 -9.075566508377952424e-01 5.050785068058215588e-01 -5.789549537357673303e-01 6.400834816706467700e-01
2.828056519203833025e-02 -5.027136590075822337e-02 -9.070129658195102973e-01 -4.895188806347013921e-01 5.620868842438758728e-01 -6.666555332877398543e-01
7.458950225614728591e-02 8.926330621828078293e-02 -8.218990591595607409e-01 -3.773081857443252168e-02 3.329755295943324644e-01 -9.421802810614735568e-01
7.120727102027112065e-02 9.680146532742309184e-02 -8.188578112401277975e-01 5.265792711789899494e-01 -5.173725829966129286e-01 6.745664396692271358e-01
