1.847401146266795455e-02 -1.616195658867156937e-01 -8.274666528593676018e-01 -5.353707555276452368e-01 -3.986582925960924784e-01 7.446138058551740047e-01
9.226511030401359989e-03 1.390298796876563714e-01 -7.061933703831645426e-01 8.335368101445751465e-01 -5.021739442183905666e-01 2.302991877583401847e-01
-2.569979612269175998e-02 1.207296066869830986e-01 -6.556441625350010183e-01 7.863719761489190718e-01 -2.543850231624313341e-01 5.629452683150407699e-01
2.029031347322187914e-02 1.625126742755496900e-01 -7.412282358693657036e-01 1.441616958208347676e-01 -8.891019982358910889e-01 4.344134461443459605e-01
-3.202309542085791244e-02 5.297558393229005735e-02 -7.945004086887758055e-01 9.436451292345973130e-01 2.917856311515042989e-01 1.561890377886315517e-01
-4.491838863134383492e-02 1.405272631036942610e-01 -6.005118855009936585e-01 -9.831831923537049933e-01 -1.622585182058311482e-01 -8.380324303286723620e-02
2.559262922945138800e-03 -3.115071710919549777e-02 -7.533259135553339592e-01 -5.816968248665047581e-01 -6.519529040720940527e-01 4.864012898956886488e-01
-1.671547191969858376e-02 6.568362190009070789e-02 -6.613881863647530501e-01 -8.248552694794721862e-01 -4.971875439427885235e-01 2.691065412807445156e-01
-7.477402316108593475e-03 -6.530156777274566393e-02 -8.499910202087965772e-01 -8.979495635233999407e-01 -5.246564488455268682e-02 -4.369598808529032152e-01
-4.673289177793312800e-03 9.724892631311930769e-02 -7.039509693482687291e-01 9.625638918025576363e-01 -8.171799406817141162e-03 2.709316812267790753e-01
4.590890835002589022e-03 -4.096753877895737729e-03 -7.234616380423982696e-01 3.801730796772145871e-01 6.936873992908193509e-01 -6.117730147316743361e-01
-1.978598582703603587e-02 1.775355119794419234e-01 -6.355998100859775457e-01 8.133034686898257259e-01 -3.686898673359649270e-01 4.501169287428392618e-01
3.912805557184878091e-04 3.759806622299477659e-03 -7.601723629830235973e-01 -8.631420188430165563e-01 5.031430463177399837e-01 -4.281273466745979389e-02
1.542552686178700304e-02 -1.357890263669194186e-01 -8.124646978451718349e-01 2.707143127344719402e-01 4.604474387247376455e-01 -8.454004477480074886e-01
1.687851440297769359e-02 1.560118805339947012e-01 -6.922531977514219115e-01 -5.535290244046553454e-01 6.687798937491397089e-01 -4.963255714332273083e-01
-1.866467869955838743e-02 1.711086207301051876e-01 -6.398967401990558468e-01 -8.558531487351098699e-01 3.081679521184193526e-01 -4.153888552757974972e-01
-1.768840307461045855e-02 1.733851056330000251e-01 -6.431548569469884846e-01 8.270403816966147570e-01 -3.186197889600744237e-01 4.631259408909799702e-01
6.646031893511351873e-03 7.031392271779789149e-02 -7.388879901260699823e-01 8.171071997788074137e-01 -2.439466445410055639e-01 5.223273482087842368e-01
2.655865086154466357e-04 2.602753205984198459e-02 -7.403247782689427181e-01 8.385313813651488202e-01 -4.090533446291851893e-01 -3.599173289986637991e-01
-6.584818868826825412e-05 -1.083909982468346661e-01 -8.411130318230798375e-01 -9.473450269936076751e-01 -2.989503091970852622e-01 -1.147436815752746336e-01
-1.419103057493084456e-02 4.791192317221032448e-02 -6.878652475510939057e-01 -7.604018155515884780e-01 -5.163772209890813425e-01 3.938827802144201362e-01
-6.495761892725005100e-03 -6.918761843630179265e-02 -8.043566146296792230e-01 9.753814152963108386e-01 2.113657594632178116e-01 -6.289364372576097817e-02
-6.882838323775891144e-03 2.156596183402694211e-01 -6.061560089026767351e-01 7.022826797975491031e-01 -4.400023405806492427e-01 5.596400431884080984e-01
4.177235540400912016e-03 -1.378939244479153448e-01 -8.572325258866916320e-01 9.944303616327524464e-01 -8.246967944057365107e-02 -6.562779773786520110e-02
1.047605308315701159e-02 -5.747865210905468009e-03 -7.198473437029659916e-01 -8.216523366095757064e-01 -5.697755386742925365e-01 1.559722002295402081e-02
3.356910663948362711e-02 -4.768664445873768004e-02 -7.288264050229116275e-01 7.968786129792636563e-01 4.793350318072929217e-01 -3.677259896424866503e-01
-7.374170170204072394e-03 -6.927537676071927886e-02 -8.125444718562248037e-01 9.974402036023743978e-01 -7.108070218025927534e-02 7.782931016981479468e-03
3.167957226645697760e-02 -7.005868448962135342e-02 -7.588827485488049973e-01 4.359926293251731866e-01 7.214603102276034852e-01 -5.379641697552099977e-01
-1.261596171407316537e-03 5.213606715494124855e-02 -7.139895025017476415e-01 -7.647562561243492762e-01 2.817639591257347642e-01 -5.794453727975222845e-01
-5.470968498608916840e-03 1.096490768657201048e-01 -6.893733664722601073e-01 -9.962262023301881042e-01 -8.644847384730990070e-02 7.746945220030974216e-03
-2.989379867242378946e-03 -9.410630337293146574e-02 -8.440366416617421930e-01 -9.521479394953624720e-01 -2.869585604866140005e-01 -1.052097233062901233e-01
2.761122651239946487e-03 -2.349549061929616933e-01 -8.665926846490629165e-01 -6.655758793829110731e-01 5.324838904235410508e-01 -5.229432619539855498e-01
4.208894885869371265e-03 -1.342260619219321771e-01 -8.383345430055348935e-01 9.934888906325550773e-01 8.887399698209100252e-02 7.128279490958815134e-02
-1.138814584208825385e-02 8.771556717070104481e-02 -6.144924540297362903e-01 2.867325524871449649e-01 6.958490161613057889e-01 -6.584668481036456411e-01
-3.355415335487910850e-02 1.506079544698907813e-01 -6.340388842507239664e-01 8.203944132867035943e-01 -1.693623345655262125e-01 5.461404638721437665e-01
-1.652887281175578413e-02 1.119313999173389140e-01 -6.662989519936757254e-01 -4.754115307528940515e-01 4.663449399177451715e-01 -7.459934808296280195e-01
-2.077670052646360746e-02 4.039494471882827675e-02 -7.903867203967787081e-01 -5.212171507469163245e-01 -5.141992005504030239e-01 6.811254391964761679e-01
-1.362908479012247404e-02 1.621426054606491252e-01 -6.540454303875057329e-01 8.310793169018102500e-01 -1.764002526709212426e-01 5.274373136929692008e-01
-1.403940818836983857e-02 -3.405915198272223277e-02 -8.294919836360105103e-01 -8.980318921292502754e-01 -3.559562877871350062e-01 2.585224205046070534e-01
-2.479801579501420342e-02 3.991376314749533333e-02 -7.955551356858001633e-01 -7.152913876311098873e-01 -3.999958150695691605e-01 5.730284274864485550e-01
-2.490684159698092898e-02 4.725604300900328875e-02 -7.894067211127204775e-01 -5.971350166345853472e-01 -5.777487736648031502e-01 5.564495722324077631e-01
8.369773857989613874e-03 2.169921937362345732e-01 -6.265748890414342132e-01 4.206117134549843817e-01 -8.445052400632087064e-01 3.315066907473273039e-01
-3.715459729580746634e-02 1.388167464698778220e-01 -6.263604584479414150e-01 -9.700247255988218020e-01 -3.564428454599788930e-03 -2.429800950216342292e-01
-1.271892101004163354e-02 -4.162415290438349624e-02 -8.409215854063857298e-01 -9.543359629363420416e-01 -1.291133754829369706e-01 -2.693930327936618352e-01
1.442743407689332964e-02 -4.248513562885527887e-03 -7.067348785895439800e-01 6.599215399875946186e-01 6.112034255452207798e-01 -4.369598764900378685e-01
-1.980429786877712511e-02 2.109917841238942715e-01 -6.000329266355189928e-01 -3.355805105469615301e-01 6.725799538260641697e-01 -6.595619202564455552e-01
-5.157160399842198673e-04 -1.629254326198530459e-02 -7.394739076964429447e-01 -6.566035637365389421e-01 -4.674266500622933918e-01 5.919325019797604392e-01
1.139465059207168084e-02 7.187550217447974399e-02 -7.505862691980191848e-01 7.985295428666049355e-01 -2.637274570595004031e-01 5.411084896415693235e-01
-5.382027957900186203e-04 -3.874945278733073900e-02 -7.660893998687442474e-01 7.638152226861401051e-01 6.416184224527934354e-01 -7.008641496118282743e-02
-2.548133265640790263e-02 9.166823611904027780e-02 -6.379804740365868643e-01 -8.997713664418484081e-01 -4.171301549606875603e-01 1.281168293154406890e-01
-2.487133815021252969e-02 5.009541039640257043e-02 -7.844041825519995070e-01 5.195239165415406202e-01 6.356772022399466149e-01 -5.709723239297438413e-01
7.933438090658009867e-03 -1.122669995143468907e-01 -8.191317654878882415e-01 -9.364407948567866624e-01 7.734394501401579015e-04 -3.508247988945573104e-01
5.804969591874843508e-03 -1.332206536530762264e-01 -8.626603405433231897e-01 8.864153827537136765e-01 5.493323952957728656e-02 4.596195257083552366e-01
-1.949571320309302289e-03 -9.496913964100164862e-02 -8.269981499433610717e-01 -9.602403258035316913e-01 -2.762675333711310799e-01 -4.018415988618479623e-02
-2.411531094268440454e-03 7.772596231798824251e-02 -6.227629070950898571e-01 -3.690653953099579665e-01 -6.768971412705160340e-01 6.368681136032069423e-01
-5.167771529971960237e-02 1.773937939696055566e-01 -5.704332698788142642e-01 6.542351602479308248e-01 -7.210355410867391734e-02 -7.528462210705860747e-01
-1.785692194984920753e-02 6.089916852686144688e-02 -6.861598563004618345e-01 -9.822216112237133201e-01 -1.273104137309078454e-01 -1.379592874755361520e-01
-1.120776595250824736e-02 -5.033809632369560388e-02 -8.425506288353336037e-01 -9.783552128990641306e-01 -1.362836196601421024e-01 -1.557172193611121580e-01
-4.262189472104240678e-02 1.382956237267201627e-01 -6.081396033283245073e-01 -9.747499085457927981e-01 -8.578153531570166523e-02 -2.061653316851542184e-01
-2.711157748181555402e-02 1.755017374620058135e-01 -6.298037151653511634e-01 5.773249199669413523e-01 -5.792244582795129659e-01 5.754954072066689186e-01
1.241913612411912199e-02 -1.133974877973368961e-01 -8.058093586915492379e-01 -2.938975453902609170e-01 -3.814019702551467161e-01 8.764455316213732861e-01
3.440520086165660407e-02 1.740114938033673064e-01 -7.228774928186839643e-01 -8.381827563756093225e-02 -7.413332935227232579e-01 6.658824555309270643e-01
3.225001823748636920e-02 -8.407524554097928204e-02 -7.815157708834878925e-01 3.057416327805476119e-01 6.790584072058540865e-01 -6.673842473326240254e-01
-4.575526364732998910e-03 2.038922659960532291e-01 -6.280959794562661624e-01 6.823295131111155598e-01 -6.608920266322134696e-01 3.124870632066448772e-01
1.326962343842760794e-02 1.446010009566342236e-01 -7.340785230827806540e-01 -8.122661930928467555e-01 5.173889468754977461e-01 2.693182303697945201e-01
-2.327146534946033379e-02 9.056473770713246996e-02 -6.315040164375013143e-01 -8.489041807878571211e-01 -4.436022751035127998e-01 2.873651220379481730e-01
3.943808787658917292e-03 2.799959358838859796e-02 -7.544940128041103256e-01 9.924203074457716989e-01 -9.369481713220273456e-02 7.951864317128989890e-02
-3.244169456642915367e-02 1.712817402883614060e-01 -6.266636943821951578e-01 7.280555223475299043e-01 -3.150143310952928655e-01 6.088523035875369471e-01
-6.215924995464513179e-03 2.802799142273836031e-02 -7.852128705809264808e-01 -5.922348614598984540e-01 -2.975726419461647843e-01 7.488046418370778445e-01
1.574708004960075763e-02 -7.461135565365711875e-02 -7.781650486899893693e-01 -4.984812577213538209e-01 -4.438966680852791113e-01 7.446288899601763989e-01
-2.663132809476899052e-03 6.367045437983649692e-02 -7.142807156050486883e-01 9.924275902872826682e-01 -1.192382697005261727e-01 -2.949089817896106622e-02
2.975124859783495699e-03 -9.614040658246240934e-02 -8.599957713145294225e-01 6.769898539674908955e-01 -7.731354603244153245e-02 7.319203189042949864e-01
-2.607971161592860174e-02 1.309018266678901032e-01 -6.515610082900799016e-01 7.838261418559510085e-01 -1.651763225105557786e-01 5.986095236672259734e-01
-2.825605331501569381e-03 -8.336162988160889312e-03 -7.723002432394936445e-01 9.769476503105742893e-01 -1.774907462247544421e-01 1.186183946832348318e-01
1.292771125764910056e-03 1.377388836977212587e-02 -7.499961192081553429e-01 -7.778622488560965609e-01 5.783642778829476416e-01 -2.458151416684347668e-01
-2.625758009304979615e-02 4.732676548153399304e-02 -8.027137801195187716e-01 -8.949942141157479769e-01 -4.451177738727806754e-01 2.924934327253638291e-02
-5.174400266708099883e-02 1.851261599951185277e-01 -5.822481285470203494e-01 9.467408931814589312e-01 -1.498797871863709052e-01 2.849872463303252390e-01
-4.753927352055969252e-03 1.810951007466377882e-01 -6.511046341279443928e-01 -6.117193726792745645e-01 5.127282043847960491e-01 -6.024194531364482907e-01
1.633307842929890979e-02 1.575965631801891642e-01 -7.481762933161890672e-01 3.899399685287186501e-01 -8.420977217521501412e-01 3.725832094494602176e-01
8.922464730288414553e-03 8.724564892514317938e-02 -7.376185627766475017e-01 9.802539143777704300e-01 1.231857135394189978e-01 1.546853041721897304e-01
5.319259734048556107e-03 -2.042535396062314101e-01 -8.611521169781843899e-01 9.706340700503060526e-02 -4.106868437826122209e-01 9.065952853199997774e-01
-2.385685838502264820e-03 -2.707523460307892024e-02 -7.656128322810650255e-01 -9.580309457488493941e-01 2.854265109218762086e-01 2.661604498284959180e-02
-5.472611852861544030e-03 -5.615789778719696562e-02 -7.969291809467897725e-01 -9.867767297293894568e-01 1.530981025739477086e-01 5.322270805613675548e-02
2.732606996155436882e-02 1.942134662425885616e-01 -6.738006631631225929e-01 2.881484807480150789e-01 -8.555233409813132184e-01 4.301746925131488819e-01
-1.139000920098030660e-02 1.838932657698181747e-02 -7.247635671274839098e-01 9.933087220542922147e-01 1.031236832384458957e-01 5.199315960975509077e-02
-6.002649321987811072e-03 -4.927805147656807994e-02 -7.886446511769288348e-01 9.214910211906568449e-01 1.840065384302058127e-01 -3.420466220852556027e-01
2.305549251034761521e-02 -5.879547261646428206e-03 -6.957056472112245205e-01 6.936259327751049808e-01 6.572529142843738237e-01 -2.947908954607706411e-01
-4.649666640335199902e-04 -1.053903070709142908e-01 -8.524465254526920610e-01 9.202796396876165019e-01 1.319618144181560482e-01 3.683360752246496173e-01
-3.272704340774731761e-03 6.474676646017810122e-02 -7.126508497071590842e-01 8.844739912627606060e-01 1.643215555922228066e-01 4.366969030660443063e-01
-2.739296178828862574e-02 4.212889144043766715e-02 -7.946533980654607587e-01 8.480767267899100847e-01 3.311778905586434951e-01 -4.136267282012116020e-01
4.186650145130028228e-02 -3.645825474528717469e-02 -7.191669674330350981e-01 -9.375843403444509283e-01 -9.195066548218566727e-02 3.353813946214724839e-01
-2.179544000301349062e-03 6.225615833130412197e-02 -7.221188155521053309e-01 9.865692825862476534e-01 1.104697086565819414e-01 1.203224589450634652e-01
-3.077632763974721616e-02 1.570942011319856335e-01 -6.355883577397416495e-01 7.982487187230782322e-01 -2.164808004812567299e-01 5.620809960138823946e-01
1.799876304875184033e-02 -7.452736426017918248e-02 -7.745239379922597145e-01 4.146851886917615193e-01 4.491095492096379704e-01 -7.914144344705836831e-01
6.626885139931292358e-04 -1.035840651251618422e-01 -8.273118699032921963e-01 -9.478403461059481394e-01 -3.101112104266574021e-01 7.368660299857628104e-02
2.332250577263133770e-02 -1.341736643329284884e-01 -8.114259180962126727e-01 2.211894963129347469e-02 -3.950085024823249413e-01 9.184111470544544797e-01
-3.801124538936308250e-02 1.252861652697719319e-01 -6.125661796674090054e-01 8.779601790980756659e-01 3.438182100960915921e-01 3.331290475542396656e-01
-8.699289739773538241e-03 -6.371912398606723038e-02 -8.346978137056160207e-01 -9.953559761506706183e-01 -8.282486231767577367e-02 4.905632398787838910e-02
-4.422065020317717671e-02 1.567506108163169987e-01 -6.107477221623022201e-01 9.374554825727428042e-01 -3.667580763493329121e-02 3.461677387172744091e-01
-3.851545098330241140e-03 -1.357179727507414752e-02 -7.841742191652107952e-01 9.976899278896357304e-01 1.588341267644216570e-02 6.604941323980929868e-02
-2.085082147630303723e-02 3.624409379894941857e-02 -7.915779138556048311e-01 7.231366298725195874e-01 6.039322189286430165e-01 -3.351705379005441854e-01
-2.748250574732545234e-02 1.100759066520339557e-01 -6.478783711826596736e-01 -9.544920194247008549e-01 -6.185814048428144030e-02 -2.917508445752704516e-01
1.518619385015754740e-02 2.217984903321920109e-01 -6.149097965670774490e-01 -3.616486107975417363e-01 6.046380923008930486e-01 -7.096640470299624415e-01
1.803180151291829472e-03 -1.177347835966715550e-01 -8.328192915038515887e-01 9.546423899228589915e-01 2.269298193647510953e-01 -1.927712749489756405e-01
-1.090420039988948889e-02 3.879404210632152183e-02 -7.177256212308966710e-01 7.514703030012920282e-01 -2.648232817449227006e-01 6.042855394207241604e-01
1.643876550676178633e-02 -1.183023714495658879e-02 -7.185975762204861450e-01 -6.994803627890482378e-01 -6.585532172878058033e-01 2.775515845250776659e-01
-1.457640899101164244e-03 -1.417017885876011192e-02 -7.604565488634975612e-01 -8.418048866150892318e-01 3.671197007205440621e-01 -3.957115846343331467e-01
-4.173256489138904568e-02 1.596912648110605792e-01 -6.124269445619292540e-01 -8.928466390289681032e-01 6.826722740019946709e-03 -4.503090883285685853e-01
3.768071537955441919e-02 1.966405197397525229e-01 -6.703794250186891901e-01 -4.613495661807689996e-01 -8.495893381150888546e-01 2.556453292082246920e-01
1.900015113670803710e-02 -1.439909468841676921e-01 -8.148456278190771007e-01 3.663029663382431633e-01 3.999066689922894380e-01 -8.401766438953744975e-01
-4.838503065617912220e-03 -4.919006028783343837e-02 -8.516231169786824262e-01 -3.772880434382305248e-01 2.370090438763267637e-01 -8.952544026137941868e-01
4.062573102020267980e-03 -1.731844514609077457e-01 -8.641431549507849752e-01 3.460098298128583272e-02 5.792361319600190794e-02 9.977212170797254975e-01
5.911958227033986372e-03 -1.378210896901302662e-01 -8.362624830265541487e-01 -9.775538434932604659e-01 5.733169339034486882e-03 -2.106077250266100709e-01
1.521414611733086671e-04 -5.363046730245511762e-02 -7.865771549661049189e-01 -9.553998774535820138e-01 1.529858546175122680e-01 -2.525992922567881216e-01
-4.464289800751851389e-02 1.551535411281006471e-01 -6.041074798229787435e-01 -9.342263089672943055e-01 1.447680128003788480e-01 -3.259807143117133821e-01
-3.748478373242652290e-02 1.331114381269026536e-01 -6.178996373532884556e-01 -8.637926550147204674e-01 -4.443115943376400034e-01 -2.375909431770594493e-01
1.626407172542199478e-02 7.938221076513769792e-02 -6.242272064390853581e-01 7.505582145212978951e-01 -2.945069502538608108e-01 5.915471434017507413e-01
6.581388443077438970e-03 -1.590713383957178262e-01 -8.659133475682285752e-01 6.425629369230472232e-01 -6.075099887807871961e-03 7.662088261395720856e-01
3.554380233502395930e-02 -1.284009518404507499e-01 -8.136754742088782022e-01 8.395024575783256449e-01 -2.364300498937161044e-01 4.892202522659979680e-01
-4.559404405062048721e-02 1.548939783296572059e-01 -6.022314452177706112e-01 -9.670203840411404350e-01 -1.238107630714771219e-03 -2.546959833574534149e-01
-8.914442880619913648e-03 -5.044447315076959482e-02 -8.520317327230572113e-01 7.960978622447899555e-01 -5.631664513656219062e-02 6.025418070224155542e-01
-3.516650766735756467e-02 1.235172122569548336e-01 -6.133715323374273609e-01 -9.299439919651730779e-01 -3.218072928949179956e-01 -1.778882740585300271e-01
-4.708274853303665713e-02 1.574127152139839780e-01 -5.976886957706979420e-01 -9.424590277288231732e-01 -1.130631570913564476e-01 -3.146231135199329954e-01
3.819452515414880484e-02 -4.704860999201798677e-02 -7.342151045204529103e-01 1.645453817155730913e-01 -9.078992577349650483e-01 3.855434543088183674e-01
-3.027130730176931170e-02 2.186568794231289747e-01 -5.880816869013776316e-01 7.427300492727326175e-02 8.838462811070274538e-01 -4.618433415264861508e-01
-3.135614735695364114e-02 1.532211943999609305e-01 -6.363142197717855941e-01 8.333245634968887705e-01 -1.293558716442150813e-01 5.374357918336712947e-01
-1.236440944593749855e-02 -3.751637100728676122e-02 -8.190141580158873946e-01 9.276536189781696695e-01 2.455306118102283108e-01 -2.813778275927226180e-01
3.078222409861419359e-03 7.447007401792510566e-04 -7.161859880846558335e-01 6.325017596908801831e-01 6.958229325167923918e-01 -3.402528039144884775e-01
-2.936140349898473320e-02 1.110425338680182256e-01 -6.057725163227872800e-01 7.505925566697433382e-01 6.525259951999906605e-01 -1.040223027059086758e-01
1.218152799378207848e-02 -1.362882974933387059e-01 -8.178659269689616540e-01 -7.889923976835148123e-01 -2.268802284049091511e-01 5.709784219710538622e-01
-1.345646738764713635e-02 6.102131176844274862e-02 -6.611397545703805445e-01 -8.055290179259347871e-01 -5.060797521887673289e-01 3.082308967378753484e-01
-3.616777808869176686e-02 1.692272301672951007e-01 -6.202679877576584566e-01 -7.170129661609712102e-01 2.778603397365440597e-01 -6.392855683953284629e-01
-1.508538594696522302e-02 7.357856283579447543e-02 -6.374604234631729982e-01 5.616723306541806515e-01 7.194359763006193953e-01 -4.085781063418292280e-01
2.110151793293513212e-02 3.690499916059340052e-02 -6.631425704557110112e-01 -2.007443205986892409e-01 -7.673240915518345640e-01 6.090282885642690491e-01
2.801522635559753824e-02 -9.454916060417900558e-03 -6.891338157288573463e-01 6.824372890993408713e-01 5.875570919976169648e-01 -4.348057153373752759e-01
-1.235680722241665197e-02 -4.598914588218860899e-02 -8.385262085019417055e-01 -9.935628736941447547e-01 -1.849738952059897662e-02 -1.117616329406297404e-01
-3.453518844330597665e-02 2.166977060764192220e-01 -5.952465238905382261e-01 -9.287929162178333586e-02 -8.614580626735933722e-01 4.992629001262711141e-01
-4.813706528968816727e-03 -4.898613770603706119e-02 -7.917801332753163779e-01 -9.904800165002706214e-01 -1.089406207287550721e-01 -8.415033017675889460e-02
2.497996748714649898e-02 1.665762297635478006e-01 -7.258666403483650109e-01 8.730210082934489746e-01 -4.453404974714875730e-01 -1.987615666826405558e-01
-2.236637006646219339e-02 7.154137308594313294e-02 -6.751616991115066968e-01 9.622675814713047560e-01 2.177230668278461734e-01 1.632108079155393243e-01
9.600757462264259551e-03 5.431796225670674355e-02 -7.457183022581793663e-01 -9.253352032213468803e-01 2.528928992997436787e-01 -2.824888372362319156e-01
1.141131618593267151e-02 -1.534671702400483007e-01 -8.238531335085664820e-01 6.535758525483273962e-01 3.281263061996489427e-01 -6.820349933438174528e-01
9.742303514666995554e-03 8.163808572872437164e-02 -6.180428518939365956e-01 3.179610455342623404e-02 -6.112718042019202880e-01 7.907817582133243040e-01
-4.566361206222209132e-03 1.581730279281816365e-01 -6.695766813446075716e-01 9.095638128298095815e-01 -1.730310237132646756e-01 3.778279174746606572e-01
-4.444776007062874700e-03 1.208996266959656424e-01 -6.921672217560155271e-01 -8.714388936868819879e-01 2.450606965514873503e-01 -4.248994111263076356e-01
-3.000309355507557943e-05 1.502256655016752374e-01 -6.779974989281148945e-01 -8.009064558046953275e-01 2.920110897357762747e-01 -5.227603394689445127e-01
-1.453783360176203257e-03 2.341442870191197054e-02 -6.970773672701100487e-01 -7.884987973574379971e-01 -5.492262286349803846e-01 2.768035338381178989e-01
2.595614570006631386e-02 -1.005472124763249347e-01 -7.939854886122819089e-01 1.695702823826309158e-01 3.826071502418257331e-01 -9.082167626269093130e-01
-1.377448521500226203e-02 -1.495357893023896260e-02 -8.433270509017130045e-01 5.497325291377366252e-01 -2.470185799987540121e-01 7.979824356107261263e-01
1.898648973744430923e-02 -1.679186087827823637e-01 -8.293388306351333616e-01 2.487194370030569035e-01 3.966888643914476265e-01 -8.836156327978278435e-01
-3.180040809555220033e-03 -2.725710259770929358e-02 -7.805476749825669414e-01 -9.890821238082337929e-01 4.343761364468646906e-03 -1.473013377407077773e-01
-8.896432362727328333e-03 1.602943265622333580e-01 -6.620334131588223592e-01 7.126300587175019574e-01 -4.996212535387579284e-02 6.997586622846574400e-01
-7.524185196207788806e-03 1.516467644939725190e-01 -6.623012999076695051e-01 -8.248285358705527148e-01 -1.056858177189195711e-02 -5.652841687974033968e-01
9.120511762859559793e-04 -7.709738718497395615e-02 -8.576784125352405752e-01 -5.078368521954801373e-01 3.179831020347461540e-02 -8.608661911240268472e-01
1.269947957433435227e-02 9.966104824050692201e-02 -7.786638654243859259e-01 8.939576449790319623e-01 3.780794042180718462e-02 4.465537914121930907e-01
-2.822391989323552730e-02 1.508032805278008703e-01 -6.418891268765102298e-01 7.221257120193190771e-01 -1.666462840522466293e-01 6.713892105568641799e-01
-1.237760664595212619e-02 1.263235652120639485e-01 -6.599846234138945222e-01 -7.293596873082520693e-01 1.529543418627669349e-01 -6.668128791759623253e-01
-4.890073352389015526e-03 1.534943342460709514e-01 -6.671073088558910902e-01 -8.625366341714288954e-01 4.081701595872164190e-02 -5.043456413219491452e-01
1.533080315050241310e-02 1.431362504061556018e-01 -7.233030826719573092e-01 -8.719665818599374729e-01 4.859112989211181177e-01 5.970334747975581530e-02
-5.199299039810890977e-02 1.831260109882350551e-01 -5.824970028593272620e-01 9.018910247897568011e-01 -3.125594760156779617e-01 2.981596105385286299e-01
2.083580038103238427e-02 -3.028942818670705278e-02 -7.380382489830967785e-01 -5.260905216061548817e-01 -6.546789806208730411e-01 5.427929581427698436e-01
-2.196981915431014953e-02 1.875764875048034283e-02 -8.179023384002178654e-01 -9.776629370580018907e-01 -9.182212033909151194e-02 -1.890605186694326867e-01
3.311978878472251900e-04 -8.960142432435461157e-02 -8.581130608066982468e-01 6.945636979687860313e-01 7.498403488961177810e-02 7.155128677917668156e-01
5.595159510256878140e-03 -1.713154673998281141e-01 -8.620172744779575069e-01 -9.132126932912867368e-01 1.501544572734795080e-01 -3.788089436280264177e-01
2.634298683769183830e-03 -3.363562813258844097e-02 -7.533534031193246383e-01 5.520015249762687537e-01 5.637130030923268587e-01 -6.144281622521090558e-01
-1.912674977411010085e-02 7.926353048267846535e-02 -6.780282409996786219e-01 -9.201815827899905154e-01 2.343592342899500636e-01 -3.135946491844780470e-01
-5.828195753263134583e-03 -5.913897251203999866e-02 -7.988247771853830281e-01 -9.555890865956584435e-01 2.182420926528914201e-02 2.938931803720873925e-01
2.435923589097988267e-03 -1.709217351880730207e-01 -8.586346982153469920e-01 9.594004576159761433e-01 -1.393885526149007126e-01 2.451970499948532001e-01
3.156781031911261998e-02 1.743853163702224207e-01 -7.171425716746919754e-01 6.977645380152037724e-01 -6.978063893562139741e-01 1.618360048384570871e-01
-4.383561198833760449e-03 4.982543170042558200e-02 -6.569902809914138775e-01 7.391742320379528497e-01 5.681314632137328680e-01 -3.617293120521553051e-01
-1.509712699991398732e-02 3.195885822280971483e-02 -7.921364373797131764e-01 -3.997547599265239282e-01 -5.899826019907780106e-01 7.015102716741060673e-01
-1.176189129905990706e-03 -1.781222554740274563e-02 -7.385723632822155382e-01 6.586589976005341462e-01 4.649988809350485419e-01 -5.915609567990538498e-01
8.618639885065147027e-03 -1.191282748927731672e-01 -8.226527799813334596e-01 -7.551198935567321469e-01 1.975648084058184428e-01 -6.251096646464858742e-01
-4.117296173079760917e-03 -1.287771556478367781e-02 -7.575598338015515631e-01 1.948506365447507660e-01 4.764883539037899074e-01 -8.573167897761956313e-01
-6.064098825875000737e-03 2.064300056497448410e-01 -6.220705297463983152e-01 5.989918220570960017e-01 -7.634315639332311942e-01 2.416216966648090658e-01
1.104925982252071351e-02 3.919780218495185625e-02 -6.593368561406881545e-01 2.294753972923763985e-01 7.277480562466260849e-01 -6.463155643079958601e-01
4.118464836195130131e-03 -1.007879214729437145e-01 -8.585359229781992507e-01 -7.260130820958545783e-01 -2.418204835907479186e-02 -6.872555806705663572e-01
-1.909408122847170569e-02 1.431984239624551070e-01 -6.501012443122081708e-01 -2.564935469194890016e-01 5.492166280535575318e-01 -7.953440487349737742e-01
-2.912664587598743672e-03 4.447676898854103361e-02 -6.634953689400642229e-01 8.313149176611527302e-01 5.344778869681251487e-01 -1.524758866710372585e-01
-8.037461165130753774e-03 1.531272092968976317e-01 -6.615640530604923741e-01 -8.143878349678859152e-01 2.104881645196192072e-02 -5.799391361016179580e-01
1.958917209003171664e-02 7.162286691830992147e-02 -6.247665855299708859e-01 -4.474689075446628417e-01 2.980428034940589277e-01 -8.431738041864133004e-01
5.859143492129577357e-03 -1.332028942603862010e-01 -8.523909740925390555e-01 -9.953769162694711126e-01 -8.982256151704311187e-02 -3.401032196841879268e-02
8.237639737910511933e-03 4.391777274382106799e-02 -7.579513560515939163e-01 -3.768505303837190179e-01 -1.589950767798727349e-01 9.125262973247796339e-01
3.653035763750370202e-02 -3.285725977635962219e-02 -7.117474698483577944e-01 1.859541913172638450e-01 -7.136489994071480991e-01 6.753711160367450450e-01
2.979901530898428075e-02 1.007692602086943980e-02 -6.762422700559227451e-01 7.537449583639206363e-01 -1.008648785593241476e-01 -6.493803307878861508e-01
-1.795621156743900521e-02 1.609422630148260036e-01 -6.454168599530993866e-01 -8.012999989827989111e-01 8.378843278081186952e-02 -5.923662804062211906e-01
2.889516242624518352e-02 1.691629356222393854e-01 -7.071477530381793386e-01 -9.452498692470340247e-01 1.855899454816564986e-01 -2.684381806386364477e-01
-5.660783057034188097e-03 -8.049831970597780273e-02 -8.371473306523578017e-01 -9.605927360921930891e-01 -2.752512082203217303e-01 -3.870875534252447847e-02
9.039691617211350477e-03 1.283762200631119177e-01 -7.674648779010122546e-01 9.006404250198771777e-01 -2.216465780071469049e-01 3.737908763971327097e-01
-4.431461212911090054e-03 -2.221763092398370935e-03 -7.558247872624970221e-01 9.135395780445884073e-01 -3.336760260400815081e-01 2.326064250879894268e-01
1.969924729697223112e-02 -1.467801141558482958e-01 -8.180423290790593827e-01 -2.924093068790150074e-01 -4.120143100176341666e-01 8.629837806072758744e-01
2.130882412721625194e-02 -1.232908160386549795e-02 -7.044238296263284349e-01 7.889577112325671937e-01 5.125906149165784242e-01 -3.388164567817106843e-01
-5.181066853767451325e-02 1.783966266510443321e-01 -5.857866763137444810e-01 9.087044803510738733e-01 -9.757830177495079721e-03 4.173259543092329160e-01
3.660459116598924895e-02 1.986030176614217435e-01 -6.555805010642344888e-01 -8.381417746040631389e-01 4.079405689722725992e-01 -3.620812862467909232e-01
-1.900966166349159561e-02 6.803477135540821064e-02 -6.565781167022881615e-01 8.462610914471195844e-01 4.134359837657918257e-01 -3.360250770855383595e-01
-2.380658327403968599e-02 1.435060772748502078e-01 -6.492944609728592553e-01 6.227453382033093510e-01 -2.862131634014383752e-01 7.281965866727112546e-01
6.460226598040211439e-03 -1.471181174742266784e-01 -8.581098011694413552e-01 -9.741182884716415025e-01 4.913159202484692484e-02 -2.206346453533166163e-01
-3.686370211449173373e-02 1.351501690965349611e-01 -6.325457459946725036e-01 9.485171379718744245e-01 8.377679599619511364e-02 3.054450644981125951e-01
4.254958309074088028e-03 -1.710606143127793577e-02 -7.357158592208058456e-01 -4.636837757634920676e-01 -5.970965182352803158e-01 6.545785697721986374e-01
4.278160419733757769e-03 -1.196147709752137661e-01 -8.186679897619533186e-01 9.586137935780724151e-01 2.064061717403708751e-01 -1.961022361660907654e-01
-1.005333792880735988e-02 4.348741624170585768e-02 -7.160315074542557001e-01 6.142221186385039555e-01 -4.090581816532177784e-01 6.748352339629212215e-01
9.534548076514737583e-03 -8.656483011551026341e-02 -7.904145548557630629e-01 -9.841982203271437690e-02 -7.532713717857972835e-01 6.503043741810384804e-01
-2.585014957833851792e-03 -2.843325684045280508e-02 -7.642935921888586170e-01 -9.909052541083835930e-01 -1.307040172623316066e-01 3.198807984058898990e-02
-6.215713957768924380e-03 -6.129100850895367186e-02 -7.950397153482222645e-01 9.340564560167342600e-01 9.722982054963624776e-02 -3.436348337542979303e-01
-3.513771923832753954e-03 1.131289706373656834e-01 -7.021364500248894469e-01 -9.766279668671274949e-01 1.134019553587323342e-01 -1.825864476180993623e-01
-1.536656382717299478e-02 4.140222798924839825e-02 -7.066690126152990192e-01 9.851443860461807089e-01 -7.163677424196115973e-02 1.560727753898800418e-01
-3.000541389303881465e-02 1.283066411409318486e-01 -6.461115339962173465e-01 8.275085544677653893e-01 -2.485903873636626515e-01 5.034207103338653733e-01
5.877307564296521854e-03 2.136429627481669091e-01 -6.284193551654068122e-01 6.688095486140223089e-01 -5.957546402451223688e-01 4.447136115626688091e-01
-2.176751776521614404e-02 2.147183394746207674e-01 -5.970519975305016436e-01 4.087674882388501185e-01 -5.869084540982407727e-01 6.988902682588408188e-01
2.627329615581493194e-02 4.465237442659814558e-03 -6.808703382664360593e-01 9.566493460753716649e-01 1.287119306173358790e-01 -2.612570909474455916e-01
-3.643708666820938153e-03 -3.577626230061506287e-03 -7.611546155058283025e-01 9.026476930868824189e-01 -3.903389542553424851e-01 1.812805641975308302e-01
-1.418405357330536874e-03 1.523214143883419858e-01 -6.738245273875415053e-01 -8.355526428565595021e-01 2.578599434012452951e-01 -4.851391868366494720e-01
-3.678934766270908208e-02 1.824967175066908032e-01 -6.109334500906972165e-01 -6.953843024489988478e-01 4.551856519857517824e-01 -5.560995361747980148e-01
1.511701757901298421e-03 -1.040949454763582527e-01 -8.106954099477753362e-01 9.913361035168787305e-01 1.066250333543086598e-01 7.670614138493096756e-02
-1.629473812516789993e-02 -1.823631594390408240e-03 -8.347740746688023794e-01 -8.713752664528953140e-01 8.202217184195591260e-02 -4.837122164474185193e-01
-2.063943476670317828e-02 8.587401413043700693e-02 -6.780676350581070766e-01 8.341424777677609592e-01 -1.594959804344082965e-01 5.279842412503683580e-01
2.122129234672013155e-04 -9.510964703731616954e-02 -8.071021601513196364e-01 9.956864511568852549e-01 7.652785406218343134e-02 5.245930360998833641e-02
-4.908786266050428891e-05 -4.417520089577736675e-02 -7.738569465006920334e-01 9.393074874335159974e-01 2.973587547254903929e-01 -1.711117033970528667e-01
-2.686758910527573679e-02 1.507517895036473154e-01 -6.435563968810665836e-01 6.109177066440313331e-01 -2.322478047886009367e-01 7.568622813165370999e-01
-1.087884298291320884e-02 -6.174399241235228181e-02 -8.408112980802889824e-01 9.933645118966645260e-01 1.086528843948478679e-01 -3.770274813566169142e-02
4.484147661626219049e-03 3.044722289908958698e-02 -7.553658625190434739e-01 9.734442581978290931e-01 -2.115140495939542287e-01 8.756759107138124831e-02
-3.446906708679099793e-04 4.831069247729555954e-03 -7.636804514241035680e-01 9.143170262720237140e-01 -3.488597755924869315e-01 2.057212493707042122e-01
-2.585158373877872659e-02 1.058578611221175220e-01 -6.602064032389127757e-01 8.738781490453635392e-01 -2.498046969163097430e-01 4.170546655051349250e-01
-1.652454335265673329e-03 4.372493208763659350e-02 -6.624187095233601275e-01 6.834623285416351335e-01 5.545912674524124952e-01 -4.746659578376908328e-01
3.790055213565174386e-02 -6.109490429888079360e-02 -7.448582251290154499e-01 1.181135892926878789e-01 -7.270215560076425110e-01 6.763792110381751099e-01
-6.280490384210556283e-03 -1.175034773292631986e-02 -7.452818382197861080e-01 9.968150946321858719e-01 2.409633438808071737e-02 -7.601995647515336074e-02
-1.885186750714478582e-02 6.408231665931707344e-02 -6.827556229797844267e-01 -9.784910722337160083e-01 -1.847075843496415459e-01 -9.186038233445940893e-02
-1.385377554858152442e-02 6.761341735672905806e-02 -6.442624731516120029e-01 6.880667153881778741e-01 6.505608059998827519e-01 -3.214573577812568916e-01
6.205142830863262168e-03 1.953807085557904832e-01 -6.527124445855563284e-01 6.047270629713663581e-01 -6.654039790296056855e-01 4.376559424954641897e-01
-6.193181236419932970e-03 -4.283185399978995354e-03 -7.523162318410269167e-01 9.486982077848693518e-01 -1.880587009172300650e-01 2.541763866984912412e-01
1.420037660543989853e-02 2.245682672913525690e-01 -6.146121008701559418e-01 -1.939520051194280892e-01 -8.894981900472572756e-01 4.137337182449680739e-01
6.712777458188246525e-03 2.175871218869167012e-01 -6.207351673716072771e-01 -4.705476227250600663e-01 7.272486392140944389e-01 -4.996942580308906812e-01
3.452404019554782683e-02 -1.323531453765279808e-01 -8.134877988676311178e-01 8.352533186397312903e-01 -1.074114241801712444e-01 5.392723612952019518e-01
2.084380114305968076e-02 -3.225670307555815464e-02 -7.378353081280708547e-01 4.803309378654949113e-01 6.984222136321270868e-01 -5.305549939774888424e-01
-2.071643674217015733e-03 -4.535121978516946754e-03 -7.523516000653756031e-01 -7.286562025327897318e-01 4.805137186214967215e-01 -4.880232624855447843e-01
-1.064304661786099997e-02 -3.661153733318918413e-02 -8.144567809479816844e-01 9.319046814262079703e-01 1.393616401875667488e-01 -3.348611622451145298e-01
-3.567534718272796779e-02 2.148387707657210266e-01 -5.950393058702875271e-01 6.191755566052945525e-01 7.184912867042124729e-01 3.168468100401971577e-01
2.143942622346643387e-02 -1.092603971318771572e-02 -7.071185211862811570e-01 -7.914331298221475297e-01 -4.511443424169762628e-01 4.124347018924011676e-01
-6.345641323706322119e-03 1.359597187981733124e-01 -6.779810423926261320e-01 8.869272351421838563e-01 -2.830260299507124100e-01 3.650429371092936415e-01
-3.801795185381596533e-03 2.664798150273610736e-02 -7.833348129507684554e-01 -8.039777971365060782e-01 -2.285112226277697667e-01 5.490012047752653723e-01
-9.250029023544775394e-03 7.254193845161295562e-02 -6.314833874980182449e-01 5.191438301534224697e-01 6.814092446806820913e-01 -5.159177501088103579e-01
1.252654677946446818e-02 2.139767885069893960e-01 -6.345570465008439909e-01 5.691883576122428456e-01 -7.280651405458961056e-01 3.820284867396172013e-01
-2.846849775006637245e-02 1.054072397791229326e-01 -6.437113645865558675e-01 -9.620304686387118887e-01 -8.779482076727301854e-02 -2.584365431923718037e-01
-1.254061091677659712e-03 -2.002173276970576343e-01 -8.590658363329354286e-01 -4.446910054254506472e-01 -2.501693206131143099e-01 8.600379181859800770e-01
3.365606627281719082e-02 3.655003014011397322e-02 -6.608997683517203736e-01 2.828383144119028803e-01 -6.235850016992874334e-01 7.287964280622767355e-01
2.196423357599170539e-02 1.617338887471697628e-01 -7.382178710514225584e-01 -1.514189495001222741e-01 8.648966373846874722e-01 -4.785667230104279635e-01
-4.183822181945378443e-02 1.322744925312246134e-01 -6.026911373023421392e-01 -8.865993418083268907e-01 -4.424957965870983667e-01 -1.346813910968794048e-01
1.218421078714786686e-02 9.052097185102209176e-02 -7.609507840627375286e-01 9.937512160861720067e-01 1.077263761369311526e-02 -1.110966732449659433e-01
2.089981255112683886e-03 -1.969136290534050926e-01 -8.485516765245660897e-01 8.253037862436303218e-01 -7.441918171091169154e-02 -5.597637410599284324e-01
1.289130630291986275e-02 2.474948273186677525e-03 -7.026887348201661387e-01 -8.458485518760789912e-01 -4.602830271964389319e-01 2.695918436526270057e-01
1.618952758811518719e-02 -2.776631137366558991e-03 -7.008168646746926189e-01 5.855853396139244493e-01 6.063151122449700337e-01 -5.380258308786057819e-01
6.563435083002440266e-03 1.989703136560821983e-01 -6.488563436089770375e-01 5.017030985620817285e-01 -8.042778072333666151e-01 3.184826677938590866e-01
1.902747395454807908e-02 1.578974113173702565e-01 -7.443957159557080816e-01 5.012025328067335611e-02 8.807155230975691751e-01 -4.709863348188098042e-01
-3.690934785023643888e-02 1.345602564659573730e-01 -6.250235518603693974e-01 -9.718178297002160182e-01 -2.130373749282862827e-01 -1.009216664568451105e-01
-5.131722474592187444e-02 1.746451226925738731e-01 -5.814140518589892004e-01 -9.674928775640432299e-01 3.705992643307214757e-02 -2.501681308952496408e-01
2.602785747631702895e-02 -1.277207659793242189e-01 -8.087159027643625597e-01 -1.240570388751860986e-01 -4.226695274318073015e-01 8.977529290880054136e-01
-2.292316867943972199e-04 2.980965724370110773e-02 -7.358091513536860750e-01 8.573077253679777243e-01 -1.720646978407938399e-01 4.851981077676833509e-01
2.402693995015438982e-02 2.025948723370101512e-01 -6.589698399521645156e-01 1.313998518302794960e-01 -8.462197542534338757e-01 5.163779685949416720e-01
-2.803162251932019011e-02 1.580006369074272443e-01 -6.392984834240865721e-01 9.107900469747051142e-01 -2.238334933139108363e-01 3.469294706459885580e-01
2.606076121506760088e-02 -1.838474610287724881e-02 -7.051392028765961495e-01 7.093948981570186163e-01 6.030472053626670936e-01 -3.648190600463056543e-01
-3.498165088565662745e-02 1.254490733001396574e-01 -6.171498904803531804e-01 -9.405016220866345700e-01 -2.678623110328400836e-01 -2.090609508745129297e-01
-4.525822196916210599e-02 1.878373775277769886e-01 -5.939118624766429599e-01 8.363306562364586361e-01 -5.289274097563873012e-01 1.441763803384354670e-01
2.226579779798768324e-02 1.608839247839155828e-01 -7.036809689827485670e-01 7.861535838606842352e-01 -5.950952092633190471e-01 1.668059785944397133e-01
-1.811711419716348706e-02 3.503251836060981145e-02 -7.895290697139136782e-01 6.359183825125337419e-01 4.645440840335137156e-01 -6.162845160898547947e-01
-4.219841878962603959e-02 1.709808604230849960e-01 -6.128925602739597744e-01 8.211239023931713454e-01 -3.045475043164211915e-01 4.827073176711216274e-01
-3.674104468972918744e-03 1.075231941368578470e-01 -7.026729220106775475e-01 -9.994336778149214284e-01 -2.521744112369563376e-02 2.228013268615871775e-02
-1.997350365896097962e-02 6.580805469684761211e-02 -6.880256505394319877e-01 9.378261193134509455e-01 -7.053743066262931072e-02 3.398626793412125036e-01
-2.445356479654331103e-02 8.548849089400541168e-02 -6.489002724813763834e-01 -9.449148689277824253e-01 -2.920934881042184794e-01 1.477067523382146474e-01
5.305339119809893839e-03 2.733994823462116211e-02 -7.612112793010776812e-01 -9.923571695183044383e-01 5.459138282782859120e-02 1.106662958021319976e-01
-3.685200438514116099e-03 -1.457343362467644100e-02 -7.786740529449920345e-01 9.998874107724646798e-01 -1.182725104057680103e-02 9.234820602485085614e-03
1.306309587157700788e-03 1.754785754587023239e-01 -6.671516997201559773e-01 7.309975736833389526e-01 -4.235263911560942507e-01 5.350401323857549851e-01
-4.889580495124733021e-03 8.901702890460704010e-02 -7.050137813498522643e-01 9.869517287308448017e-01 -1.610160758757603061e-01 -3.293398981458630736e-04
-1.899889745853802075e-02 1.615100715977871304e-02 -8.071795355009726558e-01 -7.753198744362375106e-01 -3.684065738674771051e-01 5.129870257963683455e-01
3.050463585591570159e-02 1.447429487469989971e-02 -6.750837121092004844e-01 7.214053083673787059e-01 2.325957774965102254e-01 -6.522833627727760986e-01
3.115385800169151800e-02 1.743070042308846601e-01 -7.137708787274820166e-01 8.110591612895298175e-01 -5.341719846488828249e-01 2.384183879330575295e-01
-2.075944476102411541e-03 -1.332396282837734584e-02 -7.714689075058351886e-01 -9.773692955576960273e-01 1.893101764033168488e-01 -9.439765469119572316e-02
1.935319273342241218e-03 2.738135594012828383e-02 -6.839248833506988978e-01 -8.099934275898409419e-01 -4.490565527684447500e-01 3.771721883662447761e-01
1.293950823613164956e-02 -1.386004368708580181e-01 -8.180980782767051096e-01 -6.554121208768667328e-01 -2.627902744091833442e-01 7.080792494372600832e-01
1.348246415747125521e-03 -9.093490975001278231e-02 -7.966372287216043624e-01 7.435568495179132320e-01 3.668729665135341822e-01 -5.590415351085771256e-01
-5.909989726315544208e-03 9.845130275566250921e-02 -6.992932004738308116e-01 9.047783800721038716e-01 4.258460110007246668e-01 -5.590873712612454832e-03
1.093067173041575857e-02 1.493397864633548566e-01 -6.941148531030018054e-01 6.563783334716811746e-01 -4.545557707022763183e-01 6.021183726396314162e-01
-2.573862880363196950e-03 -1.936774409254959084e-01 -8.565431245048814590e-01 7.561348291110601139e-01 -6.791288478202327228e-02 -6.508824473634018393e-01
-1.161423345266064666e-02 5.941494166512462788e-02 -6.601647313588050459e-01 -6.353967556913951986e-01 -7.418604938656012671e-01 2.142754547267033405e-01
-2.207442521546444485e-03 1.556531960561590225e-02 -7.425743031082028267e-01 6.549071655672444869e-01 -5.956103951648294981e-01 4.651288656493742790e-01
-4.088787466989678154e-02 1.509595287030431887e-01 -6.162286036454769356e-01 -9.575980591427597499e-01 -1.163678479543019811e-02 -2.878724411360773505e-01
-8.224935598335328391e-03 1.988822817609295912e-01 -6.289597562104408679e-01 6.380010271656508802e-01 -5.507761228915115659e-01 5.381452887354577497e-01
6.680538274839993400e-03 1.827184628482888817e-01 -6.672788271269632920e-01 7.589177789202263824e-01 -4.515395612032518380e-01 4.692076613900985627e-01
4.308372472836376199e-02 -7.158217999339036575e-02 -7.610656954203205427e-01 -9.638501444072569146e-01 -1.009425961148394980e-02 -2.662536479543632373e-01
-4.920699189263249770e-03 4.397581957359109756e-02 -7.207624104643555185e-01 8.428673258657138900e-01 -2.246413884096664371e-01 4.889896906902619356e-01
-1.144786254344458409e-02 5.199353972068571084e-02 -6.700846815538632484e-01 5.278364620666010643e-01 7.985886401410553503e-01 -2.892141994278178974e-01
-3.413654669004968084e-02 1.140829490843780769e-01 -6.316357862833117398e-01 9.807707384866414246e-01 1.838569454560753658e-01 -6.546283018576257162e-02
3.453937605837562735e-02 1.881671132745975639e-01 -6.900656003234671987e-01 3.861970686943883013e-01 -8.580218749439084691e-01 3.386004817622114138e-01
-5.806190745333868327e-04 5.669732085478901111e-03 -7.618473825280503986e-01 8.892545534263393003e-01 -4.481996611992509760e-01 9.134222961696733534e-02
-1.081528115518961587e-02 -4.937805900154529359e-02 -8.314629244015131482e-01 -9.438428456229479568e-01 -1.948293793164376786e-01 2.668373956580062378e-01
-4.224834039540602965e-02 1.457651148707530819e-01 -6.163576336457180505e-01 9.960942481756374089e-01 -4.357831891352360876e-02 7.679309130438079223e-02
-1.808299883744253836e-02 1.902538618832155110e-02 -8.041058477526775716e-01 -6.484657330475852577e-01 -4.888187193367862782e-01 5.835652942807701971e-01
-2.211645902288549709e-02 3.427854570266390677e-02 -8.116339379407729870e-01 -5.719181535000498195e-01 4.151214148983553009e-01 -7.075194955546320053e-01
1.330714500209577260e-02 8.613256086638315656e-02 -7.465345283629535311e-01 -9.528203188276992419e-01 -1.894590654039796374e-01 -2.371470062331218764e-01
2.757455569915563329e-02 -3.064289588985107463e-02 -7.286997679656485039e-01 -7.927066976194691028e-01 -5.542991670553230055e-01 2.537095286957329887e-01
-1.494407563468963356e-02 3.460435674726424025e-03 -8.081234967474101305e-01 -7.376423471812086907e-01 -2.315388139802623535e-01 6.342503805797917726e-01
3.163815934667830315e-02 -1.155268916446962474e-01 -8.015870772157732693e-01 1.988369142844590431e-01 -5.295357858788165561e-01 8.246549175209825222e-01
2.047026506017274317e-02 -8.413908914295507857e-02 -7.843709911662914980e-01 -1.807406530055532048e-02 6.434341224994324371e-01 -7.652880883477127805e-01
-1.592888445009182571e-02 1.689848481584715900e-01 -6.456085269578758501e-01 -8.538565832556913593e-01 3.700754863491981794e-01 -3.660233184297431164e-01
3.721956710582954159e-02 1.790217274175503470e-01 -7.135389842701297392e-01 1.486842148073946046e-01 -9.325763453361789468e-01 3.289291175717410365e-01
-2.786149631048664282e-02 2.025650311068362963e-01 -5.953296599217542395e-01 -8.248221044059430573e-01 5.476274341621022446e-01 -1.406153954458194133e-01
-3.158957968430430724e-02 1.732523197317570041e-01 -6.267615454479927850e-01 8.333267295083658377e-01 -3.095532245242627045e-01 4.579774700501349494e-01
-2.039871615106593483e-02 9.006660424187000469e-02 -6.727057630982633540e-01 -9.757636787336944062e-01 3.798094671795022859e-02 -2.155056633838090541e-01
1.099197215167287307e-02 -6.875419755384920648e-04 -7.092495131835475641e-01 -5.549084133932323804e-01 -6.101104706624554952e-01 5.655456359423547408e-01
-2.465687414368918778e-03 -2.685073561371894776e-02 -7.908318645391725354e-01 -9.878443723953423961e-01 3.776078744594255771e-02 1.507899826192527493e-01
-4.053522515555426850e-03 3.077708195196962593e-02 -6.909370018758029808e-01 8.587153470507881137e-01 3.675812235000289752e-01 -3.570602146272619515e-01
-8.731108213028173888e-04 -2.326511720460777422e-01 -8.629022741662936147e-01 8.174510958961924700e-01 5.416726484192406765e-01 -1.958684450660682641e-01
-4.917330886731716144e-02 1.473171394750152907e-01 -5.910127908789370998e-01 9.711641570298253923e-01 2.001504642960962033e-01 1.295375302474369994e-01
