-3.390858507351994511e-02 -6.528268328940772802e-02 -7.356098589142497923e-01 -8.056075314012206556e-01 -3.854112708722780001e-01 4.499496167730859253e-01
-1.410126353289089043e-02 -1.257770954700092036e-01 -7.623434937045321380e-01 9.542480924106109264e-01 2.739234705024443661e-01 -1.199020868817831931e-01
-2.747504806691194665e-02 -1.161352127537717757e-02 -6.982011616970486001e-01 3.354965142195518446e-01 2.127801760437185163e-01 -9.176964016652425782e-01
-5.652801094027287742e-04 1.092028187625591618e-01 -5.325597133298560770e-01 -6.875267210138890084e-01 -6.054433203176383671e-01 4.009306595592851963e-01
6.076365794698225867e-03 2.967912710125444192e-02 -6.129307343933053653e-01 -1.620959709277594307e-01 -4.398721644708207812e-01 8.833104636155636458e-01
1.775048468023243675e-02 -1.523851050339893043e-01 -7.382882824071338446e-01 4.206965305507260472e-02 -5.691233729604464608e-01 8.211752131195573234e-01
-2.934401675510010452e-02 -1.175046063575567630e-02 -6.990814872609106834e-01 3.142140784732094794e-01 -2.121205513976622686e-03 -9.493497845243339395e-01
-9.060638264812371015e-03 1.998435582484117123e-01 -5.118871416304817679e-01 -9.204239755572118931e-02 6.420670465113357261e-01 -7.611032156261100523e-01
5.233184202947516184e-02 7.769042620413017797e-02 -5.533431702523472495e-01 -5.527861571804966179e-01 5.404442606966551876e-01 -6.343086516118672247e-01
-1.160272606807546611e-02 -3.349747946785928271e-02 -6.881834521931682325e-01 9.345544819306885742e-01 7.914031529938303500e-02 -3.469073807193736592e-01
-2.204183077940951446e-02 1.195941035645074757e-01 -6.582872383046038944e-01 -9.176850874351291099e-01 -1.441146845223531536e-01 3.702499669199198484e-01
1.730268885706684467e-02 5.275644212692975205e-02 -5.838503604258553636e-01 -8.219893886222835733e-02 -6.714128569556621073e-01 7.365107670391245476e-01
-1.720698175443361984e-03 -3.804358137863108474e-02 -6.787762050368472133e-01 -7.116280203859479681e-01 6.992780745489186600e-01 -6.779185096111302322e-02
1.954034628587903583e-02 -2.675365800993082313e-02 -6.592887817321271271e-01 -2.258092508558081357e-01 -5.711229884566741966e-01 7.891949786233161124e-01
-2.731524164679630454e-02 -1.437743882314906473e-03 -6.962322250508873323e-01 -3.869614213223050436e-01 -3.721760617232686696e-01 8.436503052144173065e-01
-7.834030578054794859e-04 1.047118691090998810e-01 -5.889542325839879355e-01 -9.709852757924242184e-01 -1.182046719960403308e-01 2.078827787783738001e-01
-1.515505176659257642e-03 8.303070044702670627e-02 -6.061088593463522800e-01 9.732647656630298849e-01 1.448777912762219400e-01 -1.782305291295817884e-01
-2.845499958888786027e-02 1.327278800324862562e-01 -6.614900055810672974e-01 -6.326047797674115847e-01 -4.625679006666281179e-01 6.211619192193714722e-01
-4.886141286174120954e-03 1.397552147560234548e-01 -6.132320310352532555e-01 -9.007408750122329888e-01 3.308129410889389943e-01 2.814758854507485863e-01
-2.903371983102364870e-02 -3.493241385650163074e-03 -6.958020828270079505e-01 4.169859321377619166e-01 3.003036930728869014e-01 -8.578697012518784470e-01
-5.270701345575146135e-02 1.141792217329135918e-02 -7.124074875011819907e-01 -1.663925985257199217e-02 -6.165560779952344861e-01 7.871351457778346106e-01
-5.110855408876531503e-02 3.702956419562777185e-02 -6.769275047060040462e-01 2.547735640770698029e-01 5.492645720270448173e-01 -7.958635944453136268e-01
4.585725584630608032e-02 -2.269740120814462726e-03 -6.284034518133269076e-01 -3.679696096437492514e-01 -7.287412536720913048e-01 5.775245030083620001e-01
4.535496178963315667e-02 5.668760860959145415e-02 -5.726805197414182036e-01 -4.011390679913144908e-01 7.736325932132968042e-01 -4.904896113569882088e-01
-5.191477508423760628e-02 -1.961451655266291741e-02 -7.262663226255503535e-01 9.954695405924028906e-01 6.508792217158908266e-02 -6.931057740442964077e-02
-2.479662515608264950e-02 1.219241087692999881e-01 -6.592949470421171076e-01 8.261016492872570449e-01 3.161495486633124630e-01 -4.664820767455675754e-01
-4.620345754961310142e-03 5.525150262355751907e-02 -5.996652999415078567e-01 9.664009931113360929e-01 1.520624484273229715e-01 -2.072344862509874208e-01
-2.038695060464136176e-04 -1.657022118076814932e-01 -7.579346774730489900e-01 -8.937892985283636405e-01 -2.133224205156098729e-01 3.945050503371747563e-01
2.333175935798311937e-02 -1.069639845655771249e-01 -7.171818883918644749e-01 -3.332058713033347885e-01 4.375957232698172716e-01 -8.351549738251884403e-01
-1.202170994630578915e-02 -8.205807369136404461e-03 -6.837313823025747972e-01 -7.686803600093480293e-01 -1.516506341225307836e-02 6.394533016472754294e-01
-3.641890284864253337e-03 1.532496893474300514e-01 -5.956790496401487278e-01 -9.423965794226448756e-01 6.564335395153594876e-02 -3.279933492839327558e-01
-2.998210084793564989e-02 1.207198617337702923e-01 -6.666776959798091928e-01 6.534482484853653128e-01 1.568603577565101381e-01 -7.405404882353885387e-01
-8.468249141516128418e-04 1.257761477939961792e-01 -5.034543895170707772e-01 6.928743060751044736e-01 5.698906987324147133e-01 -4.417576116822689025e-01
-5.782575817992932632e-02 2.452601410427676654e-02 -6.937250692470712243e-01 8.761064237665042720e-01 3.647163465069594435e-01 -3.153086120385578672e-01
-3.616814912280110622e-02 -3.405849289915641870e-02 -7.145387461965361231e-01 -7.053926313816478721e-01 -4.017832685850842855e-01 5.839447239915441790e-01
-1.847363140538218302e-03 -1.726074039119729897e-01 -7.596423423893304827e-01 9.665300584568378151e-01 1.124661964755505200e-01 -2.305883794768171513e-01
-8.261500957852722232e-03 1.268166783155809385e-01 -6.103575588499406956e-01 -8.338996017632753777e-01 4.888777044642187430e-01 2.561445768640176479e-01
-9.013036547119428199e-03 1.413512861559095279e-01 -4.973249531658094358e-01 8.773944473066148664e-01 4.611815639534512234e-01 -1.322518389473976153e-01
2.676945932010768928e-02 5.251736294646217745e-02 -5.767811124927445521e-01 -3.950690672671475223e-01 -7.331672020790247490e-01 5.535217122067392914e-01
-2.630308613859807035e-02 -8.841568482782488636e-02 -7.405779263373641896e-01 8.273064009268872310e-01 3.546728528105853040e-01 -4.356274629366256312e-01
4.147425751869094485e-02 6.266038075165155600e-04 -6.285559937654273677e-01 -4.754123619825593172e-01 -5.067961192812880933e-01 7.191250096857920715e-01
-9.614902632335836294e-03 8.283014409915651077e-02 -6.620108018005647077e-01 -9.398634996393264718e-01 -2.440024804259388058e-01 2.389966351054069738e-01
-4.382963046062039736e-02 -4.834726749974690985e-02 -7.358233717402322682e-01 8.021651756377231601e-01 5.720673818319828019e-01 -1.710846037432972311e-01
-7.668805749219830166e-04 2.875004625565392991e-02 -6.349529976194803194e-01 9.791430516241417248e-01 4.602047214911298562e-03 -2.031199291492465364e-01
-8.851804679213422927e-03 1.221787018093787036e-01 -5.608987437925576636e-01 9.637894509599894688e-01 -3.642185425076471111e-02 2.641653700831693707e-01
3.147606795655118195e-02 -3.797772374008457491e-02 -6.722295317210787990e-01 8.976783187119080631e-01 -6.067460237624541786e-02 4.364541542259007256e-01
-4.540722559064501798e-03 1.611522405879835251e-01 -5.933907476317528129e-01 8.839939273527960273e-01 -2.898387425551594010e-01 3.668081783676908070e-01
-3.809555561697552245e-02 -5.820498997089739585e-02 -7.498231159347474861e-01 -2.855521517278918897e-01 -3.464290045204933000e-01 8.935585674540371670e-01
-7.738227226099772017e-03 8.551708002766705841e-02 -6.316422553016944885e-01 9.707965403327212250e-01 -1.980972607655238915e-01 -1.353201853206498495e-01
-3.669740845308221838e-02 -1.263773488375133369e-02 -7.042744413068597886e-01 -2.678019903774636612e-01 -4.377798377333506630e-01 8.582720475606963051e-01
-1.368222154320351477e-02 1.550046808958709110e-01 -5.174819190412028869e-01 -9.591443847641093479e-01 -2.826637741674464244e-01 -1.196828930519658850e-02
-1.350639778702975372e-02 -1.280537799732378024e-01 -7.627823495923835573e-01 9.716637289292185953e-01 2.269135113270310256e-01 6.618048247484414892e-02
5.870313445993391444e-02 -2.952893253180171457e-02 -6.580022946085266611e-01 -8.582298669534094149e-01 -1.038442322524431999e-01 5.026508439235265469e-01
-8.354319666606756581e-03 1.117380967559549604e-01 -5.539165425434066092e-01 9.975313187299297280e-01 3.340149032935448015e-02 -6.177061272729377633e-02
-2.934257569430299365e-03 1.795508207197795206e-02 -6.555749673930360011e-01 9.622999914144690914e-01 -1.264338625343140454e-01 -2.408177836630149282e-01
-8.782133335741912697e-03 -1.055965475321308245e-01 -7.331011831450746641e-01 -7.027191982300432516e-01 -6.053883967641467967e-01 3.737520802647937845e-01
-6.822205705419376147e-03 9.767683888619679844e-02 -6.184632906813881670e-01 -9.269961901494425671e-01 -1.617264646575493625e-01 -3.384119000239038666e-01
4.512373369913107168e-02 -6.023034471178949356e-02 -6.841042920519260218e-01 -2.918082433570801798e-02 7.994414547710293473e-01 -6.000348655575512558e-01
-9.498279328518937845e-03 1.397870434194033451e-01 -5.112879028377173007e-01 -9.364776832507517579e-01 -3.312548563949163638e-01 1.152378795712925424e-01
-3.467735030379899552e-02 -5.721704559270307522e-02 -7.293475099934101369e-01 -6.827421501696625539e-01 -4.284807333727098655e-01 5.918339442023333730e-01
-4.364043859209944948e-02 -4.277054434231069430e-02 -7.380313348401251750e-01 -9.503316665967292964e-01 -2.945863925105237091e-01 -1.004419275557686120e-01
-1.992222420769369437e-02 1.414412164986707243e-01 -6.417533238604608004e-01 6.828964725007501402e-01 -2.463794357659815915e-01 -6.877132988954544057e-01
-5.138900519744286736e-03 1.296155457795163390e-01 -5.070045985750502027e-01 7.959377195342239864e-01 5.779578111922124561e-01 -1.801330483408462579e-01
-7.176586845130139038e-03 -1.441116912074825174e-01 -7.718482043132961490e-01 -7.203347035623063332e-01 -7.178445973705670224e-02 6.899020989851119001e-01
-2.195316930989909404e-03 1.626977437711541255e-02 -6.607423488834418546e-01 -9.656494236410118059e-01 9.863539719778796622e-02 2.404001851942219325e-01
6.435747110234128592e-03 3.467327594601554014e-02 -6.083212869615034490e-01 -1.939984082182862890e-01 -7.207016343747252307e-01 6.655477231712021435e-01
-1.665458135673715621e-03 7.595460634638534492e-02 -6.054504815486949632e-01 9.263011598586508022e-01 -3.266524578866333295e-01 1.877880001521380626e-01
-1.000209566681299058e-03 7.392574949902673553e-02 -5.707044815932498238e-01 7.703047963469443760e-01 5.286201448031305761e-01 -3.566388414533803175e-01
6.482165550958018593e-03 -1.542014017394833514e-01 -7.409220012453077153e-01 8.324967594070015187e-01 -2.955683898667876299e-04 -5.540298351317983760e-01
6.848233568222024132e-04 6.751174361141122626e-02 -5.789244074750429236e-01 -5.096417661773585683e-01 -7.013409095452841635e-01 4.983835859715046168e-01
1.983479059901693820e-02 1.066216786620167029e-01 -5.182538318922328413e-01 -1.898634205190858071e-01 -6.465099185216695021e-01 7.389024338854873752e-01
1.377929549220000872e-04 -3.792352220823075326e-02 -6.755084308181493746e-01 3.291096238355655790e-01 8.821075734380510180e-01 -3.370060598595314150e-01
1.019323951730803125e-02 -2.199300542541071379e-01 -7.656042290106279680e-01 -5.477622239042199137e-01 1.741247799468253199e-01 -8.183135750260854824e-01
-6.018890956102571944e-03 -1.218032381931899617e-02 -6.714707384470808282e-01 -9.894277239519227996e-01 -4.665557426670687707e-02 1.373172839272651102e-01
-2.962362578541152119e-02 -3.324747192957958758e-02 -7.096306970101913247e-01 -4.914306051551106669e-01 -3.957397667497825622e-01 7.758131201067105520e-01
5.339497211011828143e-02 4.788802316803161124e-02 -5.883798436758583827e-01 -2.981166229917154298e-01 7.502280675632384543e-01 -5.901561875777837640e-01
3.661675945002216322e-03 -1.106108849774485314e-01 -7.298707468713642177e-01 5.073166794306863681e-01 -2.308684607106021303e-01 8.302587190873331746e-01
5.068996332612008687e-02 7.644993716177131589e-03 -6.177047639750479213e-01 4.059185855911194296e-01 -9.030408406063331617e-01 1.405252364122269448e-01
6.150089822636300996e-02 -1.514604673310420736e-02 -6.449568487728510879e-01 -6.266729817260763280e-01 -5.136879752022528445e-01 5.860082235832178021e-01
2.803574978981457702e-02 -7.096614786944414888e-02 -6.972846119421488575e-01 -6.436292293183257761e-03 -8.334674547824918456e-01 5.525310633438732522e-01
6.199705768891868723e-02 4.118029785130228326e-02 -5.973851119944851851e-01 -8.660503175731096848e-01 2.921186734355135650e-01 -4.057382506762108321e-01
-4.721928390524120916e-02 3.403117657748182950e-02 -6.799701127398314338e-01 -2.021735371520929844e-02 -6.130445298746215466e-01 7.897896321170331246e-01
6.185691086189856573e-03 -4.588691750925510265e-02 -6.809259525301931681e-01 -6.326060404786720825e-01 -1.863262323778397400e-01 7.517261021660587295e-01
5.489445060700808010e-02 6.584688102154648282e-02 -5.704061025848036204e-01 3.032328464017547409e-01 -7.357556167770573641e-01 6.055687518722393525e-01
8.497432911559290800e-03 -1.601923348886444831e-01 -7.496892477692700396e-01 -9.966041301391171947e-01 2.776786704780823817e-02 -7.751872902253009734e-02
2.140303996877780928e-03 1.005910795832924837e-01 -5.356321703728809114e-01 5.874139331981540479e-01 5.997901058557305598e-01 -5.433200714148574972e-01
2.212341891372475791e-02 2.147065819095951567e-01 -5.671630404470267006e-01 6.764720573698672634e-01 7.093737045275234632e-01 -1.979254984146225360e-01
1.053348429234200224e-02 -2.220448940940199234e-01 -7.744743114711999388e-01 9.397272204939571827e-02 -2.121598401578308202e-01 9.727061888025748670e-01
5.218071125739454780e-02 -5.464580327892723521e-02 -6.815660352117824949e-01 -7.137514804026042770e-01 6.744809817046186762e-01 -1.887703089520825217e-01
-1.155769862501526690e-02 2.037837276095027031e-02 -6.740950553060720551e-01 6.439424936765818508e-01 1.340031557685793795e-01 -7.532471168757612912e-01
-1.016078545381119205e-02 1.997281635358445495e-01 -5.144439469162280787e-01 5.404861477400571546e-02 -6.265554596422686640e-01 7.775004843943678079e-01
3.796213917112822855e-02 -1.143871383211273740e-01 -7.308940981185063634e-01 -9.748816375768117881e-01 1.229254733269634497e-01 -1.857286211731940251e-01
-5.495250482737752684e-02 2.808976576335313335e-02 -6.978149830846289703e-01 -8.985461814108994805e-01 -1.582898866700605256e-01 4.093397997383960152e-01
-1.590950861440781211e-02 1.218482279072986424e-01 -6.326575607531511602e-01 -9.418970908513052409e-01 1.131192817929040084e-01 3.162813594452026922e-01
-1.793458768189435185e-02 1.162866204673131953e-01 -6.457879315241696894e-01 -9.038046499399008393e-01 -4.141048915519874307e-01 1.079550533311428445e-01
4.315999801534172418e-03 -4.901302679937226923e-03 -6.448090951723585151e-01 -2.785528536967276092e-01 -5.277621675227038844e-01 8.024184707676830230e-01
-7.962938838683956836e-04 1.938066249676444891e-02 -6.544462221368493315e-01 -9.894396681774824120e-01 6.800956278427888746e-02 1.279993843997875580e-01
7.132110081732921745e-04 -2.449335788387713153e-03 -6.428117672197454224e-01 5.319804732838283590e-01 2.724852268277764278e-01 -8.017160202997873908e-01
-2.033579405962694653e-02 1.119694299773377477e-01 -6.534066889409988477e-01 9.221159732076702475e-01 1.727364499244335161e-01 -3.462141690092633284e-01
4.571014219684890051e-02 -5.642959637599623962e-02 -6.791122453022810923e-01 2.518000850987941464e-01 9.174732621518404407e-01 -3.079602740301093933e-01
-4.911069426742917590e-03 -3.652678163062769018e-02 -6.783667352829930719e-01 5.990832605048566073e-01 3.807543613251310743e-01 -7.043616708160387319e-01
-7.857991145438723499e-03 7.018321673599335619e-02 -6.381516252581970194e-01 9.812245595942105103e-01 1.395884093685147709e-01 1.330918465538566409e-01
-1.982005213128596247e-02 7.858470157517936927e-02 -6.877143578598892137e-01 -9.291971921247285104e-01 -3.683159598964895753e-01 3.059300300800157565e-02
-5.844695902850523955e-03 1.663955145468017094e-01 -5.764297522276251584e-01 -9.760104719662706652e-01 2.171938067631239977e-01 1.517922645987431103e-02
-1.009221879070229533e-02 -2.921037134614300895e-02 -6.877967581571902134e-01 -9.614715945804470643e-01 -6.398224055258898424e-02 2.673549059000092099e-01
1.683038671939977599e-03 1.719452868170317228e-01 -6.226037953492022936e-01 -9.333117615820823998e-01 2.175673180770251736e-01 2.856459658341435892e-01
1.393506270592466704e-03 2.103514468340942078e-01 -5.264263749786369795e-01 8.849271909260788549e-01 -4.656260742944431930e-01 9.809469752473078119e-03
-1.781131067381745703e-02 -1.037540058665018944e-01 -7.407575190928382680e-01 7.221750654452496754e-01 3.546237666109327002e-01 -5.938898542691430915e-01
-4.375519986194255362e-02 -2.740641553078277878e-02 -7.157600882582427770e-01 6.847401924030469544e-01 4.502075904117509020e-01 -5.731003354068843203e-01
-6.762008050752455098e-03 1.376880186641508408e-01 -6.014474452667759596e-01 8.998878459839299015e-01 -4.274838181917048896e-01 -8.636810658248827988e-02
-1.288238626586932743e-02 -1.283028241911363387e-01 -7.692860113932022958e-01 8.937244518469122934e-01 2.288069642839970774e-01 3.858807811566647983e-01
1.928631335942021204e-04 1.204602483706815885e-01 -5.146832682717152885e-01 8.311115680531226957e-01 5.516147793774602848e-01 -7.053152926624534080e-02
4.884666574300525199e-02 9.829138734864978355e-02 -5.338272067844197499e-01 -8.031194666337950760e-01 3.242989419403876639e-01 -4.998292894280942367e-01
5.736031777734959536e-02 1.546928991430334896e-03 -6.199379023078892548e-01 -2.377793478603621447e-01 -6.312754087384755408e-01 7.382088729168537755e-01
-6.172472098989813770e-03 -1.124833099201232173e-01 -7.329131702805568027e-01 7.539658743386783435e-01 4.852784162806776380e-01 -4.427644057789981158e-01
2.093636802494923052e-02 -1.664383423945016427e-01 -7.470562073702035066e-01 1.541403564359690448e-01 -4.231025863799998676e-01 8.928745443321515207e-01
7.965293283035823971e-03 -2.500497585373910869e-01 -7.802168142271922457e-01 -3.171282783324290144e-01 9.226082738619731938e-01 -2.195987888931533460e-01
6.780861504798327277e-03 -2.497739529895127986e-01 -7.785779486726426279e-01 -3.721342521529204944e-02 9.365663139350701716e-01 -3.485092546630883525e-01
1.527986524229683722e-02 -1.648009264799172313e-01 -7.436150542721940981e-01 -2.460291195189920344e-02 4.564844966082278188e-01 -8.893911406573712375e-01
-2.592248114190632072e-02 -5.313716717496698438e-02 -7.167099654824108379e-01 -4.596451054789447155e-01 -2.829392639328806580e-01 8.418264369419442561e-01
1.247611780142120035e-02 2.269315980385556708e-01 -5.357663128397304186e-01 -5.792051233976537317e-01 7.917606895688650281e-01 -1.940011223765056858e-01
3.721003977431920628e-02 -1.226044841706125932e-01 -7.321007566668830124e-01 -9.362622204514389201e-01 1.930558697954841696e-01 -2.935004015207644534e-01
2.493716368369106040e-02 -1.441278052586681124e-01 -7.348930836861526927e-01 2.801784723138919242e-01 -4.216385092223897679e-01 8.623925969026949856e-01
8.823836977975086163e-03 1.152893761431379310e-01 -5.127614980569082936e-01 -4.540061254599003782e-01 -8.037218198398169422e-01 3.845902681533452938e-01
-5.958620724285299680e-03 1.251560617635984474e-01 -5.840277121471530997e-01 9.309250594037263848e-01 2.207866132332976239e-01 -2.909154605570810070e-01
-3.757927140125788545e-02 1.996769589930233457e-02 -6.880761183656126656e-01 -7.629664204537621626e-03 6.200362424248794246e-01 -7.845360707473951756e-01
-4.647630833979716700e-03 -2.503529486040132618e-03 -6.585875013297982639e-01 9.819760300433714173e-01 -6.295308378461263177e-02 -1.782133150532450028e-01
3.075554866448668850e-02 8.453187220367401611e-02 -5.381355983986714220e-01 -3.160068794006364035e-02 6.260361659805142587e-01 -7.791534607547684343e-01
-1.441122888688659703e-02 1.502732550837600767e-01 -5.171910953670373345e-01 9.715348114069686236e-01 1.733779341950207609e-01 -1.614317259979984875e-01
1.033657088399982625e-02 -2.034609336586064021e-01 -7.674940348403852530e-01 -9.542066519709588857e-01 -1.836719827049549947e-01 2.361234171013203986e-01
5.758896578860550099e-03 9.757229962039641602e-02 -5.379573830223963737e-01 -4.865691662782073990e-01 -6.128230969706659481e-01 6.226542365122169631e-01
-1.389367204127721703e-02 1.390961794075033231e-01 -6.333912923422513330e-01 8.542306613313063179e-01 -1.892524685105479165e-01 -4.842246177179997946e-01
1.050639529136900875e-02 2.026855920145847478e-01 -5.893645513198951802e-01 -5.797348427176355345e-01 7.537291908917297389e-01 -3.095154583164739792e-01
-2.028553580391050104e-03 1.120650959982581046e-01 -5.319371600039030090e-01 -8.342587968244714602e-01 -4.661732743401481582e-01 2.944397021666236292e-01
-3.590349643115934696e-03 7.843789711430133871e-02 -5.900821684557105984e-01 -9.742294149235328771e-01 2.213693324284309316e-01 4.327430828957867792e-02
-3.310801211865511962e-02 -6.775440766521016733e-02 -7.333602124968933156e-01 6.175390175365478296e-01 4.899429829806565273e-01 -6.153059688057732624e-01
-3.678315614920434160e-03 -9.062964715043565767e-02 -7.119185007996006176e-01 8.848424566322833362e-01 3.355169816647823877e-01 -3.232370367942074552e-01
-1.128158741779003264e-02 1.467309630649649421e-01 -5.484152268011011078e-01 9.627120871397839563e-01 -1.401354998768094273e-01 2.314032820623722619e-01
-1.103127050812756967e-03 1.525217983228564500e-01 -6.096700009428476230e-01 -9.382405720541231453e-01 3.340733581023297982e-01 8.999789085186286897e-02
-1.089833376181932080e-02 1.084452854634372215e-01 -6.111384717612006190e-01 9.356409697606986597e-01 3.257681075084696287e-01 -1.358348844575998915e-01
3.286438329457381374e-02 -3.417710608055509608e-03 -6.343964836849896871e-01 9.668253995673908863e-02 8.058557433873082543e-01 -5.841652226187401542e-01
2.966152507099069011e-04 -2.401067985579873887e-01 -7.810098069408877297e-01 5.526221559510723358e-01 -8.322524758054168359e-01 -4.432346182037840560e-02
5.656967342259142106e-02 8.134265330561625540e-02 -5.653300217582348797e-01 1.895841095145805316e-02 -6.061243697854686863e-01 7.951439033321983096e-01
-6.150831845860443153e-03 9.477162328008717496e-02 -6.180648896078145826e-01 -9.155596102357004273e-01 -2.695121511330610398e-01 -2.985193469386571152e-01
1.097306101181473939e-02 1.971309461746138525e-01 -6.124187718554575666e-01 5.083402200534351545e-01 -8.158537801371520404e-01 2.756316928655783705e-01
3.307755713669216502e-03 2.113306191227867503e-01 -5.227607102053185573e-01 -9.154009695007496727e-01 3.864068022580750550e-01 -1.128310604655305693e-01
-5.315407838652023292e-02 2.284361736619532415e-02 -6.887389547155653435e-01 5.851915306477197820e-01 5.471012960121732771e-01 -5.985240549551700262e-01
-3.129946662552947172e-03 1.929086392956469997e-01 -5.389817605640669917e-01 -9.327315375663701724e-01 3.340148858205551630e-01 -1.358158123318362887e-01
-4.077615340819666472e-03 1.471257629125441446e-01 -5.960278744045705013e-01 -9.827550923138079764e-01 1.477280661574642273e-01 -1.112153181924780271e-01
1.526627957017707461e-02 3.512953153353417374e-02 -6.022675772859797938e-01 4.763834076836329090e-01 5.364430981811354471e-01 -6.966259048424443545e-01
-4.939122547534442048e-02 -3.031053375066290745e-02 -7.342136437821983330e-01 9.876057353780658410e-01 1.523713249493587329e-01 -3.765489053929934465e-02
-6.403218316159921611e-03 1.481674351474230322e-01 -5.902134034050953160e-01 9.607666444654517912e-01 2.187207473945487479e-01 1.705540663301994830e-01
5.855204162346993452e-02 7.139652015728614742e-02 -5.655559311294543479e-01 -8.112623477631581981e-01 4.064175925081667251e-01 -4.203309929111511689e-01
2.823351038472824912e-02 4.124138033603618608e-02 -5.862352389775133954e-01 3.101314632008216332e-01 5.975871747214345220e-01 -7.393970815072040681e-01
4.777619556119971217e-02 -7.120429928233516781e-02 -6.999016082221753976e-01 -2.932259390060732995e-01 7.456610110789810841e-01 -5.983378688088178965e-01
1.265573651955244697e-02 2.288781525348089485e-01 -5.366888182720073175e-01 5.497616212380245226e-01 -7.761812877163567492e-01 3.087147039140137328e-01
3.739265962767281126e-02 -9.427205998815413324e-02 -7.215008476499175094e-01 7.671358390776589209e-01 -3.731885769373814443e-01 5.217594181670975884e-01
3.902613678321554397e-02 -9.368545736932797074e-02 -7.235286404660279391e-01 7.277365108835466279e-01 -4.281589627026533562e-01 5.357979781451488455e-01
-7.723543466187189795e-03 9.657919340266651886e-02 -6.228288093131396641e-01 9.592181956159523404e-01 2.825343893253751126e-01 8.647083196883129444e-03
2.464410531673889588e-03 1.760754425142756763e-01 -6.048497673158355070e-01 -9.305243752128212753e-01 1.673795349547122224e-01 -3.257429637200671690e-01
-1.471927008512087997e-03 1.992351114320737027e-01 -5.570617210485349080e-01 8.506487176311285925e-01 -4.625589768292225901e-01 2.498718714605931979e-01
-1.169747164195265301e-03 1.585056725764940333e-01 -5.997668273091244506e-01 -8.995739907928822499e-01 3.102591130296443733e-01 -3.074181482460422443e-01
-1.027437848768500764e-02 1.728989323242792198e-01 -5.459321057002908262e-01 9.840669746553571962e-01 -1.115691360665207882e-01 1.384359681225312555e-01
-5.679780798210349105e-03 7.897932355605358223e-02 -5.908069029847003995e-01 9.907671502454543644e-01 -1.023957049740315400e-01 8.885704022401423596e-02
-1.996894401141692185e-02 1.185231571158469749e-01 -6.450427191897284418e-01 9.557518707814350867e-01 2.322199658132350630e-01 -1.805886180673817454e-01
-1.953643178287949728e-02 7.821383425073166751e-02 -6.855603458804307992e-01 -9.038172894897501530e-01 -4.151812741178165234e-01 1.036282627534954870e-01
-2.757234897653688607e-02 -6.825187865771469020e-02 -7.252692129318019099e-01 7.984094175711894392e-01 2.924510157709377389e-01 -5.263219597434453112e-01
2.865589826571347809e-02 -8.319239189819968572e-02 -7.085489554633619402e-01 1.446647053938623917e-01 5.408519194920308193e-01 -8.285839270677971546e-01
3.858632907994435143e-03 -1.999624215738687871e-01 -7.595416868174537095e-01 6.416887438319285319e-01 3.108332648972757517e-01 -7.011549311476753532e-01
-4.793799340734984996e-03 1.307490455789175887e-01 -5.106682553221347787e-01 -7.131707935362108230e-01 -6.993423475508531162e-01 4.803852796446823198e-02
4.269618645449535163e-03 2.048377887098811190e-01 -5.645166468252604819e-01 -8.902784345407006583e-01 3.698534385639904443e-01 -2.657305834377213238e-01
-6.031631962498617237e-03 8.016507811124304328e-02 -6.488179658692593277e-01 -9.981397097317377121e-01 4.030529777085943045e-03 6.083481475568231628e-02
-3.845876727520548388e-03 7.472713025954974553e-02 -5.927200542256689797e-01 -9.934498949802427203e-01 4.349103897299637367e-02 -1.056685179833329880e-01
-1.119404660584862043e-02 1.423690490617167681e-01 -5.495073615897351216e-01 9.773108296413973717e-01 -1.774161613538107196e-01 1.157024111940721106e-01
2.073404588553998118e-02 2.669344867389293607e-02 -6.075537517341907945e-01 -1.696401707556655369e-01 -7.275860466186756526e-01 6.647110328795474699e-01
-5.019644368710971666e-02 -1.373642268793326231e-02 -7.299900812750912404e-01 -4.177291436629864685e-01 -4.206716298286004574e-01 8.053184105631366885e-01
-1.470497790523173608e-02 1.600433102831955168e-01 -4.953147390120801186e-01 9.375063138063606250e-01 2.485552358550475183e-01 -2.435204432942977282e-01
-6.064803619368551793e-03 8.772359848868231669e-02 -6.220839570514764549e-01 9.972115820665775621e-01 4.620013167429778966e-02 -5.860553238006268456e-02
2.300503337866224504e-02 2.089382874498390275e-01 -5.853522715536694232e-01 -8.639885951059419478e-01 -4.598029975370873101e-01 2.051948122706075961e-01
-5.658758891051552699e-03 6.145582832579430527e-02 -6.583952924186344813e-01 9.528730518766964641e-01 1.960237815996142829e-01 -2.315332029203955588e-01
3.297141239081396308e-02 -1.973966065870558922e-02 -6.530221936984088593e-01 -3.708509584669728021e-01 4.523761200066512278e-01 -8.110643702270834421e-01
-1.280269467615274999e-02 1.516516663296563205e-01 -5.122568459285256059e-01 -9.413112741786675564e-01 -3.235316574929614775e-01 9.623072120684857123e-02
-4.554817436114276703e-03 4.794629549153830300e-02 -6.106537148761324030e-01 9.715362410419314809e-01 -1.904444236805542534e-01 1.408838309782050324e-01
5.446835849351176111e-04 -1.344703080071418533e-01 -7.437582158641146135e-01 -8.169926523173118849e-01 -3.772304422596681195e-01 4.361424073534916346e-01
-3.155735290771994380e-03 1.918549772830794031e-01 -5.431194169242686831e-01 -9.628706264234185852e-01 2.699620680776064208e-01 -7.991058972314715606e-04
-1.059557958309154287e-02 1.141112020872941668e-01 -6.117239299649903650e-01 -9.455962323019510007e-01 -1.859162908225931443e-01 2.669885732819357038e-01
-3.763769252023149887e-03 4.282599851750573672e-02 -6.094638614206263627e-01 9.296551579442894342e-01 3.273599860447378718e-01 -1.690465227219040689e-01
-7.830530296006613794e-03 1.193581193348828701e-01 -5.320927218873054976e-01 8.663005226905736711e-01 3.877974686512277169e-01 -3.148595364503652405e-01
1.559705622017920970e-02 5.211365778098197427e-02 -5.847354532632225155e-01 1.139272776345453923e-02 -7.671525860378561879e-01 6.413634815683982859e-01
2.885947778971949609e-02 -9.878665690472683558e-02 -7.171581139718685716e-01 2.169675024254305029e-01 -4.846663004954256393e-01 8.473627794842941707e-01
-1.228555339144187658e-02 -6.661769123095719058e-02 -7.048493126445527501e-01 -7.918302058081938544e-01 -3.531079378245721712e-01 4.983168765103497266e-01
3.267194736069383137e-03 1.858373003785557531e-01 -6.266380281716877887e-01 8.618518468374529728e-01 -4.760560096931192864e-01 -1.748772990926382442e-01
-1.725736410606181978e-02 -9.614221561724682619e-02 -7.361668219656599677e-01 -7.935844691667827133e-01 -3.880093218662855059e-01 4.686922833183205239e-01
-1.355752210815062107e-02 1.060864705776383143e-01 -6.372100658108672544e-01 8.787250178753281959e-01 4.246667362717209127e-01 -2.179461081651340726e-01
-9.326258688576373468e-03 -1.409923941356464594e-01 -7.712606147886470476e-01 8.949396530879504263e-01 1.518998891798825912e-01 4.195347911651167716e-01
-5.673138737907942528e-03 1.425348811079992783e-01 -5.934360178980226941e-01 9.958986339295459178e-01 2.650539241380664435e-02 8.650650328301538738e-02
5.329344110204776996e-02 1.329449636754848410e-02 -6.125622531880571264e-01 -3.093722976791920404e-02 -6.767404661196728677e-01 7.355713625002099354e-01
-1.207204387763869888e-02 1.857470158996176735e-01 -4.735155245841936589e-01 -9.879841074376282117e-01 7.351416142322393654e-02 -1.359524605180539580e-01
-1.163684735320572212e-02 9.222185867273248461e-02 -6.552725598605831925e-01 8.704863524572674649e-01 3.636898888676978192e-01 -3.316371133046529529e-01
-4.416895948324781052e-02 -4.238068321348113787e-02 -7.274714990021419192e-01 8.133428552134198686e-01 3.980269939671424728e-01 -4.243205297257748310e-01
-3.987655982536478065e-03 3.612901505392534379e-02 -6.164487448742330677e-01 9.680020455687998737e-01 1.751867585818754625e-01 -1.796709197176729889e-01
5.944511538847081084e-03 2.171015373854151553e-01 -5.326528443576694638e-01 -9.383182425144381833e-01 3.420658742147242304e-01 5.049567765989869395e-02
7.358259612784974479e-03 -2.182270184393465262e-01 -7.632660735741183533e-01 -9.382239218680985537e-01 1.298753922660870752e-01 -3.207308137958903571e-01
-2.093259332080220705e-02 8.139185722445251014e-02 -6.866667924231728559e-01 -9.162191979065990033e-01 -3.999486410139708736e-01 2.415503960804194633e-02
-1.113555224436618349e-02 1.140668687561994660e-01 -6.075033378721297339e-01 9.341448525420411597e-01 -1.540816147812187724e-02 -3.565613313710168653e-01
-7.578541290998041038e-03 6.858225547769036812e-02 -6.618309931955743686e-01 7.161019244241889625e-01 6.278274224228204137e-01 3.050094449191540491e-01
2.949791964603194760e-02 3.863532624708042318e-02 -5.910507811760656871e-01 -5.013927104661475287e-02 -7.636958865151379783e-01 6.436261697746383792e-01
-6.464037473000196904e-03 9.204464041886779857e-02 -6.339140125712040552e-01 -9.765242634781812203e-01 -1.671179734990075466e-02 2.147581864975843524e-01
-2.240889199007319553e-03 5.911997243553596820e-02 -6.242517780127323501e-01 8.744705767985039291e-01 1.362109489401708562e-01 -4.655617979414869989e-01
2.294854834350550273e-03 -9.310576297485258224e-02 -7.180058120567540669e-01 -9.450230253454434681e-01 -2.634385327332190996e-01 1.937307952761089247e-01
-5.088179226510882065e-03 -9.161500453004095545e-02 -7.146894572348648778e-01 5.632966137048682764e-01 4.957410947363785625e-01 -6.610126261866751118e-01
1.175738437691431449e-04 -8.896051618227897306e-02 -7.056901797346232241e-01 7.575665772047294189e-01 4.436718529678078671e-01 -4.787986716631769668e-01
-8.267416013683408227e-03 1.178851086227358375e-01 -6.036908254302288945e-01 -9.981969318113211864e-01 -2.868450364272393666e-02 5.272650731117110856e-02
3.433682932974461109e-03 1.824588634566000622e-01 -6.389429485559861011e-01 -3.057083875220591995e-01 -5.077592740451448705e-01 8.054333624948805115e-01
-2.313675221335959736e-02 -5.476025845411690990e-02 -7.148040127199311033e-01 -6.940235623576798130e-01 -1.999855347991242038e-01 6.916191732185160701e-01
-9.675561637405433180e-03 1.969910093297984055e-01 -4.923275692633665712e-01 9.329325649959019362e-01 -3.589445622933130631e-01 -2.820692060876373725e-02
4.979371631837277434e-02 -8.145210512993916394e-03 -6.310946863134043738e-01 3.075989120320399284e-01 7.527196814465663133e-01 -5.820618442053085984e-01
-6.298621844853593242e-03 1.047145354181607535e-01 -5.528224574103267619e-01 9.216919897322685129e-01 3.296667010329527581e-01 -2.044596348754972037e-01
-6.020027422407785676e-03 1.879651446837165285e-01 -5.246306145332867432e-01 -9.621571577442650236e-01 -2.705504695332447418e-01 -3.249688041671604244e-02
-7.441656080922422895e-03 1.842577994669176711e-01 -5.456689214953334144e-01 9.431781069561199216e-01 -3.102384408889454770e-01 -1.190259146298243836e-01
-2.089061123329418596e-02 -7.723042712023286960e-02 -7.246123499358374520e-01 -8.205079826582180047e-01 -3.124205733111744543e-01 4.787066280782607541e-01
-7.043512114134585500e-03 1.924484362338217402e-01 -5.263586108435763800e-01 8.371895969151217365e-01 2.308527950938712159e-01 4.958029505906988432e-01
4.776289202264540762e-02 5.549424748353130876e-02 -5.774022759148168538e-01 -6.670025841424325197e-01 6.113863094586430291e-01 -4.258102081372140413e-01
-9.677400202870375945e-03 1.252453938379332055e-01 -5.572593051577517942e-01 9.473121335293763767e-01 2.734845009667564164e-01 1.667511601128618126e-01
-3.637878677152174556e-02 -7.094310053869966326e-02 -7.520081502173936450e-01 8.880551840892398907e-01 4.101784765245411468e-01 2.076333484973749421e-01
-3.428753382558854916e-03 -1.602649825684261120e-01 -7.691308394850081553e-01 -9.739066018073490039e-01 -2.145681077601660214e-01 -7.393549951331383763e-02
4.162633540128481136e-02 -6.425799760920260228e-02 -6.925280778133020565e-01 2.893539932510625912e-01 -8.577192805348583526e-01 4.249610598495218716e-01
5.013022772705972435e-02 4.656175360179320988e-02 -5.916980184431259726e-01 2.240813347964850932e-01 -7.041097452858576800e-01 6.738078524247919088e-01
-1.211132277209638854e-05 1.786693562688852210e-01 -6.277165116751057816e-01 9.092974368483023317e-01 -3.384122185292566809e-01 -2.421886489726838287e-01
-7.939287190071801781e-03 -5.306927147391034619e-03 -6.763099982620999207e-01 -9.079365823499798704e-01 5.688726461141475899e-02 4.152288544353207600e-01
4.658361610007407533e-02 7.919733819508402092e-03 -6.200185621447530382e-01 -1.818525376928323001e-01 -6.552041913280417518e-01 7.332374255320330825e-01
-1.912726561576481073e-03 1.745951410414895988e-01 -5.959930325295235143e-01 9.281468982175303806e-01 -2.455288147980662916e-01 2.797479873619003743e-01
-5.154578585048314419e-03 7.319748771150078048e-02 -6.240595170412341908e-01 9.727622224485185098e-01 1.542021929192208540e-01 -1.730761170003604077e-01
-3.283822543230853486e-02 1.279114393156034757e-01 -6.676177462114993855e-01 9.311592812724067691e-01 1.886586587273187121e-01 -3.120101014189506361e-01
3.128405099139119211e-02 -1.468522013345177346e-01 -7.390114207408307045e-01 3.897558732531188896e-01 -2.985208046188065900e-01 8.711921076745583470e-01
2.689917444090055097e-03 1.882888645940301309e-01 -5.983697210626388596e-01 9.573021769768604861e-01 -2.750053051907118684e-01 8.913262069706551216e-02
-5.820504110891655883e-03 9.811906964848796098e-02 -6.095391177205712330e-01 -8.854358990207356062e-01 -4.542111218912037729e-01 9.846585944212127295e-02
6.427831497038878975e-03 2.175082536941152223e-01 -5.365331410724458738e-01 -8.031599262245691095e-01 5.896493277482219852e-01 -8.513403075747336124e-02
-4.847570235911226322e-02 3.672616382551014552e-02 -6.764677272775625472e-01 1.508797471984004157e-01 5.257374750709937761e-01 -8.371591301486968062e-01
-1.383204063705473913e-02 1.853892844340398194e-01 -5.072097042656400490e-01 -9.936545345701111032e-01 -7.355547327947793701e-02 8.508970724410529207e-02
2.548805287452902968e-02 -7.785175794759070789e-02 -7.043127383344677250e-01 3.536992418623522982e-01 -7.934293196548706240e-01 4.953450928575008905e-01
-2.653709181924800153e-02 1.158293490269747539e-01 -6.639567962903397680e-01 8.178655639150578249e-01 2.409325140206444171e-01 -5.225394176993697348e-01
1.180323058747379623e-03 2.026787478057792136e-01 -5.533593975238186857e-01 -9.844742204095734417e-01 1.702367266979394334e-01 4.277810458790270998e-02
1.191486344153745540e-02 -1.838108488822536302e-01 -7.532834124398642972e-01 1.361533224982417745e-01 -1.837565042368800583e-01 9.734966974383277849e-01
-5.645346195827617014e-02 9.759828290970879242e-03 -7.076008670694317049e-01 9.842502413477587364e-01 1.652446445997300672e-01 6.281456708429582203e-02
-9.250410921740715581e-03 6.405559882993550579e-03 -6.769889476886953306e-01 -7.947887657107790549e-01 -7.297938552538850432e-02 6.024822214707026280e-01
-2.878614595260722917e-03 1.576524775350278962e-01 -6.268007932956233264e-01 -8.099636559548750725e-01 4.251657264289185889e-01 4.039715102607888131e-01
1.054138990337112440e-02 1.927479247163023657e-01 -6.247689159290878980e-01 8.892223221175811487e-02 -8.717926474211672438e-01 4.817368747779957605e-01
-3.104847169498972572e-03 1.227737504574370891e-01 -5.824531111704311925e-01 -9.141483492580856351e-01 -2.854184879539338193e-01 2.878699051356485294e-01
4.635802217781984091e-02 4.034041596281411762e-02 -5.967133649947596874e-01 3.486598750891256593e-01 -6.705247587548764931e-01 6.548532960897042177e-01
-1.057404300680637576e-03 8.022194198730356329e-02 -5.694653917032322932e-01 -9.028876397224918637e-01 -3.309201295585252334e-01 2.743825393302499749e-01
-9.719974341465686604e-03 1.940762251579792597e-01 -4.843471136926449372e-01 -8.216302697575250669e-01 5.459974928091348989e-01 -1.637389314253496209e-01
-7.647093145867329272e-03 1.584803985407445270e-01 -5.540355830714633889e-01 -9.607990356544181543e-01 -2.167636053768503823e-01 -1.728547149185380161e-01
-2.111576737185515747e-03 1.043743645830346456e-01 -5.799750514331928342e-01 -9.491327522737981193e-01 1.497705293605820775e-01 -2.769761850705149131e-01
-4.083138501198933790e-02 -4.056710941429813450e-02 -7.240001244358581500e-01 -6.023779847728792936e-01 -4.532413078645920468e-01 6.570487655464841703e-01
2.451796750163962035e-02 -9.814916244488580688e-02 -7.158597198946337059e-01 1.769423676928258138e-01 -3.664394009544042485e-01 9.134624042309755776e-01
-1.601120749319987629e-02 8.472274871233897997e-02 -6.699512684598278867e-01 7.546182514336703395e-01 2.128596664806938488e-01 -6.206787067307186767e-01
-3.568077206661880024e-02 -3.239995150676030361e-02 -7.112924914798739451e-01 4.236911625562152506e-01 2.860459364592818354e-01 -8.594553630101421371e-01
-1.185266993454910968e-02 1.153091845704641988e-01 -6.175358322372297426e-01 -9.809399842697651417e-01 -1.726130359942544268e-01 8.922716551409200225e-02
-3.861288624497875160e-02 -5.098602756630848248e-02 -7.293618314638388167e-01 -8.445189554071551585e-01 -3.819731686883851007e-01 3.753454840012888649e-01
8.068266714556808841e-03 -2.312698245594270730e-01 -7.758944935772836837e-01 1.642931736264822973e-01 -1.598524692935845426e-01 9.733729712502201536e-01
-3.471053209572322329e-02 -3.620706465808278679e-02 -7.127185275572258671e-01 4.665070362028928552e-01 4.410168304209668433e-01 -7.667302918619017804e-01
3.072513036395842223e-02 -1.561622517747162375e-01 -7.450791447850012572e-01 -1.589241904883193779e-01 -3.434432087728048755e-01 9.256294420692722236e-01
-2.311235165572014458e-03 1.465416471230283069e-01 -6.069571992867310861e-01 -9.663403094898364021e-01 -1.932376430981246757e-02 -2.565404420125337870e-01
-7.682627976713005645e-03 -3.601750521509537728e-02 -6.817011393264743591e-01 7.558211592828070202e-01 4.439142311351589321e-01 -4.813258050178424452e-01
4.937183504119745103e-02 -3.500380456291241754e-02 -6.598416864026910300e-01 -2.299597620994462965e-01 -6.299190448716575075e-01 7.418359014789893680e-01
-5.078774704477206220e-02 -1.122447873035688388e-02 -7.286864959288819055e-01 -7.557352848519307553e-01 -3.366177433856912815e-01 5.617407534331970709e-01
2.883941922632528299e-02 2.965167561768116550e-02 -6.004866734853929744e-01 4.709576805134411438e-03 -7.731246264080641195e-01 6.342366529361952443e-01
-1.152239810430328443e-02 1.320147052026065804e-01 -5.451526627195244501e-01 9.797043342301814395e-01 1.999675313855992786e-01 1.387097264600657513e-02
-1.163822259919489047e-03 -1.595140936716277491e-01 -7.537952644394332324e-01 8.758725578183532701e-01 -8.008067018432494036e-03 -4.824760442999872501e-01
3.795993687214409967e-02 -6.815476304463921609e-02 -6.975093041746153188e-01 2.839150291463091169e-01 -8.390635309734165714e-01 4.640739673966560730e-01
5.830662858145763995e-03 -1.770163041592937858e-01 -7.504226932668627281e-01 7.721162707100535094e-01 1.805948895801289256e-01 -6.092798621014323679e-01
-5.614406149349949332e-02 2.787718714530351000e-02 -6.906833975740219733e-01 -7.262242485495187250e-01 -5.718715431016395678e-01 3.815249389086334819e-01
-1.637983230253380051e-02 2.318275352842337489e-02 -6.794082058478396746e-01 -5.619487182969212791e-01 -2.613069808505409375e-01 7.848135445844586222e-01
-1.282530295090746585e-03 1.764581130280045707e-01 -5.913266849507283762e-01 -9.361440282840112204e-01 1.744393929482299932e-01 -3.052953594407182281e-01
-2.476620845545672925e-02 9.207174728246520640e-03 -6.873796380134061801e-01 7.019392985224461867e-01 2.112799612671943661e-01 -6.801779172810222818e-01
-1.651708329861320199e-02 1.306530369798994395e-01 -6.360641422706981851e-01 -7.491104558315736517e-01 3.671274931969326083e-01 5.514081326048321241e-01
-2.106985222596239465e-02 -8.456330416468618716e-02 -7.272949582736808471e-01 8.297202734124862200e-01 2.530459447219808311e-01 -4.975258965602383232e-01
-6.950719834621427694e-03 3.588669605376605676e-02 -6.670842110457627649e-01 -7.654229509509963281e-01 1.111469866904321452e-01 6.338564928334374793e-01
2.188234204290897059e-02 -1.726277134794782231e-01 -7.510131391862343575e-01 4.595971165064955954e-01 -5.404012345909215975e-01 7.047957123532478940e-01
-3.585472256129098104e-03 5.092876056668775575e-02 -6.579233163357000036e-01 -9.933541474317497677e-01 -7.579383337625841821e-02 -8.661889287143581528e-02
-9.726043053803518253e-04 4.472933642302966833e-02 -6.470566761389057175e-01 -9.895528631093896132e-01 -4.019532008246153032e-02 1.384538455785101208e-01
-2.042867255848575259e-02 7.935721942846854504e-02 -6.911947663285187282e-01 -9.407033696043591853e-01 -2.550794570112062121e-01 2.236328263602467559e-01
1.690489185997291061e-02 2.267261486571529594e-01 -5.458109264565271790e-01 -1.876419896677131161e-02 -9.385207288620177613e-01 3.447125561006471606e-01
-1.409578573116324063e-02 1.281090735735895547e-01 -6.240669879220572813e-01 7.531572810453668332e-01 -4.908320110784448742e-01 -4.379932041813428545e-01
3.107528033995458211e-02 7.625747081785987092e-02 -5.492869380041235372e-01 3.942152432194782896e-02 -7.314345855326489509e-01 6.807711733812001897e-01
5.217888788239978884e-03 5.787490932007396949e-02 -5.827646685811729288e-01 -5.266678547733069093e-01 -5.756611045845949626e-01 6.254880202025672187e-01
-7.552107085158090392e-03 -8.129966748936621676e-03 -6.700885092785837660e-01 9.392131477605838441e-01 -4.531294235975463075e-02 -3.403313096504011481e-01
3.740298288141082755e-02 -1.182191601501890871e-01 -7.364852887756648814e-01 -6.082895914473608334e-01 5.722769958899549120e-03 7.936945400094422842e-01
3.601057756904589569e-02 -5.174545307368738634e-02 -6.839723862994260273e-01 -4.844079590533504343e-01 -2.186432876737065545e-01 8.470797140535241132e-01
1.450693955622647802e-02 6.924490158133829454e-02 -5.597598139775042947e-01 3.588557863311063745e-01 7.926942359141977423e-01 -4.928066283696775907e-01
3.314513224912722655e-02 8.375410402079964955e-02 -5.391848473298617161e-01 -4.678368291682458158e-02 6.516847090662367670e-01 -7.570457892241344577e-01
-7.246565335833536278e-03 8.796273814949714942e-02 -6.299403341897201747e-01 9.919882629427008158e-01 -6.733291213052808311e-02 -1.068904351564972238e-01
2.133466328843953638e-02 7.345420007640618421e-02 -5.537912680742135274e-01 -1.116261317869909758e-01 -5.314267649333658250e-01 8.397173335204713984e-01
-9.284722574820457319e-03 3.587859229471542649e-02 -6.672129057758237058e-01 6.217322366457610494e-01 1.726606806327032895e-01 -7.639615928035328185e-01
-7.694771019602687518e-04 -3.147535628570449773e-02 -6.732846019448556207e-01 -8.788037319272744563e-01 -2.897783736142493516e-01 3.791206865052020314e-01
-1.290489705768823291e-02 -4.071871299902235508e-02 -6.975821762423657368e-01 -8.493869843023830191e-01 -1.311351803805366756e-01 5.112194395406607361e-01
8.073432895121364361e-03 -2.146049143973134676e-01 -7.632005320912378377e-01 -5.207770097472460558e-01 2.033970669325388392e-01 -8.291085208113333493e-01
-1.507552145611143479e-02 -1.378445489401449939e-02 -6.905728014448911933e-01 -8.239721010858677142e-01 -3.046707144008842794e-01 4.777507011178481755e-01
-6.117271171600589287e-03 -5.679539770160665219e-02 -6.912104920425571342e-01 8.680964111958635598e-01 1.851805432413254904e-01 -4.605613827425281137e-01
1.324849139107678840e-03 1.373430396665575870e-02 -6.504938796950856528e-01 -6.039342327569946489e-01 -4.101021945689253267e-01 6.834322442744207304e-01
-7.255251053574713130e-03 1.735900787103838439e-01 -6.396893725314365398e-01 7.956768193019145841e-01 -4.203585323835521415e-01 -4.361159289431356112e-01
4.938502855025218852e-02 5.146278060299891433e-02 -5.836270941575427695e-01 -3.184186037186349516e-01 6.858066713492672051e-01 -6.544301355673596277e-01
1.508374660612242513e-02 9.423087479781330766e-02 -5.330519036912708675e-01 -5.043565875772066942e-01 -6.902280393223243493e-01 5.188542052453031239e-01
-2.175591969662774711e-03 9.274297662902714068e-02 -5.594583116450112525e-01 -9.663127447913713031e-01 -2.005196539593711580e-01 1.613429503566230216e-01
-1.827328418784428601e-02 8.222433527320439917e-02 -6.763116966916729034e-01 -8.308750851863779818e-01 -7.450655937102751425e-02 5.514484249929637594e-01
-2.285676331908738715e-03 2.000066141772942341e-01 -5.421111202048012334e-01 7.661560837114554934e-01 -5.576027577574618199e-01 -3.195058996844947763e-01
2.687016012888737704e-02 -1.210151940852002561e-01 -7.229696351270330501e-01 -4.426290095335380093e-01 3.494700074516510213e-01 -8.258028056449687737e-01
2.037417951409021145e-03 1.914719278575720274e-01 -5.909550187380043784e-01 7.751781834665126825e-01 -5.410001391648320279e-01 3.262171566628430108e-01
-9.281415870144981567e-03 1.254002690481403615e-01 -5.419629344679879335e-01 -9.896264473524108984e-01 -1.363876078145732640e-01 4.514327342211672811e-02
-4.312549291951126018e-02 -4.572118417312484931e-03 -7.036390806660038910e-01 -3.399310487727913999e-01 -3.667686071360124478e-01 8.659836435520820164e-01
-5.441420143113160843e-03 7.020529579837851697e-02 -5.870386431660106208e-01 9.943193305625248613e-01 1.009929701801489110e-01 -3.360786877925550642e-02
