6.160445213263312028e-03 2.096728803773748040e-01 -7.831345399794071849e-01 6.588985005545721085e-01 -1.054222887179365048e-01 -7.448079665312452580e-01
-3.038530801045377996e-02 9.575463935063344145e-02 -8.518168814213934459e-01 -4.913869634166567052e-02 -7.409161845894751686e-01 6.697974290300137135e-01
2.704641570265821707e-02 1.900905709217257655e-01 -7.598089667846695816e-01 6.711765785879285628e-01 4.144125287052928264e-01 -6.146415674253467021e-01
6.179619104381185724e-02 9.432633072124438356e-02 -8.362350409797624229e-01 -7.111446050181440270e-01 6.234503994564913887e-01 -3.249353015157468993e-01
7.864338667908770189e-03 -2.054837189819119780e-01 -1.019050330665616011e+00 2.198451438483237375e-01 -5.012136767315400476e-01 8.369306799153446441e-01
-5.484302169877491862e-02 1.349113651386835699e-01 -8.438351278265958655e-01 -1.594645365567686586e-03 -3.966972504398097454e-02 -9.992115742029277214e-01
5.598952177962698319e-03 -1.625428968141286734e-01 -9.911307660524010243e-01 -4.561771023476620668e-01 4.138972520120529075e-01 -7.877763109351294535e-01
6.425780997006393103e-02 1.694097134414218608e-01 -7.554168613537434185e-01 -2.086621081898211785e-02 -5.630188299867547874e-01 8.261806087813993171e-01
6.752674693542519424e-02 9.191728071026035451e-02 -8.657735153267668293e-01 -8.889439429718704044e-01 3.520690974632678660e-01 2.929607770078173079e-01
-6.521479110560449155e-02 1.541326478760434160e-01 -8.477046897673314874e-01 6.627769743679869929e-01 -4.683198337917758303e-01 -5.842971979437007191e-01
-7.989895373495805794e-03 1.741320587704803802e-01 -8.021240057638379106e-01 6.255500098965582900e-01 2.471166645463739042e-01 -7.400138777224997133e-01
-6.575155117332323607e-02 -4.197307916036461389e-02 -8.956819895153291800e-01 1.089645856163841131e-01 4.995618492364591323e-01 -8.593978577288280407e-01
-3.206186679447168425e-02 -5.666708688490899176e-02 -9.204942389961633387e-01 3.756521151577627005e-01 -5.176135110328342614e-01 7.687403603127397345e-01
7.209502817558749443e-02 1.382043676125132847e-01 -7.944346388747505205e-01 5.281298425352116688e-01 -7.527016104136360353e-01 3.930892457247482930e-01
-4.536466725190801269e-02 5.039836068769383212e-03 -8.806211872403527652e-01 -8.609805833399817310e-01 2.199634561866062876e-01 -4.586158665528133893e-01
3.284340539024863809e-02 1.639237880801685809e-01 -7.719192671413436235e-01 -5.192071516870557790e-01 -5.428249657368223735e-01 6.601249807497309163e-01
4.516526704226562355e-02 1.061501037868564506e-01 -8.139543158720298210e-01 -1.812171717979918217e-01 -5.138126619718790256e-01 8.385445039131247391e-01
1.241154779913006614e-02 -8.018104361722228068e-02 -9.832912113091220041e-01 -8.933406199304406714e-01 -2.388007737305943567e-01 3.806792971097398559e-01
5.896999872245554247e-02 3.053094720859432162e-02 -9.231231609034841190e-01 -8.892674577891231946e-01 4.284064856696854773e-01 -1.602225688017129279e-01
6.693067410636441283e-02 9.735137589909155509e-02 -8.710872846210789833e-01 8.855193563772413290e-01 -4.390082398940067798e-01 -1.520764110123673796e-01
-8.214810449318816002e-03 1.757987778725585426e-01 -8.019464469411281549e-01 5.920867256591612060e-01 2.419063108745747592e-01 -7.687097280880910155e-01
9.716234316267901433e-03 1.811899113666098349e-01 -7.862285910224622310e-01 -4.789268526279318872e-01 -1.055090841577665112e-01 8.714911950169620392e-01
8.582783358406174609e-03 -2.299151351576627367e-01 -1.023768000052484917e+00 9.360919947507262417e-01 -1.973469025112331021e-01 2.911803177291151790e-01
-4.007272240114801397e-03 2.540267223752458448e-02 -8.881004077050110856e-01 -4.353887639134650378e-01 -3.921884288477288649e-01 8.103239232158054861e-01
-8.072891422245048396e-03 5.854720695424904184e-03 -8.972976806146272244e-01 -3.583562094061018000e-01 -1.481289843441748744e-01 9.217584451347615726e-01
2.277355553188031845e-02 1.706015355259181965e-01 -7.774183209144044371e-01 -7.144482010608851352e-01 -4.463663446585519612e-01 5.388143041503519193e-01
-7.774498918785630042e-02 8.763867564480908035e-02 -8.642104422595442426e-01 -9.879526968456888714e-01 -1.100204551917138840e-01 1.088345911681520978e-01
-1.692105339094614191e-02 1.591059892240674900e-01 -8.202421379055384598e-01 -8.817237588841920770e-01 -2.305246511995586167e-01 4.116085497271080307e-01
3.967188617485887039e-03 -3.570076096723213965e-02 -9.191087300133133908e-01 5.284683269926989668e-01 -7.945341922473325713e-01 2.990596006073309998e-01
-5.629514183722547985e-03 2.981701898071786525e-02 -8.871194998086964212e-01 -2.227573830951224132e-01 -5.054790540481974848e-01 8.335886720650373949e-01
1.795129581272999000e-02 1.130831909002228269e-01 -8.192134136374680242e-01 8.196573946437576419e-01 3.006647074994681645e-01 -4.876089509741046157e-01
-3.917534565906161809e-02 -1.296364284834039537e-01 -9.704260308094648790e-01 3.517975125229451661e-01 6.248784528903102986e-01 -6.969687434139932858e-01
-5.440298041042125610e-02 -7.921379619448012943e-02 -9.229658940684105639e-01 2.433999980156340345e-05 5.814025921714299772e-01 -8.136160182935844309e-01
6.043795159251788562e-02 8.471485312186992356e-02 -8.788438105879784468e-01 9.237995990907004185e-01 -3.622722262281639627e-01 -1.239077674060479334e-01
-6.850562321764952500e-03 -8.069094777544559560e-02 -9.399023548136263839e-01 9.907374348061855907e-01 -1.212997551079866981e-01 6.103855080522337800e-02
1.310107263196440969e-02 -1.151084490192045978e-01 -9.860172734901127001e-01 9.960358181479210815e-01 -6.348359943379056070e-02 -6.230956242288650249e-02
-3.957168983885584607e-02 1.415249329256888233e-01 -8.416095085448730417e-01 3.074886577690654210e-01 1.265926223756505820e-01 -9.430933322335782742e-01
3.168696531899983793e-02 2.165436529664566956e-01 -7.568856403671621047e-01 -3.752105153456682385e-01 -2.574723592600329236e-01 8.904633925047736875e-01
5.128114794188783770e-03 1.408675715700892783e-01 -8.151883020782945133e-01 -2.640909894151317605e-01 -5.087889849080197147e-01 8.193837429104898762e-01
-7.470915678003318960e-02 1.050887536297543806e-01 -8.499396735269200143e-01 -1.464764955987134798e-01 -4.684889441332919513e-01 8.712420705303395296e-01
3.721038088169788260e-02 -2.424148692998378402e-02 -9.567481924739243970e-01 -9.700502943467260719e-01 1.342199468849542832e-01 2.024535312016821353e-01
7.719038842762332431e-02 1.277417802747251585e-01 -8.502654856082403345e-01 -9.367947611528411045e-01 -1.656178435897290857e-01 3.081984837102213493e-01
-3.019286211413461235e-02 -3.134447485843125381e-02 -9.107615431971615161e-01 2.892152358289338254e-01 -1.337083200788128923e-01 9.478800728499972017e-01
-1.513433839458625495e-02 1.927840024524462015e-01 -8.059359913513758356e-01 7.914781727931379240e-01 -1.128958467344284150e-01 -6.006803058051365385e-01
5.780715512673093720e-02 1.161196710605842397e-01 -8.073653350688699826e-01 -3.236814336815599935e-01 5.688569384299363429e-01 -7.560635641862194500e-01
-2.660722101245299384e-02 2.005264484200079689e-01 -8.370162565519901898e-01 -2.565206124549821998e-01 -3.837343674808985083e-01 8.870992676131322918e-01
-4.675573750011119412e-02 1.640734240056021809e-01 -8.411351860326815588e-01 2.546184254194081564e-01 2.664240118851690098e-01 -9.296169659208856073e-01
-6.953476375206414650e-03 9.338294563912295787e-02 -8.457109287368245187e-01 -1.583107155463035765e-01 -8.616312807142244568e-01 4.822128714976225416e-01
2.128342044755355406e-02 2.526320798829956651e-02 -8.745488609231626409e-01 -4.629613742298019918e-01 6.187890857186113536e-01 -6.346391363340101455e-01
-4.648635919780674808e-02 -2.713907307068787883e-02 -8.985452262561247627e-01 6.140493302267302500e-01 -1.831847562676343633e-01 7.677152891008953706e-01
-4.885049447485651647e-02 8.269265290760631493e-02 -8.659492295341418844e-01 1.579281027408909951e-02 -4.936146967012477460e-01 8.695373012954542569e-01
-6.590725287731026560e-02 1.481907027103127883e-01 -8.489410807623906097e-01 -9.363013839849649855e-01 3.371896831790368587e-01 -9.819794247060338599e-02
-2.729984209514777285e-02 -1.025806237299003720e-01 -9.456315955329942513e-01 -1.469941979379028041e-01 6.570988314790471296e-01 -7.393333696252750720e-01
1.276045546779989645e-02 8.414523424127984264e-02 -8.399389705203488266e-01 7.649585331506367769e-01 2.664081880178529316e-01 -5.864001363549212753e-01
7.079339491654469685e-02 1.097110039457090402e-01 -8.316774979829603121e-01 -7.890585997278295460e-01 5.545632831527684825e-01 -2.642841107111426058e-01
2.297739670061480638e-02 2.875019805835038120e-02 -8.727377845751134178e-01 -4.973561032334476995e-01 6.366676849230824553e-01 -5.893141484396271501e-01
-1.270122143612647386e-02 4.778551900785794893e-02 -8.779757495298494696e-01 3.514195161750997554e-01 2.739686030770759340e-01 -8.952349011177204163e-01
2.336411192211045734e-02 1.881988103892202335e-01 -7.707171481670869184e-01 -9.470239004714946507e-01 1.697010855649651317e-01 2.726669644343245325e-01
2.833191911071976377e-02 2.116455877304590505e-01 -7.603059281536280745e-01 -8.875343028977163984e-01 8.024965304632261653e-02 4.536990790885626068e-01
-9.761274381447356679e-03 1.402331373644454537e-01 -8.220139447231583629e-01 4.422199081441240409e-01 4.983873076092337762e-01 -7.456887047924364298e-01
-2.244973968768638334e-02 2.070352798875841338e-01 -8.313415134848103349e-01 1.756640009535110347e-01 -6.900554979470053807e-01 7.021150678643175436e-01
9.561140769495294831e-03 -8.958445071874648891e-02 -9.897600852690379147e-01 9.147545305368494084e-01 1.766158337297011882e-01 -3.633606970191891050e-01
2.758516156059873103e-02 2.148665024964203640e-01 -7.582835647017943659e-01 9.286537329265945884e-01 -2.298428136497538687e-01 -2.911606521064716846e-01
6.018196893464528019e-02 1.800725178339821764e-01 -7.484040741572526301e-01 -3.275035504705635092e-01 -4.764585757672968880e-01 8.159219631845768816e-01
6.478315572843838799e-02 1.797964894021003845e-01 -7.478466088908499732e-01 3.232634920969401724e-03 -5.228374963756508009e-01 8.524262445837228475e-01
1.166624087851368501e-02 8.767090560770166019e-02 -8.447473528676026078e-01 -9.536317559498591612e-01 -7.477912466053227014e-02 2.915382591684888558e-01
-5.509284512978701760e-03 -8.613030883020489359e-02 -9.421592039877447755e-01 -1.326303482464814276e-01 6.135592371378055798e-01 -7.784306348332465930e-01
-3.717615392950712055e-02 -6.747933096493477501e-02 -9.230109658466916223e-01 4.339580145460463778e-01 -4.118597861186987230e-01 8.012814475510546819e-01
5.586955135131956712e-02 2.385872452718991454e-02 -9.280829605578150288e-01 -9.302113768251029091e-01 3.589333466389957872e-01 -7.663972270094153438e-02
-3.249968545902666428e-02 2.353576532477192132e-03 -8.967579931976715768e-01 4.534034366173299024e-01 -1.906654281312546440e-01 8.706733131198638453e-01
4.474675215388944360e-02 6.409103830374605903e-02 -8.616672385435796278e-01 -4.729976184876756307e-01 6.248006899436625572e-01 -6.212063672813655790e-01
-1.817590758472283768e-02 1.477048300083849131e-01 -8.278266260494832052e-01 -8.303464327949678925e-01 -1.906461362468454268e-01 5.236209051201272668e-01
-8.949105692882317444e-04 1.482852943129700507e-01 -8.117274898667655725e-01 4.360410696728607705e-01 4.160874356488754588e-01 -7.979595424917795832e-01
-6.269973010730833796e-02 -6.426844485262912798e-02 -9.108576450749689135e-01 1.185867646571060335e-01 5.493853568133476584e-01 -8.271111829537979299e-01
-7.832832446282951208e-03 5.876864787019186326e-02 -8.652550182645218912e-01 2.170504674424512115e-01 5.058575606141101355e-01 -8.348635954169731921e-01
5.121344618918733001e-04 2.098559783941212620e-01 -7.902101682743927213e-01 -6.092315785048116883e-01 -1.611689784059119543e-02 7.928285623995465770e-01
-6.126222475510260251e-02 -3.969551226299647406e-02 -8.943203914624370254e-01 -1.363707383843550669e-01 6.088762833065437530e-01 -7.814554967106669414e-01
1.200526036225908234e-02 -1.100640185440759783e-01 -9.766280370591451376e-01 -9.432464769480707334e-01 -5.489531844610992528e-02 -3.275249421612852485e-01
2.946452078433410820e-03 3.377496959176034402e-03 -8.949688257220331788e-01 -9.830218366528690188e-01 -1.260460747550455340e-01 1.333433751727692573e-01
2.160349323174814637e-02 -2.797402742745267032e-04 -9.029268102943878160e-01 8.719412709463028044e-01 -3.426612180741143709e-01 3.497166133435907764e-01
-8.423096529897802429e-03 6.244417195558200906e-02 -8.631822788627122600e-01 9.769491633884572201e-02 4.180849970614036737e-01 -9.031393239991890587e-01
1.353044036835816116e-02 -9.126980850781850341e-02 -9.816293266429509945e-01 -9.433232036763531392e-01 6.178566869286973573e-02 -3.260734036224917642e-01
1.561285622834592685e-02 -1.320238025967551687e-01 -9.999336109338681222e-01 2.299261482618555064e-01 -9.354800311608918451e-01 2.683487984781823266e-01
-7.696852853284073294e-03 1.088936850862736727e-01 -8.337284962880715522e-01 2.820116363384348596e-02 5.994876355218065056e-01 -7.998870352907156978e-01
-3.733158450145813295e-03 -1.531769487157543796e-01 -9.873693346428228379e-01 4.016478226262929496e-01 -2.612205118609348120e-01 8.777487515016294539e-01
-3.781819420555792427e-02 -3.314592549003363836e-02 -9.054113239031842397e-01 -6.625818605113313886e-01 1.916882922535391442e-01 -7.240448029882297076e-01
1.726039158433287021e-02 1.785043465375492962e-03 -8.951932363896892841e-01 4.220356678448103360e-01 -5.384914584007688410e-01 7.293235525445466161e-01
1.030806856764600148e-02 1.200222638579489902e-02 -8.855021032423137095e-01 -5.721149706275495683e-01 -2.793592484034278511e-01 7.711309037480666984e-01
4.266517001891447641e-02 2.077804649213127741e-01 -7.506083466305817353e-01 -6.069158277146050606e-01 1.056434357722920159e-01 7.877135536143337058e-01
4.288618346008824661e-02 6.496305580130048996e-02 -8.572358710174579066e-01 -7.303488002926461498e-01 6.610639939366917961e-01 -1.720029820426443867e-01
-2.025081032273027062e-02 9.081010463337253757e-02 -8.519775613368861800e-01 1.625403468345082147e-01 7.094407605168152608e-01 -6.857655889356364387e-01
5.362756484528340140e-02 6.692503964581920928e-02 -8.697917942118259527e-01 7.790521562010478407e-01 -5.666939707715067387e-01 2.682082799052278310e-01
5.848772565177655369e-02 1.141430344682040909e-01 -8.095800495483037595e-01 -4.502079646493892806e-01 5.067458901799760662e-01 -7.352015991222801139e-01
5.700339881667559200e-02 1.681769282172172753e-01 -7.557359731485030485e-01 4.590755188200260767e-02 6.724689204690383892e-01 -7.387002421032550226e-01
2.498012199796559307e-02 -1.427048006430452730e-03 -9.087731587846370473e-01 -9.327593117458149452e-01 3.093505388985769988e-01 -1.851008115450449021e-01
-1.086570676694559789e-03 -4.163414884271976479e-02 -9.199119573212396483e-01 -9.694163865175601247e-01 -2.765482308987610507e-02 2.438587302335185891e-01
-3.395276165578752555e-03 -5.301292663626104573e-02 -9.278904113402216547e-01 -2.232362399820469745e-01 -4.887376036174580496e-01 8.433867060660502624e-01
-6.729100485216249136e-03 8.489480870422758119e-02 -8.520491975782406024e-01 -5.165156127638337313e-01 -5.728905210766847000e-01 6.364024454947404541e-01
-6.157157541722946964e-02 -1.054457557326989210e-02 -8.746424720504732964e-01 2.829580021442315019e-01 -6.081403647362346732e-01 7.416873099905543221e-01
6.926622177970068184e-02 1.491511392304655792e-01 -7.719648429799390588e-01 -1.172776367890519394e-01 7.875327051129277223e-01 -6.050109042708979867e-01
5.042231541308355575e-02 7.572986112276450243e-02 -8.495159778474395962e-01 -6.109349022860993683e-01 6.435184678407693815e-01 -4.611317888809479126e-01
1.413766994790530487e-02 -1.996180405015166859e-01 -1.008558979703984892e+00 -8.925455291089032794e-01 5.291600650016293865e-03 4.509262438916909477e-01
5.977420595724758368e-02 1.971695098568927440e-01 -7.391887697778442012e-01 -3.189780577434353503e-01 -1.525291481144654959e-01 9.354078563138654712e-01
9.814859962450120032e-03 1.632554172654984981e-01 -7.944881040243416681e-01 -6.062537855142557941e-01 -5.264569835691494948e-01 5.960699556267764487e-01
1.126248051081156325e-02 7.982025901861831974e-02 -8.487271386972701226e-01 -8.724753382741893271e-01 -3.792891801613108571e-01 3.081014474420719629e-01
7.859962980739945704e-03 -1.178500690032893983e-01 -9.753884936803358663e-01 8.065923770402334547e-01 -3.943766934620355213e-01 4.403132532124577891e-01
4.266178900181785694e-02 1.111929212468632244e-01 -8.107069388448732150e-01 -7.486612802876736750e-02 -6.629389909649725521e-01 7.449207723861136499e-01
3.955050622814872130e-02 9.560120811061212365e-02 -8.196483122494419016e-01 -5.794280777281426986e-02 5.261447151108575859e-01 -8.484187467214036049e-01
5.621008842258922583e-02 8.122607190723793447e-02 -8.520544732738588589e-01 5.850725232039595269e-01 -6.450950380949559415e-01 4.914697695861056648e-01
-2.812456270504868489e-02 1.495789179110513789e-01 -8.353084476677142822e-01 5.209462460792430027e-01 6.176957550832264630e-03 -8.535671349644151640e-01
3.403593311683776601e-02 9.777052647320921830e-02 -8.220587660260474383e-01 -2.538489692406400433e-01 -5.858805585466365651e-01 7.696133262441250400e-01
2.896751211257540815e-02 1.673436309270174074e-02 -8.941240241987002957e-01 -6.273476947553598970e-01 7.083382112638825223e-01 -3.235611972233681799e-01
7.304008484422941372e-02 1.123444611578790220e-01 -8.428932949325764756e-01 8.275509715560399604e-01 -5.278590534425920966e-01 1.911130795506816582e-01
7.961086072828754343e-03 -1.015330073864888077e-01 -9.688647990013085076e-01 9.484824610372616371e-01 5.265287575969204020e-02 3.124239039813279661e-01
1.160271066579561354e-02 2.189939879568285896e-01 -7.785201420444436415e-01 6.822466344753369549e-01 -8.938787426629591151e-03 -7.310674577810297725e-01
-3.142101244021933137e-02 1.200158264866887509e-01 -8.391872024825275389e-01 3.670194710621612066e-01 1.692699890391365647e-01 -9.146826655578108589e-01
-3.061587387369402863e-02 -1.177253447026911648e-01 -9.566611384838086263e-01 -1.164754328163208064e-01 6.841208953899250433e-01 -7.200083847019684846e-01
5.557360051431811665e-02 2.019720275867099291e-01 -7.401036661239113190e-01 -4.564252151970116800e-01 -8.502363095052259401e-02 8.856901292847014773e-01
5.702399355255820257e-02 7.328441465492084583e-02 -8.760296520940864529e-01 9.378339701127021977e-01 -3.041820489287995755e-01 -1.671547953608410186e-01
-3.682815546639429255e-02 -7.614243085336956651e-02 -9.284991266289445155e-01 1.314154501058149328e-02 -5.343643134426651065e-01 8.451521048389361024e-01
2.487587647576479030e-02 -3.209193006220617279e-03 -9.098662644929014220e-01 -9.240449546702291794e-01 2.247439533729022054e-01 -3.092427479680209812e-01
-1.821429417072809726e-02 1.973947988043604496e-01 -8.120237536735243067e-01 -7.954276314584052265e-01 2.736270473357054270e-02 6.054305620813464905e-01
-8.381962408964117525e-03 9.008888738369598415e-02 -8.480688785150007902e-01 -1.742071666760412196e-01 -6.544904532090298765e-01 7.357269260649258458e-01
9.173625671390782735e-03 -1.157253907951798083e-01 -9.725839034157947038e-01 -7.633902011068612881e-01 3.100871584780943158e-01 -5.666404106671242280e-01
-3.352482653083889430e-02 -3.812742854094259334e-03 -8.962938270630702586e-01 -5.313058402117983858e-01 1.122180965070792708e-01 -8.397149534057153364e-01
5.410823974345255888e-02 3.012924829840651561e-02 -9.178084153293296632e-01 5.562068250198626274e-01 -5.911242401530438784e-01 5.841284965697278730e-01
-2.188347063217065125e-02 -7.772907433564289759e-02 -9.307578060555772304e-01 -1.383239398641515350e-01 5.315687707594192180e-01 -8.356441405369742226e-01
4.407485306037559059e-02 7.380948529829775562e-02 -8.465137094619202829e-01 6.071957601288240358e-01 -6.182586670680828567e-01 4.990686620864682177e-01
-4.328499616699819225e-02 1.323443723770400815e-01 -8.443919816293743441e-01 -1.562613223631688364e-01 2.751720560805106727e-02 9.873323667989610808e-01
-4.703656414508043671e-02 -1.925902796351841584e-02 -8.959200826608579860e-01 7.221842444092089197e-01 -2.763581518733782549e-01 6.340947003565249318e-01
-5.461431442869513903e-02 1.332511108505840258e-01 -8.439242557495838515e-01 2.752846212453930602e-02 5.022503998148807047e-02 -9.983584672510751323e-01
6.973277803932985408e-02 1.636470076664457152e-01 -7.595478293232297284e-01 7.266662957236701137e-02 -6.445312627049583076e-01 7.611169505027096660e-01
1.683025458882195582e-02 -5.694412722094709806e-02 -9.667931017609558975e-01 -8.971661091910144714e-01 4.351383681674391712e-01 7.581275003345287755e-02
-3.483096296174189449e-02 1.283598601154516128e-01 -8.405907205989584519e-01 3.844400432979658833e-01 6.609343662619068284e-03 -9.231263021306497230e-01
-5.666925921539118192e-03 5.416824257765831020e-03 -8.945447317287101852e-01 2.775499507638086172e-01 2.451350293433003646e-01 -9.289105673959504594e-01
4.052014026862160029e-02 1.068214460362564705e-01 -8.117874375996214642e-01 2.193916424558430694e-02 6.485387591713797084e-01 -7.608653960620448409e-01
-7.892667873084064159e-03 1.180165766507286496e-01 -8.305484799296559695e-01 -5.669499726863727052e-01 -3.815006659502169217e-01 7.300855911127558384e-01
-1.029171259466312750e-02 -1.063903383874081343e-01 -9.541450987935879979e-01 -5.375536930298534521e-01 4.618675251527845638e-01 -7.054887783084914377e-01
-6.763597221621554106e-03 1.628588913842870731e-02 -8.929602619557559517e-01 -2.614795792448885714e-01 -1.415091675732921828e-01 9.547793384497959002e-01
-3.074051086587969994e-02 -6.423164020311430966e-02 -9.241186168636967846e-01 3.952007042832161865e-01 -3.945183441878178376e-01 8.295611366459690883e-01
-2.315596961533664469e-02 -8.859373307453474733e-02 -9.370131744318472844e-01 -2.252603549945593753e-01 4.818402846593893840e-01 -8.468103167457772251e-01
6.509412462420086087e-02 1.892514400163830268e-01 -7.395200362969146513e-01 4.344434102670229406e-03 5.262341269143850919e-01 -8.503286244523247106e-01
6.376394829260806363e-02 1.782903770069474148e-01 -7.469421117921434261e-01 -2.177879750692757188e-02 6.863010937265832112e-01 -7.269913979744518917e-01
-2.358335459302792619e-02 1.469264662416874812e-01 -8.312221312685926788e-01 7.395298683340009172e-01 3.189402483947270106e-01 -5.927669793399473752e-01
-1.385321321120321775e-02 -7.106360786075563429e-02 -9.282624384568143316e-01 -9.942456497074395050e-02 4.245434657004649726e-01 -8.999319983262160649e-01
5.635755184827158371e-02 9.534187476220484792e-02 -8.309847125149676383e-01 4.769647646173145739e-01 -7.011891517517692130e-01 5.299418711322821940e-01
-1.030329176998549465e-02 -1.146388334919476448e-01 -9.632473794403938472e-01 3.182106418069918230e-01 -5.660845079140354175e-01 7.604540205301744127e-01
1.114351623167979949e-02 2.001966908699950032e-01 -7.796349357409426695e-01 7.558528655536116414e-01 1.215214690886232130e-01 -6.433653535783047106e-01
1.851772381908011605e-02 1.683050481026653333e-01 -7.847084233308164736e-01 -2.881701857483055518e-01 -4.535953979770877553e-01 8.433321759424305952e-01
-5.855483550807083840e-03 1.659230897645147251e-01 -8.034484361680518383e-01 6.754731824988131628e-01 3.207308604330044166e-01 -6.639786855696724333e-01
-2.539765190111343152e-03 -1.914453645531201675e-01 -1.001927090895290196e+00 7.257020521266920321e-01 2.905618619892711973e-01 6.236427951130645297e-01
-5.288017915765784449e-02 -3.325048614260529140e-02 -8.951706606742281247e-01 4.754914284660308188e-01 -3.469101616870270410e-01 8.084313459865434259e-01
-2.585401846481016550e-02 1.393909147948230454e-01 -8.358685567472193823e-01 4.967132590353072752e-01 1.584257257724842327e-01 -8.533330110290971993e-01
7.834069814684667746e-03 2.230149957743404465e-01 -7.810862687268351756e-01 7.409066920559616021e-01 -1.289359671058205314e-01 -6.591151568983824038e-01
1.373872673336210860e-02 7.906121417191958045e-02 -8.446067555439374930e-01 -7.373034521609769243e-01 -4.459185739267863546e-01 5.074842311428082731e-01
4.351873108887913816e-02 -2.486547887746450112e-03 -9.459965415963909052e-01 3.844311724560468546e-01 3.604013705460702988e-01 -8.498961852794630900e-01
1.407534009921052390e-02 6.244473163279797012e-02 -8.540868718045577790e-01 -5.782718221137943537e-01 -4.218651640952916226e-01 6.983061528241355509e-01
-5.035728924547947655e-02 6.836651988856430563e-04 -8.774805798739985230e-01 8.121910804011460705e-01 -4.771853235313747166e-01 3.356185571792427158e-01
-8.029433961736133496e-02 1.071762244439330297e-01 -8.510883770317181352e-01 5.642955632707247204e-01 -5.750274060124714870e-01 5.923799453117432057e-01
-2.487383582537801979e-02 -1.119327538353232926e-01 -9.538995168152236692e-01 -9.856178826183925601e-02 7.859347147347887086e-01 -6.104033077149685349e-01
-6.296250999209732080e-02 1.198776000371860051e-01 -8.436723931102340091e-01 6.558119709561467670e-02 2.284233973403865248e-01 -9.713505330903886570e-01
5.410027323820751355e-02 1.259994830852908809e-01 -7.978735549567071983e-01 3.938742374591515660e-01 -6.025039733626583738e-01 6.941556361135311493e-01
-4.750462528900942921e-02 -1.185605956104138214e-01 -9.630624134370197043e-01 6.906141051869998382e-01 6.349786646784980615e-01 -3.461997300979179903e-01
4.713316353522409297e-02 7.722274800981764054e-02 -8.458875456784787916e-01 5.575726881434609483e-01 -7.425194431408203011e-01 3.711840163508136059e-01
5.637574076836323125e-03 -2.504548093107116305e-02 -9.099117424182465719e-01 1.299543098039923350e-01 -6.968634316456366884e-01 7.053320033845301706e-01
-6.661984526219923153e-02 8.933348160429499529e-02 -8.593281762896765041e-01 1.682979307081667042e-01 -5.690912502448357557e-01 8.048670420722411345e-01
-9.055418241079611977e-03 -9.466816885793817582e-02 -9.491704142687820145e-01 4.607739306256707912e-01 -4.878447325171451077e-01 7.414141230183336484e-01
3.268815230711355491e-02 -2.794028739124318830e-02 -9.595082826028507039e-01 6.194888367185060751e-01 -2.205877887536276255e-02 -7.846954768925841206e-01
9.699653663209422197e-03 -3.519667471167652745e-02 -9.216782850035706298e-01 -6.454046293487863961e-01 5.208926194192962100e-01 -5.586803589259784486e-01
-3.648585416492272724e-03 9.737932378624104823e-02 -8.419729578002861370e-01 -1.183660625653700504e-01 -4.702677163227970691e-01 8.745500272810655673e-01
-6.505496173359237577e-02 -4.852438882452766999e-02 -9.020001506033290539e-01 -2.783748933864320894e-03 -5.321473056123153800e-01 8.466472086243634898e-01
5.324711396772183192e-02 1.495785486573502909e-01 -7.740717758256645542e-01 -1.575825874801396742e-01 -6.916537568192425711e-01 7.048282122623158452e-01
-1.890767535073737543e-02 -3.105641698810683582e-02 -9.109222137806765041e-01 1.807743179342970186e-01 5.635861082045261483e-01 -8.060343321560601293e-01
3.147442120600665860e-02 7.555644034403649623e-02 -8.374494293643314213e-01 6.595792625823217181e-02 -6.494998757127737887e-01 7.574955203912462354e-01
-1.871108133695719225e-02 -9.467894540669884174e-02 -9.439904843099247156e-01 3.232529982452764794e-01 -5.150194191620461881e-01 7.938907336727315522e-01
2.926463648355081756e-02 -7.065218504911213162e-04 -9.267154032787308093e-01 7.239509129053190994e-01 -6.008289062176747075e-01 3.389685843213618988e-01
2.942710777220382268e-02 1.131946405354724156e-01 -8.118428390161656072e-01 -3.750372278997688436e-01 -5.331010854894195905e-01 7.583866496314787264e-01
6.470805558926280565e-02 8.971711728815398579e-02 -8.674849428917588146e-01 9.015583539815388292e-01 -3.613611423111746102e-01 -2.379299459791921201e-01
-7.644546864052287512e-03 2.483453519170246773e-03 -8.964478502651099801e-01 3.071790066397500074e-01 8.369318845479664648e-02 -9.479644023306394995e-01
-2.540483743235092892e-02 5.602051028557389345e-02 -8.803443663416767873e-01 -3.947398697908163778e-01 -5.845255094278756225e-01 7.088796541202264656e-01
-1.150058984945439948e-02 5.770281214223079574e-02 -8.673968073532024592e-01 2.311827524267461020e-01 6.768400374671762476e-01 -6.988863274251579938e-01
5.034052673752341389e-02 7.790814721275926558e-02 -8.458055203275659517e-01 -6.230996783019635554e-01 6.790433479301919428e-01 -3.881326094671069260e-01
1.297437650824402773e-02 -6.125014744254115434e-02 -9.710548524011116678e-01 9.221766279155899637e-01 -3.292061683189598797e-01 2.030112451737101087e-01
-4.325569245158399773e-02 -1.022111612969436173e-01 -9.442097258550040673e-01 1.203449541816703355e-01 -5.937214416933421779e-01 7.956204759032984297e-01
2.612559407412191545e-02 -3.594634222520234901e-02 -9.656614939590602020e-01 6.030586356437499518e-01 2.922243885205202951e-01 -7.422433487268895735e-01
1.303931542140014492e-02 8.251366200021198472e-02 -8.404412250869930379e-01 6.798855799816183598e-01 4.078440441468858535e-01 -6.094414112832927666e-01
4.992513107534524153e-02 9.530386784304291370e-02 -8.229162505488798462e-01 -3.136277950243648860e-01 7.110017175766529807e-01 -6.293760114519811877e-01
-8.316724402038042779e-03 -1.399875763717842447e-01 -9.791050066232294125e-01 2.750545422448660501e-02 5.809472315774552031e-01 -8.134763451449558147e-01
1.427711021121866319e-02 1.136150057141860348e-01 -8.290167789305437074e-01 1.322397662511232974e-01 -6.064914435881899601e-01 7.840157989965262919e-01
-6.460589722061427231e-02 1.120822344480707916e-01 -8.466469719682021555e-01 -1.765511285476763503e-01 4.776616575709995982e-01 -8.606213103886440896e-01
-6.656800109619473438e-02 -2.797893758873391118e-02 -8.869932475964059648e-01 -2.275532237691597071e-01 -6.110571315848977170e-01 7.581745922223322998e-01
4.155875535810977378e-02 6.963486367360768869e-02 -8.496910714896384054e-01 4.500356753110505426e-01 -7.171582970124054102e-01 5.321201630962628659e-01
-5.422583451235338074e-03 -2.799133836609409356e-02 -9.104821518692377547e-01 1.523672150777031220e-01 -5.456713911491626323e-01 8.240309245718890896e-01
3.894243917967569329e-02 1.651260483898161768e-01 -7.649700669783492391e-01 4.131176879058771068e-01 4.520224087301573657e-01 -7.905754346962020618e-01
2.389359371547135347e-02 1.931395714975985556e-01 -7.707960455318688675e-01 -9.639124478499174753e-01 2.552032869607551158e-01 -7.578967742645911776e-02
6.543372089539044312e-02 1.026408733328335460e-01 -8.814280146241425529e-01 -1.851905835918482846e-01 -7.000393402915474628e-01 6.896733790665590114e-01
2.814550719187742037e-02 2.157133049855194940e-01 -7.566351119382398460e-01 9.140190738824944816e-01 -3.213157299946594048e-01 -2.476395247875153860e-01
9.469694161091503706e-03 -1.306935314413346094e-01 -9.836331606592971788e-01 7.318759691892909869e-01 -2.175687884536638417e-01 6.457719318877533921e-01
5.713007614063823209e-02 3.255226682666273463e-02 -9.236918738952687447e-01 8.668620499636290333e-01 2.802709044020919998e-02 -4.977596493633361652e-01
5.029363562321048642e-02 2.153901555944816304e-01 -7.487756236770829465e-01 -4.576269671678290796e-01 5.833347350084923111e-01 6.710425812520000033e-01
-4.680891513088396294e-02 1.841326125865263841e-01 -8.456969356870104315e-01 7.100587923832807347e-01 -6.766400992619343580e-01 1.948709507084025183e-01
3.354846559082616531e-02 1.941725633654560121e-02 -8.976017558918492067e-01 -6.536484676836463725e-01 6.044323253070800206e-01 -4.554176597571703011e-01
-4.971562396379164417e-03 -5.261357563639528639e-03 -8.995673754754689444e-01 -3.305065033872832680e-01 -3.347258927777681525e-01 8.824534140241272473e-01
1.328796491126066522e-02 -2.449241109304947650e-02 -9.163177634347525746e-01 8.586609062935028902e-01 -3.737089758456964561e-01 3.507749269482942633e-01
6.734569206278588627e-02 1.222413093604325929e-01 -8.107924695987953623e-01 5.552238210226355664e-01 -6.013181460702513581e-01 5.745807130209474867e-01
2.194938840502705032e-02 1.627240371384054973e-01 -7.800460071152968133e-01 7.445834589050619456e-01 4.417887843399027070e-01 -5.004179680591464008e-01
5.409720002705017440e-03 -1.824240342373565082e-01 -1.005515290149992635e+00 -6.919545905078693382e-01 -3.697892437311260383e-01 6.200441596336899730e-01
6.071961594908092952e-02 3.513415509045892532e-02 -9.192806229077338243e-01 -9.135533630426404539e-01 3.871094598527907715e-01 -1.247658565712690959e-01
3.887751050370915479e-02 6.079375600828591450e-03 -9.298358149646788195e-01 6.166669620621648695e-01 -5.896279037223171038e-01 5.215944718390393975e-01
-2.927998521141193800e-02 1.956286255632183613e-01 -8.277168870729710859e-01 -8.133660444620818275e-01 2.914848796160920408e-01 5.034602692083052222e-01
-3.904485889752589561e-02 -7.577691656068233361e-02 -9.277630458830610216e-01 2.659849194842595632e-01 -5.175788569028982877e-01 8.132429830585941044e-01
2.148656028955091626e-02 4.420877122647335483e-02 -8.609633672121143055e-01 2.915060930728105015e-01 -7.264561641654543322e-01 6.223227773811916830e-01
1.631015998833879044e-02 3.596356278330254536e-02 -8.674816024177075535e-01 -1.993433176022610109e-01 -6.131497603497381155e-01 7.644014737756480438e-01
-1.414761424976265433e-02 1.905933652027844705e-01 -8.074065774730887490e-01 -7.080616023829936490e-01 -4.964800585087553869e-02 7.044031819532466931e-01
-2.432990865851933360e-02 1.961619752885725987e-01 -8.197969840218055637e-01 -8.471725232038814779e-01 2.678689844492214076e-02 5.306422316401798733e-01
4.551756468010226958e-02 7.283149613491192442e-02 -8.462694841270501644e-01 -6.651970025105219397e-01 6.277118018462470861e-01 -4.043400075109490621e-01
-6.533346165825707104e-03 3.419717792389160432e-02 -8.823405997071864793e-01 3.777861452872671721e-01 4.726715554988168977e-01 -7.961527674079370565e-01
2.309546684465048350e-02 1.282214104604873211e-03 -9.063573982667717521e-01 9.530796028756971516e-01 -2.170379987903119368e-01 2.110302766510059325e-01
1.236522366650381205e-02 -1.542303262091787308e-01 -1.003102436584513146e+00 9.472225096522720600e-01 -1.982608223801559932e-01 2.519169774294608422e-01
-4.278610449616946504e-02 7.089827614348637175e-02 -8.746176484438170640e-01 6.144159642671677413e-02 -4.101489889966106195e-01 9.099465572513556477e-01
7.010800391345793636e-03 -1.228383176944131431e-03 -8.913829039442169311e-01 1.856251318681463869e-01 4.551376482869249340e-01 -8.708576413690016782e-01
-6.146827159304335542e-02 6.160201149480479255e-02 -8.780930506327807583e-01 -4.229144633931196384e-02 -5.785182993432711474e-01 8.145722870878302491e-01
7.670982034475305744e-02 1.253110383104800440e-01 -8.526995719202975499e-01 -9.521644020411472731e-01 -5.484867754499549164e-02 3.006236418799919652e-01
3.751102518446772921e-02 2.249907545217570692e-01 -7.395130167134933430e-01 -9.859627543312835529e-01 1.374695828237582906e-01 -9.476054489992598306e-02
3.494816728103342790e-02 2.148973873302080784e-01 -7.567404041396794678e-01 8.360301216942703784e-01 -9.532161305481171021e-02 5.403401018844449233e-01
-3.362458806128652833e-02 -2.945056778848384460e-02 -9.084287498759558988e-01 4.021159917767994085e-01 -3.323769312419127542e-01 8.531285393981200560e-01
3.807965345449457195e-02 -1.666978700746775399e-02 -9.520207967498020007e-01 9.215119257605083325e-01 -2.841961046738064600e-01 -2.646664783636081264e-01
1.750448473646480652e-02 3.832454083720277654e-02 -8.654409312335867854e-01 -2.955102503499052458e-01 -4.297008701081008741e-01 8.532472409369263877e-01
3.966774361999397119e-02 4.585914293336053327e-02 -8.732355603556998247e-01 -4.111139744706113763e-01 4.809595205101482307e-01 -7.743792608442106040e-01
-4.280876185130795542e-02 1.083753724971547178e-01 -8.446156785800074118e-01 1.876506203157195518e-01 2.704873728242077058e-01 -9.442583469780839733e-01
3.031296113411685242e-02 -2.994224864066363095e-02 -9.645134981963670029e-01 -1.587459260290999263e-01 -4.102591397712639920e-01 8.980463068257148462e-01
4.920963376726356087e-02 5.649176816703540410e-02 -8.849542581893720117e-01 9.218549961431666828e-01 -3.734748014731298915e-01 -1.034405082667732428e-01
7.032072247989067104e-03 -1.021168107169957845e-01 -9.665867228628074459e-01 9.418572535552833802e-01 7.886887622799257369e-02 3.266261077866135509e-01
-2.267942956373698166e-02 -7.798465676632288478e-03 -9.033908796159954013e-01 1.058852277070740505e-01 -5.270658967963570696e-01 8.432021459814206255e-01
6.688930584601033430e-03 2.255158358476814229e-01 -7.820326616019711574e-01 6.124443979745938238e-01 1.635293316997933899e-01 -7.734145182651773753e-01
1.197774791182531183e-02 -2.388738868178820196e-01 -1.023103714663928132e+00 -2.419103912718686966e-01 8.964990186663477356e-01 -3.711722943930038099e-01
5.657167963265301996e-02 7.097638583670838608e-02 -8.948389402134966364e-01 8.088290709582824922e-01 -3.777846611455873971e-01 4.506376413215784082e-01
5.886180158304026543e-03 2.182422112898620981e-01 -7.852865690402056620e-01 -6.781371183567914684e-01 -8.155877500073559216e-02 7.303959302509334117e-01
7.452784540889559328e-02 1.226406557821489857e-01 -8.176266453381783039e-01 -8.261955613783411589e-01 4.501813243606593296e-01 -3.387294931883118032e-01
-1.232983628392030594e-02 -1.152477879892546686e-01 -9.629298955922103165e-01 2.208672076740037238e-01 -5.748626113858720243e-01 7.878773093603500532e-01
-2.106597692715764247e-02 7.354231324305393613e-02 -8.621086715466549366e-01 3.460384552996232377e-01 4.817804344121430771e-01 -8.050745310041161895e-01
-2.977706014666729045e-02 1.809115118062228356e-01 -8.266081036080813460e-01 -5.208832567185358586e-01 -2.470936292136854118e-01 8.170834542886680207e-01
1.667346369917874910e-02 -2.367111392642393397e-01 -1.027167728081889608e+00 -8.203159700799554921e-01 -1.469641513287064383e-01 5.527053893857148958e-01
-2.516937640622739572e-02 2.038868880748453682e-01 -8.229468960414317857e-01 8.048041822943383661e-01 -4.950585950423462278e-01 -3.274251298178555980e-01
-1.176454812318164858e-02 2.156821320194855507e-01 -8.042612468991460206e-01 7.655673304310582905e-01 -3.543212555001755693e-01 -5.369945162452240961e-01
-7.599675381492138060e-02 8.911401481824737791e-02 -8.598224926259331324e-01 -4.207894388002736963e-01 -5.753338712093644114e-01 7.013752097368406435e-01
-6.372745176314500992e-02 1.389893611121412742e-01 -8.437318132238607049e-01 -1.720579426011970559e-01 -1.211665720709302618e-01 -9.776066316266597278e-01
-3.260525941589010462e-02 9.634800697360926258e-02 -8.491938098193682061e-01 1.090237869681185551e-01 7.053503249405184139e-01 -7.004246804485373401e-01
-8.773670360663160485e-04 9.170378597893215356e-02 -8.455066198145935186e-01 -2.617251382147572566e-02 -6.692424077662042503e-01 7.425830587668683647e-01
5.148202096299026032e-02 1.026745758206700776e-01 -8.161838995719503664e-01 -3.880654839997825789e-01 8.547680381722868592e-01 -3.446400746389117198e-01
3.352443302619295684e-02 -1.269405023404972114e-03 -9.335702454090171187e-01 6.346109261245573840e-01 -6.320434590083422455e-01 4.447359198087127430e-01
2.198850458934923507e-02 1.896946414493296817e-01 -7.700772820242974825e-01 9.751776173270738646e-01 -1.091799472618903699e-01 -1.926352869548622893e-01
5.318916525189275324e-02 1.302318732438990379e-01 -7.919458995853343453e-01 -2.743086341117670357e-01 5.455446012591169680e-01 -7.919191002171672711e-01
-4.146119160376190993e-02 -1.749581791224711150e-02 -8.978204346063569652e-01 -4.200870290243597371e-01 3.371883709562341069e-01 -8.425146233374040117e-01
4.273056970844420210e-02 6.304347197278799275e-02 -8.635430729833850627e-01 5.898521488188898099e-01 -6.467348011135720665e-01 4.835375265295619451e-01
-5.668180015018414730e-02 -8.264977963413508433e-02 -9.282856555352474448e-01 -1.837474012716336369e-01 -6.942508489067472643e-01 6.958826419146996178e-01
3.021921321156625234e-02 4.704843292611216726e-02 -8.614989377813714322e-01 -7.051349584336816800e-01 6.073864814976945858e-01 -3.658775102251859979e-01
-4.275034360301824959e-02 -1.609233993673915217e-02 -8.966055595479128781e-01 -4.863844050213748660e-01 2.097636832326914280e-02 -8.734931038788856794e-01
7.403049345395840142e-02 1.433820233124205035e-01 -7.852329526309079766e-01 2.794404436061431740e-01 -8.429504903171525232e-01 4.597254717233687504e-01
1.554942575398770600e-02 1.631092993801109281e-01 -7.893153354809091526e-01 -5.087200137572803760e-01 -2.277310083916052330e-01 8.302665448033752504e-01
2.691831116925990156e-02 2.048532214488395231e-01 -7.636868977673419989e-01 -9.827774454097960577e-01 -1.538477248517860184e-02 1.841515722696251411e-01
-3.217952354807781384e-02 -1.203135820836401110e-01 -9.594136907041637130e-01 1.196472352456781352e-01 6.519411652977922245e-01 -7.487704962725376667e-01
-3.636331078604074230e-02 1.911130957587344470e-01 -8.325205931451149510e-01 7.177293888215106055e-01 -3.166729284116835408e-01 -6.201473863792941188e-01
-4.835317098728890081e-03 1.881503974890017250e-01 -7.956849313770766319e-01 6.700353885175837076e-01 4.582496269053338289e-01 -5.840033027091652285e-01
-5.552913586452538214e-02 4.703123114091662684e-04 -8.694541548614748150e-01 7.060938455928037483e-01 -4.320534419861319919e-01 5.610359208499061667e-01
-3.280970397955795120e-02 -1.420373924989717651e-01 -9.818851730677287115e-01 -3.192045608226541376e-01 -6.160516300038054727e-01 7.201311252262818652e-01
-2.211869100677267899e-02 1.991215618385068220e-01 -8.146958777585635580e-01 7.306046893043594004e-01 7.609387699321934484e-02 -6.785473526959053814e-01
7.381282929835418505e-02 1.115194021861835444e-01 -8.395737928509029446e-01 -8.470707232103107387e-01 4.680917357387763822e-01 -2.517167392388133806e-01
1.638914593692884433e-02 1.401065093084531421e-01 -8.044927127177563531e-01 7.928961626448297606e-01 5.073790282940996432e-01 -3.374643639118641292e-01
1.327053780011651710e-02 -1.493963203269268458e-01 -1.003032953367464231e+00 9.628388802099875354e-01 -1.840793464326231366e-01 1.976261242167033638e-01
4.543625776065988997e-02 1.874317045512040869e-01 -7.505066524669967709e-01 -5.421252298977191630e-01 -3.264099962780140363e-01 7.743104993722684792e-01
2.444247694900247500e-02 -1.310286891269431264e-02 -9.342303209535978148e-01 7.698010769077696658e-01 -4.507509327121759779e-01 4.519180220468549947e-01
-2.963366532527364830e-02 1.828881660196605974e-01 -8.262688091855849848e-01 -6.918673901155415473e-01 -5.123432264184860085e-02 7.202045255884887975e-01
3.425268270086063993e-02 8.622267445236873884e-02 -8.271347240938549117e-01 -6.330101871958759840e-02 6.574253178519700036e-01 -7.508561330083804997e-01
1.971235081589878604e-02 -1.434261374246941639e-02 -9.106537665379711433e-01 -8.553323742031779808e-01 5.050595788881985237e-01 -1.154181589405675612e-01
4.253714118905835284e-03 6.839853410284482682e-02 -8.576711411937821827e-01 1.845210310407757737e-01 4.844739065044642579e-01 -8.551239810810785658e-01
-2.738096969115257073e-02 -1.491202203661703141e-01 -9.833605565409494487e-01 1.353792048254557623e-01 6.185093112886236311e-01 -7.740275852643108134e-01
-3.965716222260640828e-02 -1.280282256026843701e-01 -9.688760034320762493e-01 2.826977878704170499e-01 8.025659393124117136e-01 -5.253283485485615856e-01
-6.745194230285639012e-03 -6.508307450632688784e-02 -9.334593008623003341e-01 7.781836013401028929e-01 -3.599440248973449497e-01 5.146557893835910225e-01
-3.558003475250371556e-02 -8.004840508235065710e-02 -9.294873515598325309e-01 -9.213475914870961070e-02 4.630123934670690722e-01 -8.815501742116017558e-01
2.701762386996743245e-02 -2.945011266893838783e-02 -9.511023976803778535e-01 -7.283687493525922152e-01 6.559113731383832135e-01 1.981394346268842421e-01
4.520541672039699033e-02 8.866479046996210769e-03 -9.443616588141366952e-01 6.406957772960574227e-01 -5.631898150208263232e-01 5.218487838558294456e-01
-6.939968059148537982e-02 1.287613210743117909e-01 -8.444847372065328317e-01 -9.710052046055582531e-02 1.683486378572408571e-01 9.809333438403960992e-01
3.074395142395189295e-02 1.927574912827117737e-01 -7.562678194784320240e-01 4.463364401693054595e-01 2.378607810973871473e-01 -8.626737685780951903e-01
8.529645018067851664e-03 -1.610715397972277696e-01 -9.929413068433035061e-01 -8.173662069842485556e-01 1.754354134661457731e-01 -5.487575961953921055e-01
2.927222306796932461e-02 -1.579800437911681003e-03 -9.284967701199550172e-01 8.374009851517144609e-01 -4.586995485632980318e-01 2.972445360553576110e-01
4.204581949317348633e-02 2.636174550549451670e-02 -9.031793147172219038e-01 -6.604979088998447212e-01 6.434136840846477190e-01 -3.869901077179542792e-01
-2.628896569085910004e-02 8.301404238197701568e-02 -8.606363066881600465e-01 4.432009294618570738e-01 4.550905155751669984e-01 -7.723118274101948844e-01
1.247786007129908503e-02 1.990796183090632054e-01 -7.808199704730307555e-01 -6.672194085247975526e-01 -1.569417392224373431e-01 7.281397883495008827e-01
-4.724098720523436934e-02 -8.634886473851727251e-02 -9.318870388849058717e-01 2.019508792737382541e-01 -5.964569134496369163e-01 7.768236561528595319e-01
-2.008627056117701093e-02 8.622899911238345039e-02 -8.556043995029415372e-01 3.229100252729998344e-01 5.879504384532897587e-01 -7.416491067214839861e-01
-6.674260129806403041e-02 1.042149126362366396e-01 -8.506793426670021807e-01 -2.193490537382280781e-01 6.098441298873267247e-01 -7.615616389144830300e-01
-3.550179928087728726e-02 7.091571717470787628e-02 -8.741714771088315850e-01 -2.913232744825705045e-01 -4.118822933380821838e-01 8.634139946626502304e-01
-3.129415852897608763e-02 1.130993528863785819e-01 -8.414549253256633499e-01 -2.969288943819775040e-01 -9.859929099355756177e-03 9.548486861693072925e-01
2.696563550300269327e-02 7.259021451885866449e-02 -8.373843506325920893e-01 6.900794602367611719e-02 5.728013640965863296e-01 -8.167842436498656822e-01
-5.593466481434314352e-02 1.137550259255071423e-02 -8.593743263837051449e-01 8.158113078707281973e-01 -1.201093167707547732e-01 5.657081066902915900e-01
1.956708750279451126e-02 -2.367110216968132119e-01 -1.025294738891083579e+00 -6.300305851814919089e-01 -4.555805409546013346e-02 7.752328201533409402e-01
1.167051989276854558e-02 5.653390629776046394e-02 -8.565865931356015928e-01 6.842461454597306147e-01 3.647204726237699424e-01 -6.314952013060708413e-01
7.556246344864260556e-02 1.813665425346985272e-01 -7.506256326255296152e-01 8.719510772008298716e-01 7.426236758696906637e-02 4.839281142160375415e-01
-2.507408468178735569e-02 -1.312869876354610943e-01 -9.715855747416661803e-01 8.618519857522216610e-02 -5.421063628326219241e-01 8.358784618130408184e-01
5.862205987368771659e-02 1.502875235179919611e-01 -7.700938942430849421e-01 1.266975388489051391e-01 7.706634725010940157e-01 -6.245202525156295925e-01
1.566673487538422851e-02 7.086681678742456914e-02 -8.448146197025742099e-01 7.284365890118532638e-01 1.601728633920798395e-01 -6.661267068820755366e-01
-1.450886044856495617e-02 -9.898690353827548083e-02 -9.484152512470905849e-01 3.787724469536511984e-01 -5.728453050995421236e-01 7.268973035127838100e-01
-1.150609748787834391e-03 1.598632573226031472e-01 -8.027918915202661987e-01 4.802396529570943096e-01 4.859752036971792255e-01 -7.302040653948284055e-01
-4.060805670845896859e-02 -1.066782342366931496e-04 -8.898719863397152041e-01 -7.606441078632315556e-01 1.903420226041546426e-01 -6.206371368230458874e-01
1.250689272244603391e-02 2.333856973981575378e-01 -7.766714033671233697e-01 8.091806153067058194e-01 1.020326923452121587e-01 -5.786329246635107948e-01
-4.535280431191292261e-02 -1.613853691240607624e-02 -8.966402014883685379e-01 6.245807139791310636e-01 -2.712215198665485771e-01 7.323508850862395780e-01
9.905064714638884410e-03 -1.636352934634849321e-01 -1.000314487493402904e+00 9.377097571967968337e-02 4.789081258345502246e-01 8.728424892970196858e-01
-1.637753960538105430e-02 -1.039859093808512686e-01 -9.515585845215490668e-01 2.114506481468003962e-01 -6.331967186711100481e-01 7.445472039182187141e-01
-5.226471675920264098e-03 -1.290059916633565507e-01 -9.751021083202577877e-01 4.733436593218367516e-01 -4.171811854799643560e-01 7.758257785491177172e-01
4.177946826754201648e-02 1.631533104296249703e-01 -7.652458362220232457e-01 1.573259363464511451e-01 6.165614293129901835e-01 -7.714276075149469891e-01
2.225339557831834680e-02 5.328751975019346138e-02 -8.527394221406541241e-01 1.579888622174006885e-01 7.676250831603241842e-01 -6.211209633544472197e-01
-1.414678677375186613e-02 -3.651166437360341133e-02 -9.129733412219391830e-01 2.513648016427074694e-01 4.913521745027084608e-01 -8.338997404404093761e-01
