5.050262623766264142e-02 2.265107323915979409e-01 -6.943052897672677970e-01 -5.073028350436300515e-01 2.640997314683476982e-02 -8.613630749428946576e-01
-5.426982062573780258e-04 -1.812832381899860956e-01 -8.656516008646101268e-01 -9.934051411777287122e-01 -7.127838262509031408e-02 -8.980878382434462348e-02
-9.830318496458021610e-03 1.208007233389126085e-02 -7.426871468053976022e-01 9.813071020083178331e-01 1.039679763645526105e-03 1.924455523363061138e-01
6.565566828976936685e-03 -8.415853163757794353e-02 -7.483537157052699840e-01 -9.897813915021549391e-01 1.425633210087533520e-01 -2.914882332582933566e-03
1.201629897961405385e-03 -1.045614215376079043e-01 -7.941448536249182677e-01 9.906550384466233927e-01 -1.344043838376478284e-01 2.319604288539596493e-02
6.429679820138367585e-03 1.298634075036518842e-01 -7.023218261184169808e-01 -8.149864092430526563e-01 2.147556480062957351e-01 -5.382166519149247375e-01
8.138909509647651933e-03 1.092025429094967692e-01 -7.854596810717366928e-01 5.757851693513276192e-01 -2.404535838284154944e-02 -8.172473673835259911e-01
-1.050957406525247599e-02 6.800288307172229485e-02 -7.132369420610366051e-01 6.454046224042839786e-01 -3.223898197986793668e-01 6.924721492373240306e-01
-7.472927515379829827e-03 9.514714151897978034e-02 -6.885933827312781252e-01 -8.103681493937495706e-01 1.287029214568330693e-01 -5.716108995257399572e-01
2.534800675995666983e-02 9.193418587254463537e-02 -7.583781845840054103e-01 -9.710334890884814163e-01 2.382520540906253037e-01 1.816374934444177705e-02
1.245030811111380760e-02 4.063249937089065400e-02 -7.592581370496788162e-01 -6.848253160557841168e-01 3.470233045268079630e-01 -6.407722782739506684e-01
5.105255597262932377e-02 2.240523064278983345e-01 -6.974437028870867916e-01 7.157132360853074582e-01 -1.573045500057859425e-01 6.804482656600531199e-01
1.059258079049520715e-04 4.213903958947615852e-02 -7.493577664241733993e-01 7.847056123231128666e-01 -4.178760263878072423e-01 4.578391950881280925e-01
-1.338400728573532240e-03 -1.197875993953052831e-01 -7.782462570179080608e-01 9.555483535818106722e-01 -2.603321475449837941e-01 1.383998443702433578e-01
-7.137450110346767358e-03 -1.479813019768922711e-01 -8.097589030398065768e-01 -9.011788612203356363e-01 3.806177797272184415e-01 -2.073807267928769182e-01
2.882681093142019924e-03 -9.146889968206670107e-02 -7.472096459166706062e-01 9.336692590985384843e-01 -3.346560638050216641e-01 1.275422815105455021e-01
-1.368426664720471565e-02 -1.569590116826796167e-01 -8.070247230247525883e-01 -6.381911799309152311e-01 6.737511562361523376e-01 -3.725203314301570034e-01
-4.785373908750621512e-03 -1.375200733191794256e-01 -8.002723271590040932e-01 -9.313566364799943376e-01 2.959917856010333415e-01 -2.120464065750306826e-01
3.208669783459298930e-02 1.481795815906214453e-01 -7.653884378687153545e-01 -8.374316695254440113e-01 9.774758359910594441e-02 5.377300519557777214e-01
8.891053742916186359e-03 2.267396313302764699e-01 -6.735805428137410233e-01 5.027107041032221613e-01 -1.002155643642026889e-01 8.586261052630571600e-01
-1.546178543472051005e-02 6.003614983001748923e-02 -7.075814884304867380e-01 -8.030021876253569113e-01 3.432124119506594906e-01 -4.872296449846841848e-01
2.476681474754442031e-02 9.505029911353445049e-02 -7.526412318373610910e-01 9.854874987197533853e-01 -5.445950878643320697e-02 1.607748480634462462e-01
2.769131994672009885e-03 -1.072709814911682047e-01 -7.828114665975741682e-01 -9.886579844396160555e-01 1.343444096196306503e-01 6.713396612556590815e-02
4.703624774061201095e-04 1.501867779769817390e-01 -6.859610688244758281e-01 -6.449017509158179173e-01 4.137341367770184242e-01 -6.425930249629913105e-01
1.716912366713883170e-02 1.706360196426349451e-01 -6.952465995073180416e-01 7.483305726567996974e-01 -4.004457448803131481e-01 5.288142957923860354e-01
7.703434015672932893e-03 -6.986345760852773201e-02 -7.418851317472353601e-01 -9.966568965470178343e-01 -1.166229180451005404e-02 -8.086421653075763494e-02
1.711727121127501125e-02 1.738509427419222264e-01 -6.896517310222385344e-01 -7.496189692337369426e-01 4.012476372418660175e-01 -5.263760391324526777e-01
7.292682576039876590e-04 -1.414979215485679190e-02 -7.957684909178783794e-01 8.069067877315447834e-01 1.979995954255202584e-01 -5.565048033252635307e-01
1.867140780616181883e-02 1.707011244982574727e-01 -6.974188772921503521e-01 7.016241451085001302e-01 -4.861322607715057864e-01 5.209596760191240739e-01
3.424672301876571182e-03 2.447704398615307628e-02 -7.611160246350889835e-01 -6.357642958090053975e-01 3.294618161072250251e-01 -6.980391621548239778e-01
1.084693583295944647e-02 6.331058161539332430e-02 -7.783477013099763253e-01 -9.400037473787117293e-01 4.670577573790721249e-02 3.379519572760296686e-01
-9.771674716875558206e-03 9.033759654905113012e-02 -6.856326596421015163e-01 -8.915419721573050182e-01 1.520115674458427379e-01 -4.266677808840517172e-01
2.569261964403275061e-02 9.192935161306726999e-02 -7.558742372392208697e-01 -9.948818609257548129e-01 1.008242800843126979e-01 6.674379850379795476e-03
5.530319724965921530e-02 2.168675906202160997e-01 -7.046536635052367270e-01 -8.589054108803247933e-01 3.856171067794120222e-01 -3.370177178125438600e-01
-1.052036603443328409e-02 8.508267329981272775e-02 -6.913225589135040261e-01 8.935223646347068005e-01 -4.019681373936078161e-01 2.000984768005883707e-01
-1.533917485486175486e-02 4.815461981207638104e-02 -8.153280215650396956e-01 -9.372171462321197133e-01 4.472204781255094928e-03 3.487176797825369823e-01
-1.241860515373887155e-02 -1.572401567985909077e-01 -8.135570550464895634e-01 8.258025448975155891e-01 -4.530968867729667782e-01 3.357876829745723435e-01
3.202083092757330302e-02 2.055891691287493050e-01 -6.880920142621942404e-01 3.188042937233752094e-01 -4.348220592214821489e-01 8.421957011989135156e-01
5.744594103779055577e-02 2.423179935423435405e-01 -6.995162838403499173e-01 7.314471283490384668e-01 -2.211519373058441762e-01 6.450402460744733002e-01
9.344680764568078835e-05 -1.198473875220861240e-01 -7.885848431301319961e-01 -9.750151666205300049e-01 2.219497674907950635e-01 9.150167797460771746e-03
-5.522526872489390455e-03 -1.425798190921915842e-01 -8.218825469655562932e-01 -9.770042423230625994e-01 1.870439521901476887e-01 1.023585386366370614e-01
-2.511400367993229642e-03 1.122020927969083759e-01 -7.907787922345004272e-01 6.779621531627566533e-02 -1.046891704766733794e-01 9.921914385710527418e-01
-2.230654282651600359e-03 -1.234391084262835975e-01 -7.885515577150409294e-01 9.848167011694844986e-01 -1.732134507396441703e-01 1.153973918763509521e-02
2.274845499060733876e-03 5.872523166106551756e-02 -7.475156812082494051e-01 9.966569552662648546e-01 -5.540579414661440244e-02 -6.004258067706089164e-02
3.151989815380990597e-03 -2.389783157605194358e-02 -7.879842845138675944e-01 9.861665098983835032e-01 -1.352926333060585351e-01 9.576804335452278327e-02
7.390833073326220394e-03 1.390189765993327109e-01 -7.849937144920100529e-01 -3.738758208665721727e-01 -7.948897242891164727e-02 9.240662172342101188e-01
5.478691394912435161e-03 -1.143869532315092662e-03 -7.924319830169999079e-01 -8.959722616188584565e-01 -1.041885176551014952e-01 4.317157157185967375e-01
-3.044453483163548843e-02 -1.112242516497802675e-01 -8.501213149540963743e-01 2.583604371275414202e-01 -4.975351910934940891e-01 8.280752490871985394e-01
-2.225784292886069313e-02 3.611267899878936594e-02 -7.079782442003185183e-01 9.742101702229422067e-01 1.685583145546999118e-01 -1.500087958376590813e-01
-2.370708881808413632e-02 1.998343154834800184e-01 -6.594951855943842478e-01 -8.812555669166395600e-02 -1.154272563005235702e-01 -9.893990270667935016e-01
-6.127919822361244107e-03 -2.612744469138375027e-03 -7.495878862929460373e-01 -9.635764291624903111e-01 -1.922375816488706701e-01 -1.859171249892210831e-01
1.285293437802195217e-02 3.648436403287196733e-02 -7.676002843338036730e-01 9.624042436638639009e-01 -1.212433675052075055e-01 2.430599054014937477e-01
-3.266798853007449321e-02 -6.900630081207842492e-02 -8.309835109700158817e-01 9.071437474217557417e-01 8.394578038175706802e-02 -4.123631014891018798e-01
6.787008332317065983e-03 1.159376169062194123e-01 -7.159947441270197999e-01 9.700562969830133220e-01 -2.324552274225342996e-01 7.039423220364884881e-02
-1.020733590812608442e-02 -1.531910475813535177e-01 -8.145580329196371316e-01 9.355510352020059983e-01 -3.091954339529743301e-01 1.707115817836814819e-01
-9.894272976048395715e-03 1.681151040060542279e-01 -6.690727265182524475e-01 -4.699015808324228383e-01 2.413868862784343261e-01 -8.490729506137809635e-01
2.804516652074370148e-03 1.002079130745713448e-01 -7.133656831713586222e-01 9.628572395067793721e-01 -7.643610158250357944e-02 2.589661342806309774e-01
3.816880068892117978e-02 1.867751643289476682e-01 -7.025779026939916738e-01 6.572848325674277570e-01 -5.090552097127910569e-01 5.557332474677706413e-01
6.834666096286030022e-03 -6.088366351244509089e-02 -7.277816914824379868e-01 9.819389446475330629e-01 -8.888104261504851944e-02 1.670211640725537960e-01
4.136477833856848320e-04 -2.276912448716527509e-02 -7.318868517928951434e-01 -9.006971734761763937e-01 -2.518073259569038602e-01 3.540306092507536362e-01
-1.453289056961349149e-02 4.616847154369606299e-02 -7.184918747090300872e-01 -7.789599535674700537e-01 2.429031944141425148e-01 -5.781171411414558481e-01
1.413755057931622740e-02 6.927020960780308489e-02 -7.496187980527105887e-01 5.307169674519673919e-01 -3.268249178656841281e-01 7.820006224554275631e-01
2.895806894051694905e-02 1.181620382046361800e-01 -7.457400434266715505e-01 9.305093870617626717e-01 -2.466057620850943266e-01 2.708096724571930625e-01
6.056249911510998979e-02 2.256389111249187673e-01 -7.095236770958727179e-01 -8.763331109859016088e-01 2.326421483794578748e-01 -4.218031642687871674e-01
2.198832986672189221e-03 -8.047737463967635785e-02 -7.292940372575241748e-01 -5.661611760495539603e-01 5.578289332678305623e-01 -6.068676988796323224e-01
3.494784886000480706e-02 1.590674280005502372e-01 -7.617803747438910422e-01 -8.142586353640313135e-01 1.517021807779201370e-01 5.603296557227082086e-01
4.609343917450745703e-02 2.459562925828741586e-01 -6.914879788309956643e-01 4.298467427226443927e-01 1.117503360129323831e-01 8.959596197216307401e-01
-5.897370657687728800e-03 -1.703987969310550021e-01 -8.677720022027575197e-01 7.898153832635150806e-01 3.765473852484031991e-01 -4.841525865085274383e-01
-1.019402224793686251e-02 -1.378487734095272255e-01 -8.398137385383621645e-01 5.598255509750734715e-01 -4.494728303091422572e-01 6.961102838554710237e-01
3.637357107279845948e-03 -2.312099974708118830e-02 -7.742937398760154633e-01 -9.316191110642253470e-01 1.305326496975859618e-01 -3.391858771570976927e-01
1.722956026400333449e-02 -1.006242614557445805e-02 -7.000002684024355659e-01 9.192082411489445049e-01 -3.651883285973060445e-01 1.472877933169269571e-01
6.954574375732333960e-03 2.988497151151338349e-02 -7.602265276585378206e-01 -3.340782654724936962e-01 8.333385068700134568e-02 -9.388541856265893992e-01
-2.249365419739559474e-02 3.600453750647326923e-02 -7.028403927121318340e-01 9.232537241766071157e-01 -2.929964119953586740e-03 3.841796143788489548e-01
-6.719134665079274510e-03 -1.567334448634561395e-01 -8.429820034879537127e-01 9.396377079902982210e-01 -8.003370031299114618e-02 3.326794020328715518e-01
-2.992544570734988890e-02 3.023746602686366164e-02 -8.216771711366350761e-01 9.286642487273176760e-01 -2.859039720532846052e-01 -2.363083407327827845e-01
-2.224247499191576993e-02 5.468037022033657435e-02 -6.840030878428590144e-01 9.855299200154622463e-01 -1.502726356023043885e-01 7.841499692950101852e-02
4.265458930280446176e-02 2.278528509458032925e-01 -6.865247754212329134e-01 -7.354542095158900228e-01 1.183900115461059832e-01 -6.671513403055338021e-01
-8.958495794320812597e-03 1.501794913910244889e-01 -6.793188942216575876e-01 3.907107609702173412e-01 -4.996169664078811135e-01 7.731287008897418378e-01
-1.440097588761237758e-02 1.372555680347934196e-02 -8.059639019266637838e-01 7.906804693942802720e-01 -1.445068604343093810e-01 -5.949303846719040667e-01
-4.521898888017373067e-03 -1.368879384080027573e-01 -8.365003776632509158e-01 -9.696384852970734158e-01 -1.754118288318102792e-01 1.703874940735874144e-01
-8.572373879156724302e-03 -1.492443932496320680e-01 -8.278980152966844974e-01 9.713449227305634981e-01 -2.109464144078225523e-01 -1.095018325601841147e-01
-3.785442154334498713e-03 -3.772613124644107196e-02 -8.013390680272994837e-01 9.889946434874241632e-01 1.461346531563423035e-01 -2.311402820924995938e-02
9.279900765678509092e-03 1.606305675669494615e-01 -6.899717959408953050e-01 -7.001069873305374447e-01 3.622604338152998760e-01 -6.153190915150522633e-01
3.189677179768000970e-02 1.511721931345174907e-01 -7.183298447614286930e-01 -7.523115340104103987e-01 4.059202288385175272e-01 -5.188989531831689206e-01
-2.122818551562670464e-02 4.241510506130526104e-02 -7.059352975100958716e-01 -9.733196992574687512e-01 2.277608899724433422e-01 2.781618299319347024e-02
1.697263471178167733e-03 1.948837717754466070e-02 -7.902956209991249814e-01 -4.004374942368553736e-01 -2.389051599049456798e-01 8.846322048060993870e-01
-3.014656221974859954e-02 -5.994750654574858284e-02 -8.287034759944694740e-01 5.726606834550457270e-01 -7.146003735567527104e-02 -8.166720300622063444e-01
3.302330593764687180e-03 1.252686781362576662e-01 -6.993275381632171328e-01 -7.989028563778346470e-01 1.179953677979657251e-01 -5.897722604951503023e-01
4.907603893107249579e-03 -7.093460973716972373e-02 -7.935806045132498543e-01 -9.949810172032201860e-01 -9.985288309119937089e-02 6.494393244974886945e-03
1.844379534693708304e-03 -2.187257893573000822e-01 -8.998171298196004919e-01 1.193845829400466962e-01 -6.146825874414770796e-01 7.796875259053985818e-01
-2.305952383472005540e-02 4.756926612497450885e-02 -6.812909403219550297e-01 9.895633445000893147e-01 -8.430262555776525668e-02 1.168651126122097206e-01
8.632630033439956177e-04 3.525404167057104299e-02 -7.559988241315400703e-01 9.806247427070367007e-01 -1.473314279540035854e-01 1.291067942743226171e-01
8.160354252474941866e-03 -5.456080030439137973e-02 -7.380782555682375845e-01 -9.021892980292476327e-01 -2.828588394877212808e-01 3.256460462605875739e-01
-1.233430238475958021e-02 -1.272214434189185284e-01 -8.508046340808146368e-01 6.651581358839440128e-01 3.055203424104790955e-01 -6.813383701515571822e-01
-4.323328989770504685e-04 1.920811756109218685e-02 -7.916647620828526355e-01 -4.887033324054454453e-01 -1.100492028739436384e-01 8.654814994225019653e-01
3.601161926038307787e-02 1.555482293926882809e-01 -7.593443391559676625e-01 -9.680797207388559533e-01 5.413133638549583182e-02 2.447273027581902405e-01
-4.029520746964955491e-02 1.773058309129535715e-01 -6.582854764822440030e-01 2.496303174104953781e-01 -2.220737491970305455e-01 -9.425327339393099191e-01
3.276606844032053933e-02 1.346788054448592731e-01 -7.606918565110283303e-01 -8.686138500059301659e-01 4.834435388812460127e-02 4.931255448919832363e-01
-2.210823043026437229e-02 3.496924757367413095e-02 -7.141251724719636096e-01 -9.314783466250484700e-01 2.830649111613634528e-01 2.285220904811507137e-01
2.517029201344597039e-02 2.451885419460203830e-01 -6.750583292300189608e-01 -1.377993839558613876e-01 1.246157613132726633e-01 -9.825895591821125485e-01
4.587438336318043486e-02 1.769418204242849679e-01 -7.432932923151723825e-01 -9.364566389693528281e-01 3.346595283430881529e-01 1.051283188270629859e-01
2.828886373413038845e-03 -9.758544092210061360e-02 -8.014460246825745315e-01 -9.542305144652212245e-01 2.764692457082628674e-01 1.140564835550492012e-01
-8.241937861491211229e-03 7.355011279840302507e-02 -7.144471555342762903e-01 8.055388854476958072e-01 -2.045181541514180801e-01 5.561289676452584319e-01
1.322984170236992177e-03 -1.125105030539551160e-01 -7.683504335035996613e-01 -9.958949576839292162e-01 3.976316278724997128e-02 8.131496876270280505e-02
9.598359334571381768e-03 -1.402093400708896709e-02 -7.177509818505612982e-01 -7.469228794103400793e-01 -1.154576576869603133e-01 6.548096986871890790e-01
-3.053743144421952257e-02 -1.229445112810626239e-01 -8.557211331867132786e-01 2.494916214593742299e-01 -1.341988369723561836e-01 9.590331605199264864e-01
-2.245521272690696388e-02 7.853990352902327776e-02 -6.607246345013958466e-01 9.964743011476181467e-01 -5.269154187690641700e-02 -6.528834939711668228e-02
-4.899306123452658313e-02 1.583093414756391870e-01 -6.588992409109433179e-01 -8.705987062670818011e-01 9.380502232851101185e-02 4.829684362689043442e-01
3.597101929946655563e-02 1.367907615873235339e-01 -7.444557957124582348e-01 -9.276847377417539731e-01 2.989926755533540703e-01 -2.236166526143784083e-01
-2.715881555530783985e-03 1.149766487629021172e-01 -6.978009647702140272e-01 7.697746700858155711e-01 -2.577974845471268650e-01 5.839412763758419223e-01
1.089248580117966464e-02 -4.535331425670149214e-02 -7.148720062188079760e-01 -8.609596181748695454e-01 4.329667205539248220e-01 -2.669987916919515092e-01
1.037049973805303019e-02 4.100348618708941212e-02 -7.592036436168889679e-01 9.230504401451705698e-01 -3.403614227389292757e-01 1.792539730631901029e-01
4.768358863746040982e-02 2.087685508093815867e-01 -6.975677506552965257e-01 -7.532205737410828661e-01 3.449286288273084033e-01 -5.600741096573440547e-01
-6.423916852192110283e-03 1.493861115052010254e-02 -7.525880091212995282e-01 9.247140130400032243e-01 -1.655621372138614544e-01 3.427727713932816611e-01
1.148570520413597432e-02 1.098912073072875056e-01 -7.286673424011528288e-01 -2.791973845385813113e-02 -3.538692157424246365e-01 9.348781024040028198e-01
4.670148421499055111e-03 -2.039112256647747368e-01 -8.814785063532677434e-01 -7.969779526642729595e-01 -4.637425481894119073e-01 3.869999896199671219e-01
-5.634470058504393100e-03 -1.350076226565561366e-01 -8.213994137659034189e-01 9.784885338966405888e-01 -7.178094795818650009e-02 -1.934106629506934238e-01
3.765633531077588331e-02 2.482952509628333360e-01 -6.893842957088496259e-01 1.602147997917765243e-01 4.838255383089050676e-01 8.603743757270896353e-01
3.826631316196545812e-02 2.063341380171040129e-01 -6.917663535816097609e-01 6.666953400993733680e-01 -2.751585904149616568e-01 6.926796327384198149e-01
-3.025835032913354317e-02 3.377457667089919097e-02 -6.747401717550202127e-01 8.463182336667168792e-01 -2.626769673555582885e-01 4.634072271600164217e-01
-3.900194200793857292e-03 -1.316403115487412290e-01 -8.221224905662738447e-01 -9.981915187606881235e-01 5.772199360689828085e-02 -1.678878578921173120e-02
-1.205350701899218259e-02 1.043853379687663743e-02 -8.028497150727101905e-01 8.483324622142399685e-01 2.282801247170036518e-01 -4.777239979451674001e-01
-2.350113301358123727e-02 -2.506490496067153174e-03 -8.237565487782079199e-01 -9.989109945893708264e-01 -2.082601069743580599e-02 4.175047505004336745e-02
7.430261890608455544e-03 1.183961850716030439e-01 -7.082005663492528802e-01 -9.372684756429442432e-01 9.289612252351724109e-02 -3.360031472859248414e-01
-1.654748614344123819e-02 9.525406459957701244e-02 -6.737493655742805565e-01 -8.237196342457607789e-01 -2.849168093502441601e-01 -4.902125823637196733e-01
-2.463260256253254829e-02 -8.822048579335141361e-02 -8.351188199399106615e-01 -3.690636702376340339e-01 -5.361097310347636702e-01 7.591958664274721658e-01
-3.671510068631543555e-02 1.481965187234294268e-01 -6.604861225900824362e-01 6.329433386607212775e-01 -1.131975450962520030e-01 7.658779575292666841e-01
-1.822762462669051328e-02 1.578173305453654252e-01 -6.679993616995677508e-01 -4.335016683606925936e-01 3.499552422229407767e-01 -8.304261749061013775e-01
-1.591727197345328042e-03 2.126035711251756666e-01 -6.660056225438331090e-01 -4.634232158565027571e-01 -1.067683882547921376e-01 -8.796814390872931266e-01
4.927317076808950327e-03 -1.563034502040350562e-02 -7.788746569764714023e-01 -7.254041063587324256e-01 -2.284183528844695998e-01 6.493180565358048772e-01
8.774242073128405914e-03 7.604410618355868234e-02 -7.825433691217138499e-01 9.267525507360339088e-01 -3.493773986706352752e-02 -3.740442006464423375e-01
-1.844739502684836566e-02 4.327185045049471851e-02 -7.164404242821543756e-01 8.081180389659564645e-01 -4.461258634357317399e-01 3.845997257819347981e-01
-3.599232242361467826e-02 1.303040523846028254e-01 -6.622148632829925052e-01 7.355813865380899097e-01 2.507044906506949999e-01 6.293387658060455303e-01
-3.575043767337721871e-04 -9.307919379592458076e-02 -8.085934243202697047e-01 9.179048833848552080e-01 -2.932786846918970791e-02 -3.957151768498262667e-01
-4.603033122948085171e-04 -8.771860347427699878e-02 -8.073747988830860534e-01 5.737492338047938123e-01 2.236775159687010017e-01 -7.878960499700984332e-01
-4.063651930614033472e-03 -1.772462071030582453e-01 -8.687234391784491860e-01 8.110172992884501220e-01 1.707658268190409556e-02 5.847728880332743184e-01
-1.839363472474270580e-02 -1.030626686360701649e-01 -8.389457036423481062e-01 4.580533265926995945e-01 4.608236476511916035e-01 -7.601504560038176983e-01
1.929130125639966567e-02 2.020348366791272499e-01 -6.829367969933939353e-01 5.086785906395571155e-01 -3.276446637879653068e-01 7.961752732383898801e-01
1.343722807626102252e-02 -3.742192397856872969e-03 -7.078176606604125176e-01 7.940813589287243346e-01 1.962820004775215066e-01 -5.752461835514014465e-01
3.919777277811414135e-02 2.458708864826179286e-01 -6.731172718832708624e-01 -5.619511941855437342e-01 6.506280368761023780e-01 -5.107778509138686251e-01
-1.790803478219685219e-02 2.157097123328897414e-01 -6.622027008301355488e-01 -9.618936649185504117e-02 1.825321072467761818e-01 9.784833343485963564e-01
2.557139743607151055e-03 -1.068163760741445284e-01 -7.776564328817828775e-01 -9.872699915111601277e-01 1.001730087894586035e-01 -1.235448589445172357e-01
1.211039877266612864e-02 2.669765613689986314e-02 -7.768774273580485445e-01 -8.826238699202266780e-01 8.287676002406739462e-02 4.627164865173444275e-01
-3.006374087084276447e-03 -1.181534475471666817e-01 -7.644746340397576834e-01 -5.525941074267159969e-01 6.005176714481309519e-01 -5.779431448817312633e-01
1.784605634376153910e-02 1.615223170773416039e-01 -7.746520586029651545e-01 4.320501530804964352e-01 1.230116809395674499e-01 -8.934208367704110643e-01
2.554397477555150897e-02 1.606627064936657912e-01 -7.059149913932797338e-01 -3.140991323185580719e-01 4.525817122873241893e-01 -8.345726623726675841e-01
1.997986313137759418e-03 5.258671086053149507e-02 -7.483662656066751850e-01 6.462803545170757724e-01 2.993649444345408139e-01 -7.019275841630581159e-01
5.080234355614283992e-03 1.421318750283279142e-01 -7.828532539022110548e-01 2.274995516646329680e-02 2.979722465573030332e-01 -9.543034002986249265e-01
-2.665160673267939762e-02 -1.162842836656506895e-01 -8.528455278551072549e-01 -2.809929956775629734e-01 -5.262224300651386910e-01 8.025788998450490430e-01
1.520823971904078885e-02 2.733327589497920010e-04 -7.050478880817964145e-01 3.499929099651635234e-01 -7.051147369311039359e-01 -6.166994168447842428e-01
2.265614868982944300e-04 -6.461059699132497280e-02 -7.783789845469943902e-01 9.924908635158947723e-01 -3.572725675292544659e-03 1.222665999720375096e-01
3.830586945051066023e-03 -8.497904718789246747e-02 -7.992594990771511032e-01 -9.952358896335210536e-01 8.779968536063216533e-02 4.238796097888879871e-02
6.039234027583551857e-03 -6.620567694805233605e-02 -7.307167851713137763e-01 9.798207628743307307e-01 -1.660896675031624525e-01 1.112002472526630314e-01
2.018398570736524775e-02 1.270203239228145375e-01 -7.744667316389211020e-01 7.775687040675387518e-01 -8.412779020448428458e-02 -6.231447868433455106e-01
-3.456080821931108854e-02 -2.948969492907473414e-02 -8.321548470196403757e-01 8.530449927130884236e-01 -6.944847366990479498e-02 5.171954658657085258e-01
-3.857950071724499785e-03 2.397133780605111009e-01 -6.635938647994010786e-01 -3.180155994557721244e-01 -1.397417191382351910e-02 -9.479824898288516932e-01
3.896847706761573035e-03 -8.712869865145095316e-02 -7.442938119403198494e-01 9.365889168753458449e-01 -2.903066785863057664e-01 1.962733633340335015e-01
-1.617328292948171445e-02 5.628395916527600962e-02 -7.124342563508243575e-01 9.076520689713732937e-01 -3.232752457842882343e-01 2.676954186292572757e-01
2.340962414136164415e-03 1.915385370506692275e-01 -6.729155037849195997e-01 5.493124343772564089e-01 -1.254707967966936233e-01 8.261434067943260739e-01
2.279216722601793647e-03 -1.077658792102402924e-01 -7.762107846487521501e-01 -9.905825717865385238e-01 1.368883236082671928e-01 -2.784839759385568641e-03
3.841295825907144884e-02 1.653542116212280422e-01 -7.162450630698535825e-01 -7.032997491046134586e-01 4.581214974832628073e-01 -5.435937421025748284e-01
-2.397504701843396896e-02 3.442567584878209602e-02 -7.159793341871574235e-01 9.680772684453219368e-01 -2.111461237215958298e-01 1.350693035326252789e-01
-1.707767659669530164e-03 -1.009241101861915180e-01 -8.124611418005710517e-01 9.035113076971478252e-01 9.123976984643897455e-04 -4.285632793343703839e-01
1.184449323420606881e-02 1.457290972868605650e-01 -7.817245961267954568e-01 -3.025833932014528327e-01 -9.893944000199182687e-02 9.479737746218442895e-01
9.902805149087775746e-03 5.215844186310929220e-02 -7.814824811227514267e-01 -8.433925494761863595e-01 1.848339012152012614e-02 5.369798616127740010e-01
4.815194242301464034e-02 2.102569344067417023e-01 -6.998404137583106310e-01 7.027187199167623799e-01 -2.001540596133038752e-01 6.827332957303758887e-01
2.997687965489697921e-03 -6.657944424090365965e-02 -7.940368483799110644e-01 9.769454290235739524e-01 1.092164876855053618e-01 -1.834376938570331239e-01
-2.800051297495573938e-02 2.154899249161817271e-02 -8.244600329222407931e-01 -6.404140301771784616e-01 2.692768898815343093e-01 -7.192772946005953072e-01
1.595323509158196734e-02 1.538147939696928590e-01 -7.787386178442312623e-01 -3.434506804355365595e-01 -3.434887313922179719e-01 8.741036102859497392e-01
-4.640376152891039982e-03 -7.085549633506342537e-02 -8.161900116649828396e-01 -4.223867204812449816e-01 -1.479459447719979615e-01 -8.942602841380240530e-01
3.174834623981304203e-03 1.502042809295872083e-01 -6.891293471873557452e-01 -6.913222511351448940e-01 4.600277378587201427e-01 -5.571786297822487466e-01
-2.232965142877383832e-02 5.459449133672372029e-02 -6.634212835252748519e-01 -8.996073528685782916e-01 3.174906298628947243e-01 -2.998438103647484421e-01
-3.882581375295762749e-03 3.367081348298485433e-02 -7.987524031091161048e-01 -8.105574244426522190e-01 -1.481918109390167881e-02 5.854716505114488934e-01
9.448273433660536388e-03 1.438395584029578955e-01 -7.065946006915162503e-01 8.461244389006530309e-01 -3.703779380812060595e-01 3.832670307732836124e-01
-1.751302568632079684e-02 5.778372031723871816e-02 -7.086897088566910252e-01 8.296193875985923283e-01 -4.115606644761538591e-01 3.772923152894624432e-01
1.175518172690480367e-03 -1.051692996100166283e-01 -8.104867534963172693e-01 -9.179985927383564892e-01 3.742440284237937530e-03 3.965659817371078311e-01
-7.508005000898913643e-03 -1.374262125489638109e-01 -8.360941627531355280e-01 4.310835576970679650e-01 4.503325030083107916e-01 -7.818999955349202891e-01
1.453334499072526063e-02 1.014157160681588982e-01 -7.806278107526533061e-01 -8.861768541393567622e-01 2.251379806228670510e-01 4.049734224226707036e-01
3.124364363425777887e-03 -2.046058803278216764e-01 -8.851571160415833139e-01 -8.108630754133876462e-01 1.675242586577813941e-01 -5.607465521002366060e-01
3.906568256005583245e-02 2.548244796728666439e-01 -6.918458768951746274e-01 -8.000779317312536887e-02 -5.914621778906961058e-01 -8.023535661766331151e-01
2.352193963255517269e-03 -8.444811701856881625e-02 -7.671496960952622901e-01 9.930235098704222052e-01 -1.146349422973507309e-01 -2.762496785718486156e-02
8.094398304591059884e-03 9.744147107132403174e-02 -7.871162747122847358e-01 -7.039417723613468070e-01 -1.054410473407516452e-01 7.023874761557548085e-01
-5.258689684693089103e-03 -1.912540559720741773e-01 -8.569072816135404613e-01 3.888992182345380466e-01 8.613369615006893909e-01 -3.268884164502083300e-01
-1.483689411929883621e-02 -7.532559274442496289e-02 -8.240886014577135654e-01 2.272819482774600941e-01 8.761869637663736998e-02 -9.698793120963353775e-01
-9.184398579327080966e-03 -1.178682390719304057e-01 -8.444132836972128020e-01 -6.234620690176928548e-01 -3.620225670109382121e-01 6.929896892963041122e-01
3.561384216389876928e-02 2.295345557659958791e-01 -6.784914167283986330e-01 -8.200088784117295360e-01 -2.479757962463303034e-03 -5.723454290255008958e-01
7.373436303639017064e-04 1.393744311946758796e-01 -6.949066514189832233e-01 6.063521090782584277e-01 -3.941293201341519725e-01 6.906512859808043858e-01
2.012676757536529040e-02 1.121245593602485380e-01 -7.292581228598363774e-01 -6.346542320509592772e-01 1.681819142748250950e-01 -7.542737231606720938e-01
1.879078638661658670e-03 -1.066780721952079181e-01 -7.612288086079332938e-01 -9.185138499267860857e-01 2.840502912346044018e-01 -2.750413415147069940e-01
1.387003048083308536e-02 1.734300059507617453e-01 -6.887020170330773183e-01 5.971936213880851829e-01 -4.195548507232676472e-01 6.836179531053589997e-01
-2.904408510431652924e-04 -9.565335354697702963e-02 -8.083167241696793681e-01 9.413772224868901528e-01 8.280088071008905037e-02 -3.270366021357571373e-01
2.039579918116067939e-02 2.151880460969100572e-01 -6.781424856092144182e-01 -5.885072940797477781e-01 3.357762125613163451e-01 -7.354682181392412366e-01
-1.885603497841066914e-02 -9.906940155145409904e-03 -8.105146146869324220e-01 7.640415366403612296e-01 6.684842637389575015e-02 -6.416944897531606795e-01
4.457246756921424968e-02 1.783494606847902952e-01 -7.428473889677398301e-01 9.265616398582608992e-01 -3.729896660677541886e-01 -4.860284507963917588e-02
-9.927800316080859916e-03 1.788537332005548375e-01 -6.687689556950254799e-01 5.548619651822398469e-01 -1.360001782991969999e-01 8.207509677707905960e-01
2.390173427544112911e-02 1.547602217222650012e-01 -7.087196899297454333e-01 -3.262094214562284433e-01 6.726096678481067181e-01 -6.642165671454242082e-01
-2.757246648816255238e-02 2.164054686810901532e-02 -6.967156194897178301e-01 9.279763665078507584e-01 -3.726150351353035850e-01 4.230696633343865136e-03
1.497121689812671631e-04 -4.810670078000595790e-02 -7.609601244240044027e-01 -9.761909684545243548e-01 -1.825836458708078036e-01 1.171085196232150849e-01
2.001562085727567192e-02 1.496793645916359716e-01 -7.743286632710556505e-01 5.606371488434338524e-01 -1.266300707971136814e-02 -8.279647550399740208e-01
-5.024237199463793112e-04 8.658438487591149646e-02 -7.142979539215456031e-01 -5.542102309033832830e-01 7.062421089427599608e-01 -4.405372895886354723e-01
-1.861569086522343527e-02 -1.290731160661903187e-01 -8.587955011968877450e-01 5.729964449533121729e-02 -3.673856351532305275e-01 9.283019690939828816e-01
-2.196055227812427485e-02 -2.402683460291581488e-02 -8.188691292152839862e-01 -8.039737582553524442e-01 -2.462313314811095943e-01 5.412913517079354087e-01
9.735440641585607277e-03 2.099322698417184774e-01 -6.753651611619039263e-01 5.237261183463339798e-01 -6.863540845133118962e-02 8.491172673244847813e-01
-5.171301167930874611e-03 -1.355870943315131416e-01 -8.177823184306350912e-01 9.806882917074593031e-01 -1.786633892010580371e-01 -7.956046673503432143e-02
-6.283066614908852481e-03 9.885681867018408786e-02 -6.896884351968780580e-01 -8.278355079291100926e-01 1.740773394787707984e-01 -5.332780247598291057e-01
3.472932234607926244e-02 2.587342912762388702e-01 -6.740715676813595625e-01 3.602795190887815302e-01 1.536442644108765021e-01 -9.201044006735304981e-01
1.926593514447290422e-03 -1.026783233379374022e-01 -7.549461036265772140e-01 -9.170666017515605173e-01 2.834912106995221004e-01 -2.803954019023204847e-01
-1.356730648831819958e-02 -1.596406316751813603e-01 -8.102360829777567330e-01 -6.401935350490471910e-01 5.383660334546853665e-01 -5.480093536643995122e-01
-3.248128186058488187e-02 -1.201398354881118014e-01 -8.534830869674711051e-01 5.503374932719519164e-01 -4.314618098178201189e-01 7.148212015377520823e-01
3.308073955728701304e-02 1.264314709708103113e-01 -7.419388636131181158e-01 -9.098862756365834192e-01 1.919497890321532063e-01 -3.677801570214183635e-01
-1.718501471263057107e-03 -1.605148847355062497e-02 -7.655309859892392987e-01 8.967374511584765839e-01 -2.222941002744796279e-01 3.826843041894430475e-01
6.465315409557933699e-03 1.504300105895824691e-01 -6.936547330560765001e-01 -6.860707005025091787e-01 3.824096569995809602e-01 -6.189263673050769965e-01
1.596805649680938573e-03 -6.320439244994437156e-02 -7.676303070679690865e-01 -9.941798592505689536e-01 -9.667152454379876469e-02 4.755022400469303967e-02
3.258128067609231820e-02 1.310802339837316699e-01 -7.449187247315024463e-01 9.844533219217125319e-01 -1.727988661311053165e-01 3.149934636003019761e-02
-2.980783331485457118e-04 5.804528744389291298e-03 -7.643885757280757254e-01 8.623914665277055969e-01 -1.570302322131535422e-01 4.812717160100686287e-01
6.301711797072200548e-03 -8.065035805421595649e-02 -7.521249266333159822e-01 -9.703202139133360049e-01 -4.868292784298169223e-02 2.368726556777136782e-01
-7.035522700810503812e-04 -1.012572158606115658e-01 -8.232878484417897047e-01 -7.207148134995617905e-01 -3.357609415218296700e-01 6.064938150967958963e-01
-3.529034911509994210e-02 1.309603697532391309e-01 -6.636473756884522235e-01 6.849642877012325215e-01 2.939827386520487695e-01 6.666318878875989729e-01
-7.190387311525050021e-03 2.454282513611688588e-01 -6.635187306939438479e-01 4.486918791535553508e-01 -7.299237011146646470e-01 -5.156423063837185516e-01
3.067190180840007920e-03 -4.537500036481003501e-02 -7.450667846940770556e-01 -8.796907919215807281e-01 -3.247419081949390329e-01 3.474000628530338752e-01
1.847522407747411929e-02 1.004383895100412344e-01 -7.710471135847414281e-01 7.740826422670225027e-01 -1.991200097552433823e-01 -6.009553100322656549e-01
2.805156317181068532e-02 2.497510930461652179e-01 -6.750392363029061871e-01 -4.439264859543417541e-01 3.031467173588670017e-01 -8.432267446083365758e-01
1.010774124145442238e-02 8.961328074326797843e-02 -7.815257960510216817e-01 8.993552918579107436e-01 4.553084418847544446e-02 -4.348413517993164890e-01
1.480005903842146128e-02 4.049273516672444867e-02 -7.633992557950300961e-01 -8.069244360581235842e-01 3.121208818418808595e-01 -5.014514030397418942e-01
3.924988056028306388e-02 1.734943368629612015e-01 -7.111338343945764473e-01 -5.838145622954186154e-01 5.011708607772669133e-01 -6.387396380056447054e-01
-2.295996433716582935e-02 5.037436713763895207e-02 -6.801298104123464361e-01 9.900825200521433667e-01 -1.277482624667241051e-01 5.845498202830781698e-02
2.486159954356520398e-03 1.187056084116225839e-02 -7.650330623823383691e-01 -6.221863652088364116e-01 3.419058228407851896e-01 -7.042616951501635691e-01
2.590802904804996934e-02 1.023172159877417942e-01 -7.508846459656745020e-01 9.969648168233464780e-01 -7.749141800625326815e-02 7.498943376992662883e-03
4.985654114679595461e-02 2.540471793907915221e-01 -6.945235957877121669e-01 -3.566220177624342957e-01 -4.217291667116842557e-01 -8.336457559369677695e-01
5.768904395113566043e-03 -2.175545975184385028e-01 -8.906667055328265636e-01 -9.391915619154433958e-01 -2.614432999539030300e-01 2.226356012322450173e-01
4.083168382713030405e-03 -6.211717445886148076e-02 -7.986218397840197936e-01 -9.381231881505182058e-01 -1.765898243296693815e-01 2.978941385753063331e-01
6.155764739385032047e-02 2.328998489024098895e-01 -7.260834731588128310e-01 7.565021696693886577e-01 4.371348448265136577e-01 -4.864335460512640985e-01
2.950828777686487214e-02 1.332557259916610781e-01 -7.281255457878189619e-01 -7.576346666358130255e-01 2.707098560626978734e-01 -5.938904661148836084e-01
-1.417618282225413659e-03 -9.815131216663844360e-03 -7.295186586531724471e-01 -8.675365263173683283e-01 -3.526502649412711077e-01 3.507394562093709700e-01
-4.751474843737929672e-03 -1.128724401282519586e-02 -7.435119153064391195e-01 -9.938191599023756817e-01 -1.110111468961475084e-01 -5.172753846422354176e-05
-3.205972335281013098e-03 -3.487638190386544573e-02 -7.531450430720453282e-01 9.940157614928013530e-01 9.471355485668798979e-02 -5.442433674648967934e-02
-2.551367010643897440e-02 2.260129344644335250e-02 -8.248152111917101958e-01 4.660793357537570958e-01 1.289707780368452295e-01 -8.752922890074534834e-01
1.817227147592528728e-03 -3.439597612308696595e-02 -7.905442540529058482e-01 9.697538788895859740e-01 8.777425278641319550e-02 -2.277566572603066664e-01
-1.918167114554913955e-02 -9.360192856898956471e-02 -8.326136982498987260e-01 6.561939113630290699e-01 4.561389939523838866e-01 -6.011212597190321860e-01
3.166785985975359430e-02 1.675329153568261009e-01 -7.639974886105046492e-01 7.684654660630898526e-01 -1.933323342719799054e-02 -6.395991350476386561e-01
8.884909447865088628e-03 1.984256053701259903e-01 -6.745910484848012256e-01 -6.910804082297099526e-01 -8.348824222273477924e-02 -7.179398183494319907e-01
4.183289377861510588e-02 2.489885837567101246e-01 -6.741012285711677210e-01 5.601305791734905717e-04 -9.831853139559020016e-02 9.951548385241105743e-01
4.951648110354749978e-03 1.282956170601370627e-01 -7.037003721671533096e-01 8.602587691019704108e-01 -1.967743554446934884e-01 4.703559324835693278e-01
2.505704462140603481e-02 1.387320621998775483e-01 -7.196169333856259342e-01 -4.631540062325270601e-01 6.086857874616042885e-01 -6.441971582155625597e-01
-4.493239536341332892e-03 2.343052536541910535e-02 -7.537708904538894528e-01 8.117795446389602931e-01 -1.489841219998271071e-01 5.646394445110108906e-01
1.905383951902933290e-02 7.624364650094582474e-02 -7.661381330778487264e-01 8.915371875965889537e-01 -6.621807223100520390e-02 -4.480810306656304309e-01
-1.576776364654688609e-03 -3.630841369226222443e-02 -7.957243111205670738e-01 9.630940190275264490e-01 -2.194014420135634025e-01 -1.559260008971411204e-01
-7.159616479176031043e-03 -1.832043211768593360e-01 -8.467907286141661549e-01 -8.954456178395684418e-01 1.707634621842298861e-01 -4.111167540672214793e-01
2.191885295125689179e-02 1.963879188230294448e-01 -6.844318526207829878e-01 -5.872767041410303923e-01 4.412532798032055559e-01 -6.785290088390933949e-01
2.085024980141147316e-02 1.882098062910946557e-01 -6.853116326284741655e-01 -6.069720182343683046e-01 3.544400880659260289e-01 -7.113066800279020940e-01
2.485054046960286783e-03 -3.370681994660783276e-02 -7.312807817575017744e-01 7.715813232749824113e-01 3.641088894469012294e-01 -5.216195722928456124e-01
-1.594604509820162115e-03 -8.743301586309759621e-02 -7.356652967394414766e-01 -1.162368227886169808e-01 -5.486020951576636717e-01 8.279642155411240934e-01
-6.343063981345579798e-03 2.027387245231264401e-01 -6.643953712300243453e-01 -4.150594277672746690e-01 7.556015090858171634e-02 -9.066511650112047960e-01
-1.911862526253994658e-03 -2.312454939786515867e-02 -7.474130392579239057e-01 -9.078991041738238010e-01 -4.103648632672409202e-01 8.555638863361864077e-02
2.375705374834375175e-02 9.700592204422858744e-02 -7.660390867872273191e-01 -9.241142115919868116e-01 6.413058514765951346e-02 3.766964188605189112e-01
-2.811812067057729500e-02 2.473138290795523497e-02 -6.833102717196867237e-01 -8.881308490196371253e-01 4.075942230121326615e-01 -2.123453422771358623e-01
-4.467167490367018878e-02 1.415250410209918375e-01 -6.527013426102089566e-01 -4.677045603371461913e-01 -1.752183390489533421e-01 -8.663434526218587450e-01
-8.467346627137627146e-03 -1.308661248310795944e-01 -8.374534021945474471e-01 7.938019191554550602e-01 -3.940479090726829448e-01 4.632545288505691139e-01
4.319867930946591494e-02 1.637766819685518016e-01 -7.389078495870284868e-01 -9.857118691509094699e-01 1.409786407656199447e-01 9.217989945155394271e-02
-2.049811822525833202e-02 7.174620924354853380e-02 -6.710621798883422695e-01 -9.633253158382073522e-01 -4.704772841880801477e-03 -2.682949887301745440e-01
-6.285768468423907039e-03 4.762683745066453173e-03 -7.544650330509228287e-01 9.115597662293640768e-01 1.428566937392373726e-01 3.855525355198181070e-01
-5.626547471082585239e-03 -1.449144288022457816e-01 -8.541757083760742608e-01 -8.405595107920009745e-01 -2.929155079328422118e-01 4.556975027686201440e-01
-8.351652539057627736e-03 -1.161155105286027361e-01 -8.399754097637430750e-01 7.038961373310634873e-01 1.686935614639980541e-01 -6.899802244782098359e-01
-2.157359762503248748e-02 7.171463729432096812e-02 -6.546516536061450786e-01 -9.128615534649539009e-01 2.143903555234669966e-01 -3.474486432036716921e-01
3.921310827924135572e-02 1.559090691712849142e-01 -7.436456569957647922e-01 9.732550887729879419e-01 -1.015625380989201437e-01 -2.060572324195115157e-01
4.561660628350433511e-02 1.801898547407842499e-01 -7.225496328487976960e-01 9.395187672270050028e-01 -3.331801873568840944e-01 7.934386416781227802e-02
-2.929904519753049816e-02 -1.633800861193036727e-03 -8.281398482281889795e-01 -7.378454610635892807e-01 5.420930288678436210e-03 -6.749479158443744131e-01
-2.105964646972353221e-02 5.303080030627334990e-02 -6.746686960119563370e-01 -9.822546546863535344e-01 1.048635331953112204e-01 -1.554973721732552661e-01
-3.759483927595205083e-02 1.216444185824295254e-01 -6.532744022910275117e-01 -8.149842640135511740e-01 -3.787097140513300819e-01 -4.386109915328729736e-01
1.616792376669016866e-03 -4.171739766299412122e-02 -7.815399865378923616e-01 9.655619419486124455e-01 -1.786884882090839233e-01 1.891046282933763756e-01
-1.446187884529123030e-02 -1.552673094319831637e-01 -8.042548979115986540e-01 -5.704457155745321639e-01 5.854323348343088984e-01 -5.760734908960050138e-01
-1.536196314609853189e-02 4.232236429171773451e-02 -8.155899139826712219e-01 -9.263359001559953176e-01 1.107322664942469483e-02 3.765357668718232187e-01
3.879864611477628483e-02 1.619941324417873418e-01 -7.197865816339096279e-01 -8.128011912675857653e-01 4.199023712546533504e-01 -4.037774412825864689e-01
-2.117835733344788571e-02 5.070467972536824713e-02 -6.869049475102925184e-01 -9.702474289935667517e-01 2.169981249898911557e-01 1.073859408034628510e-01
-3.153043557533503644e-03 2.157858636121219933e-02 -7.529964778320602514e-01 -7.723741270798594183e-01 3.554289142499650889e-01 -5.264109561290648553e-01
2.978624826051426769e-02 1.171218441730263599e-01 -7.389783873964115291e-01 -8.410621884976432483e-01 1.485670180561712295e-01 -5.201367476207114926e-01
-2.319310044285838660e-03 -1.318421820900796682e-01 -7.997896241703658093e-01 -8.261332136248923375e-01 5.252060143015965243e-01 -2.041140756715200677e-01
6.399199506420729516e-03 -8.285862165484968178e-02 -7.412318398551552834e-01 -8.482247431411590322e-01 5.288323941223125324e-01 -2.917334485412460821e-02
-1.270138891753883059e-02 4.829110035412879920e-02 -8.064683817917605024e-01 7.782251102583068736e-01 3.723902475323409567e-01 -5.056591552679016166e-01
-2.907788276744445455e-02 1.087292726830061812e-01 -6.628590408334681383e-01 8.608005242666685319e-01 2.917451977554493259e-01 4.170218183846766125e-01
1.508643177639573327e-02 9.762114027596770216e-02 -7.358717118308216731e-01 6.403925182062051302e-01 -2.712147513227256002e-01 7.185680074220305302e-01
1.302854263181691882e-02 9.337203695127026248e-02 -7.760955314541236882e-01 8.799515254477087156e-01 -2.549636842882279653e-01 -4.008476425731145043e-01
-2.038156527881175573e-02 -1.157664923675634228e-01 -8.508754907080260388e-01 -5.036012068556048465e-02 -3.925171379093633228e-01 9.183649354651872709e-01
4.096146358997582865e-02 1.816550322538740270e-01 -7.096262651087121842e-01 7.204483418459474153e-01 -3.562517061304784627e-01 5.950116877932297710e-01
2.355515208120816453e-02 1.582931588432862913e-01 -7.084263038173784777e-01 2.260694054206421055e-01 -5.564013374295138092e-01 7.995687435357923256e-01
4.607867816754124268e-02 1.769763521113410232e-01 -7.272103229173526584e-01 -9.551211350615065321e-01 2.959936037463789527e-01 1.146315401845223771e-02
-8.476631471674956134e-03 -6.410376614923231353e-02 -8.181921412860074794e-01 -8.233958770004212724e-01 -4.899494772147836574e-01 2.863018328891165365e-01
3.677140377905874311e-03 7.085119872088049831e-02 -7.914546189169501256e-01 -3.487911422811941775e-01 -5.336986427430144390e-03 9.371852835176474050e-01
5.796098719782406816e-03 4.917417488152253310e-03 -7.902412432230503381e-01 -7.710861518280319737e-01 -1.752324627897968445e-01 6.121435537875569155e-01
3.226775129318787752e-03 -9.375711075527834448e-02 -7.804219246185203351e-01 -9.853011574325039046e-01 1.597883201922939977e-01 -6.040961754797618405e-02
-1.016626813467308779e-02 2.128022770620823304e-02 -7.438418688678000157e-01 9.383533351475553674e-01 -4.088429794858496752e-02 3.432513548388569369e-01
4.742318754392495922e-02 2.042030797621598170e-01 -6.995218504144994354e-01 -7.612015223227396321e-01 2.240024147286922285e-01 -6.086009863689497701e-01
-3.129695222685104777e-02 9.128985098481826044e-02 -6.461813149096206077e-01 3.397821662287724420e-01 -8.155895745269313435e-02 -9.369611603327602234e-01
3.657639442597842346e-03 -8.054588223866075702e-02 -7.313914594074554243e-01 -7.749052712691508749e-01 4.850983693050649470e-01 -4.052177101964452577e-01
6.102065923598690850e-02 2.354915402261252844e-01 -7.041040587625363445e-01 -9.145273753761040680e-01 1.451167075691837671e-01 -3.775987564491896653e-01
-4.951466535419220098e-03 -9.818351432191533765e-03 -7.503622528935741665e-01 -9.896382085822283958e-01 -1.023186517627737296e-01 -1.007328626397856058e-01
1.868641750366328153e-02 1.479651123147983083e-01 -7.773234588817234947e-01 -7.319378584354445660e-01 -4.066193745850908009e-02 6.801570246869874659e-01
3.504041332034518036e-02 1.500175066330284579e-01 -7.247866604784893863e-01 -8.478229015765056387e-01 3.547408287427039619e-01 -3.941513313250818440e-01
-3.051091071862279541e-02 -1.062893620334399436e-01 -8.475576082856751681e-01 2.097203043303920433e-01 -4.303704700491411961e-01 8.779513952726818449e-01
9.339089665218408207e-03 8.073101714730242240e-02 -7.397894323321396737e-01 -2.408379280187090687e-01 4.749017570459594384e-01 -8.464427999471173525e-01
1.131899454376998279e-03 -7.377875539262224169e-02 -7.258192348936146621e-01 3.986946275980813303e-01 -6.373111750476150306e-01 6.594520908177144980e-01
3.316495555984092652e-02 2.251167216405644822e-01 -6.771345799088418493e-01 -2.523925780677182540e-01 3.731419678172894772e-01 -8.927838811211655790e-01
4.070443238637627692e-02 1.795816105459556722e-01 -7.106711451346675590e-01 7.418255558970955343e-01 -4.865761597108959058e-01 4.614525819832000497e-01
3.224084189989460947e-02 2.414975055158983530e-01 -6.837620116286700078e-01 7.490501095198618398e-01 6.513058627323694560e-01 1.213449900025825035e-01
-1.863091042372285708e-05 -3.381690271388688128e-03 -7.956087576074368783e-01 4.778319486284295370e-01 -1.360227276518879425e-01 -8.678562360391832708e-01
1.904977312490687595e-03 -1.096207916268772536e-01 -8.027643541446940478e-01 -9.797304673468625325e-01 1.579993044107425859e-01 1.231439448694883060e-01
1.812552775915376654e-02 1.663520547211420342e-01 -7.736206109693953836e-01 3.568672295366960845e-01 1.606520268920388905e-01 -9.202373100120873062e-01
8.262811601979475062e-03 -1.298389521546313135e-03 -7.780623553184093932e-01 -9.783673020849905644e-01 2.061219054852350407e-01 1.764035969226451783e-02
8.902155804843138454e-03 1.913923753471140354e-01 -6.773573615992589669e-01 6.894175701925716604e-01 3.360141128219853654e-03 7.243563510878943124e-01
4.622420429577549228e-02 1.854430739273071338e-01 -7.483178351825218177e-01 8.768565558123656567e-01 -3.345505010935310719e-01 -3.452514196161148852e-01
-3.128931372551006698e-03 -3.596099257234025570e-02 -7.545501848157125657e-01 9.883721404887449991e-01 1.291430874816870134e-01 -8.026565181566344687e-02
2.450177884552265720e-02 8.910696275060568661e-02 -7.490562616994372869e-01 -9.143185564001061749e-01 1.807776897975704178e-01 -3.624099947488743090e-01
-2.341237931091169969e-02 -1.482205826559015727e-01 -8.697185396380716638e-01 2.759879153780198657e-01 -2.124763878450147969e-01 9.373817019622420199e-01
