-3.055576606281179552e-02 -1.178665733587844905e-01 -9.612597846402226587e-01 -3.978579761661486525e-01 3.763582865624749418e-01 -8.366979568140071599e-01
1.219909094525613649e-02 6.621973432988739749e-02 -8.137636106399578351e-01 -8.395262849142980377e-01 8.136300837028921651e-02 5.371924029683717849e-01
4.297216827224604324e-02 3.547842229152441216e-03 -8.517181101506244856e-01 2.547089515562500073e-01 5.428453430895269216e-01 -8.002763794359607497e-01
4.588923145490146627e-02 -2.396936818451248993e-02 -8.637717370975697140e-01 -4.802037878234406421e-01 -1.398245440548294971e-01 8.659407710922724100e-01
-2.523863457965866072e-02 2.417680140935040203e-02 -9.105597255714973359e-01 4.316648242906084287e-01 -6.907545557477540177e-02 -8.993853795272055418e-01
-1.238083862957216515e-02 1.479197408382421086e-01 -7.597361693240690661e-01 8.324498105089863653e-01 1.702735462979353687e-01 5.272895147968313934e-01
1.441390915407121838e-02 2.160831663724186724e-01 -8.614719098773546690e-01 -9.280530891964340334e-01 -7.845393126578438514e-02 3.640912582058232205e-01
9.847537116758247125e-03 9.311742445025728010e-02 -7.610777074139921661e-01 6.463560450031446969e-01 3.422340900673186970e-01 6.819821776877216246e-01
-3.641902915176455785e-02 1.757931513072632373e-02 -9.170599153939007486e-01 -4.223134325082223417e-01 -6.632685571014344805e-02 9.040199737476650732e-01
1.176326177436068897e-02 1.710916788352692397e-01 -8.321417049179978820e-01 9.321313011113061542e-01 -2.895523925785072894e-01 2.174641336878461728e-01
1.421621791554615946e-02 -1.389321758548789643e-01 -9.439345363093573082e-01 -8.360683650711839832e-01 -4.461736185018632533e-02 5.468079918478945256e-01
-4.893705364434652177e-02 -4.989150086342569734e-02 -9.317502752207731387e-01 -9.695576002023852391e-01 -1.622604271121114994e-01 -1.833837879508086466e-01
7.083746509734670412e-03 -1.072328340929719626e-01 -9.462445050623337073e-01 -4.015249709772822917e-01 -1.285497433957302482e-01 9.067814847881403573e-01
-3.459875310648641983e-02 1.125199255561554201e-01 -8.963043089493361038e-01 -8.059134646972135330e-02 1.769090146825311738e-01 -9.809221352371724212e-01
2.802144435158425775e-02 -1.257718859619437468e-01 -9.096537504524195850e-01 -8.578353107202159045e-01 5.087883839162152810e-01 -7.247730730012509615e-02
6.124739949656412240e-03 1.530825398066939791e-01 -8.253062632063105086e-01 -9.799940451185261692e-01 1.985389020132036220e-01 1.392752381510267527e-02
4.502713379094907577e-03 2.257969888835603678e-01 -7.978761258352338182e-01 7.398222058487368136e-01 1.269455255496524521e-02 6.726826533132385100e-01
-2.834490882625140349e-03 2.772384387042530970e-02 -8.858856281318870929e-01 6.122377167469855719e-01 -1.937710614678409271e-01 7.665622961834634985e-01
-4.268511996752572674e-02 1.182270917795262555e-01 -8.933160666994179877e-01 -3.621888783394857092e-01 1.275449116853633602e-01 -9.233371604730084004e-01
1.677187378837192988e-02 6.940427739853502476e-02 -7.949906421894887831e-01 9.708832927088116849e-01 9.520798511994081267e-03 -2.393637113987634735e-01
1.800385711896974883e-02 9.065301030337712118e-02 -7.687417739248965098e-01 -5.953749659949871820e-01 -8.033743187188494561e-01 -1.087905738070438048e-02
1.468876823626147875e-02 1.806172893377283317e-01 -8.427280826772185485e-01 9.085700190709710133e-01 -4.034664731378918567e-01 -1.082373572249717697e-01
-2.136568029006391534e-02 1.523968784345663963e-01 -8.884622977928398058e-01 4.838711392428085567e-02 8.508419900276563419e-02 -9.951981542819182680e-01
2.012797744673149730e-02 2.765107038880593865e-02 -8.082163349187844181e-01 -9.257021955379802769e-01 -5.208094721585861120e-02 3.746505306459102513e-01
1.619294993178731603e-03 -4.424652149117211386e-02 -9.151332499163876699e-01 9.083055211466747325e-01 2.859768247185400236e-01 -3.052840250952701395e-01
-1.525225232520590127e-02 1.499387184246622762e-01 -7.578231770897417841e-01 6.079299878831263548e-01 2.086060026639833809e-01 7.660970339878466762e-01
7.088558558837883966e-03 9.989230587387369631e-02 -7.722847894583294570e-01 8.094594211677280660e-01 5.848014671029690970e-01 -5.275120431821452016e-02
1.214210701827592685e-02 9.456989097603052397e-02 -7.711411396770669890e-01 7.269870675002277904e-01 6.657665071121543487e-01 -1.680617794000208998e-01
3.426686051707472907e-03 1.572198968985849543e-01 -8.736270854921144302e-01 6.116227267748416407e-01 1.057064234142688769e-01 -7.840559878870072552e-01
1.083479215115487962e-02 2.104390681203747726e-01 -8.124744039051435829e-01 4.265345570824893850e-01 -3.132230253297291211e-01 8.485043358862325302e-01
1.377133308267807334e-03 1.578795721601677360e-01 -7.849359644408208103e-01 8.739786582133591830e-01 -1.069844109831626228e-01 4.740418133394586619e-01
2.858622077010348193e-04 7.206055511055459162e-02 -8.896710262164628791e-01 7.079643319498637455e-01 -6.206715882078190499e-02 -7.035155808386187593e-01
3.567182994467987117e-02 -7.177319087889702520e-02 -8.959118118124180796e-01 -6.789013384137382312e-01 -1.766679603831741163e-01 7.126579856242994948e-01
1.976764221208663491e-02 4.105975130599000961e-02 -8.011423326493628538e-01 8.366713915272986357e-01 2.155941416326573878e-01 -5.034879826703432260e-01
1.245500269025657560e-02 3.034194836458525835e-02 -8.223661107595164887e-01 -8.599007417404788134e-01 -2.381320383341166969e-01 4.515128422016512211e-01
-1.034025302183853856e-02 -2.146733110269275768e-01 -1.032452388006587451e+00 9.247826813924148182e-01 -2.577055047415934830e-01 2.799372519378871549e-01
-2.814392121593440373e-03 -1.189634455966038923e-01 -9.596294731767827102e-01 -8.693284809753343279e-01 -1.552893693921454377e-01 4.692048634859912193e-01
5.817606655786676170e-03 -4.926982426196729707e-03 -8.889137614588600300e-01 -9.709856080588031846e-01 -2.106916641918182287e-01 1.131192803316865697e-01
1.145062855126980673e-02 1.564822494334920655e-01 -8.580775666461346596e-01 -9.499336126682423886e-01 1.579626842623064742e-01 2.695810117640126680e-01
-2.102230747570956251e-02 1.393974313468755999e-01 -7.540307414096762972e-01 8.422653945907307982e-01 3.750686242346246146e-01 -3.871853976968485100e-01
4.914848555861527253e-03 6.148464097095357461e-02 -8.488699416321784375e-01 9.771649879512811498e-01 1.601692033470934473e-01 -1.396223929795293583e-01
-8.158788179168659227e-03 -7.666848961942454577e-02 -9.452113975784441902e-01 -2.103718679394808722e-01 -5.178592543425580841e-01 8.291956764669141666e-01
3.828141821325977030e-03 6.634514407795805147e-02 -8.510096241299499598e-01 9.758468815967815679e-01 1.400108830378498093e-01 -1.676896428191052835e-01
2.305668931530682753e-03 1.421691053465772847e-01 -7.930634937538771911e-01 -8.945977754644096613e-01 2.100980775290802738e-01 -3.944028625057309778e-01
-2.356319769532330341e-02 6.725419178682011390e-02 -9.029749855791350255e-01 4.806968746935353920e-01 2.170187928071154460e-01 -8.496077672834742023e-01
-5.273469477588658277e-02 2.623266796928429290e-02 -9.224865113073048573e-01 -9.981248702486909818e-02 -1.941134873561307650e-01 9.758880168648201847e-01
7.279036424314543584e-03 9.792813540713679599e-02 -8.764487795189441766e-01 -9.915781740972658964e-01 1.403695641987418551e-02 1.287466058131209734e-01
1.054539773682299300e-02 1.014787192011863404e-01 -8.283271499107969227e-01 -9.695201692823187667e-01 -9.585425719762803720e-02 2.254830431138347413e-01
-2.762276135941739430e-02 -8.760316065218112791e-02 -9.414699563018060768e-01 -7.745542462787646798e-01 3.433254348523868127e-01 -5.312187547093518702e-01
-2.189416921990053333e-02 1.614566080345776755e-01 -7.586525052867539864e-01 -3.933386615270055287e-01 1.177837530898620394e-01 9.118177914782155113e-01
1.898863778711094288e-03 2.211394730539821551e-01 -7.935782904366941448e-01 6.377886480332092267e-01 3.896469230612100709e-01 6.643800988808310493e-01
-3.470852233453477868e-03 -3.541194586539821859e-02 -9.215627775049538561e-01 -5.958302779510594727e-01 1.676642222459910625e-02 8.029353441981177397e-01
1.694213716379033494e-02 2.310096353148993753e-01 -8.115211652859424252e-01 -9.053694505494317424e-01 -4.051196963545972696e-01 -1.272170964822692818e-01
9.436507744849115123e-04 -1.419441975866679584e-01 -9.605089682045752086e-01 7.980561854747288963e-01 1.018926041939050148e-01 -5.939059033517930519e-01
-6.744200580550420779e-03 1.838872569591923078e-01 -8.786067680467888330e-01 4.422318646803843345e-01 -4.305562032286050500e-02 -8.958667263716875162e-01
5.822724068504091764e-03 -8.176999839957042882e-02 -9.381643128568788459e-01 -8.522846591039867636e-01 -1.181801100449894198e-01 5.095530604811983055e-01
1.315472619216882105e-02 2.895591918040545110e-02 -8.217480944886197403e-01 -8.567583527600715065e-01 -3.369954540888353556e-01 3.903833870688003804e-01
1.796778902037692374e-02 1.955807409517341666e-01 -8.412886512388243476e-01 -9.790444495319902130e-01 1.951548388072905094e-01 5.819411250893895271e-02
-9.401384545415883073e-03 1.665559801953171992e-01 -7.634261629912891811e-01 -6.598192680796954868e-01 3.944330217176009179e-02 -7.503884056837247796e-01
9.539729381733724756e-03 3.906242939606942993e-02 -8.173454965695402530e-01 8.118245935018854054e-01 1.293755922267847691e-01 -5.693880798905677221e-01
2.432111902062559713e-02 7.783854722344746291e-02 -7.732115678959025074e-01 8.806566960463546589e-01 4.566748463127831004e-01 1.260629543280444020e-01
3.387556975894320810e-02 -2.691828738862511380e-02 -8.688633372793888032e-01 -1.334239347852718971e-01 -5.898574933110688479e-01 7.964083068446723424e-01
1.131060175502779548e-02 2.579430290788531921e-01 -8.228761699032955956e-01 -5.364354483652119532e-01 -5.887664577977492764e-01 -6.046412720857758938e-01
-5.869388723701263189e-02 6.899484331241063917e-02 -8.981875961557211907e-01 -9.865933458694409186e-02 5.153822320764152032e-01 -8.512622924567924132e-01
-6.056383333417612175e-02 1.173697191018916938e-02 -9.227009883479262431e-01 9.207196516617346393e-01 3.917476598287786965e-03 3.902050440742612647e-01
1.441500405661945254e-02 -1.426732362676482180e-01 -9.433956069165388980e-01 -9.003065381452539651e-01 1.757236363690507230e-01 3.982076606422160214e-01
1.345990774542710038e-02 2.373124313367657168e-01 -8.603569058657821733e-01 -8.689031515651929327e-01 -9.334863808950472075e-02 4.861001388262610745e-01
-3.359735651092137648e-02 -3.148155346896707590e-02 -9.258930960436192459e-01 -4.348650259282365593e-01 -3.307778020993891177e-01 8.375431062713917241e-01
2.036456689784880633e-02 -7.203940258361178628e-02 -9.125995999622230626e-01 -7.258669646420834454e-01 -3.683793562714605674e-01 5.808733076276728635e-01
1.047271153012808466e-02 2.066863064084624446e-01 -8.685957366086294318e-01 -8.811767492724871254e-01 1.769476817997487073e-01 4.384256544127720367e-01
-4.381871754745707303e-04 -4.978749879410725859e-02 -9.233043703275385372e-01 8.137872562559442802e-01 1.014249780820127012e-01 -5.722440697608718319e-01
-1.314907084406483941e-02 -4.815467494862756275e-04 -9.157201256112409427e-01 8.718156474048520399e-03 2.587032023075954701e-01 -9.659175155589060369e-01
-3.894441500369712206e-02 -9.154943798211476191e-02 -9.408808069279679387e-01 3.341887783583810667e-01 5.547154609894567878e-01 -7.619767829524646263e-01
1.958887394462349718e-02 3.261787235762795417e-02 -8.052687483286781189e-01 8.650428593290312440e-01 2.609996614022595529e-01 -4.284624000676837130e-01
1.283861260727223175e-02 -2.769660322590702592e-02 -8.917982794573205974e-01 -8.071359784484238853e-01 -4.067588619245926518e-01 4.278770156714614692e-01
-3.699501180575169579e-02 5.859790251186766663e-02 -9.032578822773970062e-01 -7.224385192958190371e-01 4.900891241439823270e-02 6.896961014400636580e-01
1.352140026942106124e-02 5.138218666506853133e-02 -8.119163440066243798e-01 -8.470797139372369111e-01 -2.184200324776333080e-01 4.845086662263933253e-01
4.874315217447722746e-03 -1.690174022399543730e-01 -9.682003436989458089e-01 -9.811470688827224063e-01 -1.543363134354419804e-02 1.926453535551652385e-01
1.781044986316303660e-02 2.305270706201691666e-01 -8.466101141275883535e-01 9.863717646761132052e-01 -1.533969479038305161e-01 -5.949889262431898307e-02
-2.599761069745795336e-02 -1.416719202282421541e-01 -9.818038228207500717e-01 3.022193637097745911e-01 -3.813175463550723676e-01 8.736477465435403822e-01
3.285683591309161017e-02 -1.008933266636509590e-01 -9.094216822818231849e-01 -7.621312219473929117e-01 -1.714716103501782163e-01 6.243024005855580816e-01
1.288449204683614780e-03 -1.809007419561333430e-01 -9.911821089959702569e-01 -9.843501258197330239e-01 -2.475645896746119304e-02 1.744762090890002726e-01
1.895698666850825082e-02 -1.405406548311097237e-01 -9.238291475361160021e-01 -8.768443258607039326e-01 4.642639381581911695e-01 -1.249120647965413916e-01
1.492117719650983866e-02 2.331075125096864487e-01 -8.554518650931823842e-01 9.333167273346676396e-01 -7.414214835409115717e-03 -3.589775980415498280e-01
-5.074158473967349536e-02 -6.182293295857633694e-03 -9.263096809932213072e-01 6.481360260209707569e-01 2.474025731550008878e-01 -7.202163970432970963e-01
6.927289059491858157e-03 2.531430493002364557e-01 -8.171758338457486559e-01 6.349057292825027732e-01 5.061194047958402775e-01 5.837275588948647176e-01
-8.687587426846497471e-03 1.147037912122580439e-01 -8.893272103940454976e-01 4.005395100529657304e-01 7.377279814175982664e-02 -9.133048095465529093e-01
5.774749125541253040e-05 7.681141255964171570e-03 -8.918800020266325346e-01 5.258691653490231710e-01 4.215619076845422142e-01 -7.387470331070653540e-01
-2.362542077470262611e-02 6.673128840393872940e-02 -9.050849735599897361e-01 -6.930130332855415354e-01 -2.649562102731473079e-01 6.704708363039103558e-01
-5.745966534155254671e-03 -1.216170654733201018e-01 -9.644546127752279263e-01 -6.589284704177548191e-01 -3.447581845932425892e-01 6.685469804201420452e-01
8.379876048373365721e-04 -1.608003305458420573e-01 -9.761833254031941909e-01 -9.569669652127359427e-01 -8.353589111451253935e-02 2.779136239683667742e-01
-6.940734873231103799e-04 4.546472517405851510e-02 -8.789360885738505269e-01 8.395308167321978710e-01 -4.032015062232910396e-01 3.641655573173255833e-01
1.631515810421629159e-02 8.310905741807100844e-02 -8.002985449943482710e-01 -9.806873378775390337e-01 -1.296175059610148173e-01 1.464638094380730782e-01
5.240748147050874016e-03 4.884233252658049668e-02 -8.867013827265085579e-01 -9.897646597468470198e-01 -1.108716540047436673e-02 -1.422778727687160905e-01
5.041298181822522796e-03 8.882489773040874725e-02 -8.427383402720337591e-01 9.361263665588609451e-01 1.277328718463933144e-01 -3.276457527317855889e-01
1.553222123934101459e-02 2.617247758300663557e-02 -8.154841842067767077e-01 9.191339698300665662e-01 1.509693109189842453e-01 -3.638694994981988562e-01
1.736331721572717535e-02 1.890988818481665820e-02 -8.130643409635603946e-01 -9.741045437220895442e-01 1.458502172634115399e-02 2.256271593607965531e-01
7.537538880331230533e-03 1.691044428219141138e-01 -8.664570050301538817e-01 8.991980033701544306e-01 1.817820422472943287e-02 -4.371641609582054833e-01
1.209144561531796079e-02 9.725352339395755552e-02 -8.204918402438600156e-01 -9.905910376631663627e-01 -8.765163673965518237e-03 1.365744046561441771e-01
1.724912545429976157e-02 1.589457839027503747e-02 -8.128383031915427104e-01 -8.785867188037076447e-01 -3.767488570123953551e-01 2.935058368782276217e-01
1.317383484810033013e-02 6.530112280921850088e-02 -8.120676803946543787e-01 -8.824641603052979510e-01 8.031363433079298508e-02 4.634724651122711925e-01
-1.570960912289433645e-02 -1.694867827881876565e-01 -9.986066629210244017e-01 1.460884119421504979e-01 -5.621193334839046374e-01 8.140516143463085719e-01
-1.938215749723732131e-02 -1.713332832057005428e-01 -9.966097237649433893e-01 -3.995342202593626380e-01 2.889183265439601578e-01 -8.699991996713448694e-01
1.902723268448542476e-02 2.214984626622713837e-01 -8.338329971088154213e-01 9.949024677620346147e-01 -8.662247800994789249e-02 5.162970021634818996e-02
-1.056894509217322017e-03 8.387771718761515005e-02 -8.590069826482278348e-01 5.659053680109200624e-01 -2.250197230693845585e-02 -8.241630759132095863e-01
-1.026953798052988864e-03 -1.389405645739738016e-01 -9.634397439382159645e-01 8.889269459516401239e-01 1.284981531018639933e-01 -4.396556714185547721e-01
-1.933332276920048109e-02 1.972417076790279888e-01 -7.637824346185346780e-01 1.588164300508882187e-01 1.883596268766854764e-01 9.691738711442684506e-01
-4.323547677370724596e-02 4.813134455369509623e-03 -9.209971077418515062e-01 -4.763828634725644773e-01 -1.678800163340649076e-01 8.630617981960240215e-01
-2.650057012625017284e-03 1.928196973589490770e-01 -7.749217363294160776e-01 -8.255051832754131125e-01 -1.232088328660308797e-02 -5.642600359944555111e-01
-8.411710724492945865e-03 -7.912122966520580836e-02 -9.466553737050340533e-01 -8.928883008823658429e-02 -4.602770954012396221e-01 8.832737402812744776e-01
7.624159744722378311e-04 1.318258509094634608e-02 -8.864837003649278513e-01 9.664522182077751600e-01 3.917778684713677656e-02 -2.538409165974460646e-01
-5.430729649900940814e-02 6.079393561093836967e-03 -9.248889512903875065e-01 5.714619694819852991e-02 2.711899936136970557e-01 -9.608279240000057175e-01
-4.699849733062421396e-03 -1.924342452050863406e-01 -1.005820086119412204e+00 -4.624568446139328826e-01 6.011792223518324096e-01 -6.517033140027528315e-01
2.770502610404011051e-02 -7.074286458975588554e-02 -9.009857036595935176e-01 6.079652499651381214e-01 4.484473900176434991e-01 -6.551894330811439682e-01
1.779128502562541542e-02 7.145681526100683412e-02 -7.976666721482306155e-01 -9.804152979882194696e-01 -9.659849512314630515e-02 1.716233498409082681e-01
8.996184860093955210e-03 -3.997218999434553471e-02 -9.115039226565884167e-01 -7.896408215634984629e-01 -3.650815685238744113e-01 4.931357026667924637e-01
-1.581956738095859853e-03 8.699035168080834768e-02 -8.587776319033393335e-01 9.065523931570838023e-01 3.689164159658050307e-02 -4.204780199266945351e-01
-2.637517019670443733e-02 3.019165594926161156e-03 -9.142661549343084060e-01 1.968347943410336531e-01 4.213586037901503878e-01 -8.852756580572732625e-01
-2.820110188111108265e-02 1.352441095063800780e-01 -8.936761443846590325e-01 8.016392141106627733e-02 -2.914092792885946692e-01 9.532336427384958677e-01
7.447671000011819430e-04 -1.091796295271022232e-01 -9.523370997244366976e-01 -9.386297522106811231e-01 5.923968651787624683e-03 3.448754773252637462e-01
1.900648973226446705e-03 1.500064462851222018e-02 -8.686755740468758979e-01 9.105570805975402582e-01 3.477653369513460935e-01 -2.234839443646940704e-01
-4.200044896903687430e-02 -1.129076273801004615e-01 -9.468261848669151659e-01 9.496819195425304505e-01 8.492335268094346364e-04 3.132148312204134366e-01
7.002263780512733328e-03 1.003323151821017001e-01 -7.701535669691043084e-01 8.081366646754355454e-01 5.816001365566666470e-01 -9.303984288749286846e-02
-2.324843657209407430e-02 8.543205359591651837e-02 -8.986409088933129397e-01 4.754724527415135071e-01 1.052749706034854238e-01 -8.734089118210348612e-01
1.747981317874341620e-02 2.103282716437630817e-01 -8.512750587545989678e-01 -9.248469123902305356e-01 1.657470550305922552e-01 3.423245570959572714e-01
2.116755926096905004e-03 5.632498905952727786e-02 -8.741224630442403498e-01 -9.812807300462733640e-01 1.157434345673980930e-01 -1.539207139874152197e-01
1.409626948017657366e-02 1.732884928118260393e-01 -8.562360551227585770e-01 -8.976128282355225751e-01 2.026184620175512929e-01 3.914549392160848740e-01
4.172161607720071413e-02 -3.405596377103829731e-02 -8.686015003645950472e-01 4.018123277282691919e-01 3.830277132833191378e-01 -8.317671694305693864e-01
8.922602047788106769e-03 2.248651580723347865e-01 -8.686382043356798421e-01 9.264267672954026311e-01 -1.466245178053397213e-01 3.467487499861273137e-01
-2.068141741673822781e-02 2.334221162069942401e-02 -9.088843754171449518e-01 4.850509913938342299e-01 -5.513862284479958964e-02 -8.727458209688759849e-01
1.318989929567428686e-03 -5.799486732842611819e-02 -9.285845669165282423e-01 9.976878717431402199e-01 -3.333523473757435407e-02 5.922560849526794374e-02
-2.468861955604012559e-02 -1.151817133511630203e-01 -9.625782233916720942e-01 -3.033146437141828189e-01 6.031053492089922807e-01 -7.377426141033457396e-01
5.632858988478634150e-03 4.336012018837683002e-02 -8.329571910925118727e-01 -9.741813307063761362e-01 -8.742646656533543947e-02 2.081522227771177291e-01
1.053730657301255643e-03 1.019805631200908919e-02 -8.858063352579129690e-01 9.804335904827380377e-01 1.692827780865208132e-01 1.004654950539579233e-01
1.028305136535991905e-02 1.773690664385859372e-01 -8.605568379424964887e-01 8.629207497918657266e-01 5.860716360281870152e-02 -5.019292579169668533e-01
9.175962732395468238e-03 1.477506488909284266e-01 -8.454414485616832398e-01 8.634723273206832417e-01 -4.057924142296687742e-01 2.995797998948860341e-01
3.159489156411491445e-02 -1.173063184216709964e-01 -9.004875763668496180e-01 -7.381486267201158025e-02 4.891559602196456358e-01 -8.690672083506019163e-01
1.132446649225264841e-02 1.623327266880145170e-01 -8.395514796269540891e-01 9.678834080938494289e-01 -1.686745451184961941e-01 1.864151446790295319e-01
4.528141118328770677e-03 1.721739981274860720e-01 -7.935934267350718274e-01 9.292935912893657280e-01 -2.292956752698257356e-02 3.686294292667622874e-01
-3.437607664046925249e-02 -3.341309201093763115e-02 -9.248300963870941249e-01 1.984777495737432285e-01 9.536463432884183522e-01 -2.261973360956550383e-01
5.776582797150455612e-03 5.702022496497378273e-02 -8.554615355333439197e-01 -9.562789326646474741e-01 -7.203415137992114081e-02 2.834460865433450216e-01
1.125286030482650253e-02 9.797465794493061264e-02 -7.691628787262433375e-01 -6.982649130925354664e-01 -7.022024726282434237e-01 1.390604134132180647e-01
2.449028858873602069e-02 -1.163277466200654114e-01 -9.229882228597586780e-01 7.472275508583693382e-01 1.474287234849290806e-01 -6.480090730304689517e-01
1.578600241356217446e-02 2.009208845130379673e-01 -8.242262313883754743e-01 9.593583282578735938e-01 -9.021941292303721494e-02 2.673799834207510329e-01
-3.684804674429871529e-02 1.072201990326266119e-01 -8.966554468728645810e-01 -2.434801409159249586e-01 1.437165657609552061e-01 -9.591991293289618969e-01
4.438611989770988552e-03 3.283122128009643547e-03 -9.008449524666493069e-01 -9.558999868393371901e-01 -1.888567972812973395e-01 -2.249184858592243319e-01
-7.438079210978342654e-03 -1.419360752653115454e-01 -9.745032404010099958e-01 9.837794745326590151e-01 -1.011762114714870181e-01 1.481260264792206849e-01
1.002395314640215120e-02 -8.328624542516220586e-02 -9.317336976437868845e-01 7.541282697172912997e-01 2.084257137279093286e-01 -6.227754608767240851e-01
-2.980092471523201544e-02 1.405888745428666986e-01 -8.925368876588007927e-01 2.722015700932023385e-02 -1.987294626744456616e-01 9.796763055813456633e-01
-5.333496066418659705e-03 -1.782536901596986634e-01 -9.944375535132826682e-01 1.572420576906671807e-01 6.335618657638207862e-01 -7.575449145384522964e-01
3.424069701549136563e-02 -1.129416058311326701e-02 -8.586920060880350869e-01 4.088180316220244720e-02 2.529632343224143542e-01 -9.666117525932271803e-01
-2.576694933441269972e-02 1.258424866770305739e-01 -8.937277622154314871e-01 2.006301770740867296e-01 2.015516090983523745e-01 -9.587098001570055761e-01
-6.390344027998470788e-03 1.671237412390866872e-01 -7.706339691160394301e-01 8.090782412546414504e-01 8.982392749030200518e-02 5.807960585080735871e-01
-2.635559449479991847e-03 -4.107032082597442818e-03 -9.122791591952588153e-01 7.477324486020919814e-01 3.785348219989274066e-01 -5.455342095980423300e-01
-5.754873285205865108e-02 3.085791335348550893e-02 -9.193391254635273624e-01 -6.946639184432832348e-01 1.956000347443232201e-01 -6.922302123001011775e-01
1.992569306997848608e-03 4.859462873808167993e-02 -8.729943904192378756e-01 -3.136830652143217657e-01 3.049272358737009081e-01 -8.992342939524560208e-01
-2.751187181741458418e-02 1.523025093125220664e-01 -8.902436612935425986e-01 -1.150016248212422515e-01 6.106584422077326879e-02 9.914865551070666250e-01
2.655106087736408896e-02 6.794940745913091718e-02 -7.755245631978026077e-01 9.875167451053059597e-01 6.248394910465036867e-02 -1.445905745230647577e-01
-2.718516476314924643e-02 -1.083061030048775714e-01 -9.583483173527682641e-01 2.202620824133488253e-01 -6.124740688790035748e-01 7.591838578379631608e-01
-8.940877311205944547e-03 1.924548709255246570e-01 -7.666140045796002722e-01 -6.578681619616227882e-01 1.656519181840715796e-02 -7.529509120103750064e-01
7.544104050209341286e-03 1.936200918656245662e-01 -8.023830143223724676e-01 8.959407973047139873e-01 2.637989186710075762e-01 3.573516730519122331e-01
-3.256559173763829557e-02 2.043004723971207637e-02 -9.129379880452451745e-01 1.260925330067176331e-01 1.959174816312967971e-01 -9.724798267888132841e-01
-1.595198028216103514e-02 -1.780832135700814722e-02 -9.202885831222756829e-01 3.417274399175453392e-01 2.335729872972442112e-01 -9.103109449042354751e-01
-1.131339725396647566e-02 2.296651386045493737e-02 -9.070343034569546825e-01 3.598543377557793937e-02 3.010323777245221821e-01 -9.529347071638769595e-01
8.439517940622863132e-03 2.034968842514909837e-01 -8.707196752971270159e-01 -8.260072328982350776e-01 1.268505512782143740e-01 5.492003175893238609e-01
-1.881576473339191828e-04 -1.569953872419307950e-01 -9.701201380278036135e-01 9.264925279879545617e-01 2.291288208533405202e-01 -2.985156261183779525e-01
-2.386380586169811052e-03 1.531207301543689170e-01 -7.779538618445840381e-01 8.681255368413473006e-01 -1.679549084516214208e-01 4.670644505964139381e-01
1.496084747114993525e-03 -1.726142013102071604e-01 -9.845727656729494903e-01 -9.462681903995106003e-01 -2.916456690632344140e-01 1.397115440995986835e-01
1.117141571160950100e-02 -1.190566789358007416e-01 -9.413680555908523484e-01 7.157281881990947836e-01 9.700067747308067923e-02 -6.916097376317114076e-01
5.429543442649415602e-02 -2.852188669306733593e-02 -8.533881855228289126e-01 -9.128517939953416649e-01 3.181824776160449564e-01 -2.558544764853680209e-01
3.227023901693125635e-04 2.950866746451976178e-02 -9.002635476764204725e-01 5.656348262770002355e-01 3.473086303137579156e-02 -8.239241533391793437e-01
2.176638225809037971e-02 -1.169362845533109818e-01 -9.267869197036322504e-01 8.259071750885135232e-01 1.944311934539655062e-01 -5.292200384994680817e-01
-3.871975874596410988e-02 1.759896589758452303e-03 -9.175061667210516747e-01 3.528280820312213462e-01 -6.238173022816057012e-02 -9.336063754409085202e-01
-2.756110134631390568e-02 -7.807077776826154558e-02 -9.403951742003765490e-01 2.735839209411541351e-01 -6.681826917469127491e-02 9.595244432045296756e-01
9.951563803814211448e-03 2.132492223471594561e-01 -8.082537891893167847e-01 -9.545064050761650210e-01 1.241156890060778062e-01 -2.711324739147315532e-01
2.887713568391637661e-03 5.051680329895970323e-02 -8.566684292048117877e-01 9.791219658107006563e-01 -3.573533652713219155e-02 -2.001078753829594048e-01
3.590642254218719825e-02 3.962613856926372989e-03 -8.545498541099751932e-01 9.131900801037706739e-01 -3.239924087509927775e-01 2.472100254273659203e-01
6.337004664464501030e-03 1.250464188307037483e-01 -8.545250532224216711e-01 9.387292568242927571e-01 -3.333575171681281701e-01 8.752227219178244921e-02
1.770236494684507625e-02 3.638719831542699956e-02 -8.102587571403219169e-01 -7.776116226102375295e-01 -1.360268749352656625e-01 6.138540980370006395e-01
1.762119224019126741e-03 -1.260863557511279487e-01 -9.542660072109984126e-01 7.500481903877094236e-01 1.369040256356043039e-01 -6.470587298390221287e-01
1.289430497562625046e-03 5.356613268971908287e-02 -8.781165529861874042e-01 8.503416358650732754e-01 -1.686195460213554542e-01 4.984842535264913388e-01
1.603329294835552712e-02 -9.251533453668156493e-02 -9.277030628499681741e-01 7.844742973073123293e-01 4.398542060260590691e-01 -4.371822895605266268e-01
2.131260072885424531e-02 -6.339792410988397131e-02 -9.019343821980313480e-01 6.404543654510532757e-01 5.342457534563100907e-01 -5.517242795895322960e-01
-1.155319216730497835e-03 4.434256122452833598e-02 -8.973623070447962480e-01 6.134333798165855223e-01 1.876642194100589245e-01 -7.671255629165372181e-01
1.522047890607219379e-02 -5.900275809065725491e-02 -9.098695194333313863e-01 -8.328769622051781507e-01 -2.207084180992211209e-01 5.075468057312685355e-01
1.521211972905781896e-02 2.647739323471655082e-01 -8.018131412979223605e-01 -2.811308865259469214e-01 -9.346841102321497008e-01 -2.175569781015305737e-01
4.576943791147460895e-03 4.658579253925305280e-02 -8.922826220460512436e-01 -9.169465942071363118e-01 1.362541396966051033e-01 3.750250028831031424e-01
3.164158934980368550e-03 4.519383571976289676e-02 -8.871017269641611191e-01 9.818976557294669671e-01 -1.545493690437095835e-01 1.095056446087088603e-01
-1.336200894495445136e-02 2.065891381236246160e-01 -7.672962566315791877e-01 3.459662109364620708e-01 3.143980101643142344e-01 8.840029819491488361e-01
1.052559354268485514e-02 2.335937515287508648e-01 -8.047212360110941320e-01 -5.060449278666787620e-01 -3.638456213736668277e-01 7.820069659457122846e-01
1.355412384133239910e-02 -1.120394220192817009e-01 -9.401598109564612837e-01 -8.002553791002774419e-01 -1.197802086404137212e-01 5.875747014968651927e-01
-4.665390700092651548e-03 1.631983929482970219e-01 -8.807083556574790695e-01 -3.732696024735090989e-01 -1.152171060890092996e-01 9.205405055366888689e-01
-6.643515089299873062e-03 6.357027278876143869e-03 -9.119034776987843260e-01 3.894475602435502615e-01 1.908974441144445366e-01 -9.010487021526188967e-01
5.385192975818124672e-03 6.204724995463362092e-02 -8.417401826702588519e-01 9.946828331984669536e-01 1.806097283657383604e-02 1.013896572657571743e-01
4.410802489752343319e-02 -1.927516531220007517e-02 -8.624748116214474569e-01 -1.437540100567629708e-01 -4.091346791280270345e-01 9.010791302252019186e-01
-2.723212533845142946e-02 9.616400388073945149e-03 -9.115867447519049316e-01 3.028893971592619416e-01 1.055681897249303586e-01 -9.471606887992659596e-01
-3.104481528247451591e-02 1.115749648207520726e-02 -9.143865507909407775e-01 -1.671870468888702332e-01 1.700085387527138035e-03 9.859237298403227268e-01
2.801290780542305126e-02 -5.354567826164860489e-02 -8.919750596089978112e-01 -4.226883124358972177e-01 -6.466406484262128274e-01 6.349728044042677322e-01
-3.822955493229412971e-02 4.897228731278261034e-03 -9.183286056557259380e-01 -4.307109244961211947e-01 -1.899099120714526912e-01 8.822824518354142054e-01
1.555561421539463501e-02 2.396517079002913886e-01 -8.559795028607211087e-01 -7.519089665798796007e-01 -2.249562471015862097e-01 6.196995988918726495e-01
-4.186685090599666370e-02 3.331284811179443389e-02 -9.136562712668542252e-01 4.022682423030491394e-01 2.942395721021171529e-01 -8.669505957340236657e-01
-1.553064607866126625e-03 9.752787115178880584e-02 -8.889882764816076088e-01 -5.085927805978013305e-01 -3.801537540790355107e-01 7.725390001698378972e-01
2.413621873057568857e-03 1.796071909609630590e-01 -7.881821456203045306e-01 9.384390751576264789e-01 -1.516819406104543133e-01 3.103621934288153805e-01
1.696735389649355746e-02 2.135103180985173377e-01 -8.154363730725081583e-01 -9.051608712801425538e-01 2.540687765482736449e-01 -3.407827077283073769e-01
-9.917989779518843023e-04 4.828329701760181343e-03 -8.958344974964287388e-01 7.990681948612092800e-01 -5.598741816528468931e-03 6.012143328724961489e-01
-1.483116553332553423e-03 6.065352514545506446e-03 -9.080662327444880555e-01 7.702266997693407724e-01 2.133688604805881461e-01 -6.010196006285031256e-01
2.226821544081783802e-02 -1.311765552534940038e-01 -9.162318399630138277e-01 4.458568510725693379e-01 -7.532769815027141602e-01 4.835136580178602261e-01
-9.597289976479496387e-03 -1.299316513588546773e-01 -9.717727509747461356e-01 -3.142359424157733505e-01 -5.240319845378352825e-01 7.916099113044308133e-01
-3.595191789460081000e-02 -1.031678615983306763e-01 -9.516491799887517589e-01 6.703285701765525628e-01 -4.012511352348242522e-01 6.242252273641488713e-01
6.727201433828300034e-03 1.827317565810489541e-01 -7.983306529571831955e-01 9.130338392653803981e-01 -1.639133706061854656e-01 3.734991503241191224e-01
-2.824647992102603464e-02 -1.146506965073224443e-01 -9.633365640828785992e-01 4.130568346834490034e-01 -4.691565973488144303e-01 7.805614251840609086e-01
-6.862779598037259746e-03 2.348721545181056969e-01 -7.799848217497262759e-01 9.077671844743582241e-01 1.217976409202923133e-01 4.014026325994239364e-01
-1.425120747096486791e-02 1.100536818128574068e-01 -8.921361980315194451e-01 2.330965759579168295e-01 8.572736739218210153e-03 -9.724158032763018378e-01
6.631591511303076315e-03 2.459945054790274588e-01 -8.025140989553454229e-01 9.837394138558149814e-01 1.795070872123332995e-01 5.828487553533909932e-03
-5.148158688175321317e-03 1.643225941451315619e-01 -8.789478474925095375e-01 6.222069019692063607e-01 1.795973121120751637e-01 -7.619733437752270744e-01
8.361846853013251216e-03 1.603471359590923906e-01 -8.177513576051461675e-01 -9.310483134217379941e-01 3.645309699883647059e-01 -1.631594293565230905e-02
-3.800290367490101462e-02 -1.050348927443653796e-01 -9.464683502870230303e-01 -7.723188340962168219e-01 2.135961870730934686e-01 -5.982476806207414066e-01
3.925203525890754927e-03 1.102975157958676622e-01 -8.813926724303964289e-01 -8.557299509999334308e-01 -8.800169537431891398e-02 5.098842540939046986e-01
-3.511527917364883067e-02 6.629995088656194524e-02 -9.033714061932853756e-01 3.176578509112167881e-01 5.152660831040900558e-01 7.959864027463259273e-01
3.162080420793923416e-03 2.015506815618715031e-01 -8.758075791889499140e-01 -7.721543619917224932e-01 6.291573357082898277e-02 6.323126218306894808e-01
1.546424713696279828e-03 2.182589357741348060e-02 -8.887035424954529139e-01 -9.801119217577004550e-01 1.098155377219695028e-01 -1.652911628105458997e-01
2.840569492556344056e-02 -1.207208947656876197e-01 -9.039337305596906180e-01 8.145961948447636436e-01 4.293243887301171485e-02 -5.784374166985114529e-01
1.795487754559163193e-02 3.414820294012463342e-02 -8.076287076602459702e-01 7.890712785545554997e-01 3.503678395404834500e-01 -5.045878460446835412e-01
4.566860663498287405e-03 3.977291957726852845e-02 -8.323542874437620531e-01 9.619837906823948126e-01 1.167772212855119618e-01 -2.468810787670157048e-01
1.713030731603948018e-02 -6.586220551017632485e-02 -9.126919794496632932e-01 -7.909423449681426410e-01 -4.126254667782759400e-01 4.518300909659577758e-01
-9.475094140612878857e-04 2.526168147478506654e-02 -9.045785145189847443e-01 -6.059768427570313420e-01 -2.996111475780044997e-01 7.369024537136590336e-01
-3.951404560543361755e-02 1.245212964571450892e-01 -8.931634872959769433e-01 -2.214692338696429286e-01 2.103034315310588209e-01 -9.522204813673431634e-01
9.372853114891449219e-03 -8.535502917136056356e-02 -9.331809083724826870e-01 7.169970023605704013e-01 2.267380701022652656e-01 -6.591700434427044675e-01
1.694664988601999114e-02 -1.644791665610004575e-02 -8.716957482646853217e-01 6.924859936852026943e-01 3.650065320098445087e-01 -6.222807888244373808e-01
2.476879192201841134e-02 -8.186563032275645524e-02 -9.135712726862160737e-01 -8.154989193774866418e-01 -1.283691645186756103e-01 5.643428657251984282e-01
8.726961871304691684e-03 2.031534178411621150e-01 -8.032687562403955095e-01 -9.495745360995940798e-01 -9.093471906001554528e-02 -3.000651216998022619e-01
-8.302129937083378231e-04 1.649292612021550364e-01 -8.754786481864837988e-01 5.671717481910695247e-01 1.538569001866220143e-01 -8.091008974898310502e-01
7.352709869374262491e-03 -1.499535726229611968e-02 -8.976027952833512957e-01 -9.865863510713153151e-01 -1.628983917132766635e-01 1.055868633000283004e-02
-2.291906456352145547e-03 1.801977257058940962e-01 -7.779172074654263636e-01 9.211945447969345224e-01 2.139203218246699817e-02 3.885138242012413645e-01
5.938412853635985367e-03 1.833207838471616336e-01 -7.959857935976423216e-01 9.486843831566833529e-01 -1.301806202799229151e-01 2.881856125106840860e-01
1.322672723839528677e-02 1.668950121954546617e-01 -8.351818827761505748e-01 -9.650669281416002221e-01 1.285111477743471342e-01 -2.283215038165602173e-01
1.921221227765176377e-03 7.159878434107477992e-03 -8.992169483139141883e-01 9.604392891150658196e-01 -1.915570958864321049e-01 2.021441340719628277e-01
-2.849546104303583502e-02 -7.455861607365343868e-02 -9.379729445303657265e-01 -3.094655521207935744e-01 1.574553435952063540e-01 -9.377840299471342789e-01
-1.831469373686328908e-02 -1.612718058968105883e-01 -9.911828835889799905e-01 -8.437318419875507181e-02 5.424813057149084905e-01 -8.358200755772805524e-01
4.749507887314112844e-03 2.003097419302990456e-01 -7.925194757502160847e-01 -8.720473105216290932e-01 -1.145597733863421147e-01 -4.758251217975608127e-01
1.860934782505388029e-03 1.734320668726251347e-01 -8.740292921512058388e-01 -5.782717080963419853e-01 -7.232107679501188768e-02 8.126324467227167281e-01
1.094004906553716280e-02 -9.312541541447930116e-02 -9.373681155540781740e-01 -7.131184199312470273e-01 -1.490716272900634576e-01 6.850107802741898233e-01
8.233635443203587978e-03 1.683692179766590191e-01 -8.008258233599746534e-01 -9.063951042622679921e-01 -1.848014103481554204e-01 -3.798635988124227647e-01
-5.416632296527099100e-02 8.790979912900309667e-02 -8.960043344329794435e-01 3.161650805798307817e-02 -2.509907147502330460e-01 9.674730267699387376e-01
3.593215939164556318e-03 1.232800352066669575e-01 -8.760142901263074933e-01 9.513278268493811085e-01 1.439295179407727165e-01 -2.725062563086785294e-01
2.130273164911584624e-03 1.102092422433097879e-01 -7.812249249914264837e-01 -8.748412093753066276e-01 -4.648849992552104848e-01 -1.361425570724816292e-01
-3.730605181337004472e-02 1.024781177865592557e-01 -8.970039042222303083e-01 -2.060082909957632602e-01 6.541479389153122270e-02 -9.763613515400604292e-01
4.196041306830764969e-03 1.037528700154189271e-01 -7.703949570201734653e-01 8.498661439369210591e-01 5.204496572009437161e-01 -8.282325584767268045e-02
-1.132428490077034069e-02 -2.214079341096023834e-01 -1.030958543702231278e+00 9.485570615082812296e-01 3.148515064428730748e-01 3.328708388292268144e-02
8.585585832921946436e-03 -1.777250342998002927e-02 -8.925906836030673697e-01 -8.926619813006095860e-01 -4.421932858629327168e-01 8.729080752412134159e-02
7.253137900765013572e-03 1.092554063490847327e-01 -8.569456271419771953e-01 -9.619360890529642383e-01 1.476021913100139804e-01 -2.299838118172012336e-01
-4.827579197140877132e-02 -7.735142944166206735e-02 -9.351865679638960982e-01 -6.115214112621887299e-01 2.347029887871799822e-02 -7.908797055421542543e-01
6.015708046730613989e-03 -5.769626003065082831e-03 -8.961325567867363118e-01 -9.889556492898077256e-01 -9.104756030219458840e-02 -1.169489867454762966e-01
-1.840215358098096221e-02 -1.748400430235604736e-02 -9.207560412397364225e-01 -1.664152003892556408e-01 8.359610501975284214e-02 -9.825058128606314334e-01
1.960758526983453348e-02 -1.326363250648440462e-01 -9.278627737292561850e-01 8.757801602520753903e-01 -4.680678587689206943e-02 -4.804354646617217117e-01
7.239329493380596003e-03 8.610025601346622121e-03 -8.611927966516988997e-01 8.406048797286942431e-01 4.669228603673817868e-01 -2.745295587776482304e-01
-2.181016093937418465e-02 -1.439806091874549776e-01 -9.818401538956035290e-01 -1.035719942457519471e-01 4.025109246227340787e-01 -9.095371336934572337e-01
-6.711090030664812987e-03 1.742872199992561433e-01 -8.783148867165027074e-01 5.565246132224401787e-01 4.022141032904913947e-03 -8.308213870978077287e-01
1.051405155426128266e-02 9.878517314104520719e-02 -7.970478242827864213e-01 -8.616779173928349467e-01 -5.030418584031198792e-01 6.678364599123351453e-02
7.556986198253142113e-03 1.086505250412952844e-01 -8.346403872695696835e-01 -9.825798298070888004e-01 -1.815552875840992508e-01 3.968067043949530248e-02
2.100193369056693390e-02 -1.262400107818276995e-01 -9.309006570009109582e-01 -9.576559450487799330e-01 2.154893875486496857e-01 1.909434857926199380e-01
8.237403260358660759e-03 1.420437680019353277e-01 -8.436426535210830302e-01 -8.284837385545705812e-01 4.049608239771130824e-01 -3.868092889195136608e-01
-3.797828501878443980e-02 9.368663320369806369e-02 -8.976326902602951296e-01 -3.222305772018065340e-01 1.299453551462789180e-01 -9.377001971803662350e-01
3.548737391761296045e-02 -9.596837600390739631e-02 -9.013961728271053797e-01 8.847965465731471024e-01 5.606064171649460803e-02 -4.625929913245206415e-01
3.532531968927993260e-02 -5.709364517700536018e-02 -8.886845781765846386e-01 -5.683736006005809527e-01 -4.310814206851592001e-01 7.007997280824219688e-01
1.335450308176143117e-02 1.903982444808330621e-01 -8.587429401029149645e-01 -8.458380065085345789e-01 1.308685234402428010e-01 5.171377923902286122e-01
5.316877880310450204e-04 -1.855616538201609600e-01 -9.861827788742122403e-01 9.114783743276682060e-01 2.946665421926667472e-01 -2.870170762258038577e-01
-1.467083469123920195e-02 9.743634633276782031e-02 -8.929544212216942167e-01 3.897614309519668030e-01 4.331389209619124908e-02 -9.198966972947313359e-01
2.465684483324538483e-03 -1.526035389926539976e-01 -9.657822571893243113e-01 -8.853806116047790997e-01 -1.599224585061413684e-01 4.364928176496140066e-01
1.778489780985908391e-03 1.275553378682854622e-01 -8.787684600950304015e-01 8.986767043165888591e-01 6.884855932903111153e-02 -4.331743955925737577e-01
5.317253719689891966e-03 -1.529656560848412783e-01 -9.602400408480790128e-01 -9.193249361257922470e-01 -4.952448166090810122e-02 3.903703210203442464e-01
9.587395027794907293e-03 -2.833264146493861060e-02 -8.957634316608409364e-01 9.070870942141304738e-01 2.626917164195513577e-01 -3.289165025271849063e-01
-1.040470154150847058e-02 8.234689955607393808e-02 -8.944124997380544784e-01 -4.725222315344537044e-02 1.438374075439329547e-01 9.884725730125735188e-01
7.255832853422927199e-03 9.397004515976797867e-02 -8.766202071570654564e-01 -9.674570506095232503e-01 1.715336245085522793e-01 1.860190067946869419e-01
1.120451270155776655e-02 -5.472163239889224484e-02 -9.175285127099420679e-01 -8.754128770522620062e-01 -2.781649492110692123e-01 3.953182967198518583e-01
-1.275554600981756851e-04 1.240892638323814606e-01 -7.961557607373377365e-01 8.927078061268634013e-01 1.393830419085122785e-01 4.285383769378103280e-01
3.970967599086939505e-03 -5.803873365264840961e-02 -9.299439242562762553e-01 -7.307935546357158252e-01 -4.416068960765565654e-01 5.205037270188608289e-01
4.363748225037736468e-03 1.960938429111900305e-01 -8.716744667809261937e-01 6.653544978647408792e-01 -2.585291410076155927e-01 -7.003328318885406745e-01
-5.330488346714124664e-02 1.337159537759678718e-01 -8.805036779814341408e-01 9.816531451108929662e-01 -1.856114478201437712e-01 -4.365195450381056247e-02
-1.765970044475727654e-02 2.056587662180897891e-01 -7.654158922647809060e-01 1.707819477887397019e-01 2.119968022620068171e-01 9.622322391918530782e-01
-3.195820046907169813e-03 -1.944605955305595546e-01 -1.009372687099588051e+00 -7.731092726160326833e-01 2.802401675376691714e-01 -5.690057127073224752e-01
-1.007816542615302610e-02 -2.034106955426464858e-01 -1.013243198794414379e+00 7.695733522683452232e-01 3.927869127319533749e-01 -5.034633022028145444e-01
1.682125485920892352e-02 7.857093221094227364e-02 -8.027939472701899337e-01 -9.791184299703037386e-01 -3.130747828283424183e-02 2.008654820920150463e-01
-6.581712205650870444e-03 -1.746755302909397956e-01 -9.914904768531729307e-01 -4.947851516681631701e-01 5.414793372209428801e-01 -6.796968302496937397e-01
5.208795357855230956e-02 -1.748083481114564089e-02 -8.541099503374508517e-01 7.662668336005687975e-01 9.922123973948213105e-02 -6.348151583794438002e-01
-9.077921445627952154e-03 1.682350316925441125e-01 -8.831357510297915825e-01 -6.124430301408712030e-01 -2.856018041751946512e-01 7.371194911842596786e-01
-5.103843515251925422e-02 -3.265888207593523745e-02 -9.318507608700034028e-01 -7.061029924942737734e-01 -1.657348721149258172e-02 -7.079151668895661276e-01
-4.851929470237622763e-03 1.544858640073895339e-01 -8.812402569949330244e-01 6.127735887400095338e-01 2.428260833559220400e-01 -7.520266100243478968e-01
-1.566380665110036737e-03 3.072090805727874935e-02 -8.855285377953286963e-01 6.764830337820417760e-01 -3.270859105493419405e-01 6.598374891783224117e-01
2.298669755090114106e-02 2.899755930957843147e-02 -7.951353034018894261e-01 -9.558164731482629017e-01 2.929777128717760970e-01 -2.406095215987157782e-02
1.133865401492661906e-02 2.276518098473716278e-01 -8.665447904014662583e-01 -7.756466954148515391e-01 -1.227650546685520178e-01 6.191130310728795161e-01
4.586775068679223625e-04 1.717317596788819345e-01 -7.794582753698410249e-01 -8.961208036611755245e-01 1.514538536723282480e-02 -4.435517134988065657e-01
1.018105561896307312e-02 2.210999550391105073e-01 -8.690268208203351108e-01 -9.270812199482836302e-01 -6.352078506991414020e-02 3.694394693089845805e-01
7.201747766994024379e-03 9.852415498302942443e-02 -7.825279677384708865e-01 8.440414871748758152e-01 5.344597235211546726e-01 -4.412223771880678658e-02
-8.561268820915377692e-03 1.649378563335578973e-01 -8.812640409039373957e-01 5.706988191890014495e-01 1.951025027246546251e-01 -7.976452038386839805e-01
-1.513774616701609767e-02 2.033378103959684602e-01 -7.657322383232341156e-01 3.163505576910221051e-01 1.766196591968025587e-01 9.320556961007128161e-01
1.375349176757933480e-02 6.987657811372048611e-02 -8.116491057204060500e-01 -8.700409515443204844e-01 1.523419441986396394e-01 4.688503755716019183e-01
-2.332379631816179763e-04 -1.434379624979301437e-01 -9.628194996298643504e-01 8.956274742063343730e-01 1.718223805857542752e-01 -4.102785602205241133e-01
2.033419782730095521e-02 8.307140941381757626e-02 -7.769209964290447745e-01 8.144480070969937202e-01 4.573380219459929896e-01 -3.570943536633732762e-01
4.900275648846059290e-03 1.393034989079433850e-01 -8.309416198780428253e-01 -9.948186446527420568e-01 -9.720491432061927062e-02 2.978370163702013379e-02
-5.977343128517264431e-02 8.518025434492718095e-02 -8.920466860655901220e-01 7.520261007896025252e-01 2.668100968897474945e-01 -6.027181065215069244e-01
6.336271484212731633e-03 2.126894142009866651e-01 -7.972776944681864153e-01 -8.710124483337013945e-01 -1.608932315166306803e-01 -4.641666542308564014e-01
-1.008688667115765006e-02 -1.816668733821072967e-01 -1.008417853690667387e+00 1.487142885013646026e-02 -6.412979708151862468e-01 7.671478040327560644e-01
1.033368421932803153e-03 -1.281937004627929366e-01 -9.589857431121262543e-01 -7.113569788778445480e-01 -1.151866982472821987e-01 6.933276809335363611e-01
1.313363171129731770e-02 -1.145068263732473834e-01 -9.382967262043957479e-01 7.655126900157729342e-01 1.593372131530494396e-01 -6.233794782710088134e-01
1.450606670373591651e-02 1.810289675207494009e-01 -8.362261691922524554e-01 9.836537854465101649e-01 -1.762530812604299058e-01 -3.687928582490928447e-02
3.537388128098958168e-02 -2.915383838631960267e-02 -8.679453746119981661e-01 1.903738699634927589e-01 5.596249418573603363e-01 -8.065839783223253123e-01
-2.241123412800393941e-03 3.072486634936746897e-02 -8.825249649555029219e-01 6.861643089923086247e-01 2.731921972895283712e-01 -6.741992023172582726e-01
1.807819548860714262e-03 1.160491943378164359e-01 -7.921537875852915356e-01 -9.574519159679386604e-01 -2.533181398083600988e-01 -1.382597144990394822e-01
2.224241594561276666e-02 3.340985868905063660e-02 -7.915685932163110117e-01 7.672633519204209440e-01 -4.965824677312344892e-01 4.058482494009280073e-01
9.427240496741975603e-03 -1.023718980520106625e-02 -8.800078123309376110e-01 -7.982721285963584323e-01 -4.008094111951970850e-01 4.495702665919967811e-01
9.228789619208813827e-03 1.923436558881980729e-01 -8.075349997634105881e-01 9.712349178498435043e-01 7.109264053093757377e-03 2.380172109613749032e-01
5.164212524493717871e-02 -1.961478568909747269e-02 -8.549012848499527584e-01 7.764690993423191134e-01 -1.066774694864487498e-02 -6.300650259628507444e-01
