2.732316359529476588e-02 5.849650474976422765e-02 -7.253645985260049889e-01 8.336616277260056052e-01 -4.424573828778833873e-01 3.305143791033625100e-01
-7.996818310062958970e-03 2.328038599383495111e-01 -6.437540588086627658e-01 -6.549517111383877932e-01 3.582902310176050431e-01 6.653317717005923226e-01
3.746743120483168876e-02 1.734537923200253073e-01 -6.536864580165325789e-01 4.407472349407665774e-02 -4.902498619306527861e-01 8.704668239662536333e-01
3.056184502983403523e-02 1.071270259883370796e-01 -7.623885374588948993e-01 -8.771294082780853874e-01 1.681074942146920936e-01 4.498709498540588436e-01
1.129510042302248919e-02 1.046613610050600163e-01 -6.952221341309897662e-01 7.073061628030824499e-01 -4.440325046102704953e-01 5.500482950708145413e-01
-1.290443666360457931e-02 -5.231585021370969979e-02 -8.208787321177464236e-01 8.859171586796398268e-01 -2.362304332867626866e-01 -3.991816257621861874e-01
1.245581175915676242e-02 -1.157877705349958167e-02 -7.653164164678498693e-01 -9.110287440405676618e-01 2.725286044554565135e-01 3.094427043661347465e-01
-1.729882446212367350e-02 -1.673594550204066944e-01 -8.193530009153158211e-01 5.071117878889300767e-01 -4.271697052598175670e-01 7.485744301619803309e-01
-1.629905243987578647e-02 -4.208657179174643548e-02 -7.408379834442274658e-01 -8.853417005141339668e-01 -3.262408596135379923e-02 -4.637949356622255159e-01
-1.163289231862941683e-02 -1.408453303014273877e-02 -7.377229624497909644e-01 -6.336620708700333449e-01 2.919639081650474699e-01 -7.164003463634651681e-01
7.733848067038663621e-02 1.779250190437670909e-01 -6.744438665221486051e-01 7.147684540920979934e-01 -6.073650603461163699e-01 3.467185321057279501e-01
-1.991994473457081669e-03 1.818175184751562035e-01 -6.489889149053911233e-01 -7.656101115963866166e-02 -3.266311213086804388e-01 9.420459235954730115e-01
1.460537579695757662e-02 -2.301031921366666066e-01 -8.747090489638041921e-01 8.010639960399475179e-03 -2.903069380209312711e-01 9.569000529754068118e-01
8.791676589196212657e-03 1.683543725304036676e-01 -6.548816500517877781e-01 1.568549907875322613e-01 -4.746494182368828918e-01 8.660857010899278841e-01
-4.693754657046878345e-03 1.142974570416832591e-01 -6.776875039364618214e-01 1.203759877462281941e-01 -3.434271341982691461e-01 9.314329954808795442e-01
-1.351297768720182736e-02 -1.794699011056654081e-01 -8.287080408586602331e-01 4.108880685658402032e-01 -4.979104077318859956e-01 7.637121322740005880e-01
-2.102482232902685988e-02 2.049092407837372065e-01 -6.472164360866243804e-01 -3.719633911968116546e-01 6.095859394018102867e-02 9.262436425877395019e-01
-1.575054565747367741e-02 4.977883099568446851e-02 -7.099772243160465957e-01 -2.384517562403244695e-01 6.156199056688193005e-01 -7.511011194840672145e-01
-3.168067320061965925e-02 1.016838284200769355e-01 -6.674132145559645846e-01 -4.618272660772657079e-01 1.320042707475245769e-01 -8.770920412431144619e-01
-9.497485555600451018e-03 -1.377756379383913710e-01 -8.078221909086821251e-01 -5.235448565128110188e-01 6.648362658983236750e-01 -5.328165939282989427e-01
2.503697596902892952e-02 1.666295682410076084e-01 -6.593766981278967876e-01 2.159698022296351050e-01 -6.995752744064941409e-01 6.811398387731927295e-01
3.572613162837080802e-02 1.129749361840889088e-01 -7.565786208035155669e-01 -8.658208978378161280e-01 -2.594396786513526454e-01 4.278378501355401542e-01
-3.997024426815810189e-03 -1.276489312721943714e-01 -8.101439452775108796e-01 -9.950531925545129663e-01 -6.909016306779041869e-03 -9.910302457919419050e-02
-8.805233962258731881e-03 -4.953173429293643293e-02 -8.169998245241288926e-01 -7.881284075503993680e-01 3.984503379202858908e-01 4.691385098489374572e-01
-1.797549609974379015e-03 -2.803875993144601397e-02 -7.493607429366577755e-01 -6.388364712353443720e-01 5.777337821745021779e-02 -7.671702547602562428e-01
-1.336491848349991886e-02 -7.551990122855377352e-02 -7.583254959064068546e-01 7.044139531756336003e-01 -3.408071907975859238e-01 6.226166085739555101e-01
-2.592870883671466453e-02 -1.917976419975600533e-02 -7.101104737034051873e-01 -9.999770385429588293e-01 -6.527395906404442026e-03 -1.820848575473526599e-03
-2.607257852837590109e-02 -7.382973226433861558e-02 -7.260047281089895277e-01 -8.663208606232324360e-01 3.243547348029570121e-01 -3.798449321235255471e-01
4.514558322792452949e-02 1.869769316261844783e-01 -6.450400898797832294e-01 1.431095190142191338e-02 3.932267069483072475e-01 -9.193301657175542152e-01
2.313247038440193956e-02 6.336273556089155878e-02 -7.845440782245346467e-01 9.200827001579365838e-01 1.400099037646635736e-01 3.658483999116166063e-01
3.938789601654593686e-02 9.946538382413076806e-02 -7.016699934761287949e-01 -5.976917821097826877e-01 5.490801798381044208e-01 -5.841878890454569317e-01
-2.908533988582636797e-03 -3.064957969521051040e-02 -8.141330951075657074e-01 8.015034523175080805e-01 -2.299556131989657637e-01 -5.520078186777824802e-01
-5.755359607953287882e-02 5.110199597363834778e-02 -6.748622910908989025e-01 5.092648126909367079e-01 -5.988076848309685785e-01 6.181251549178696791e-01
3.851171975343310738e-02 9.698935403575061065e-02 -7.519372402174018255e-01 -8.785236000178577864e-01 1.834723483865861871e-01 4.410602924648445722e-01
2.180570609244519842e-02 4.387986772217896542e-02 -7.735122473444180358e-01 -9.903979107381484237e-01 -1.145154561193023474e-01 -7.744797424916051443e-02
-2.622533176474255590e-03 -8.162422479141884235e-02 -7.737961397746770942e-01 -8.690390179432595508e-01 3.697964446117136816e-01 -3.286666622046580666e-01
-1.209156087504824340e-02 9.696545826152150327e-02 -6.800902298065671925e-01 -4.387880750033274491e-01 7.288117441351944503e-01 -5.256410056735396630e-01
-1.229448753051110184e-02 -7.757283157835648257e-02 -7.606045406795671759e-01 7.434352472693196434e-01 -9.371177607491019967e-02 6.622100392945514669e-01
2.474304210174810281e-02 1.210872390858285380e-01 -6.839483567053495916e-01 1.045596762850915656e-01 5.144070125863774434e-01 -8.511478716986345949e-01
3.681741515334973486e-02 8.442889381841429952e-02 -7.411553850465480986e-01 8.651093919386114717e-01 -4.741092280873595022e-01 1.637259289850392929e-01
2.224872145758787639e-02 8.666770712428085999e-02 -7.032932164614916770e-01 7.466959067738496159e-02 -6.459412688212471387e-01 7.597264833225635394e-01
-2.483181697188199810e-02 -3.699495095813883083e-02 -7.125215068889688697e-01 -9.934282428731681103e-01 -9.386789794151989552e-02 -6.549155669221772003e-02
-2.617624510369254490e-03 1.310156197828676872e-01 -6.723054498771009468e-01 2.417512480462648827e-01 -1.699692222921709017e-01 9.553359605612404826e-01
4.360434306645013039e-03 5.177936181116025993e-02 -7.224424612803779233e-01 6.984149908839394350e-01 -3.168031632708584455e-01 6.417571629909282205e-01
5.634894351614212760e-02 1.302039301694860873e-01 -7.201132446247846541e-01 9.416837250260881031e-01 -2.795850388794817731e-01 -1.872537531152572987e-01
-2.650844251935153412e-02 -2.314399496140058521e-02 -6.846263707954195477e-01 -8.240922884222844358e-01 4.923839161313832702e-01 -2.800535293440257201e-01
-1.134996411570312821e-02 1.265461511816168838e-01 -6.719684949986339806e-01 1.659695756333963990e-01 -1.344353893617499518e-01 9.769243706916239667e-01
2.858143003083418732e-02 6.613270471600100897e-02 -7.196396478271461783e-01 7.157180867704092675e-01 -4.836685624302826669e-01 5.037979178066629427e-01
-2.481890508542229645e-02 -1.723261361619112531e-01 -8.165402203380452972e-01 1.038799590095416947e-01 6.984121727447915040e-01 -7.081167919757839213e-01
-3.199719398661414471e-02 6.381896481676649358e-02 -6.947432706920156908e-01 -3.704213568127213141e-01 4.801019744635584563e-01 -7.951667199607989067e-01
5.116340763051069329e-02 1.554666288065886803e-01 -6.690476699060274868e-01 6.176995010120983620e-01 -4.312596063969273419e-01 6.576187940895333872e-01
1.350944158051127324e-02 1.270078964186112935e-01 -6.814383768812378728e-01 -3.932210982897567098e-01 4.331806101302202450e-01 -8.110066133312402448e-01
9.903596545437719917e-03 -2.251199901126885450e-01 -8.623038342504159015e-01 4.279507901009128035e-01 4.855149267405655666e-01 -7.623210459931614169e-01
-3.100801567031514876e-03 -4.739179107319491102e-02 -7.664926781083938323e-01 6.347566771239074868e-01 -3.450820800596173799e-01 6.913771176921778006e-01
-1.719926797064421503e-02 -6.335280145609067937e-02 -7.448978683795621780e-01 -9.029090086846001117e-01 2.468013417805455245e-01 -3.519153587604767486e-01
-1.945660159308391229e-02 -1.102132531312634972e-01 -7.656978383394672516e-01 -7.401726114224976838e-01 4.756072257410864923e-01 -4.753338533313901659e-01
3.252439123190629944e-02 7.725262740558398733e-02 -7.344654396440944977e-01 9.382580687862562829e-01 -3.393832449287698116e-01 -6.701350176720886898e-02
5.596747323330070883e-02 1.558673746727863851e-01 -6.710054628416438627e-01 -6.613737615648597190e-01 4.193670873980475111e-01 -6.218649318950429938e-01
5.477959532529107223e-02 1.299087136409275978e-01 -6.981385994220415947e-01 8.606580516924928759e-01 -4.272830123014972892e-01 2.769421337670396888e-01
-1.951964718600822379e-02 -2.199908726837617942e-02 -7.317326105815880055e-01 8.291716298938537344e-01 1.000360122631133997e-01 5.499701850370295464e-01
-2.161825743697979446e-02 -5.249046099282594219e-02 -7.275213551916388521e-01 -9.881126306119173419e-01 -5.009933556928935355e-02 -1.453392094402342072e-01
3.317568412181368803e-02 2.163102445015515629e-01 -6.395209267744426107e-01 3.403229999348476031e-01 -8.360648234843095494e-01 4.303206556133416516e-01
6.044490176924947368e-03 -2.024730347490881488e-01 -8.588791489012175262e-01 -5.066545456137470094e-01 -5.785088444201612612e-01 6.392407123584802342e-01
5.790078182614974076e-03 -2.064026862583620281e-01 -8.523422684016330741e-01 9.207789157329681062e-01 2.937403759785034429e-01 -2.566764108008901535e-01
2.480683259691123313e-02 4.940332001181917121e-02 -7.236791339255294053e-01 -5.994190377938753977e-01 3.858415502007003783e-01 -7.013010161613807414e-01
1.204526660257219245e-02 -1.007676580546929858e-02 -7.611579063023413694e-01 9.556522751999835252e-01 -2.944717753611249544e-01 -3.886183315541380870e-03
-2.361856367169468812e-02 -1.625907867989819233e-01 -8.114237985061909519e-01 3.657300921038264541e-01 -6.214244123753736027e-01 6.928731481545873372e-01
5.711220641975556407e-03 -1.889135721726720174e-01 -8.554385635124285292e-01 9.573743579981709717e-02 -1.889601553195371375e-01 9.773067088115646728e-01
2.300065049349946447e-02 1.409465214269620681e-01 -6.763138140657870556e-01 -6.383667101217896933e-01 -4.556219644475639763e-01 6.204003295624735959e-01
-2.461911132874911728e-02 6.212905963050479458e-02 -6.991112592307655582e-01 -1.870888826436262198e-01 5.925749720215375271e-01 -7.834874935344109392e-01
-1.957935603066005004e-02 2.103314982304507197e-01 -6.463129424707184656e-01 -4.803023023574772843e-01 9.381657326190009916e-02 8.720711834084995395e-01
-3.489836042502100083e-02 -7.793109285624870430e-02 -7.179695883031461667e-01 -4.163243501600754071e-01 6.030542325427654671e-01 -6.804407601518647208e-01
-8.866485582940380333e-03 -9.389242564363257937e-02 -7.743736928973734557e-01 8.216061521533174483e-01 -3.524574518089668151e-01 4.480369129972995856e-01
2.337075792965840823e-02 8.165714140691007761e-02 -7.703185302422791425e-01 -9.875278508573436254e-01 1.622914393744590705e-02 1.566057427686927683e-01
-1.957110180497696750e-02 1.500348632622226230e-01 -6.630689125685960139e-01 -2.214530967274464524e-01 -3.293135474981496724e-01 9.178840413603497339e-01
-3.132846953033131907e-03 -1.778208361576650021e-01 -8.385413591621767582e-01 9.816628069662249878e-01 9.500618529513944754e-02 -1.652632995400301341e-01
-6.216336915171532390e-02 1.122277199479687904e-01 -6.476653038390487449e-01 -4.335177013827982706e-01 -1.787396994884513923e-01 -8.832409198030588549e-01
4.308579687415296788e-02 1.015942200311616556e-01 -7.049583235783040136e-01 -7.120459148154816287e-01 3.290954565666841525e-01 -6.202312437000814249e-01
-4.034521489509420092e-03 -5.706181184634965403e-02 -7.701647639160051906e-01 4.002579304186403286e-01 -3.268707453785584249e-01 8.561244681427184755e-01
-1.838237315716591269e-02 2.260162564219988235e-01 -6.483223840336070909e-01 7.652460801329732387e-01 -4.714992024329042741e-01 -4.382772398223007682e-01
-2.020221646040889357e-02 -6.703828474112981384e-02 -7.374580437295641389e-01 -9.213896009941868748e-01 1.986084917580467069e-01 -3.340596805682588544e-01
3.560850739243215379e-02 8.296248004707879042e-02 -7.388461580857721422e-01 8.583360628867023889e-01 -4.553309789463351742e-01 2.365013800381025322e-01
-4.345332770248651680e-03 -1.336231571827740938e-01 -8.130680455445054022e-01 -4.705755587195818990e-01 4.256042326663868058e-01 -7.729292856867370221e-01
-1.884945709469860661e-02 -1.471572959526807611e-01 -8.052468758023842987e-01 7.555765391097268857e-01 -4.668568350782425491e-01 4.595092916228071811e-01
-2.794585459232484456e-02 1.310097751944848954e-01 -6.680227606029723875e-01 -1.355466128919201596e-01 1.315134611131239528e-01 -9.820037297686677880e-01
-6.745096096907710059e-03 -2.410552550044977801e-02 -7.442979491253858271e-01 -5.562680487526006079e-01 2.703097258463850183e-01 -7.858107342419207164e-01
-2.426231418897017295e-02 -5.443606040239162142e-02 -7.241558009593089817e-01 9.827230814250382807e-01 -7.397392028715998880e-02 1.696561356150336763e-01
9.596832688434631803e-03 1.097908245216269209e-02 -7.952770707751632973e-01 -9.164480599525576254e-01 3.982317520375893705e-01 -3.917173825943157800e-02
-7.388203753073835367e-03 -8.317446497943398187e-02 -7.694253242347561805e-01 7.013793079335659542e-01 -4.102475060412917873e-01 5.828928290771233645e-01
6.730733091139283475e-02 1.714700752416390972e-01 -6.697960763740151702e-01 5.220566245349222978e-01 -6.947634331686903808e-01 4.947329104788341092e-01
-1.357859320691365800e-02 1.423609332138654759e-01 -6.641249803587472300e-01 1.128660127921301687e-01 5.679835225342193539e-01 -8.152643628210587412e-01
-1.218997236415341953e-02 -7.741687511464562244e-02 -8.187041745099377099e-01 -8.697206732434534793e-01 -2.363635555704796110e-01 4.332646075218180570e-01
-2.148207769580145338e-03 -1.335899544881672951e-01 -8.407832465577670389e-01 -8.753744917604451281e-01 -2.338409284057011150e-01 4.231287267221430781e-01
-3.223231853292711502e-02 -6.017056187403804768e-02 -7.108257958640508134e-01 8.164285048861709138e-01 -3.841270209199837971e-01 4.311507024330008542e-01
-2.264730656859589852e-02 -1.305889247255528907e-01 -7.810781690593948667e-01 -5.306837478783512640e-01 6.099799338860560916e-01 -5.884719534473580316e-01
-2.188458115218343616e-02 2.065611283111272456e-03 -7.216708729444645254e-01 -8.962477796605140545e-01 4.642215390599550157e-02 -4.411177859487495079e-01
-3.219483307629815438e-02 1.996729124099614616e-01 -6.519193654354087375e-01 -5.632125211529286357e-01 2.602844920617592428e-01 7.842471799176036207e-01
-2.360939404006506814e-02 9.131187570836286904e-02 -6.760689893220800384e-01 -5.114543562167902513e-01 5.715377544719602021e-01 -6.416845305288402246e-01
4.593894930982517222e-02 2.041877966924421361e-01 -6.388193747972776837e-01 1.897358591537342543e-01 -3.642335311607509118e-01 9.117753223954708774e-01
2.300995944251228026e-02 5.281366351214362292e-02 -7.946500652673694765e-01 -6.429353148238634574e-01 2.604490165530353174e-01 7.202780648672403307e-01
-6.801543835974630837e-03 -1.659886968795148410e-01 -8.363657600848010132e-01 9.036738102823181906e-01 -1.272116398358828504e-01 4.088897691311221827e-01
-1.198440920398573077e-02 2.119353148030467260e-01 -6.435667158192869275e-01 -1.475312830571869904e-01 -5.657444339374897296e-02 9.874380248269701843e-01
8.267853642973062300e-02 2.026238856388926368e-01 -6.537473767077407460e-01 -5.772139471639550212e-01 4.915143098381598574e-01 -6.521025551427663824e-01
5.032557651408818382e-03 3.300457515353526911e-02 -7.280606202574941843e-01 -2.243460511432707749e-01 4.121719358071375128e-01 -8.830533079431943655e-01
-2.138850843001405613e-02 -4.788568151896498148e-02 -7.348391397380952261e-01 9.494940403070744050e-01 -7.014737165788170747e-02 3.058437733072864595e-01
1.187326125909346670e-02 1.768595686978065573e-01 -6.489873071225213952e-01 -7.109375911076261378e-02 3.977591695242862491e-01 -9.147312832055385368e-01
2.326906071965929163e-02 4.131751311753611988e-02 -7.398043133595870735e-01 9.820404391776260677e-01 -1.741794922890030350e-01 7.251262156177211426e-02
4.330634736028624206e-03 -3.024309884328832410e-02 -7.754431944552557798e-01 4.811166771510622664e-01 -1.287039536835156706e-01 8.671574454926580522e-01
-1.192486672265701333e-02 1.436620800244494955e-01 -6.650295808974031608e-01 -3.665558058760106513e-02 -5.662984577260360419e-01 8.233847370390703357e-01
-1.036852504852372667e-02 -1.735840732389780372e-01 -8.253112931427813992e-01 -5.593261040734099909e-01 3.670886390808782429e-01 -7.432363287406029695e-01
-4.771976680639839624e-02 1.871235688917688988e-01 -6.639219063402969079e-01 2.702295590440477735e-01 -2.156490697759162467e-01 9.383344095383275851e-01
-3.082678748280257702e-02 1.153845688482365850e-01 -6.693054589457893000e-01 3.352710399983211964e-01 -1.108484214323085006e-02 9.420565036201936637e-01
-8.928533744198134323e-03 -5.936154284338522602e-02 -8.104667045676486881e-01 7.013084034097518682e-01 -1.596178961610625335e-01 -6.947579798260551387e-01
-1.128983886784187124e-02 -5.997307356788032784e-02 -8.154172618102225600e-01 -8.781335205469820160e-01 2.496800186742650571e-02 4.777636643514360237e-01
1.899613722336701820e-03 6.771426409475539941e-03 -7.443261437288710702e-01 -4.411954800476650673e-01 -2.204491791350407515e-01 8.699130461167926542e-01
-1.396438779902486362e-02 -5.235266530573922522e-02 -7.506527411462503574e-01 7.522985959077933549e-01 -9.365356095117995106e-02 6.521317605486842695e-01
-1.351482330059431552e-02 1.474079181030005514e-01 -6.623619302893842820e-01 -1.566886047655468295e-01 -6.550377431763929614e-01 7.391713171863504295e-01
-1.951609462646487075e-02 5.634657909554791760e-02 -7.044521344803322815e-01 -3.395389755592528869e-01 3.928711182085979914e-01 -8.546142805697194422e-01
2.347083719302349089e-02 1.290190070016277446e-01 -6.824931462178575048e-01 -1.871961314684371103e-01 -5.182218208958473404e-01 8.345080902607499018e-01
4.947089424566279703e-02 1.661630124440022227e-01 -6.585922479943759900e-01 -2.844955522654569191e-01 6.274813753039247821e-01 -7.247961122880475227e-01
1.740977677468630649e-02 1.849965318265078471e-02 -7.394507687461951972e-01 -8.237049070351298852e-01 3.850272408976301297e-01 -4.162502250966433892e-01
3.593093642382420155e-02 7.660790009509416132e-02 -7.432302065649233347e-01 -8.353421432554722914e-01 4.432375699191633545e-01 -3.251829643654614577e-01
1.677338235497068033e-03 -8.163678927165214649e-02 -7.924765803948889964e-01 9.850722961501608976e-01 1.806160535265520853e-02 -1.711909745562971152e-01
5.651217515628471216e-02 1.923635752312034541e-01 -6.458187331147307031e-01 2.854465889746839458e-01 -3.062153509647255745e-01 9.081587987110337767e-01
1.103893496046954963e-02 -2.153768809614969859e-01 -8.606704188554638035e-01 -5.088559316479435157e-01 4.156819710867871720e-01 -7.538395981507650667e-01
6.428445999647727956e-03 7.700708683341160252e-03 -7.870520262326553551e-01 9.486416006562082837e-01 -3.075788526313839033e-01 -7.398893781092313882e-02
6.077338312336731836e-03 -2.282585816858257177e-01 -8.661409971181067702e-01 7.868855337566319497e-01 3.947113154224134446e-01 -4.743565475905741624e-01
1.781872703495977761e-02 2.033105040184070289e-02 -7.480581408419380018e-01 9.837807974296973734e-01 -1.252196772808487624e-01 -1.284343218546692422e-01
4.837766516885835116e-02 1.229268484670545114e-01 -6.960981146100876371e-01 6.533759270316816803e-01 -4.966255831253738040e-01 5.713693447857288721e-01
5.611875477872128176e-02 1.295229563042409326e-01 -7.268096926700410298e-01 -9.350243558889372864e-01 2.127613786138638496e-01 2.836583326200841082e-01
4.327318131075555407e-02 1.053988773296183068e-01 -7.055018972034347025e-01 7.984127958919969847e-01 -4.622122638273554185e-01 3.858715207468876307e-01
-6.260934586226669929e-02 1.435728982978827784e-01 -6.565410495463890328e-01 1.253136484208974832e-01 1.372534334860310290e-01 9.825772155488542436e-01
3.427529922764492760e-03 2.120610984482526329e-01 -6.405214462434981604e-01 -9.572566722494742220e-02 1.883756094061258268e-01 -9.774207008321491585e-01
-1.124927353054729420e-02 1.019564299020017141e-02 -7.338675524684598050e-01 4.793424128296257525e-01 -3.831217192313436937e-01 7.895876135780577343e-01
-2.279835280407989384e-02 -7.328795041851701719e-02 -7.376687717123263655e-01 8.860310517836783584e-01 -3.099267042154776886e-01 3.448106919589946084e-01
-7.201647964904118668e-03 -4.615943487966010089e-02 -8.166258220214208663e-01 -8.287344231467091982e-01 2.294399594925256858e-01 5.104474124528005641e-01
-9.018070945294850635e-04 6.194767553196110776e-02 -7.120706601995940854e-01 6.919562948005847369e-01 -3.848099458234304215e-01 6.108336857780642948e-01
8.178967413726480687e-03 2.058177186315395535e-01 -6.430733004112898499e-01 -1.661579948736128728e-02 -2.274266819111618043e-01 9.736534391467402960e-01
-1.288084229154058159e-02 -4.695175311825827702e-02 -7.478955105393928493e-01 -6.374414388183172742e-01 2.443513394939568484e-01 -7.307262380431831517e-01
2.198133079101793896e-02 1.135746989510041938e-01 -6.878904129546276058e-01 -7.516090141308704982e-04 2.658276105790180477e-01 -9.640202884471571476e-01
4.802130591334932697e-02 1.141026435092928476e-01 -6.995359647868255593e-01 -7.784351920575843797e-01 3.060411733624297526e-01 -5.480670141262098394e-01
-1.917716178805410968e-02 -1.350291653915741408e-01 -7.928656072907769303e-01 7.312245484948416419e-01 -4.860748749076712616e-01 4.785831961759693942e-01
-3.872243747722300955e-02 4.802798518933697192e-02 -7.004639706410993316e-01 -7.632193795159719629e-01 3.361080068864532588e-01 -5.518401819712577261e-01
-7.640417529097307675e-03 -1.118583799738406409e-01 -7.936419763294326746e-01 9.667068839312488171e-01 -1.898228651053688321e-01 1.715956888826871141e-01
3.479929037029214078e-02 7.636327092829461871e-02 -7.318658369845391087e-01 -8.002809330105780106e-01 2.856594489149410498e-01 5.272087892906670570e-01
-3.623107311966173444e-02 1.247245144400436073e-01 -6.659832210778353634e-01 -2.145228753697310253e-01 -9.309687915748389442e-02 -9.722720334526957497e-01
5.189377985176964886e-02 1.165367468185905947e-01 -7.294222139036915520e-01 -9.744289976058696512e-01 2.209579061683672740e-01 4.081338415901285960e-02
-9.577176981333319905e-03 -1.018071186929579014e-01 -8.285266691733967903e-01 7.471980094597530098e-01 4.223364589340697917e-01 -5.131540218242606199e-01
-5.712778542305692320e-02 9.156126473552883560e-02 -6.518795266758671270e-01 7.498326882592143416e-01 -2.362847757727914166e-01 6.179971232586458640e-01
1.337482137621895731e-02 -5.338259997725565940e-03 -7.529250754524885458e-01 -8.056617732806325982e-01 3.725724391613109421e-01 -4.605419466798847394e-01
-3.642077712928461913e-02 -1.260064345729557667e-01 -7.680684422660557509e-01 -7.044248175325699968e-02 -8.017527845945692233e-01 5.934899570837711691e-01
-4.218683909736591769e-02 7.412690315726765122e-02 -6.777760750027802539e-01 7.687129970976256388e-01 -5.642241088499548862e-01 3.012166713275679086e-01
-1.139007243068428619e-02 -1.323266855786287000e-01 -8.007434176397555392e-01 -9.313187938504580154e-01 2.454487981085187176e-01 -2.690728372170104743e-01
-8.971490195466412521e-03 -8.705943512311629939e-02 -7.699227515903493968e-01 8.006907407042505032e-01 -3.292595881283832959e-01 5.004822288313603984e-01
3.546489011381002282e-02 1.240883599817500099e-01 -7.548793118181501560e-01 6.119276420642481007e-01 2.235250496648162888e-01 -7.586706222400014799e-01
5.989306951316717559e-02 2.110244746013198724e-01 -6.371618530701899097e-01 3.066357806360835506e-02 9.340060757554873028e-02 -9.951563050520534359e-01
1.602727143266279453e-03 -1.814089305131338925e-01 -8.392988473429375818e-01 -7.876311775721086539e-01 1.782862796891137303e-01 -5.897890560115444103e-01
-1.957214377070156872e-02 1.619278777964896360e-02 -7.248389308699425548e-01 7.073254542447735549e-01 -2.356029944916579744e-01 6.664697523248814814e-01
-2.775777978996265064e-02 -8.119479085428356335e-02 -7.282240222806556362e-01 -7.745483828777792734e-01 3.897662031384894199e-01 -4.981537006511373433e-01
-1.395531987956893753e-02 -1.027689434715681610e-01 -7.716512727913314995e-01 7.669785440892479267e-01 -3.806739572329551069e-01 5.165571131940204230e-01
3.173016243363023167e-03 1.285013079276294268e-01 -6.734958232386747401e-01 -3.390365552275644845e-01 3.765771496148415109e-01 -8.621159229520053424e-01
4.180610987892954128e-02 1.022081305766728843e-01 -7.453139868122821143e-01 8.842212600362963082e-01 -2.284109383513049929e-01 -4.074079117313520459e-01
-2.092441258304106669e-02 7.239311808159229478e-02 -6.959454895476726577e-01 9.354984124864007544e-02 -4.260928974042808570e-01 8.998295783002354664e-01
-2.410786232855050351e-02 9.955198831241689195e-02 -6.713365801678824463e-01 -3.401178767536336411e-01 2.900369324293506912e-01 -8.945380974221123216e-01
3.768419659362477053e-02 8.309956891669269263e-02 -7.145629000494307936e-01 -7.455360748598275356e-01 4.787581033431161925e-01 -4.636449498979838824e-01
1.446657690102146933e-02 3.685825349662470718e-02 -7.255933519315443947e-01 -1.460521987633458529e-01 4.635933255293789301e-01 -8.739279053566165745e-01
6.132186731997144036e-02 2.082895655541437963e-01 -6.397454024066629996e-01 1.994986409665948646e-01 -2.857003460507432369e-01 9.373236391551039715e-01
-3.421428588555998980e-04 4.216685176109666311e-02 -7.233148919384275732e-01 3.034769807128123165e-01 -5.704531286501431930e-01 7.632070166021135416e-01
-2.804966081371753489e-02 -1.156683034044868191e-01 -7.604258690674823296e-01 6.471637988517745521e-01 -4.849233495733618060e-01 5.882417551434878655e-01
-2.388978036621932158e-02 -1.436247230115152984e-01 -7.924054671842657438e-01 -5.366055088090432301e-01 5.821174377813627121e-01 -6.108959130217270772e-01
-3.322948897915770777e-02 -8.722277485314651468e-02 -7.296515486126770034e-01 6.158044297289324565e-01 -5.517853398759493544e-01 5.624214105314692125e-01
-3.295012448007125089e-02 -1.504163568735496503e-01 -7.940546162697166288e-01 -1.615895982515219709e-01 7.858993351143171990e-01 -5.968676878536699482e-01
-2.414111940877466944e-02 -1.334601240899628005e-01 -7.823266554051446775e-01 -5.805683210446961340e-01 5.078804929045771521e-01 -6.363943977804538132e-01
6.114054627396568048e-02 1.351159970104541808e-01 -7.130833676779275709e-01 -9.372978308922607082e-01 3.462769138709035355e-01 3.956103037973125042e-02
1.520350455829867428e-02 2.233401116231214234e-01 -6.406630479218394791e-01 -5.185311995996418760e-02 -1.635932366428295148e-01 9.851642030012767171e-01
-2.991145267235766417e-02 6.637806201404948536e-02 -6.942049141551641656e-01 -3.225088647900294370e-01 5.010267512928464617e-01 -8.030941580043915451e-01
3.506911840305940858e-02 8.666212841164082359e-02 -7.097224343068210262e-01 7.127944756522153202e-01 -2.924465173940575258e-01 6.374943685584766317e-01
-1.915306144510655478e-02 -1.049726057107797372e-01 -7.613376025023383953e-01 -8.115296500706958849e-01 3.865544458116447202e-01 -4.381726685672969746e-01
-4.899352120197771922e-03 1.507867184137149930e-01 -6.610690546205461038e-01 -9.534266998496127021e-02 5.176058935961408425e-01 -8.502904881243111834e-01
1.876750154154177910e-02 1.655825331164715308e-01 -6.590184217744444739e-01 2.417845760531452670e-01 -5.392996645554153368e-01 8.066573563745745856e-01
-2.648539227434633728e-02 -6.723898408808343108e-02 -7.210753896024915122e-01 -7.796710712039642832e-01 2.372405146995586744e-01 -5.795083769133553275e-01
1.668471935607037868e-02 1.690951898834942568e-01 -6.540219997164296029e-01 -2.438839799254205742e-01 5.405756360239934999e-01 -8.051699113062982249e-01
9.540791961239074304e-03 -1.558280722634936000e-02 -7.667899534008045803e-01 9.972528451528085425e-01 -5.464869392672486864e-02 -5.000283078718501667e-02
2.112756979761643353e-02 1.651070045603028891e-01 -6.601064647285591613e-01 1.856151224168394176e-01 -6.105702268732012827e-01 7.699032565109653614e-01
3.888813597300872036e-03 2.344990139527200479e-02 -7.329581061124974539e-01 -8.098825767798303876e-02 4.300555050060581586e-01 -8.991624796065887937e-01
2.869140996675879560e-02 5.777254216813987320e-02 -7.411344051202845007e-01 -9.323790209262240447e-01 3.089656990854526275e-01 -1.876421011534822048e-01
-2.873446086788677967e-02 9.571204569159291742e-02 -6.703210658402999345e-01 -4.748922219232951103e-01 3.435672808760633634e-01 -8.102091711824696008e-01
3.668584505375109550e-02 8.318572551114737645e-02 -7.122424679863328389e-01 -7.942795159820258410e-01 3.515040288671261726e-01 -4.955451222457321614e-01
6.666427679792570615e-02 1.997624996809994335e-01 -6.442641891003829668e-01 -4.343657278734576743e-01 5.669001895673443370e-01 -6.999647059084266321e-01
-2.778034382697500831e-02 9.042971538211819205e-02 -6.759545690076840252e-01 5.285996974972897444e-01 -6.012715715983969478e-01 5.992118631947866980e-01
2.223748053697297000e-02 4.719875055628221239e-02 -7.872809259335572518e-01 -9.463641067394007456e-01 2.682985593422166359e-01 -1.800301656118424576e-01
-2.864378497183130493e-02 -1.514766223390453526e-01 -7.990228735513904557e-01 3.906179037392421005e-01 -6.236120357304855144e-01 6.771452445158573363e-01
3.621278273951206161e-02 1.960087858546215034e-01 -6.427891498925637492e-01 -2.797209634158481228e-01 -4.405016078088599407e-01 8.530618477833359359e-01
7.228640071387838761e-02 2.241237160508390280e-01 -6.369409460129978884e-01 2.142322675934574816e-01 -3.538080111314158560e-01 9.104528690607753827e-01
-2.160479291812573976e-02 -1.168292080108157827e-01 -7.685533596451653571e-01 -7.483534587583768882e-01 4.634106197026259810e-01 -4.745710677139962641e-01
-1.498960474137914917e-02 -1.396935921287960347e-01 -8.015760626003870515e-01 -8.065329102258400606e-01 4.369125559949817994e-01 -3.982613251830622314e-01
3.654844976728976319e-02 1.074378491103553102e-01 -7.550979736166278933e-01 -4.782378694647800299e-01 -4.742154253920716905e-02 8.769491077097861798e-01
-2.444522191784222198e-02 -1.196973288737974289e-01 -7.699707017574752843e-01 7.582492142823745729e-01 -4.174391139228543768e-01 5.008020718881500688e-01
4.725692533480908841e-03 5.773864842863579011e-02 -7.194373345905523687e-01 8.345984140108735350e-01 -3.119704810119980909e-01 4.540043020805830110e-01
5.064542710785931851e-03 -2.504500573288635790e-02 -7.595845586361409385e-01 7.259705678555896657e-01 -3.752051815972514692e-01 5.763573598992264291e-01
4.855673313547016756e-02 1.311834273493714675e-01 -7.431558107836225835e-01 -7.995023065250055350e-01 8.469098708627620375e-02 5.946625081233457566e-01
1.504980230394910128e-02 -4.015011772783024825e-03 -7.605706092423156761e-01 -9.826453573674864828e-01 1.589223198119766589e-01 -9.566502971151204238e-02
-1.301463636078416600e-02 -1.051160655747938460e-01 -8.362488222996794507e-01 -3.381048897050755730e-01 -4.865622339082363856e-01 8.055695352306624368e-01
-4.138687809920447297e-02 4.501472530748141382e-02 -6.997365256067987760e-01 9.192716528202100612e-01 -9.670325138743308957e-02 3.815600994500055188e-01
-2.561300066873124781e-02 2.067175991324225193e-01 -6.471927635962361203e-01 4.039976191368243041e-01 -1.594453033920460727e-01 -9.007569699746964531e-01
-1.675225993191750348e-02 5.877951036781388881e-04 -7.299123208355388082e-01 -7.448628152579406247e-01 4.717865713979858128e-02 -6.655475646086463914e-01
1.800366448289807478e-02 3.216013688711766988e-02 -7.328305660201951399e-01 6.347566771239074868e-01 -3.450820800596173799e-01 6.913771176921778006e-01
-1.385741803492238772e-02 -6.247312784258516466e-02 -8.179615523767655993e-01 9.767603332678675976e-01 -1.799104258425647251e-01 1.164967382701811716e-01
6.904730371696964422e-03 1.140059021343265283e-01 -6.860242523042440199e-01 7.009430122622362092e-01 -4.665977822865431945e-01 5.394120902668220197e-01
-2.528467183259949791e-02 -1.482077437023270050e-01 -7.984591846225597145e-01 6.017737841095031071e-01 -5.246329530471465219e-01 6.021864971381870602e-01
-1.746790430486515333e-02 1.719241562206228757e-01 -6.506140621729020745e-01 1.098956579871990524e-01 2.920329194887227864e-01 -9.500735330964935610e-01
-1.718813508333130171e-03 1.000418088187782772e-01 -6.869376924757951697e-01 6.384228267986408190e-01 -3.008557978738550243e-01 7.084504803499811487e-01
4.386646564925027192e-02 1.752645180360595245e-01 -6.534052585506758826e-01 1.256017690019504973e-01 -6.188806130821804530e-01 7.753779609807111006e-01
-3.211812673497641685e-02 -5.735166632317040269e-02 -7.087948465802889064e-01 6.979118425707806495e-01 -3.242871460412313778e-01 6.385584600581933890e-01
-2.557114111305929319e-02 -1.925378563980016319e-02 -7.128554338728892992e-01 -9.844533021203878409e-01 1.223761749541488371e-02 -1.752196811499786844e-01
-2.710794451666759947e-02 5.199007001372839970e-02 -7.040709115041420274e-01 -2.818932191021349953e-01 3.916802170546921924e-01 -8.758554792842396797e-01
1.822624502689859996e-02 6.473046051085266928e-02 -7.144180638906203473e-01 -4.747932072472051818e-02 -3.947208697874421968e-01 9.175735115279670673e-01
4.087465844607008486e-02 1.083715370413275564e-01 -7.000094132132894664e-01 5.624270981676703363e-01 -4.558481778112583038e-01 6.898392552130163669e-01
7.570702789590240400e-02 2.065311206353855622e-01 -6.451172863029442928e-01 -4.443360309591285473e-01 4.177844920087021019e-01 -7.924781447008613089e-01
-4.014618560277519177e-02 -7.517065954550140872e-02 -7.138668684117364105e-01 -1.223388727824385042e-02 6.390151601224774991e-01 -7.690968450954065450e-01
6.442080843756053943e-02 1.451424909133676722e-01 -7.077486882778081245e-01 -9.160726526232724209e-01 3.940053650140010744e-01 7.463690411549127324e-02
5.979232981613605280e-02 2.311012440896813569e-01 -6.356058450217788591e-01 -7.669371426736423802e-02 6.205312685646676568e-02 9.951218436147462043e-01
1.067038046740991257e-03 -1.696986720618977040e-01 -8.430701289040464230e-01 9.917670248118743981e-01 1.270449233989423554e-01 1.605477917505276908e-02
-8.451427389267735305e-03 -1.352197555986024979e-01 -8.189821051468246793e-01 -1.095586955836894139e-02 -5.265437959777421462e-01 8.500774081456172748e-01
-1.337337398755862605e-03 -2.344251373129021751e-02 -7.475546786688493928e-01 -5.579825472315959045e-01 3.393243486141412912e-01 -7.573073771082181604e-01
-2.482877171599418356e-02 -9.014904591002728326e-03 -6.760369127433870640e-01 5.860562798994182199e-01 -5.761281810964490324e-01 5.697493797600418075e-01
7.710338585314345343e-03 2.782759726037588657e-02 -7.300036485784490159e-01 2.269692432885969668e-01 9.856792561402118180e-02 -9.689010922902041578e-01
-4.423437154548767042e-02 4.533734724341937500e-02 -6.954642293142628828e-01 5.606536009093540107e-01 -2.109347021655200993e-01 8.007334707689682807e-01
-8.795119120276733565e-03 -1.545423760414957048e-01 -8.212759616464923029e-01 5.807666206812800436e-01 -2.931396240990705171e-01 7.594598693054832594e-01
8.942307991733235498e-03 3.318963148675115743e-02 -8.014611363450991899e-01 8.101209961400749338e-01 -5.294699592959347667e-01 2.517251155847861632e-01
-4.889536892193579315e-02 6.462649102902631726e-02 -6.778603118876691536e-01 7.304988955658566763e-01 -3.907262650025925543e-01 5.600931613706666701e-01
4.981655281597896501e-02 2.148761415081379966e-01 -6.344126999781439791e-01 -2.324214427785376291e-01 2.541613743213288479e-01 -9.388196145904902368e-01
-1.603555574512238735e-02 1.536592198607786841e-01 -6.601997968234546432e-01 -2.019179384181164216e-01 -5.262557814068145046e-01 8.260048418023232530e-01
9.441792731901087546e-03 1.442879108898847615e-02 -7.812536990703164985e-01 9.162421641898249591e-01 -3.835218698505780122e-01 -1.158070460164773441e-01
-5.244601052601250389e-03 -1.355037608323007292e-01 -8.131760605833794342e-01 -9.276840734815586798e-01 9.038294161859374010e-02 -3.622612091751366004e-01
-1.611724340198988914e-02 -1.457714000904341833e-01 -8.087658231067915704e-01 7.994445502004282611e-01 -4.590271996417700229e-01 3.875337935507940368e-01
2.671116383009593948e-03 -3.756272043849447073e-02 -7.755619929033084059e-01 8.608225139505889523e-01 -1.130396774939664006e-01 4.961921309209249009e-01
7.044561410213370616e-03 1.583236881440771571e-01 -6.592514587589468622e-01 -1.677209475999038024e-01 4.840014664413708756e-01 -8.588435621338691428e-01
3.769229712511986546e-02 1.414092054035128165e-01 -6.726596355275619166e-01 -2.487246650727489572e-01 5.463019122411751916e-01 -7.998063901133101172e-01
-3.997903277823702806e-02 5.097513623533064114e-02 -6.970078129131271893e-01 -7.550217984470795063e-01 4.699139851671171320e-01 -4.572996068378981649e-01
1.611499141252867306e-02 1.699729319291001794e-02 -7.591917487337765946e-01 -8.417947771159267623e-01 -6.506843509425880301e-02 5.358615977794372043e-01
-1.064351761846117975e-02 -5.421846783441181677e-02 -8.140693375894827444e-01 8.692724961884751300e-01 -2.732934921296926722e-01 -4.119174608217224809e-01
-2.096062587045317404e-03 1.250822877490886942e-01 -6.728596465339580224e-01 -3.241539797736769923e-01 2.754906346350814994e-01 -9.050022694033682535e-01
-2.627553246578001860e-03 -7.124866293376105886e-02 -7.668587045757251364e-01 -8.454390822923674165e-01 1.580088309543941361e-01 -5.101626872607065710e-01
1.147935722899212120e-02 -2.205615045792696793e-01 -8.700308220432075856e-01 -4.573094094254169240e-01 -5.675239962009314132e-01 6.846784776718934928e-01
-5.276562479918153747e-02 5.817147504439672268e-02 -6.764656784144694734e-01 7.309760195709126274e-01 -3.253975279172263146e-01 5.998253976263616671e-01
1.918653440204304414e-03 3.486058514413359344e-02 -7.291103791189419425e-01 7.013101433231476722e-01 -3.830203714006136240e-01 6.012150014464063830e-01
-2.415437601669290224e-02 -5.232786817013857644e-02 -7.164822002746906726e-01 -9.790861164631194935e-01 -1.934997383863787043e-02 -2.025239616974021384e-01
-1.879951039232991570e-03 -1.252106292603081816e-01 -8.287265299704592580e-01 9.721376985059480003e-01 7.628169135173108739e-02 -2.216515253908213356e-01
1.499548230332443770e-02 1.717260023270324870e-02 -7.614730291320948030e-01 -8.715952509750255484e-01 8.033454737417655700e-02 4.835990890975379597e-01
6.315132107262469430e-02 1.416515268648410597e-01 -7.053712511000701513e-01 -9.058750852283413701e-01 3.166340512033593013e-01 -2.813062522964855372e-01
-4.559101906557425088e-02 1.893121444500990014e-01 -6.562531511053791844e-01 6.300693663890127860e-01 -3.451016275048777726e-01 -6.956417614200808286e-01
5.585482658594344979e-02 1.222594867546145658e-01 -7.096831193298764884e-01 -9.526877138118778898e-01 3.034097291441169020e-01 -1.812887786354580935e-02
-3.841344972981558525e-02 4.343520690160954101e-02 -7.050070466282967185e-01 -8.091744894137418154e-01 5.268944506201127531e-01 -2.600363120561048902e-01
3.402479607104644949e-02 2.368714051053185665e-01 -6.322831411944742630e-01 4.209535827234367478e-01 8.518019721014880030e-02 -9.030738702872224133e-01
6.849657204816567146e-02 1.609104261529702706e-01 -6.850459208966460656e-01 -7.370280674350603300e-01 5.691078893409712292e-01 -3.645625297569745071e-01
-7.108698710292619960e-03 -9.697848271693965128e-02 -7.765720157038920046e-01 -7.710181693537592196e-01 5.181681582375327055e-01 -3.701793380445500548e-01
-1.703007538643634342e-02 7.707727928811139440e-02 -6.954246058423483312e-01 3.247362454989630165e-01 -3.630166503154191315e-01 8.733643469097019940e-01
-2.906823993248465812e-02 -1.086237743503778164e-01 -7.500671273122364591e-01 -8.488356930515773557e-01 2.982107451980851587e-01 -4.365184047094134434e-01
-2.302783933736121322e-02 -1.215223678245825299e-02 -6.954252244110015191e-01 -9.772237907370152632e-01 1.259561655732746865e-01 1.707884866484165043e-01
-1.321688602507139522e-02 -1.167936181569070447e-01 -8.419343249695336873e-01 -3.196810985314603726e-01 -1.245963001437414702e-01 9.392974806908669372e-01
-5.488558859074529894e-02 8.934950056934053142e-02 -6.563173537664677148e-01 8.378221315955196591e-01 -3.096810476960530356e-01 4.496128606997522592e-01
-5.726014632770407009e-02 1.731694439833837695e-01 -6.625888174802170294e-01 -9.375328156446383066e-01 3.470275821295535912e-01 -2.457797450467563011e-02
5.072434106484179084e-02 1.246373074656010466e-01 -6.939870744141573011e-01 -5.708748339080712553e-01 5.090115403298604013e-01 -6.442120581155361680e-01
-1.044037021771884906e-02 1.168022381292550260e-01 -6.753673308996508418e-01 2.675791008616236755e-01 -4.032833874306606670e-01 8.750793873726753214e-01
-3.142669422487446435e-02 -4.248986064623512526e-02 -6.945482232795283650e-01 -4.597705292454276060e-01 6.180801907132326134e-01 -6.376424846928515633e-01
1.282625804031514716e-02 3.775045824243208198e-02 -7.265830631760161751e-01 5.791999316489713223e-01 -5.508866862099328632e-01 6.008754431115206351e-01
5.472293750986080563e-02 1.944024533765409957e-01 -6.426712792476602099e-01 -2.439749435432150282e-01 4.847821436228038627e-01 -8.399181508620732206e-01
-1.098622505938930301e-02 1.737346231214392800e-02 -7.313726815889194377e-01 5.415493626410980976e-01 -3.710847496344175656e-01 7.543344062229841995e-01
1.569754227928654364e-02 1.060722454850109159e-01 -6.949110469613392072e-01 -5.910397233255886285e-01 -2.673720693201158682e-01 7.610415376302998025e-01
8.201865702841405759e-03 -2.056880822849408152e-01 -8.518154237112461891e-01 -9.702170602684581091e-01 -2.162324364015628941e-01 -1.091896946230507121e-01
-1.339763737927306825e-02 -1.323288804965977727e-01 -8.006756347476942093e-01 8.836859009538966525e-01 -3.326455044119503990e-01 3.293117016594143687e-01
5.238838814945660782e-02 2.356592002369479744e-01 -6.379484107401693915e-01 -1.849364979634394168e-01 4.870813618211933815e-01 8.535515442475811732e-01
4.340714289626220607e-02 1.948715717106836443e-01 -6.426905479416655798e-01 1.229620991421640080e-01 -3.859657691251131562e-01 9.142815470292577906e-01
-6.554036019716844019e-02 4.717372040324163684e-02 -6.755251162352604588e-01 3.907747981288799410e-01 -4.361194249731666361e-01 8.106139058197853187e-01
-1.074593738076472585e-02 -1.295759186170726274e-01 -8.001666898445094489e-01 -7.959926412880519164e-01 3.091111621965520473e-01 -5.204286737111705197e-01
8.938480292490053394e-03 1.088262871859174349e-02 -7.776226249692370640e-01 9.987040446196092658e-01 -3.039473218859306894e-02 4.082145900892602403e-02
6.928874190478985680e-03 -1.718345928155029262e-04 -8.023102294430967119e-01 -8.465360732103413000e-01 2.377315139333060490e-01 -4.762986500469997830e-01
4.075370141775526249e-03 1.167688842341298022e-01 -6.788431527783332919e-01 -5.738432158431544527e-01 3.047008476618577877e-01 -7.601719259910432180e-01
-3.911676571823954202e-02 1.030296839970875622e-01 -6.632531190304529201e-01 -4.981536169672100556e-01 -9.958920744203714204e-02 -8.613506624270705903e-01
-1.004764301674133074e-02 -8.334595129741079189e-02 -8.187763945412138700e-01 -8.277067009131267028e-01 -3.686123971852791614e-01 4.231152536896179983e-01
-4.895013377377675085e-02 1.601724015496981124e-01 -6.583987969510104454e-01 9.913970768299246172e-02 -2.159556086725709922e-01 9.713570370586658287e-01
-2.748221956832641935e-02 1.641968353913988155e-01 -6.546936458062113662e-01 1.579236003002128796e-01 3.887674860342686389e-01 -9.077003791289356416e-01
-8.771985589023274538e-04 2.129240599401903689e-01 -6.405483044943377502e-01 4.208414506502179686e-02 -4.752149231453912936e-02 -9.979832826767920384e-01
3.973132788789351423e-03 -1.687554556299094774e-02 -7.502809475298154451e-01 -9.855580207450406194e-01 1.114950016617392327e-02 1.689706376598099080e-01
3.238182443377583125e-02 7.028041980431844193e-02 -7.448728772462442915e-01 9.429530955152328753e-01 -2.968138457985907697e-01 1.508011956202283399e-01
-3.210814583051341958e-02 5.034200239677408262e-02 -7.045226500437656858e-01 3.529286132435232037e-01 -6.088943267217289401e-01 7.104147329835552860e-01
-5.203555181450056355e-02 1.426113856116233147e-01 -6.607950897592992368e-01 3.459694007774387625e-01 9.901510816253648872e-02 9.330065284237090140e-01
-4.921367225408665100e-03 -9.233052895399891657e-02 -7.839987766094629329e-01 9.481993599806017858e-01 -2.906941403247529365e-01 1.281206092446885714e-01
-4.261795967405388082e-03 -8.704824330378513331e-02 -7.826225614231613337e-01 9.307126446036453338e-01 1.307613298022566872e-02 -3.655174249214014903e-01
1.312464622735094125e-03 -1.768371634092171241e-01 -8.434395742077490654e-01 3.710944957081891982e-01 -1.486917349076595785e-01 9.166131371659667071e-01
-6.755182293257249414e-03 -9.952266769537686242e-02 -8.199312534303191402e-01 8.820383587744405895e-01 2.732456400278365782e-01 -3.838556419492478167e-01
2.222311339843305311e-02 1.961968638371220652e-01 -6.451352633382513302e-01 -7.302275632255082749e-02 -3.888773016244186920e-01 9.183910503376915280e-01
-2.233375200030494542e-02 -2.511013742585258782e-03 -6.842169518761327396e-01 9.958682868329666871e-01 -5.437078226331160113e-02 -7.273357764091990807e-02
4.471999509737158846e-02 2.340893586725264763e-01 -6.234018997426159503e-01 -3.423507723076349429e-02 7.342837824568297922e-01 -6.779788243801532222e-01
-1.542120906716965521e-02 2.203531549671688683e-01 -6.454075765984486068e-01 -5.325883652913980804e-01 2.703943475042027145e-01 8.020202802884807136e-01
-2.184629452000867722e-02 -1.041121919334554585e-01 -7.569979984712443821e-01 -7.216323793403931486e-01 3.396390532380980098e-01 -6.032346331263247485e-01
1.964101463312016224e-02 2.225029805098954760e-02 -7.418588865719994985e-01 -9.398369663632283322e-01 3.381119108717960953e-01 -4.885501390631934865e-02
-3.604179417939764457e-02 -1.126839919524221106e-01 -7.493655853341391060e-01 -4.998915617111735453e-03 6.787823094849133598e-01 -7.343225362012121282e-01
5.758976362699769896e-02 1.509537470310908791e-01 -7.273380772970255981e-01 8.426829152489742070e-01 -5.537663868138294893e-02 -5.355547892007331834e-01
2.855179496597936781e-02 1.530675010586555751e-01 -6.645916853124698154e-01 2.842145954571352884e-01 4.569705648700914669e-01 -8.428522803976071787e-01
3.368008365576640167e-03 5.182935105176055685e-02 -7.207482429237859201e-01 9.655984975177399621e-01 7.369247113210061761e-02 -2.493771466873571652e-01
4.635983420388845033e-02 1.349273587972199817e-01 -7.422799186679819305e-01 5.824732838162949289e-01 2.134043939872423967e-01 -7.843363043154383263e-01
-9.799166866865155825e-03 -1.111573933005769871e-01 -8.370068979811766674e-01 -7.750757001431950455e-01 -3.784494480983676135e-01 5.059977018540470217e-01
-2.127209047806279119e-02 1.106952914551772877e-03 -6.806510359010852218e-01 4.227155871625314365e-01 -8.132307001923415601e-01 -3.999591987122063652e-01
-1.262787629227006200e-02 -6.287130226821353862e-02 -7.557768314453410241e-01 7.512028484490423930e-01 -2.479131170005290652e-01 6.117461621466268040e-01
-4.189760954469185818e-03 -8.492194275990978813e-02 -7.732818625338333529e-01 -8.161472954850497175e-01 3.415843247406746830e-01 -4.660726779847714774e-01
-3.262768384996417997e-02 -6.249012674386512228e-02 -7.120975561041045232e-01 7.050206162878909222e-01 -4.021815144552051136e-01 5.841198165099009687e-01
5.061636770784360556e-02 1.171011904005087312e-01 -7.284623327643402479e-01 9.352988917192647245e-01 -3.239689373366888558e-01 -1.423380159678075130e-01
-4.735993345395273987e-03 -2.396904779286723394e-02 -8.170941619295346570e-01 4.180713336339543784e-01 -2.476709783369803186e-01 8.739996833426944001e-01
2.942557285191752317e-03 2.398156159682330868e-01 -6.376938950479725809e-01 2.200069918863983010e-01 -1.295697886063915387e-05 -9.754982949002091175e-01
-3.278090426178465605e-02 -8.308822638149454542e-02 -7.263240499468801570e-01 5.943753648698966163e-01 -5.048591944389753117e-01 6.259673469328940199e-01
