-3.349577990431257257e-03 -2.005648529215820208e-01 -9.191111108675437125e-01 -3.299750700796701408e-01 -6.307752076116351914e-02 9.418798646858004275e-01
1.236246005750107554e-02 -1.389983284480873771e-02 -7.715455429874498172e-01 9.268918361648199600e-01 3.048717913588830375e-01 -2.189171415961622957e-01
-1.435341370737187004e-02 1.055296323823246979e-01 -7.417127075322812457e-01 1.620381338646997849e-01 -7.959526443570708043e-01 5.832692612461519710e-01
-4.732866742336997584e-02 2.020158666846026130e-01 -6.579606758752216678e-01 2.834546395133386021e-01 -7.354855786685958741e-01 6.153977826649068561e-01
-2.057221379922049079e-02 1.517445903406717811e-01 -7.122331578038987310e-01 -5.288069025795670841e-01 6.827981494142479346e-02 -8.459912095617595496e-01
2.206845154081767471e-02 1.792631784681258666e-01 -7.415084975539678602e-01 5.310763468308973279e-01 -5.172820055388116511e-01 6.711015128745376757e-01
-2.639470760676876186e-03 6.532334206980192071e-02 -6.912941105005264708e-01 4.345454290303058520e-01 7.366082744840304342e-01 -5.182456175121274988e-01
2.361473334636062654e-02 -1.218329418495283784e-01 -8.600368819969809175e-01 -4.159023409255563908e-01 -4.139286746215321000e-01 8.097458213159880458e-01
2.195384750978514668e-02 1.500427791869080041e-01 -7.616443350096999687e-01 -7.209217690043714377e-01 5.968360230002229816e-01 -3.522194835963576853e-01
-2.292589426930544821e-02 2.095744484187400669e-01 -6.746889719499062910e-01 9.109382210891191212e-02 -8.541503078928029957e-01 5.119855145413975128e-01
1.789559856711966934e-02 1.908708670758580139e-01 -7.254690736969450215e-01 -4.074667165605316277e-01 7.634405885417050452e-01 -5.011280701202780463e-01
-3.116662692239067362e-02 1.407276575093655835e-01 -7.132520808596867212e-01 6.784927274151629772e-01 -1.708324658899677828e-01 7.144675552064534418e-01
3.839637365405199759e-02 1.998065194168289482e-01 -7.152781476175342767e-01 -7.474083108354090399e-01 -6.629571122890685064e-01 -4.322827962688437220e-02
-2.807617702252862210e-02 1.546451714988754944e-01 -7.110098374050500825e-01 6.004723185946063690e-01 -4.459365871788059099e-01 6.637571504827175506e-01
-8.079966351919315795e-03 -8.918869487108001780e-04 -8.961004939693931748e-01 8.682144148462205280e-01 -1.540115334230390820e-01 4.716822844096641432e-01
-3.239046281288138381e-03 -1.071066434036282294e-02 -9.036252106432400844e-01 4.069531845721899854e-01 -3.477028668987942606e-01 8.446844510921887039e-01
-1.922167286610438480e-02 4.260630323982361745e-02 -7.636046626185977182e-01 9.880586689893073871e-01 1.268026022271694919e-01 8.752809093940255858e-02
3.202544107234539528e-02 -7.370029095970134780e-02 -8.155346037207994447e-01 -4.524570836780783534e-01 -7.715910884432782835e-01 4.471350798857604558e-01
2.230147837386194272e-03 8.918586045990298250e-02 -7.773272729591633734e-01 8.712004529798225150e-01 -3.277786715776107584e-01 3.654735464935439104e-01
-2.287536962049531442e-02 1.329578973825793764e-01 -7.209228671226383112e-01 -3.385917502568168147e-01 4.799083739183725439e-01 -8.093476257462234313e-01
2.298111081267547456e-02 1.679666327897353928e-01 -7.500650829400309361e-01 4.884879744102286758e-01 -5.099191201917915306e-01 7.080691983976010739e-01
-2.281312008310962605e-02 9.993479394313595221e-02 -7.352465208425138510e-01 -8.281051887862341809e-01 1.794426387095081621e-01 -5.310763934861765234e-01
-3.818884531060594972e-02 1.330285487029382596e-01 -7.045957521424152104e-01 -8.829371960280709697e-01 -3.244633307558621865e-02 -4.683685977305006576e-01
-3.151644473372055416e-02 1.531060817883390657e-01 -7.062144918272776906e-01 -6.510849964253581090e-01 2.035041885893937308e-01 -7.312143137660558345e-01
-1.755149191057031599e-02 4.972515275776547006e-02 -7.691038456039779314e-01 8.690734412512590712e-01 -1.303639995843252353e-01 4.771965856165280018e-01
-5.569314313016470591e-02 1.656867946838810612e-01 -6.658506827704913089e-01 -9.039633545233162204e-01 -2.038216142621800467e-02 -4.271238944083419198e-01
-5.817717277776364437e-02 1.757754163988032303e-01 -6.621781498249527109e-01 9.453285205392244483e-01 1.466828013635153305e-01 2.912698817922523276e-01
-8.448435427326825634e-03 4.036627865425963108e-02 -7.412689324791588152e-01 -9.808022428281579774e-01 -1.632396441956535382e-01 1.066760471058577492e-01
2.184579581677308091e-02 5.753227120829144080e-03 -7.345197602630252343e-01 -6.610799253356901550e-01 4.942065069128107752e-02 7.486861369114620191e-01
4.081010135896041315e-03 -1.120278112103382379e-01 -8.970411318681263957e-01 -9.642921263446790903e-01 -1.075309340384804357e-01 2.420284968644588752e-01
-1.454698998212250634e-02 1.312598183101184868e-01 -7.251026076002893284e-01 -8.922773141570344846e-01 9.637148607528647770e-02 -4.410824540971330365e-01
1.420605182159135997e-02 -7.881411419214945369e-03 -7.615670968466110580e-01 -7.798527979973126634e-01 -5.266195391247654456e-01 3.383806650324190368e-01
-6.099768402416498765e-03 1.195798182196946835e-01 -7.493571844408581928e-01 -9.573143598354610928e-01 1.851832812347876112e-01 -2.219377588513023747e-01
-7.616513373053699146e-03 2.791382342064979705e-02 -7.492183790436227619e-01 9.433044284588001371e-01 2.643115873049364795e-01 -2.007887946733118711e-01
2.403619302379870343e-02 2.146223378044058439e-01 -6.893596200865396151e-01 -8.110764863622175191e-01 -5.835312308613371801e-01 -4.057383245112942960e-02
1.304921263258523867e-02 1.839789475206029049e-02 -7.381975710781385480e-01 7.336468456100067037e-01 4.524922425021817851e-01 -5.069645711505227359e-01
3.584800210711142771e-02 -6.574746479195067717e-02 -8.063177762638049639e-01 -2.417551802134961791e-01 -7.780172316962750134e-01 5.798651740047895409e-01
2.098732788009095157e-02 1.436903062608901049e-01 -8.154554088129419842e-01 -9.195246253651557788e-01 3.541859396160456086e-01 -1.703724846486917022e-01
4.389454391372622777e-02 1.923035092110359223e-01 -7.299626680921444954e-01 -7.249541872715961066e-01 -6.867048658271842632e-01 5.364562989329434151e-02
3.010997555216436000e-02 -7.011266465264859304e-02 -8.118230168261280078e-01 -3.584428678260108692e-01 -8.417351772922364583e-01 4.037333300750287624e-01
-1.464214469468232008e-03 -8.960209131257894366e-02 -8.935136662676597119e-01 9.468581905880500971e-01 2.641484408639717119e-01 1.835351958220993729e-01
-6.521489892777518034e-04 -4.628288960916342870e-02 -8.451306143071822818e-01 -1.280950128497565510e-01 -4.665484196921863003e-01 8.751709774471182479e-01
5.255002654239351000e-03 1.295601072158648337e-01 -7.658762271049144310e-01 8.035437509869728379e-01 -5.792770328775830313e-01 1.369509380410703636e-01
2.704469873791050250e-02 1.550658963548058600e-01 -7.905866655361710738e-01 8.412296879777991787e-01 -5.403552422047287473e-01 -1.867683824001210510e-02
1.333456559155459659e-02 1.322902139371241459e-01 -7.841433462623468298e-01 7.348728655366345563e-01 -6.596645016020034058e-01 1.574948152294417258e-01
-6.924820813680349595e-03 -1.564091576974037737e-02 -8.782069216780303833e-01 -9.492503748982142886e-01 -8.161130538046460631e-03 3.144155239550689984e-01
-2.544837084364035603e-03 -1.376612296677521760e-02 -9.047927041744575627e-01 3.818317616622756150e-01 -1.924182737144239097e-01 9.039799299357502704e-01
-7.829040191919992703e-03 1.413408941052105294e-01 -7.348596791792574301e-01 8.231605804384954927e-01 -2.286134863491318947e-01 5.197523763018833121e-01
2.014089134084694199e-02 1.421113464745920041e-01 -7.977589321888246543e-01 -9.174676978573166330e-01 3.977424764474876140e-01 7.344781672388726174e-03
2.771832164869280496e-02 -8.948968893329321828e-02 -8.413726199413568141e-01 2.858146585436225351e-01 7.241149922282007489e-01 -6.276682714555078535e-01
-1.058615836239681050e-02 6.682325272354978918e-02 -7.664873849505114967e-01 4.914240710772211362e-01 -4.596025102805548768e-01 7.397755841535343935e-01
6.372473383223241361e-03 -8.515239987854168746e-02 -8.459530956905980670e-01 6.757706644514092087e-01 3.718946082244845575e-01 -6.364184232409192399e-01
3.056127449362093518e-02 2.011438665766828449e-01 -7.201187977599136092e-01 -6.892823964339041265e-02 -8.442517455441128638e-01 5.314958964332480162e-01
1.205473494935568705e-02 2.197309788470354353e-01 -6.878105792613354863e-01 4.094081293865944882e-02 -8.733809402079146800e-01 4.853139016321915689e-01
1.234463627747340794e-02 -1.206189563443703927e-01 -9.195364343197491852e-01 -7.229782891910588871e-01 4.791229366183171606e-02 -6.892073747968981978e-01
-2.208363251990798533e-03 -3.785589378496706514e-02 -8.561868290344770704e-01 9.797998048341191035e-01 -1.989973167857071734e-01 1.980935029501979319e-02
-1.450502474876578379e-02 6.071736185014554171e-02 -7.638570824043071639e-01 -6.264340584786873833e-01 2.178970084762320569e-01 -7.483991342024850502e-01
4.456095220116481660e-03 -1.666071729929418377e-01 -9.094542298629662014e-01 -9.286334694517481836e-01 -1.031660817089845444e-01 3.563658779945466648e-01
1.438339765290710210e-03 1.234260447910862091e-01 -7.606948196925472638e-01 -8.248309185322642012e-01 4.336363102953977311e-01 -3.627857580261588666e-01
-7.035321213079492181e-03 -2.474184082723180078e-01 -9.316850322639593784e-01 4.854574433535765454e-01 -6.161667554284866455e-01 6.202173814053749679e-01
3.036914906585700194e-02 -1.291585525304759230e-01 -8.637933928066600098e-01 5.477214773771995615e-01 -5.828336624358116946e-01 6.002550334244571850e-01
1.253472584954435851e-02 4.849155467212946241e-02 -7.045063711069557977e-01 3.530096580496997483e-01 6.853794972938536123e-01 -6.368980499364543801e-01
-2.191820014195279206e-03 -6.438262591257107315e-02 -8.994486022150883775e-01 -9.989358460122657046e-01 4.497599179805356756e-02 -1.021448547605489920e-02
-1.771188686987869298e-02 4.670523879009828849e-02 -7.643702641410979881e-01 -9.697103157326755207e-01 1.513009943270701985e-01 -1.917548243911333383e-01
-2.075636570540166995e-02 5.552353927849257992e-02 -8.565501684091119117e-01 -9.990403087255708137e-01 -3.607867586789206826e-02 2.483527107030478187e-02
-2.830043149929213544e-03 8.015195275555463128e-02 -7.685372692530814120e-01 -8.717407413355816592e-01 2.220724236314574884e-01 -4.367515524393028592e-01
-4.532959932623692456e-02 1.481913918601561742e-01 -6.926892147001212363e-01 9.290437498536066041e-01 -2.448520765507352509e-02 3.691587537415808584e-01
-2.893850273602025045e-03 -6.965820349867249406e-02 -8.519183072276970137e-01 1.237947055505727867e-01 5.228635053729980831e-01 -8.433792893038742911e-01
-2.518524173000431972e-03 3.830103046142262213e-02 -7.273540307904631241e-01 -4.936177535429431829e-01 -7.091567216209280211e-01 5.034265165513986950e-01
-1.323044620940179612e-02 3.942266512064047934e-02 -7.517323197673939639e-01 4.664349896603144918e-01 7.237867166097546878e-01 -5.084989570096017930e-01
1.443061064007736607e-02 -1.427402605548132308e-01 -8.736529088214717298e-01 -5.439435419444893505e-01 -3.389153588711621423e-01 7.676338988724475954e-01
5.803297133595862467e-03 -1.587966140423834882e-01 -9.078973444064665221e-01 -9.533034488043713450e-01 1.219086438396993904e-01 -2.763165160732463654e-01
2.271547853230864930e-02 1.471257799791295673e-01 -7.872479475653232361e-01 9.425325678292579834e-01 -3.248912327503439834e-01 -7.796182054792620553e-02
1.504850534716785891e-02 -1.538451023885602231e-01 -8.762185179926060830e-01 4.295795692655813292e-01 3.996750907024966271e-01 -8.097661486759919480e-01
-7.137517222386965086e-03 2.994067346421048353e-02 -7.520857213290947918e-01 -9.966050680155086328e-01 -3.980202357224335574e-02 7.207036371046091072e-02
-3.140308847943231330e-03 2.117329398529662898e-01 -6.873643161653336664e-01 5.045505516865261830e-01 -7.831903168053888642e-01 3.633753822909531195e-01
4.973434358308843201e-03 6.572118646577559953e-02 -7.928198732785307623e-01 -7.628649152057683791e-01 1.348981878634596676e-01 -6.323287120313693110e-01
3.557817459958743933e-02 -8.075083840022198589e-02 -8.206830738901879085e-01 3.091389407775669285e-01 7.684071681811650567e-01 -5.603423410583271425e-01
2.026158209868294396e-02 -8.797599161430648060e-03 -7.452521244387015908e-01 -8.062967238369073142e-01 -5.023316251980826097e-01 3.123276027758719597e-01
6.043777349316840387e-03 -1.913990426245167353e-01 -9.016346845804749099e-01 5.431542852864408299e-01 1.422322196114049475e-01 -8.274982888679520698e-01
-1.604808036157412236e-03 6.769168542756635876e-02 -7.819222062626960401e-01 9.321869337083824592e-01 -5.897147551931752885e-02 3.571412685457087677e-01
1.325013955587528783e-02 -3.782935349197105723e-02 -8.064030121127397921e-01 -2.307687407146469527e-01 5.174476627100021292e-02 9.716317550762407773e-01
1.093834779278777050e-02 -1.281295263121287054e-01 -8.677351694646079361e-01 5.997851042436322944e-01 3.312502110607014050e-01 -7.283756766941739125e-01
-3.214010784890503070e-03 1.922587214672546452e-01 -7.103982988960091394e-01 4.730362730826921380e-01 -6.331634342091004841e-01 6.126505936735676672e-01
1.580899570658993517e-02 5.988129260145174521e-02 -8.068535271920627139e-01 -7.873920672137597609e-01 2.653170619900224181e-01 -5.564356109253113525e-01
-4.049665641379763398e-02 1.261652631431978422e-01 -7.042466922608596747e-01 9.372816726512605001e-01 -6.349857279205627092e-02 3.427404227187496599e-01
2.396158765492580143e-03 -6.202699826043710229e-02 -9.156082845410723481e-01 6.165025171477535038e-01 -5.679393803528550583e-02 7.853019132492472520e-01
1.646767167023214032e-02 9.905235446125630616e-02 -8.006802595976686421e-01 -9.147960458657348193e-01 -1.712496321714446768e-01 -3.658165632520774535e-01
1.025632786142980507e-02 1.947810343401215338e-01 -7.159591291114045797e-01 -5.448228465933189213e-01 4.370293562186821079e-01 -7.156629148090859482e-01
-5.329195428014979474e-03 3.258205502364171224e-02 -7.396914098597127118e-01 -7.999493915094061380e-01 -5.414968029113074177e-01 2.585772291996407124e-01
-3.290384702906521547e-02 1.085245906964613233e-01 -6.730963754587385717e-01 -6.416344989583873115e-01 -3.192506630439585769e-02 -7.663458487444680944e-01
-4.674661057824974070e-03 8.738106828644369439e-02 -7.590576419584053047e-01 -8.781354442425972628e-01 -8.981596653490298010e-02 -4.699055582989597468e-01
-2.793356886927632343e-02 7.438498054366683709e-02 -7.335424779675473461e-01 9.891359178393891449e-01 7.910065797983154012e-02 1.239081189720307591e-01
2.393341598922861871e-02 1.608719987733030488e-01 -7.527701628795210320e-01 -7.174287013778148925e-01 3.362359734180911941e-01 -6.101159140843080975e-01
4.220334523214839574e-03 -1.836116660609391493e-01 -9.111653151316128074e-01 -3.221705704129363967e-01 -2.846349917318683476e-01 9.028782005573080527e-01
9.739417579576883227e-03 -1.628731805710492975e-01 -9.237930910665373974e-01 -5.690181167399493978e-02 6.295682018648136868e-02 9.963928053836119680e-01
-2.323800467151658153e-02 6.086154192624446818e-02 -7.505640254921848165e-01 9.890691950353563966e-01 -2.352469143937883575e-02 1.455634443285613033e-01
1.753727371747240259e-03 -4.657998124712930954e-02 -8.283456432882437825e-01 8.815012214755477693e-01 2.689829556846740077e-01 -3.880770105124162206e-01
1.098067816404820277e-02 1.575597784129716683e-01 -7.467566639186901112e-01 2.735630503379477552e-01 -5.914799692800098985e-01 7.584950253167888068e-01
-1.879219686552913160e-02 7.611279658273216453e-02 -6.930090284039122084e-01 5.809941245113262598e-01 5.914030204007895142e-01 -5.591853849522004927e-01
2.761325901543775635e-02 1.034466186309196678e-01 -8.409896113122634631e-01 2.025645174536274684e-01 -3.357206996891732853e-01 9.199234903343814773e-01
3.131112578506999033e-02 1.596374948088928880e-01 -7.929703438882605981e-01 -8.313671220930421990e-01 5.241795302154902414e-01 1.845657834101446515e-01
-1.052344873779255223e-02 4.363542573657482743e-02 -7.307131313649514182e-01 8.955163851671864572e-01 4.343279838276720706e-01 9.700312552327602922e-02
-3.277939713724158793e-02 9.786396858311076363e-02 -6.939399439508677769e-01 -9.287437172207115843e-01 -3.336926245874635710e-01 1.615064705173911430e-01
3.579753145277618509e-02 1.971087810305372778e-01 -7.222726683972070516e-01 2.791089079445456256e-01 8.854628083559445972e-01 -3.715559614976006730e-01
1.826266555046105649e-03 -1.756793253667930307e-02 -8.515143645327165611e-01 -9.797267009591998921e-01 9.548579410588102501e-02 1.761194326347084727e-01
-4.265326442796523246e-03 -6.018118561343993589e-02 -8.508437592679494177e-01 9.715473797235272269e-01 -1.143156097789784081e-01 2.074310254354652383e-01
-4.284780374937360165e-02 2.241058694363640136e-01 -6.591165842449401291e-01 9.776662783424260317e-01 9.324999912979914374e-02 1.883430005451814659e-01
-1.531239534470319255e-02 1.583291569408065425e-01 -7.169379593035911657e-01 -7.953863803095106988e-01 1.742300956341406581e-01 -5.805207832571135373e-01
-8.241790211689836373e-03 -2.223116686567168810e-03 -8.747819593138047578e-01 -9.088412683267921288e-01 -2.486228836230978956e-01 3.349540427059858327e-01
-4.147770276105858939e-03 -4.823606547908271952e-02 -8.466513045237269441e-01 9.748988251812800154e-01 1.074633176309047616e-01 -1.949972205543431536e-01
-1.947560700303482828e-02 1.033919885871962402e-01 -7.399136964458553622e-01 6.338985034307909050e-01 -5.324863878532296591e-01 5.609197216172949751e-01
4.914285048597093371e-03 -6.679251274150577178e-02 -9.176957394831145587e-01 5.530418434163393293e-01 2.535021466257438710e-02 8.327677263482408110e-01
-3.102026918185367410e-02 2.106575327780286222e-01 -6.651488504969941262e-01 3.256108313404847410e-01 -9.444978408836586237e-01 -4.360521849349699441e-02
1.464025953318528160e-02 5.810087304481333093e-02 -8.092133017965242869e-01 7.502991002158807543e-01 -1.900890475822650527e-01 6.331803962572649658e-01
4.804324771088444405e-04 2.940235906495159562e-03 -8.098719410690142784e-01 -9.728694900528641609e-01 -1.002746415896807741e-01 2.084944881246043047e-01
7.596862245252822624e-03 8.635463052506726911e-02 -7.869391839475404771e-01 -7.993250038006343150e-01 4.162001737017019809e-01 -4.334246805499071264e-01
-4.874575204799177532e-03 -2.671295009497306333e-02 -8.133603549070672623e-01 8.544382083144987927e-01 4.598155375915549681e-01 -2.418781088930917755e-01
3.212028051653463556e-02 -9.730328788995605549e-02 -8.464176414659031478e-01 -2.369530627631976638e-01 -6.225680273607978599e-01 7.458299386289242161e-01
-3.447112907992933885e-03 -2.374418338388892963e-02 -9.039310480433638828e-01 -6.863226117087173339e-01 9.697781662765331268e-02 -7.208027301137656107e-01
4.065678260698289866e-03 -8.582743084241177545e-02 -8.512950082085785075e-01 -6.863367178490679121e-01 -4.038219998429353752e-01 6.048716410735597293e-01
1.797502155614463890e-03 -2.303487258136378610e-05 -8.521778632774688056e-01 -9.965938178959038440e-01 -3.973626837199051992e-02 7.226196169171786310e-02
1.657690721196713318e-02 1.369657909380681549e-01 -7.878828151864596396e-01 8.521463814493596134e-01 -5.090768531535587726e-01 -1.211911802320300990e-01
-1.335739194822745633e-02 2.807331279146583342e-02 -7.793048798171806624e-01 -9.585746698398338594e-01 -6.985704663626320088e-02 -2.761423462214954716e-01
-3.016518224895840122e-02 8.539952373460953094e-02 -7.181846034641068410e-01 -9.781456560152848034e-01 -1.981610469537463670e-01 -6.295454779936938972e-02
7.327163191088067497e-03 2.204842943299904490e-01 -6.821558139249452868e-01 -3.286313570324675415e-01 8.070600264853650119e-01 -4.905665549387164259e-01
-3.715533166855007272e-03 -8.017569931354369406e-02 -8.852102162956574372e-01 9.947235242098787511e-01 -1.025658243184201374e-01 -2.315613387780723550e-03
-6.176970405619543886e-02 1.697363943223318961e-01 -6.457881356063103206e-01 9.748988251812797934e-01 1.074633176309010979e-01 -1.949972205543465953e-01
4.927580051168359461e-03 1.951573212655180467e-02 -8.336726133608474143e-01 9.900964757794292748e-01 -1.138573715826978784e-03 -1.403840172492844818e-01
1.237340722738076472e-02 1.519574155088510188e-02 -7.419088246424919708e-01 7.438557234681807406e-01 2.886805865852853925e-01 -6.027787169371566778e-01
1.187830346203307651e-02 1.287646723842632290e-01 -7.890675479244615431e-01 9.302330567565849639e-01 -3.432862132283827639e-01 1.296959364229175460e-01
-4.132195788575293571e-03 1.875304507162268430e-01 -7.113924559827862204e-01 -4.949081321069924710e-01 5.835499100036203313e-01 -6.438442694542945155e-01
8.896674586340670710e-03 3.659964245424203455e-02 -8.186460324359101648e-01 9.706010879494412213e-01 -2.346769717044739911e-01 -5.348127731251783173e-02
3.994504450644523891e-02 1.710301049178361010e-01 -7.720995472070693033e-01 -7.933911538312736766e-01 5.692842521753330720e-01 -2.155131486648833583e-01
-1.219687883238138558e-02 7.741175790497965836e-02 -7.597072958667984155e-01 5.041622678119446199e-01 -3.509485311645050287e-01 7.890852528011111922e-01
4.946174484541899889e-03 -1.495206056826520746e-01 -8.871137841300219540e-01 9.535303100768816043e-01 8.173033831414996953e-02 -2.900001716615707714e-01
1.137814529438376313e-02 1.175322096245658698e-01 -7.932252602304619149e-01 -8.976860840928017060e-01 1.286158277575186748e-01 -4.214471061430835053e-01
-7.261276148840383480e-04 -5.454908496041924182e-02 -9.113030715699912410e-01 6.429440641192516459e-01 9.471816953533139516e-02 7.600338142304563505e-01
-3.521071825602051925e-02 1.001033029125409923e-01 -7.123258955051224861e-01 9.367276343487735968e-01 1.652678409837736728e-01 3.085901485529186639e-01
3.105078681836035553e-02 -3.547599806017968233e-02 -7.704663843679967483e-01 9.539594252776795180e-01 -1.104541887689378388e-01 2.788571087623103462e-01
1.998566785499834852e-02 9.197519629160831600e-02 -8.208292571169472085e-01 9.989231819980468607e-01 -1.525359273066405688e-02 -4.381557229688866351e-02
-3.372737974374414270e-03 2.972090772046132381e-02 -7.360885463273666440e-01 6.920519251550915074e-01 5.920864839144948100e-01 -4.129137058210860523e-01
7.011491478619177181e-03 -1.401202056303790799e-01 -8.963404224471437365e-01 -9.903260625633353298e-01 3.366390223961161082e-02 -1.346143807095011025e-01
-1.226016749000177070e-02 1.058648542932355829e-01 -7.393945585210527360e-01 3.064201438527398152e-02 4.658724347519317965e-01 -8.843211755311074507e-01
-3.499083539395184822e-02 1.389228940022853853e-01 -7.070559907608586769e-01 -7.522741393882336203e-01 1.628690000970269280e-01 -6.384021522638273494e-01
-1.355574129895404864e-02 2.052173750089047455e-01 -6.860465636469410544e-01 2.829067195648251598e-01 -7.549596867629158048e-01 5.916076904401339487e-01
2.012821015399834934e-02 2.317080247183242805e-02 -7.265660986072630667e-01 6.780252947889552351e-01 4.713664926877361716e-01 -5.639994053167189936e-01
-3.493867875172675802e-02 1.097099500456228394e-01 -6.798723384565685812e-01 -8.985010053528108553e-01 -4.389496349605489511e-01 4.377367700923192814e-03
-2.769851636659768912e-02 7.859010871978119872e-02 -7.217954999153066709e-01 -9.317637403957016451e-01 -3.539970467391636566e-01 -8.063760279027208655e-02
-4.238155719864291487e-02 1.296637605755845690e-01 -6.983988388563033833e-01 9.940404611134940893e-01 3.308421514732779595e-03 1.089615345723107254e-01
-7.617492600402031924e-03 9.353218714374093856e-02 -7.482486054162960087e-01 -9.631925152482770924e-01 5.158162645150066172e-02 -2.638171987993112588e-01
9.755887063334927126e-03 2.186828640569323801e-01 -6.858868216565165987e-01 -9.418209486883709347e-02 8.254994809586422289e-01 -5.564892990373937476e-01
1.886121375442887868e-02 1.326224829048398002e-01 -8.177439932776024989e-01 8.215582258328099075e-01 -5.698864013592499500e-01 1.647941480300551056e-02
3.557590618555465760e-03 -8.382345136444296907e-02 -9.139749818638580603e-01 6.967805563632715193e-01 7.291941627126576064e-02 7.135682272948731253e-01
-2.144475974032943391e-02 1.751930409272875189e-01 -7.061527957696740465e-01 6.111265500169292819e-01 -4.697679838300193311e-01 6.370575964798507185e-01
2.278513754971674826e-02 3.513781083557546148e-02 -7.152772179194952784e-01 -2.258601554861378036e-01 5.478799589541243353e-01 -8.054903728414166686e-01
3.221025085047749415e-03 -9.816119427109144813e-02 -8.743860765835018700e-01 -7.462517395610378523e-01 -4.607680848929456841e-01 4.804176444992543926e-01
7.266616665611213763e-03 -5.469758035969415726e-03 -7.711851908733184935e-01 -7.050114524550310513e-01 -6.950042686587685203e-01 1.411662794485203098e-01
-1.512615616151613725e-02 1.005211161424650612e-01 -7.450661416923016755e-01 3.661480818903428136e-01 -4.608292618191700551e-01 8.084379837558485216e-01
9.141718915267002879e-03 3.747934771268442156e-02 -7.232899247803671328e-01 -3.397260582640075355e-01 -7.363488781357659940e-01 5.851295027637891666e-01
-9.435358465491226754e-03 3.588692361263219610e-02 -7.438620811189607940e-01 9.086489179347396750e-01 4.106363942625916308e-01 -7.572909376880272714e-02
-1.805191849980068708e-02 5.306956666754249902e-02 -7.415883401517221474e-01 -8.930085722315860286e-01 -4.340203480497225041e-01 1.190043167271748192e-01
-5.696710030246869561e-02 1.547694982296740629e-01 -6.619459199689439188e-01 -9.274480771011396341e-01 9.068806627192653458e-02 -3.627888351606994299e-01
-2.938882176278918498e-02 1.406583531820706778e-01 -7.128616342895959246e-01 -7.532491915084842393e-01 2.197784007356856362e-01 -6.199299235090034443e-01
-3.848384708939329990e-02 1.080803342006524947e-01 -7.049330860516858088e-01 8.946674475648778158e-01 2.251861946679601101e-01 3.858255253332915080e-01
1.046222378765252620e-02 -1.625764260404239658e-01 -9.217193570285804327e-01 -9.630810519811058290e-01 1.451575471505175685e-01 -2.267248857541041274e-01
2.024985297688138702e-02 -8.139305360097524866e-02 -8.360683776134445466e-01 5.200535235683191315e-01 7.072011587602055060e-01 -4.789685309834023630e-01
2.068124711259066925e-02 1.556520839071474094e-01 -7.553127203291345459e-01 5.974829991332593071e-01 -5.485539502196199457e-01 5.848954004308601906e-01
-9.475670517125283840e-03 -2.031161740632583118e-02 -8.880225505871305325e-01 9.760201573678778386e-01 2.128146107808812915e-01 -4.576673300296749819e-02
-3.659487048039625212e-02 1.050237586957492308e-01 -7.089552022798256692e-01 8.547164454970064273e-01 5.368937781254978087e-02 5.163111934745012732e-01
-3.498121925655848607e-04 1.201593364491744115e-01 -7.675629587292751577e-01 8.924423395920521029e-01 -3.411850379519874021e-01 2.951939030216670923e-01
1.694445341110231359e-02 1.964036246260867091e-01 -7.213976547154551389e-01 4.640864934687818355e-01 -6.758487740692254997e-01 5.725837590859306214e-01
8.208622208426871736e-03 -1.302799896213349962e-01 -8.722069672632899451e-01 7.708701807355877733e-01 3.598530816613308980e-01 -5.256090981628128711e-01
1.647149911380801912e-02 6.187891630812254046e-02 -8.072168371605717985e-01 -7.473400125595403010e-01 9.549344761455111352e-02 -6.575438442341262624e-01
3.007818783953936093e-02 -1.238142661720963433e-01 -8.603375503974931560e-01 1.324505394234380407e-01 -4.991218868294378108e-01 8.563493426717054824e-01
-4.326953431406198661e-03 1.105918109348774520e-01 -7.609719727432376901e-01 9.513697691240253773e-01 -2.411195059984468925e-01 1.917210114305771540e-01
-2.377715437531765022e-02 1.643234574143197790e-01 -7.091710457307521809e-01 6.227385588253554483e-01 -2.362930917393934183e-01 7.458969514271781565e-01
7.471166648119602696e-03 -7.618389003235741253e-02 -8.407398534077873409e-01 7.580579045182486153e-01 -3.319239676920167081e-01 -5.614042154000902229e-01
-4.545472309669582565e-03 1.186714171281511437e-01 -7.579194615194221329e-01 8.403667796412676028e-01 -3.146003263220515933e-01 4.413732098274924520e-01
8.060896130940438734e-03 -1.173921610630090234e-01 -8.781984544965524275e-01 -9.276070754450054245e-01 2.724793692340203924e-02 -3.725622948149502900e-01
-4.428050760836135628e-03 -5.413552501590598171e-02 -8.627178074014593134e-01 9.455219646228609776e-01 -3.239132359674291584e-01 -3.268684721464457793e-02
-5.638111041956982150e-02 1.989378325408050763e-01 -6.474735707753512814e-01 -2.932215398176181154e-01 5.903298091477165999e-01 -7.520185137472383818e-01
3.134789192442490133e-03 -1.044943653455341903e-01 -8.968570744116006743e-01 -9.861333211084568617e-01 -1.569691092038195401e-01 5.386809589510523077e-02
-5.366916885494293216e-02 1.686076450458743325e-01 -6.703615084382857914e-01 -9.099519308340378032e-01 1.655950518127075055e-01 -3.802180458454769152e-01
5.317384863177864775e-03 -3.894365433047637659e-02 -8.125461906403944612e-01 3.639993521634367624e-01 8.826403506211429884e-01 -2.974062593154087608e-01
1.051532129887656868e-02 -1.103187856677608283e-02 -7.719388330002237009e-01 7.792117237789277784e-01 5.411213220175873362e-01 -3.162543349638236023e-01
4.818436276191414951e-03 -2.371760848117641929e-02 -7.957419723275889201e-01 7.442843353837146347e-01 5.101390069148542539e-01 -4.310441064744402473e-01
-5.595677252522822387e-03 -1.066962299380472615e-02 -8.089836037315986106e-01 -9.952387072429310644e-01 -9.677550153009283063e-02 -1.159387377101479995e-02
3.371687625708488789e-02 -9.922084952017931614e-02 -8.474044940817203608e-01 -4.083026497409609767e-01 -5.044457763959323549e-01 7.608044458931709775e-01
5.765806852262978996e-03 -1.600515332018827008e-01 -8.952252246158658444e-01 -7.359262813565645711e-01 3.528859642490895787e-01 -5.778269677374783253e-01
-2.763235955839227383e-03 6.819600436402823047e-03 -8.104523769462670391e-01 9.532585357684925098e-01 -2.705089283350120555e-01 1.346220029399095020e-01
3.036330776536345574e-02 1.606536551983920036e-01 -7.903399449612557026e-01 9.404765089537088230e-01 -1.304208980934562223e-01 -3.138380560842494171e-01
-1.695646379537921189e-02 4.423745650417739567e-02 -8.702917250970385599e-01 6.579937136773522655e-01 -2.805956274395323136e-01 6.987920768174904484e-01
-1.534762051570432405e-02 8.395966020616855985e-02 -6.826831326661240151e-01 -4.473685527999167189e-01 -6.565464751360157170e-01 6.072957302271944080e-01
2.071849748593269577e-03 -1.126489909900078162e-02 -8.503824419825091185e-01 -9.927429672355395640e-01 1.068831361619677622e-01 5.511257758949855701e-02
-1.221501264749834089e-03 -2.923190125373894069e-02 -8.557120642252701304e-01 9.822942521168138708e-01 -1.755861525229328868e-01 -6.532614561155840327e-02
3.280248026061216571e-02 1.603623305384370978e-01 -7.846425213604788507e-01 -8.980369907029666088e-01 4.382852237087376812e-01 3.788965568254068494e-02
-2.005766360583896221e-02 5.417121308001425495e-02 -7.396114874208403744e-01 8.208692686511731562e-01 4.873091977153736765e-01 -2.978311427740336081e-01
-1.308759684440203436e-02 2.941304173094318186e-02 -7.660793351879885416e-01 7.610342058702584955e-01 3.804060381292123649e-01 -5.254694887909868717e-01
2.293880576832775520e-02 -3.072756633681860902e-02 -7.779893015239294218e-01 -6.291812887853840408e-01 -4.329132455170376370e-01 6.455362326765772263e-01
3.059702060084066449e-02 1.946044850913941360e-01 -7.307678348051650508e-01 2.100991154105729120e-01 -7.591623238382344541e-01 6.160608149916910747e-01
-3.683584764179213128e-02 2.010118406651401901e-01 -6.782342280889379627e-01 7.871325161348829980e-01 -4.719340814426049024e-01 3.971153797274698527e-01
2.095522699341403894e-02 -2.384793520333531106e-02 -7.638345158917529965e-01 7.929478859877213681e-01 5.318264740199781793e-01 -2.973117078742125163e-01
-3.253263319125657832e-02 9.333908583743950882e-02 -7.028139411034410866e-01 -9.537363620273976439e-01 -3.005977217155950121e-01 -5.287858369726110286e-03
-5.106685507004935648e-02 1.366029877372507140e-01 -6.751061755147934607e-01 9.163594598020644577e-01 2.897200233320437746e-01 2.763107824746414698e-01
-3.680038353373075999e-02 1.448364108165642594e-01 -7.053023865941273618e-01 6.726576436125921710e-01 -3.697626768453210477e-02 7.390293973298198704e-01
1.160904001938940604e-02 -1.951788050360332011e-02 -7.858761755947030192e-01 8.514472054888514441e-01 3.524990448033650248e-01 -3.883066825048734905e-01
-1.782022917254811115e-02 6.445975984333199293e-02 -7.134900337300642548e-01 -7.643365856669506186e-01 -6.118339475626934920e-01 2.035897944908812429e-01
-5.697575974669976534e-03 5.400132152666472368e-02 -7.744300528575785991e-01 -3.359784643239837054e-01 6.882968416873495032e-01 -6.429354005137042360e-01
1.787330064845825406e-02 -1.462860034653468144e-01 -8.731500622304919634e-01 -2.543570173302314719e-01 -4.261460647251296696e-01 8.681601460872031550e-01
-3.521165266037713597e-04 -7.287961374401215331e-02 -9.117962692222661980e-01 8.656509825251901269e-01 9.987107084276061753e-02 4.905855130982705314e-01
-2.079926868008497368e-02 6.754379547124611527e-02 -7.569875131016940983e-01 7.782048545629600689e-01 -3.350785450277612987e-01 5.311492944518713122e-01
1.929806286485033148e-02 7.728530636303268531e-02 -8.208596090554971525e-01 9.953002889106860041e-01 -1.589469409425782118e-02 -9.552326205670878811e-02
5.730017132638559434e-03 -1.189854050955467674e-01 -8.727064233285416472e-01 -9.803977043888285614e-01 -1.757206573163611341e-01 8.912121981560350292e-02
4.696737474101214324e-03 1.174393858697921206e-01 -7.805476584693772368e-01 9.519819633070619735e-01 -1.362227563511729522e-01 2.741782307006165875e-01
-5.833323206704920522e-02 1.802881424756526407e-01 -6.600512743852874342e-01 8.400654612100865171e-01 -7.767756326326966110e-02 5.368949776700889798e-01
-2.172846041906383377e-02 8.195528200243981654e-02 -7.441414618537357528e-01 -8.404349774450712296e-01 2.214584000651642626e-01 -4.945960227574421886e-01
-2.016690759694968541e-02 7.140255125763093902e-02 -7.017427251825003598e-01 6.272423731556875381e-01 6.431646598048730290e-01 -4.392109125421440607e-01
9.214200202849380170e-03 1.283749880151957012e-01 -7.738011245940079608e-01 -8.127384612643365758e-01 5.552827553215161638e-01 -1.764008368013705308e-01
-4.901024176142669553e-02 1.778066107475533841e-01 -6.754043942252733190e-01 -8.007567131800421567e-01 2.816725769193284545e-01 -5.286295921613926030e-01
2.673811153775159516e-02 1.716768943473669373e-01 -7.509023201233340217e-01 6.179155736634156515e-01 -4.105697487835417436e-01 6.705317480985008016e-01
-6.014758927313691370e-03 -1.542453411927583590e-02 -8.103075191711147651e-01 -4.522957894882104202e-01 -2.087337437838994725e-01 8.670978854876730813e-01
1.571225024666082770e-02 2.066723073780583619e-01 -7.086242291317182973e-01 2.341556534499006637e-01 -7.592825319425942077e-01 6.071747414412870247e-01
8.269962618486781381e-03 -1.475557999778023266e-01 -9.107031972835072375e-01 -9.925514496698691902e-01 2.082934267555203167e-02 -1.200323216552335176e-01
1.185982099465380732e-03 -9.786550866261234383e-02 -8.848396057157581485e-01 -9.602549192513115672e-01 -2.500053215485009139e-01 -1.241282774032074071e-01
2.281482916986441942e-02 1.515254805328777599e-01 -7.660274994132990622e-01 7.128329668805302166e-01 -4.500842607882044044e-01 5.378599441481364263e-01
-3.320000241788493341e-03 3.346675403117695125e-02 -8.459708540092998330e-01 7.379108998579116951e-01 2.672581525572117478e-01 -6.197262167785003717e-01
1.186195528522978118e-02 -1.094770860441994648e-01 -9.185215027401352206e-01 -6.643346211004214075e-01 2.759930070831684984e-02 -7.469255584111251789e-01
-4.543861500448462785e-03 -3.617826124713154762e-02 -9.052214182434935585e-01 8.053408496741313316e-01 5.308863561455363228e-02 5.904301081539908846e-01
1.015931986988293824e-02 -3.470188134207173591e-02 -8.028510329378263366e-01 2.716436697459398419e-01 8.080174140787268477e-01 -5.227978339975080102e-01
5.294442357343687525e-03 2.199175659824183227e-01 -6.816464195095733869e-01 -4.167675734246835684e-01 7.906968107340111018e-01 -4.484454740955295393e-01
-4.239868952219458947e-02 1.299713749029087206e-01 -6.871396646641400041e-01 -9.860706313586811156e-01 -1.637558846229162091e-01 -2.913280321661298675e-02
2.444019807320286022e-02 9.548776922336819906e-03 -7.332433119377989028e-01 -2.142608697414449814e-02 -1.735146470479669578e-01 9.845981871082212233e-01
-4.169425035927727848e-03 -6.044188521815063025e-02 -8.944758062677554689e-01 9.978446057294854121e-01 -5.503243615689257934e-02 3.574316420248173365e-02
-4.699251093494003634e-02 1.383984009750150734e-01 -6.854026317117306588e-01 8.768323511865573350e-01 2.921727577028245815e-01 3.818378026976639306e-01
-7.938027709675131438e-03 6.061826872710569108e-02 -7.003276551392098037e-01 4.213283197305637273e-01 5.402167797203989430e-01 -7.284560919516986921e-01
-2.277741163007663064e-02 1.801189870557316497e-01 -6.977969411912906539e-01 -6.974937727089839390e-01 4.775861408890197946e-01 -5.342414389233781646e-01
1.523875152421217891e-02 1.855990870918076407e-01 -7.320299078733195630e-01 4.303424765808971930e-01 -6.804370617947038680e-01 5.931363736834979195e-01
9.059858694139080043e-03 1.078713147517745691e-01 -7.896759207173834616e-01 8.197405435443940735e-01 3.427010555824687166e-01 4.588915207020097253e-01
3.865303595964938044e-03 -1.067422379479462946e-01 -9.035990340445239077e-01 -8.949312150613863981e-01 -3.074687285192056474e-01 -3.233590903183851673e-01
9.244694609646652086e-03 -1.254364675728010803e-01 -8.859262607609731388e-01 1.081924400852011803e-01 -3.186039878234515066e-01 9.416931001400636880e-01
-4.529913412072766529e-03 8.539287044127780169e-02 -7.673506238881108166e-01 9.985363364725506896e-01 -5.780643939973176791e-03 5.377516991712986277e-02
1.055598936939107849e-02 7.147733238442829928e-02 -7.994205654581967302e-01 7.577082533831954736e-01 -2.877170214510688107e-01 5.857449259893868776e-01
-8.779293008790114983e-03 -1.043545514079351894e-02 -8.758115212787357384e-01 9.402398969773319015e-01 2.076755620442953809e-01 -2.698514351669117906e-01
1.989917204574824516e-02 1.175452156081019384e-01 -8.303231110352885525e-01 9.054002451068020596e-01 -1.657338306654909388e-01 3.908742681905331140e-01
9.787115010614910737e-03 4.881449406603460134e-02 -7.088908416875587815e-01 -2.836609578107295859e-01 -7.632725495547654226e-01 5.804752157586642314e-01
-1.856223307000648068e-02 1.492894013560958355e-01 -7.152845872038540165e-01 -8.434039037628544566e-01 1.169813547422707267e-01 -5.243903295830699696e-01
2.834233180343574948e-03 -1.105876190131214742e-01 -8.793089293948671559e-01 9.524287550039172157e-01 2.210386573853260761e-01 -2.098127226432671688e-01
-4.692146098282685279e-04 -1.117098186599106528e-02 -8.552781754274566550e-01 9.499447387098469697e-01 -3.858257782815894404e-02 -3.100264151417011504e-01
2.656551050717738047e-02 -9.967926733120852090e-02 -8.480567133058238838e-01 4.720328508742091533e-01 4.927858387238271964e-01 -7.309904957308409612e-01
2.050038242364174770e-02 1.084922663869408999e-01 -8.256180163995521237e-01 -9.613619745009679418e-01 -2.344463764744764145e-01 -1.442846164412142085e-01
1.057448293312296742e-02 4.842757984059995607e-02 -7.057823230163891015e-01 3.374012897876540462e-01 6.449076395028081610e-01 -6.857510526135147666e-01
6.113384911576640046e-03 -1.021437738978418219e-01 -8.713602776926547833e-01 -9.028854022029433324e-01 1.384378659283863056e-01 -4.069802301906363939e-01
-3.612461975181919388e-02 1.865016526773645433e-01 -6.879796471162350491e-01 5.385499467044109201e-01 -5.270591386134212408e-01 6.573983718482686589e-01
-5.428430204814671534e-02 1.422239079352385083e-01 -6.634069523516550326e-01 -9.564940103093788615e-01 -2.619321975194774943e-01 -1.284940938132926314e-01
-3.335505780159035011e-02 9.048133695297891355e-02 -7.023820418963772072e-01 9.135692111134924298e-01 4.062497941411142288e-01 -1.877235376219617627e-02
-7.504303729540255825e-03 -1.100543797033908151e-02 -8.993592764987158317e-01 7.700029911631940394e-01 -1.029927766058956473e-01 6.296728369294187777e-01
2.724024624896276628e-02 1.806990197063302883e-01 -7.442082572107456828e-01 5.218443982642353429e-01 -4.475092006938893308e-01 7.262327032670411464e-01
-4.419544715081678843e-02 1.285502103187605161e-01 -6.849002052423972531e-01 9.458114259127523571e-01 1.143866386725060774e-01 3.039020294537232436e-01
-3.182002992528267654e-03 -5.551761009676334929e-02 -9.078696304978652876e-01 9.161169753298291640e-01 8.216294098679645386e-02 3.924015018331673543e-01
1.388663911848190928e-02 9.121941931336129128e-02 -7.973183588574425107e-01 9.337241346436742084e-01 -6.168724724808823112e-02 3.526385173387544536e-01
-1.055368277751938220e-02 7.810679435714174002e-02 -6.828199059383266434e-01 4.432238680879488357e-01 6.886367684754064467e-01 -5.738745541151881735e-01
1.109633357229372445e-03 -1.024839478443171775e-01 -8.778571368371493877e-01 8.917544552209895059e-01 2.459245972717905016e-01 -3.798619276134738154e-01
5.782247504432355169e-03 -1.769477241239576434e-02 -7.926303757246434545e-01 -5.662505759484337542e-01 -4.065511797535233396e-01 7.169912297086243891e-01
6.823986926520067033e-03 9.682663818025918911e-02 -7.833495618512548164e-01 8.834512174961770548e-01 -2.242046768769157331e-02 4.679863982352345242e-01
-2.125540444275990024e-02 1.756318298326681737e-01 -7.037130374966035218e-01 -6.856742346251717413e-01 4.583838900075514200e-01 -5.654511944922653299e-01
1.029386071907560998e-02 -1.594263346077667010e-01 -9.239937498130612603e-01 2.314671862994427953e-01 -2.435965013847062044e-02 9.725376851884712792e-01
-2.831282680849562042e-02 7.939707057173053806e-02 -7.076614170816719618e-01 8.568239868627054445e-01 4.736153479253554788e-01 -2.038164805560208626e-01
-2.298804778665778856e-02 6.488188253944604522e-02 -7.234205582945807400e-01 8.917445950436282409e-01 3.460882256113358424e-01 -2.915724906497053071e-01
2.621874448577104014e-02 1.531720439524683897e-01 -7.655925968616089650e-01 -8.349315913178587678e-01 4.762274464108559036e-01 -2.758562254226345489e-01
-2.806110742943774541e-04 -8.003286568080425489e-02 -9.013660644682174317e-01 -9.751675577557189500e-01 -2.117480793354164226e-01 6.489210428479399995e-02
-4.152807902579078170e-02 1.593503129051576095e-01 -6.946301715594956905e-01 9.246450440968788653e-01 -2.023366987950179774e-01 3.226319927530669207e-01
2.517494329369725226e-02 3.700233058792317536e-02 -7.155151816499270012e-01 -7.632170737919120596e-01 3.119437367937690220e-01 -5.658540477434534921e-01
-6.871772846260139171e-03 2.110097396999976310e-03 -8.080304368571067375e-01 7.144701682228090656e-01 -4.239947630387657096e-01 5.565616045285298741e-01
-8.672277120866093980e-03 1.832342239834053310e-02 -7.652141628370774384e-01 7.572355108211906716e-01 6.163447259574070802e-01 -2.161331995225608538e-01
-1.003495475939515658e-02 8.374132729899692179e-03 -8.738941945172247205e-01 -8.907704635354146694e-01 -1.161718758328839085e-01 4.393541584625906271e-01
2.646773925400227462e-02 1.998867148499466617e-01 -7.221282274111278099e-01 9.382385162519887856e-02 -8.612641137679563075e-01 4.994208758168902640e-01
-1.093539147769389126e-04 -9.290882270221302586e-02 -8.798856871625611031e-01 -9.668383716278309281e-01 -2.357526167964994479e-01 9.820522807695619694e-02
-4.101819330303342614e-02 1.464263981229320666e-01 -7.001703276967554679e-01 8.202086081137559548e-01 -2.012527327782431263e-01 5.354952630279599113e-01
1.836997258503142222e-03 6.076894694747887044e-02 -6.942694872253915017e-01 2.405501619115253675e-01 6.816216278436252329e-01 -6.910337011030251997e-01
3.361109382799316175e-02 2.021165983865987337e-01 -7.094543436781084456e-01 8.350799405630268124e-01 5.461556782897336593e-01 6.599596912791434733e-02
3.695665621057694222e-02 1.921638135034764439e-01 -7.329183925266652411e-01 -4.992780017222502725e-02 8.713912711353467566e-01 -4.880414606968212499e-01
-7.471836389405956194e-03 -2.394175461931918880e-02 -9.012239728620436985e-01 8.556562380124272948e-01 -3.614601319177373345e-02 5.162808035175824317e-01
-1.149690945892613454e-02 4.762620700788671585e-02 -7.383315732822736122e-01 -9.025097613277336395e-01 -4.268191219656782831e-01 -5.745927107616959073e-02
7.785749080838931697e-03 1.985743552118255650e-01 -7.126510437637505468e-01 4.186642778933073461e-01 -4.773666021419069594e-01 7.725550786679004078e-01
3.226457406442535814e-02 -1.313084739463049322e-01 -8.656926525437842468e-01 4.867868190766145298e-01 -3.135275096619350443e-01 8.153153337564899017e-01
-4.408580617441665989e-03 1.013146200026369403e-01 -7.586217791285682077e-01 -9.911128601523178094e-01 1.189772220682727838e-01 -5.949553823278445203e-02
3.470269922219874209e-02 -1.074898402581775519e-01 -8.507136033086291071e-01 -1.918370293502034141e-01 5.335538029439077512e-01 -8.237225828725243115e-01
4.611133426768939531e-03 -1.260983025705463001e-01 -8.955251731133343496e-01 9.073728195545145425e-01 1.529727084946340132e-01 3.915021287164431318e-01
-2.966977392957774115e-02 9.131685871378517061e-02 -6.931124718610882640e-01 -7.824749118289938687e-01 -5.468587840341401218e-01 2.977893260056675429e-01
-2.690975031368086478e-03 8.190378580492101157e-02 -7.686056709818989141e-01 -8.686284064698883700e-01 1.221064265210652922e-01 -4.801819572577024076e-01
-4.108691730557704862e-03 2.072622980009931615e-01 -6.921228951859472733e-01 4.693536522518831910e-01 -7.581993856613533644e-01 4.525934607355308059e-01
9.277340057813995150e-03 1.076162624840460019e-01 -7.865776647954548784e-01 -9.141994943324669443e-01 -1.838590785815846784e-01 -3.611580315947469089e-01
-3.736096639861757190e-02 1.946794687371457278e-01 -6.821363237582493966e-01 5.961508787787264119e-01 -3.211486175502096252e-01 7.358448852692673903e-01
-2.242913604955517823e-02 7.062577335146506818e-02 -7.067737446438354665e-01 7.063376041431755903e-01 6.295838856385819193e-01 -3.235912852928884975e-01
6.525756301914190441e-03 -2.126607507355768867e-01 -9.192037336430926020e-01 -9.985311104243214109e-01 -5.398741347070127455e-02 4.580469573640852041e-03
2.524270133835071830e-02 1.516598869729408328e-01 -7.872130424875970478e-01 8.457736898020752347e-01 -5.235317730075138565e-01 -1.028656808181999810e-01
2.782259310342908090e-03 -1.664927491318162478e-01 -8.972253321822322158e-01 9.604844445475072545e-01 1.267870000840763678e-01 -2.477795156826866074e-01
-5.786594520823763049e-02 1.641746232559631036e-01 -6.602119864650144443e-01 -9.720894303426557137e-01 9.752997915326654110e-03 -2.344078037262299075e-01
8.973769611819890036e-04 5.151190982944798408e-02 -7.054705671606863460e-01 7.982888021576096949e-02 8.226755472608441311e-01 -5.628785782231975343e-01
3.950148751662255209e-02 1.686446516081990532e-01 -7.867552135693678395e-01 1.611213976135517367e-01 -9.445680709192004754e-01 2.860612777553716568e-01
-1.516785409404320653e-03 1.786854962913888845e-01 -7.237556373317802771e-01 6.354655888290720034e-01 -4.834470768003510388e-01 6.020485107923747581e-01
-1.008766059686800123e-02 2.387609014215127511e-03 -8.899980232765732913e-01 9.545146291187717180e-01 -1.141476675521022055e-01 2.754489658551440567e-01
-1.888081019507104920e-03 -3.657116420155680919e-02 -8.704650433418236188e-01 -9.768965970210745642e-01 -1.735552781630506636e-01 1.247060710245904980e-01
-4.013303544693283542e-02 1.184050257141718715e-01 -6.723886203365514458e-01 -7.904699247922325478e-01 -6.031461647302187590e-01 1.066395891317570843e-01
-5.138055892645450491e-03 3.441089269492488695e-02 -8.475400709577241010e-01 6.628900347770299017e-01 3.406440285648848487e-01 -6.667371653030855772e-01
-4.016072901420156271e-02 1.668844865010047085e-01 -6.913322620047297473e-01 -7.241428433387536723e-01 1.782375454682608995e-01 -6.662195732840000550e-01
-3.302591048693035575e-02 9.815784924686583868e-02 -7.132939534128800441e-01 -9.293384756368148203e-01 1.276708591600001219e-01 -3.464536757235929243e-01
3.299690041362744047e-02 -1.058915485666088729e-01 -8.492053895255148310e-01 -2.698779015176842599e-01 4.382207173773020048e-01 -8.573963617450996999e-01
2.357315272605863335e-02 -1.754455811905268614e-02 -7.484530654183698672e-01 5.072006881487767238e-01 6.536949866841108570e-01 -5.616318423357666845e-01
8.131636887137772343e-03 5.311461428791273975e-02 -7.036767836747205296e-01 -2.414032215117422608e-01 -8.144749701766643701e-01 5.275936007946591122e-01
-8.525497221723512967e-04 1.800931206524049033e-01 -7.230942364683332624e-01 6.642318378619156416e-01 -4.856114694027435785e-01 5.683111527632465076e-01
-1.535349236878471267e-02 1.833138413641911546e-01 -7.036780756255606173e-01 -7.112521879102555733e-01 5.822235050227292374e-01 -3.938732224865284515e-01
