9.622802765368813210e-03 -1.571520777260748403e-01 -9.449482780172874241e-01 8.869066741807644094e-01 -1.070444831104836458e-01 4.493751549977201276e-01
2.133603834181866526e-02 1.821522432889615684e-01 -7.815525466532428078e-01 -4.386951170618703100e-01 4.838393053892269258e-01 -7.572622536654937120e-01
2.640904712860285206e-02 -3.512445313684052495e-02 -8.063423888515441895e-01 -9.528808979791241196e-01 -2.792234651854892391e-01 1.185421897735396968e-01
-4.350213903860839816e-03 -6.209833948149059285e-02 -9.331072909532556192e-01 9.861666969175442166e-01 -9.368314896445811835e-02 1.367432392875188585e-01
-2.031534252685929243e-02 1.056487263788674219e-01 -7.743943419122311100e-01 -7.030330418329819864e-01 3.232235939171058114e-01 -6.334595886292783140e-01
-1.937520169057378033e-02 5.127169472948526346e-02 -8.841665907598491581e-01 7.075541442245517620e-01 -8.286106936962044089e-02 -7.017842803693918885e-01
-5.579107963758647790e-05 -1.269830200195116478e-02 -8.634539243728234226e-01 -9.464179340397479434e-01 1.895733370780225135e-01 -2.614479756988716819e-01
9.279918614724437867e-03 4.665025091485991426e-02 -8.379026217304714752e-01 -9.248894550868401732e-01 1.518585915264941133e-01 -3.485949856907833988e-01
2.426937704770149029e-02 -1.147243338692210540e-01 -8.800223655995248473e-01 4.189638219202531100e-01 1.313066417993397905e-01 -8.984586143731687624e-01
1.681234779942637411e-02 -1.324752005333689475e-01 -8.906873804725394805e-01 -6.350404707321990472e-01 -1.717522608630385195e-01 7.531432542489254756e-01
2.008833735612214344e-02 -1.734501776833014333e-02 -7.972549316619831350e-01 -8.651198248557390169e-01 -4.860518398908049154e-01 1.237792291959311924e-01
-9.143556610552681929e-03 2.270415964096028916e-01 -7.125295763398240556e-01 -4.756018654556526393e-01 -2.496081783389084152e-01 -8.435037776331738568e-01
-4.421176433546127743e-02 1.483570518594329313e-01 -7.337743328897952111e-01 9.339421059958701310e-01 -6.239949384482319089e-02 3.519352864034931971e-01
-2.824276067820138524e-03 -5.153283322624433588e-02 -8.702194494007793324e-01 9.661699387030460162e-01 -2.257358064165674305e-01 -1.247357015774321343e-01
3.165994427599626987e-02 1.641920835100753318e-01 -8.351114214225064947e-01 4.882310848018475147e-01 -8.706916415633015882e-01 5.938411525833012239e-02
-2.669812087996980068e-02 1.733878256957748498e-01 -7.441595098979313372e-01 -2.497620547164744464e-01 4.613221879487841015e-01 -8.513523095228858750e-01
1.839662376420221970e-02 6.566100428774157560e-02 -8.474428890875291831e-01 6.565015067595262321e-01 1.552298557020301839e-01 7.381798314240228809e-01
1.069408973038099044e-02 5.472194310483789736e-02 -8.400489723148353294e-01 9.009536350881997002e-01 -8.025818483536423242e-02 4.264283892851079560e-01
-3.176843085281012141e-02 9.407068618443241437e-02 -7.385187528722908512e-01 9.157481926509926096e-01 3.259092095269766065e-01 -2.349221888241761202e-01
-3.379153267435317659e-02 1.972695208784209231e-01 -7.294690005902528807e-01 2.050651952379807519e-01 -3.568136208903201489e-01 9.113903146562113422e-01
-6.437904672753815699e-03 -4.581974726421474825e-02 -9.312005973739413411e-01 9.674820487444836248e-01 6.937670968810240313e-02 2.432393009158460018e-01
5.246820753341395471e-03 8.310916674989766995e-02 -8.221845150286187787e-01 -8.738578812004934582e-01 8.815263848908053146e-02 -4.781229086659597449e-01
2.067995962831428725e-02 9.079819333087944810e-02 -8.642545624927294723e-01 -9.940457388642072178e-01 -4.276671297110537506e-02 -1.002201442204089660e-01
7.830067799935334569e-04 3.484229656303442640e-02 -7.676686035296140798e-01 -3.996734613175925155e-01 -6.662140314896422000e-01 6.296189232898998789e-01
3.042909885467690034e-02 -1.370652611964978673e-01 -8.904578010929511400e-01 2.969490259027239842e-01 -4.977750520021982372e-01 8.148872766337881268e-01
-2.542951834803822749e-03 -3.050439300265642487e-02 -8.757253014307598837e-01 9.580107177955061726e-01 -1.202354472170373972e-01 2.603054010608656932e-01
1.964454639854361709e-02 -1.628898436633045010e-01 -9.023189631162660262e-01 -3.477999167933504832e-01 -4.673985893433699190e-01 8.127568988069965306e-01
6.347442075853514457e-03 7.731248343149932367e-02 -8.300414561887011766e-01 6.346233340438018899e-01 -6.196380974591311763e-02 7.703335058069988861e-01
-3.447445118572819989e-02 2.348000522432093229e-01 -6.962907292398854420e-01 -1.901862006241450539e-03 4.543416428779179506e-01 -8.908254904681970343e-01
-2.256705776341193237e-02 7.367855369531943477e-02 -7.495322909467986294e-01 8.581196198771302575e-01 4.508245526952094351e-01 -2.457395789633688710e-01
2.020073193917875862e-02 4.913777948947136570e-02 -7.454156105492907303e-01 -1.964568213400003788e-02 -6.914423321849916260e-01 7.221644884900318972e-01
-8.030621371680556715e-04 -9.374309812002921960e-02 -9.116719989796534529e-01 -9.751283252219917763e-01 -2.073918425637072405e-01 -7.818806167046521427e-02
-4.331709677262591922e-03 1.922409861202094006e-01 -7.561627241508395159e-01 4.440060856321926264e-01 -6.284610583688587937e-01 6.386668098746575151e-01
-2.322762566431103154e-02 1.618497074586655593e-01 -7.498474422911087789e-01 4.813736411682027483e-01 5.097833079596211237e-01 -7.130220168509613377e-01
2.665671363789744630e-04 -3.503485951069627846e-02 -8.674998110691678477e-01 -2.296885485807330651e-01 -4.220467167790111773e-01 8.769947203415385806e-01
7.243975889013091161e-03 3.668167540435280510e-02 -7.629534990551127827e-01 -2.080270744312600062e-01 -6.282070498627907451e-01 7.497203737436113347e-01
-4.076450684276251846e-02 1.332065270712262661e-01 -7.414209325429026443e-01 9.600827416511386048e-01 5.731300077419134581e-02 2.737815719253041125e-01
3.403764450026395411e-02 -7.021529159944307763e-02 -8.389234441214241667e-01 1.257376746898843933e-01 -7.843776189273307109e-01 6.074057853605545620e-01
9.798413978229975063e-03 2.359734106041686541e-01 -7.160752387014286402e-01 4.464557808931754468e-02 -9.964535243780953122e-01 7.132423228849665842e-02
-3.874767886505652015e-02 1.785186142615118599e-01 -7.316549654951067794e-01 -6.845361702338708110e-01 2.904991877718016147e-01 -6.685958820883275422e-01
1.509995678965221372e-03 9.139144048271929943e-02 -7.155866263208280342e-01 5.831471042400152571e-01 -3.970099133271305925e-01 7.087471929654952651e-01
7.050879675269942524e-04 -2.051698443701915342e-01 -9.266734147205859529e-01 5.311859266230599674e-01 1.304414017827414465e-02 -8.471548629174071587e-01
-4.849329086634267781e-03 5.024645219590757883e-02 -7.526194844878775214e-01 5.850895675037980359e-01 6.717827806228989784e-01 -4.542885576996020802e-01
7.164506875710361170e-04 -2.393510277890643564e-02 -8.759641160801375781e-01 -9.861525467503201581e-01 1.647086435616337552e-01 -1.934469627428798619e-02
-4.930569054214190700e-02 1.787722767663578738e-01 -7.215152319402677872e-01 7.727474382485599591e-01 -1.510333867621398984e-01 6.164822079861235204e-01
1.171457253960193554e-02 6.648460888916367384e-02 -8.392302979224474102e-01 8.059579396665060846e-01 -1.512540832039021288e-01 5.723233367622428958e-01
-1.677904802655001346e-02 2.076519700985625105e-01 -7.309855970482415088e-01 5.070629806216376823e-01 -5.438111959433897802e-01 6.686976273695912631e-01
-2.317969028371709775e-02 6.762693604608638331e-02 -7.870665355999589829e-01 9.554473334108213312e-01 1.773339641234171760e-01 2.359513895835870234e-01
-1.192431921725214256e-02 1.719917020511530295e-02 -9.025934478469131994e-01 -8.358101853687394112e-01 -2.997856018395565481e-01 4.599455695661916477e-01
-8.557618220829292044e-04 -9.535756167985943998e-02 -9.252125902023218273e-01 9.894970360648872587e-01 1.353697071029568988e-01 5.070165695184702948e-02
5.601176227191532325e-03 -8.471683550671087193e-02 -8.752169885624093704e-01 -7.323944848096837212e-01 -2.816552144037617889e-01 6.198940706439520776e-01
1.485778261429233221e-02 1.551543129166738366e-01 -7.916122605280535574e-01 -3.888875243611392696e-01 5.229189698612644044e-01 -7.584999962791685313e-01
-2.656945769121173400e-03 -6.497383700816443397e-02 -9.292742957376792790e-01 -9.997492965795689024e-01 5.431041996091816836e-03 -2.172205725740584265e-02
-5.341391415433287618e-03 -2.683154806849726015e-02 -9.348542968724639080e-01 7.185456753816337194e-01 -4.225560166685634646e-03 6.954669345350862342e-01
-2.397798266868287481e-02 7.687116539295019146e-02 -7.476380678060531304e-01 7.883549331118562264e-01 5.587726911986959921e-01 -2.574287843438791690e-01
5.382836748428958783e-03 -1.461619882980391694e-01 -9.075201641861631030e-01 7.730903848833321490e-01 5.097819327104007731e-02 -6.322440040140846484e-01
-1.538428502992064554e-03 1.553346102952397889e-01 -7.791304281430514456e-01 7.840104768512776712e-01 -3.721291033657613823e-01 4.968375012170747063e-01
-9.071247636095300729e-03 4.023336693429265670e-02 -7.855750813963625623e-01 -8.123427318431685196e-01 -4.739121645779731384e-01 3.398625402815058094e-01
-3.053823408207883942e-03 -3.574331059436323954e-02 -8.530461488509718526e-01 8.242658376502670636e-01 4.604710988366551572e-01 -3.294726028349960756e-01
-2.632419272978936409e-02 1.080041138396902189e-01 -7.697024133805348001e-01 7.015768712956730324e-01 -1.644671978473323873e-02 7.124039577875022067e-01
-1.858517061411885801e-02 5.054807377460009132e-02 -8.866793504694668870e-01 -6.685909168877450792e-01 -5.651804853308839416e-01 4.832775650248529731e-01
-3.935481928268770579e-02 1.583237030865748407e-01 -7.404978174653915612e-01 7.257828867278284246e-01 -1.148772366190533578e-01 6.782642713867437223e-01
3.119845910703820599e-02 1.647542734162700251e-01 -8.042363535867528279e-01 -6.756928411622941111e-01 6.387381789556134670e-01 -3.680390239451432621e-01
3.851840153631130425e-03 1.774725189274676540e-01 -7.724821222622197947e-01 -6.741048891385305053e-01 4.852281960080492840e-01 -5.568987306847660301e-01
1.929771106886298253e-03 -1.771089094746352566e-01 -9.342930872331235426e-01 9.331815399464784555e-01 -2.705380278500023605e-01 2.366038651209028398e-01
9.818673518211496268e-03 6.265805156725208491e-02 -8.345739278967934105e-01 -7.561840786051339247e-01 3.195719384673339700e-03 -6.543511493393430190e-01
-4.752601227746643120e-03 -6.320164651128007405e-02 -9.116305445330619150e-01 9.935799600505573759e-01 3.596621826760236507e-02 1.072627341132978002e-01
-8.073364200274164848e-03 3.301520796442496825e-02 -7.910697368771699711e-01 -9.371963517434495072e-01 -2.437872851166872634e-01 2.494609346054081633e-01
-1.644155551502820764e-02 3.996151448842492210e-02 -7.961482377898277951e-01 6.999236765537913962e-01 6.013427791079427598e-01 -3.853488147304460210e-01
3.649945068374762375e-02 1.671642143263644964e-01 -8.187581036193408712e-01 -7.859150602445658107e-01 6.171234112410673989e-01 3.868091750423031244e-02
2.566246055427428424e-02 -2.390110481086986718e-02 -7.890335597604054563e-01 4.785076225989786103e-01 6.001942282180372512e-01 -6.409347420201436663e-01
-4.869715666433175466e-02 1.597668209771206105e-01 -7.246188961934015849e-01 8.894747317127220665e-01 9.133152659319165867e-02 4.477647305167509195e-01
4.900703577679919182e-02 1.843975104790175901e-01 -7.973106457852339179e-01 -9.259593767588677471e-01 -3.331985234685599928e-01 1.777019317584946911e-01
3.197643365101757174e-02 -1.429819622481528218e-01 -8.922088156186723795e-01 -2.777299337030738058e-01 8.303724228466442536e-01 -4.830607863417191172e-01
2.790567998890461712e-02 2.114352748256544401e-01 -7.519397166904182583e-01 1.658934176079162881e-01 8.774528626776357809e-01 -4.500620488034818845e-01
7.550056646671669640e-03 -1.409826074984261157e-01 -9.366046924845117250e-01 9.978911950009776710e-01 5.103297785948548299e-02 -4.010982560812569042e-02
2.468157851566662661e-02 -3.960212378171467512e-02 -8.233676462810189944e-01 -8.399278769076157225e-01 -3.131787769064904303e-01 4.432157660652653042e-01
1.717774384965656959e-02 2.046700348115816637e-01 -7.583886985888609322e-01 -2.801652424930055618e-01 6.706012539593830812e-01 -6.868780059711757646e-01
-2.468654170331662304e-02 2.063228110472618282e-01 -7.255283993851457947e-01 6.717634919246583403e-01 -3.855217370496629159e-01 6.325399601443374431e-01
3.651666398733063520e-04 -2.564628205636236558e-02 -8.607810577290235798e-01 -9.962467978672637781e-01 5.810085099966860039e-02 6.416080464222320701e-02
1.469293295794073424e-02 -1.229984139117148711e-01 -9.484324121208335123e-01 3.247759738890388381e-01 -4.948204265112516459e-02 9.444956824885430979e-01
-4.015678239506066671e-02 2.167637549044450496e-01 -6.954768597017760845e-01 4.194377172253820896e-01 -8.930161672908597525e-01 1.630770564055633864e-01
-6.680762837623053195e-03 -3.873495764523403329e-02 -9.260649443336234077e-01 -9.588009035638049848e-01 -2.026252509652540224e-01 -1.991075965313701956e-01
1.399725522519415337e-02 -1.879759597361667367e-01 -9.187378190075590201e-01 -8.134386992042293985e-01 1.847441383914161239e-01 5.515315820213239073e-01
-5.177043423674534137e-04 -9.713289100073234372e-02 -8.874718055772796710e-01 9.982084956578318735e-01 -5.977204642359524450e-02 -2.664894531503732202e-03
2.314461970947934849e-02 1.394732638174883133e-01 -8.613783733071492810e-01 -9.876057035141765361e-01 -1.569100376906066019e-01 -3.770206652257202147e-03
-5.441213192170589637e-03 -2.662622125191599354e-02 -8.455544485063485327e-01 8.997486750711205516e-01 3.745014482884921891e-01 -2.240557674722636616e-01
5.319368304453101284e-03 1.808458018885776564e-02 -8.556539453956060193e-01 9.641211512094971514e-01 -2.318287985758168690e-01 1.293283184046205292e-01
-5.533401865840404006e-03 1.811483474752304760e-03 -8.176274442852456970e-01 6.079505843955829159e-01 5.293660035109903905e-01 -5.917497116686003533e-01
-5.913411517819202462e-02 1.906196385128604287e-01 -6.838685991075553749e-01 -7.332662926030115713e-01 -2.468544175916008165e-01 6.335482938559193755e-01
-2.447835912807816428e-02 1.000911335479587883e-01 -7.719440766878103988e-01 -9.469387329858414137e-01 1.440983602061796931e-01 -2.873024513592942752e-01
-4.520125112355333902e-02 1.456896929948335029e-01 -7.296698333218800681e-01 9.596896378063932698e-01 2.273050273395482990e-01 1.653125029548608849e-01
-6.205808167823199939e-03 4.351455810551581316e-02 -7.623889614252392644e-01 7.725442957283926715e-01 4.817404032675969283e-01 -4.136441647081400830e-01
-1.779163334053703721e-02 8.019604156338450140e-02 -7.345244749217328950e-01 -6.743103971758616089e-01 -5.769804967829791353e-01 4.608676540967031054e-01
3.491167469095745202e-03 -1.202918766023549219e-01 -8.988947029034545233e-01 9.751088514649293160e-01 2.103801572359322303e-01 7.002083430044955814e-02
9.037126596047122609e-03 3.917033514898424218e-02 -8.407562564327596411e-01 -7.925110109912761880e-01 6.877717929291853050e-02 -6.059669933800811981e-01
-4.242330607558815643e-03 -7.359401457124066515e-02 -8.885219370348500512e-01 9.797614559647792598e-01 1.836057486281059137e-01 7.972715018416774713e-02
1.903572801533505096e-02 9.369221423329905651e-02 -8.634898012777190157e-01 9.923613576224359356e-01 -1.119476666340032400e-01 -5.183296087392520735e-02
8.801765692233192231e-03 2.942389053241730931e-02 -7.696663802031235013e-01 1.665752290867083818e-01 8.341888088969042769e-01 -5.257201956990760205e-01
2.216872422674029050e-02 2.136326615614554947e-01 -7.522402328716100151e-01 2.862108046005423789e-01 -7.495694454682679808e-01 5.968492454131978375e-01
-5.085659332561686709e-03 8.925918113776822038e-02 -7.166572477739912017e-01 4.514931826168724904e-02 -5.061772355566616088e-01 8.612468550100609299e-01
-2.936537997952407691e-02 9.072232023079548902e-02 -7.450293205785893935e-01 -8.498785664386560024e-01 -4.930562502026498706e-01 1.860160112578403691e-01
3.386199537114990138e-02 -8.109375744316389689e-02 -8.499607238756734517e-01 5.797087973969130559e-01 6.634836154669682129e-01 -4.729980996024246709e-01
7.648652232806042381e-03 -1.264045911297947411e-01 -9.099883812563828167e-01 -6.761810437160367115e-01 -2.584552616170754380e-01 6.899130915278680609e-01
-1.509816496617260792e-02 6.723108502539533460e-02 -7.974483570383906761e-01 -4.340516954519746951e-01 3.383519169238274338e-01 -8.349353903082786799e-01
-5.317839805998356151e-02 1.477158541392597779e-01 -6.990849907067182567e-01 -9.366604094802734037e-01 -3.429195577746204648e-01 -7.122818408400823087e-02
3.759898307454322109e-04 1.889143197452052281e-01 -7.624235660471014864e-01 5.557828642398825458e-01 -6.008098211497557850e-01 5.745719855921546104e-01
1.868344864522352225e-02 2.230373058152819721e-01 -7.281854836044161505e-01 8.605823768997538092e-01 5.075714242923300423e-01 4.206211848475378129e-02
1.918195195501120470e-02 1.228299185007100669e-01 -8.667967095314808024e-01 8.180436136796415125e-01 -1.970412690414093670e-01 5.403511676794123808e-01
-4.784780802210507333e-02 2.112495359967475062e-01 -6.991177352993334093e-01 4.822169568269329409e-01 -6.789595317838589272e-01 5.536070454288087861e-01
-3.623561533406158622e-03 2.447472444132235345e-02 -8.291293146948435222e-01 7.396850612581774564e-01 -2.259155790487372972e-01 6.338991728142261417e-01
2.392215027079772766e-02 -1.180350903878207430e-01 -8.814168002994461348e-01 4.360319550337188321e-01 1.824622441471941692e-01 -8.812398445657361190e-01
-1.246873775732965962e-02 2.391467124320823673e-02 -8.059881543323468289e-01 8.858192477655754127e-01 3.525205882257694823e-01 -3.017507169253915156e-01
-5.756869064759865401e-02 1.974786079684876794e-01 -6.988667739528592326e-01 8.230693142269309703e-01 -2.708354416410596599e-01 4.992044346048039594e-01
-1.094674289072352681e-02 -1.009886324498467276e-02 -9.139141056043549316e-01 9.840586490573586254e-01 1.363745026158505458e-01 1.141515232122896628e-01
2.116642363900558821e-02 9.459335800003808303e-02 -8.693667770846842391e-01 -9.504695478100468886e-01 -1.674116196675436707e-01 -2.618797210286714083e-01
-7.514371885817799045e-03 2.339681513398586196e-02 -7.995057124470564824e-01 -7.853538569944745751e-01 -5.522936314475529462e-01 2.796266510302209407e-01
-5.420597541067102842e-02 1.509936757815557307e-01 -7.013419100980169407e-01 -9.459680196599138391e-01 -3.208563082708241199e-01 -4.685867287406836335e-02
3.690933424132334523e-02 1.675408530155397813e-01 -8.255987072252000125e-01 -6.345434105752489895e-01 7.508894838057204035e-01 -1.830837054614910253e-01
-5.028417973685031517e-02 2.076311015377165503e-01 -6.982879365074227129e-01 -4.772729678985881407e-01 6.477178082817276472e-01 -5.938620672748753382e-01
-3.429308709889688361e-02 2.002718554360461145e-01 -7.253912158790056797e-01 -5.562462898192431782e-01 4.202673176499714391e-01 -7.169138349743465755e-01
3.800540418985064780e-03 1.929842284483861692e-01 -7.597540027925084871e-01 -4.931606377428711663e-01 6.134773498083971877e-01 -6.167966655658169151e-01
-5.269166473715989479e-02 1.510681130964381946e-01 -7.097858002723158588e-01 -9.595061204526308396e-01 -2.139984936255729941e-01 -1.831738232934148058e-01
1.033048075456454579e-02 4.935733086097321420e-02 -8.430072898229473699e-01 7.492375188154182242e-01 -1.314963958011101663e-01 6.491161978341271066e-01
3.428811102096732122e-02 -9.232596880791545113e-02 -8.655356514782117650e-01 -5.283679473987906716e-01 -4.911144099004529084e-01 6.925560977637252869e-01
1.107854003723529948e-02 2.271104001390681082e-01 -7.277989646547189384e-01 -8.520096208117536318e-02 8.133019278363188276e-01 -5.755699525150435036e-01
-2.755233131788735901e-03 4.253117691972971813e-03 -8.100673096366329817e-01 8.564066970857203698e-01 4.794813504055079334e-01 -1.914816017272616966e-01
-1.638587387987857497e-03 -7.931416291518028627e-02 -8.954141124955521391e-01 -9.605515897465943809e-01 -2.461926351312331007e-01 1.293438434655080349e-01
-4.790127868959363766e-02 2.151713587377360459e-01 -6.832141691315110066e-01 2.218241130711394726e-01 -3.442049396683707352e-01 -9.123141029097904253e-01
-3.576519421776166996e-02 1.277366831605599717e-01 -7.470635177614849409e-01 -8.230258667187512200e-01 -7.394489197864784202e-02 -5.631701125433723476e-01
-3.998417177134549333e-02 2.075406192580710185e-01 -7.114916319218740348e-01 -8.134718231094590912e-01 4.094283594552108885e-01 -4.130762780417044921e-01
1.631038178402529890e-06 -1.960819030259815521e-01 -9.391004741017101587e-01 -8.658104171211099542e-01 4.344695230596992142e-01 -2.482107071357866346e-01
6.243129765556347521e-03 -1.562294297800487231e-01 -9.265369695796482619e-01 -9.424203013320351374e-01 8.656129072826339310e-02 -3.230342374806320915e-01
3.828831455176060893e-03 1.367245596330787924e-03 -8.699119635595066180e-01 -9.834985424085882499e-01 1.464411419788799462e-01 1.062337470679801388e-01
2.066863049486136056e-02 2.031865226304954419e-01 -7.622089465354540128e-01 -4.193810869788860418e-01 6.881517717480175600e-01 -5.920866853126092177e-01
-1.701706488881225138e-02 8.533161705108655015e-02 -7.248098250567848178e-01 6.389557196114256099e-01 5.617268640086968690e-01 -5.255459243746453124e-01
-1.842527996359490453e-02 5.843689105476486401e-02 -7.756976315227764873e-01 -8.294153474004826165e-01 -5.063764741344493059e-01 2.359089823209367665e-01
2.526565747407978277e-02 -1.192695607917489131e-01 -8.810443612234611921e-01 4.739288615135325844e-01 2.653045528949545817e-01 -8.396457160241428408e-01
-7.739861809843017089e-04 -1.889877631266726477e-01 -9.359191894220567631e-01 8.797532555338551941e-01 -3.836497296420265379e-01 2.807972477129773159e-01
-6.253940501093115285e-03 4.402725691053555046e-02 -8.180264962227620229e-01 5.609936331163183354e-01 -6.027883653402489328e-01 5.673908090667176829e-01
-4.142823524657514300e-02 1.325476219758389695e-01 -7.235623872881842278e-01 -9.073911482946535045e-01 -3.873891629826167193e-01 -1.630059520389909866e-01
2.877520971140848025e-02 -4.617078770323712611e-02 -8.134136179509774411e-01 -7.855333156308826892e-01 -5.245718294202219578e-01 3.282709335483017243e-01
1.830600338292356563e-02 1.041228647666630897e-01 -8.568112669929581759e-01 9.970438191566671771e-01 3.516907272255850175e-02 6.831368095281326047e-02
-1.298344408274340438e-02 3.895554106019062657e-02 -7.956135590068131869e-01 -7.020279463193199732e-01 -5.587452977333158266e-01 4.415432649781743657e-01
-6.714349114744715998e-03 -2.164370566904148460e-02 -8.428826040713842671e-01 9.031657667111460119e-01 3.864431421259991173e-01 -1.869580052975870210e-01
-2.990360856781917182e-02 8.667014058975093527e-02 -7.481013380098272547e-01 9.792326495551268994e-01 1.958624575403031809e-01 -5.235757606611382564e-02
-3.659210835374667858e-03 -4.120582868751306027e-02 -8.989013037461187627e-01 9.012696198753451515e-01 -1.675762343094512330e-01 -3.995388316351926039e-01
-2.432458281332054197e-03 6.704622407936010331e-02 -8.137487190487305844e-01 9.799011694510865178e-01 -1.772499580899456195e-01 9.152131153729024804e-02
-1.176844221699711521e-02 1.346247846645318713e-01 -7.678307787987762589e-01 -7.787840204555566137e-01 1.428119181800490689e-01 -6.108192903869474888e-01
1.464714689424451328e-03 -2.374015520578847706e-04 -8.720856137435617494e-01 9.438062835165500486e-01 -3.037355026519310552e-01 -1.302860070132492443e-01
2.122956890320261761e-02 8.413303669109632732e-02 -8.675297229105334296e-01 -9.779573502279550468e-01 -2.626715696819696341e-02 -2.071459813752729306e-01
-3.068197636630402153e-02 1.009680537707439985e-01 -7.575918404262784733e-01 -9.732641833802764264e-01 9.960224517206796302e-02 -2.069691332199249667e-01
2.537757723828556848e-03 -1.433561404510680717e-02 -8.246841286992787623e-01 -5.578742573259637405e-01 -2.828715245136320111e-01 7.802307438394991967e-01
7.207012865705296131e-03 3.504287747451674540e-02 -7.644677538628583680e-01 -2.630258460279918387e-01 -7.741697430119464096e-01 5.757417939719819966e-01
-5.256873416798926279e-06 -9.627966180404701202e-02 -9.314769959046249603e-01 9.092738055875572156e-01 1.291423989944123218e-01 3.956556422626743563e-01
-3.712720666588573051e-03 -6.348035450222073994e-02 -8.939435974149545494e-01 -9.796613273452217108e-01 7.312285052285664999e-02 -1.868601948934293655e-01
-5.004333387128545065e-03 1.590511347543292486e-01 -7.728082657930127608e-01 8.287063402196627182e-01 -1.742860003735744734e-01 5.318554237323476208e-01
1.429223545424980826e-02 1.625671448511097905e-01 -7.883857644417396893e-01 9.318492318698542443e-01 -2.302618414366036925e-01 2.804219917228085723e-01
5.191864104307538762e-04 6.952583826432900960e-02 -7.277998537578047600e-01 3.435519175099502887e-01 6.473848529754989700e-01 -6.803417759575902668e-01
-4.127454643000621516e-03 -3.416045035306441990e-02 -9.338881704411096107e-01 -7.747120047004204535e-01 -3.345437334188314238e-02 -6.314286299158107241e-01
-1.585518406421369125e-02 6.497920734830395229e-02 -7.538708167444653219e-01 -7.592830261870119335e-01 -6.096769929260995591e-01 2.275593338909265573e-01
3.811495265526582826e-02 -7.157929662162283713e-02 -8.410951148429914870e-01 -8.760153585849165259e-01 1.847942629037303830e-01 -4.454752203223060203e-01
5.347222092423068764e-03 1.152590334038903902e-01 -8.214221882923226081e-01 7.926473812142332820e-01 3.689570129693436895e-01 4.853667187137552519e-01
4.109277220454994606e-02 2.000130791819104137e-01 -7.685090086347767802e-01 -6.805245133808084379e-01 -7.012953087655399154e-01 2.122999684202989124e-01
4.966159239731127682e-03 2.270350873897299115e-01 -7.280536073817132081e-01 2.508901306340684534e-01 -7.116654323983652164e-01 6.561908675680181435e-01
-8.278912257524533984e-06 -2.056187750391217598e-03 -8.456924057778305581e-01 -8.544409173750048270e-01 -1.736015696194269375e-01 4.896868527345117350e-01
-5.586236839251779683e-03 -2.290870035597022698e-03 -8.450286737494002720e-01 6.958789184496223523e-01 -3.788087773603083797e-01 6.101282168955736163e-01
3.132758483936342458e-02 2.090158393163242534e-01 -7.545872241195464847e-01 5.218264754405229633e-01 7.906675007873317229e-01 -3.202218492358636093e-01
-1.164504233166868338e-02 5.629737592081610065e-02 -7.603925853917853361e-01 -7.282645146776796086e-01 -5.667063436739393500e-01 3.853241709275435078e-01
2.184577465099135900e-03 1.319567238065553205e-01 -7.985869314197550084e-01 7.942588355897859387e-01 -4.512847661133044253e-01 4.068107200672295143e-01
1.246234181167008514e-04 -5.129506957681096574e-02 -9.413511274067943857e-01 6.904639899961063643e-01 1.415062706135751351e-02 7.232283444890882373e-01
1.284615925338465983e-02 -1.490105493568493755e-01 -8.976783418536967707e-01 4.757331759864377174e-01 3.157379436362474645e-01 -8.209674148309487052e-01
6.693832606888852794e-03 2.291644623882006446e-02 -8.469916611096149905e-01 -9.290276362171296931e-01 -4.380798711752965924e-02 -3.674078270934398871e-01
-3.218472041210238346e-03 2.567981654488410426e-02 -7.790904595036149960e-01 3.873538520363024040e-01 6.959675651759021919e-01 -6.046371982732823280e-01
-3.460042564929236616e-03 1.827497035547702153e-01 -7.637375339569576482e-01 6.271982072320738677e-01 -3.382044797844593331e-01 7.015982744410051986e-01
-8.360701482144664368e-03 9.834333905321399061e-02 -7.902499768437908356e-01 7.441717165333736617e-01 -3.133876900329428117e-01 5.899123765845132317e-01
-1.242844842086180193e-02 2.737323480054843286e-02 -8.066771901307845383e-01 -8.842677702464671885e-01 -3.960592439067444070e-01 2.474016689906495814e-01
4.479257032276111848e-03 1.569385596706124666e-02 -8.532739178041383044e-01 9.161639210841299175e-01 -3.349906033529422289e-01 2.200567321601046011e-01
8.710316637053221872e-03 1.447834491375965815e-01 -7.944324517156826637e-01 7.389894867277372326e-01 -2.546090771049326351e-01 6.237537626032007010e-01
1.974580845706976409e-02 1.374921220473633576e-01 -8.462339114815934371e-01 -9.992983707305717056e-01 -2.812393494800469532e-02 2.473480418894370703e-02
5.165627109630668802e-04 3.553788991109516765e-02 -8.278336999252667860e-01 -8.231300018881713143e-01 1.097853669794244813e-01 -5.571392762934351817e-01
-9.473255695267262036e-03 -2.182275683738242253e-02 -9.117054741852346211e-01 9.495902457286781173e-01 8.469686076343758974e-02 -3.018357284911245553e-01
1.106691506742109310e-02 1.323265593427707942e-01 -8.152409798254235396e-01 -7.932578312388527397e-01 6.021674904428552244e-01 -9.020158885510756730e-02
1.946541153304955085e-02 1.400885674626111688e-01 -8.247360397779854857e-01 -8.196584647112566957e-01 5.700583382016468637e-01 -5.651099250555039616e-02
-9.564153888107435400e-03 5.038787805004257131e-02 -7.676370030730457206e-01 -9.022461450713691322e-01 -4.216174620953567764e-01 9.050198539327346248e-02
-3.390571064296718506e-02 1.186785393119103721e-01 -7.103178854231140260e-01 -7.975878034366118419e-01 -3.799487505411054955e-01 -4.685004191795493211e-01
-6.184268687040053031e-02 1.898455979246319869e-01 -6.921574785850099776e-01 9.342790562291488632e-01 -1.676708793557318000e-01 3.146571488265386685e-01
2.527511818597843671e-02 1.811678706165162078e-01 -7.848420611607106467e-01 -5.640070957046063871e-01 4.538623438878918170e-01 -6.898586585637989099e-01
1.064801573587164339e-02 -7.209444333241099394e-03 -8.008808770100785956e-01 7.463547929084011212e-01 5.662427861931242923e-01 -3.497479523698538428e-01
-1.586129956361288784e-02 2.640698932861116136e-02 -9.056882093394531541e-01 9.264535377629574686e-01 2.777718918429718520e-01 2.540209016370053585e-01
1.087938483240188589e-02 -1.749638251725966209e-01 -9.144005972281529226e-01 -6.184264077170962270e-01 -3.941170871616786475e-01 6.798680017807294806e-01
-2.753327397726419365e-02 8.405752310819736284e-02 -7.556021254036882073e-01 -9.145591764772924570e-01 -3.997364999368526184e-01 6.158119306583309527e-02
-3.008768501172996365e-02 8.653797343583574664e-02 -7.588602340614072350e-01 9.337994085648151366e-01 3.104895017400683965e-01 1.778058881848562922e-01
1.141950158168132667e-02 7.197518651481772667e-02 -7.254393492873957294e-01 -1.905075581057463219e-01 4.165857500935595814e-01 -8.889112346705784207e-01
-1.151717656870648821e-03 5.023965524630474855e-02 -7.495702568757047768e-01 3.873568586430099492e-01 6.959675262331593837e-01 -6.046353169399848460e-01
-1.457608693201202857e-02 1.292332994960809778e-01 -7.690058511922859275e-01 4.632916289300316182e-01 -3.233064943155102844e-01 8.251265219933078265e-01
3.510868161010397698e-02 1.744572061032272081e-01 -8.060495708285899674e-01 4.240228122869848515e-01 -7.757544896704308135e-01 4.673431570231939558e-01
1.445857716305289260e-02 -1.421301660606792139e-01 -9.479085412891251616e-01 -8.987741732372543924e-01 1.192208048517465896e-01 4.218902525683562721e-01
1.345565706682697732e-02 -1.277280288075932357e-01 -8.915177300143364292e-01 -4.693659850066286277e-01 -2.387144881362020243e-01 8.501240881616215495e-01
-3.290194339481249293e-03 -2.065307697089902375e-02 -8.950949454883146972e-01 9.652498272172020943e-01 1.038786311327059703e-01 -2.397957486094292601e-01
-1.628565776851715469e-02 1.477674889919363133e-01 -7.598333233916606533e-01 -7.569758986762089581e-01 1.984294214994305194e-01 -6.225859406593977630e-01
1.793826485982855101e-02 8.808691731502817091e-02 -8.482342506030239315e-01 9.596209886301567682e-01 2.053161272409647839e-02 2.805459161339342034e-01
1.604155090627615299e-02 6.822451894094050395e-02 -8.425361755841298539e-01 -8.742001710053608488e-01 8.273654615160950035e-03 -4.854952189811009844e-01
-1.899196427772974205e-02 1.658645260433035951e-01 -7.527131662934184453e-01 -7.156184748597821388e-01 1.830251121185056118e-01 -6.740860529438124082e-01
2.326035964713496322e-03 1.572232011295042475e-02 -8.465451561051000606e-01 9.133251746689917683e-01 -2.223100476052861652e-01 3.411969637168406067e-01
-3.146450158511496231e-02 1.783219858646463152e-01 -7.404158556535173075e-01 6.492328112478521485e-01 -6.093612935626073757e-01 4.551654322407585052e-01
-1.176787553124460442e-02 1.392911835153564093e-01 -7.661506319054324221e-01 -7.036093850845163145e-01 1.219502508780341971e-01 -7.000442625518570328e-01
-1.068467935638793033e-02 -9.284437935429021987e-03 -9.163892348882944905e-01 7.846546745917244436e-01 -6.198005211229967726e-01 1.282012702811306630e-02
1.953145728831825675e-02 8.897407587451723610e-02 -8.600859306889716560e-01 9.994085023070322649e-01 3.437871057712792860e-02 -8.658957610207209310e-04
2.259175643653036844e-02 -1.625104221482829778e-02 -7.874831207357383400e-01 -7.726230593399099345e-01 -5.377836917989378129e-01 3.374052593119190036e-01
-1.559468737212225996e-03 -8.852087634464352039e-02 -9.140211937531320663e-01 -9.902346080255653993e-01 -9.439101465492615028e-02 -1.025951140204477974e-01
4.087977452671112308e-04 2.010418481391567924e-01 -7.528193616727558712e-01 4.092095410302133418e-01 -6.424739701002127878e-01 6.479002618254704471e-01
-7.228883909242103667e-03 4.725838578413625590e-03 -8.344786347740444921e-01 -9.043660242638288382e-01 7.008027018519832896e-02 -4.209641907431146968e-01
1.506729846048468664e-02 1.229961045192478619e-01 -8.387212816031412999e-01 -8.631083057584645335e-01 4.761499766238210668e-02 -5.027691960814270056e-01
1.765401559820848525e-03 -1.577516647399180433e-02 -8.786852110827541029e-01 -9.769716255887983536e-01 -2.436978347500205061e-02 -2.119730087717830724e-01
3.042515620367564413e-02 1.690912881438949578e-01 -7.993200405755538362e-01 -7.767865480433937542e-01 3.300422494240545790e-01 -5.363532160563023732e-01
-2.366302613035376964e-02 7.767024493185349654e-02 -7.799209397537281152e-01 -9.358629539157748978e-01 1.195286460838707321e-01 -3.314716190768027260e-01
-1.941607689506874915e-02 2.129093463943228792e-01 -7.243474895983978978e-01 3.337188376238319210e-01 -7.466589080463319483e-01 5.754408852784599349e-01
1.879406052664211318e-02 9.770360365045943629e-02 -8.550389771064363931e-01 9.980951279653950126e-01 2.615720000226317773e-02 5.587411225051997637e-02
5.028840021229670498e-03 2.903889239497608674e-02 -8.660424757995729417e-01 9.467382789199111359e-01 9.109830098776357937e-03 -3.218751966575492673e-01
4.720970479756881472e-03 6.929131833711517363e-02 -7.272012133842546966e-01 7.288279947278900051e-02 3.602096048913541182e-01 -9.300199664980444147e-01
1.738021577483775393e-02 1.369574832596392455e-01 -8.312552508535623330e-01 -9.732641833802764264e-01 9.960224517206796302e-02 -2.069691332199249667e-01
-3.783009406362040916e-02 1.218125447558121577e-01 -7.187397964522089788e-01 -8.640871217249127545e-01 -5.017994104036811454e-01 3.938016998025820753e-02
3.339942983305935892e-02 -2.760454687342234897e-02 -7.933574196845978310e-01 -9.475504244476400384e-01 1.353492092697111127e-01 -2.895320097660386005e-01
6.793769851737515436e-03 2.616137773573922951e-02 -8.658005136948012659e-01 -9.703441778705805820e-01 9.539122544194412329e-03 2.415391927074236611e-01
3.301497566826006730e-02 -6.385980972357375995e-02 -8.302086040926066612e-01 5.756998151985319723e-01 -6.388161875992293126e-01 5.103759410880985836e-01
5.883208790752922357e-03 -9.991777866544921186e-03 -8.197855694345840272e-01 -3.901256679435958774e-01 -4.660194968794318382e-01 7.941207664705692837e-01
-4.794509830210490903e-02 1.610730528120197513e-01 -7.263397318676938497e-01 9.164941498517379381e-01 -1.734301839517501664e-01 3.605002698778496661e-01
-1.508325410904464781e-04 -1.768072126611471007e-02 -8.836071176565838403e-01 9.614556389658485136e-01 -1.265073433619602339e-01 -2.441289543996600642e-01
1.942311286937960756e-03 1.978734470918867561e-01 -7.540688559717340089e-01 -4.518877498063000320e-01 6.599695702606203085e-01 -6.001979905872819598e-01
2.272903776619296032e-02 2.001626887256907628e-02 -7.637373264106724902e-01 6.633780667210127380e-01 3.988701031794970597e-01 -6.331130873572817785e-01
5.537614849073856094e-03 3.400869403386901774e-02 -7.639370592369162383e-01 2.192119591209079066e-01 8.677584847890099651e-01 -4.460283948977407653e-01
-5.402050727284535281e-02 1.537363309783008058e-01 -7.069638632078016904e-01 -9.271471601165238718e-01 -2.881745001666703443e-01 -2.394861184736071236e-01
-3.305909660402025357e-02 1.062951575008259097e-01 -7.556907816712024051e-01 9.748056531188433738e-01 -2.081165046455704104e-01 -8.025870134543507117e-02
4.660546185250910751e-03 7.713195742588918602e-02 -8.283877665260618306e-01 8.184607403876241749e-01 -1.827777149333153217e-01 5.447149009967486855e-01
-8.883055460430968470e-03 1.098468987446330064e-01 -7.848668942085483824e-01 9.428312094699093926e-01 -2.428369073220754959e-01 2.282532516564825253e-01
-5.939002490912716897e-02 1.642027974408834801e-01 -6.927586865582754383e-01 6.966622475235386691e-01 4.912559239004344325e-01 -5.228090761532191433e-01
-6.282339537314407876e-03 1.599201247015816230e-01 -7.710490563435942191e-01 7.710916501174989168e-01 -3.241096727907785136e-01 5.480607513063924241e-01
2.080031629478699940e-04 -1.692080917715551788e-02 -8.884077556489280436e-01 -9.477610006408411225e-01 4.577892079486675647e-02 3.156792297176501672e-01
3.978152750775663937e-02 -9.167304233621387244e-02 -8.610512535032940340e-01 6.366674061126624540e-02 -7.198131086484345076e-01 6.912420956204957667e-01
8.751573669199227620e-03 -5.294956513235075934e-03 -8.055023370916685188e-01 -6.587317746990003497e-01 -6.499664055339473556e-01 3.789671762556566792e-01
2.009829901106771968e-02 2.362310020908388580e-03 -7.695551494962826755e-01 -9.363243648714207890e-01 -1.768208623147958791e-01 3.033662248807257322e-01
-2.093616519901812453e-02 6.972504282191493985e-02 -7.521136667261891784e-01 7.407310115705668663e-01 6.274587451698638851e-01 -2.400272726327254968e-01
-1.067868258951216662e-02 8.294022308068965676e-02 -7.216013873497340025e-01 4.598813981207787172e-01 6.207690222213376741e-01 -6.349448170611696751e-01
6.172544544796982995e-03 -1.868255444358692396e-01 -9.199350498399441189e-01 4.507930294611678934e-01 3.918315814779108064e-01 -8.020309572240600371e-01
5.804782883058597250e-03 -1.497167750586293200e-01 -9.273528422728540832e-01 9.823520462391268637e-01 -7.168665201259540043e-02 1.727584474722595187e-01
1.992717910041993251e-02 1.251442157468013183e-01 -8.625178983663305265e-01 -9.716086591044347243e-01 2.124019191713360372e-02 -2.356384259848251783e-01
1.883566429580664503e-02 3.736093127904120681e-03 -7.664351971936141927e-01 9.624641944133811577e-01 -5.688837751101187556e-02 -2.653797033994238497e-01
7.329012717623562337e-03 -1.168873565490344130e-01 -9.005517019395076206e-01 -4.239190896921356533e-01 -3.268671966650315563e-01 -8.446599559224616804e-01
2.515025753391157345e-02 1.224146700862066700e-01 -8.701752017237943670e-01 -9.893262177943680236e-01 -1.222959871459458336e-01 -7.922957978362485387e-02
1.535547100899279857e-02 8.476603447009575798e-02 -8.362155351682939441e-01 -8.731777720187926528e-01 9.863211775828173433e-02 -4.773178016780998401e-01
2.646341491044854055e-02 -2.498293285167648911e-02 -7.927442651119850359e-01 -6.648345168317018050e-01 -5.735983457079071313e-01 4.785185503513003091e-01
1.183871777036492497e-02 2.239477729559183686e-02 -7.732441130290209630e-01 6.492766769363195190e-01 5.601294556995592977e-01 -5.144849751394553472e-01
5.431474499212085236e-03 1.273720444449591704e-01 -8.140768594796479185e-01 8.327450558260445224e-01 -4.651745559939592933e-01 3.002470723472608904e-01
-5.051992431188472021e-03 -6.055264899390515321e-02 -9.265072043271158631e-01 9.839330499253687856e-01 1.775675934779880893e-01 1.858771128993325084e-02
1.188972833922082549e-02 -1.022892139013670959e-02 -8.071689408612876537e-01 -7.585610257714353599e-01 -5.359937591569265969e-01 3.705345602307761887e-01
6.616573819015086379e-03 -1.621095938113663593e-01 -9.398756026591249535e-01 9.005883791691464690e-01 -8.460979658668024705e-02 4.263587147309770287e-01
1.614506728695993751e-02 1.888325834205600851e-01 -7.757030766434607205e-01 4.386012056466902509e-01 -5.509779644689646316e-01 7.099663830597237046e-01
-3.609181881899545079e-03 7.880738311923393691e-02 -7.242092112843437901e-01 -1.345463642443912866e-01 -6.029250545036052289e-01 7.863705580198439016e-01
-2.587776420852956182e-03 2.016892973880765605e-02 -8.291297359369046438e-01 1.555972224554584005e-01 4.886760538626271355e-01 -8.584784323123076932e-01
-5.947187879819063744e-02 1.778264073593276984e-01 -6.833693393233333246e-01 5.991251115030878927e-01 8.312787396422149921e-02 -7.963283602488367974e-01
1.324696971160375849e-03 -1.062281539947022568e-01 -8.926174914528394178e-01 5.467571021362952477e-01 -8.896785646273565329e-02 -8.325511346337514107e-01
-6.207884908228009091e-02 1.842969838368559987e-01 -6.891567602710808593e-01 9.739234466477061369e-01 1.646650424808269730e-01 1.560722392183833129e-01
-2.854958459103476912e-03 -7.182062534179466107e-02 -9.219163943982652265e-01 -9.944235462687990301e-01 -3.777704880986958169e-02 -9.846169412214422767e-02
-8.731716522780859011e-03 3.619349755266963731e-02 -7.899324550438595605e-01 -9.182992076460827491e-01 -3.602266064748160801e-01 1.642052289795144226e-01
-3.753363194961681359e-02 2.184142151450914338e-01 -6.854878731608858855e-01 8.097615742589436838e-02 -9.964543114808064317e-01 -2.284003195813884626e-02
-1.218182486707304960e-02 2.180003872489947592e-01 -7.188733050382950518e-01 -4.795529634990791101e-01 4.229560971303523709e-01 -7.688544043572301812e-01
-3.914437600922750227e-02 1.177248715130067291e-01 -7.413210459051442491e-01 9.640610197804455606e-01 1.835086614897870894e-01 1.921221520234306923e-01
7.310028015790793685e-03 6.852528332595933525e-02 -8.326382311950588644e-01 6.596730996427030425e-01 -2.336616431864011190e-01 7.143064035210797691e-01
-7.889805076188770305e-03 2.290271675850753374e-03 -8.202680194693500182e-01 7.483733143226763973e-01 3.335099965560935908e-01 -5.733310253307830617e-01
-2.449271045619385266e-03 -4.795082043529168281e-02 -8.760457039966337289e-01 -9.814701892102877245e-01 5.690523577425408291e-02 1.829701118570969398e-01
1.304032685516880565e-03 -1.903800530726873219e-01 -9.374473572269891308e-01 -8.577712016789085236e-01 4.933482238704505751e-01 -1.443471356632792524e-01
-4.591197224845856330e-03 1.669637105358885709e-01 -7.710496014686155641e-01 7.866646122919863648e-01 -1.787214379547291399e-01 5.909462203812566594e-01
1.546696904562780937e-02 1.065836272233810084e-01 -8.441841505309514160e-01 9.135673685332976746e-01 1.487011134265029955e-01 3.785269369765699166e-01
-1.320231479517035289e-02 3.077055092414099705e-02 -8.946503924227451332e-01 -6.916120897568376336e-01 -6.192514450684444283e-01 3.717530969377704220e-01
-1.615238964083469397e-02 5.841070849577886109e-02 -8.030387725602913251e-01 5.833658479627922278e-01 -3.176682517553905960e-01 7.475099793697247419e-01
-3.193707415519982801e-02 1.749672436402795184e-01 -7.395614804208456849e-01 -6.470783482322784996e-01 3.075373204393951343e-01 -6.976463343169971854e-01
7.794707356412826880e-04 -2.008363851008455533e-02 -8.309060329530068012e-01 -5.142178768729402938e-01 -5.281517705409650709e-01 6.757482389016856716e-01
3.337548836718121949e-03 3.229947246612440478e-03 -8.727530635016227389e-01 -9.754758897936297579e-01 -4.872896790009569740e-02 2.146445343322718746e-01
-1.901219834157094613e-02 9.611256509550895888e-02 -7.834084593768072535e-01 6.709314040394100953e-01 -1.733395452062412301e-01 7.209746549923925496e-01
-9.353474200987669726e-03 -2.266855207384641489e-03 -9.203394430730148512e-01 -9.576606077135252360e-01 6.319473932707901642e-02 -2.808782393763251672e-01
3.117336364803323032e-03 -1.764814307939055193e-01 -9.303599862913400909e-01 -9.449687630444840725e-01 2.594167158024904274e-01 1.993414267843682530e-01
-1.588907212549688650e-03 -3.835342373574273517e-02 -8.979450323206722429e-01 -9.651877725728151836e-01 1.199045733386563950e-02 2.612829742039310954e-01
2.511135769066821094e-02 9.344229614611399004e-02 -8.793135606524514758e-01 9.541167176030036501e-01 -8.922508385115600349e-02 2.858324222376193435e-01
1.504870125755568624e-02 -3.458795230636228790e-02 -8.326830575482572216e-01 -5.050199459990107886e-01 -7.672376646593164207e-01 3.953494910471931911e-01
-1.961810940245441170e-02 9.925177745421165376e-02 -7.143327294667399796e-01 -4.283109522947418646e-01 -6.973025833821021591e-01 5.747337082101745542e-01
4.179232557221574523e-02 -1.098864217477449473e-01 -8.817895856750262995e-01 5.885130776668433539e-01 -5.944945916924622153e-01 5.479311433597408021e-01
5.736742016043838537e-03 2.066636085437750098e-02 -8.539104383686098032e-01 9.544435576250055453e-01 -2.880107368706106286e-01 7.802121990439975230e-02
-7.227619937606813601e-03 -1.267549977779495324e-02 -8.408476918743820194e-01 3.322515012217273078e-01 -1.132492793253578739e-01 9.363672039687186421e-01
4.033034402796665391e-02 1.705017794107406837e-01 -8.226736212502983037e-01 -3.671091499025939120e-01 8.382842345585798105e-01 -4.031258043692205750e-01
4.165678484729255782e-02 1.809226291757796423e-01 -8.018896951594899347e-01 -5.161509921137230616e-01 6.886359168866165170e-01 -5.092825613681940533e-01
3.746188902436673254e-03 -1.165082599863850044e-01 -9.250714954278465019e-01 -9.816051511666620266e-01 -1.871938438025973483e-01 -3.754719757163516025e-02
-3.210848258528839483e-02 9.954226737600699315e-02 -7.506724978900962686e-01 -9.871092421363243385e-01 -5.938650962830098468e-02 -1.486222949735979681e-01
-5.478652555950901289e-03 2.540868490441048136e-02 -8.276415266418399863e-01 4.522012207323314881e-01 -3.332005430581448935e-01 8.273399869908059090e-01
1.219221004050629990e-02 5.199924023153497388e-02 -7.452688502986902774e-01 -4.246318667476369768e-01 -7.035189068764774456e-01 5.698674630207828384e-01
-2.689914021700273369e-02 1.925080675693941201e-01 -7.338149040908320542e-01 1.875634210843591665e-01 -4.848196754780801365e-01 8.542656760870476207e-01
6.321291047082502543e-04 -2.176089559992412659e-01 -9.344042450905785113e-01 3.760366725993604109e-01 1.801478963398637501e-01 -9.089241752229517690e-01
2.431853657400961585e-02 -1.005519482756438154e-01 -8.770423433325594820e-01 8.171632097645123993e-01 -2.403052339463817300e-01 5.239252648473200491e-01
-1.638501209591395127e-02 1.282503710346641346e-01 -7.658402007390583410e-01 -2.626238446856666853e-01 5.493615267897875576e-01 -7.932405871396850383e-01
2.823185077779001920e-02 1.567975565163288176e-01 -8.337291168042234579e-01 -7.917403442592981788e-01 5.919859796770822191e-01 1.506646180691836867e-01
-6.523886422322263540e-03 3.316183666998633733e-02 -8.215754522246420111e-01 7.578565387918855256e-01 -3.309090196029183528e-01 5.622745658091059529e-01
-1.573550831587377380e-02 9.253090224831653221e-02 -7.182746382214385550e-01 -5.120621912669574005e-01 -6.021823166502027203e-01 6.125102201503882515e-01
1.960796229127034773e-02 8.865716673777286616e-02 -8.556942959031623719e-01 9.912347052326905272e-01 -1.224029454559404928e-01 -4.971195113824584261e-02
2.528123826179809203e-03 -1.149442699919367983e-01 -9.175234586640357293e-01 9.909806794150839426e-01 1.020306768718721030e-01 8.687366691401081364e-02
1.568573705950722028e-02 1.133291962384554846e-01 -8.419221332789197376e-01 -9.397090956753041402e-01 1.295249905520186873e-01 -3.164965913364659045e-01
-6.047423651990658372e-02 1.893434330541640676e-01 -6.905710449665471984e-01 -9.732641833802764264e-01 9.960224517206796302e-02 -2.069691332199249667e-01
-3.940924739495053029e-03 1.088666966080617526e-01 -8.024514244691903775e-01 9.569966754851315649e-01 -4.553648204697728630e-02 2.865026909353409756e-01
-4.710283492684928103e-02 1.955954421941343002e-01 -7.158525882333205415e-01 5.832806209150023236e-01 -3.396018729814899717e-01 7.378714556970430438e-01
-2.072713630285411696e-02 1.424168364128715614e-01 -7.609780144287559001e-01 1.941342573987430153e-01 -3.643454414842001721e-01 9.108041992513659091e-01
1.256483650117444680e-02 1.529183807586064758e-01 -7.938683857442281333e-01 5.444965353697235333e-01 -5.130077430866768484e-01 6.635861500238549038e-01
9.045872909070135082e-03 1.139247328493034755e-01 -8.299089785990247936e-01 9.162337707523979802e-01 2.696412330831092774e-01 2.963263112756991946e-01
1.957400477594222268e-02 -7.981702143658368429e-03 -7.793181724498968732e-01 8.673535154914426837e-01 3.756734689888460710e-01 -3.264465099561060790e-01
1.638078475250703651e-03 -1.019374391096850158e-01 -9.046491405526518870e-01 -8.757318796635634728e-01 -3.450385166452635266e-01 3.377011948041613310e-01
