-8.191406677247822787e-02 -2.048580315031982291e-01 -9.031355840516454014e-01 9.886017456945618287e-01 -9.130113495342467855e-02 -1.197108648614696180e-01
4.222401514773414799e-02 5.937099279254495765e-02 -7.219012604126585630e-01 8.509609952314537429e-01 -4.594351063071824282e-01 -2.545285203807262087e-01
3.638217214481574702e-02 9.848980856647959747e-02 -8.142599565316827048e-01 8.546939017416023132e-01 -4.549732521205804847e-01 -2.499953483178006808e-01
3.545859219646198962e-02 4.541369953812360305e-02 -7.199232093234133600e-01 8.636811137399834637e-01 -4.397736152648924479e-01 -2.462805333064464752e-01
-6.674927927750891332e-02 -1.200744495710365511e-01 -9.169170890460726087e-01 9.641814386597526987e-01 -2.285168816155472848e-01 -1.346632398270415920e-01
-5.298499770152843846e-02 -1.494269638362862862e-01 -8.255059182947325214e-01 -9.593141632927675300e-01 2.478482789147939402e-01 1.352315301432022165e-01
-5.899455784889488796e-02 -8.037936911539725338e-02 -9.325751894711931111e-01 9.555927578954463986e-01 -2.535557574836704298e-01 -1.501730964742249430e-01
3.207026242955061252e-02 4.309180466245841890e-02 -7.280670282631359624e-01 8.686017348500622015e-01 -4.360062024397852731e-01 -2.354349541794905354e-01
1.295322641511168216e-01 1.997901666726635828e-01 -7.270924498894759669e-01 6.734979887772445384e-01 -6.184227312082551942e-01 -4.049120702546769035e-01
4.183117769371462458e-02 3.470180024282819298e-02 -7.073255895801058291e-01 -8.648952939523254502e-01 4.404516717709289764e-01 2.407456237054250436e-01
-6.757515079494694210e-02 -1.243740806460447157e-01 -9.685409841565013611e-01 -9.662193421706573027e-01 2.166663762503718560e-01 1.395559537169018816e-01
-1.972188823021344198e-02 2.522274962708188689e-04 -8.996453514160632770e-01 -9.188790209861390501e-01 3.431518149954386754e-01 1.947002225393976715e-01
3.679165490883842121e-02 6.236131878214879083e-03 -6.693792457455695066e-01 -8.753906410944177763e-01 4.808852676227653444e-01 4.940227593629276798e-02
-2.213282347825453952e-02 -1.655577890031623492e-02 -8.352276283698649717e-01 7.590511787980445124e-01 -6.981641200841548489e-02 -6.472765842972927341e-01
-7.051887251626763609e-02 -1.508462070296572310e-01 -9.491890528737733090e-01 -9.712861536474178825e-01 2.032324865406815728e-01 1.236922153868054569e-01
-2.242322759049561638e-03 -6.008162278163269032e-02 -7.090318201634773221e-01 -9.109751121388089956e-01 3.701608298545127074e-01 1.819486331498602616e-01
1.086840434036399211e-01 2.051057915735187698e-01 -7.906686451291689011e-01 7.802738470820740346e-01 -5.563955655258115973e-01 -2.856513578174483259e-01
-1.210010243639376287e-02 5.581469754438186937e-02 -9.613129514971139322e-01 -9.100386823216485288e-01 3.506562746351530313e-01 2.210650893679811102e-01
8.630384801153627439e-02 1.715011856828532189e-01 -7.898956684086219093e-01 8.121429555023584879e-01 -5.129821317541275461e-01 -2.779804891154862290e-01
7.911611162511726636e-02 9.081281804519560075e-02 -6.662497012541254149e-01 -5.396117415033083869e-02 -1.765748046685881034e-01 -9.828069647904248418e-01
-8.043446722119154679e-02 -1.590726052248529199e-01 -9.595736960024868756e-01 9.805958947638299117e-01 -1.720039462497700566e-01 -9.405495014527208431e-02
-6.288707524017869699e-02 -1.280460706338572008e-01 -9.296788707896131987e-01 -9.637163993015475105e-01 2.274984238493186484e-01 1.396251011220240312e-01
8.822269551272760024e-02 1.912078342594300540e-01 -8.212491783885667029e-01 8.032721361672920946e-01 -5.285840360170016572e-01 -2.745046304258133563e-01
7.723887622276745524e-02 1.664645162290085967e-01 -8.433063797923040505e-01 -2.297743776509007241e-01 7.782816112867863012e-01 5.843641577886042882e-01
6.604491315410987440e-02 1.173196500867115383e-01 -7.362033217813787056e-01 8.383256168481668658e-01 -4.759763359764203616e-01 -2.658132572438824393e-01
2.800855477179002226e-02 -6.301786559762006688e-04 -6.928018999527918442e-01 -8.784917480853565719e-01 4.286150475221653378e-01 2.110483110178947852e-01
3.279375346400523888e-02 1.607705419424610566e-02 -6.769362975410105898e-01 8.618584022726032412e-01 -4.439859626931568215e-01 -2.451052006048547727e-01
-6.170970808174086608e-02 -1.403933146584628033e-01 -8.485257729821403805e-01 9.627006427851367842e-01 -2.330965996286078479e-01 -1.373806668445910206e-01
-3.703288468601661273e-03 -2.290642666339489861e-02 -7.842140991662138738e-01 -9.091869624020832985e-01 3.656384234480172801e-01 1.992174959598704831e-01
-9.006489621147820146e-02 -3.004256088877133024e-01 -9.893640965609891147e-01 -8.380197724241622570e-01 -1.685677764901541698e-01 5.189487120663469621e-01
7.592474273647874250e-02 1.264936298517512492e-01 -7.365540354215142083e-01 8.139166644870671208e-01 -5.106575413322479440e-01 -2.770713603943043002e-01
-4.834148264033775316e-02 -1.760419908847479786e-02 -9.778921852644699708e-01 9.410004875461167595e-01 -2.989974172117628726e-01 -1.584885703723303563e-01
-5.000990387675120080e-02 -6.278382635526216782e-02 -9.080443790450338781e-01 9.465789082342269678e-01 -2.795436127369466117e-01 -1.607598801445022652e-01
5.446176344021878141e-02 8.868133465002270288e-02 -7.341551698737640574e-01 8.350863493360407563e-01 -4.835801287171908047e-01 -2.622614120728946063e-01
4.784612698081296828e-02 4.916975158513967742e-02 -6.844851907656552825e-01 8.498983837579957568e-01 -4.618089724592332468e-01 -2.537818162156096902e-01
-6.125911330067266430e-02 -1.664775576438580207e-01 -8.030108664328813317e-01 9.646674525929391786e-01 -2.175224677024010511e-01 -1.486629811099828280e-01
-5.400290879376330733e-03 2.729516854560541661e-02 -8.817502305580422473e-01 -9.091002573120838814e-01 3.641320654840061732e-01 2.023476242545338422e-01
7.557224941927453109e-03 4.863513612143825771e-02 -8.646206368750686266e-01 -8.971581395809481441e-01 3.880795036178302237e-01 2.109539557708984825e-01
2.126023275317645567e-02 6.911205222644033197e-02 -8.156995007537042319e-01 8.730293253776125750e-01 -4.254172547409222349e-01 -2.384113176831329783e-01
-2.498552493438242067e-02 -1.091143373644554021e-01 -7.296717334253124410e-01 -9.260442492312065399e-01 3.570871958090383047e-01 1.221915834051111177e-01
2.921702523758136147e-02 2.390145449001013570e-02 -6.916262253703623353e-01 9.648840576184404272e-01 2.474978158962252428e-01 -8.799765042529276993e-02
7.539456334792672687e-02 1.643765332976358795e-01 -8.355617892973624672e-01 -8.220653926898797703e-01 5.000610781189329668e-01 2.723002172091753548e-01
-4.839578832674724246e-02 -6.548775960245614702e-02 -9.456859474568702906e-01 -4.595526273641319936e-01 -6.594506548542798940e-01 -5.949253873343990362e-01
2.848446233805376412e-02 5.507651104582588636e-02 -8.026453534723557715e-01 -8.452555515432920163e-01 4.520629515654958075e-01 -2.849247978101187018e-01
-3.033898141799128492e-02 -6.430518418574078521e-02 -7.991775708052405447e-01 9.290775634388318549e-01 -3.223892258645935094e-01 -1.813286192551824549e-01
-1.564876080022250052e-02 9.146802473108152365e-03 -8.592426346670876125e-01 9.111433071682452089e-01 -3.619620127305225310e-01 -1.969806466193611827e-01
-4.986954901741370155e-02 -9.761766544900139786e-02 -9.145186791072218435e-01 -9.732236174109829552e-01 2.053538186587405001e-01 1.032743902221333193e-01
-6.309779197114279148e-02 -1.532860994529824383e-01 -9.137235303318191892e-01 -9.630373929963087498e-01 1.826537439889017178e-01 1.979812857259741765e-01
1.047263621677368972e-01 1.539836272933200190e-01 -7.292342465985487410e-01 -8.006827466900845458e-01 5.324015489579888571e-01 2.746920636275382299e-01
-4.311835907643004479e-02 -1.133694308025780112e-01 -8.258903053460784349e-01 -9.472359089262686327e-01 2.802635286137294401e-01 1.555522014296381317e-01
-1.318918804374658547e-02 -5.042461820964089930e-02 -7.506372533237665179e-01 -2.313415788618419233e-01 -9.597405187503910140e-01 -1.593085388748534392e-01
-1.568142073034049788e-02 -5.839759918814228790e-02 -7.760173435047094115e-01 -9.189439130276116918e-01 3.444497245418169928e-01 1.920845438148725826e-01
-6.664206301268545130e-02 -1.276314088632152510e-01 -9.571395379975510265e-01 -9.671693786134529791e-01 2.119752809069592181e-01 1.401780059669933964e-01
-3.880132746367755819e-02 2.036883454141438614e-03 -9.598148039063366666e-01 9.337141074028937338e-01 -3.140966561242536925e-01 -1.718175085617869580e-01
-1.058043355436250749e-01 -3.607169301343938206e-01 -1.006868008878364140e+00 8.497914915408580905e-01 2.214729341661757500e-01 -4.783347785145757314e-01
-7.442977168300948798e-02 -1.941705259470531963e-01 -8.546465134042268152e-01 9.790336685908812564e-01 -1.583038550097498609e-01 -1.281911278307991953e-01
1.588855264854044380e-02 7.803902401093447405e-02 -8.520251556543063653e-01 8.844645226970905272e-01 -4.107264107408237219e-01 -2.214188872028936828e-01
5.530504675538049086e-02 5.360977915469878480e-02 -6.683074589302550050e-01 8.388192373544467451e-01 -4.553541585049315499e-01 -2.983871266934448041e-01
-3.576700138294738873e-03 -1.929454434461989540e-04 -8.394215076099704742e-01 -9.071323221712199736e-01 3.316213617750161657e-01 2.591104445728375505e-01
-4.321996430110359305e-02 -8.531184886323536776e-02 -8.746740410692003254e-01 -9.505639471157295572e-01 2.649516077712838480e-01 1.619531660177588317e-01
-2.897861997264882319e-02 2.542339441519296181e-02 -9.860586578020639204e-01 -9.234256639729071514e-01 3.031662885415032371e-01 2.353194522519660437e-01
3.932566819869042635e-02 1.030552432262754198e-01 -8.420499039069637703e-01 -8.697283782064009205e-01 4.347743585073678418e-01 2.335461524559329927e-01
3.052657015395258272e-02 7.829579371757677819e-02 -8.080150181475557192e-01 2.357549669668407843e-01 -5.403440776312005145e-01 8.077424548204401589e-01
4.811986718441812853e-03 -2.372634477650479700e-03 -7.840289345791617848e-01 -8.969986084538634774e-01 3.850107473190200746e-01 2.171640414080608095e-01
3.972537352834974722e-02 9.945040605615969309e-02 -8.339317007529047920e-01 -8.538839599981233874e-01 4.570461915353385418e-01 2.489798418767376897e-01
-2.990262332108923823e-02 -8.632607590305976797e-02 -7.580170151568345061e-01 9.333719994402178699e-01 -3.102896631956145179e-01 -1.803802527299523673e-01
-1.665307126134448965e-02 -4.604489486115463659e-02 -8.195670829835304261e-01 -8.882600456654874410e-01 4.124795877205200134e-01 2.021254090614438559e-01
1.653373278226201058e-03 1.441952809730725690e-02 -7.933951742176267308e-01 9.004768142220233029e-01 -3.786558219936158043e-01 -2.139188526495375275e-01
7.653209200874729404e-03 7.936065391806856884e-02 -8.869578794046958370e-01 8.825657880758361884e-01 -4.137866572716136226e-01 -2.232895698013278307e-01
1.941529764805477801e-02 9.699037729579959577e-02 -8.731489081870028590e-01 8.699576497613008552e-01 -4.320291383710489486e-01 -2.377488406284295475e-01
6.320429653157122810e-03 1.104231562069230566e-01 -9.514550209080373522e-01 8.863708926874255267e-01 -4.231577551522386349e-01 -1.878407699383025931e-01
4.777182476228052782e-02 1.436150149362614703e-01 -8.866648656507098991e-01 -8.515024239566670872e-01 4.553764498245715386e-01 2.599536707590210383e-01
8.100707521079118789e-02 1.273255502970160324e-01 -7.494269201341706710e-01 -8.153228898098520139e-01 5.100953346292897983e-01 2.739549870718631097e-01
-1.365381171630302565e-02 -2.776844667395799576e-02 -8.208035327378752077e-01 -9.208767270861414334e-01 3.378863695613809059e-01 1.944707041580965301e-01
7.451546232913099088e-02 1.666563177214089864e-01 -8.440823270470547701e-01 3.771333448679358158e-01 7.049028184181510559e-01 6.007349305433051789e-01
1.474098405100458115e-02 6.924793687821707844e-02 -8.302431156728060646e-01 9.643939327035653264e-01 1.386483491986053862e-01 2.252131830711790461e-01
-3.417771516124299552e-02 -1.642340930334999435e-02 -9.030624500660755505e-01 9.290792264940089806e-01 -3.219258428471028499e-01 -1.821415455201703115e-01
-3.430774950490726033e-02 -2.922826277757331268e-02 -8.622956004624975357e-01 9.795488905486143816e-01 2.483783635043639720e-02 1.996673556453522347e-01
-4.498800873501960368e-02 -1.484994065253912587e-01 -7.566252431089772745e-01 1.044666049143719161e-01 7.156974262584905322e-01 -6.905533451549104029e-01
-4.450244180041509207e-02 -1.363182643727604004e-01 -7.941939102763730940e-01 -9.511331920848929977e-01 2.666500381220235916e-01 1.557029482184755231e-01
1.343618495431148085e-02 -1.194737283561355529e-02 -6.986519577052734409e-01 8.889440246958042469e-01 -3.963472428751814713e-01 -2.295373259904952279e-01
-1.756405713467415475e-02 -1.469298482527750700e-02 -8.786817690563281102e-01 -9.516993275046331524e-01 2.775087427203204449e-01 1.313669963918483452e-01
1.157181237956805969e-01 1.813344763179725594e-01 -7.266628635766362310e-01 7.742914455342365665e-01 -5.548340458972852440e-01 -3.043549554151392389e-01
4.882591159246885137e-03 -4.764198652944505452e-02 -6.998958912647208486e-01 -8.993485241725176493e-01 3.913626771075550681e-01 1.949550897922952275e-01
-8.282207104379331331e-02 -1.920759884008596818e-01 -9.280458565651927838e-01 9.839141614741883091e-01 -1.533446051111039821e-01 -9.164253888813828075e-02
5.044306029362329545e-03 4.159619750310038916e-02 -8.125038210534376582e-01 8.837383852991572697e-01 -3.854336227506643953e-01 -2.654192698395064220e-01
6.936316706401930710e-02 1.451401911479585638e-01 -8.155261830010688273e-01 3.862687603536568703e-01 7.030215896229025097e-01 5.971240150077169462e-01
-4.187739858774018609e-02 -1.266441172007745364e-01 -7.947259874330598883e-01 -9.511331920848929977e-01 2.666500381220235916e-01 1.557029482184755231e-01
-5.972383057658857408e-02 -1.031051221507716109e-01 -8.794998809206550083e-01 8.059418831858989885e-01 2.979311747750089823e-03 -5.919871659320635748e-01
1.241810940216136888e-01 1.895947391912103097e-01 -7.511537996976669351e-01 -6.582406715034739841e-01 2.203837832622807524e-01 7.198265113578825591e-01
-2.084441177334121070e-02 -5.036752059317021329e-02 -7.773059905828217930e-01 9.166157974012467680e-01 -3.476333378514282479e-01 -1.973994487549322885e-01
-8.012696425417495383e-02 -2.213534988709296158e-01 -9.514237897300203972e-01 -8.272247261711109800e-01 -9.695363823141570081e-02 5.534430814860928916e-01
-5.770730035688064613e-02 -1.047280325221549707e-01 -8.825851156722384072e-01 9.501689660206137367e-01 -2.660381268694348433e-01 -1.624889259707264499e-01
-2.111064942123908050e-02 -4.940269091587984329e-02 -7.631335187187390234e-01 8.756049490626476306e-01 -4.346537275317099436e-01 -2.106943528426614143e-01
1.064152875320364400e-01 1.765217352028118913e-01 -7.669335574187905458e-01 -7.988674284540319137e-01 5.278731746157052651e-01 2.883760449073039522e-01
-1.923651864625621627e-02 8.269688218365683907e-03 -8.740518334052983507e-01 9.110226201106996768e-01 -3.591577047268055822e-01 -2.025920254649930252e-01
5.104683349862156050e-02 1.359540360222367406e-01 -8.329629653567665049e-01 8.533708913487441095e-01 -4.595128222973154930e-01 -2.461830374802567445e-01
2.680264870989894702e-02 9.925715389753515805e-02 -8.805489399006397599e-01 -8.684016685418682879e-01 4.325727744287352627e-01 2.424032526529409926e-01
-2.474294148747081465e-02 -7.958622092535366788e-02 -7.836419571173880438e-01 -9.265717924405668660e-01 3.254364708442741838e-01 1.885625013036759112e-01
1.436614876328047054e-02 6.193236436672183709e-02 -8.611960286554123378e-01 -8.843918488170239289e-01 4.108361987414635430e-01 2.215054752137540217e-01
6.214540618277924339e-02 1.224363843508423505e-01 -8.003110979975106565e-01 -8.347568911946446901e-01 4.839608135784439491e-01 2.626078131426072826e-01
7.840144416418125262e-02 1.528185456299837597e-01 -7.689520985310875911e-01 7.014331026914741862e-01 -6.714499448662351044e-01 2.390534960793113117e-01
7.651156572387940447e-02 1.345811756206265752e-01 -7.498589515120354099e-01 8.120693634763417323e-01 -5.139669855553219424e-01 -2.763716459087373623e-01
-7.996824008441978660e-02 -1.891758560558487179e-01 -9.069401625855285642e-01 9.775866932714466495e-01 -1.788595921394597332e-01 -1.110563075124709337e-01
1.927206735989100625e-02 3.905607959570988469e-02 -8.003227252203407582e-01 -8.884059158245191101e-01 4.046850574710089132e-01 2.167139427625354997e-01
-3.842369185929708081e-02 -9.856494951620860256e-02 -8.239758277547843957e-01 -9.472359089262686327e-01 2.802635286137294401e-01 1.555522014296381317e-01
5.241788283384626185e-02 1.073063507129551342e-01 -8.047948025767055480e-01 -8.538848584920744056e-01 4.573623824731375964e-01 2.483954499109534975e-01
1.208902871975294814e-02 -1.942948121161642422e-02 -7.222678100383826960e-01 -8.922423838334808677e-01 3.987239819545194686e-01 2.119497928885028526e-01
-9.466289051147686040e-03 2.327711622845312842e-02 -8.926538833022151787e-01 -9.090041063577120051e-01 3.618305396403702634e-01 2.068579106739114326e-01
6.622784337816804701e-02 1.438912159676930536e-01 -7.992075769742887914e-01 8.351429734254626203e-01 -4.838919294504610003e-01 -2.615049034928155214e-01
-7.891354481156230560e-02 -1.699044576173505128e-01 -9.276284923279455308e-01 2.621971778168939449e-01 -4.695168602520091161e-01 8.430934455230638669e-01
4.729199874554447514e-02 3.570143065119622122e-02 -6.637044439482262526e-01 7.957122222163283132e-01 -4.279107529818575451e-01 -4.286425630966342326e-01
7.578148401536832779e-02 1.203004977996538910e-01 -7.254891587571027367e-01 8.145175665795999498e-01 -5.133035433418969840e-01 -2.703342488955109424e-01
1.217572588509581860e-01 2.003460549082699271e-01 -7.466570396005696164e-01 7.731643710779412260e-01 -5.634682523775706997e-01 -2.910676619932514586e-01
-7.287283700534439353e-04 3.491095389905451984e-02 -8.402934571809498321e-01 9.006228749590521332e-01 -3.815663568522649207e-01 -2.080518022488176133e-01
-7.496470217029051197e-02 -1.671730769562310703e-01 -9.575436042142593251e-01 -9.706346981521156714e-01 1.976040298169112197e-01 1.371893951559973179e-01
2.087701841963577817e-02 -1.304475848710652704e-02 -6.976485084642667367e-01 -8.905000629560785308e-01 4.002816716782743867e-01 2.162966046743821091e-01
6.311674942032848012e-02 9.669985612995060653e-02 -7.494042381332669533e-01 -8.349442199626927463e-01 4.843510274996573606e-01 2.612895553039125685e-01
8.117844938949705935e-02 1.783677865146389985e-01 -8.177318006198524003e-01 8.165130603992974967e-01 -5.096078762381481830e-01 -2.713046897372344279e-01
-8.100170927468525878e-03 3.973547416273739974e-02 -8.802300628081970446e-01 9.055434709532028670e-01 -3.729605200449803148e-01 -2.022164006746324516e-01
-9.474352919245808066e-03 9.413274264776913189e-03 -8.682320483005500078e-01 -9.111147843299054472e-01 3.579654977298493690e-01 2.042805722786453504e-01
1.318797486490613617e-02 6.825650538605133877e-02 -8.772392452383132033e-01 -8.843949774890244031e-01 4.074239868404938569e-01 2.277086268440110250e-01
-6.957598429506044180e-02 -1.666066561895461762e-01 -9.171450398870786280e-01 -9.715037610803319845e-01 1.952213906510806285e-01 1.344211696089090691e-01
-9.192686008101258466e-02 -3.354612890293210969e-01 -9.987519488364174913e-01 -9.984512715738135258e-01 4.826980939676490945e-02 -2.766014810941157254e-02
-6.011301753788188262e-02 -1.185948400382192264e-01 -8.751543688377818597e-01 9.575303087485468323e-01 -2.497607465330962395e-01 -1.440669195864990315e-01
1.074199195411153262e-03 7.968622644604243799e-02 -9.141996843232075287e-01 8.919104366540836493e-01 -3.961228935271060014e-01 -2.181339639103342110e-01
8.600861143651110374e-02 1.386711756029629927e-01 -7.556970103322961929e-01 -8.148236712445287022e-01 5.102702459355880071e-01 2.751120878704216288e-01
1.221886277289729872e-02 7.079257407365385779e-02 -8.532418636522465238e-01 8.844645226970905272e-01 -4.107264107408237219e-01 -2.214188872028936828e-01
5.679839797658034484e-02 5.123054568181545365e-02 -6.851854087532489590e-01 -8.520145602014714825e-01 4.656197170433688526e-01 2.393104015815984975e-01
7.783816608362156830e-02 1.764664330026841921e-01 -8.501676355116236650e-01 -8.238402832537621290e-01 4.918848098319955620e-01 2.816673952464190389e-01
9.767176403468814938e-02 1.602556622149065857e-01 -7.668302762766975311e-01 -6.832581780957495132e-01 2.099461227267328811e-01 6.993431830062323273e-01
-8.438709163786077549e-02 -2.031117539412778950e-01 -9.275819200991540781e-01 9.900453540124503071e-01 -1.016058563357975925e-01 -9.739839298792883626e-02
-1.025292264212630255e-01 -3.103699082954188282e-01 -9.957465909537478455e-01 8.665199189520202960e-01 -2.906516104277294676e-01 4.057891957841554542e-01
-2.848000599565280941e-02 -4.301853846697115125e-02 -8.673709157426817695e-01 -9.316289353835385256e-01 3.177768106063216802e-01 1.763105935473205377e-01
-6.640205438379107039e-02 -1.180068031915970372e-01 -9.703044810435299539e-01 -9.662193421706573027e-01 2.166663762503718560e-01 1.395559537169018816e-01
6.518957447633229318e-02 1.183178571392425188e-01 -7.550012776585811602e-01 8.338884062139314546e-01 -4.869601825679812923e-01 -2.598074413394415583e-01
1.008992006699981764e-01 1.322770545939354059e-01 -6.990515910971926150e-01 -8.098215292249810737e-01 5.231869364716792425e-01 2.654515404157452019e-01
-7.238706406620562528e-02 -1.544602823785596324e-01 -9.576473968903503886e-01 -9.703670699553518242e-01 1.987694725789079520e-01 1.373988584995075868e-01
1.746582503973958742e-02 1.179562392212551436e-01 -9.198966032334402465e-01 8.755166492920684052e-01 -4.290560283357647275e-01 -2.222195341573921235e-01
-4.854610642799631753e-02 -1.082908212267167936e-01 -8.882517884657511464e-01 -9.521770733744935322e-01 2.948459187120380243e-01 8.015425851967133974e-02
-1.409094039473556513e-02 1.878194691769035848e-03 -8.392802392547510371e-01 9.142828111786021061e-01 -3.517410586533140648e-01 -2.009108479918354506e-01
-9.577404915979677302e-02 -2.721704484505229060e-01 -9.594805941481454603e-01 2.213446512209692463e-01 4.127182854575518478e-01 -8.835554098215042673e-01
6.856694891238883371e-02 1.110620831363494376e-01 -7.571109119158387912e-01 3.763416854301260273e-01 9.077818372929301605e-01 1.852000855525827716e-01
1.318175446986783739e-01 2.103256551568780386e-01 -7.528027353564340496e-01 -5.004990636215909117e-01 -8.575407857877886952e-01 1.188464893228762809e-01
-5.278952839901528832e-02 -3.594078347982934685e-02 -9.712091295668900948e-01 9.496220411012078477e-01 -2.757651712341369632e-01 -1.489011396497108564e-01
-7.910135614962763434e-03 1.886772404614794549e-02 -8.422519586843478789e-01 9.018084648615631860e-01 -3.769053580785859947e-01 -2.113855334588512491e-01
-2.680488716742700228e-02 1.558516313892105952e-02 -9.604494191028388750e-01 -9.232340152155124047e-01 3.291260492728926845e-01 1.982800969312357442e-01
-4.836176744823588586e-02 -7.820864032290547607e-02 -9.388471993451052988e-01 -9.773953637387594595e-01 1.902953101154644944e-01 9.211947617109376985e-02
-3.182204539444111191e-02 -1.603458003937618254e-02 -8.917337350801871620e-01 9.290792264940089806e-01 -3.219258428471028499e-01 -1.821415455201703115e-01
3.560825957412803999e-02 1.310195599042263959e-01 -9.058905362493814284e-01 -8.648797718408078872e-01 4.359651219641703102e-01 2.488320572019570021e-01
1.864946750848380658e-02 2.777330237546268843e-02 -7.821561778657216690e-01 -8.868354398031129682e-01 4.056618820561296301e-01 2.212720952942272279e-01
1.306462657811569309e-03 -3.418165110356652381e-02 -7.415298905219603887e-01 -9.041781270011838290e-01 3.737821216766956667e-01 2.067579264925501481e-01
-1.549826405085188985e-02 2.916517791932868309e-02 -9.305479357621221359e-01 -9.172753883824021903e-01 3.441002595288639720e-01 2.005015542585181498e-01
-4.661674432753611097e-02 -5.695460942273247035e-02 -8.987899040633948733e-01 9.405988247181367168e-01 -2.925545311818259497e-01 -1.722953778365564070e-01
-1.496131751603001561e-02 6.992949028522643488e-03 -9.058712167273296201e-01 -9.486898327656726471e-01 2.850584280243115276e-01 1.368550102091558862e-01
-2.341036041228510695e-02 -2.280514532935152151e-03 -8.749905236818197318e-01 9.220382350418856454e-01 -3.351140514335079201e-01 -1.937629109315409381e-01
-1.861151156734851611e-02 -6.191981452025623056e-02 -7.410764109605040284e-01 5.301916014973853120e-01 8.431531642889831257e-01 8.938460298682573968e-02
3.195192254896496442e-02 9.687170385641562242e-02 -8.266822755170444292e-01 8.699030080602209170e-01 -4.345257667157702564e-01 -2.333583395292544438e-01
-1.467270492137246959e-02 5.711495031098562380e-02 -9.411971513572401360e-01 9.103548718040159748e-01 -3.648288625200568625e-01 -1.953302548378380576e-01
-5.382718983947838709e-02 -1.284980830248677874e-01 -8.062985324975049384e-01 5.107267192311337745e-01 -8.272948340697253711e-01 -2.339689632941685804e-01
1.485056603833016624e-02 1.846232668152795325e-02 -7.478974879396578235e-01 8.824094583206233411e-01 -4.106598966231732595e-01 -2.295909344284927378e-01
2.123858637556773343e-02 4.351437346219947516e-02 -8.071537704050995021e-01 -5.859171775094046408e-01 7.850135360904879622e-01 -2.011338093263312088e-01
1.186242272731647673e-01 1.915236700934393743e-01 -7.607109316459103043e-01 -7.940119233029574453e-01 5.350791379111295987e-01 2.885054277219413765e-01
-2.928808727004000856e-02 -4.088264896550592581e-02 -8.351010570769780150e-01 9.235465040520748348e-01 -3.338977749266831552e-01 -1.886110568132227661e-01
-4.418605674872468775e-02 -1.506650032270353823e-01 -7.613492122300040688e-01 -9.020361693831265848e-01 4.316601515130257805e-01 -5.125625491577150052e-04
6.886342215846578962e-02 1.787445683902307847e-01 -8.437128744950572745e-01 8.782383905207153951e-01 -4.409801645650793245e-01 -1.850238467758650862e-01
-6.352273144716899522e-02 -1.887099407527086936e-01 -8.295777671156282507e-01 -9.595377779039919730e-01 2.579868047817155952e-01 1.128275734631829924e-01
4.953290957383045534e-02 6.298423819683755809e-02 -7.039526298878884258e-01 8.503038481509054280e-01 -4.615967485608017951e-01 -2.528078470654294696e-01
5.922703121069431559e-02 1.409761253882791943e-01 -8.438360152496413580e-01 -8.349465619860313437e-01 4.834006962221188419e-01 2.630361296850246000e-01
1.499096113006232606e-02 1.067428079708157423e-01 -9.380116680214477531e-01 -8.879990971939694111e-01 3.948666854058135445e-01 2.356648131124399470e-01
-6.290360535138456166e-02 -1.326275878243818873e-01 -8.693740192980006221e-01 9.575303087485468323e-01 -2.497607465330962395e-01 -1.440669195864990315e-01
-2.473915297559297483e-02 -4.061900409282384258e-03 -8.782327856224547702e-01 9.220382350418856454e-01 -3.351140514335079201e-01 -1.937629109315409381e-01
-1.463847435546926021e-02 -5.355561282934632322e-02 -7.337270728987240753e-01 4.490239155335256638e-01 -8.606483411445869924e-01 -2.401290406510875053e-01
-8.962724276501833620e-02 -2.422710472017234051e-01 -9.642026767135163379e-01 -2.259893091038817081e-01 -4.117551309919248448e-01 8.828287174036496543e-01
-2.931824774075478170e-03 1.052443377401163400e-02 -8.205856156764358422e-01 1.965025201014654332e-01 3.368627368691659574e-01 -9.208204255460390453e-01
-6.880061562475890680e-02 -1.260767269612820540e-01 -9.214189762681145313e-01 9.641814386597526987e-01 -2.285168816155472848e-01 -1.346632398270415920e-01
-7.961906976945340442e-02 -1.520521375276455145e-01 -9.639413010047754859e-01 9.796352159008956395e-01 -1.762771956867550116e-01 -9.613112944108508084e-02
-7.973167297814238302e-03 -1.097289329993553914e-02 -8.409407354302185222e-01 -9.101724012882150827e-01 3.915888479335377648e-01 1.350717368931367290e-01
-7.304024706261515176e-02 -1.419567094249664929e-01 -9.777773762699022431e-01 -9.439958860838482124e-01 2.392313908403022327e-01 2.272446010214206891e-01
-2.766269473585209956e-02 -3.283376203578416974e-02 -8.364593708834027197e-01 -1.884107425714618700e-01 -9.673227686696413974e-01 -1.696704255224509850e-01
-3.596544692168888308e-02 -8.280876438543427476e-02 -7.958053140700865891e-01 9.364402235737693259e-01 -3.025394540205382232e-01 -1.776220325130397071e-01
-2.863173267493977076e-02 7.154640879181817063e-03 -9.055022405710431155e-01 9.326126478927422303e-01 2.058131964888327003e-01 2.964364639202418661e-01
-2.185644675141415125e-02 -2.193916360745834168e-02 -8.709214549184745024e-01 -9.241877921070906776e-01 3.291465595222037299e-01 1.937510445776154111e-01
4.765594446668530715e-02 5.964461903038512786e-02 -7.330208432397943286e-01 -8.517362717176171216e-01 4.636095393987824664e-01 2.441547018163313099e-01
7.267069474506820947e-02 1.173257136446343440e-01 -7.262938449377287498e-01 -4.817058216200968968e-01 -8.624497875219258036e-01 -1.553700917831105088e-01
3.593248795006560165e-02 6.690445744705830755e-02 -8.005050035037893918e-01 -8.621518257831175536e-01 4.686157530525577597e-01 1.925967426770781588e-01
-3.162568304886999044e-03 5.479841949292938580e-02 -8.867110170741124842e-01 8.971101487391546225e-01 -3.864874636423751841e-01 -2.140579862478748374e-01
-2.390979915657162613e-02 -5.861448492285876305e-02 -7.771854278500918145e-01 9.263106800030910248e-01 -3.261106157823888685e-01 -1.886806571597681170e-01
6.203864000875222717e-02 1.722609956388352348e-01 -8.900202795863185745e-01 -8.498304525598409098e-01 4.304921437513724025e-01 3.040801145591132681e-01
-6.750544607708190703e-02 -1.055744730571806650e-01 -9.467023779920364923e-01 9.626144367036674199e-01 -2.313723867119581445e-01 -1.408554752819098643e-01
-5.651832053356001251e-02 -1.398221796748317369e-01 -8.655001698553672629e-01 -9.622026861898800298e-01 2.316003466043582149e-01 1.432734104491139304e-01
-6.815913528086089967e-02 -1.414290691983808856e-01 -9.147500702854428623e-01 2.606761565508954326e-01 -4.842159423290935960e-01 8.352142614923436792e-01
-2.471935856838970366e-02 -7.215548487259465515e-02 -7.965889867829563098e-01 -9.293607075073259116e-01 3.216493821060229519e-01 1.811914742262893119e-01
-3.153056320632900700e-02 -6.664872009284177057e-02 -8.419587440537837919e-01 -9.334892468390361131e-01 3.133991125692959234e-01 1.742952158742934743e-01
8.453369483168183054e-03 2.043211985585456983e-02 -7.765737888286485813e-01 8.868862415717596592e-01 -4.055615868218284681e-01 -2.212523306211228447e-01
-1.936382259219232571e-02 -4.994888137252546240e-02 -7.711681898396275381e-01 9.166157974012467680e-01 -3.476333378514282479e-01 -1.973994487549322885e-01
-2.321759106734697792e-02 1.249404394538628643e-02 -9.170000229307907480e-01 5.292538098259529367e-01 6.011499654038277018e-01 5.987563142712488684e-01
-1.666606131562116747e-02 -2.395990211861029557e-04 -8.841907203027464801e-01 -9.189490654768907030e-01 3.442761645423154659e-01 1.923708335148066884e-01
-4.280416153063700685e-02 -8.073242281603022763e-02 -8.362295081036752453e-01 9.407497882755408991e-01 -2.955739621915993709e-01 -1.662103147638067935e-01
1.174571181037051271e-02 2.458208038215246860e-02 -8.041482639957913126e-01 -8.884059158245191101e-01 4.046850574710089132e-01 2.167139427625354997e-01
-2.819868373797214736e-02 -6.408574614658213431e-02 -8.289187746618181807e-01 -9.321323886492610677e-01 3.165516308138160428e-01 1.758529927528559855e-01
1.260814439580348889e-02 1.519329705696686019e-03 -7.256461264026683455e-01 8.828550213280236258e-01 -4.135757469534169228e-01 -2.225356439939857878e-01
-7.644470457769703131e-02 -1.575001193300397395e-01 -9.275496081521572567e-01 9.718353502418645151e-01 -2.004908431829252324e-01 -1.238526294435123576e-01
1.661414677761594710e-02 1.262572667416857752e-01 -9.398195876749684263e-01 8.691831422733303780e-01 -4.574220688555247771e-01 -1.878449257014704332e-01
6.790627528710233007e-02 1.073087264558841708e-01 -7.356857628060433640e-01 6.754072981156620248e-01 7.325406671907066514e-01 8.490672861378806280e-02
1.142627406708284499e-01 1.723373545476881430e-01 -7.137759839761746994e-01 7.797990361073915411e-01 -5.482630700874702168e-01 -3.021937611272682012e-01
1.607100102149716658e-02 7.033497510484205961e-02 -8.216738141669621687e-01 8.456787662564366759e-01 -4.629156184313158451e-01 -2.655871881611445717e-01
-2.172979366006625931e-02 -1.961351783160375853e-02 -8.360656257489533782e-01 9.145312836122776456e-01 -3.574242061245660462e-01 -1.894214036763090525e-01
5.806247573381083382e-02 1.550680728240140804e-01 -8.459809580138355489e-01 8.350055787246243311e-01 -4.859582615495469105e-01 -2.580896191839125997e-01
3.707506084498360388e-02 6.932533354214924504e-02 -8.012806623484179935e-01 -8.621518257831175536e-01 4.686157530525577597e-01 1.925967426770781588e-01
-7.591552398238990418e-02 -2.054992099165538488e-01 -9.018502003847419513e-01 -9.662057530255444560e-01 2.372502766594175583e-01 1.007906198282873256e-01
-6.148624503688877863e-02 -1.657762718509854794e-01 -8.566962086957256028e-01 -9.650807171826376596e-01 2.252241674476083699e-01 1.337657793300553177e-01
7.326084304750520027e-02 1.082726400754315532e-01 -7.106876828875682284e-01 8.167223533041076955e-01 -5.088075617983222054e-01 -2.721754262791675205e-01
1.978088105679811151e-02 7.223898863180767960e-02 -8.267510783548689401e-01 8.730579628827367378e-01 -4.260560316408326664e-01 -2.371624998803808226e-01
-7.517112195075871528e-02 -2.045779696635060541e-01 -8.972526354483969513e-01 -9.583664741231918693e-01 2.643758361289096914e-01 1.078847465947852385e-01
-1.789029578480026347e-02 -1.996251012296053340e-02 -8.175034707684364355e-01 9.123758007119964208e-01 -3.581643148531051812e-01 -1.982138285815319423e-01
-1.990878593827106330e-02 -1.278130569014947031e-02 -8.890389118889888698e-01 -4.349284204097354500e-01 6.989037481029827248e-01 5.677770865467315353e-01
-6.073689634818331406e-02 -1.440860369997709334e-01 -8.877515816934504755e-01 -9.648965214689734227e-01 2.259873907163108542e-01 1.338073319900975888e-01
3.988581258130993734e-02 1.553012994467040456e-02 -6.775395779312882727e-01 -8.655554656193983343e-01 4.482494880858711173e-01 2.233520368546940138e-01
5.271047253611639560e-02 7.377299524833029476e-02 -7.419924229829223394e-01 -8.532108596634268016e-01 4.589570126363911040e-01 2.477694281066080417e-01
-5.290898129733483113e-02 -1.435725705795564133e-01 -7.875990888905735066e-01 9.508754208821673659e-01 -2.659732652021699617e-01 -1.584113511079836001e-01
-5.082908956604306056e-02 -2.880047317856312614e-02 -9.852722746656764619e-01 -1.413182335298891479e-01 -7.511199735794867882e-01 -6.448627312552205337e-01
-2.002128041108120621e-02 -2.030327504922778675e-03 -8.593810137114296088e-01 9.136709249183856407e-01 -3.530031389159413724e-01 -2.014800855525776535e-01
7.216037845769153296e-03 -3.932255052653313432e-02 -7.059799956892367501e-01 -9.017233171192560182e-01 3.904425381187809907e-01 1.856062601067363926e-01
-1.003919307367426815e-02 -4.177142393984022151e-02 -7.429340942706799122e-01 9.054732545536062771e-01 -3.708363220717117992e-01 -2.063943010851454207e-01
-8.329556536957621882e-02 -1.853012313670802658e-01 -9.437731593281627474e-01 9.820600328130127954e-01 -1.604372604964117710e-01 -9.908570732305702067e-02
3.778231361629344476e-02 1.320130000920421431e-01 -8.711998788008575856e-01 8.504099709635721815e-01 -4.637193171920644397e-01 -2.485302318605558114e-01
-8.215817944866839195e-02 -2.155723421717626320e-01 -9.505929248845541579e-01 -2.211621965513768939e-01 -3.915997750061989691e-01 8.931611831196339946e-01
-5.890048411867270656e-02 -1.262179969719134653e-01 -8.742994045090345390e-01 3.825335002041196919e-01 9.143004591688543847e-01 1.331269754227398239e-01
9.588285283034395090e-02 1.738313383171625759e-01 -7.667118122872285113e-01 7.919323199991894491e-01 -5.350624756783231017e-01 -2.941961040899160884e-01
4.709120447500475537e-02 1.595843811717150285e-01 -8.910789830714417326e-01 8.483811656052557826e-01 -4.725841108908919175e-01 -2.385658315428517973e-01
-4.836163724427483372e-03 -5.759930765393353469e-02 -7.371227774745098271e-01 -9.364524229703399261e-01 -3.454423939293442269e-01 6.104434445010609167e-02
-3.861075710036752928e-02 -4.979841566214551762e-02 -9.097824459343308856e-01 -9.396547920048232694e-01 2.945463435553657416e-01 1.740440270751527074e-01
3.848280945088648070e-02 4.664225723030069465e-02 -7.115113708365078393e-01 8.636811137399834637e-01 -4.397736152648924479e-01 -2.462805333064464752e-01
2.817259736214455801e-02 5.716959432576429467e-02 -7.679829623527307803e-01 8.717343396297254632e-01 -4.306004845798113712e-01 -2.338000508767221208e-01
-3.360144292075602224e-02 1.807834196485078385e-02 -9.611676488135755259e-01 9.326797486112654578e-01 -3.180827928638976787e-01 -1.700935725250347363e-01
-6.475211490256956026e-02 -1.235050094104113427e-01 -8.973519212317220273e-01 9.591546467746715487e-01 -2.452181804982535018e-01 -1.410333560675653131e-01
5.603567604928472168e-02 1.533757782075843290e-01 -8.493574222564264087e-01 8.351587158312825387e-01 -4.859806457660847956e-01 -2.575514148899633593e-01
2.890659924240352938e-02 8.845699081888801218e-02 -8.630763804630854352e-01 -3.233752358955139794e-01 7.629068684591208127e-01 5.598227995244730026e-01
-6.687621990345266054e-02 -1.657504952171620638e-01 -9.218773785182142744e-01 -8.272247261711109800e-01 -9.695363823141570081e-02 5.534430814860928916e-01
-5.832630411949257798e-02 -7.568053129353868869e-02 -9.834654842165976296e-01 -9.553440563044101053e-01 2.465988608231139134e-01 1.628088938743157688e-01
-1.056462194564398299e-02 -7.525839301172553356e-03 -8.065369547057287258e-01 9.110084703434886411e-01 -3.590085212122296476e-01 -2.029198084451708239e-01
3.382542211392148678e-03 4.974638534217365460e-02 -8.841111897341878967e-01 -8.970857408962406021e-01 3.849529323296683181e-01 2.169064622629598149e-01
-6.168214906348333526e-02 -7.751021390875638406e-02 -9.974363033442897875e-01 -8.086007648694130134e-01 2.484381947763798781e-01 5.333322289425734830e-01
2.533930112862300965e-02 1.133456262198009462e-01 -9.112793952574888001e-01 -8.770212179299865518e-01 4.188877495227906200e-01 2.353015864807008473e-01
3.476220425808572434e-02 9.396555946722676134e-02 -8.421227488950376872e-01 -8.697283782064009205e-01 4.347743585073678418e-01 2.335461524559329927e-01
-5.537029677741373695e-02 -1.622744073413330268e-01 -8.189740024492875303e-01 -9.570013165961556156e-01 2.506979010761521409e-01 1.459419145730123379e-01
-1.034978110081549371e-02 4.971674072052708476e-02 -9.590871566230605438e-01 -3.890152331987906664e-01 7.042819801319339934e-01 5.938468159388685663e-01
5.036050594722834423e-02 5.482435830497251611e-02 -7.145236472271012662e-01 -8.521737654960819253e-01 4.613160808245566069e-01 2.469561640714798834e-01
9.271485976651004657e-02 1.178182419844273632e-01 -6.960773475009489619e-01 -8.151070771235909840e-01 5.125004882710476606e-01 2.700809181430141592e-01
-8.388216792541403066e-02 -1.983019856259692626e-01 -9.290096147666302429e-01 9.839141614741883091e-01 -1.533446051111039821e-01 -9.164253888813828075e-02
-6.666930210890137376e-02 -8.876536658446243511e-02 -9.688577164635585603e-01 9.600238292300707910e-01 -2.382977473038553062e-01 -1.468619451741655646e-01
7.554034391825112382e-02 1.005618614037911557e-01 -7.194757159750798658e-01 3.757788910567124718e-01 9.086947618792854398e-01 1.818352407244975821e-01
-9.110232989175877372e-02 -2.272584499516947520e-01 -9.391872002065310143e-01 8.276289241610323977e-01 9.592591147819780339e-02 -5.530177062256950160e-01
-8.906037252947042113e-03 -5.239624318090314870e-02 -7.697153871364806887e-01 -9.362275441758882710e-01 -3.458729499859580225e-01 6.204746565650968992e-02
8.120444754247493901e-02 8.954608415452360026e-02 -6.770441250363479213e-01 -8.297452450873668006e-01 5.022217347235014007e-01 2.435080233302844566e-01
6.231619366999351095e-02 1.315618493806930689e-01 -7.887900090021544575e-01 8.337891783106647914e-01 -4.849823432342059704e-01 -2.637948689476066200e-01
-9.243478179673443942e-03 1.158581835333801976e-02 -8.231651139871601908e-01 7.564836951165508916e-01 -9.757130035816363733e-02 -6.466933279145734570e-01
-8.166500148155012018e-02 -1.877744819946302879e-01 -9.241003791283771696e-01 9.776642223924213448e-01 -1.747337137046018618e-01 -1.167938249601410822e-01
-1.135826526321933108e-02 5.239257000492428956e-02 -9.178419215687956267e-01 9.054700774340710412e-01 -3.707727763166203672e-01 -2.065223649244866400e-01
1.691357058461254864e-02 1.046805508629736203e-02 -7.574991717130767910e-01 -8.845383382296896357e-01 4.102913534645442617e-01 2.219300193171071800e-01
-7.916165535071720272e-02 -2.234834013198746250e-01 -9.372171549389626266e-01 -8.566124443418428047e-01 3.620823151512854166e-01 -3.675751858509742620e-01
1.486800974311015041e-03 5.899324301183051650e-02 -8.747995266034671591e-01 8.971101487391546225e-01 -3.864874636423751841e-01 -2.140579862478748374e-01
-6.504537325705816997e-02 -7.348003989188829632e-02 -9.843255301373905475e-01 9.584119279234549760e-01 -2.482533675744361401e-01 -1.407723051668812730e-01
-2.470946558665769802e-02 -7.257102873065174320e-02 -7.568115584779787630e-01 9.229646843542501644e-01 -3.331075122090820795e-01 -1.928096904845174042e-01
-9.338781460260354994e-03 -3.311491919590751898e-02 -7.554147799512822559e-01 9.054732545536062771e-01 -3.708363220717117992e-01 -2.063943010851454207e-01
-5.945345579317852514e-02 -1.438393885940613404e-01 -8.281802398249835662e-01 9.605661432083860696e-01 -2.361185292352198928e-01 -1.468357063985548105e-01
2.762012247286703415e-02 4.063438205754308502e-03 -7.031264524955312956e-01 -8.772476520287075807e-01 4.234166712778476005e-01 2.261744448298844967e-01
-2.785655090310462309e-02 -2.710711682407510731e-02 -8.527194320795358218e-01 9.235196273926439270e-01 -3.333731775116535179e-01 -1.896676628641139339e-01
-2.261875953905724893e-02 3.518587924392865135e-02 -9.251906272910219720e-01 4.406774909515731586e-01 -6.992946184812701693e-01 -5.628413502326927720e-01
-3.688105563002626319e-02 -5.080955414567597112e-02 -8.987326589878040783e-01 -9.396547920048232694e-01 2.945463435553657416e-01 1.740440270751527074e-01
6.043475933503001524e-02 1.376821670317705526e-01 -8.339488175813777326e-01 -8.349465619860313437e-01 4.834006962221188419e-01 2.630361296850246000e-01
3.975032151341789666e-02 5.333687617859259045e-02 -7.493876961307474049e-01 -8.700292909404592212e-01 4.350495496593433375e-01 2.319071414313151058e-01
-5.930853699590361156e-02 -1.243052503145859328e-01 -9.106548030884833445e-01 -9.649077115526680792e-01 2.257044769273205964e-01 1.342035665739085837e-01
-3.307752852165221375e-03 9.070339916781794756e-03 -8.398572799854007176e-01 -9.025452906974625877e-01 3.758875992042511882e-01 2.100488300474356584e-01
-3.054169161306072647e-02 -4.156660589552893005e-03 -8.873191715788727452e-01 9.517148352755921970e-01 -2.775849509006640403e-01 -1.310933535684705442e-01
-4.608874223881706533e-02 -5.498211224004206227e-02 -9.642938326037607810e-01 -9.795572937053491636e-01 1.842276352269361650e-01 8.079410106773327049e-02
-5.480074720987456599e-02 -1.004003183533250104e-01 -8.725853869152021547e-01 9.499338513806468987e-01 -2.693079594934983390e-01 -1.584263265829866096e-01
-1.053146602747714600e-01 -3.538526219038907183e-01 -1.015977387558489653e+00 8.723611513504180293e-01 -2.299441619914814328e-01 4.314066573206863930e-01
3.115245032212778792e-02 1.280937356749769773e-01 -9.162051415365957130e-01 -8.647378976874920964e-01 4.318972636905163975e-01 2.563066950347973050e-01
-1.124267958092089320e-02 1.868875952228997092e-02 -8.924341126545922709e-01 -9.090041063577120051e-01 3.618305396403702634e-01 2.068579106739114326e-01
1.147588154664389154e-01 2.040347923670752794e-01 -7.935811545018269797e-01 -8.283869570226197743e-01 4.721107801756684874e-01 3.014738142471514171e-01
-6.186701504416126929e-02 -8.778504558533335722e-02 -9.316294238729980748e-01 3.859152792646866614e-01 6.783075170492662842e-01 6.252745873170586499e-01
-5.332455437535215531e-02 -5.617509130267736572e-02 -9.841111106866684555e-01 -9.547414184309539475e-01 2.510751352477247900e-01 1.594681798754429003e-01
-1.300348656314648070e-02 -8.575696758416803678e-02 -7.108663406430182352e-01 -9.163455196942366099e-01 3.702355853812946407e-01 1.524352316679752628e-01
-2.999523626158889789e-02 -2.365747531701719794e-02 -8.692039217849986121e-01 9.234948399352184145e-01 -3.329749800165958118e-01 -1.904860711337522383e-01
-5.891420545849346962e-02 -1.420661320078102086e-01 -9.008088846334196820e-01 -9.663585224152786424e-01 2.490798492525769514e-01 6.411267309723389651e-02
-1.229901387802768281e-02 3.709356438105155911e-03 -8.343316122799654400e-01 9.142828111786021061e-01 -3.517410586533140648e-01 -2.009108479918354506e-01
1.638949684080478683e-02 8.287695837397686394e-02 -8.910216184746967416e-01 -8.826189142127853771e-01 4.083822281208170368e-01 2.328257031105467889e-01
-9.643867308033762104e-03 4.501212889688398916e-02 -9.495017249020299976e-01 -9.388450215388960407e-01 3.085857600322278738e-01 1.527902295206140237e-01
3.500341710965203940e-02 1.256752996902807396e-01 -8.986147985360121160e-01 -8.654226552351832469e-01 4.360720760981386945e-01 2.467483986840522669e-01
-7.106730152541458102e-03 5.286662940481638706e-02 -8.999999660753198460e-01 9.055434709532028670e-01 -3.729605200449803148e-01 -2.022164006746324516e-01
-4.322511898131294050e-02 -5.443536294805739750e-02 -8.633643805809715355e-01 9.389029761014309194e-01 -3.207713463175242974e-01 -1.247675632907791071e-01
-3.108901723357677255e-02 -4.000629086244276988e-02 -8.456273719358882168e-01 9.236395782505896213e-01 -3.359526200150504960e-01 -1.844607454015514958e-01
6.429569442861406137e-02 1.050320774556765813e-01 -7.611403362849988863e-01 -8.348282110174662929e-01 4.853704268726848903e-01 2.597641368757513947e-01
-4.910670372510437393e-02 -1.208029040508092344e-01 -8.030938550459230107e-01 9.440503593928026849e-01 -2.867843251916283309e-01 -1.628608908077753548e-01
5.976943909711803643e-02 1.216632236921413451e-01 -8.064387733980964423e-01 -8.347568911946446901e-01 4.839608135784439491e-01 2.626078131426072826e-01
-7.501373105295217059e-02 -1.768097622528270463e-01 -9.438398492460562395e-01 -9.711275075732451745e-01 1.994645704340433090e-01 1.308634753326495537e-01
-8.172642721498939514e-03 -4.219500287395368254e-02 -7.694886160428691113e-01 -9.174562724090445931e-01 3.463616935111270556e-01 1.957231858656638679e-01
7.398910507422493121e-02 1.440658681205644331e-01 -8.025447033387793638e-01 -8.347528949367424289e-01 4.844728163755864792e-01 2.616747878337440381e-01
1.243899177142287621e-01 1.837131290923098847e-01 -7.303530586858801854e-01 -7.898969745874755422e-01 5.487433984282296118e-01 2.737580176341691818e-01
3.025459711174966621e-02 9.588876920632537215e-02 -8.561071890739617718e-01 -6.115593261054854679e-01 -5.843215358453724972e-01 -5.334449675465214868e-01
-3.569891286171882755e-02 -2.463383363026168393e-02 -9.376989219631336470e-01 -9.350744701199813491e-01 3.044256166001527708e-01 1.815510376931310232e-01
6.756172288866915676e-02 1.115728431772882584e-01 -7.213127271351625902e-01 8.756650213574352914e-01 -4.095520934215077791e-01 -2.558864067220898431e-01
1.073304118997900260e-03 1.662256681182726521e-03 -8.075107088461512816e-01 -9.019858537261064013e-01 3.790471941405900713e-01 2.067480212532453732e-01
-4.233290200024066030e-02 -5.405577236062375501e-02 -8.801088717308817033e-01 9.418069053954964964e-01 -2.886361237207836772e-01 -1.723047910906675972e-01
-7.130410279784248073e-02 -1.465959724339661596e-01 -9.613760653277891866e-01 -9.703670699553518242e-01 1.987694725789079520e-01 1.373988584995075868e-01
1.263647634745714531e-02 3.204166703785397974e-02 -7.810864936198222974e-01 8.868862415717596592e-01 -4.055615868218284681e-01 -2.212523306211228447e-01
-5.072896865510034825e-02 -3.233095716635940586e-02 -9.652262340205470803e-01 9.428295175511892667e-01 -2.908074324239192654e-01 -1.627990727283147032e-01
8.458211999783780966e-02 1.550856254987212357e-01 -7.905814706132218150e-01 -8.153475140087890205e-01 5.105804971414218407e-01 2.729761662462606986e-01
-5.939105604227465016e-03 -8.554636342383467942e-03 -8.199416961945211746e-01 -9.125255494074691054e-01 3.578177429054748560e-01 1.981504088833221655e-01
-4.119382663589848947e-02 -7.712052672724062363e-02 -8.335381000889212633e-01 9.407497882755408991e-01 -2.955739621915993709e-01 -1.662103147638067935e-01
