-6.042752224938117284e-02 1.279372162715518291e-01 -6.959963262504482717e-01 -8.230269782151775626e-01 -5.518522982426921075e-01 -1.344828392556191576e-01
-9.851308400839713098e-02 1.554174491203387520e-01 -5.929408724447252643e-01 -7.834980478675033222e-01 -5.995941058230656040e-01 -1.631493709765686473e-01
-8.688223568456582280e-02 1.688542431115967191e-01 -7.047353150325077475e-01 -8.062999469612129877e-01 -5.752598347275406088e-01 -1.376826716750796098e-01
6.628213313519595862e-02 -1.220886092918305049e-01 -7.141700184270564078e-01 -9.407932816883642912e-01 -3.389680027995924938e-01 -2.948594257191790996e-03
4.386073119459162062e-02 -5.667955737514006331e-02 -7.656392882384702725e-01 -6.947354268972103508e-01 -5.637366610127548805e-01 4.467031045830567315e-01
-1.944797105544850699e-03 -6.286815816894134219e-03 -5.488945237811909683e-01 -8.559057465393872521e-02 3.299319128028722070e-01 -9.401165813050244013e-01
5.364345647170691567e-02 -1.095365230404887480e-01 -6.923866181212213755e-01 9.286849103687132567e-01 3.708200400366069016e-01 6.069197698565868479e-03
1.857169043039381268e-02 -2.235008052733940959e-02 -6.190260457473343303e-01 -8.809168830500939684e-01 -4.679668656700633478e-01 -7.065732652913174483e-02
3.412738766002814533e-02 -3.561242492226732864e-02 -8.747060174530143506e-01 -9.340629852256174814e-01 -3.570569549604757364e-01 6.055621005372612692e-03
8.605479773328701676e-02 -1.840046061237692321e-01 -7.477416777690580885e-01 -9.667962327281238721e-01 -2.540619832668953859e-01 2.752368146159065582e-02
2.696085416779249108e-02 -5.638748706667223026e-02 -6.277740664444100283e-01 5.768025054418935982e-01 -7.890374352265752123e-01 -2.114681903431877563e-01
-6.196944296985999745e-02 1.234132633908759935e-01 -7.269854236006132453e-01 8.404831683327653735e-01 5.281222922518127305e-01 1.211399528479647492e-01
2.526798843117817554e-03 -2.566646286833438196e-03 -6.509044801012241477e-01 8.837709595860682166e-01 4.630209646544271584e-01 6.753130594623604765e-02
4.874170192639328686e-02 -7.611143717586485447e-02 -8.653244825881540869e-01 -9.471156230837151080e-01 -3.207044592152892837e-01 1.098391324506863866e-02
-7.626644265562571023e-02 1.052254801744261087e-01 -5.599882388253383247e-01 8.026832180335756739e-01 5.789011518659338273e-01 1.434332871252623487e-01
3.744560372159977391e-02 -5.695998013244259195e-02 -6.091681698444292303e-01 -3.795808709287989413e-01 -9.025978312064562026e-01 -2.030653036004334000e-01
-1.130024713667917013e-01 1.672109786937673592e-01 -6.095120644685944056e-01 7.855120547090757022e-01 5.973948173463248246e-01 1.615247476843029162e-01
-8.400111055488128364e-02 1.339303700316737400e-01 -6.321362461456828674e-01 8.022549486363361737e-01 5.778457762434033862e-01 1.499375078696725816e-01
-4.294070389397741661e-02 1.014595979177954771e-01 -7.022901515377772963e-01 -8.409560703767429146e-01 -5.286502497116265520e-01 -1.154201073311824921e-01
-7.917213954048742119e-02 1.387080006190157533e-01 -6.282769566053331145e-01 -8.016512945078992924e-01 -5.774486565679178840e-01 -1.546229318106344119e-01
1.639468717791494820e-02 -5.198666564417732394e-03 -7.119487337390096870e-01 -9.004869665265820000e-01 -4.319513356541477278e-01 -5.041097839114648538e-02
3.780260281773723408e-03 4.081034404672476829e-02 -8.138530316121026509e-01 -8.666204283001947006e-01 -4.857729539450754697e-01 -1.139897822976372183e-01
-8.030120159894298115e-02 1.600135099235113212e-01 -7.041984450126345108e-01 -6.328167308300304272e-01 4.461986562487039731e-01 6.328109862695527887e-01
3.950173670300010514e-02 -6.565987296091432834e-02 -6.162208832950842874e-01 -5.768739668506694951e-01 7.909443790056067680e-01 2.040181748997082212e-01
-9.158814938469075906e-02 1.816093953083614543e-01 -7.422702037398121178e-01 4.503278961741591369e-01 -7.480503081923128850e-01 4.874684834332792538e-01
6.905493181962885085e-02 -1.348526925448656766e-01 -8.174734631698316045e-01 -9.518318024372404151e-01 -3.057642712826421638e-01 2.290044270464997728e-02
-5.560722872300927211e-02 1.014366904002945574e-01 -6.145415376592913148e-01 -8.231065821501465374e-01 -5.528901397677928875e-01 -1.296458551927309744e-01
7.462519190643247813e-02 -1.607172802252210264e-01 -8.553353028344560238e-01 -9.661274246108110253e-01 -2.496393943414644545e-01 6.540620924429607630e-02
2.412659769650857614e-02 -1.052596686527101227e-02 -7.321637246265139121e-01 -8.980574705189320328e-01 -4.398626620225274397e-01 -3.690285028732684380e-03
6.448065435236699505e-02 -1.073391808748062753e-01 -7.753248611154126557e-01 -6.689437686224445345e-01 -7.334556090319923616e-01 -1.206528242550116425e-01
-4.684672705745577398e-02 7.543591082115018442e-02 -6.169259434531522146e-01 8.411191331373638613e-01 5.283527861036275697e-01 1.155938462323318899e-01
1.441736032509578075e-02 1.343597600196943728e-02 -8.645066264664493794e-01 -9.176218711205335055e-01 -3.969439202261695332e-01 -2.014015483385775407e-02
-8.408289559730761087e-02 1.648197746022072030e-01 -6.938941442635868651e-01 5.778721830545645310e-02 -7.654434480739843449e-01 -6.409032416840527713e-01
6.735462029564395769e-02 -1.298019176814060038e-01 -8.210100608623874807e-01 -9.520849349876343570e-01 -3.050795272338833741e-01 2.146528901138803833e-02
-2.570713508825757734e-02 4.718383486658557502e-02 -6.731376376186947175e-01 9.810072663202376031e-01 -1.666460110140666195e-01 -9.926656254748787711e-02
4.649288257847880579e-02 -7.009757767431797071e-02 -7.465696003385474677e-01 -9.275763869804733996e-01 -3.735053355727451785e-01 -9.788289684219386375e-03
7.037287341612812053e-02 -1.269133480150874405e-01 -7.944960007626992171e-01 -9.062482390688099132e-01 -2.156382160163301115e-02 -4.221956072516793168e-01
3.764379910339885060e-02 -6.586675766374075480e-02 -8.701005366389525930e-01 9.445549926322099887e-01 3.283024932118911443e-01 5.773979946436479799e-03
-3.601950747969504679e-02 9.158039334533005227e-02 -7.866374954858788016e-01 8.666620616930293952e-01 4.906012353237786394e-01 9.059414286128120164e-02
-8.207536607671837847e-03 3.172865861323925785e-02 -6.101283291397416875e-01 -8.964481596216484771e-01 -4.358307650926067089e-01 -8.020125503851353865e-02
-4.143989864573240783e-02 7.782280079505636550e-02 -6.612224557131072267e-01 4.462132675844068808e-02 5.710405907093918376e-01 -8.197082291648568608e-01
2.143102194639502894e-03 1.148124005437739601e-03 -5.809980788748614344e-01 -8.646366586664466780e-01 -4.917601544095063781e-01 -1.028367591149245835e-01
7.459765790833911003e-02 -1.821601518019783095e-01 -8.355734520014646005e-01 9.618317671652742984e-01 2.688366645917130149e-01 -5.105388763775420974e-02
4.709516868860335465e-02 -7.166666477868421925e-02 -7.437707424803171596e-01 -9.275763869804733996e-01 -3.735053355727451785e-01 -9.788289684219386375e-03
1.302198575777041914e-02 -9.795085144961249851e-03 -7.590544565368764207e-01 9.071780459024937349e-01 4.188952670127829570e-01 3.943029681377373252e-02
-3.655834316233441683e-02 8.857352060573772667e-02 -6.898904683438998875e-01 -8.429973515622009028e-01 -5.254373174509151534e-01 -1.152002200045701974e-01
-3.852411007130617654e-02 8.090108330446423024e-02 -7.076671565927541430e-01 8.593177934548800190e-01 5.019452956789326459e-01 9.810122322185808874e-02
2.718070101931616828e-02 -5.032700159735335743e-02 -6.975441085728258939e-01 4.015542973037564689e-01 8.977244812543289099e-01 1.812316254783714886e-01
-4.394695070343666854e-02 5.723565558000194564e-02 -5.534840555187053868e-01 8.244984439051544767e-01 5.562865028910817244e-01 1.036708382294144332e-01
-8.168365717786769953e-02 1.350753882751353496e-01 -6.733360272614077324e-01 8.056601037984407743e-01 5.736501987093541866e-01 1.477743099060321308e-01
5.309967700063455975e-02 -8.871215692382446172e-02 -8.574585004556639634e-01 -9.471156230837151080e-01 -3.207044592152892837e-01 1.098391324506863866e-02
2.641644132644558815e-02 -3.885009057149280826e-02 -7.765060442451418021e-01 9.207156650030554612e-01 3.891032031278333636e-01 2.968773372356815418e-02
5.883216013245719245e-02 -1.020673087131379192e-01 -7.811734221955087820e-01 -9.465417336474636345e-01 -3.225476776758491315e-01 4.662841362362940036e-03
3.307263572613667463e-02 -5.254366648062736705e-02 -6.103356473192956821e-01 -8.984307488279479337e-01 -4.347122274944829057e-01 -6.202796810502241021e-02
9.296855188859443064e-02 -3.287501647497492185e-01 -9.037432664015785377e-01 7.585730751760718649e-01 3.286237766373799607e-01 -5.626484720022826291e-01
-2.220109628816292063e-03 2.285483056337763580e-02 -7.638181124430097890e-01 8.959445153714917787e-01 4.405973613981952197e-01 5.619066207735136376e-02
-9.864611315929010249e-02 1.542607412159120728e-01 -5.880324635122818888e-01 -7.833705588201707037e-01 -5.999846691531746101e-01 -1.623236407764716838e-01
-4.972058326803713985e-02 1.263275273974110990e-01 -7.705763529749715124e-01 -8.502275112056129069e-01 -5.171252774130038476e-01 -9.846129518563719041e-02
-7.166443777680318872e-02 1.431145334701064142e-01 -7.459471315632227872e-01 8.417378779788377008e-01 5.260778652826930690e-01 1.213236351058116641e-01
-5.491582088464531247e-02 8.288848587249943167e-02 -5.436644892529945983e-01 -8.081379341853111020e-01 -5.667157601390083732e-01 -1.604566188748970390e-01
8.410509021637198324e-02 -1.853835480798275703e-01 -8.401384551467937500e-01 -7.388749543607496806e-01 -4.461687526467039144e-01 5.049725200246887313e-01
-8.642420603792357742e-03 3.049028396620047029e-02 -5.992461290481042591e-01 -8.132989951627985770e-01 -5.688313223184543466e-01 -1.223751249912371220e-01
3.117848578905080617e-02 -3.445929428833564151e-02 -7.362086771121976181e-01 -9.102520933619920873e-01 -4.122293719942707879e-01 -3.883389492853433350e-02
6.174992688814760766e-02 -1.119794842583024391e-01 -7.507014952503503480e-01 1.981051199496237647e-01 -9.466694958935418791e-01 -2.541086913004204084e-01
6.853548681232309037e-02 -1.305785456303008574e-01 -7.834776189496911458e-01 -9.506926964406117175e-01 -3.088226179776216163e-01 2.849539541621971123e-02
7.732166143853178020e-03 4.603921525156201046e-03 -7.868866206680908970e-01 9.060147321140733512e-01 4.207004839834435073e-01 4.635092197962040195e-02
8.327284337489065241e-03 2.675656983668839653e-02 -8.505576962170935396e-01 -9.092745634860203152e-01 -4.145467001118883776e-01 -3.702433826082065366e-02
-1.056925398457575355e-01 1.705209620890509870e-01 -6.142981703966065021e-01 -7.787723325779074557e-01 -6.060748069245560643e-01 -1.618239241352377178e-01
5.486273757376990134e-02 -1.158086917358874118e-01 -7.472487731930272936e-01 4.497492744790178576e-01 -8.557408134255269916e-01 -2.557992383558143623e-01
-6.549127101114440852e-02 1.132056741121030136e-01 -6.580981856408739672e-01 8.232900659243752584e-01 5.516624933826405064e-01 1.336486466264664441e-01
2.574266756857809119e-02 -2.276615218635503687e-02 -7.329626907838783234e-01 -9.101317450363602957e-01 -4.125524373526120447e-01 -3.821901505126444609e-02
7.045448142208085573e-02 -1.235487687320278860e-01 -7.108052034303014022e-01 -8.963665846787072233e-01 -4.423327583934769103e-01 -2.947332223296231582e-02
-3.767581678364016751e-02 5.941009654354249825e-02 -5.506844584424843703e-01 -8.225452965044987019e-01 -5.499081357761137490e-01 -1.449837142770376563e-01
7.832582144521326589e-03 -2.503460055071780876e-02 -5.583483718620114722e-01 8.333419634067991133e-01 5.438469354146576729e-01 -9.885182277219910219e-02
-2.427300533623406170e-02 4.287689173386743935e-02 -6.698009678212192286e-01 8.212007845351352309e-01 5.601341080282430385e-01 1.089910661581163787e-01
-9.228920110023920709e-02 1.363352578728988240e-01 -5.960579431743208145e-01 7.927821895574082012e-01 5.892096208081410991e-01 1.559757117877276500e-01
7.609113929866902215e-02 -1.882247159119639635e-01 -8.421868574262167950e-01 9.598557508573284380e-01 2.804618346667390183e-01 4.254038255723688669e-03
-4.940612186040782561e-02 1.230674091331605685e-01 -7.562195319321047826e-01 -8.504463281064807978e-01 -5.166362507912587443e-01 -9.913640793651772032e-02
-8.128938202710017658e-03 5.079369113636925809e-02 -8.234545111004784035e-01 4.963406571350779672e-01 -5.249779505883099828e-01 -6.914073354187222353e-01
5.880163444950829016e-02 -1.060777870362323988e-01 -6.399536133919775382e-01 -9.205222523421202618e-01 -3.891169852953082486e-01 -3.502505813958181613e-02
-2.936898509240173753e-03 2.293942871507625991e-02 -7.530524563479679134e-01 8.959445153714917787e-01 4.405973613981952197e-01 5.619066207735136376e-02
-7.009151559782300644e-02 1.332994945659139452e-01 -7.136366056742980968e-01 8.234248670968646877e-01 5.518031668641200094e-01 1.322299258308758663e-01
1.024423118768279933e-02 2.443228283119353896e-03 -8.239767855756908732e-01 9.144511814374188807e-01 4.025069220628370581e-01 4.203824995417809046e-02
-4.790749859672311164e-03 3.219636805437033761e-02 -6.858583932291859586e-01 -8.752714514149151359e-01 -4.772924659269895953e-01 -7.804990907977696346e-02
5.069478113727539370e-02 -8.803329996150703607e-02 -7.656211907828205376e-01 -3.938905662122367812e-01 3.570877030948317876e-01 -8.469584370838164622e-01
-9.794547195206565471e-02 1.702803639888896547e-01 -6.974694776492874615e-01 8.102942650117503920e-01 5.668954713656365607e-01 1.485016115542188153e-01
4.918424124933589575e-02 -7.788109691573581739e-02 -7.175443451137233364e-01 -9.251011455334562372e-01 -3.789637287149933420e-01 -2.396586846154367262e-02
3.613219556989503284e-02 -7.564720231029092856e-02 -5.900878586245157376e-01 8.289597919305600193e-01 5.397979132405911207e-01 -1.464372774383153331e-01
-6.558202993606133957e-02 1.179441040880758046e-01 -6.772918485495438290e-01 8.231233743923108692e-01 5.523356098606960751e-01 1.318836025017079971e-01
6.529101192336968229e-02 -1.333039608155344447e-01 -7.921626420248110145e-01 6.834953009618903452e-02 5.181482016533005552e-01 -8.525554426892605342e-01
2.886957344857952329e-02 -2.174406623499535937e-02 -8.636665857488073916e-01 -9.285020449805955201e-01 -3.712120489338661122e-01 -9.250253681567720612e-03
-5.712905341464628861e-02 1.025241243111122968e-01 -5.826763283433735729e-01 -8.280594228986085659e-01 -5.434507554371569293e-01 -1.377638144202122661e-01
5.631585166323341968e-02 -1.196645938746753318e-01 -8.261159463904633737e-01 9.504169256910485197e-01 3.103932005947402373e-01 -1.907166444045385253e-02
-3.593881842586760939e-02 6.691155018240632635e-02 -6.583071164075157133e-01 8.418191835979953463e-01 5.283121201933287381e-01 1.105747067969641284e-01
5.133035856217642301e-02 -7.199672291060857376e-02 -8.313027178331735545e-01 -9.486333916779872144e-01 -3.141062848177822997e-01 3.784085135787744469e-02
4.917819018636430256e-02 -9.869518062361597177e-02 -8.355661571483008476e-01 9.492266145998160543e-01 3.143449121167473659e-01 -1.249441321898380267e-02
7.554702659558899802e-02 -1.762583890741094284e-01 -7.767258025366438057e-01 9.545376264512045461e-01 2.944829237315071957e-01 -4.623556336245964599e-02
5.761282730814008129e-02 -1.019371711729221558e-01 -8.500480023740419888e-01 -9.522797485790880367e-01 -3.036548625683005986e-01 3.093549554759970552e-02
7.359724056527947034e-02 -1.419516451038990157e-01 -6.904714070975997986e-01 -9.455855084486237683e-01 -3.253680243708337860e-01 1.922219804926010795e-03
-2.633693406747819599e-02 6.150246900600495059e-02 -6.928048460006432929e-01 6.607277673956509778e-01 -7.384024706497012147e-01 -1.349096317198132111e-01
-1.115026360271212796e-01 1.580056995828030553e-01 -5.644938522604961983e-01 3.738679266868413231e-01 -2.932467290256294268e-01 -8.799029090249970153e-01
-6.466848129016786705e-03 2.470370556571058196e-02 -6.254924658972723650e-01 -8.704616527594111197e-01 -4.841255391244796424e-01 -8.898861411881006656e-02
-2.933593028424287888e-02 5.551075451087197909e-02 -6.573447592877373902e-01 8.593126931722143702e-01 5.018942915963807705e-01 9.840637894000063557e-02
-4.296300003441506227e-02 1.162229814020092067e-01 -7.758501729245006473e-01 -8.502069565682313090e-01 -5.170990024456489920e-01 -9.877627585964461610e-02
-3.349934627785766672e-02 8.832502061840137586e-02 -7.152272524416120048e-01 -8.567999955127172385e-01 -5.067173796811604847e-01 -9.555765180489762811e-02
-5.387629786649053565e-02 8.451505791379336496e-02 -5.550204157034631658e-01 -8.087455744310219075e-01 -5.687563349133576418e-01 -1.498226529406052332e-01
-5.122385200752267373e-03 2.160110564476751607e-02 -6.217645233948717598e-01 -8.704616527594111197e-01 -4.841255391244796424e-01 -8.898861411881006656e-02
1.895091366986474332e-02 -2.907577281688579138e-02 -7.307122902833094180e-01 6.979077696433787503e-01 5.889027488971372293e-01 -4.075761246844568642e-01
1.403651639886729745e-02 9.488144366875301411e-03 -7.975963748797686437e-01 -9.058434499116863048e-01 -4.210292161520564069e-01 -4.671234738780707246e-02
-6.965156439602813998e-02 9.724391488081247925e-02 -5.900386581249649209e-01 8.294776352151072008e-01 5.416910574220231700e-01 1.361530425182047033e-01
3.176244436894837264e-02 -5.426537626129038921e-02 -7.351216361348745787e-01 9.182408568510324054e-01 3.949643139820303017e-01 2.892956083638741419e-02
-8.687881748661295533e-02 1.657709775599103541e-01 -7.421434787874020556e-01 8.328545665660415098e-01 5.337367677547893985e-01 1.465548828826976624e-01
-8.808622331316413867e-02 1.351235084531140496e-01 -6.349492197307797792e-01 8.120818330784437267e-01 5.410124232885494822e-01 2.186976319748485664e-01
-1.590817003967610888e-02 2.247890187357974578e-02 -6.036452369732012713e-01 8.551552182178255856e-01 5.096014224604533682e-01 9.495231951408993065e-02
-4.370945364656977222e-02 1.203685357079458534e-01 -7.928691944904704414e-01 -8.608618875075321197e-01 -5.019467078252510817e-01 -8.346444237135505761e-02
7.577353322465310570e-02 -1.735176487125773825e-01 -7.490991766842608479e-01 9.513270625728641461e-01 3.064632914268862196e-01 -3.251262868925271915e-02
5.029449561611484820e-02 -8.199636682263973519e-02 -6.940927674555859017e-01 -9.237780045982134647e-01 -3.820919595930420409e-01 -2.529688982647292084e-02
-7.464351312668281169e-02 1.120275398232928460e-01 -5.971248958124923956e-01 8.062443981135311022e-01 5.729979837782522845e-01 1.471165561607800376e-01
-7.167994667627861083e-02 9.635935444840694475e-02 -5.488093250595694750e-01 8.088669022905188299e-01 5.773480914465547453e-01 1.113710720158558598e-01
3.113624665058593866e-02 -2.426337076618516331e-02 -8.852381991480933188e-01 -7.630108739246499461e-01 1.473564537179757605e-01 6.293651418853798418e-01
-2.691609892351317507e-02 9.574759152162269638e-02 -8.259977537798012248e-01 -8.747492676647418142e-01 -4.794472227485844784e-01 -7.031414735789015547e-02
-6.007160206476129527e-02 8.965218496814518490e-02 -5.417313425815195593e-01 -7.982288170253769577e-01 -5.614859755803954799e-01 -2.180923082018232095e-01
-2.975717869498691742e-02 5.949704146947832478e-02 -6.048601251672787171e-01 -8.390021648424350609e-01 -5.322403476002346423e-01 -1.131175484886804972e-01
7.653413715074815216e-02 -1.783323435366861165e-01 -7.691230323655222634e-01 9.530663978288532734e-01 3.004871046514129285e-01 -3.703972553549532420e-02
7.124418315592079276e-02 -1.442502838710190416e-01 -8.329531142143976608e-01 -9.595600339825421932e-01 -2.792877241911497221e-01 3.525490461696018790e-02
6.707099275749434097e-02 -1.580966790122500243e-01 -8.625789770432435999e-01 9.521234925144358430e-01 3.032136921354975367e-01 3.901681565264800838e-02
7.169799381293724683e-02 -1.394961217628276351e-01 -7.717277128374505635e-01 -9.501767758287924526e-01 -3.109057784379897771e-01 2.239847337360897570e-02
3.551516534353781757e-02 -3.893448972525750951e-02 -7.254505432143049104e-01 -9.499647830256713332e-01 2.922260447275953354e-01 1.103215744714265423e-01
-3.177287290846780854e-02 3.679492233594908179e-02 -5.410649083918523949e-01 8.359103894578682192e-01 5.463721032339393657e-01 5.226227706593534333e-02
1.291744927088136694e-02 1.101230988461094316e-02 -7.896331395580427071e-01 -9.058434499116863048e-01 -4.210292161520564069e-01 -4.671234738780707246e-02
-1.039424207039241731e-02 2.158842835391270101e-02 -5.757884947221224570e-01 -8.524198492554745377e-01 -5.111273160538315485e-01 -1.101329531924056110e-01
6.622652309705262530e-02 -1.237990741276656370e-01 -6.513218363711679171e-01 -9.302128386881819422e-01 -3.658528620398625586e-01 -2.925334300410646279e-02
4.038611083334894825e-02 -5.752637108183750875e-02 -6.275577714161038045e-01 -9.433018686161086519e-01 -3.305336555659229569e-01 -3.048093180310969957e-02
6.231951588681878401e-02 -1.426699105931211742e-01 -8.678267018766496754e-01 9.599902197206994225e-01 2.794256439812098924e-01 -1.844146215161363012e-02
5.046101381964127053e-02 -6.925074106832866672e-02 -8.322971171726781803e-01 -9.590108007721424022e-01 -2.740976177676256453e-01 7.189422742117160259e-02
-8.644402798498961038e-02 1.668072204163897065e-01 -7.484589317505286887e-01 8.322801030595589067e-01 5.356907262609876819e-01 1.426368670756117674e-01
-3.927124778206003697e-02 7.200728677730341976e-02 -6.572837037401065841e-01 8.418191835979953463e-01 5.283121201933287381e-01 1.105747067969641284e-01
5.382714357157881296e-02 -9.220979090137371159e-02 -8.725496526503878636e-01 -9.506513130117637544e-01 -3.084581353211662269e-01 3.340149432583797151e-02
8.169036309922490802e-02 -1.719576958660746779e-01 -7.744862550400242185e-01 -9.590144153633356483e-01 -2.810641599443317595e-01 3.597622993181807255e-02
-1.094840423103487226e-01 1.786932165400893502e-01 -6.259378649627918012e-01 -7.810271987232385582e-01 -6.019374086934342616e-01 -1.663366191491349455e-01
1.424522896509171875e-02 -2.247217636229955490e-02 -7.329796805821356953e-01 8.929001394808245839e-01 4.498748310740449119e-01 -1.849262775335496281e-02
1.014492912940117252e-02 -1.638695841592563776e-02 -5.645522882977033197e-01 -8.795884178182260538e-01 -4.615191275164850504e-01 -1.154309758100151573e-01
-5.253411432147717282e-03 4.120888394967946872e-02 -8.584637477056865640e-01 9.085253211240235105e-01 4.135534090872404200e-01 5.962649334659529676e-02
1.424111852335806228e-02 1.088761530242787247e-02 -8.195457568060464659e-01 -9.133896153832123943e-01 -4.053544774205110612e-01 -3.751210664907711489e-02
7.531790488461978517e-02 -1.474378401497072333e-01 -7.183450000280784398e-01 -9.450246228814236371e-01 -3.268973447217263795e-01 8.160156965887628566e-03
-6.467698726860723890e-02 1.221897877287470846e-01 -7.021227972344763479e-01 8.411561238272250440e-01 5.283994691350488715e-01 1.151102791489832800e-01
-1.595785060714730377e-02 6.205548786186540489e-02 -6.975624335717370839e-01 -8.952077655078150009e-01 -4.442481619657997483e-01 -3.530760774271432534e-02
-2.415360160690975880e-02 6.793981070685110868e-02 -7.151250969681153258e-01 -5.546910867654007982e-01 5.220958868942757736e-01 6.478685693496004649e-01
-7.079335419601559543e-02 1.083199537969328080e-01 -6.037844437075491344e-01 8.062443981135311022e-01 5.729979837782522845e-01 1.471165561607800376e-01
4.583370948838237646e-02 -6.901843952699801554e-02 -7.313132330797995628e-01 -9.271414669142423737e-01 -3.743913456417920504e-01 -1.548614337512724953e-02
-6.881643312125149126e-02 1.397745026933507884e-01 -6.649026873321564057e-01 -6.812701361632735875e-01 -6.753009149230553287e-01 -2.825591546493568806e-01
3.666190453667601129e-02 -4.267462612586596371e-02 -8.802345129227814313e-01 -9.395122295068840668e-01 -3.408297133109374211e-01 3.393931542309516769e-02
-1.392936827630999845e-02 5.028707451316003635e-02 -6.597826321271890171e-01 -2.866304697681090197e-01 -9.235041123553759945e-01 -2.549178853341257378e-01
-9.607339286919586163e-02 1.487759528653274932e-01 -6.128992838810518595e-01 2.857345853374266414e-02 5.920619436944624114e-01 -8.053857537206352557e-01
-1.123534234615946037e-01 1.670553533301362692e-01 -6.121015104363421999e-01 7.853767264396319669e-01 5.977600126356055199e-01 1.608302361524366342e-01
-8.030445970288574084e-03 3.806015408475102446e-02 -6.853859695811835850e-01 -8.752714514149151359e-01 -4.772924659269895953e-01 -7.804990907977696346e-02
4.824777626508223310e-02 -1.011743997959529406e-01 -7.917819159700397735e-01 7.302759682646917661e-01 -4.012782892849954264e-01 -5.528767898217236132e-01
-7.311612301445787054e-02 1.510936021847626709e-01 -7.694312410895071119e-01 8.438175572019941395e-01 5.205056408445741800e-01 1.305595956130325697e-01
4.083231913221604253e-02 -5.172376299333576732e-02 -8.427108997435766025e-01 7.642173624061469883e-02 -7.249946940974408838e-01 -6.845015790781846521e-01
-7.547454643714779365e-02 1.548038293131636933e-01 -7.689802214462676533e-01 8.438175572019941395e-01 5.205056408445741800e-01 1.305595956130325697e-01
-6.842157765501159783e-02 1.026390266844983273e-01 -5.945853714834646864e-01 8.083684281450206344e-01 5.708496930563646821e-01 1.437745190073777546e-01
-9.262842219935359112e-02 1.654896882609487030e-01 -6.597667564563780562e-01 -8.010903603215115965e-01 -5.789917993088727899e-01 -1.517324320408292571e-01
-8.914523074065278108e-02 1.690329559399170456e-01 -7.411434791392201848e-01 8.328545665660415098e-01 5.337367677547893985e-01 1.465548828826976624e-01
2.635668314701531886e-02 -2.252490838452667413e-02 -8.755625102858858311e-01 9.193323016339903508e-02 -7.252564846128486398e-01 -6.823132071994038039e-01
-1.927560871877911225e-02 6.075028856701023688e-02 -7.905399984788433754e-01 8.913958802033271622e-01 4.487612043968531861e-01 6.345680566197332839e-02
-3.744577550328360982e-02 7.870316869839213969e-02 -6.375117633409695950e-01 -8.414905726440431444e-01 -5.270014521286462417e-01 -1.190087627256866537e-01
-1.163790660289017002e-02 5.282534503407188692e-02 -6.874532043924502789e-01 -8.829816568084890571e-01 -4.621670946595490270e-01 -8.212776846893560245e-02
-1.714275357850476508e-02 7.575965106254921311e-02 -8.156588923400188706e-01 -8.863893246257247283e-01 -4.593619813953196962e-01 -5.745028492634000894e-02
3.037298497364655445e-02 -6.390334306930814390e-02 -5.955466260591468775e-01 2.296015301007734710e-01 1.650394660746722086e-01 -9.591898206367555080e-01
4.329016433366467131e-02 -6.020907487835262112e-02 -8.581642586339780499e-01 -9.438123336077463010e-01 -3.301688144139974801e-01 1.438168690924488541e-02
-3.178895361582271401e-02 9.980798542499669246e-02 -7.935322262500148494e-01 -8.654855125002207661e-01 -4.935564001229140740e-01 -8.565575024445351571e-02
-7.064951064617962240e-02 1.119192951537469616e-01 -6.430645398226167986e-01 8.178260875549274722e-01 5.622927177451159109e-01 1.224229965546172055e-01
-1.558654204384102120e-02 3.471429012808405212e-02 -6.742269414628609958e-01 8.740133063938864133e-01 4.790942739350282364e-01 8.105193969976741408e-02
-3.042471763975197058e-02 7.384704905377582895e-02 -7.453366568335615394e-01 8.723627744623828617e-01 4.811098413917246908e-01 8.669780993960307658e-02
-4.267537969551148114e-02 1.116025202206750444e-01 -7.548029594667416964e-01 -8.565029206522908334e-01 -5.060203852651977696e-01 -1.017158621364262910e-01
1.028753105070804967e-02 -7.397664415427757274e-03 -7.289368758116073765e-01 9.008003555024426401e-01 4.316640045558323147e-01 4.716891664534516443e-02
-4.851665743263062006e-03 4.732136283519753489e-02 -7.847437492003161985e-01 -8.916736918393506350e-01 -4.490857456985076213e-01 -5.692117612978681018e-02
4.716790545404640073e-03 2.343023851867167585e-03 -6.121887262621917847e-01 -8.694381183294633830e-01 -4.871802717228186363e-01 -8.205328293129290906e-02
-7.086232702294695263e-02 1.558571341442838987e-01 -7.503076717640400073e-01 -8.373068184136794878e-01 -5.348404854046875379e-01 -1.134149329234905301e-01
3.797373792673580661e-02 -4.579839997614984504e-02 -8.647966235586606043e-01 -9.368961200657023314e-01 -3.496039923090840662e-01 1.645833339951245514e-03
2.893529120791291445e-02 -3.705517948854746696e-02 -6.634576721675677913e-01 -9.038752267613674451e-01 -4.249190107185056853e-01 -4.953189656265442886e-02
-7.834467477593139162e-02 1.549817288366136525e-01 -7.512124431912446942e-01 8.271634186454144277e-01 5.454114501550998417e-01 1.353773573923727491e-01
3.297342042785614269e-02 -3.328048954519918085e-02 -8.202156143395167298e-01 -9.297664738023198039e-01 -3.681152583358094366e-01 -5.045866978069306515e-03
2.979621548353177107e-03 1.561117657166099550e-02 -7.938958039370768160e-01 9.060147321140733512e-01 4.207004839834435073e-01 4.635092197962040195e-02
-7.546392250700785509e-02 1.392259418113761804e-01 -6.498739410356115798e-01 -8.002946441337359662e-01 -5.809712135577259629e-01 -1.483271100915823093e-01
6.479613092683118858e-02 -1.413336630113779246e-01 -7.657001550963141723e-01 9.495551944024347435e-01 3.127186585978701805e-01 -2.349411305205904507e-02
-3.926959322255949708e-02 1.093355614537714071e-01 -7.729270051486641924e-01 -8.660435227241805034e-01 -4.922179055864714936e-01 -8.769350128464116489e-02
-5.111847969142351011e-02 1.194366480509520267e-01 -7.921661778434989643e-01 8.654531720535224570e-01 4.917485781360100283e-01 9.578174608822191682e-02
-5.407939731702004170e-03 3.492211802171520107e-02 -6.957708599987199038e-01 -8.774987606917651339e-01 -4.719304842656733556e-01 -8.530851660404986658e-02
-5.967629681542706288e-02 1.276385525920770703e-01 -7.000701007332470471e-01 -8.406480384300565323e-01 -5.299237806998244871e-01 -1.117661045778306772e-01
-7.431998942330152180e-02 1.162846260016220934e-01 -5.665393722425912104e-01 -7.928035729708918788e-01 -5.874595176148766917e-01 -1.623385654990345262e-01
-7.797141443030277015e-03 3.582100146775474975e-02 -7.756095040684393149e-01 8.968135485101536020e-01 4.382400752855624693e-01 6.058956694292481210e-02
7.959212477703353494e-02 -1.654171223806888136e-01 -8.138133587440400385e-01 -9.140044958178357160e-01 3.226546727311892238e-02 -4.044189921930366749e-01
-1.188253714826431190e-01 1.914330101132762918e-01 -6.679646548028458364e-01 8.260952675047019689e-01 5.349520486284837784e-01 1.771804579363175092e-01
3.179602459456504215e-02 -5.336988034184534518e-02 -7.502426948829779008e-01 9.202888662528426744e-01 3.902807583715691697e-01 2.737393460886117930e-02
-8.015824907592989865e-03 3.527233312795658576e-02 -6.689373653108082740e-01 -8.744594902049428464e-01 -4.779110819425418377e-01 -8.319614021708332530e-02
-1.035098030273628594e-01 1.900603771272258435e-01 -7.164346076655844220e-01 4.904335015511296358e-01 -7.791111554944786244e-01 3.904622746698542257e-01
3.841559226416651519e-03 5.283459385433742113e-03 -7.845296738918929869e-01 9.325189988241185945e-01 3.602125388013474039e-01 -2.559772885143129020e-02
-2.087823933715099792e-02 2.142741768378409600e-02 -5.887398227509402782e-01 8.956717595285230704e-01 4.375352445262433720e-01 7.959276964925918185e-02
-1.326793952658447164e-02 2.825013850821459296e-02 -6.609464443332009331e-01 8.738022410327561662e-01 4.796742166110640193e-01 7.988923259548354194e-02
-4.446420163197407904e-02 1.136096388723311229e-01 -8.193989626717403940e-01 8.841152025491945121e-01 4.504302987541061731e-01 1.243095112438444422e-01
5.551868127277453241e-02 -1.234101640748960921e-01 -7.389367712936946164e-01 9.623205624312792805e-01 2.710578870905763771e-01 -2.160455896190971795e-02
5.602385147198873233e-02 -1.117795566925989664e-01 -6.162522727940851208e-01 -2.268049559182986896e-01 5.892361996229820154e-01 -7.754741859177287644e-01
2.306255470526951887e-02 -7.259233011707688990e-03 -8.708767808970181434e-01 -9.248370245308243920e-01 -3.803599714146156385e-01 -1.664392515029144764e-03
-6.373356210567848734e-02 1.176903532473207448e-01 -6.322560758445658902e-01 -8.213139461269620689e-01 -5.558874343243833671e-01 -1.281895559615221780e-01
-8.713629741797025707e-02 1.422988734693010904e-01 -6.176349091512799427e-01 -3.620817309825948294e-01 3.015990603782889856e-01 -8.820061376586793012e-01
2.404684422762629840e-03 2.702722310350959278e-02 -7.143031149602512286e-01 -6.626673810586102276e-01 -6.328626508806656226e-01 4.004457606233576272e-01
1.263465432546094155e-02 -5.871151015198679789e-03 -7.653128620386522307e-01 4.691042798696333227e-01 -5.448574586531522712e-01 -6.950334699552398465e-01
-7.023651828974536437e-02 9.915981603787379917e-02 -5.880378998259638834e-01 9.006908424077023634e-01 -4.073183468962781606e-01 -1.511547904784593666e-01
3.144842766464629041e-02 -4.966496916668505790e-02 -8.052693943887382355e-01 9.334537929977145820e-01 3.586696848507607838e-01 4.480346776287505266e-03
-2.373690136938023942e-02 3.050601873681100043e-02 -5.777143959690572705e-01 8.518631152022064779e-01 5.149557242210325292e-01 9.565477013711543020e-02
7.211450302131003354e-02 -1.576203268277845682e-01 -8.663311072641550759e-01 -5.179077981550044285e-01 2.634549708228223208e-01 8.138568614682689661e-01
-2.131322075889561379e-02 6.890831270351520377e-02 -8.183612368693594652e-01 8.926533502221861704e-01 4.453124870054234741e-01 6.976234839905848251e-02
-7.789552563355682524e-02 1.348882869318852040e-01 -6.202144363104734603e-01 -7.972729822770068253e-01 -5.866989841188436916e-01 -1.419157981517359668e-01
-7.871489238935024113e-02 1.149277063493485129e-01 -5.857280614238993266e-01 8.054554367386441704e-01 5.757563603983781864e-01 1.405210051521589010e-01
-2.975887056896868270e-03 2.691021600764536420e-02 -7.825199836201583992e-01 8.968135485101536020e-01 4.382400752855624693e-01 6.058956694292481210e-02
9.143726076339223074e-02 -3.226042360113854368e-01 -9.158751562512010835e-01 9.327937308029803365e-01 -1.415260523074427512e-01 3.314607552832283810e-01
3.442999575728988154e-02 -4.065367721738810669e-02 -6.823927719682953974e-01 -3.889099003630527296e-01 -9.027494976526713177e-01 -1.838271848434013811e-01
7.173008435259983773e-02 -1.379060090487045920e-01 -7.425501041589456230e-01 -9.478291526920731291e-01 -3.185830381899600328e-01 1.116893390979699710e-02
3.086162065239681212e-03 -3.022504573224665727e-03 -5.689206599587761648e-01 -8.645138471850324358e-01 -4.922304591926101591e-01 -1.016119238493536636e-01
3.700386520141343144e-03 -1.760499987754219481e-02 -5.667536449841237278e-01 8.618999220382729254e-01 5.019490598561238137e-01 7.194209963555829590e-02
1.429604796066735566e-02 -5.288714954277999418e-03 -8.472531467330141064e-01 9.213451403774770565e-01 3.872482596713598402e-01 3.408691368120989745e-02
-8.582428136953565434e-02 1.557268674454475588e-01 -7.089769191083686861e-01 8.244323201385870270e-01 5.495524291001582240e-01 1.352903440051146100e-01
7.927605653987397638e-02 -1.801174244883728126e-01 -7.203708780179379767e-01 9.046370107127580384e-01 4.191669111287087413e-01 -7.701285258645018672e-02
-6.928972713533433636e-02 1.072689665009720350e-01 -6.323345030044279502e-01 8.049381381144201653e-01 5.754650526397901977e-01 1.446186951924754160e-01
7.129798782219179398e-02 -1.289270354121077600e-01 -7.167781105875551395e-01 -9.186401058404015663e-01 3.586633090234153109e-01 1.657135682492835715e-01
-4.545580116868059434e-02 9.170478014833922942e-02 -7.026471393809931021e-01 8.418424201549878916e-01 5.274690602696778807e-01 1.143579034689588547e-01
-3.480083079877226843e-02 7.090260891576206925e-02 -7.194775358781997365e-01 8.276031018460439093e-01 5.430472101581836908e-01 1.420310999542720165e-01
2.837503039317782610e-02 -3.763991257540718477e-02 -6.489660839674777915e-01 -8.925068393218384966e-01 -4.468901240460882440e-01 -6.099802286807499280e-02
6.330490858326839887e-02 -1.264874800839951297e-01 -6.952461349849635708e-01 4.963169428413177209e-01 -8.322302234522541697e-01 -2.471079671343262563e-01
8.844233337363494041e-02 -2.030505595198934254e-01 -8.494019059918148651e-01 -7.388749543607496806e-01 -4.461687526467039144e-01 5.049725200246887313e-01
5.429539874146580708e-02 -9.132013674249767066e-02 -7.005267547274945938e-01 -9.245250102228755873e-01 -3.805228333775277361e-01 -2.135131730667490929e-02
4.045346895038255675e-02 -8.384160900942223826e-02 -5.954331866269927387e-01 8.481007431405064301e-01 5.172742246613274419e-01 -1.146843755074925114e-01
-3.643638389187791194e-03 4.676197965682492297e-03 -5.510208991790724875e-01 -8.520270152645104123e-01 -5.003758196848199225e-01 -1.538635900211428043e-01
-7.016654034790165140e-02 1.182133423046695248e-01 -6.498758773635761044e-01 8.238923010214941334e-01 5.504742489642462377e-01 1.348316637320654265e-01
6.212453443479544479e-02 -1.125883304159482207e-01 -8.081164500181416965e-01 -9.496517576267381466e-01 -3.122555549499355099e-01 2.565165958285867132e-02
3.552734725445040598e-02 -3.982707679910828247e-02 -8.132112445389213518e-01 -9.297664738023198039e-01 -3.681152583358094366e-01 -5.045866978069306515e-03
8.796190412598127450e-02 -1.969845970368140908e-01 -8.356068241271743524e-01 -9.774716022665841386e-01 -2.110667343055211420e-01 3.169100809506536780e-04
-3.884117716627088351e-02 9.428243707411999852e-02 -6.676269285526692521e-01 -8.238225831251937414e-01 -5.640279851051940296e-01 -5.646931512873710340e-02
1.908339897634536708e-02 -1.048158854058376006e-02 -7.580188241190720655e-01 1.436671745694372837e-01 -6.885018000142163475e-01 -7.108621626788270698e-01
2.167257938408024762e-02 -4.078800252767073031e-02 -6.459316748139017905e-01 8.920523204602947009e-01 4.481914845072870190e-01 5.802629383786424289e-02
-2.177443835681041814e-02 5.199632249398698780e-02 -7.094303464917443014e-01 8.741825289801312682e-01 4.786376961721731660e-01 8.191985002974883079e-02
-7.282972111414984240e-02 1.352128230314640911e-01 -6.492580873672088027e-01 -8.224986192715586508e-01 -5.526901847616870755e-01 -1.342742751403703805e-01
5.663429113243929197e-02 -9.602869280610720759e-02 -7.463848317342931526e-01 -9.348791903068537357e-01 -3.549379047392418052e-01 -4.470269624834294353e-03
7.664754325432020926e-03 1.756962595365554533e-02 -7.508965281107674583e-01 -8.982955489650539249e-01 -4.358148564283083615e-01 -5.595102881936533934e-02
3.914641261689818380e-02 -4.249918760372610460e-02 -7.530572293537617368e-01 -9.103513278633926786e-01 -4.134816622964564425e-01 1.712818735059075045e-02
-9.391881088399996885e-03 4.015956204538891766e-02 -6.437076192829849219e-01 -9.024418711183904707e-01 -4.246412631906638091e-01 -7.265305807862379450e-02
-8.816171393606027362e-02 1.535784729235089852e-01 -6.376479662165848161e-01 -8.002310360103950249e-01 -5.807148967256229311e-01 -1.496679582498504357e-01
-1.328346328896886641e-01 1.966527001771452565e-01 -6.047328035543628744e-01 6.442230158472995738e-01 -7.645205236395444803e-01 2.202441342072265426e-02
2.791433119752352240e-02 -4.330724211805045409e-02 -7.644670749896773643e-01 9.199001947034463056e-01 3.913305325849882887e-01 2.537806240262358015e-02
-7.921806780522182290e-02 1.514572347325252033e-01 -7.318422801822196400e-01 8.269954493815770968e-01 5.441788351894981668e-01 1.412371128066724491e-01
-1.153745121849628769e-02 2.021347985024014512e-02 -5.972158386199410973e-01 -3.561263590058110218e-01 8.936760782049572027e-01 2.729781743390332638e-01
6.518876413638617640e-02 -1.271116131682546724e-01 -6.904043408837801099e-01 1.851973333399483668e-01 -9.505132061682914912e-01 -2.494525859225493469e-01
-1.395803689822046334e-02 4.286817948019319008e-02 -7.413166843677080342e-01 8.836544376793219469e-01 4.632565119999689229e-01 6.744063210901841965e-02
5.525917621463910523e-02 -1.104587734433559593e-01 -7.988577700781479551e-01 -1.354013122968517613e-01 5.479822053914964464e-01 8.254586526305009997e-01
9.617544002968698644e-03 -2.061733752278176873e-02 -6.201894589893517384e-01 8.804102751875622079e-01 4.693483878325137026e-01 6.774834450509820138e-02
-4.190631637502875012e-02 1.185876559996441176e-01 -7.620715950556268270e-01 -8.197747500823839850e-01 -5.529849132554449653e-01 -1.489195918582679468e-01
7.057429146531305798e-03 4.596672142913881681e-03 -7.731620952337929786e-01 9.055873858115953690e-01 4.218631422796890185e-01 4.407919968451887854e-02
1.209865560723828552e-02 8.248488914057276484e-04 -6.914870638402154102e-01 -8.888303456974266936e-01 -4.536639458426980354e-01 -6.457275594108179140e-02
-9.306298922186369282e-02 1.415827296486253384e-01 -6.180378005198435831e-01 3.348814635150596658e-02 5.880451222578879644e-01 -8.081345669148461974e-01
2.101385340898508439e-02 -2.489970901382999695e-03 -8.541005677621958947e-01 -9.252680996354174514e-01 -3.792729242128934364e-01 -5.567113800178551293e-03
4.568911604033295409e-02 -8.782865364894355820e-02 -7.450872766253348045e-01 9.353159177137737590e-01 3.537894461662141610e-01 4.142686645727858795e-03
-5.685314711592158454e-02 1.428972667329790891e-01 -7.983748301925959190e-01 -8.351956065645848026e-01 -5.457968628596121530e-01 -6.748394822341831356e-02
3.359005933022889395e-03 1.867333624471820969e-02 -8.309174828256142842e-01 9.109050453640165079e-01 4.105741467952193080e-01 4.099839403875143312e-02
5.969378236174476687e-02 -1.128384745128953454e-01 -8.808169395210665442e-01 -9.574383498020642147e-01 -2.532178029999308522e-01 1.385371811904245465e-01
-1.432484345374746698e-02 2.227935119268970726e-02 -6.168119445373793086e-01 8.566299351181734245e-01 5.072731338930377420e-01 9.412290842175538574e-02
6.888870459635239307e-02 -1.541392780072889934e-01 -7.696396701045070676e-01 9.546917230009764888e-01 2.964608973179818086e-01 -2.597403308776085121e-02
-1.116727395208267845e-02 5.074078357953495932e-02 -8.358400553046393400e-01 8.986180948460540385e-01 4.348103215439476643e-01 5.852780445307378260e-02
5.579711208137912506e-04 5.103859354756055781e-03 -6.764112157827101290e-01 8.870562924439849839e-01 4.573539357277641715e-01 6.291670294806896158e-02
4.017727081297789438e-02 -8.185463613638777058e-02 -8.199039834710035723e-01 9.553898806806099264e-01 2.897609440147001503e-01 -5.717316867902140498e-02
3.694383202122117089e-03 -3.548134740460851585e-03 -5.715491351050329127e-01 -8.645138471850324358e-01 -4.922304591926101591e-01 -1.016119238493536636e-01
-9.635166428719428577e-03 4.487768676671634316e-02 -8.160662241492704361e-01 8.998359157043263057e-01 4.332276182141174270e-01 5.107989452886234349e-02
8.658373006519053117e-02 -1.889474038438917203e-01 -7.694374160508570260e-01 -9.693845390687266805e-01 -2.430309375332114774e-01 3.506535065047271943e-02
-5.167947393637179615e-02 8.796519647150541354e-02 -6.392036310193950355e-01 8.416347770388050709e-01 5.280122457271193559e-01 1.133753519996516385e-01
5.533247081288219377e-02 -9.553433955615740769e-02 -6.686135518343599982e-01 -9.223215640783644087e-01 -3.859438083497667149e-01 -1.924342049944268926e-02
9.845986133199441381e-02 -2.721424589513303793e-01 -8.881926269541472463e-01 -7.559287325231776045e-01 -3.731992924408986667e-01 5.378606134190484500e-01
-8.295739531028298308e-02 1.487261320364896555e-01 -6.466536995975188384e-01 -8.002946441337359662e-01 -5.809712135577259629e-01 -1.483271100915823093e-01
-4.799740803226162228e-02 7.762706168947296204e-02 -5.619709756432750281e-01 -8.237949663149878310e-01 -5.507980272237371633e-01 -1.341021501711569530e-01
-4.213037431333398197e-02 6.792936112367443935e-02 -6.168959444404377157e-01 8.408109357015403074e-01 5.293309897843111456e-01 1.133387562074948535e-01
-9.530979956009549836e-02 1.482895160891741226e-01 -6.270593054495918750e-01 8.015401106519621788e-01 5.797748296892613062e-01 1.462689231341648965e-01
3.572108190948804218e-02 -6.134293591527181788e-02 -7.838862676173091737e-01 9.282432048301760830e-01 3.714902413232933909e-01 1.896189041644794418e-02
4.074692228856187370e-02 -5.565941358983905046e-02 -7.502309841527033951e-01 -9.199124067364916613e-01 -3.911648371782757705e-01 -2.740864986767267350e-02
2.291464222618543739e-02 -2.135812841108906610e-02 -7.463806019316749918e-01 5.632335683177317615e-02 -7.168290081784549628e-01 6.949703968580916991e-01
5.197587144966714021e-03 1.017382653274796073e-02 -6.641080310493819860e-01 -8.848213498961954304e-01 -4.600986444115018892e-01 -7.348752396545341070e-02
-1.904572820330016581e-03 4.433735637890318104e-02 -8.073685140920358050e-01 -8.998561795487006743e-01 -4.336512393441729896e-01 -4.696231194563787320e-02
-1.497408198329192551e-02 4.493414534808874705e-02 -6.544886015745747798e-01 -8.590078752555123653e-01 -5.029647832232828630e-01 -9.556096005255533543e-02
-4.669866472764617332e-02 9.546787974078894956e-02 -7.112905450369356730e-01 8.566396836384528868e-01 5.069464011251491042e-01 9.577994989595065012e-02
3.543702742581706505e-02 -6.712062197080007064e-02 -6.774060440329970900e-01 9.140204501591174813e-01 4.038414633243602725e-01 3.845372792023781655e-02
-3.629205603559589044e-02 8.647914337886401792e-02 -7.218163234398018435e-01 5.582961707733291590e-01 -5.189742706981158582e-01 -6.472797633583149413e-01
-2.564888164390328670e-02 5.954954654323837970e-02 -6.360079138200286364e-01 -8.579678012718104929e-01 -5.035659526824342036e-01 -1.015508900987451696e-01
-5.903547601953062357e-02 1.205711169917368930e-01 -6.438516659676617460e-01 -8.345840989819890421e-01 -5.355765263814467048e-01 -1.289463691447153837e-01
-6.889454591899306368e-02 1.198480394374899366e-01 -6.097955030087528483e-01 -8.028731183273810634e-01 -5.768494345864543238e-01 -1.504642339047897737e-01
-7.647161872893677714e-02 1.491009797982094098e-01 -7.389644243952953051e-01 8.271634186454144277e-01 5.454114501550998417e-01 1.353773573923727491e-01
8.737340231250449729e-02 -2.741245481949917129e-01 -8.746419237521518841e-01 7.488893175380152423e-01 3.767016984633176913e-01 -5.452161227002532140e-01
3.328739769214304756e-02 -6.228883273233253026e-02 -6.770542263798796645e-01 9.140204501591174813e-01 4.038414633243602725e-01 3.845372792023781655e-02
-1.020876800251462740e-01 1.903044321019064233e-01 -7.083241728297905437e-01 -7.563638378186844369e-01 -6.429384604311038087e-01 -1.205980138255733913e-01
4.343092668349730207e-02 -8.241966687019490478e-02 -8.542301750786467363e-01 9.471228823854875856e-01 3.208463961588546298e-01 -3.979413735882710024e-03
-7.942716566012898716e-02 1.357559211879021399e-01 -6.432800121877652044e-01 3.628202048304807747e-01 -3.006865290080479869e-01 8.820142347149849682e-01
-8.739590018801958460e-02 1.715061092059602665e-01 -7.567035057172891710e-01 9.029762260219379444e-01 3.105613622720372335e-01 2.969605622013037349e-01
2.804465120454837854e-02 -6.464416155809393771e-02 -6.231964348593721503e-01 8.648721375471647432e-01 4.973318759823494584e-01 6.824361381459198572e-02
6.997218897670255677e-02 -1.346876022285783403e-01 -7.789790793309266936e-01 -9.507400244511673426e-01 -3.093518892356761363e-01 1.986994043553982556e-02
2.772881277641329328e-02 -4.237521193931188812e-02 -7.710049485783112555e-01 9.207156650030554612e-01 3.891032031278333636e-01 2.968773372356815418e-02
9.558361410686182225e-02 -3.281046755094725320e-01 -9.014657277380561107e-01 7.798442789726917068e-02 4.737186498798913736e-01 -8.772166606725551041e-01
-2.398612703190423478e-03 9.612115963612706190e-03 -5.832863734537936384e-01 -8.646366586664466780e-01 -4.917601544095063781e-01 -1.028367591149245835e-01
-7.835647424517355741e-02 1.242482935149210044e-01 -5.759323184327176381e-01 -7.880167668187046948e-01 -5.937372501078322928e-01 -1.628055682308960639e-01
5.092794136345208528e-02 -7.030418835606166983e-02 -8.278535396039520267e-01 -9.113782861908765742e-01 -4.071465183467702920e-01 -6.017750458338903125e-02
1.712240372807964650e-02 -1.578028644813629297e-02 -7.948243095365687960e-01 9.162610200220359102e-01 3.992286375861695547e-01 3.289738772713455411e-02
-3.208593483797220203e-02 8.301724205222932307e-02 -7.790179313007473683e-01 8.714171990115411326e-01 4.818250023253158321e-01 9.206917182797880184e-02
-6.926938041620045450e-02 9.500548324083823992e-02 -5.833265417953972243e-01 8.101775240095112629e-01 5.686103751561594200e-01 1.424591901373495340e-01
1.053340901835274172e-02 -2.954718986537864869e-02 -5.681480312637219310e-01 8.662156071324453865e-01 4.988849626462969478e-01 2.800564238813571527e-02
-1.833322982454712799e-02 2.246254586256829847e-02 -5.825354422780093522e-01 8.518631152022064779e-01 5.149557242210325292e-01 9.565477013711543020e-02
2.781622790017156815e-02 -4.165591119942206599e-02 -7.865377385322563919e-01 9.269995873611427406e-01 3.744750679581846375e-01 2.098066991266355624e-02
