-6.956406116593595590e-02 -9.542208505952569364e-02 -8.878694342616262336e-01 9.113951703878931943e-01 -1.228260870209368638e-01 -3.927755029794352537e-01
-1.082500911845856242e-02 -8.911656623060651428e-02 -7.775293392568339845e-01 -8.905579425817525818e-01 1.753757906405412348e-01 4.197021359985682598e-01
-5.612740194657573484e-02 -8.025371534590992895e-02 -8.805049156505044827e-01 -9.033138534936197006e-01 1.406599187466067158e-01 4.052639502160355067e-01
-3.747158643847469522e-02 -1.635650195926921513e-01 -8.118463600465609664e-01 -9.185502313863297408e-01 1.050718507386959322e-01 3.810844769896370998e-01
5.943044335884341278e-02 1.253749083533899911e-01 -7.536671004212390779e-01 7.551180007529924021e-01 4.082602946111937303e-01 -5.129525677709246834e-01
-6.963716192334942767e-02 -1.410120114601972341e-01 -8.758219515410265998e-01 9.205472438148329939e-01 -9.164285860332954670e-02 -3.797293225073941070e-01
6.461043257498741421e-02 1.458978607182971343e-01 -7.580989017125138174e-01 8.049549741141804882e-01 -4.027653515499384773e-01 -4.356920486303297313e-01
-5.797875920848717668e-02 -1.382411867811103312e-01 -8.538965565713020345e-01 -6.659192914892066162e-02 4.146265046678661026e-01 -9.075518589034641259e-01
-5.134465883224242910e-02 -5.815791178663453492e-02 -8.777452160477260401e-01 -8.942690224633105256e-01 1.642628545562751785e-01 4.162939226983012331e-01
-5.101515441392397154e-02 -1.740180217634713367e-01 -8.230954218034229886e-01 9.200132090491864867e-01 -8.366147536400360407e-02 -3.828530432358299151e-01
-2.025069770503122590e-02 7.352871803516122795e-02 -8.794986550458624430e-01 -8.502345350110404043e-01 2.629154760138525115e-01 4.560446117946896361e-01
3.377875576454945905e-02 -4.841310066209230517e-02 -6.903653714154126542e-01 8.554317897856955621e-01 -2.482726215600438713e-01 -4.545296012447866407e-01
1.387456523867990586e-02 -7.825591253142539713e-03 -7.511439574775296002e-01 8.548932524945100919e-01 -2.605321167179301955e-01 -4.486430017261308634e-01
-5.605609615036743348e-02 1.504647745461908798e-02 -9.022834443691477579e-01 8.808693861170447947e-01 -2.081714682124367333e-01 -4.251279388890585875e-01
-8.747623572593697661e-03 -2.045611438372617850e-03 -7.983110115749530999e-01 8.682397230365521690e-01 -2.280592498844875304e-01 -4.406231517788595231e-01
2.022195697741958204e-02 9.700255730025163226e-02 -8.049034200757941848e-01 8.302699666041941651e-01 -3.061451836334797560e-01 -4.657541294428779732e-01
-6.614850259922235021e-02 -1.723751798856857642e-01 -8.606160910331600578e-01 9.282585503942037963e-01 -6.591190591280574052e-02 -3.660487457689111657e-01
7.031994566493919574e-02 3.062333678853620608e-02 -6.930878482203612911e-01 -8.774816207763264098e-01 -3.803991305513253485e-01 2.921001654836011818e-01
-4.892322520680589953e-02 -1.635307406514350526e-01 -8.205024352896523876e-01 9.179377499846020916e-01 -1.007853032962099660e-01 -3.837090170854692284e-01
-6.515553748075344175e-03 2.334342702618309728e-02 -8.004291305361795894e-01 8.702047356322872851e-01 -2.797791008057793349e-01 -4.055457715664788076e-01
4.949462577121918616e-02 6.947681091306373569e-02 -7.348705790251530701e-01 8.131634452537752633e-01 -3.381394727344317341e-01 -4.737371721555010406e-01
5.527534665154237165e-02 2.354542236933621080e-02 -6.936043903208827244e-01 8.213498184307110872e-01 -3.173434789399282030e-01 -4.740016794676378264e-01
-8.026669435519824536e-02 -3.566986941555244650e-02 -9.540327353956779000e-01 -6.862412134911378692e-01 1.664963915115345028e-01 7.080621078124772483e-01
-6.161118983981855174e-02 -2.930825038048774298e-02 -9.114205534797631403e-01 -8.966097716725984768e-01 1.607832934039764572e-01 4.126010784079242599e-01
3.256243912881592178e-02 -2.423597810953262086e-02 -7.219643940706237384e-01 -8.619113156547613119e-01 2.470764412776088603e-01 4.427890198637166042e-01
-5.135434850429654308e-02 2.424820822524522204e-02 -8.911436761518941596e-01 9.444199040691158009e-01 3.214382674901800629e-01 6.890925185338635239e-02
-1.818336704591156858e-02 -1.404055910515720207e-01 -7.516700222194167003e-01 5.330374210792361289e-01 -7.431403855486595766e-01 -4.044916254952468648e-01
2.474545168329841602e-02 1.207753479440541317e-01 -8.137132096411602289e-01 8.125189231960027181e-01 -3.353917541255485024e-01 -4.767865043318610385e-01
-5.186597438645323965e-02 -3.850627199689621305e-03 -8.846507759829231876e-01 8.838424066005609037e-01 -2.002510290382891744e-01 -4.227553969657100730e-01
5.181211488904850088e-02 -5.695022471525458541e-03 -6.965235758542753786e-01 -8.497053524828156457e-01 2.750331113949233686e-01 4.498417517288514911e-01
1.003181706476717963e-02 1.250692093782007075e-01 -8.573763391581232796e-01 -8.244011956006356279e-01 3.185190744259907558e-01 4.678763382765283585e-01
-2.985323345048295721e-03 1.030234240396005890e-01 -8.658322162958210777e-01 -8.372463652600753425e-01 2.934248585518380303e-01 4.614329596405380429e-01
6.919929849742573191e-02 9.306974210471424813e-02 -7.180496719227805746e-01 7.953788303469168097e-01 -3.643537762515148826e-01 -4.843746917080114511e-01
7.326890569748881199e-02 9.196131924487989384e-02 -7.256375537140352661e-01 -7.963634128065774087e-01 3.661618016471869796e-01 4.813843056826292433e-01
-3.925270855486918259e-02 -6.574095627960462040e-02 -8.485450538580032731e-01 -8.972013611490290419e-01 1.565830651115904248e-01 4.129303346480964754e-01
7.140174761278648974e-02 1.104803810926035107e-01 -7.276467748418201653e-01 7.962405059118273787e-01 -3.680714990610924886e-01 -4.801295953429631780e-01
-9.915779490456259893e-02 -3.099569583166008058e-01 -9.485645314020031416e-01 9.704515989889552774e-01 -1.779186650889484633e-01 1.629989037777455352e-01
-5.714441765982336552e-02 -1.563243401008057032e-01 -8.685966169590826347e-01 -9.454826331904871983e-01 3.052156015065889405e-01 -1.136046959071410345e-01
8.662958368338030679e-02 1.122807729554485129e-01 -7.038786833778091223e-01 7.953788303469168097e-01 -3.643537762515148826e-01 -4.843746917080114511e-01
-2.754099270123423066e-02 3.770552142407337243e-02 -8.732509382223744288e-01 -8.633962739642911943e-01 2.444751425666249478e-01 4.413374885182622109e-01
-1.932633695789792369e-02 -9.531200899282891992e-02 -7.757577315092633041e-01 8.932209809188995653e-01 -1.707140964655620707e-01 -4.159482858652333026e-01
-7.510978632096147745e-02 -1.922182700152396395e-01 -8.804689635890551314e-01 9.334720228409674192e-01 -4.119130154116940751e-02 -3.562769417890200296e-01
4.860380509779864411e-02 4.327574708646303447e-02 -7.404115170806629953e-01 -8.684964337981517790e-01 -4.029633617942742219e-01 2.886771094689524197e-01
-9.322441341630054168e-02 -8.761854030698011664e-02 -9.462240435460906873e-01 9.241532049213212474e-01 -9.845735318369062961e-02 -3.691165174273734473e-01
8.721351544862683547e-02 1.818929869199270855e-01 -7.732387230131457789e-01 -7.621242518392515874e-01 4.129190395128286006e-01 4.986627032035425566e-01
6.484841435997885928e-02 1.691910935664548976e-01 -7.836452514294554028e-01 7.766237885426918730e-01 -3.966197449562764432e-01 -4.894366853643223325e-01
1.051520305726126731e-01 1.010555744409320916e-01 -6.797215403538511280e-01 -7.896666740763490511e-01 3.851298319959020611e-01 4.775997868090035015e-01
1.110061412662991659e-01 1.583631112492190629e-01 -7.031608715520918373e-01 7.593168068470232956e-01 -4.182437822953629647e-01 -4.985078990456515702e-01
-8.659878684369051727e-02 -1.124014486481989261e-01 -9.236143244941246166e-01 9.210210901053575983e-01 -8.653646677073696669e-02 -3.797783452225469425e-01
-2.998305942111609626e-02 -9.961729886391441913e-02 -8.150758729351136322e-01 -9.049500632871558814e-01 1.430793573028640298e-01 4.007414134705470365e-01
1.107509682188788647e-01 1.023408377320956103e-01 -6.650469300519227245e-01 -5.631130861868574033e-01 -4.508110249519672874e-02 -8.251492873189253396e-01
1.003767421304491286e-01 1.134804534365319167e-01 -7.040083535262749992e-01 -8.686632654705377377e-01 1.792056778020251206e-01 4.618543669443639366e-01
6.407826724932830231e-02 4.089165185539530428e-02 -7.050945883242601964e-01 -8.240012113498664803e-01 3.179276237929303250e-01 4.689819076716431612e-01
-7.854420710071564893e-02 -2.314919016719251335e-02 -9.335515410828745253e-01 9.000580166912531821e-01 -1.687026108058272689e-01 -4.017897406568581853e-01
-7.021223198129631672e-03 -1.952687190340974405e-02 -8.024423319133306975e-01 -8.683609765955611071e-01 2.277047195893267817e-01 4.405675600889716881e-01
-4.551546759885256865e-02 -1.917590265656695103e-01 -8.244611029375408240e-01 -9.257103989668318267e-01 8.555196577620215181e-02 3.684306154440705749e-01
-5.631700905250031954e-03 -8.219748503420470920e-02 -7.522377788665526310e-01 8.833159522854155954e-01 -1.998355900704144872e-01 -4.240503099625311245e-01
-7.498243863275275145e-02 -9.594722775164205020e-02 -9.189169699541228642e-01 -9.107991118984783974e-01 1.065863012836932022e-01 3.988537804053072233e-01
-3.706738205721767099e-02 2.302496561367281883e-02 -8.919345267470204508e-01 -9.116754123580890212e-01 1.561814985201728512e-01 3.800727325416826674e-01
-8.730814422416979803e-02 -4.567516001366422190e-02 -9.361097768774947481e-01 9.485379525184531868e-01 -5.312530805550674806e-02 -3.121753582141106875e-01
2.651143980666129454e-02 -3.992272568275542083e-02 -7.250192007221334389e-01 -8.639654253602344625e-01 2.452386437118544982e-01 4.397973981420072453e-01
-3.572066841205381871e-02 -1.812015059815994533e-01 -7.848620940075249353e-01 9.149009055380594724e-01 -8.443532663826286422e-02 -3.947492984935230820e-01
-1.394358111753551607e-02 -4.373918037357621413e-03 -8.075050554752369880e-01 8.723600455673191645e-01 -2.269610894624875252e-01 -4.329856981099788893e-01
-1.484595617418713563e-02 1.193043532517636812e-01 -8.825174121860046572e-01 8.374486736081335758e-01 -3.054665387108588259e-01 -4.531775731432271526e-01
-7.322466844795989804e-02 -6.382500218862637020e-02 -9.244725173136343344e-01 -9.063061373133454168e-01 1.351671046668599663e-01 4.004235748356254621e-01
1.052900374338129885e-01 1.338158265847398942e-01 -7.058871364195635767e-01 -7.810435998346006992e-01 3.864970397354847709e-01 4.905006966693475357e-01
3.656729434701511822e-02 5.637060175639019288e-02 -7.645292718741572013e-01 -8.289750989924775659e-01 3.050694028422767934e-01 4.687568076304265974e-01
1.814445681582447026e-02 8.280176607817117673e-02 -8.175975883862343085e-01 -9.684407624589748131e-01 -2.474790183736696458e-01 2.960785491528296343e-02
2.963211760383605356e-02 5.259793475036395743e-02 -7.525515835682731192e-01 3.500025386939319416e-01 -8.500453899066466867e-01 -3.936001244998021398e-01
-3.280508327693024140e-02 -1.497959501464354859e-01 -7.862949886436024771e-01 9.119443830195337330e-01 -1.127768400055122466e-01 -3.945108701132239992e-01
7.023846987147401577e-02 9.332301176896688755e-02 -7.316805445795233620e-01 -8.124823200356382502e-01 3.367991261825461491e-01 4.758558901938487740e-01
1.621552810325089383e-02 -1.193649005552471359e-01 -7.018861439509036515e-01 -6.222112112236622972e-01 6.136004186853587505e-01 -4.861560807155822506e-01
5.348148579028812882e-02 1.811553412035771249e-01 -8.112379861688007177e-01 7.781190130157695783e-01 -3.912198615483469255e-01 -4.914039290781638258e-01
-3.090480848611736053e-02 -1.693194133476582097e-01 -7.944536400606845294e-01 -9.170870995758165778e-01 1.158842531037614088e-01 3.814735792610016718e-01
1.702116619296679956e-02 8.267345981972473723e-02 -8.145844791003939989e-01 -6.482079822302446726e-01 -6.534997422145334411e-01 -3.908509929609154110e-01
1.296082887937829997e-01 1.927159049782458666e-01 -7.170246282044990815e-01 -8.543997667454201750e-01 3.531402967552541017e-01 3.811731488352539943e-01
-6.906435532926310551e-03 1.012790623258548323e-01 -8.718376343745761758e-01 -8.372463652600753425e-01 2.934248585518380303e-01 4.614329596405380429e-01
-3.639752234081919391e-02 -1.523108897921124083e-01 -8.124453434228288140e-01 -9.142679999450661343e-01 1.084236106767815233e-01 3.903310709183401839e-01
6.091622054332649500e-02 1.752772582667506684e-01 -8.094481845320492530e-01 -7.816363883427540626e-01 3.873735870938971315e-01 4.888622100761136346e-01
-2.101044180513930368e-02 -2.964640490488834254e-02 -8.294912406609495914e-01 -7.196000668459686667e-01 -7.333050586601885367e-04 6.943883683206166779e-01
9.486830201819829167e-02 1.084672599193170495e-01 -6.878918880998049490e-01 7.785633644630990391e-01 -3.849714789398134274e-01 -4.956168357903032451e-01
1.251308201665715138e-02 -2.603092226664399308e-02 -7.436646153625987576e-01 8.613698406668491847e-01 -2.418563031287694898e-01 -4.467074279956084193e-01
-1.896680258783178807e-02 -2.345848570289820259e-02 -8.246948622463646794e-01 -8.802063193448192990e-01 2.045210986551497245e-01 4.282615504459123534e-01
-4.382193795015372484e-02 3.445443551620851197e-02 -9.036711003822783805e-01 -8.704943513142313627e-01 2.286740157638359194e-01 4.358299884639150190e-01
2.454809798924250525e-02 -8.304946386500040856e-02 -6.907147845877282810e-01 8.641066529428034215e-01 -1.928414767635067695e-01 -4.648998356416739197e-01
-2.553673329084743884e-02 8.360830266287996859e-02 -8.952708970110209163e-01 -8.479081816016650341e-01 2.668484648186580377e-01 4.580869048519980447e-01
3.037274063539819463e-02 6.598305789902553231e-02 -7.885376161267757533e-01 -8.169541967083496781e-01 2.766649611648287488e-01 5.060062645306667717e-01
8.034459556842237990e-03 -5.758237363107899381e-02 -7.599051020472282758e-01 -8.522014148208350015e-01 2.868707510443911923e-01 4.375590483267308151e-01
9.412265887900145289e-02 7.845182643216659646e-02 -6.665167573842428750e-01 7.886301485144093792e-01 -3.630373398033492349e-01 -4.962523337604047846e-01
-6.712832583822965493e-02 -1.818106964567963724e-01 -8.806850615566484963e-01 -9.320233635781333126e-01 6.072315242914817779e-02 3.572746121732822688e-01
-6.585146157461335692e-02 -2.008840212435524797e-01 -8.744349936358639663e-01 -9.294747547919443020e-01 7.604409879443482789e-02 3.609625676479450429e-01
6.111665372832962573e-02 2.105329982114550191e-01 -8.340481067798080073e-01 -3.291373090159929182e-01 -7.001841400951036576e-01 6.335698870471916377e-01
-3.035786768461665175e-02 -2.707618564919236567e-02 -8.292899934247330851e-01 8.799298670055013538e-01 -2.050026487380867679e-01 -4.285992804030934189e-01
1.316875662775663855e-02 -8.850118132215174793e-02 -7.269318012736498691e-01 -8.832919274861474879e-01 2.101049335324650658e-01 4.191077280880475819e-01
6.627591536501725722e-02 3.128179893267535316e-02 -6.797453826652022357e-01 8.210392379216044922e-01 -3.173228154998969375e-01 -4.745532641931035078e-01
8.008538647975238511e-02 2.023932185614403800e-01 -8.009906144200202860e-01 -7.675579337560930471e-01 3.954619826548694816e-01 5.044448816300516336e-01
-2.940941404553687813e-02 8.228937960452545330e-02 -8.861136019135764652e-01 8.500704120809803310e-01 -2.706991837010581103e-01 -4.517767661667135282e-01
-3.464740392840599814e-02 9.063500287859831139e-02 -9.160195295085695744e-01 -8.507441468974270560e-01 2.479522348644479235e-01 4.634156727447776847e-01
1.053346219862952432e-01 1.808452241309919939e-01 -7.513946310706050014e-01 -7.783107509849094274e-01 4.486390943093434003e-01 4.392668186405597752e-01
3.667590312098296251e-02 5.106710051649918786e-02 -7.654460327964256461e-01 -8.698995225990512337e-01 -4.018043099449911670e-01 2.860561432508876289e-01
-4.155171081169166392e-02 4.888283259642213496e-02 -8.904423598132016338e-01 8.628321054383041311e-01 -2.439251232152773174e-01 -4.427429187342415973e-01
-4.197288498039275506e-02 -9.772506887790959051e-02 -8.382802570063835335e-01 -5.163079869747668749e-01 4.707066429182267808e-01 -7.154448398714724489e-01
9.592544089950147401e-02 6.634872178839623658e-02 -6.678814677118132259e-01 -8.074334358376116239e-01 3.650905576962307775e-01 4.634221955976264851e-01
1.496770951367267649e-02 -1.384791312987336022e-02 -7.455637301672550787e-01 8.548932524945100919e-01 -2.605321167179301955e-01 -4.486430017261308634e-01
1.211935762015783078e-03 -4.412095603459413595e-02 -7.565272423630355902e-01 8.729259175502434021e-01 -2.196303581930712789e-01 -4.356177776779191491e-01
-2.800707780347944792e-02 -1.146348760867051814e-02 -8.319468271115807445e-01 8.793850129510197844e-01 -2.093322924544299135e-01 -4.276236550202854869e-01
1.850805544194820268e-02 -5.480006580652822638e-03 -7.599142288163834857e-01 -8.538004506340238775e-01 2.590217892614146700e-01 4.515888652136509362e-01
-7.275143711809586855e-02 -1.304754387010609584e-01 -8.857917770589938122e-01 9.194708218436700164e-01 -9.608582664219961211e-02 -3.812360445926006869e-01
-2.641843193198305240e-02 -1.602142302546780972e-01 -7.866097708639292474e-01 -9.125145717846995241e-01 1.188731703804780243e-01 3.913902472523815290e-01
2.920589089976034433e-02 1.226077678000024734e-01 -8.227787543805671344e-01 -8.127226490805091741e-01 3.368172744502876403e-01 4.754324550379784853e-01
-7.351454812841480557e-02 -9.007046052543554726e-02 -8.896739283436276846e-01 9.390428338022881460e-01 -5.569482328720199577e-02 -3.392589614786554741e-01
-4.918715025775526051e-02 -2.053022643120082091e-01 -8.303804463661381696e-01 -9.238930096409916359e-01 1.758267891089804191e-01 3.398626884024444350e-01
-4.435593647980526355e-02 5.424258097951592528e-02 -9.149032958079517108e-01 -8.667121089057275851e-01 2.307802060173393954e-01 4.422110545732441111e-01
-8.115442095285647917e-03 -2.746634885923428769e-03 -8.133870945263135255e-01 -8.726028803691037172e-01 2.267575787212478267e-01 4.326028359407976809e-01
8.801229258439584313e-02 6.612559917063204340e-02 -6.814351930218832676e-01 -8.148214238075013327e-01 3.415045486296875987e-01 4.684449706951178127e-01
1.095521535399714280e-01 1.889855702764179635e-01 -7.393108265716709093e-01 -4.813956823180451372e-01 5.389731057865357888e-01 -6.912063283017304549e-01
-2.759663894580403204e-02 -1.477975216867996877e-01 -7.931851721847935632e-01 -9.100118828845075170e-01 1.328524966014772990e-01 3.927194764150969686e-01
-1.792118692362927243e-02 -3.783546707633006490e-02 -8.228158187325403938e-01 -8.935854117761263815e-01 1.776708082513401843e-01 4.122356070940574324e-01
-4.980690728561910224e-02 5.736527782983102258e-02 -9.316458120037237611e-01 -6.160246611209551082e-01 4.612828089474289156e-02 7.863751004403102263e-01
-3.368650880509154594e-02 4.143241107768183551e-02 -8.872372318282337744e-01 -8.619367035851722703e-01 2.422388036535106925e-01 4.454048506889465298e-01
-9.730596785771712665e-03 -7.691527227414599044e-02 -7.631926944966342941e-01 8.857769881383902311e-01 -1.931674451968742878e-01 -4.220017362530567584e-01
-3.081196418393681441e-02 -6.535107559663416721e-02 -8.304002068237957834e-01 -8.890986107396424698e-01 1.813928121367416602e-01 4.202383943501145636e-01
1.906307328985377969e-02 -8.614406423302987947e-02 -6.999136457453380977e-01 8.698243311731749250e-01 -2.029814987561252004e-01 -4.496711510224513098e-01
8.681694983398417775e-02 1.764567061357376065e-01 -7.695408016307980770e-01 -7.731544136635560838e-01 3.925864470253858096e-01 4.981045414815516437e-01
2.690182619889332563e-02 7.736121006989396531e-02 -7.903487231199072260e-01 9.072963538382995685e-02 -3.622271354583138092e-01 9.276635357718775454e-01
-7.807181757947825873e-02 -1.554191526946469559e-01 -9.125857894095582568e-01 -9.258869062760345381e-01 7.022903707841955667e-02 3.712160006487214559e-01
-6.544654899309389207e-02 3.397431706341873248e-02 -9.457352777489846929e-01 -8.540741569809874312e-01 1.910257184704177713e-01 4.838042055006101516e-01
9.851202586043389386e-02 6.905676436836134802e-02 -6.569380696419845345e-01 -4.969025877779358336e-01 3.570602086136745457e-02 -8.670714493822516689e-01
-6.644864034231377781e-02 -3.775753222123474223e-02 -9.011989659528912844e-01 9.018657111743081378e-01 -1.568216486412938038e-01 -4.025483940167762786e-01
-3.676952116871375076e-02 -1.750562589637996158e-01 -7.886574464984785759e-01 9.177924038973676035e-01 -8.443953390608789633e-02 -3.879781803942252694e-01
-5.193982724919880833e-02 -3.141091505601035366e-02 -8.898787907289901211e-01 -8.924397913410211380e-01 1.781584518024570685e-01 4.145006452136668074e-01
-7.572862272354438130e-03 2.112677488209273389e-04 -8.138431019928361598e-01 -8.726028803691037172e-01 2.267575787212478267e-01 4.326028359407976809e-01
-5.375414884395804394e-02 -1.839152405057795647e-01 -8.277574300378660599e-01 9.248024934188436852e-01 -7.889684227977861175e-02 -3.721768886491601536e-01
9.510173856644960066e-02 1.393781532390223898e-01 -7.266182492011595828e-01 -7.782556585357585099e-01 3.891879416824037263e-01 4.927990219207897260e-01
-2.385555683618707096e-02 -2.313205877063882060e-02 -8.416916934924258964e-01 -9.144881672068383427e-01 1.463442917041728741e-01 3.772197507081010426e-01
-5.940166907655179684e-02 -1.439539259423492368e-01 -8.694955666281795059e-01 -9.223963286818597229e-01 9.235551366728178557e-02 3.750406270385639451e-01
-7.745065545530667450e-02 -2.475781900996927298e-01 -9.144747174033667214e-01 -9.592906273966543829e-01 6.195995950319269779e-02 2.755402976105237323e-01
-5.645724918164975181e-02 -4.473236101245584712e-02 -8.765404621016154030e-01 8.949563954062610405e-01 -1.730570354209592654e-01 -4.112229478187484077e-01
6.137523292065714953e-02 1.602477723742342930e-01 -7.974929989800748631e-01 -6.581540125451745826e-01 -6.461841521246336484e-01 -3.863668429273589555e-01
6.282770483950678164e-02 7.396222623583316967e-03 -6.847254901358048595e-01 -8.373990528804590161e-01 2.995942821083344976e-01 4.571718411745215316e-01
1.329449243421191099e-02 8.838339445030263253e-02 -8.181954681551186770e-01 -3.763325958500589041e-01 -7.522657298758075317e-01 -5.408050008599907255e-01
-3.021092226146145088e-02 -2.999455331146042014e-02 -8.445690280858743071e-01 -8.877302310634015425e-01 1.845784495338592401e-01 4.217414288682062584e-01
1.222162343084344516e-01 2.014631089485248439e-01 -7.400990522941782723e-01 -9.334447774706332579e-01 3.292515571888194881e-01 -1.423877083934484145e-01
-3.106707670040223523e-02 5.901319222520142599e-02 -8.917962493058879669e-01 -8.612875922462661649e-01 2.461541509521782412e-01 4.445130115211948785e-01
6.704492704539316561e-02 1.212431270446369669e-01 -7.383542600561593394e-01 8.764487965756051491e-01 3.528446924691274189e-01 -3.276249837505381679e-01
-3.373409708128203427e-02 -7.185036792522773996e-02 -8.413809568084656965e-01 -8.721243872546400322e-01 1.313186099955825081e-01 4.713326594079249032e-01
-8.956062333834945155e-02 -9.044754748992953064e-02 -9.362832488747756532e-01 9.243861927509071652e-01 -9.846107669219725245e-02 -3.685316581083584730e-01
2.464328757438164624e-02 1.094061743362058359e-02 -7.577331197981529431e-01 -8.538004506340238775e-01 2.590217892614146700e-01 4.515888652136509362e-01
-4.113422117756669605e-02 -1.944270626980918459e-01 -7.952387496777041376e-01 9.189570520626976213e-01 -6.434064266326010306e-02 -3.890735382494099892e-01
-8.308649346115835888e-02 -1.622843503043952529e-01 -9.049138128022772287e-01 9.305862580828232478e-01 -6.117975850186418291e-02 -3.609241657426980887e-01
4.195952094891915174e-02 1.646393672064009328e-01 -8.319195532746527233e-01 -7.941866260039442960e-01 3.618923282790958984e-01 4.881613931981987342e-01
-7.444023772674610018e-02 -8.850691926198632486e-02 -8.982303299505590699e-01 4.432786348195628667e-01 7.152760952884918977e-01 5.402630465073036126e-01
2.791068042354649323e-02 5.765559296869045974e-02 -7.729516501022148933e-01 -5.089016415786666858e-01 -8.608112483423865369e-01 -4.807694432981529480e-03
-5.483034187563571443e-02 -7.090873763372521066e-02 -8.627792106708357389e-01 9.038058370464413516e-01 -1.428335894909009973e-01 -4.034024970596071791e-01
4.279081467021796786e-02 6.766571314626892986e-02 -7.608741772464705511e-01 -8.289750989924775659e-01 3.050694028422767934e-01 4.687568076304265974e-01
-6.731166402887410471e-02 -5.632014778608116640e-02 -8.959189488991867734e-01 9.022425230895997350e-01 -1.484824748607783129e-01 -4.048597092674589559e-01
-1.736255436627399257e-02 -1.461797687269580370e-01 -7.525094939755005985e-01 9.015799366613665988e-01 -1.354070818671717913e-01 -4.108753338786633735e-01
-6.391975062375498257e-03 -4.714813499861235380e-02 -7.704186022863440675e-01 8.745056085026912118e-01 -2.145050855679613844e-01 -4.350028838557502553e-01
4.881933283397931617e-02 9.839413936410368322e-02 -7.565393005536694693e-01 8.153642687450721738e-01 -3.360170046529146193e-01 -4.714590987963823143e-01
-6.502800235810556051e-02 -9.580848005091573139e-02 -8.772719528719024051e-01 9.111074256488225220e-01 -1.173075118473773937e-01 -3.951230271595834731e-01
-8.728189437756680991e-02 -1.290443554253678238e-01 -9.395407378005237176e-01 -9.038508540571590366e-01 8.847629766511634630e-02 4.185995441607863743e-01
-5.686407421814711899e-02 -2.005813463758067405e-01 -8.328300433208207787e-01 9.289727474372464489e-01 -3.018192960167067132e-02 -3.689155535409339715e-01
9.169476139880096410e-02 6.897435399437536196e-02 -6.772636762238325447e-01 -8.008589589612409299e-01 3.649139778698460845e-01 4.748291446475492728e-01
3.827994289893191238e-02 6.925749558353727631e-02 -7.542993125250924136e-01 8.300836517206620080e-01 -3.060408400180806288e-01 -4.661546260492521188e-01
3.988863000701566713e-02 1.376239786874237925e-01 -8.000356696445043436e-01 7.937634976625337346e-01 -3.644087846059024249e-01 -4.869761261916132900e-01
-9.213399463434138181e-02 -1.277332384790273723e-01 -9.340715595350377320e-01 9.288976278629070826e-01 -7.309973573255518220e-02 -3.630504449611582363e-01
-2.557783965704622450e-02 -1.243294288012186943e-01 -7.783267124646182644e-01 8.979680605689654982e-01 -1.510582519236849663e-01 -4.133216262473706215e-01
6.173508715109343042e-02 -1.901992048014119335e-02 -6.689751211132304309e-01 -8.620032201609172384e-01 2.986262263856968580e-01 4.096008121901710819e-01
8.057710870030776462e-02 1.878583388949583710e-01 -7.741662063172707331e-01 7.602352854544419669e-01 -4.202898475237281106e-01 -4.953773862607018796e-01
4.595150824406487450e-02 -3.791313735440260402e-02 -6.733605270545552912e-01 8.483679773970133065e-01 -2.437179152828649886e-01 -4.699716509508579665e-01
-3.043223085938892136e-03 -6.204489757428211655e-02 -7.562203734550223544e-01 8.817288695983899194e-01 -1.971257739925548202e-01 -4.285972815412875114e-01
-7.429015235051708577e-02 -1.387765935556140862e-01 -9.066933739833377137e-01 -9.234670629958565691e-01 8.354270613250913691e-02 3.744718945580082781e-01
9.089025828922711603e-02 1.290397715396797707e-01 -7.251045182395465805e-01 -7.782556585357585099e-01 3.891879416824037263e-01 4.927990219207897260e-01
-4.620065772983009827e-02 -1.015759393974601243e-01 -8.384797505546502938e-01 -7.618806190958753166e-02 4.003748283041518308e-01 -9.131787207786227212e-01
-4.860981150137358431e-02 1.616294828730120703e-02 -9.042565335813514960e-01 -8.795671979720099953e-01 2.037700194394314046e-01 4.299294400588550835e-01
3.582574285483813847e-02 -5.514239904034508311e-02 -6.980876507377554718e-01 -8.693579330079044265e-01 2.346925459086970367e-01 4.348979112517307177e-01
-3.894401170831036929e-02 -1.336242865259567314e-01 -8.299535873729018132e-01 -6.623537549666154156e-01 6.350465410262517985e-01 3.974964075463044422e-01
-6.156976692146064883e-02 -1.299932115066734506e-01 -8.780503432550428311e-01 -9.191048077127600413e-01 9.684316531927808502e-02 3.819263721847883097e-01
4.585797480792608988e-02 3.912964824662549385e-02 -7.131736606053463712e-01 7.937238950897270717e-01 -3.826003026091790993e-01 -4.728841156213185459e-01
-4.372775927881442093e-02 -1.302927174620394923e-01 -8.360464560691048819e-01 -9.097127088462271249e-01 1.174840062040339445e-01 3.982716355076145187e-01
-7.429415762390276234e-02 -8.735522810456345169e-03 -9.464920442303493830e-01 -8.876859223658516429e-01 1.638707013122093770e-01 4.303023314890725981e-01
2.477503754961008983e-02 8.356301164392625214e-02 -7.853539602438451839e-01 4.985672735509498188e-01 -5.148485523581962653e-01 6.973963305600640039e-01
-2.303080404725239144e-02 -6.326366773862787674e-02 -7.973160231264333486e-01 8.865090658167896764e-01 -1.911039484039703806e-01 -4.214035561419190445e-01
-4.127780270494071924e-02 -4.671851963915431977e-02 -8.606337234428493854e-01 -8.942690224633105256e-01 1.642628545562751785e-01 4.162939226983012331e-01
-5.114805569395091539e-02 -1.995964127903215313e-01 -8.368868718164080844e-01 -9.283198590934286232e-01 8.895036183531287999e-02 3.609848644224905034e-01
-4.934265241747014252e-02 5.299662267678605793e-02 -9.239993331471446636e-01 -8.610043162710000475e-01 2.231861783065454685e-01 4.570114847305553618e-01
1.032728592268711276e-01 1.965114308870139770e-01 -7.608715369750013169e-01 -7.595897227602050883e-01 4.127271630972534910e-01 5.026725991326442822e-01
1.673018500779682380e-02 1.497908259942808129e-02 -7.588571076162510254e-01 8.456474516918636164e-01 -2.806809241728165927e-01 -4.539808434863205622e-01
-3.401339069369792301e-02 -3.343697064173152544e-02 -8.249156966853602446e-01 8.677578326977880563e-01 -2.315788889582664212e-01 -4.397357865588071846e-01
3.099731363899072348e-02 8.488336257230007231e-02 -7.776661881356184969e-01 8.183127879680135441e-01 -3.396367311933388700e-01 -4.636928637280510190e-01
-2.547912521834966651e-02 -2.003558215524793226e-02 -8.468289847533250203e-01 -9.145104586300905058e-01 1.463074343780239872e-01 3.771800043770900390e-01
-2.734467522528170533e-02 -5.677752234310089879e-02 -8.092212468027570882e-01 8.900574239054001024e-01 -1.860398789038302247e-01 -4.161573567874667923e-01
8.047330566773322480e-02 1.737351264720099139e-02 -6.582016908764728447e-01 -8.904283676930550007e-01 3.625355959781455528e-01 2.751458952197043950e-01
-8.296775601687426949e-02 5.916068320131637149e-04 -9.553306009201856241e-01 7.837354961820418575e-01 -2.656883146084897396e-01 5.613986030484837686e-01
-8.426525117947461507e-03 -2.034540921278984310e-02 -8.048013796318497226e-01 -8.743101720052475212e-01 2.293220936741450777e-01 4.277769284113639991e-01
2.269970983143266424e-02 -5.569865905396533673e-02 -7.171447516302141834e-01 -4.410412364509671002e-01 -8.974275827133344485e-01 1.031317289217705338e-02
5.688886358371088997e-02 -2.811571135790570664e-02 -6.725984145339023446e-01 -8.641900175766689118e-01 2.990989832974951801e-01 4.046176117165952713e-01
8.640289470800169291e-02 1.784457276742073273e-01 -7.717511638244920480e-01 -7.731544136635560838e-01 3.925864470253858096e-01 4.981045414815516437e-01
-3.857941665323649100e-02 -4.823289717915410502e-02 -8.283851832834578932e-01 9.034389391584743967e-01 -2.044028946525309198e-01 -3.768521459005865770e-01
-5.617041641117555967e-02 3.980292668913631288e-02 -9.306919543461522615e-01 -8.697933882405706196e-01 2.023370090106527130e-01 4.500213290029834723e-01
-5.841113738291202340e-02 -1.715612003372645189e-01 -8.607548615979716544e-01 -9.224559319809269020e-01 7.430053375873038601e-02 3.788858459171670079e-01
3.212509799128248494e-03 -4.660937710094605751e-02 -7.605085042976008625e-01 -4.187419703986902664e-01 -9.080999575897162890e-01 -3.103103636368099126e-03
-9.579643202540450223e-03 1.450999326960755176e-01 -9.036662403644363240e-01 -8.090757099008779596e-01 2.805614087907704057e-01 5.164124238878541329e-01
-6.786794768250377363e-02 -2.096618360373145584e-01 -8.602070013941028881e-01 9.319284935380195423e-01 2.560121002686935321e-02 -3.617372817074816505e-01
-4.986296029813393205e-02 -1.234271715501672889e-01 -8.524887038336836920e-01 -9.154875999362031003e-01 1.178298490121602038e-01 3.847058370298297447e-01
-4.808636704087840275e-02 -1.346160065952228257e-01 -8.229205220535877885e-01 2.809131927781183813e-01 9.553634069710864596e-01 9.147971766354595635e-02
-1.531540435546038803e-02 -1.379790553071550685e-01 -7.644810049206004487e-01 -3.625240747042826617e-01 -9.294987155199874174e-01 -6.788544104958996184e-02
-1.739155897645185134e-02 1.128429881068639951e-01 -8.828930404344790261e-01 8.388539753494779205e-01 -2.963654717478332867e-01 -4.566087112573102846e-01
8.719917268381047193e-03 -1.947127893777850227e-02 -7.711987725474100941e-01 -8.660546215320819030e-01 2.361984432560224056e-01 4.406355500028952821e-01
-7.087559783329344665e-02 -1.096682862418017768e-01 -9.055393213621183435e-01 -9.147468244801691961e-01 9.944781074684833078e-02 3.915972165900896140e-01
1.064796033895046290e-01 1.515806494396441384e-01 -7.184654664230692989e-01 -7.685976913898331375e-01 4.106704476498114209e-01 4.905174535297619487e-01
-6.611215107322593321e-02 -3.925856129870411437e-02 -9.173259218387289637e-01 -8.968482039577108100e-01 1.534943266562948661e-01 4.148527338009946885e-01
-7.105654250973852948e-02 -2.075794567033689142e-01 -8.997001970045400698e-01 -9.135988234572520739e-01 -6.610450986110566821e-03 4.065630230545875801e-01
4.285987371985936628e-02 2.459985981094485810e-02 -7.167602919879815238e-01 8.424626465232656347e-01 -2.891431449042448087e-01 -4.545909490606891423e-01
-4.459187856621767837e-02 -2.891702411313676682e-02 -8.580033850879157376e-01 8.857112882752874450e-01 -1.899242868771588155e-01 -4.236086390478048802e-01
-8.993197014425607927e-02 -2.592874532265268539e-01 -9.105963224294405522e-01 6.403880911739483484e-01 2.899507051447963724e-01 -7.112184483466540419e-01
-2.622689086352726281e-02 -5.371375640544092528e-02 -8.203034088370096955e-01 -5.109402952903983053e-01 4.822237088192999899e-01 -7.116180923087325194e-01
-5.376670403761613787e-02 -1.704190005279251074e-01 -8.496395105400705861e-01 -9.244819053868795766e-01 7.792069085116634652e-02 3.731776688784064766e-01
9.373452333595627683e-02 6.680743156074411826e-02 -6.720601426241794574e-01 -8.074334358376116239e-01 3.650905576962307775e-01 4.634221955976264851e-01
-7.888521288867184067e-02 -2.001255832328130702e-01 -8.834883417651864246e-01 6.417874152345459660e-01 2.128233899390738204e-01 -7.367598783466710044e-01
-4.818832762956577753e-02 -1.231387017485402191e-01 -8.565572724658647719e-01 -9.113169664484965793e-01 1.033467515993312380e-01 3.985233187618710260e-01
-2.233170637863687163e-02 -1.621837007898458416e-01 -7.587960862143655616e-01 9.086102817132308829e-01 -1.077090013242042038e-01 -4.035171954189136767e-01
-7.996627562353492147e-02 9.058693801943538959e-03 -9.508785348773820534e-01 9.132499395643196571e-01 -1.788019546967919982e-01 -3.660661263793374975e-01
-7.859895733946881125e-02 -8.424914017166706959e-02 -9.304747385940221882e-01 -9.113183771903096142e-01 1.171043756122967655e-01 3.946965677677914397e-01
-1.902597804729191445e-04 -2.408915173224901798e-02 -7.697405881293669649e-01 8.686603501466717558e-01 -2.331559630792107707e-01 -4.371126776515037449e-01
7.483392661525085920e-02 2.179481687224188169e-01 -8.090171169167371668e-01 7.450983200027651021e-01 -4.835425933430890222e-01 -4.593637490617833996e-01
9.271598322262157577e-02 4.877417461775084007e-02 -6.596149032249095656e-01 -8.375950907838994874e-01 3.529743075496978300e-01 4.169455625192843296e-01
-5.746674475521290626e-02 -5.465518079731167961e-02 -8.925617173219242417e-01 -9.000625668633811527e-01 1.565791452044434928e-01 4.066575303844099376e-01
1.471548029315698780e-02 7.277830494969519948e-02 -8.144760110478371784e-01 -8.309869269441292339e-01 3.078671244312342070e-01 4.633341784742363578e-01
-7.894379768990263113e-02 -4.037954202260826686e-02 -9.374526966410638984e-01 -5.264648437508626655e-01 -7.019370876808983528e-01 -4.797072995404996765e-01
-7.593913907270959107e-02 -7.140494438323446991e-02 -9.103038796101565744e-01 9.071875102779004552e-01 -1.294645823881277746e-01 -4.003120571539804384e-01
6.009507050346264354e-04 -9.876732141320680725e-02 -7.489424184925824735e-01 -8.903867837125347684e-01 1.829827231147813371e-01 4.168077475666052134e-01
-4.718563725817314617e-04 2.801076001363638976e-02 -7.991309887700756009e-01 8.475722855421186086e-01 -2.742290983365111012e-01 -4.543342628577045073e-01
-7.970428867738806045e-02 -1.192585285928607075e-01 -9.052683218801318432e-01 9.167585338332439049e-01 -9.904161429371882708e-02 -3.869684086356597885e-01
2.768408254158714540e-02 7.851173141425850984e-04 -7.300463453091753374e-01 8.505139714907914428e-01 -2.640700364126769562e-01 -4.548549221103017071e-01
8.404692738884746162e-02 6.711466870746449209e-02 -6.890536679411400911e-01 -8.148214238075013327e-01 3.415045486296875987e-01 4.684449706951178127e-01
-7.622876044686008323e-02 -1.515255588147379762e-01 -9.087378222735481570e-01 -9.229621161809736796e-01 7.567340164859689966e-02 3.773784153574087918e-01
-8.470768200224711858e-03 -5.369093494557718865e-02 -7.854055173656340205e-01 1.018164348763201110e-01 9.823584947492171038e-01 1.568604519409803333e-01
4.109014889258323644e-02 1.049473402971777686e-01 -7.667775882628165007e-01 7.867489645929833797e-01 -3.105978484805646533e-01 -5.334370096188612020e-01
9.074867255010460321e-02 1.958841169246208214e-01 -7.654842002296313730e-01 7.575212890117998255e-01 -4.211335077436588747e-01 -4.988066412443030173e-01
-3.162173602772316156e-02 8.698006502452762523e-02 -9.084982413236949439e-01 -8.479081816016650341e-01 2.668484648186580377e-01 4.580869048519980447e-01
8.256642564782629146e-02 3.208746103731931892e-02 -6.658664541207093279e-01 -8.300185977797670533e-01 3.257999539612034257e-01 4.526847880574151883e-01
-9.000349682869034085e-02 -2.957253501418636854e-01 -9.271287065576246933e-01 -6.327175184747790837e-02 4.503400392970412502e-01 -8.906124490619310441e-01
7.576469758661844023e-02 1.281074911064816468e-01 -7.546288893887955762e-01 -7.844782827298153460e-01 -5.825294915784583472e-01 2.127280314547720930e-01
1.323199252346191242e-02 9.025074180686995517e-02 -8.354226524992079961e-01 -7.782455528466406536e-01 3.738016131075992954e-01 5.045851895493798089e-01
-1.282441447751501637e-02 -1.902317233504853544e-02 -7.975380071003421723e-01 8.699758249946085709e-01 -2.306208103147355248e-01 -4.358395413162107213e-01
1.443444534154917844e-02 -1.214540329451324480e-01 -7.076320573997865182e-01 -9.065783568832042061e-01 2.139504681742860348e-01 3.637868606738748900e-01
3.976511814567346148e-03 -7.846836574539536868e-02 -7.510861321015283032e-01 -8.851009202950005372e-01 2.018927426241045875e-01 4.193276539517278301e-01
-8.709413266567964107e-02 -1.822734492242783499e-01 -9.131255339600873322e-01 9.374546014851040665e-01 -3.055331766768925802e-02 -3.467641344399706727e-01
-6.711948178060644921e-02 -1.464284486133223540e-01 -8.684076125691185810e-01 9.164976715147102881e-01 -8.017481514210052229e-02 -3.919234837631502821e-01
1.045990149536039360e-01 1.736705887526264480e-01 -7.257411714926131907e-01 7.575471291456123968e-01 -4.210919249633838790e-01 -4.988025038568598135e-01
4.270645116289479432e-02 8.385981144662373044e-02 -7.723472042568695350e-01 -4.958729053647933926e-01 5.137654349345951443e-01 -7.001108052241052926e-01
8.492631382798192241e-02 1.805958381721119443e-01 -7.757494044611090711e-01 -7.771244075470253865e-01 3.935991612714040411e-01 4.910777488760129095e-01
-4.186865981268306919e-02 -9.654601555775076116e-02 -8.428363084240129144e-01 -9.040763617847091815e-01 1.336423041824143509e-01 4.059380083152332452e-01
4.293669611380709038e-03 7.381794482180353834e-02 -8.181723460911282109e-01 8.439312748918551543e-01 -2.861198478183178961e-01 -4.537790607154880695e-01
1.507254177810726445e-02 1.644532340400960413e-01 -8.757539519054883259e-01 -8.068641100030718993e-01 3.289722081959206568e-01 4.906603654501254241e-01
4.953184520499136212e-02 1.421487757979462419e-01 -7.876516125921101397e-01 7.956638833544078526e-01 -3.646653428825818444e-01 -4.836715542862866091e-01
1.278798043484853653e-01 1.789238792888788454e-01 -7.076520427278684133e-01 -7.812697988050693043e-01 4.165383872143470501e-01 4.648798484038186296e-01
8.437094899977033019e-03 4.397525588346962860e-02 -7.849979005990164183e-01 5.734984334641107795e-01 -1.517427480746647017e-02 -8.190661073431609873e-01
7.981289824295395574e-02 8.804567493657684818e-02 -6.968906789045214989e-01 7.945945197189194786e-01 -3.633141014445765427e-01 -4.864384986040676262e-01
6.544624834832789284e-02 1.642506576621703129e-01 -7.787436060470510624e-01 7.741888187044886349e-01 -3.982959289206149389e-01 -4.919268502513487462e-01
-3.265270317086549356e-02 -1.663408218888392798e-01 -7.812213471669759990e-01 9.115004769701996468e-01 -1.113500292125068070e-01 -3.959394543076911743e-01
-4.767275457248645182e-02 4.305464480179253123e-02 -9.156164569804210451e-01 -8.672806655203947335e-01 2.242538578719800446e-01 4.444484834534088713e-01
-7.117073801081912066e-02 -5.851013867931446899e-02 -9.037158358361983002e-01 9.022425230895997350e-01 -1.484824748607783129e-01 -4.048597092674589559e-01
5.392656591046197934e-02 9.367908666899717185e-02 -7.445380767844299585e-01 8.131634452537752633e-01 -3.381394727344317341e-01 -4.737371721555010406e-01
3.377588166883744442e-02 4.868926265526734437e-02 -7.644667022625591946e-01 -8.289750989924775659e-01 3.050694028422767934e-01 4.687568076304265974e-01
1.134185611826740159e-01 1.762306127889138319e-01 -7.146625309986494035e-01 7.403620844596905393e-01 -4.352907603808297554e-01 -5.122362129150779264e-01
-6.969594426492235761e-02 -1.434525673699001691e-01 -8.662604870393711964e-01 9.392928122777429722e-01 -1.103447093731848155e-01 -3.248893010191563069e-01
-9.699141105761056869e-02 -2.962633116337094474e-01 -9.359977332068065703e-01 9.637702503872150883e-01 3.595339585454081915e-02 -2.642995607167968330e-01
-5.027791183696315308e-02 -7.776023824443861754e-02 -8.502240517048239576e-01 8.976819506885445055e-01 -1.554681869356867030e-01 -4.123066313545539763e-01
-1.335680194262803613e-02 4.426222907650814720e-02 -8.331753331738159796e-01 8.558948191458265464e-01 -2.621503761272138133e-01 -4.457816044384215748e-01
5.710165375646839014e-02 -3.383743119933860927e-02 -6.679232120566254149e-01 -8.620032201609172384e-01 2.986262263856968580e-01 4.096008121901710819e-01
-6.007763092174926017e-02 -8.124490367049692907e-02 -8.890406427748106521e-01 -9.106262920663108495e-01 1.259256143490809221e-01 3.935765438239029468e-01
2.154971769424970582e-02 4.189975718591242015e-02 -7.664380067603711044e-01 8.435955197798638006e-01 -2.778810696133475200e-01 -4.594874428729076032e-01
8.732611535396110625e-02 1.607422831817632292e-01 -7.562094672615468083e-01 -7.746052624767061356e-01 3.948966098023884430e-01 4.940074441847748243e-01
7.965025651765883508e-02 5.456712291731232595e-02 -6.729405636423645420e-01 8.089984477003699936e-01 -3.409174605785204593e-01 -4.788494509666735843e-01
6.561158820761305022e-02 1.235236011461603445e-01 -7.470497260133427408e-01 7.952758294753814461e-01 -3.678959338311067473e-01 -4.818598727044846042e-01
9.321364935755804826e-02 1.322875536589113998e-01 -7.092716042704332313e-01 7.775519595937551154e-01 -3.910361636800941953e-01 -4.924466152043956435e-01
-6.622448807567400675e-02 -1.659254691507854318e-01 -8.619515879143979653e-01 9.249791526139655717e-01 -6.068883446235148055e-02 -3.751405504622924991e-01
8.902294148562352183e-02 1.430171144890082791e-01 -7.391988931864931223e-01 -7.767919734474634241e-01 3.931085531675808653e-01 4.919958286551693871e-01
-1.669513245398960427e-02 -4.216947615617401557e-02 -8.181443787072509854e-01 -8.995972205304014757e-01 1.628169349736471594e-01 4.052351002810136715e-01
2.940339648840524164e-02 9.209379863002735422e-02 -7.801277636101929813e-01 8.586551246045945884e-01 -5.097519219551853720e-01 5.351966977908926421e-02
1.097905005385162169e-01 1.879743408764001644e-01 -7.299643270740591161e-01 7.553120113438737127e-01 -4.252391295797594006e-01 -4.986736890932992883e-01
-3.103377011191835524e-02 -1.544979307929378320e-01 -7.808563207309414667e-01 9.119443830195337330e-01 -1.127768400055122466e-01 -3.945108701132239992e-01
7.687136282350025968e-03 -1.118508185319434245e-01 -7.278262023800273761e-01 -8.896766870906759328e-01 1.876300936927908780e-01 4.162575409385325664e-01
-3.398029641679332219e-02 -9.685577155389635956e-03 -8.450776558837581609e-01 8.774750193002152088e-01 -2.065496480172555882e-01 -4.328681478326105170e-01
-1.312340485028636559e-02 -7.775301643917234551e-02 -7.699306914392003431e-01 8.857769881383902311e-01 -1.931674451968742878e-01 -4.220017362530567584e-01
9.628101636442576439e-02 2.226847809788429777e-01 -7.810281723625063233e-01 7.266289691640730464e-01 -4.842437318156552761e-01 -4.873585429320022588e-01
-9.406299353897642004e-03 8.622220007788354915e-03 -8.219553744592285049e-01 -8.689115953908058687e-01 2.330606101724359835e-01 4.366639341432451138e-01
-2.019786928770005846e-02 3.334599856510757354e-02 -8.400678310642862856e-01 8.569475027592471372e-01 -2.518357454605268941e-01 -4.496884864248036351e-01
-1.405034351550552528e-02 2.689588959067419974e-02 -8.409746455149454958e-01 -8.569970160214598343e-01 2.517506260416688679e-01 4.496417872239427682e-01
-8.859545772736301950e-02 -1.227650226987747617e-01 -9.260951107850223796e-01 9.210210901053575983e-01 -8.653646677073696669e-02 -3.797783452225469425e-01
6.912326160104113881e-02 1.297651543625981119e-01 -7.384323436647191041e-01 6.887683001754144607e-01 -5.363117578915150840e-01 -4.878195639996242283e-01
-4.613639369765025477e-02 -2.683574245934101932e-02 -8.793785243387023387e-01 -8.851909408617325559e-01 1.912162788112832246e-01 4.241147638716276647e-01
-3.929262104681411488e-02 -1.002306896554166216e-01 -8.175709460257475358e-01 9.032612954446987974e-01 -1.419166909947475463e-01 -4.049428169120496412e-01
-5.176076941567239048e-02 -5.828398557217119580e-02 -8.609512706223156897e-01 8.962374906966531496e-01 -1.633638596782782670e-01 -4.123961804148800203e-01
-5.670556964053072302e-02 -1.750354537696160728e-01 -8.559210838637879570e-01 -9.224559319809269020e-01 7.430053375873038601e-02 3.788858459171670079e-01
5.709585659172791011e-02 7.218002801642914301e-02 -7.237917313232462568e-01 8.124503258160622465e-01 -3.409521060305352735e-01 -4.729441081932589941e-01
2.326479472322453071e-02 1.245552258542859669e-01 -8.189524507532612851e-01 8.139649685643192134e-01 -3.382807288674402058e-01 -4.722575340076644035e-01
-1.826857630901532539e-02 1.045119468301712595e-01 -8.790969159639809849e-01 8.388539753494779205e-01 -2.963654717478332867e-01 -4.566087112573102846e-01
4.224622477070519300e-02 1.498836786065711468e-01 -8.204501731450579705e-01 -7.950260267843192175e-01 3.641842292603003073e-01 4.850808838674434686e-01
-2.399010275097750861e-02 1.006171914650715992e-03 -8.468807330062435579e-01 -8.760155369877041798e-01 2.160596717633327390e-01 4.311786140263280664e-01
-9.981283151488831717e-02 -3.179184035559307620e-01 -9.492318648989596097e-01 9.637702503872150883e-01 3.595339585454081915e-02 -2.642995607167968330e-01
-5.323554790870604903e-02 5.295578456241209486e-02 -9.295253740129914011e-01 3.373954326701902318e-01 5.998797829313383678e-01 7.254712730656850406e-01
-7.657222816969143364e-02 -1.443542867822122655e-01 -9.110767370394015074e-01 -9.234670629958565691e-01 8.354270613250913691e-02 3.744718945580082781e-01
2.568075686164699454e-04 -1.378181917928165967e-02 -7.909836255335862543e-01 -8.676818205146908936e-01 2.312425094769033906e-01 4.400626775348440711e-01
-6.886671869859034567e-02 -9.098294202968711109e-02 -9.060658861750259252e-01 -9.081460518391912817e-01 1.233492657382535829e-01 4.000696279033472691e-01
5.532427549857973914e-02 3.032625989138209091e-02 -7.135613397804899671e-01 -8.293380326688210014e-01 3.146326797418211307e-01 4.617409494592073504e-01
-5.184682566413780641e-02 -1.444270374147393066e-01 -8.511087576193019366e-01 -9.200556466868271555e-01 9.349526153368942216e-02 3.804684521355631843e-01
-3.570260887174175196e-02 5.897128492374629355e-02 -9.007235877893087217e-01 -8.590874477406700294e-01 2.427692481332688057e-01 4.505905561540644033e-01
7.838381275487912858e-02 7.849155576367183862e-02 -7.070761597748235205e-01 -8.128975017370136946e-01 3.421250506037983863e-01 4.713258972505864897e-01
2.227060208763271057e-02 -7.242009666550848490e-02 -7.160304953024807517e-01 -8.727466707272903967e-01 2.323363567046544675e-01 4.293402684207927034e-01
