-8.618833777850956612e-02 1.271652794369180495e-01 -9.322846842707034343e-01 7.988764128601697490e-01 5.985972452677341682e-01 -5.897300173424807612e-02
1.485366467476595571e-02 -7.294324995096483980e-03 -9.556871810882735518e-01 -7.788929843439756917e-01 1.713076033903779272e-02 6.269228469197319908e-01
-3.034371350796451032e-03 3.959024472787460447e-02 -8.319967337400571150e-01 -8.008214722930439011e-01 -5.943562758289372416e-01 7.365858332304153766e-02
9.098819837856422788e-02 -1.289290603110886391e-01 -8.533343283895531428e-01 8.621645282574237346e-01 4.708781470489459831e-01 -1.869387515910092001e-01
1.399770108970995255e-03 -2.887411231253965427e-02 -1.050770197460789479e+00 3.377518575586852534e-01 -5.506113112503379092e-01 -7.633812066319428657e-01
-4.660058272686132264e-02 1.044461977282897108e-01 -7.918700823456303883e-01 -8.263916494992922246e-01 -5.593569306752966819e-01 6.478167752806449076e-02
6.841344067832320908e-02 -1.634479781625289563e-01 -1.045468244104595268e+00 -9.002889072019329975e-01 -3.505454441234356344e-01 2.580654474613989779e-01
9.184966490493465252e-02 -3.487353475176917517e-01 -1.122945127594858539e+00 -2.557621050120766348e-01 5.450795477924932353e-01 -7.984197093121653266e-01
8.247206644512757034e-02 -1.332225270030954201e-01 -9.020432519689861595e-01 8.735026765535462978e-01 4.464220546786325516e-01 -1.941659680538746768e-01
-9.401504340987856811e-02 1.423662089585523982e-01 -7.976146946797354476e-01 7.496842376933333663e-01 6.617285608424018362e-01 -9.426320576406639618e-03
3.364862647363456305e-02 -3.347554561379247756e-02 -8.906030893562293382e-01 5.903558698401497606e-01 -7.333109313006892505e-01 -3.372462379036951230e-01
-8.091324033023471196e-02 1.383652254395298375e-01 -7.557027570213425971e-01 -7.304870952471627099e-01 -6.828689946276242928e-01 -8.862271357852224973e-03
-8.940214435213097999e-02 1.392024550282749129e-01 -9.593318965719903613e-01 -7.672616453389954350e-01 -6.341821986546101186e-01 9.551181341227892030e-02
-2.377342060291095724e-02 5.976923497087822251e-02 -7.835700064381752039e-01 7.839260680631733313e-01 6.186665201776755385e-01 -5.207356932512589853e-02
-9.309179820339195943e-02 1.519493243297513063e-01 -7.889616697631918196e-01 -7.284318236934126389e-01 -6.850037017707388820e-01 -1.253023507655134927e-02
3.509562209695334112e-02 -2.743282667235256295e-02 -8.850773347752062259e-01 -8.458592115163217073e-01 -5.170236680415664088e-01 1.311820146888686422e-01
-5.708987019429825373e-03 -1.733183813485010549e-02 -1.072779704344839713e+00 -8.536636978516669583e-01 -4.685113989635426579e-01 2.274980439727818382e-01
-5.591236302532297253e-02 8.543432366217704188e-02 -9.393883646340096538e-01 8.144584609869227609e-01 5.746822045584459859e-01 -7.998611811219379086e-02
-2.550833646053086989e-02 5.797902108320637099e-02 -8.289497336188672572e-01 8.018183761985080427e-01 5.933402691342829494e-01 -7.095503233770236728e-02
7.185241356847438254e-02 -1.013957038833535607e-01 -8.725296165294941231e-01 8.647673040809366052e-01 4.723403149563790704e-01 -1.705055326360339352e-01
-6.513611411676233087e-02 1.110334836073531978e-01 -7.258110381880067408e-01 7.391707739976925984e-01 6.733369087229585936e-01 -1.561967410230135148e-02
-1.660613508528411067e-02 4.042614779065559910e-02 -9.436656439701761601e-01 -8.304761919254612934e-01 -5.441724856503873387e-01 1.191033186190176563e-01
5.496705408043126018e-02 -8.484849310527355082e-02 -9.535455219862843945e-01 -8.716070614153357266e-01 -4.548159133187984482e-01 1.828759565468083825e-01
-8.603039076658150486e-02 1.306997986028887448e-01 -8.754148117029113552e-01 7.684689621362673639e-01 6.392005500493808112e-01 -2.963293859503171937e-02
-4.087287869908474286e-02 6.563641840176707987e-02 -9.986801044088997603e-01 -8.296180769049985582e-01 -5.460754387438522262e-01 1.163420030477417266e-01
4.519342554553314878e-02 -7.879463850279322390e-02 -9.450532778680185153e-01 8.723773491481696674e-01 4.539472111987427616e-01 -1.813551491910175284e-01
3.175932988654297379e-02 3.283006009683240526e-03 -7.309229939817862842e-01 -8.238550085506533005e-01 -5.604250687419709553e-01 -8.477421312852022328e-02
2.176873349576296732e-02 -3.497212418474737045e-02 -9.197743684064422220e-01 8.636019956991799473e-01 4.728303785856690644e-01 -1.749943602260547459e-01
-4.910892897841907107e-02 6.529315929419335363e-02 -9.995243186949874792e-01 8.344757012257431050e-01 5.405954655670577313e-01 -1.068028401876100347e-01
2.241859006124405709e-02 -9.404547954563387616e-03 -9.217245804693218192e-01 -8.267431019627733413e-01 -5.354272973281678505e-01 1.726657251246600799e-01
3.986833720503422072e-03 4.024332040995545062e-02 -7.318982459242032723e-01 -7.855895655198635863e-01 -6.178506854759997502e-01 3.331013364051244735e-02
8.312961633966331476e-02 -9.732171489583392454e-02 -8.442961719472595883e-01 -8.607632713499890897e-01 -4.860989938842105174e-01 1.509780078012137039e-01
2.475754475798174967e-02 -3.826063473156109812e-02 -9.132935565771547193e-01 8.054211099279156016e-01 5.815912155410281059e-01 -1.142300034491538913e-01
2.235984239114169325e-02 -1.637155936542145432e-02 -9.102844986932755456e-01 -5.896483995998861305e-01 2.914761329762369790e-01 -7.532306610557698567e-01
3.353152188772424991e-02 -9.566301894782230919e-02 -1.069461227866335795e+00 -8.884744408882744304e-01 -3.929417898368522954e-01 2.370863085209242160e-01
7.344012340664837768e-02 -2.176004609573641280e-01 -1.059186167104289700e+00 9.761624247392691744e-01 7.090831615568887747e-02 2.051314974037758976e-01
5.900918640444466345e-02 -8.458939833822551324e-02 -9.335412442605754979e-01 -8.700307904035424755e-01 -4.571716243035330307e-01 1.845007579427686006e-01
1.301053510233413091e-02 1.191018097211032217e-02 -8.616805532902893638e-01 -8.262742300954915020e-01 -5.520010695128948486e-01 1.120969042245270053e-01
-8.172681401937814671e-02 1.360652966457170931e-01 -8.905238329366139682e-01 -7.661506062757337254e-01 -6.417270711243312498e-01 3.463545422703027260e-02
3.243616702936442941e-02 -5.384831571364961933e-02 -9.569952715884475491e-01 5.934177969029229560e-01 -3.033911511360417035e-01 7.455260744811202933e-01
-4.268144790060401927e-02 9.079234934533711443e-02 -8.404333813982423074e-01 -7.898194995005061170e-01 -6.115517921598208062e-01 4.679277417380878212e-02
-4.236563857562537783e-02 8.089204990085735458e-02 -7.447942305410573116e-01 1.468141252399822183e-01 9.621449747646139139e-01 2.296141549757315103e-01
5.042900012938972970e-02 -8.082044679227141926e-02 -9.243533001504896651e-01 8.622821347142440862e-01 4.772346066987235291e-01 -1.694598782064967724e-01
-9.975692118016518672e-02 1.452356835077651676e-01 -9.229632209431388734e-01 7.915137797045057599e-01 6.101195646152598462e-01 -3.549723104092433745e-02
-8.164966618310705651e-03 1.642739554093366073e-03 -9.675932619740981178e-01 8.241675103324985763e-01 5.612319542436158271e-01 -7.593818833908827504e-02
2.428508827708183299e-02 -1.664829775757173391e-02 -8.531707429727362069e-01 8.340425175263469493e-01 5.376564525755841428e-01 -1.236875820854785174e-01
-8.628218832858601528e-02 1.269202251877576682e-01 -9.360434176361420722e-01 7.988764128601697490e-01 5.985972452677341682e-01 -5.897300173424807612e-02
7.375318633447214278e-02 -2.140090668260315465e-01 -1.051378142926880699e+00 8.649898946717750059e-01 3.825806124752162418e-01 -3.246914798293913385e-01
4.209367058486940434e-03 -3.699612760871804490e-03 -9.852787244523860677e-01 -8.546565165089555771e-01 -4.976774886779080087e-01 1.479167199880648820e-01
-2.343882455318636523e-02 6.291729645906007917e-02 -7.349799490140929148e-01 7.634554475203457757e-01 6.443156796100495409e-01 -4.464397675105165331e-02
-5.332909787817703695e-02 1.021249078853599251e-01 -8.670545950068787588e-01 -7.845685187183308873e-01 -6.180165101103863856e-01 5.007826541627113937e-02
5.386817996956778758e-03 -3.046686281952194417e-02 -1.063198527905468760e+00 -7.567014845756581121e-01 9.892159918039535038e-02 6.462332245069022374e-01
8.552733844965527965e-02 -1.171888049038683211e-01 -8.481579183152039292e-01 8.535348594060546690e-01 4.888915754433525440e-01 -1.801756677223729508e-01
-4.779337494822162580e-02 7.611967308021903855e-02 -9.246036159490277351e-01 8.112426079924666134e-01 5.783831629122109241e-01 -8.578081275697886643e-02
-9.442645183624667066e-03 5.471062024462412798e-02 -7.671908364347101994e-01 -7.842997219200106285e-01 -6.187519464195024854e-01 4.494413196704256930e-02
1.076304297861734906e-02 -1.440460630578784332e-02 -9.332318948984857920e-01 8.512232317212939936e-01 5.065809687012792217e-01 -1.370938799787568552e-01
5.594784594103634212e-02 -9.015243608838455214e-02 -9.807209230703991532e-01 -8.521085661094618402e-01 -4.682928219484994159e-01 2.336938691416347580e-01
-6.142300258832104204e-02 1.069025392027138921e-01 -7.274576898277351766e-01 7.476682533945937514e-01 6.639259274049550408e-01 -1.394796706862316826e-02
-8.017102563335071208e-02 1.130828157138900336e-01 -9.461192395200158645e-01 3.736945431420887198e-01 8.102980807690728371e-01 4.514082506199711964e-01
5.621138454534771456e-02 -8.854616530177526756e-02 -9.162715572835706812e-01 8.716426518544366786e-01 4.569111965200496894e-01 -1.774013696756074898e-01
4.493345145675151087e-02 -7.934121766886410854e-02 -9.476685842364045431e-01 8.720935243502913048e-01 4.537123844548476836e-01 -1.832974549157302402e-01
-8.916962382833787393e-02 1.370696160097589211e-01 -7.368731819909313252e-01 7.305775214902689996e-01 6.828254815610300676e-01 -2.418020695285618468e-03
-5.516839124387813015e-02 1.139071219226385767e-01 -8.171324690235263200e-01 -7.669526408472838730e-01 -6.404700696676975946e-01 3.977105174912353575e-02
5.598973139254230513e-02 -6.265678873900069890e-02 -8.359181880635724315e-01 8.482842652476895173e-01 5.098749950690113497e-01 -1.429730559810590829e-01
3.210773214273932030e-02 -3.574860246426112692e-02 -8.883579007143166395e-01 5.903558698401497606e-01 -7.333109313006892505e-01 -3.372462379036951230e-01
6.322806874342823402e-02 -1.308136920049919882e-01 -9.802989634084015025e-01 8.854596084661843225e-01 4.118452599539601522e-01 -2.152783398959740857e-01
4.782667551683060514e-02 -5.016946112555506487e-02 -8.384539409505781249e-01 8.408978178320171137e-01 5.235631165903426032e-01 -1.370128567381873330e-01
2.587989510771331395e-02 6.616979020158886109e-03 -7.804711610031083158e-01 -8.088440603888312763e-01 -5.826073955399112547e-01 7.962354322629698611e-02
8.018430654905109312e-02 -1.094708081716638248e-01 -8.530758330782087784e-01 8.615863060424515663e-01 4.787820995331874552e-01 -1.686319614032754377e-01
-8.348105099107337723e-02 1.246611076971015086e-01 -8.331793611431904667e-01 8.148654583021862630e-01 5.610567125106887820e-01 -1.456353329816150455e-01
-4.108373079641779863e-02 8.343026218836661900e-02 -7.386441625381270359e-01 7.544525137793437475e-01 6.560275217519068169e-01 -2.071943908701298631e-02
6.492186541084521423e-02 -4.907341799258187892e-02 -7.666244378081525923e-01 -8.768693922169852328e-01 -4.796335034866535119e-01 -3.243102413019060409e-02
7.030545564278471715e-02 -1.801259223856645220e-01 -1.023644379169392327e+00 5.764238502079673809e-01 5.192579326733861578e-01 -6.309570066709647707e-01
-2.068799615196770941e-02 6.873260136037208368e-02 -7.700105521599928116e-01 -7.854981802976372940e-01 -6.169041860616905071e-01 4.921213233201350568e-02
-6.545019101450974541e-02 1.110959297494936715e-01 -7.411756114913264915e-01 7.429674128796682764e-01 6.693178227013583115e-01 -3.616021737387901686e-03
8.437725990863882350e-03 -4.743942737932960868e-02 -1.043713353294565938e+00 8.744349833819429207e-01 4.482567084014925651e-01 -1.855515648300505305e-01
-6.209971449201664301e-02 1.002847245820019662e-01 -8.146528965800868827e-01 7.205920501415005175e-01 6.922867117698252581e-01 -3.855134212698416163e-02
2.257335341818440810e-02 3.827009284668870647e-03 -8.285402019659450223e-01 -8.238786090508604110e-01 -5.585335782518423553e-01 9.625112733683897914e-02
4.218270355982121911e-02 -4.623323430454855804e-02 -8.840640062202150817e-01 -2.901476209458491717e-01 9.139167427905519059e-01 2.838495117250902089e-01
-9.420598865239776520e-02 1.532123881732377624e-01 -8.038621323808331498e-01 -7.463683286868874056e-01 -6.654929334385877304e-01 7.312556081541435500e-03
4.015175162746008330e-02 -3.408314809325971306e-02 -8.786862135129318574e-01 -8.458592115163217073e-01 -5.170236680415664088e-01 1.311820146888686422e-01
6.221894115544707865e-02 -9.095193883172389415e-02 -8.925376658179328127e-01 8.614366423628655456e-01 4.803018389606391048e-01 -1.650365253076442607e-01
-1.196313700584084455e-01 1.709036273475887935e-01 -8.438696376683276767e-01 7.602047505843102515e-01 6.496760797257159492e-01 3.119073784272685407e-03
4.764018563926899347e-02 -6.777908776122511247e-02 -9.651725865781013436e-01 -8.519754533554323439e-01 -4.752829688129956431e-01 2.196450009358522359e-01
-8.161301271197379803e-02 1.392420683149454552e-01 -7.855890685523232442e-01 -7.471935886091750634e-01 -6.645817109520284482e-01 5.735033514929722617e-03
-4.030164633483392100e-02 8.245553930538764009e-02 -7.410283703865325755e-01 7.544525137793437475e-01 6.560275217519068169e-01 -2.071943908701298631e-02
-3.218867085154929197e-02 4.167889235628356726e-02 -1.039121180478328688e+00 -8.368770542159336134e-01 -5.253692810269531277e-01 1.537007309028926294e-01
-2.547016523708959743e-02 3.768523780095928838e-02 -1.014317956245627705e+00 -8.458267474862483093e-01 -5.138790125028763756e-01 1.431973245067898470e-01
-2.139498725662845532e-02 2.674685679024918147e-02 -9.769143658570741406e-01 8.430402760319650746e-01 5.211995616026924294e-01 -1.327934861847887837e-01
9.392172083471726773e-03 -4.490007643097695955e-02 -1.069831199764591068e+00 -8.750751379094370286e-01 -4.357991661024572805e-01 2.105293087367704208e-01
-2.864732291525588087e-02 2.571698753106856083e-02 -1.027830935263426948e+00 8.531965361497761968e-01 5.045948207165974475e-01 -1.320595986969834157e-01
-6.033502755870658735e-02 1.193356655181697368e-01 -8.253660729959098052e-01 -8.018781317005833076e-01 -5.862752086730323997e-01 1.152078191607419089e-01
1.263284039187442462e-02 4.567628065788085709e-03 -9.006456690509796470e-01 -8.392537887839266464e-01 -5.279119018224851523e-01 1.302386345367263221e-01
8.406842467931094354e-02 -2.159225379705955183e-01 -1.066420926482430920e+00 -5.666979484716112569e-01 -5.216589125286031914e-01 6.377502757173392212e-01
8.600533297987408843e-02 -2.015982116365644949e-01 -1.044467961079533325e+00 -9.761830375490218037e-01 -7.199162816589846359e-02 -2.046555219767788036e-01
7.983306584892237157e-02 -2.286750452669645273e-01 -1.073709736224972122e+00 6.092642883443799562e-01 -3.524548277456532319e-01 7.103327539590147399e-01
-6.951857762721085077e-02 1.148515005102739850e-01 -7.856314161420676623e-01 7.497417132862934652e-01 6.616457460327568318e-01 -1.059575930691149422e-02
4.823934611643183185e-02 -5.640113392289570343e-02 -8.354725330992874843e-01 8.090394522383018705e-01 5.780482657164109916e-01 -1.063737149120860814e-01
9.523542338471494006e-02 -3.141104776412685928e-01 -1.121472217200769617e+00 -5.914008804482862036e-01 -3.922133412862996993e-01 7.045663159149947452e-01
-2.005534549757780408e-02 5.662867021899573722e-02 -7.658559519846754871e-01 7.808482752904386537e-01 6.224411309896167310e-01 -5.331987835989666219e-02
-3.685908474076354108e-02 9.428248628282920318e-02 -7.392562508228939233e-01 -6.481217857678058802e-01 -7.586823749803227601e-01 -6.587264005159669533e-02
-1.114312454613063524e-01 1.710093957070845383e-01 -7.774604164004250695e-01 -7.085059469478052208e-01 -7.053843591808590663e-01 -2.126567569118457263e-02
-1.128596356729113376e-01 1.735189487646036643e-01 -8.448406601947910932e-01 -7.355770090673348083e-01 -6.774263752445406350e-01 4.468764325480153315e-03
1.684992345167075217e-02 2.078635979607748943e-02 -7.651908266121518754e-01 -7.967017376711836851e-01 -6.016064086130611388e-01 5.775872494619906788e-02
-1.199311759265620642e-01 1.698313950332578093e-01 -7.632472976670766629e-01 7.257205684328851270e-01 6.878018114022468321e-01 1.607248534726040540e-02
-4.740692310268047188e-02 7.244072643441000492e-02 -1.012800750120660398e+00 -8.241934978170745163e-01 -5.539639953616551926e-01 1.175966411042756038e-01
6.879439416867462465e-02 -7.595641022800300735e-02 -8.569590098155088764e-01 -8.592475810771480482e-01 -4.879524881162747296e-01 1.536097775345252603e-01
6.685034257045090189e-02 -5.248619514463584435e-02 -8.039022505828905540e-01 -7.960129202052300679e-01 -6.009157224994661206e-01 7.255153560943064517e-02
8.261597602853958111e-02 -1.284372385374591974e-01 -8.900718830416853855e-01 8.671166225558994967e-01 4.579033013700690713e-01 -1.960442028769050216e-01
-3.355778481505247712e-02 5.961976421470909643e-02 -9.013409031829151541e-01 8.114173409200848841e-01 5.773417512332504886e-01 -9.098571941300655219e-02
8.832812731263529893e-02 -1.588469578599605581e-01 -9.305891144427693717e-01 8.830169157892526766e-01 4.186894967309024440e-01 -2.120854350427191781e-01
1.687696465730129797e-02 6.333379924527609943e-03 -8.606427818921636996e-01 -8.262742300954915020e-01 -5.520010695128948486e-01 1.120969042245270053e-01
-4.550573884583723749e-02 8.125849567830772946e-02 -8.564787197625757242e-01 7.848017751201381564e-01 6.175555485998838190e-01 -5.207031939384014485e-02
-2.870197371904152292e-02 6.825628675019140834e-02 -8.808124489220431341e-01 -8.024853091975470143e-01 -5.922483043487796195e-01 7.252085574586597527e-02
6.289794735353117228e-02 -8.954274462724309824e-02 -8.848200863888815437e-01 8.612436575397149907e-01 4.834009911176218588e-01 -1.567891709720880544e-01
6.504432262957747513e-02 -1.750414946633496449e-01 -1.030166141769838450e+00 9.272830238970795058e-01 3.170463444771785544e-01 -1.990673480155560060e-01
-1.989857883260114785e-02 3.673979371008794653e-02 -9.826617226251976867e-01 -8.426502547479068905e-01 -5.223236340450807536e-01 1.308379512650212351e-01
3.477471439973705419e-02 -5.019273546090628757e-02 -9.163040111541072008e-01 8.562332198299242858e-01 4.927679481460895405e-01 -1.550626406958591497e-01
6.098569328024561892e-02 -1.062611473472811624e-01 -9.751939847492436808e-01 -8.798437458294194879e-01 -4.296900997628643193e-01 2.030797899610777002e-01
3.493749518912096091e-02 -9.933443895933335988e-02 -1.070277314669959123e+00 -8.884744408882744304e-01 -3.929417898368522954e-01 2.370863085209242160e-01
9.033986121292290894e-02 -3.015152687914944840e-01 -1.116740399265210071e+00 1.593791138680795971e-01 -4.663953410388371190e-01 8.700998126191572535e-01
-6.018969483083645711e-02 8.374854492615169121e-02 -9.903052920263528680e-01 8.201047703456805227e-01 5.647158182144923488e-01 -9.232665007783415201e-02
1.171434044102885423e-02 -3.390318256964924143e-02 -1.046630575601459556e+00 -5.328260720022807151e-01 -7.662870295636189377e-01 -3.590272487112722288e-01
1.584209863485337710e-02 5.316118246705654055e-03 -9.044308269741582196e-01 -8.547138810765533279e-01 -5.114692324073657481e-01 8.867584674349317242e-02
8.627519239228505221e-02 -1.664116885637735854e-01 -9.835319950452433568e-01 -8.984500116909419631e-01 -3.755601335097084603e-01 2.274690365977664053e-01
4.666341193486926199e-03 3.983672404828764169e-02 -7.190538978626481725e-01 -7.881916899656949971e-01 -6.154012291553195846e-01 5.931865064478392818e-03
2.290433377599044619e-03 2.005839795750423600e-03 -9.223493343208818418e-01 8.395566782521221016e-01 5.290624705940621952e-01 -1.234402131040346351e-01
3.789576561506441399e-02 -5.538418381716747607e-02 -9.382238395102080464e-01 -1.708773559272670495e-01 5.359032090055059205e-01 -8.268063133581571300e-01
-5.242642928272165520e-02 9.642404481601873911e-02 -8.138118298204380929e-01 -1.970582695754277414e-01 5.724619791358405152e-01 -7.958990644772832024e-01
3.452180129918882429e-02 -5.413847900944698810e-02 -9.304499093736406934e-01 8.579365483934260350e-01 4.914457726762199719e-01 -1.497529013056099201e-01
-2.349840718352562072e-02 5.060615467169898157e-02 -8.536550826531449365e-01 4.836687910030629811e-01 7.303638946786999986e-01 -4.823205178710479601e-01
9.552633567291361066e-03 3.284160844445091487e-02 -7.379997231864746654e-01 -7.824106199597219424e-01 -6.215782670720528813e-01 3.839374529721394785e-02
8.393326806439897758e-02 -2.120031260982143395e-01 -1.044400860557722410e+00 -6.024121737580558911e-01 3.349463636077804618e-01 -7.245070782359676054e-01
5.805989606706511014e-02 -1.111956478274926108e-01 -9.773666803545831838e-01 -3.382438427042031570e-01 9.339801570315955370e-01 1.152049006940690373e-01
2.274522132907160279e-02 -4.758522144092940803e-02 -9.730927128818385174e-01 8.636824571104453341e-01 4.756527239153467979e-01 -1.667546086666708560e-01
-1.152204464568262476e-01 1.658713035215257092e-01 -8.219503424339366093e-01 7.420762837278064294e-01 6.702996817009846398e-01 4.596285487914451330e-03
-5.433733320236572989e-02 9.924420875762784977e-02 -8.037830846788860395e-01 -4.436941761073111001e-01 8.208491096435714951e-01 3.596417902383011733e-01
4.159104948653822437e-02 -1.074688395492653797e-01 -1.025729776856167730e+00 8.869844549819979607e-01 4.123426244726886569e-01 -2.079233913326322403e-01
-1.212767748995385031e-01 1.711271108989952938e-01 -7.573274332916543061e-01 7.314033339643112308e-01 6.817734067677986287e-01 1.530310067011041858e-02
2.232219224945990177e-02 -1.497671367003806410e-02 -9.172116844932612922e-01 -8.485342644669565670e-01 -5.097799926117771996e-01 1.418236974495339364e-01
-1.034626034888687374e-01 1.622619387466925078e-01 -8.814959171817540184e-01 -7.502400701108435932e-01 -6.608347783021567556e-01 2.091011684366557780e-02
-3.112741447185382940e-02 2.990124332724571760e-02 -1.027643644186886362e+00 8.481039151282424582e-01 5.127206491498299545e-01 -1.335562992880670319e-01
-6.323048554264951160e-02 9.889941042122234183e-02 -9.108267797179893099e-01 7.989999591704080029e-01 5.975812549951702302e-01 -6.705004790515496638e-02
-7.502243270370888284e-02 1.185821684865306230e-01 -8.519346342577757136e-01 7.674748307062305708e-01 6.403028126620019522e-01 -3.153874330996297298e-02
-9.720229768546236049e-02 1.529715553120014060e-01 -9.183252921941770230e-01 -7.593692902176701898e-01 -6.494428534923933904e-01 3.977764600839694964e-02
2.744181402085776530e-02 -1.007074789089456579e-01 -1.077029054428870092e+00 8.534626941251026722e-01 4.725761103658139284e-01 2.197117421719638752e-01
-3.303277098505335435e-02 4.111463697235163278e-02 -1.045285099057459810e+00 -8.294348580840650298e-01 -5.320959523091614018e-01 1.700344486604795646e-01
-4.351602443887973848e-02 9.568559611597182712e-02 -7.800567680044918628e-01 -7.653275039308939931e-01 -6.427448546334603163e-01 3.395384468833211045e-02
-4.144659392216674260e-02 5.775373610068343377e-02 -1.034200797249275050e+00 -8.271135645984587503e-01 -5.346934549595866448e-01 1.731648361550680582e-01
-8.959168818409574478e-03 3.172670076052859500e-02 -8.169918872583304958e-01 7.488145609606540187e-01 6.618774107346134805e-01 -3.456944391434131625e-02
8.227416164138288968e-02 -2.755902083157442117e-01 -1.085342345427331434e+00 8.829554207907135410e-01 2.988684911443530989e-01 -3.620322498029580061e-01
7.908325080008474575e-03 1.582314012497611569e-02 -7.705961155695353337e-01 2.437599080613528091e-01 9.495501243191450946e-01 1.973212320745462156e-01
1.479410767785988012e-02 -1.683160819794219179e-02 -9.357662943625552066e-01 3.715351163285380287e-01 -4.929798726768409578e-01 -7.867226337599964037e-01
4.600748416182889877e-02 -1.016776648424284890e-01 -1.030241613577911552e+00 -8.833015593898120299e-01 -4.181384853305638583e-01 2.119871747653333249e-01
9.083227242765845588e-02 -1.357997914625504732e-01 -9.065389556143961247e-01 -8.821984214411959790e-01 -4.282145117926695055e-01 1.958526923400020492e-01
3.304617513548278266e-03 2.772285719751538952e-02 -8.517321284765595468e-01 -8.160171236444799803e-01 -5.710785065529941917e-01 8.936102770330626999e-02
-7.688822763340681654e-02 1.200111404873213800e-01 -7.926218309376666937e-01 4.329305034136466945e-01 7.930667023295119300e-01 -4.285048247922068620e-01
2.196656487857757967e-02 7.318336906527210875e-03 -7.305968960941749968e-01 7.742701872096428017e-01 6.211701454444586989e-01 -1.210509298058248667e-01
-5.216032954226527268e-02 7.759080625305486700e-02 -9.565304938749642494e-01 8.211047875322211587e-01 5.627767366107757629e-01 -9.523272873015488360e-02
1.357752494339044616e-02 -6.244255202430876867e-02 -1.054622094338364624e+00 8.844532791187267318e-01 4.296319843766241431e-01 -1.820954558926046463e-01
-1.257882635115268044e-01 1.774945484072664448e-01 -8.070669689668720226e-01 7.788487491338039748e-01 6.271642596415804016e-01 7.721230532581542169e-03
9.542855737325986465e-02 -1.629469469831084649e-01 -9.412407929741504198e-01 -8.971295748228468314e-01 -3.838839361149998797e-01 2.186130132700994932e-01
-7.252160475734302503e-02 1.188890204632500891e-01 -7.494516971626631330e-01 7.372746533762962740e-01 6.755724892787690061e-01 -5.281781758953120985e-03
-9.529198263031410376e-02 1.437255528585601738e-01 -8.037448196784033883e-01 7.496842376933333663e-01 6.617285608424018362e-01 -9.426320576406639618e-03
-7.986562706871037920e-02 1.165779356238136333e-01 -9.546265541408613942e-01 7.991755961972399902e-01 5.984035499803732616e-01 -5.684679246600274349e-02
2.802880464731686422e-02 -1.017937342926038824e-01 -1.073811693438416537e+00 8.996424440984878146e-01 4.286080169893667913e-01 -8.329850268127138302e-02
-5.895341426614418567e-02 1.069797728035319917e-01 -8.955505481821790514e-01 -7.840535086619078164e-01 -6.188924097276607972e-01 4.724701828095373424e-02
-1.001690583287687952e-01 1.577845319083207576e-01 -7.375031879128226553e-01 -6.991470788140374815e-01 -7.118911610702557402e-01 -6.636517894077612056e-02
1.926109585597078275e-02 -1.089015590274745870e-02 -9.207569269282092073e-01 -8.419032371672952042e-01 -5.249956630837586680e-01 1.248138333297777736e-01
4.954187681754973482e-02 -7.047025192348514711e-02 -8.991441343104938921e-01 8.624946003441266162e-01 4.790841623019431728e-01 -1.630381237891025958e-01
9.570254164976806088e-02 -1.279464795171294522e-01 -8.799164477838699039e-01 -9.012599507141102473e-01 2.559213434733731418e-01 3.496208906710001063e-01
-5.184775913752693449e-02 9.026945248531154098e-02 -7.762161951370712965e-01 1.706788970197088140e-01 9.562830034011124969e-01 2.374690117010710144e-01
-9.401391362531343054e-02 1.406458919061842339e-01 -8.683482457962198309e-01 7.703210192896109421e-01 6.370893234005351458e-01 -2.688347540150404572e-02
-9.443670055876017544e-02 1.427671938076683356e-01 -7.317131159682018771e-01 7.302376696650100252e-01 6.824064059850193376e-01 -3.277869541065678294e-02
4.526209056635370487e-02 -8.054320990020932824e-02 -1.007344776908882800e+00 -8.809913211842711478e-01 -4.157412611996476048e-01 2.258616738938209467e-01
3.341464260618964149e-02 2.210383963330009576e-04 -7.476030379530126391e-01 -8.085234775796964479e-01 -5.842229905018831992e-01 7.052151140942884699e-02
-7.963394583104586866e-02 1.272957531295716982e-01 -7.202383027039583885e-01 7.408863465829923500e-01 6.677650363188746274e-01 -7.195330233532100384e-02
6.583424238207026546e-02 -1.457552162230410786e-01 -9.973782007383416026e-01 8.907791772618688375e-01 3.914731021009664191e-01 -2.307840282344382210e-01
1.016564451916951786e-02 2.806857865505048288e-02 -7.187724845162688503e-01 -2.077568976851899563e-01 1.670689451700455297e-01 -9.638075736494260415e-01
-6.245780484797955334e-02 1.079205194871292045e-01 -7.332597020784125119e-01 7.391707739976925984e-01 6.733369087229585936e-01 -1.561967410230135148e-02
4.069906977235278334e-02 -2.838153236639432211e-02 -8.520721298714445391e-01 -8.354000199769070489e-01 -5.357005939769184932e-01 1.230108947831856647e-01
7.994388203503131896e-02 -1.350842444209393312e-01 -9.173662926766361636e-01 8.789446401773343132e-01 4.338366916610141844e-01 -1.980960486031012602e-01
-1.601317635471596890e-02 6.336349049326986393e-02 -7.627249689381834230e-01 -7.842997219200106285e-01 -6.187519464195024854e-01 4.494413196704256930e-02
5.302833843177545692e-02 -6.031595583731078070e-02 -8.451407012048036682e-01 8.482842652476895173e-01 5.098749950690113497e-01 -1.429730559810590829e-01
4.558378846562485820e-02 -1.691879086561800041e-02 -7.439735926480631756e-01 -8.653584998782255511e-01 -4.977259518262393545e-01 -5.851105508509461817e-02
-5.483645621609806869e-02 8.539851050550197054e-02 -9.286902555074213472e-01 8.144584609869227609e-01 5.746822045584459859e-01 -7.998611811219379086e-02
9.179187250544817989e-02 -1.531911977468631003e-01 -9.050987264173796509e-01 8.785237715445705087e-01 4.292357150307541946e-01 -2.096489536657415997e-01
-3.457241279688182123e-02 7.660987572648331190e-02 -9.003386261344799024e-01 -8.194923038116052050e-01 -5.047024428386878703e-02 5.708634849379262688e-01
-5.685776286841254940e-02 7.626460219894300174e-02 -1.004868682321490292e+00 8.391523560785448810e-01 5.367822840359914860e-01 -8.768182726728920851e-02
-7.045638354788751057e-02 1.136027401816690624e-01 -8.417977082145514656e-01 7.675898202370521339e-01 6.402030195799430778e-01 -3.075648857026140603e-02
5.228179605784868955e-02 -6.518848076328734309e-02 -9.142774123969267253e-01 -8.637951102449263896e-01 -4.779560027440763470e-01 1.594241730662568080e-01
-1.218022534421256756e-02 5.791676283427064226e-02 -7.708237109323268221e-01 -7.842997219200106285e-01 -6.187519464195024854e-01 4.494413196704256930e-02
6.750950228155389032e-03 -1.578666733148692547e-02 -9.624753243039720907e-01 8.534185854678538741e-01 4.986999794778286810e-01 -1.515752237236031030e-01
3.964931078172433815e-02 -1.107618197452679004e-01 -1.040170156432945303e+00 8.931917660630787070e-01 3.977969291316902911e-01 -2.096808818431367127e-01
-3.956153819787690956e-02 4.879634078584778323e-02 -1.006655889551996585e+00 8.391035794967677264e-01 5.307504101181234057e-01 -1.192022861993647237e-01
4.713711317581032595e-02 -9.551081698046505475e-02 -9.766280832712087578e-01 8.774071029657978249e-01 4.333160290123483360e-01 -2.058980200636605085e-01
1.356589994229778079e-02 -4.154427193065051566e-02 -1.003682508698196418e+00 8.667016622836463124e-01 4.672199634752185471e-01 -1.747390463662303606e-01
7.575918237503004304e-02 -1.521792778781821120e-01 -1.012989271640514000e+00 -9.756226975984627625e-01 -6.995336784858474655e-02 -2.080069187727634494e-01
-5.312091660395218407e-02 9.601160635339481275e-02 -7.766028781302908301e-01 7.671886610124749595e-01 6.406435439944442312e-01 -3.158176613371024843e-02
2.219106784490905426e-02 -3.414711645071824564e-02 -9.153119096618750339e-01 8.879642767431329409e-01 4.278857250734225404e-01 -1.686216163676410862e-01
4.330975694587328555e-03 3.867245593752554472e-02 -8.057880574058752243e-01 -7.542901605206879800e-01 -6.554333974050747802e-01 3.812368434078793750e-02
4.920995105926413704e-02 -1.051660192741824401e-01 -9.726211277526360943e-01 9.379030908341102757e-01 -7.087452233839301730e-02 -3.395800263371320793e-01
6.990545300287254182e-02 -1.072339668139777047e-01 -9.354812781803307775e-01 2.427679498147878034e-01 -9.206369201993437335e-01 -3.057636075607949033e-01
-1.131889604800583315e-01 1.635914807913273483e-01 -8.424977501093846577e-01 7.508064494449540049e-01 6.604797845943765067e-01 -7.491969969728785352e-03
-6.948340791637223901e-02 1.133122353042089331e-01 -8.227828306496408617e-01 7.686445957912847460e-01 6.390533257335204720e-01 -2.821935913126532788e-02
-5.710315721670923550e-02 1.106157716439164357e-01 -8.061033450477426143e-01 -7.609194840450643760e-01 -6.476616869864565418e-01 3.919027954034025318e-02
-6.706401640628266436e-02 1.231286866147899561e-01 -7.718160696389437803e-01 -7.469607626525410771e-01 -6.648321093002285131e-01 6.919935038936045682e-03
4.185969266895300106e-02 -3.903655363927475280e-02 -8.317136214512490522e-01 8.311682107357480920e-01 5.433307139601100122e-01 -1.181149471063339673e-01
-1.617732412549236637e-02 5.279961072334344446e-02 -7.537632354094434550e-01 7.808482752904386537e-01 6.224411309896167310e-01 -5.331987835989666219e-02
4.301156752113207554e-02 -1.227143679719538555e-01 -1.048469690943827581e+00 8.933582611810747531e-01 3.956441067921318555e-01 -2.130182103487459344e-01
7.621770141724625025e-02 -1.209219232894809259e-01 -9.018987560415927529e-01 8.735026765535462978e-01 4.464220546786325516e-01 -1.941659680538746768e-01
8.361225642777175837e-02 -1.726526127072429695e-01 -1.003557047276101732e+00 -8.975281760878101034e-01 -3.703913274344495798e-01 2.392769058848660535e-01
8.189542648312737871e-02 -2.422861998415057061e-01 -1.062097289926514865e+00 5.896614346741086976e-01 4.500693721599893227e-01 -6.706243007091117203e-01
5.545859254000889971e-02 -1.372772919144207016e-01 -1.024032105241939883e+00 8.956024378167535271e-01 3.862045887987586856e-01 -2.207765589175390286e-01
-6.693324925402388027e-03 7.802062023689303356e-03 -1.009384282499356411e+00 -8.523356407268535273e-01 -5.029778193829382849e-01 1.433082996742628956e-01
-1.205691184817904611e-02 1.588938463482105629e-02 -9.602251414216188552e-01 8.453204103550299164e-01 5.174710369955003442e-01 -1.328801328566672213e-01
1.028442350549565176e-01 -1.531772469582189933e-01 -8.837069544957476541e-01 -6.459774725275664320e-01 6.841016843645836287e-01 -3.387004435137882519e-01
6.049252145197009378e-02 -1.319780048178154641e-01 -9.936920450584085795e-01 8.832907574372711457e-01 4.121302978521852456e-01 -2.234861414454164252e-01
3.275108182323081818e-02 -2.995168980976715967e-02 -8.539117713433153067e-01 8.340425175263469493e-01 5.376564525755841428e-01 -1.236875820854785174e-01
-5.208336192657877367e-02 9.819562306132624541e-02 -8.931043967916548754e-01 -7.976336812531837905e-01 -5.990788139434274351e-01 6.989338462709243638e-02
-3.097040885171503319e-02 4.154569403227733465e-02 -1.032745012279242758e+00 -8.437083210678469891e-01 -5.159817216318831612e-01 1.480511124668515699e-01
7.707961343842083257e-02 -9.399727024474346937e-02 -8.675659969031526142e-01 -8.593667527335016043e-01 -4.845657995339471280e-01 1.633547373610677034e-01
4.304948675581648371e-02 -4.389434897038883843e-02 -8.438239631015156395e-01 8.438140657781585396e-01 5.203498409581078787e-01 -1.312016212163760187e-01
-4.790476201280330359e-02 8.917017404247580548e-02 -8.414083318461569316e-01 5.737726817927326639e-01 -2.665671622698335685e-01 7.744203365277695372e-01
-1.056978707099622689e-01 1.504873696175502151e-01 -8.717739421433395863e-01 3.054335288015246341e-01 8.178691259387972368e-01 4.876478773869071803e-01
6.082341165156748830e-02 -1.413858357256880249e-01 -1.009704243769740994e+00 8.887238664150255429e-01 3.954040682110351868e-01 -2.320032588273070184e-01
-1.154680535844688442e-03 1.256732112203976480e-02 -8.987718435970256659e-01 8.291123334703315306e-01 5.476239313649766682e-01 -1.126089174255261172e-01
2.359688531035134245e-03 2.073142146627618421e-02 -7.827013527642904256e-01 7.386540453346899238e-01 6.735231836623902790e-01 -2.750858738604899587e-02
1.014911061921360130e-01 -1.735201510207816655e-01 -9.333345006636453167e-01 -9.879046720458338759e-01 -5.071804121816777394e-02 1.465334065836373656e-01
7.210972718852133589e-03 1.668417794341523624e-02 -8.049172267960911231e-01 8.113567744314319485e-01 5.782577934813227793e-01 -8.554594591407833903e-02
-7.194683216922326263e-02 1.275405063375782411e-01 -8.255263096329433781e-01 -7.674247513569597556e-01 -6.405112662039621485e-01 2.836492324166438317e-02
3.837641851147216565e-02 -7.955071013400930036e-02 -1.017848557687606625e+00 -8.776774276401810848e-01 -4.373717631299420816e-01 1.959292572014713629e-01
5.920323912782481796e-02 -4.795514125387910498e-02 -8.099220585678698070e-01 -8.396512438504767362e-01 -5.306505365624353265e-01 1.157402123133805527e-01
-5.301987485194668143e-02 9.410865701922105364e-02 -8.119605157008336072e-01 7.658480213830030081e-01 6.421234219004616772e-01 -3.397527322305191749e-02
-6.113146977456331010e-02 1.009007425173625849e-01 -8.592054568736687825e-01 7.853400002801171897e-01 6.169338288956234262e-01 -5.131992521634191201e-02
1.028013338729211364e-02 -2.892070145695115752e-02 -9.845086117966834749e-01 8.621866361354229014e-01 4.794223466048701532e-01 -1.636716775907285648e-01
6.999350222623730577e-02 -7.160129571136784887e-02 -7.867025852378604078e-01 8.152584896865200381e-01 5.554027287944639513e-01 -1.639554934783137019e-01
-5.471301777908588876e-02 7.601272341748871453e-02 -9.881120602592677882e-01 8.293171731189022955e-01 5.482888523487320365e-01 -1.077606642526970498e-01
5.427884736026050878e-03 1.893194929741969304e-02 -7.632691873215174949e-01 8.375596289457596377e-01 5.356386555795989990e-01 -1.076340959413920467e-01
5.164365185837797856e-02 -5.821771202726915007e-02 -8.354543652783967822e-01 2.918685735040439932e-01 9.484279838719849032e-01 1.236814262904351869e-01
5.923166119717879208e-02 -4.517960602394297670e-02 -7.968650768559513153e-01 -8.325336805108147775e-01 -5.428737310610174394e-01 1.103439302318276471e-01
-1.218907616336973171e-01 1.820090802835653276e-01 -7.955266892524275324e-01 -6.810055544829417551e-01 -7.318910230016472118e-01 -2.381103132968831471e-02
-6.054860252063689469e-02 1.125406973347039957e-01 -8.517221949598283715e-01 -7.857946419405490435e-01 -6.165150297682100433e-01 4.935583823041892609e-02
5.282789785044648273e-02 -5.562095933853818119e-02 -8.803274407346083352e-01 -8.534624858845260009e-01 -4.989886878464609987e-01 1.503731179069976998e-01
4.136756580025947871e-02 -6.049288981686762323e-02 -9.126504698503709045e-01 8.552851797734735140e-01 4.938146561624620623e-01 -1.569533262438428389e-01
7.859715570333919432e-02 -7.530061360452090791e-02 -7.889668463540858712e-01 -8.938315722229122073e-01 -4.472940088369096734e-01 3.151491957983236503e-02
5.736033034424071336e-02 -5.748501670382604595e-02 -8.324676639136645573e-01 -3.113524717030740629e-01 9.051838181293890839e-01 2.893127957092243574e-01
-8.723791942367685459e-02 1.361812643850763005e-01 -7.203832053071025365e-01 7.508338721352786349e-01 6.114152884281757183e-01 -2.498396316252382010e-01
-3.860480932287090744e-02 8.602795483462499782e-02 -8.359564015724227914e-01 -7.906134785722566116e-01 -6.107521955634640509e-01 4.372737259754166245e-02
8.524619714982907548e-02 -3.424580312460482889e-01 -1.126514374549057118e+00 9.434271223600374512e-01 1.827589227794068072e-01 -2.766666603332784136e-01
-1.118888492069667062e-01 1.635707634041625724e-01 -7.339913804269829756e-01 2.817563941732785238e-01 -3.303630649089954741e-01 -9.008182833881687168e-01
-3.892067378303300067e-03 3.486593723349492441e-02 -8.708224755727385080e-01 -8.143914162671356261e-01 -5.716931935657425523e-01 9.966701330435835671e-02
1.052996497557415374e-02 -6.362955064447047004e-02 -1.072361481039737052e+00 8.897486383454665804e-01 4.216354716676957159e-01 -1.748453304894007632e-01
9.334852626200827730e-02 -3.312336519670049384e-01 -1.112966795584880764e+00 -1.556061509060662484e-01 4.748588432146124139e-01 -8.661961699413583959e-01
-1.009269888761670647e-01 1.581636931385803635e-01 -7.335857208937544005e-01 -6.991470788140374815e-01 -7.118911610702557402e-01 -6.636517894077612056e-02
-6.691476243368597865e-02 1.113747823095244255e-01 -9.497400399617449418e-01 -8.002489728207090591e-01 -5.934844212247184503e-01 8.589425628620898923e-02
9.560322350175826100e-02 -2.944227145545317836e-01 -1.107650282265622899e+00 -8.921285761286302796e-01 -2.902095184933177197e-01 3.462441898871077561e-01
4.988745138151826075e-02 -2.762105546240276391e-02 -7.792915827842804566e-01 -8.216576326940913111e-01 -5.622693874288738902e-01 9.344447868066146912e-02
-6.197449479608479334e-02 1.049065336847070234e-01 -8.105103614582240823e-01 7.696018865917738649e-01 6.379441881886457333e-01 -2.720567791311104267e-02
-1.022726608243087615e-01 1.470146064796912233e-01 -8.681305471399579643e-01 2.826852419928496118e-01 8.129410166150170536e-01 5.091325539232258723e-01
-3.233944204568726249e-02 3.676363010440864693e-02 -1.053057456913328860e+00 -7.702295533988134935e-01 -5.485414853321359807e-01 3.253439317717145562e-01
5.870074186877649591e-02 -5.987636698040655486e-02 -8.603388591357955528e-01 -8.529882823101518907e-01 -5.021589141740276929e-01 1.422934122056887241e-01
5.764198708664065862e-02 -9.607527715184080441e-02 -9.872759564620273709e-01 -8.777534568071243548e-01 -4.438713627487466118e-01 1.803526611800173596e-01
-2.279559595316890327e-02 5.895964217301128546e-02 -7.785548031423668025e-01 7.803850725833689772e-01 6.229119013862155496e-01 -5.458847497832536311e-02
-8.559808828007113568e-02 1.478719606760963978e-01 -8.481580279844866954e-01 -6.456342977385520765e-01 -7.495153520345564369e-01 -1.462295819872351244e-01
8.448383856717163465e-02 -1.539067158709989669e-01 -9.692837129429500154e-01 -8.894865356507372089e-01 -3.978518852715135501e-01 2.247834074880792621e-01
3.649511141785988927e-02 -2.660382723806584832e-02 -8.727861432909844730e-01 -8.458592115163217073e-01 -5.170236680415664088e-01 1.311820146888686422e-01
1.516757725761540450e-02 -5.639975066064597392e-02 -1.069629968687734412e+00 -8.750751379094370286e-01 -4.357991661024572805e-01 2.105293087367704208e-01
-6.824258532112718878e-02 1.019709967957986851e-01 -9.438778999803153491e-01 8.085817945507283167e-01 5.828781731782570752e-01 -8.030265720075216440e-02
1.015396835145004548e-02 -4.907746476954915477e-02 -1.039582527925444699e+00 8.744349833819429207e-01 4.482567084014925651e-01 -1.855515648300505305e-01
5.896637078425197472e-03 5.686701621053400282e-03 -9.663085515631641975e-01 -8.636681295852147722e-01 -4.590519272561920938e-01 2.082034822503028848e-01
7.360338467672515594e-02 -1.234734714612901879e-01 -9.565644435181153149e-01 -8.870216226382259261e-01 -4.140533775129858762e-01 2.043341418910149254e-01
-2.230218748877909295e-03 2.767646871970419822e-02 -8.201656338550609160e-01 8.144483239484000547e-01 5.740133421076272224e-01 -8.475028436574279234e-02
9.180321070159937202e-02 -2.356122041417258728e-01 -1.065325528958288803e+00 -9.842013776665058389e-01 3.996802078864057466e-03 -1.770075528684982580e-01
-6.508905315210364480e-03 -5.662625658555891367e-03 -1.004279228759432652e+00 8.623118449128518437e-01 4.825432858296652694e-01 -1.535260871112895942e-01
2.972006370925765056e-02 -4.612125191141817557e-03 -7.409803194462905029e-01 7.842595762398184567e-01 6.072270488839868197e-01 -1.273272483790662546e-01
-2.892703018533062526e-02 4.544242684208844169e-02 -9.448193068797313687e-01 8.260389171381734563e-01 5.543839666985457271e-01 -1.015781710840442109e-01
7.156955842485923647e-02 -1.119738196229159433e-01 -9.022383596440280984e-01 8.760422735842534614e-01 4.431722474867181294e-01 -1.901270468684105597e-01
7.645374798475684797e-02 -9.175440200831876114e-02 -8.197383517656700036e-01 8.484544950891583781e-01 5.033164156054594773e-01 -1.636995893246943889e-01
-8.883616234749242002e-02 1.460111103007231681e-01 -8.632461027001313569e-01 -7.662151685252081013e-01 -6.416796610929486055e-01 3.408119806470263219e-02
-1.180834948468820478e-01 1.678131659840273460e-01 -7.601110973369709090e-01 7.245596021570658296e-01 6.890762777493039115e-01 1.368453014022383632e-02
2.862249907124828768e-02 -5.177854519968896202e-02 -9.975364193363869258e-01 -8.696467667813991831e-01 -4.602146728173037715e-01 1.786531722369369413e-01
7.680830670397047200e-02 -1.689941100812207275e-01 -1.023186814590621774e+00 -9.009220244625818497e-01 -3.631284631616694680e-01 2.376493742472026993e-01
1.857480153187046623e-02 -5.731726700749024961e-02 -1.022685011569316904e+00 3.188454024062835623e-01 -5.619579617005006078e-01 -7.632436430431592811e-01
-1.312864824039184850e-02 5.349524815216779444e-02 -8.526960322141242665e-01 3.982743857199021464e-01 -8.038048880675950913e-01 -4.418995537427884424e-01
-6.971147947860427407e-02 1.158357109823650727e-01 -9.430013484732217011e-01 -7.913944804662023103e-01 -6.074599691991562356e-01 6.846285203078873727e-02
3.318907793378531729e-02 -1.470917922687615953e-02 -7.736218186694291399e-01 8.169868106437561117e-01 5.681397389122534447e-01 -9.874101631469910101e-02
1.928748516278522285e-02 -1.016115378338962490e-02 -9.175125734533378097e-01 -8.419032371672952042e-01 -5.249956630837586680e-01 1.248138333297777736e-01
-4.007006815354964557e-02 7.580063083877865149e-02 -8.378937153133211302e-01 7.903640710670244429e-01 6.110899138185690305e-01 -4.351726548823046242e-02
-6.022753479462312348e-02 9.771057173838243459e-02 -8.188899881952658166e-01 7.477793654558638758e-01 6.585493440390128850e-01 -8.449131354293867857e-02
-2.422750285076460258e-02 2.600343946651463220e-02 -9.987177319367314121e-01 8.458399774389594450e-01 5.181359898191386648e-01 -1.268456882207741887e-01
4.781404353144286939e-02 -7.205351385041210144e-02 -9.527422286374997995e-01 -5.957648853474214468e-01 3.074931725379174141e-01 -7.419650599789322509e-01
-4.562988456478200144e-02 9.215634642637647589e-02 -8.694543422448473002e-01 -7.845685187183308873e-01 -6.180165101103863856e-01 5.007826541627113937e-02
-5.465725992898540220e-02 7.341850473374918196e-02 -1.001232552257156794e+00 8.391523560785448810e-01 5.367822840359914860e-01 -8.768182726728920851e-02
-1.044753954264209250e-01 1.526853951545557309e-01 -8.845402606464575213e-01 7.746168444767366212e-01 6.320590304842357288e-01 -2.168239461478096985e-02
-3.882592989679221201e-02 6.420499358123403499e-02 -8.838526738350236389e-01 8.250654853122026955e-01 5.492487830879193567e-01 -1.326375483148682366e-01
1.481935855072578695e-03 3.947332119076470830e-02 -8.269500088181352959e-01 -9.491474067856208174e-01 7.808160673733122170e-02 3.049958407608993061e-01
7.665985262334418238e-02 -1.322835428526560608e-01 -9.611485362669101029e-01 -8.870216226382259261e-01 -4.140533775129858762e-01 2.043341418910149254e-01
1.579237683348403212e-02 -9.362991772301708024e-03 -9.366023117009238952e-01 -8.489999155082802451e-01 -5.092696782664749566e-01 1.408670943311245149e-01
5.470218403350590036e-02 -1.540455643279886599e-01 -1.056839528830205710e+00 9.013574985920129734e-01 4.056934656910930470e-01 -1.515502280681191305e-01
5.416136167219720576e-02 -5.529702574961276040e-02 -8.181851651474627563e-01 8.357527769610579860e-01 5.327660046392743709e-01 -1.329574371841783231e-01
5.258958419493872140e-03 2.817913018867800740e-02 -7.736525930756997793e-01 6.634509929769142333e-01 -6.446380995874718689e-01 -3.798348331554112778e-01
-4.274892804503170607e-02 6.302277931588655402e-02 -1.021893795449775100e+00 -8.304815709832984449e-01 -5.405022584773498950e-01 1.347503945745480991e-01
1.847517347113962483e-02 4.426765541015567455e-03 -8.582510514497083687e-01 -8.262742300954915020e-01 -5.520010695128948486e-01 1.120969042245270053e-01
5.702027801797560774e-02 -4.460185160812176614e-02 -8.103843098487546470e-01 -8.396512438504767362e-01 -5.306505365624353265e-01 1.157402123133805527e-01
-5.238909911712658074e-02 1.070984745068169486e-01 -7.251491861730730015e-01 -7.408401897133171099e-01 -6.716553901042676689e-01 -5.903409982389485819e-03
-3.449307597979443113e-02 8.361907499230587792e-02 -8.017554948143843507e-01 -7.835438331794445377e-01 -6.189867072241728163e-01 5.398627386881327955e-02
4.815876498502925235e-02 -6.594583254532758454e-02 -9.586926573335192714e-01 -8.898149615371628851e-01 -4.337303229668791338e-01 1.418003567120480202e-01
9.258111752146942763e-02 -1.803835395422422605e-01 -9.546725418953692088e-01 8.393190747593579637e-01 4.867031495024584098e-01 -2.422055635394918249e-01
-1.372097485117128660e-02 5.212168818377142104e-02 -8.469964444804390924e-01 -8.012227153937537816e-01 -5.933576195788551333e-01 7.725862815747169821e-02
2.521413233527300402e-02 -1.900598785668509072e-03 -7.621243389641803034e-01 8.043314046197487244e-01 5.883240598293385526e-01 -8.322134442765687090e-02
-9.360913707590119703e-02 1.418264177901499001e-01 -7.618430154862008141e-01 7.321728095390559465e-01 6.811188229292115537e-01 3.549974797958453231e-04
