5.231353698280623299e-02 1.219806794792373944e-02 -7.146296332199553181e-01 1.530158884773814565e-01 -7.881875679546498370e-01 5.961094661177692711e-01
-1.252908107065367482e-01 -8.273643170706646011e-02 -7.809746798306115290e-01 1.881854903264787438e-01 -6.945922395341924682e-01 6.943542626134426854e-01
-1.231309395634263004e-01 4.501107232916259221e-02 -6.198381912692438878e-01 1.580285853811611851e-01 -8.315848113108806894e-01 5.324412341277450222e-01
6.034327082608507975e-02 -9.026972191417238778e-02 -8.217541744606743359e-01 -1.727542652234152487e-01 6.932136164335479522e-01 -6.997219775298185729e-01
-8.513186783171425992e-03 -1.506781176220615692e-01 -8.701638866276995010e-01 1.598228207824716751e-01 -6.208223686481680881e-01 7.674869722302861685e-01
6.734793017307685870e-02 8.862242171019432679e-02 -5.864634619297380835e-01 -1.436951304842188359e-01 8.725414134735424154e-01 -4.669295356354277726e-01
1.065222489764007796e-01 8.977021779410271352e-02 -6.110918912481176912e-01 1.400844421707024834e-01 -8.591093940029773668e-01 4.922472937432569307e-01
5.352925662856636291e-02 -4.877151883999494147e-02 -7.879867845042266561e-01 1.596071450330515118e-01 -7.233736946781561539e-01 6.717559505520380725e-01
1.296212941262870830e-02 -2.172656148837608450e-02 -7.426429230754538757e-01 -1.913715815612347937e-01 4.728340852139579220e-01 8.601190880515507953e-01
3.496939904067920130e-02 -3.715230893869989059e-02 -7.706899021065610755e-01 1.546892010351064717e-01 -7.413520253040566388e-01 6.530455004520694384e-01
3.343864723858410576e-02 -1.196899393087261093e-01 -8.530040594476235860e-01 1.658184604254546168e-01 -6.508441262848329023e-01 7.408820158855691229e-01
6.583785900328077700e-02 -7.474926883955452031e-03 -7.432775640728723765e-01 1.535903453812823005e-01 -7.619502661138716215e-01 6.291595964257866713e-01
-2.971930695429400582e-02 -5.469911581613783047e-02 -7.634368839484736435e-01 -1.556383584369321338e-01 7.349412685729965755e-01 -6.600288123494093551e-01
-1.192893344364384933e-01 2.156569466796533913e-02 -6.440041659753062975e-01 -1.470210650914114681e-01 8.147367394722888623e-01 -5.608822084657799634e-01
-7.878412047263083640e-02 3.694569621491838873e-02 -6.447968269217962956e-01 1.455765502845049741e-01 -8.241516043032017791e-01 5.473404800777316170e-01
6.346596283393286797e-02 -1.810802647303234522e-02 -7.440112231880197102e-01 -1.534500682743454580e-01 7.615092892274636371e-01 -6.297274640405020607e-01
-4.301100310666926968e-02 9.210089084743437390e-03 -6.814993749457453065e-01 -1.486068464735952610e-01 8.013014508062658026e-01 -5.795101294342894782e-01
-7.971388223148229146e-02 9.161643527501521500e-02 -5.457220613819433463e-01 4.448895198949314733e-01 3.465415035603023886e-01 8.258221972058044091e-01
-8.585055475393940649e-03 2.270503525282018681e-02 -6.810875219459969765e-01 9.929128628446375338e-01 -1.186929466077551731e-01 -6.002601372307453734e-03
5.762472139356163148e-02 5.742585893693505361e-02 -6.543226878426744442e-01 3.467482121742305069e-03 -2.609430685273168016e-01 9.653479639773856480e-01
2.470077966709568074e-03 1.137800835416436923e-01 -5.161739681030289573e-01 -1.400150275956007773e-01 8.999587775971003012e-01 -4.128801165875343182e-01
-3.147637339283679975e-02 -8.891447326297113873e-02 -8.094902821425293826e-01 1.590878999501892099e-01 -6.985190609421464414e-01 6.976834250503165524e-01
-4.207208823162437994e-02 -2.990514775032471553e-02 -7.433570336014430069e-01 1.563150147782297328e-01 -7.557186413227239274e-01 6.359677282002742515e-01
8.673144003396109081e-02 -3.845745976734313287e-02 -7.845437896584641635e-01 1.584328518880102066e-01 -7.316983782612396237e-01 6.629604171385375944e-01
6.387437460499075653e-03 4.689845717964171400e-03 -7.097549063704210459e-01 -9.169001192205865625e-01 -2.714387224195103365e-01 2.926007370881663072e-01
9.844489640591622126e-02 4.679903759832929055e-02 -6.785713299343318905e-01 1.536697810334820280e-01 -8.234964362518671921e-01 5.461128252271649774e-01
-1.310237086456091660e-01 5.882687105862186711e-02 -5.837212719985341858e-01 5.212738413069954724e-02 8.166216309326413958e-01 -5.748146203051930359e-01
-1.235302814918672748e-02 -1.019167607726945701e-01 -8.264070208114676630e-01 1.493573946871745717e-01 -6.751931590333354327e-01 7.223617976103419158e-01
1.064469656825891702e-01 -2.168562728090979181e-03 -7.353445810108542036e-01 -1.636079822044958498e-01 7.824345162992716318e-01 -6.008566017466216991e-01
1.434276336150087060e-02 1.042565356209899791e-01 -5.396241905796216320e-01 -1.399619167398854502e-01 8.901950114060217523e-01 -4.335475793155001978e-01
1.016947126438518256e-01 7.219712441813246062e-02 -6.259109638414046550e-01 -1.471570042066836226e-01 8.566816350432502336e-01 -4.944101458228155610e-01
9.669878743672907784e-02 9.544839109159038160e-02 -5.980496230150698089e-01 1.377328407905876739e-01 -8.729491895329805073e-01 4.679630082190975315e-01
2.912774950712911093e-02 1.064954136038608057e-01 -5.397876438839344093e-01 -1.448195706215188450e-01 8.897321411586843753e-01 -4.329018467899872769e-01
-9.520439846561683239e-02 -9.469104212894985384e-02 -7.901700731780684217e-01 -1.602590811971014439e-01 6.996608873865443057e-01 -6.962698252511984043e-01
-1.162145718911906933e-01 4.635120145649277573e-02 -6.066668838806206221e-01 -1.368782421677640360e-01 8.444208584039714083e-01 -5.178974422734323735e-01
-4.753535242518066445e-02 -5.380580951640287490e-02 -7.581856574061335285e-01 -1.552413493320854154e-01 7.375152751645461802e-01 -6.572452680366113187e-01
-3.974669286680958258e-02 -1.553878286820597754e-01 -8.664700150066295681e-01 2.953859509646603598e-01 -4.446134302187866871e-01 8.456157742389790455e-01
4.124901485102915044e-02 1.031761478570717705e-01 -5.694135387532996972e-01 1.529603204240713443e-01 -4.968795835426765839e-01 -8.542328838403623337e-01
5.808924430367897601e-02 6.271280602950386751e-02 -6.495930473511759562e-01 1.573764935116274966e-01 -8.771644208383815311e-01 4.536686214686349028e-01
1.429120719781933925e-02 5.954372100686919356e-02 -6.193599059311319932e-01 -6.426339386254460440e-01 6.765657969043800124e-01 -3.595557583823230097e-01
-3.830396413936396072e-02 -1.411584761531652424e-02 -7.212647390504401956e-01 -3.092253903459417641e-01 -7.459683494236822865e-01 -5.898397067199757648e-01
-2.581359079831814854e-02 1.077526176429865895e-01 -5.363943575301909350e-01 1.410450332623454928e-01 -8.897611242420846445e-01 4.340869041787434046e-01
4.253526100771165552e-02 -1.123911149450780925e-02 -7.416036540573212044e-01 -1.882667415344507766e-01 4.447830669973043549e-01 8.756275791365139005e-01
1.585187080911075116e-02 1.016040044258688657e-01 -5.693813896453298051e-01 -3.816589975584713801e-01 -8.021282498543536033e-01 4.592675476976948445e-01
-1.014127035558663736e-01 4.135260114183696156e-02 -6.187290714435391692e-01 -1.368782421677640360e-01 8.444208584039714083e-01 -5.178974422734323735e-01
8.972073137625009159e-03 8.046088304667133040e-02 -5.776877267307656272e-01 -8.418951430341135855e-02 8.713703150724161350e-01 -4.833486316231318525e-01
6.552802109270826347e-02 1.212913519841380683e-01 -5.207411862105469913e-01 -1.423813781116456678e-01 8.965559390249453475e-01 -4.194222113409432073e-01
7.483208337698347978e-02 2.886922570114671543e-02 -6.852159389363233766e-01 -1.499333662631419650e-01 8.097498024777831649e-01 -5.672964331530681026e-01
-1.080885115276965097e-01 -1.087028747026950182e-01 -8.106162124788730550e-01 1.866834970998775267e-01 -6.593695869320005398e-01 7.282726273447899246e-01
-7.391462065383801183e-02 5.286402057569850738e-02 -6.076707567204721050e-01 -1.417244392643352835e-01 8.404636023030653824e-01 -5.230058474997812956e-01
-4.370581870005992714e-02 -4.060544530751414999e-02 -7.441314455592916710e-01 -1.541401297663499981e-01 7.520248241926332788e-01 -6.408583963666636407e-01
-3.503342984052816231e-03 5.876154022124012444e-03 -6.913005319395977288e-01 -9.040105327517641842e-02 7.905229772912734099e-01 -6.057235936805497323e-01
1.314731579943559381e-01 -3.060043568275079562e-02 -7.763192750512757367e-01 -2.319594975481577837e-01 7.429954216493448449e-01 -6.278157332413059066e-01
-2.861158322948994387e-02 7.196278296621641535e-02 -5.880065819198881938e-01 -1.460225899722888410e-01 8.558504096231205338e-01 -4.961829093849583483e-01
2.160418151298654568e-02 -1.375163134295596112e-01 -8.657398659217548920e-01 1.574807371858432947e-01 -6.291111210494250150e-01 7.611957795385750902e-01
1.080111125215272583e-01 -6.193502200431120347e-02 -8.143809118687238557e-01 1.364538782457643540e-01 -6.987800479052317382e-01 7.022013840496558190e-01
1.027939015419121610e-01 5.896526720392115256e-02 -6.411555720808717052e-01 -1.327288901075175387e-01 7.960669093312391364e-01 -5.904748238482614431e-01
-1.285004097256420841e-01 -5.380659568074107335e-02 -7.493320356179943298e-01 1.711176660957283713e-01 -7.341215300451054970e-01 6.571029778308602465e-01
1.317573907674004716e-02 1.332214737620280309e-01 -4.851747938259403092e-01 9.009159868755847178e-01 -1.909454003614640960e-01 -3.897309824389018074e-01
8.414669428641206872e-02 -8.089441854068701865e-02 -8.282103246070617875e-01 1.569616635104558178e-01 -6.966048277788519094e-01 7.000748175039768206e-01
1.554838932946635832e-01 4.076051157299791228e-02 -6.990217546702597318e-01 -9.870074867796396756e-01 -9.710467977107346826e-02 1.280113362460393311e-01
3.710764125897611510e-02 -8.590195067461045553e-02 -8.120560464231550979e-01 -1.650335014206023299e-01 7.010888704367470581e-01 -6.937134416735646347e-01
-1.105280907652178984e-01 5.211410066586711493e-02 -5.987735126782315342e-01 -1.368782421677640360e-01 8.444208584039714083e-01 -5.178974422734323735e-01
-1.234070987496224507e-02 5.710032437241964465e-02 -6.320666184309378099e-01 1.467371150557062465e-01 -8.358314062484204499e-01 5.290123622316557084e-01
-3.557107889688405217e-02 4.757528565023227962e-02 -6.406581092254338694e-01 1.464316185216338329e-01 -8.366694265308423084e-01 5.277708326591060706e-01
8.280867367989094840e-02 1.104279485679402900e-01 -5.492140984846375362e-01 -1.462560758263716509e-01 8.840194558350558118e-01 -4.439805874010283038e-01
6.463904502498177274e-02 7.122864946743866221e-02 -6.310249608382871855e-01 1.456179807016076411e-01 -8.403686835288811663e-01 5.220879997091695257e-01
8.377387338231408187e-02 -1.713116829697363883e-02 -7.594272906449652805e-01 1.590142153049877438e-01 -7.616815320865585326e-01 6.281367072614146840e-01
1.227337989458472840e-02 -1.450209813781703216e-01 -8.611965762378920308e-01 -1.780311868786071394e-01 6.590092868691453942e-01 -7.307610117670587657e-01
-2.300016281558868100e-02 -1.729686484528953072e-01 -8.854619006257304914e-01 9.963725470124457084e-01 -7.410850577584932042e-02 4.182913974255793310e-02
-1.413820986014142078e-01 3.448123886650752284e-02 -6.307662352283157636e-01 1.812852470944768535e-01 -8.308847925089392072e-01 5.260856591499823987e-01
-6.141475991460557809e-02 9.662100415283128574e-02 -5.417979924618248067e-01 -3.113789136309422223e-01 -5.393859513200300881e-01 -7.823720136000523739e-01
-4.333060042698323733e-02 6.930451141960118806e-03 -6.845695246300809167e-01 -1.486068464735952610e-01 8.013014508062658026e-01 -5.795101294342894782e-01
5.925874419116160946e-02 -7.359372528697270821e-02 -8.079113450691715048e-01 -2.265340050267756755e-01 7.675450310637067508e-01 5.996306945578605552e-01
1.108512932121638178e-01 9.772254970445112821e-02 -5.833106598763335704e-01 -1.557465177452695138e-01 8.700562165200826925e-01 -4.677020443669039351e-01
-1.252709311371403011e-01 -3.072129582851136978e-03 -6.943463737166037930e-01 1.218166099060330188e-01 -8.419056070623003318e-01 5.256954083383846843e-01
5.690952838884631021e-02 7.058325142398538810e-02 -6.152633086676776442e-01 -1.431597447960681613e-01 8.560821643763892874e-01 -4.966171717797939200e-01
-1.054241776704232525e-01 -1.026630533033792703e-01 -7.959718913855581279e-01 -1.532970227753501224e-01 6.931702279940331612e-01 -7.042833647268080810e-01
5.018149712762110665e-02 -1.046167603723598405e-01 -8.332179347655586099e-01 -1.652757124937601907e-01 6.782117295189880046e-01 -7.160396558868390438e-01
-5.994640551846326659e-02 -1.386676288290442371e-01 -8.396639080013529322e-01 -1.455031986793435816e-01 6.702751114258971299e-01 -7.277087976499121424e-01
-1.008621230002852420e-01 3.484425323066418084e-02 -6.420576003792917152e-01 1.510239489419566705e-01 -8.281470740404021091e-01 5.397816138071932501e-01
5.051042506347753341e-02 -7.005624122379547347e-02 -7.990603478156894646e-01 -1.622516510195478046e-01 7.083057458359167669e-01 -6.870060932460909653e-01
-2.203376586550646540e-02 -1.531051780541414775e-04 -7.116541533702197553e-01 1.527429785576985277e-01 -7.843727136200850936e-01 6.011896777470372433e-01
-6.775242716971952017e-02 -9.524122984373394052e-02 -8.072637605530225136e-01 1.679863312170636891e-01 -6.896438713835907341e-01 7.043947211523411411e-01
1.097865568989079277e-01 1.010382678496273695e-03 -7.263787627458285767e-01 -1.658947486661072335e-01 8.163998428975060007e-01 -5.531457573568983044e-01
3.826184052264849922e-02 -8.116676631526432983e-02 -8.038665037267717084e-01 -2.584435736986775978e-01 9.652933283879918669e-01 -3.762591372297532932e-02
8.630871775389369061e-02 2.352556559707878747e-02 -7.082435204138500806e-01 1.535424786963486277e-01 -7.942516465541339388e-01 5.878682073235707017e-01
2.596694158216540649e-03 9.047466116564614400e-03 -6.935854603362545667e-01 -1.515491454423882889e-01 7.984393089656461884e-01 -5.826899058797426756e-01
-1.543875433464486080e-01 -4.165830779189386851e-02 -7.267175418597064951e-01 9.824438993534339026e-01 1.859767204365002924e-01 -1.471883415572119817e-02
-8.872295060159572297e-03 -7.348628748276754552e-02 -7.840365020012695085e-01 -7.902167586576243352e-02 7.241464437409499411e-01 -6.851040087174367077e-01
1.905830542690234095e-02 1.182171545642361626e-01 -5.289534708641326910e-01 1.354288216114408749e-01 -8.918323426024272749e-01 4.316180104736170309e-01
-3.424857356651100915e-02 -4.491287789631290273e-02 -7.513669938605155307e-01 -1.599498825017321713e-01 7.370520679422015720e-01 -6.566355794729725748e-01
-3.878322565790588011e-02 9.959282829387625102e-02 -5.489792041912938680e-01 1.399955169719519221e-01 -8.879453906481150627e-01 4.381258249116595782e-01
8.311723665335267464e-02 1.000692587648503995e-01 -5.747856674744664662e-01 -1.667136269545283211e-01 6.014141077180954476e-01 7.813498816953347026e-01
8.096705808071681665e-02 1.525438018749854588e-03 -7.258758247486999382e-01 1.845901773773219456e-01 -4.403966610577915164e-01 -8.786223576400487012e-01
2.988850019193174667e-02 1.111831672830264905e-01 -5.470114702494550674e-01 1.430664338669500046e-01 -8.921866701578845538e-01 4.284097817431107291e-01
1.287080204165917674e-01 -3.607250634503150755e-02 -7.912908428508876879e-01 1.169064661320267928e-01 -7.324203678992798894e-01 6.707408462758212009e-01
6.176359353580706396e-02 1.373243226266893102e-01 -4.975535275262346624e-01 -1.333540406541028692e-02 -9.736392081932013776e-01 2.277034458837373376e-01
1.420182610603187012e-01 8.238651746561796718e-02 -6.214820803074744271e-01 -2.076032342659993868e-01 8.417119482906549877e-01 -4.984193949146103475e-01
-6.252061927882457404e-02 -9.855160373638352511e-02 -8.116575222346326113e-01 1.612527165085239911e-01 -6.850368913762365786e-01 7.104379064156161050e-01
1.270715437990102038e-02 1.013242485446196051e-01 -5.696161553825503931e-01 8.761669042155227627e-02 -8.834890234358868666e-01 4.601852464256940833e-01
1.553740527210708822e-01 5.444932270024332999e-02 -6.793777550016357747e-01 -9.891019147498617547e-01 -1.278040781916599533e-01 7.309938327877640862e-02
-9.728597037052667817e-02 3.709143706522603778e-02 -6.396104736312328010e-01 1.510239489419566705e-01 -8.281470740404021091e-01 5.397816138071932501e-01
-7.941199843339422082e-02 -5.332359273191149274e-02 -7.499859120155375480e-01 -1.568433827117999280e-01 7.407764361742013026e-01 -6.531848321176554339e-01
-4.843292857227786928e-03 6.586560815832460947e-02 -6.199726596219116148e-01 1.364507059159563718e-01 -8.542533237058133055e-01 5.016298075200555928e-01
1.082184141674455563e-01 -7.539516833490748915e-02 -8.192092037959368689e-01 -2.540629772503026351e-01 7.227325860550243286e-01 -6.427360365227153816e-01
6.730609982601985786e-02 -5.063619616729659462e-02 -7.932005101003539727e-01 1.537446758970164307e-01 -7.283349511662401410e-01 6.677505324168540035e-01
8.615505554907830488e-02 -1.020391366921588883e-01 -8.401743180286869173e-01 -2.662046021392697193e-01 7.226311430213416820e-01 -6.379179735166133902e-01
6.023862644044533643e-02 -9.598217714235580955e-02 -8.273714320531130317e-01 -1.682559844976143359e-01 6.841814698625482416e-01 -7.096376821853964678e-01
-5.676607064573875594e-02 8.732429602669077029e-02 -5.668945511869746268e-01 1.429504804622755976e-01 -8.724982497649351743e-01 4.672386588165934329e-01
-3.072870617945610075e-02 -1.452063146557438511e-01 -8.516620976754576411e-01 -1.591427818174751541e-01 6.489618755885994128e-01 -7.439906310081617624e-01
-8.489016422447735050e-03 -2.393537637173676347e-01 -9.238107671814995703e-01 -6.442985099315144959e-01 4.297134491252310728e-01 -6.326340029914040430e-01
1.452723523452560950e-01 4.180459302677202310e-02 -6.978500582272549879e-01 1.081831500338873847e-01 -8.088178942410828576e-01 5.780225082158705341e-01
-8.419982548833958649e-03 9.564627383798492144e-02 -5.735817507979074081e-01 1.807671286221121665e-01 -8.169878778495833771e-01 5.475893102102623589e-01
-2.741847426834663135e-02 1.260978928586979630e-01 -4.951701099025275776e-01 1.551854108165501012e-01 -9.228089990705747869e-01 3.526202482899449819e-01
1.135712783850403168e-01 -2.817568875164495543e-02 -7.793322517235259372e-01 1.477810344873746740e-01 -7.360106909908119555e-01 6.606428903674578246e-01
-5.379614645426433230e-03 -1.452556168924767910e-01 -8.539334538582540324e-01 -6.450318871415978705e-01 4.937157897582206134e-01 -5.832483034814294198e-01
-9.585911536546840028e-02 9.597129158901887558e-02 -5.364203762576197354e-01 4.079868181314438846e-01 -8.903455709361703940e-01 2.020681086795363124e-01
2.982461138604579343e-02 7.577975019060270712e-02 -6.131529756584781499e-01 1.395081050909635634e-01 -8.566031288679482047e-01 4.967580580398974210e-01
6.918317574116003565e-02 -6.848384633183059178e-02 -8.097877939461727292e-01 -1.760652290635457140e-01 5.411529594843581537e-01 8.222861482209958828e-01
1.042637112491282686e-01 1.097245906981879765e-01 -5.578396763438427941e-01 -1.548339381078301658e-01 8.804832873754451228e-01 -4.480799395895224690e-01
-1.590234482398433097e-02 -9.185231808330436565e-02 -8.055214222548596759e-01 -1.544984524804379755e-01 6.971026622335694256e-01 -7.001272073616477964e-01
-6.244082192056534669e-02 -6.064367377629788225e-02 -7.622067937889672740e-01 -1.543352180317024147e-01 7.225621119530305503e-01 -6.738580227652432031e-01
2.171870519751268810e-02 -4.389467382770844556e-02 -7.638308900406092228e-01 -1.533668820808708755e-01 7.374726942190101830e-01 -6.577329433456611252e-01
1.118942470517610838e-01 -6.504408050532500818e-02 -8.091613513104709554e-01 -1.836587052815419896e-01 7.086258750027115694e-01 -6.812626874054890092e-01
-1.095547835329246100e-01 7.967741330965127933e-02 -5.645322483682014836e-01 1.548702192047586579e-01 -8.739914652594019673e-01 4.606019255899757581e-01
-1.129704701800781780e-01 5.811433480537214064e-02 -6.014943882621913707e-01 1.528026325384987949e-01 -8.446703972390845472e-01 5.130139135708422504e-01
2.647378502428315850e-02 -1.379323594675717531e-02 -7.295945982843817790e-01 1.838536447855512457e-01 -4.457468916412566928e-01 -8.760750800537737693e-01
-1.330711552446399437e-01 -8.461236805071623013e-02 -7.805886389451925922e-01 2.066774162675200921e-01 -6.850930237817195456e-01 6.985212912793727913e-01
1.381121632431603907e-01 5.658739949766078414e-02 -6.619758100736984341e-01 -1.624970201826083649e-01 8.307926991319860566e-01 -5.323327995725629647e-01
-6.015393515212874576e-02 -1.454703228053358943e-01 -8.539236054676417886e-01 2.035326390843542887e-01 -5.901568588799922521e-01 7.812101809015670195e-01
-6.044352413980438182e-02 3.880555800296034419e-02 -6.338065046544730796e-01 -1.497262645413074411e-01 8.241077627405133388e-01 -5.462860432935590094e-01
-7.283491294893953971e-02 -4.837791203260560086e-02 -7.459550200458768821e-01 -1.616181743343763355e-01 7.450484121916962632e-01 -6.471340117900273858e-01
8.443571416499181040e-03 -1.429127892800426125e-01 -8.584042744380615542e-01 -1.673802222627085168e-01 6.522199164544731920e-01 -7.393193097541864711e-01
-5.377829973244492578e-02 -3.337833981975900453e-03 -6.955222190773614477e-01 -1.548669812524987588e-01 7.889828693516565128e-01 -5.945773709008485008e-01
-8.824679551562586433e-02 8.347562050508348930e-02 -5.642938281088771824e-01 1.445440334616912847e-01 -8.726712744261269084e-01 4.664245589397120195e-01
3.846393001543187140e-02 -1.330146243180116150e-01 -8.567981850703996205e-01 -1.826894681566443579e-01 6.672647863201999208e-01 -7.220680460743991169e-01
4.579063667579426344e-02 -6.662303278106776472e-02 -7.944060154066528989e-01 -1.622516510195478046e-01 7.083057458359167669e-01 -6.870060932460909653e-01
-1.986704015081004401e-02 1.711128288866602424e-03 -7.097723816669374575e-01 1.527429785576985277e-01 -7.843727136200850936e-01 6.011896777470372433e-01
9.309555170793439027e-02 1.251189873639758920e-01 -5.248997664240123706e-01 -7.725730997978530468e-01 -1.301617345699599970e-01 -6.214408486110933882e-01
-5.086814201333619834e-02 -6.683632568967101673e-02 -7.715979049713074245e-01 -1.624864278312085353e-01 7.214390834742382408e-01 -6.731447166891415534e-01
4.803590654483486100e-02 -2.540767406146416871e-02 -7.489062312053597070e-01 -1.551748883034216597e-01 7.566978340699705985e-01 -6.350819962444501643e-01
-1.337608446027309661e-01 -1.033330855023902560e-02 -6.845075360991534907e-01 -1.327125766162634002e-01 7.881581360629721367e-01 -6.009942799774503630e-01
-1.507550346951206863e-02 -4.403516361052912248e-02 -7.550556657747065081e-01 -1.591972088408553088e-01 7.491408514495674353e-01 -6.429962934470917491e-01
-9.236688406522934602e-02 4.382676995963703803e-02 -6.105733005539871749e-01 -1.740733980246911006e-01 7.927199640227903243e-01 -5.842033128456595170e-01
-4.748563291358023214e-02 6.149225290753922851e-02 -6.005397563741630140e-01 -1.436094555176112841e-01 8.559375896881389334e-01 -4.967365165203727617e-01
9.260837721895073815e-02 -4.139905969078774839e-02 -7.891948423191513795e-01 1.584328518880102066e-01 -7.316983782612396237e-01 6.629604171385375944e-01
-9.866273340721437579e-02 4.327143402080980278e-02 -6.097474726128145894e-01 -1.033920321329054731e-01 8.917850880442621531e-01 -4.404877347138235755e-01
1.320385605552575614e-01 5.957657653148100418e-02 -6.554369912574257162e-01 -1.694965282428872178e-01 8.273317510364339711e-01 -5.355306719886324673e-01
-2.172402686826994944e-02 5.753890985518848866e-02 -6.287272466328084342e-01 1.494900265742783174e-01 -8.364809623556225260e-01 5.272118469566413612e-01
1.471968452708956147e-02 1.343188025139043507e-01 -5.001133311527082848e-01 2.011359930190328715e-01 -9.124220246559754388e-01 3.564131889183366764e-01
6.536163146251354472e-02 7.633915715592218265e-02 -6.078161281582397102e-01 -1.456111369507644138e-01 8.557755483767480742e-01 -4.964328832746496833e-01
8.185387766836339785e-02 -4.449786378440860612e-02 -7.900328246817371891e-01 1.625284707559711550e-01 -7.284354475383474359e-01 6.655571312542093443e-01
-1.054450636420866533e-01 4.574460463079523670e-02 -6.105022655764439365e-01 -1.368782421677640360e-01 8.444208584039714083e-01 -5.178974422734323735e-01
-9.982084879136415845e-02 -2.310343108523221084e-02 -7.092516934840770171e-01 -1.543328447074760190e-01 7.663447869598091211e-01 -6.236161002924979213e-01
7.372905247210552460e-02 5.532353416078009990e-03 -7.336291684816927949e-01 2.594136446284093234e-01 -9.629601537730381189e-01 -7.356835750519420680e-02
1.933287957896707293e-02 -2.473855133785795440e-02 -7.524528387002643592e-01 1.554842557991243657e-01 -7.557489890145140388e-01 6.361352936303192873e-01
-8.517736695526271704e-03 1.503627437357362394e-02 -6.949852573406460898e-01 1.519803340902989020e-01 -7.984939512699082975e-01 5.825026934145201007e-01
-1.306595448197045706e-01 -6.741614612201362461e-03 -6.965611776871006855e-01 3.732030956535051236e-01 -1.620264035036594052e-01 9.134915949051256590e-01
4.020354025260228226e-02 -1.192650419693160740e-01 -8.445965755376800832e-01 -1.721468789842508784e-01 6.681952151657940542e-01 -7.237959702053611277e-01
-1.120921887170014605e-02 5.968923519387737964e-02 -6.282900313610391141e-01 1.467371150557062465e-01 -8.358314062484204499e-01 5.290123622316557084e-01
-1.482228525207328895e-01 1.470110652010344493e-02 -6.474255490259634982e-01 -9.428301612438846901e-02 8.180610370741323578e-01 -5.673507314630725773e-01
-5.033537473616950947e-02 1.105195598237039833e-01 -5.227280965065281837e-01 1.360383822657747210e-01 -9.009379674375539437e-01 4.120732184697273870e-01
1.086219574321860143e-01 -4.407149165525523805e-03 -7.500502129795008077e-01 1.531992038094615316e-01 -7.675749151001471926e-01 6.223815177695664058e-01
1.081310638834962201e-01 -4.131054454532260417e-02 -7.822487153368447022e-01 -1.634815100099991092e-01 7.380907349317253896e-01 -6.545959539233312530e-01
2.666614891149800964e-02 7.122376866731307266e-02 -6.053426107257654509e-01 -1.475828768731434482e-01 8.543202256411650541e-01 -4.983535356694838159e-01
1.243637154957442370e-01 6.779228483209127909e-02 -6.531636822479547355e-01 1.399704813837412964e-01 -8.457091932066350681e-01 5.149604109705776533e-01
2.128329114619630178e-03 -1.629883101482913158e-03 -7.076195997882035460e-01 -1.513584683198370140e-01 7.811784545226008181e-01 -6.056821247631085647e-01
-9.982294686145112145e-03 -4.142863251753344661e-02 -7.532803830916204868e-01 -1.594768842901321815e-01 7.491179635629586775e-01 -6.429536531075917827e-01
9.023968943525294273e-02 1.290539883945566735e-01 -5.232721093476887519e-01 -7.691314366621669896e-01 -3.272347967741156549e-01 -5.489573944471415334e-01
-1.272531093784152745e-01 4.350649259739232388e-02 -6.209682319060828570e-01 1.569480154038137287e-01 -8.311969276325905653e-01 5.333657168912774305e-01
-9.545308324453205540e-02 -7.642164955402334925e-02 -7.818422764111624401e-01 1.591349697193870094e-01 -7.096961811513677887e-01 6.862997828001803358e-01
-1.479664087926293309e-02 -2.645004199315282092e-02 -7.295741833945849075e-01 -1.893335198619664761e-01 7.034575204123422187e-01 -6.850549870134495789e-01
1.367201149366273349e-01 1.469347979649681009e-02 -7.326323230025139077e-01 1.385641370246613047e-01 -7.884309847366847146e-01 5.993134090254884638e-01
6.563729240112455010e-02 -5.386678880068999919e-02 -7.963399808599173069e-01 1.537446758970164307e-01 -7.283349511662401410e-01 6.677505324168540035e-01
-1.283492296746397143e-01 2.608181326535248881e-02 -6.472313327320903253e-01 1.604582836467071671e-01 -8.151402191422796317e-01 5.565964088509995911e-01
1.348580405505268309e-01 3.762184231790170058e-02 -6.893134012310656589e-01 -1.744172884244038213e-01 8.114584797361257262e-01 -5.577757122383637522e-01
-6.581022012209550298e-02 -9.937979272110050721e-02 -8.117094380108367258e-01 1.612527165085239911e-01 -6.850368913762365786e-01 7.104379064156161050e-01
4.013989021390131084e-02 -8.411366074389141356e-02 -8.213193102543420165e-01 1.650766354445055428e-01 -6.847273352057214879e-01 7.098578596116220663e-01
-3.308856567467609311e-02 -8.937037367970875057e-02 -8.033671660831436245e-01 3.320064582694775002e-01 8.132335372021876063e-01 4.779361104132808791e-01
-1.931937282474340684e-02 1.219152522597240773e-01 -4.914779142474828277e-01 -1.259840299273415620e-01 9.019449211673501443e-01 -4.130658342004207007e-01
1.351386548978268098e-01 3.610192521047797531e-02 -7.033775374304268579e-01 1.371834364008042428e-01 -8.037075032582476908e-01 5.789947788915376092e-01
-2.690046232079084439e-03 8.596332219323182811e-02 -5.634924872587400158e-01 -1.333032088348496125e-01 8.905938936558742691e-01 -4.348249890441002186e-01
-4.035824473395653589e-02 1.071799719367808826e-03 -7.053422066373965515e-01 1.528520541250241449e-01 -7.862564655513649692e-01 5.986960998106101162e-01
-6.781889230172521987e-02 9.217935658370106367e-02 -5.514040197068862392e-01 3.529291272797629442e-01 3.148678512519976214e-01 8.810784683361038150e-01
-8.263436300954075941e-02 -1.112793679018683202e-01 -8.093088069604431611e-01 -1.581052315812967735e-01 6.850031996777525833e-01 -7.111774407121375097e-01
-3.963620024406581260e-02 -7.602561218828289558e-02 -7.986316254313050589e-01 1.003574406754864298e-02 -9.613863982074652981e-01 2.750190487633311642e-01
1.089118654370079126e-01 1.012317813498294673e-02 -7.242768262396139800e-01 1.804381027724507314e-01 -4.156984852230857785e-01 -8.914240631995024033e-01
-4.376104665247330244e-02 3.817465390719074203e-02 -6.526443808607798047e-01 1.537164728951191384e-01 -8.215744850082259410e-01 5.489868956033033820e-01
-1.532032390080776546e-02 -1.502117777437786961e-01 -8.594014296188967617e-01 -1.512516369759012713e-01 6.485212256372910877e-01 -7.460182050124620767e-01
-6.841806980930850712e-02 4.568181705031378742e-02 -6.344962207215331107e-01 1.530435844176633864e-01 -8.238774856551340786e-01 5.457137985237021649e-01
1.851439000199429918e-02 8.230647519592003414e-02 -5.890279991418702066e-01 -9.905169898341553703e-01 1.339201626818871671e-01 3.068359296335151573e-02
-5.122283657816572092e-03 -1.154531063811807395e-01 -8.271037605449192975e-01 -6.524902787631150503e-01 5.322035111197631618e-01 -5.394588574408885062e-01
-1.867248203039343496e-02 -1.090131510972366380e-01 -8.316649264401252406e-01 1.620889449352357903e-01 -6.775377853653734572e-01 7.174048531561292297e-01
4.468946535106869955e-02 6.298711381036926904e-02 -6.247508322961050631e-01 -1.440758087748960636e-01 8.390789413552213194e-01 -5.245843035204735827e-01
-2.565151059886185136e-02 9.581757593654234573e-02 -5.555167340696542944e-01 -3.131857315482893256e-01 -5.351311234689122287e-01 -7.845695496573025229e-01
-4.568656152156830687e-05 -1.157699049759592508e-01 -8.321643260775511974e-01 -1.749698075497243821e-01 6.752290030383071295e-01 -7.165552036667561797e-01
1.015312633851340324e-01 -6.975375698693475623e-02 -8.112458467543485208e-01 -1.925466793546095345e-01 7.073826762282807712e-01 -6.800996439064120880e-01
-4.917027957917401160e-02 1.862375461443983859e-02 -6.666897754700527035e-01 -1.554617548569305896e-01 8.055093055098935251e-01 -5.718272479637295236e-01
-7.811576612154240429e-02 -5.337656215030900375e-02 -7.613353712362714854e-01 1.663838344927021651e-01 -7.273117784476454961e-01 6.658333098838087327e-01
3.246770116081074131e-02 -1.408509719675696270e-02 -7.312538477152991101e-01 -1.592774147557766695e-01 7.704885326198273043e-01 -6.172342555708180134e-01
-4.296367771377577333e-02 -6.324771376063079154e-02 -7.696598421733206186e-01 -1.624864278312085353e-01 7.214390834742382408e-01 -6.731447166891415534e-01
1.367343189697163008e-01 -4.272197506358178624e-03 -7.566329903083601760e-01 1.456717061339300179e-01 -7.690648402125369598e-01 6.223496007718610779e-01
1.025334234152722040e-01 -5.356436294422194794e-02 -7.943637865785450058e-01 -1.657422369956360608e-01 7.198804777675558153e-01 -6.740189972136081398e-01
1.146483810539297848e-01 -5.528424353165108107e-02 -7.957251149299544579e-01 -1.482392143367505244e-01 1.205030303029514527e-01 -9.815824748948144274e-01
-2.165873192098841105e-02 -2.756807540851608507e-01 -9.601489832956178194e-01 2.314645151234122067e-01 -4.725092098297188348e-01 8.503876909179591825e-01
1.957950008670276271e-02 3.590489200223058452e-02 -6.599659580488528299e-01 -1.582063722531530936e-01 8.155957274884019226e-01 -5.565737624800158878e-01
1.051823392652726924e-01 -7.751594713921193536e-02 -8.203938296417256915e-01 -2.540629772503026351e-01 7.227325860550243286e-01 -6.427360365227153816e-01
-5.664038644005634643e-02 -3.808258144780344440e-02 -7.493732723804062967e-01 1.632074804488938824e-01 -7.406624484592397861e-01 6.517533703540687728e-01
6.456660209236796122e-02 8.525852417967651198e-02 -6.069104791610892002e-01 1.419831969121675697e-01 -8.559451241948174971e-01 4.971908246958295363e-01
-5.899860253980593328e-02 -2.558436220447770845e-02 -7.225459193387648860e-01 -1.562199591956766609e-01 7.566814939026548226e-01 -6.348452103734798513e-01
1.104737960963175641e-01 3.284688733004061112e-02 -6.892941130719820730e-01 -1.582935867907570016e-01 8.116867866796180220e-01 -5.622345602243190577e-01
9.289771664270721208e-02 -7.632605704023025239e-02 -8.256084607105687034e-01 1.526481922611545305e-01 -6.985159331854455811e-01 6.991237519105383269e-01
-7.906006020354698627e-02 2.532785688650600331e-02 -6.490513978603561496e-01 -1.423113610911426463e-01 8.243563105217576181e-01 -5.478906367217295514e-01
4.203884871317446759e-03 -5.320193638318707063e-02 -7.699218591425399660e-01 -1.635668243329429228e-01 7.308973341515944133e-01 -6.625971482792005762e-01
5.509354814320644583e-02 5.243724680032563895e-02 -6.530206387942733004e-01 -1.258685479372855520e-01 3.755382961140077414e-01 9.182200699134969168e-01
-1.577101546210214669e-03 -8.728073264681550369e-03 -7.105936770608196618e-01 -8.178072875216509108e-02 7.899610878263474412e-01 -6.076786915179588355e-01
1.204968880862531816e-01 8.961572980134886734e-02 -6.153474561539785670e-01 1.409353717340754153e-01 -8.592272650723614680e-01 4.917984627369708650e-01
-8.228865004153719520e-02 -7.651549745762051269e-02 -7.849918113987798263e-01 1.591349697193870094e-01 -7.096961811513677887e-01 6.862997828001803358e-01
-2.150327987715039153e-03 -2.502983939537694116e-02 -7.359168901808275098e-01 -1.576903061334577749e-01 7.650207546435799921e-01 -6.244013231216795079e-01
-5.672677014298833920e-02 2.896531003415388564e-02 -6.495774514190262305e-01 -1.467322015306591898e-01 8.220386649138531343e-01 -5.502018669730375233e-01
1.099818524119529350e-01 1.026538826651935826e-01 -5.885060701243657322e-01 1.372332166124516639e-01 -8.730500931453590852e-01 4.679215523109400698e-01
-1.029825464368974292e-01 -8.238478315672452534e-02 -7.708663455565150091e-01 -1.262524086816514957e-01 7.924436235946519247e-01 -5.967356472729437034e-01
5.837604360857069630e-03 -1.585335981860939436e-01 -8.726335454447640139e-01 -4.693966816750617665e-01 8.445131187276188056e-01 2.578068027213232805e-01
-6.856898298196539669e-03 1.321129507343904719e-01 -4.881460564741000874e-01 1.487634761705841913e-01 -9.273216925919183229e-01 3.434296239495128744e-01
-7.700846764796696886e-02 -1.117997783839894399e-01 -8.110266122147165024e-01 -1.525021093823061835e-01 6.808563293433198549e-01 -7.163642686699887019e-01
-1.229678694564513425e-01 -1.728735333604759089e-02 -7.076247632316012837e-01 1.613997402607890985e-01 -7.681090594663672055e-01 6.196439272755304151e-01
-4.798672416848547007e-02 7.222920416011655020e-02 -5.965903890253495545e-01 1.472790571308038865e-01 -8.555164105540969954e-01 4.963875004502984467e-01
4.386535212485975083e-02 -2.184811397171135955e-02 -7.550994969107869270e-01 1.568986443485146653e-01 -7.570908884835272357e-01 6.341894054435329720e-01
-9.766332502809673636e-04 4.299572241736418499e-02 -6.436147659024428203e-01 -1.611270746376145535e-01 8.344371276798150383e-01 -5.270225287102862088e-01
8.236959123347112333e-02 1.166718043932262888e-01 -5.525991800643532681e-01 1.389208088268680252e-01 -8.878533830956458761e-01 4.386540538972655279e-01
-1.092520838550853773e-01 4.189722834640117327e-02 -6.288529358940025960e-01 1.534507858811808845e-01 -8.280934087021671886e-01 5.391791564744260468e-01
1.414976089623945221e-01 2.127842941895848397e-02 -7.143143940473506426e-01 -1.796565614040478431e-01 7.973990978582332634e-01 -5.760887073006634163e-01
9.910090459964378262e-02 6.815623411728474745e-02 -6.318212073295776943e-01 -1.459485129181075647e-01 8.439705768851456513e-01 -5.161518157762765568e-01
-1.303420504988819784e-01 -3.541656822847626118e-02 -7.277554729604591710e-01 1.676488815768857610e-01 -7.500822392260675375e-01 6.397425160981783376e-01
6.224735344293083616e-02 1.326054668806125603e-01 -4.961727863903879210e-01 -2.810769720975015984e-01 8.009740246036226585e-01 -5.286173925125575712e-01
1.487416717724820460e-02 1.273338824481558829e-01 -5.164238668027810730e-01 2.033489544494025691e-01 -8.958224163254703276e-01 3.951599690418179378e-01
5.746441354291461495e-02 -3.937903966196965033e-02 -7.786032722747353585e-01 1.577292443249680154e-01 -7.412254055182706525e-01 6.524617871561138038e-01
-5.386166490571125780e-03 1.289446905185648307e-01 -4.964350824749322322e-01 1.352913809132439416e-01 -9.168943830299605136e-01 3.755009089452322479e-01
-2.129049690440641684e-02 -1.797663695465848976e-01 -8.935901355044425509e-01 6.542229201493002799e-01 -4.890891225542375875e-01 5.768745105743955381e-01
4.469224391841594701e-02 7.149460076541157283e-02 -6.248325930698721553e-01 1.456926614044027068e-01 -8.559850167263139964e-01 4.960476787093696660e-01
-1.019902611702285383e-01 7.083717299494372843e-02 -5.829547491450732810e-01 1.471938938707914035e-01 -8.587206214488536382e-01 4.908491131759826764e-01
7.142744399798779675e-02 9.452919525385174160e-02 -5.699660252978585584e-01 -1.498512516465942690e-01 9.210514276030032921e-01 -3.594563535262921827e-01
-1.856358483437644093e-03 6.427910499068741068e-02 -6.142808381771863724e-01 9.192658235818113033e-01 2.852393903306175149e-01 -2.712726226479035829e-01
-1.439599838569553536e-01 -4.732922432194698603e-02 -7.379902628412005061e-01 2.026301010511851186e-01 -7.254808169850295307e-01 6.577375056469874082e-01
-2.610246879245340171e-02 -1.491789606880355445e-01 -8.651073480684176031e-01 1.724783979337642936e-01 -6.208808077404014414e-01 7.646948573292674523e-01
-8.808457768408623628e-03 -4.683746446063767610e-02 -7.551605560991891952e-01 -1.148478924168000320e-01 7.417243018159384027e-01 -6.607987755005891861e-01
-1.009529466471304204e-01 7.324311405972805389e-02 -5.790567185871340339e-01 1.471938938707914035e-01 -8.587206214488536382e-01 4.908491131759826764e-01
-1.154997586131266546e-01 6.782775816274558278e-02 -5.840203170674101996e-01 1.517594697096746603e-01 -8.605477690681059277e-01 4.862371854407520622e-01
-3.555293558589981556e-02 1.102021198721237355e-01 -5.283620749405326666e-01 1.340014480045835232e-01 -8.899909683456526110e-01 4.358436510904367678e-01
-1.502874737737713157e-02 -1.161883178173521020e-01 -8.439074964880034502e-01 2.250915038022345271e-01 -6.643672883574313071e-01 7.127060551704624825e-01
-6.233132193079616440e-02 -9.671848042889166774e-02 -7.996993005520597331e-01 -1.639739532536516609e-01 6.921687231884804392e-01 -7.028620072916149653e-01
4.346598921517003111e-02 2.194143922567878130e-02 -6.866771289661186550e-01 -1.486341427550791627e-01 8.060546433934869803e-01 -5.728732874478100756e-01
-1.092742815482612359e-02 4.040048703718412265e-02 -6.583413031031225549e-01 1.437791134127243686e-01 -8.167146549872589256e-01 5.588423202257446487e-01
-1.337569627000848548e-02 -1.621541490971089017e-01 -8.638395917970040916e-01 -7.921718255604259795e-02 6.240920994499085106e-01 -7.773247001042025150e-01
-7.112854533024385965e-03 -2.311298457440104370e-01 -9.199247387959017530e-01 -9.967439314622044133e-01 5.681383237720680213e-02 -5.721646217552400771e-02
9.525430778738866455e-02 1.432265053293045771e-02 -7.229320908786952549e-01 1.499590061405185470e-01 -7.824093630461858018e-01 6.044401418627072253e-01
7.957250026706121082e-02 1.256058933102229269e-01 -5.167341265472430445e-01 -2.044620362875474995e-01 8.606080265657156669e-01 -4.664215907607774381e-01
9.610671125469980036e-02 -7.586406197686071384e-02 -8.161003349562894194e-01 -1.717439194268167157e-01 7.033809750629954616e-01 -6.897530210585126609e-01
7.888674036206429208e-02 1.230377525069328709e-01 -5.217188018980590813e-01 -1.554330438484395061e-01 8.943112340582790587e-01 -4.195807258647223925e-01
-1.272571310816318635e-01 5.976045891206164390e-02 -5.943529338913519089e-01 1.878660773052579780e-01 -8.479391607257328323e-01 4.956869139947866487e-01
1.005411660417904196e-01 -2.301668723946928563e-02 -7.592527108627554755e-01 -1.608860282168477762e-01 7.488511927979438765e-01 -6.429133510588376232e-01
-1.065533329256363460e-01 -8.782860288402033477e-02 -7.807277827058444197e-01 -1.519774910678799718e-01 7.049811187820419489e-01 -6.927513726940807137e-01
-7.550255191343631378e-02 9.026171463375015636e-02 -5.473254830248084346e-01 3.959656653659900938e-01 6.118873742263728488e-01 6.846933862055507580e-01
-5.689589239854626890e-02 1.006822598479950315e-01 -5.486849506861430914e-01 1.016909124013393451e-01 -9.505001685789897792e-01 2.936126493635707324e-01
-5.021547054705181867e-02 4.959239861982725484e-03 -6.976869989715596132e-01 1.553690736902265668e-01 -7.879942752652483451e-01 5.957562195141876682e-01
-1.357787882622975978e-02 -3.529336209561483723e-02 -7.452415765936412084e-01 -1.591972088408553088e-01 7.491408514495674353e-01 -6.429962934470917491e-01
1.219664697388583297e-01 -3.073339316449054739e-02 -7.840236544486415271e-01 1.445556648972642078e-01 -7.355022595747111591e-01 6.619215103821632917e-01
1.666237919426136541e-02 9.740287513254120011e-02 -5.700573301069145060e-01 1.364364773907357775e-01 -8.748221100192659083e-01 4.648347700620584777e-01
-9.108392965720150947e-02 8.557884913430645335e-02 -5.594795060978893231e-01 1.445440334616912847e-01 -8.726712744261269084e-01 4.664245589397120195e-01
-1.661160724414904172e-02 -2.196645425731352189e-03 -7.157109268089333343e-01 1.583570090616315817e-01 -7.839140270366804497e-01 6.003347865118169313e-01
-9.065002450890212449e-02 -9.906054107357027683e-02 -8.057209965118256045e-01 1.584974021862911864e-01 -6.918754693951780776e-01 7.044053579789121278e-01
-7.607023561900966291e-02 -7.805494560124963399e-02 -7.881057212930651090e-01 1.684676770135225821e-01 -7.077626632960740682e-01 6.860689865062518100e-01
9.226065968700761233e-02 9.858963327900291396e-02 -5.908836276148111688e-01 1.377328407905876739e-01 -8.729491895329805073e-01 4.679630082190975315e-01
5.940306775111994786e-03 5.734955688865718548e-02 -6.436670959652505131e-01 9.392608010286664089e-02 -8.376695455843964355e-01 5.380405411090698475e-01
3.203002892860030981e-02 -8.389069295376286317e-02 -8.192612780096675262e-01 1.585505410828354778e-01 -6.846389286285963216e-01 7.114290290173911346e-01
-3.970800939949904046e-02 -8.435025131347051452e-02 -7.924855126252261517e-01 -1.591091001408410921e-01 7.015684661090039187e-01 -6.946121087440322306e-01
3.149390649378194101e-02 -9.248304426500396358e-03 -7.367362833340105333e-01 1.603584290363429532e-01 -7.684758880218265364e-01 6.194594286683036133e-01
-1.238710498770388135e-01 -9.485161981972951850e-02 -7.932980755236556103e-01 2.322264366738316099e-01 -6.478226602750682961e-01 7.255319999448049950e-01
-5.985892261207417103e-02 -9.954041507181529691e-02 -8.132151222042063310e-01 1.612527165085239911e-01 -6.850368913762365786e-01 7.104379064156161050e-01
-1.134728122042376747e-01 -5.425913741972444165e-02 -7.429618398123200018e-01 -1.548641059658330543e-01 7.387883361728481146e-01 -6.559031201468384920e-01
9.979710805069728907e-02 1.242219715856359152e-01 -5.413571669015568855e-01 7.236700249655826644e-02 -9.262718708823928226e-01 3.698424504592390805e-01
-5.209367929843479461e-02 -8.983432181876541134e-03 -7.034086563736676734e-01 -1.508649128052008681e-01 7.862029955144956839e-01 -5.992700792867210469e-01
1.393959442414071659e-01 1.043109551661232197e-02 -7.388364711942609908e-01 1.340641014147948840e-01 -7.737349894798278838e-01 6.191615158958881926e-01
6.068980009577068513e-02 1.239794666654454730e-01 -5.133355275164951381e-01 -1.448043213396873752e-01 9.004213696917254817e-01 -4.102110012223342816e-01
7.456698730341497494e-02 1.068641694209004206e-01 -5.536336316504694155e-01 -1.380123689816334098e-01 8.854160283151608635e-01 -4.438367299026563240e-01
6.689496700587639622e-02 1.304487433710020960e-01 -5.019335809385914171e-01 -1.707401207500136298e-01 8.902390099527019984e-01 -4.222822709097596161e-01
-1.323084984166820743e-01 -1.341226026044846191e-02 -6.831263194914015680e-01 -1.583029459582800114e-01 7.394838849719904683e-01 -6.542963863324189333e-01
-3.663991457453670553e-02 -6.965683266174238497e-02 -7.888011516781430199e-01 1.626065449402036567e-01 -7.189819104094539171e-01 6.757396866002332025e-01
-5.182608872425093632e-02 -2.402442754651491416e-02 -7.339368711190581429e-01 1.580436871524829034e-01 -7.569981942942918263e-01 6.340157149364908928e-01
3.411978242814327211e-02 5.594897459995708949e-02 -6.330242119152665881e-01 -1.460489551938861930e-01 8.369313961937003832e-01 -5.274614116236728822e-01
5.298873036395281705e-02 1.035742294096130278e-01 -5.697065970015818825e-01 1.421515027946055054e-01 -8.725310619421116076e-01 4.674211122739390101e-01
8.376820964801234837e-02 -3.803934960727040765e-02 -7.833741820214749074e-01 1.584328518880102066e-01 -7.316983782612396237e-01 6.629604171385375944e-01
-1.314133325687162901e-01 2.058398071907986682e-02 -6.424141094817822362e-01 -1.275641560333677094e-01 8.152513625044115475e-01 -5.648828215038895761e-01
-2.646309503463329868e-02 8.681246080261491305e-02 -5.613875161410735171e-01 -1.409859443801905476e-01 8.729636700321642406e-01 -4.669661596852606733e-01
-8.737116962564557554e-02 -1.053790374588349683e-02 -6.964079397683082817e-01 -1.493169914217979954e-01 7.768607706694901083e-01 -6.117121701156096325e-01
9.863793008538146792e-03 1.310589435860334828e-01 -4.798418176886709019e-01 -1.115700908957554527e-01 9.020086712924374472e-01 -4.170521211200879375e-01
-2.144134049362471026e-02 -4.645007828028754199e-02 -7.673467705688997720e-01 1.621812327642463691e-01 -7.325812227768930818e-01 6.610763948090883080e-01
-7.255569320574803416e-02 5.176150129382078857e-02 -6.236201005037759204e-01 1.487398947490676804e-01 -8.401159564775527722e-01 5.216144393916287703e-01
-1.097093467091565522e-01 -6.281768943398734206e-02 -7.640595869693248554e-01 1.641044749175760431e-01 -7.308603671942626168e-01 6.625049773222042582e-01
-5.750687931744663528e-02 -6.340825470014621427e-03 -6.985428557958061058e-01 -1.498759841565177331e-01 7.893563101490309597e-01 -5.953602312894457071e-01
-6.187596177593666924e-02 -7.642320308418106001e-02 -7.791919991352044272e-01 -1.608896588646891446e-01 7.084160026386335796e-01 -6.872126926039008321e-01
2.877808123428039419e-02 -4.160081162788357295e-02 -7.629531447758965967e-01 -1.633212208734660109e-01 7.368611885757672120e-01 -6.560196396321594792e-01
9.658086871032753318e-02 9.987410755751620350e-02 -5.674741976765033113e-01 -1.646831636704389756e-01 9.151222629940162223e-01 -3.680091023007525108e-01
2.141495679801479202e-03 8.551042218122392735e-02 -5.770916777070286274e-01 9.275698373862351076e-01 3.103098631957703080e-01 -2.081393417273525170e-01
-4.783991110400540731e-03 9.155181637805903661e-02 -5.614644247395175203e-01 -3.301210597274468195e-01 -4.008125492914334509e-01 -8.546165141482640060e-01
-1.511380584312650710e-01 1.037158465081330569e-02 -6.628898199803908708e-01 1.955454094106269247e-01 -8.017456924206567415e-01 5.647706061254890164e-01
3.681664767607411518e-03 1.129071500854352539e-01 -5.184824569703575525e-01 -1.258704721152377748e-01 9.039292592168300944e-01 -4.087401602255394395e-01
-9.722102445463471493e-03 1.201907430613807920e-01 -5.150052806260366767e-01 1.342666581507095114e-01 -9.040851157504256053e-01 4.057124203023367293e-01
-4.216630179072274227e-03 -8.386736926720341628e-03 -7.326878326554929766e-01 1.105391752149546963e-01 -7.751809276003461813e-01 6.219932638119679558e-01
-1.080582907477118243e-01 -7.180412488790070824e-02 -7.791596557447160176e-01 1.971071044415351747e-01 -6.275765494359606400e-01 7.531908549476203918e-01
4.001965872066576280e-02 -2.721185720551347678e-02 -7.605278540224471584e-01 1.589020185638697902e-01 -7.555092166465219305e-01 6.355753079364290237e-01
