-4.639221267291323636e-04 -1.893861864797186934e-01 -7.936063082102469135e-01 1.823083798482214857e-01 2.223797170357162678e-01 -9.577634969491326533e-01
1.360334030789215887e-01 7.617920821059868952e-02 -7.490978236186321970e-01 1.548366671411879336e-01 -7.247100985299102793e-02 -9.852784171184795214e-01
-4.801064612491313943e-02 7.872934638935653873e-02 -7.787855619965621257e-01 1.626685097041615513e-01 -5.727911978542060689e-02 -9.850167807642843387e-01
5.684115749090975361e-02 -9.014038748183073047e-03 -7.606485828727490572e-01 1.689009006127155099e-01 3.039623287316216629e-02 -9.851642273242231518e-01
-4.022996515269242762e-02 -2.275882603858911390e-01 -8.167505442503646407e-01 -3.120038978718735548e-02 -3.991298912127443088e-02 9.987159200576170015e-01
-5.305649066387777002e-02 -1.595203880460102086e-01 -7.969997815763156801e-01 1.809709159087301844e-01 1.837854292926849598e-01 -9.661637767867612414e-01
4.342668153861626440e-02 -1.123763216503641249e-01 -7.791899883929903625e-01 -1.796178935843518731e-01 -1.309838269452973103e-01 9.749772558286088353e-01
-2.862925189396535106e-02 -8.590859303094920685e-02 -7.885299778970921158e-01 -1.682184477327706151e-01 -1.186278410199546052e-01 9.785857086516854819e-01
1.336907452036027559e-03 7.257862638098833141e-02 -7.807410473684857077e-01 -8.835468230734622175e-02 4.782920421206461603e-02 9.949401074129077260e-01
1.358930777642603782e-01 8.930137408066865512e-02 -7.500850614381155967e-01 1.548366671411879336e-01 -7.247100985299102793e-02 -9.852784171184795214e-01
1.284375510432446132e-01 4.218720446815662356e-02 -7.487125403184166084e-01 1.533098302989576722e-01 -1.559047134624765019e-02 -9.880551771722601018e-01
6.010055440424676848e-02 -8.840951542665899388e-02 -7.731474555465266407e-01 -1.739123836215027974e-01 -1.042478166804659545e-01 9.792276934096805219e-01
-9.066563870897829946e-02 -8.713722442193680418e-02 -7.922340448155333892e-01 1.703520710693500750e-01 1.222174178792494320e-01 -9.777745520565115367e-01
-1.286103608495400563e-01 -1.055713288831673646e-01 -8.083454287455905662e-01 -1.440793716292469995e-01 -1.289007899193350681e-01 9.811349147946435423e-01
-1.201248506204292098e-02 -2.310667882434252474e-01 -8.034181376114614137e-01 1.115421084474692154e-01 2.709187127717521681e-01 -9.561178845274204141e-01
-1.227799499333673411e-01 -5.145819980829278301e-02 -7.941142496460398270e-01 1.803397324141897129e-01 8.818965726827883433e-02 -9.796428763910254300e-01
1.284048760800685363e-01 1.231686405124240158e-01 -7.542877950304828216e-01 1.403525623911256459e-01 -9.789514236315027818e-02 -9.852500694402124282e-01
-4.777328838358885221e-02 -6.780181422444325756e-02 -7.898917760219135165e-01 -1.721691415660651370e-01 -1.045359513446704053e-01 9.795049880265382924e-01
-1.434574819013955393e-01 1.538954011564934270e-02 -8.006131736582542402e-01 -1.453198731878458383e-01 -3.468286092046247993e-02 9.887766348448167042e-01
6.848921792943737930e-02 -1.143489685114409959e-01 -7.748454845119364665e-01 -1.743614912502401137e-01 -1.441026843717954364e-01 9.740803286823089824e-01
7.756019734582186853e-02 6.619630995081468572e-02 -7.577315109225936096e-01 1.608989244482373071e-01 -5.680064494631354571e-02 -9.853350815053135703e-01
1.441824687721199316e-02 -6.631779300859769188e-02 -7.789459144818127179e-01 -1.747839720781098893e-01 -9.116285755656150513e-02 9.803774255391238812e-01
-4.385730831766933985e-02 -3.832827266589844406e-02 -7.767121147128974723e-01 3.627191326312554365e-01 6.756440923010722521e-01 -6.418254368298983437e-01
4.893903458672423101e-02 -1.996925578805020252e-01 -7.869539172047775866e-01 1.591528327659696429e-01 2.421420589453092131e-01 -9.570985315589475295e-01
2.667093177454609582e-02 -1.359978157724166248e-01 -7.889288513477711318e-01 -1.884003920985023173e-01 -9.449004832076439431e-02 9.775361492167284894e-01
7.720641782721038293e-02 1.548645585188429263e-01 -7.698885632543016611e-01 -1.583955965638702557e-01 9.866363181084164546e-01 3.820485281536151884e-02
-1.429872866739006210e-01 -1.233692207506390318e-02 -8.016438657866647999e-01 -1.518025197919613545e-01 -5.463364750512562928e-02 9.868997717828780214e-01
-1.124243873164303964e-01 -1.589352669220442937e-01 -8.119808881519013921e-01 7.911741422696680903e-01 5.426065637146062492e-01 2.821729852726546639e-01
-6.610655103578030878e-02 5.553227112196218451e-02 -7.882758363336105356e-01 -1.588002529120746686e-01 2.633230626845229141e-02 9.869595175698168132e-01
-3.167873425196152115e-02 -3.297902452026862941e-02 -7.768684579042278715e-01 1.709503016839975520e-01 6.124443959911834989e-02 -9.833743503734171387e-01
-1.974273284010183080e-02 -7.942425614890170904e-02 -7.862156954895525018e-01 -1.688742722008930996e-01 -1.185813086639637276e-01 9.784783867945986424e-01
4.310953224394849237e-03 -1.616193071443280116e-01 -7.944309901192223577e-01 -1.786882296833936512e-01 -1.912578378340631935e-01 9.651377912192921071e-01
1.105664034966646475e-01 -8.980123000157574920e-02 -7.571984764507493360e-01 1.606373947985686446e-01 1.135018349622635842e-01 -9.804656857088511757e-01
-4.525200328896322450e-04 8.943132985033996896e-02 -7.802979011138175824e-01 3.820763491532269684e-01 1.475372962470436651e-02 9.240129819866721439e-01
-2.674927705193285571e-02 -4.103940726333744071e-01 -8.781728714040668571e-01 9.910777028701742708e-01 1.331184374814080029e-01 -6.668468796249393989e-03
-1.008237255058345994e-01 1.315660843374514555e-01 -7.982674666690355858e-01 -1.446516318720280914e-01 9.127875780070300593e-02 9.852634641409979688e-01
1.458060967383031925e-02 1.785801656245387392e-01 -7.790743407541426135e-01 1.465042086302952018e-01 -1.633775277339481469e-01 -9.756250818245469913e-01
-8.311130446534943650e-02 -3.556483445669589294e-02 -7.858787025319257102e-01 1.730673518278807166e-01 7.221312114426781115e-02 -9.822591088230679945e-01
-6.032586895075402883e-02 -1.440436203349109712e-01 -8.029094673343650790e-01 -1.700050788019872305e-01 -1.812637554269173334e-01 9.686287855262513125e-01
-9.385450902311676113e-02 -1.820531177301550896e-01 -8.149650199220273006e-01 6.809262965113082045e-01 5.908217253307773698e-01 4.327459619644729027e-01
-2.392201335477525670e-02 3.251641823305229106e-02 -7.735223025594869517e-01 1.681101056128734006e-01 8.741416855124140017e-03 -9.857294659399166159e-01
-5.474373304227755227e-02 6.496196670374868032e-02 -7.793165621029644052e-01 1.620309249396761908e-01 -2.660529616302802214e-02 -9.864269550145466914e-01
-2.054092086524356153e-02 1.491953361835116343e-01 -7.878854172935071398e-01 -1.523696427301517720e-01 1.236576127499004751e-01 9.805571308104803485e-01
3.453889320909230010e-02 -1.249593826055280243e-01 -7.750470995348508474e-01 1.728135184527218871e-01 1.592663697574349946e-01 -9.719926498200891496e-01
-1.000124243924166156e-01 2.417473328370721777e-02 -7.863607940795992457e-01 1.677667647796978745e-01 1.693181790309038898e-02 -9.856813005114026804e-01
-2.425560710040216075e-02 1.467856721978840762e-01 -7.881607916459553165e-01 -1.531140098927912252e-01 1.233849182048698395e-01 9.804755284728566833e-01
9.026639656463114614e-02 1.807607886503967976e-01 -7.678141667542024429e-01 1.500558813487650467e-01 -1.553572582717143713e-01 -9.763950812939099499e-01
8.812816703009621055e-02 -1.322896235539682830e-01 -7.739218021732860997e-01 -1.890657441451133736e-01 -1.390971076234170933e-01 9.720628266946812479e-01
-4.477579049476658468e-02 7.776797184759202952e-02 -7.856116061871539769e-01 -1.625762133276703325e-01 5.762411932226359917e-02 9.850118962390094213e-01
-8.291036000437438172e-03 -1.645410482412821007e-01 -7.973578173714863659e-01 -1.701908892109028903e-01 -1.955825193069164747e-01 9.658066780526844974e-01
2.787398580721255417e-02 -1.073845208961932973e-01 -7.812708111141829503e-01 -1.763975601580919650e-01 -1.364949817190070358e-01 9.748092227383776676e-01
-5.610002927013655466e-02 -1.203262682061719546e-01 -8.011149906858973102e-01 -3.308984145119064357e-01 -7.215431807360693783e-01 6.081789848447431979e-01
1.270385891319457672e-01 8.296396388752934337e-02 -7.578657474743882849e-01 -1.681520797826999425e-01 6.719397319054953854e-02 9.834682750509139426e-01
-7.835577126405926518e-02 2.526585427379736057e-02 -7.826799708673015665e-01 1.642652921183449521e-01 1.166620463300557147e-03 -9.864155071783742290e-01
4.422721582784651384e-03 1.860025552415273953e-01 -7.892467548044109771e-01 -1.506584342238471985e-01 1.608884682772575292e-01 9.754060369777380890e-01
-9.085599534609385686e-02 -7.771995400249699648e-02 -7.984631585651597030e-01 -1.705955234134660936e-01 -1.146940924504745163e-01 9.786431589441820789e-01
7.308399158482573044e-02 8.696932920264524580e-02 -7.670550296331052342e-01 -1.608930893520720273e-01 6.016979564445264217e-02 9.851360360330195798e-01
9.337555743117355311e-02 -8.341210274103504074e-02 -7.666713461867875612e-01 -1.776897087139200637e-01 -9.605141329683122842e-02 9.793878156383420963e-01
-9.196051237928472288e-02 2.720218005586921839e-02 -7.922164173602523896e-01 -1.645687545433489607e-01 -1.742843822984976865e-02 9.862116276788259750e-01
1.964788177664336232e-03 -7.787297208328192166e-02 -7.780086136293881127e-01 -9.094095330003828526e-01 1.067797689940862133e-01 -4.019606724812700982e-01
-1.094750550233840741e-01 -4.939013820446164042e-03 -7.993836982587059214e-01 -2.064077021144773705e-01 -1.317192496025371140e-01 9.695596422046276475e-01
-1.280767013160299950e-01 -1.263362619653414232e-01 -8.050834280908650831e-01 2.307388868503716384e-01 1.752051647818630986e-01 -9.571116530106671405e-01
-6.206382727498063745e-02 4.828695350436175426e-02 -7.800692158810309529e-01 1.620309249396761908e-01 -2.660529616302802214e-02 -9.864269550145466914e-01
-3.979596676110447317e-02 -5.958380919691062122e-02 -7.877357015655747086e-01 -1.668585757478006637e-01 -8.806300049890355974e-02 9.820402861606775113e-01
-1.046607334281145218e-01 -1.687174715403571834e-01 -8.089702475459519260e-01 2.927250572787025718e-01 2.767930880114690129e-01 -9.152582298292953888e-01
4.420025219108086184e-02 3.745292912620678399e-02 -7.697360996735669314e-01 -1.641770614288075303e-01 2.175090928230647910e-02 9.861910516963708906e-01
-1.469321139163232426e-01 -5.580324549405451390e-02 -7.990224803958736466e-01 2.221049856900660924e-01 1.161757200943586699e-01 -9.680767414787800895e-01
2.784556905363679696e-02 2.162708197667555787e-01 -7.864952536486558010e-01 -9.168739759669009004e-01 3.271322011459650014e-02 -3.978340827837408278e-01
-2.027180330903601349e-02 -2.492699305038938717e-01 -8.235648858332548228e-01 3.579461178459855120e-01 -2.704001191378379021e-01 8.937328192973729157e-01
1.371410275026902804e-02 1.532743896944118722e-01 -7.861922903469982238e-01 -1.463193019928626382e-01 1.118544244592100528e-01 9.828933052947406157e-01
-6.664852068605998936e-02 -1.692341089915600505e-01 -8.014804365941416986e-01 1.813916509454778780e-01 1.986928925843632621e-01 -9.631293804072911247e-01
9.662417372890885758e-02 4.769023182999476002e-02 -7.612501708816372670e-01 -1.689608702944451479e-01 3.074897709829683273e-02 9.851429970906518951e-01
-3.790049601546886804e-02 -1.451343524062495213e-02 -7.842934407833797028e-01 -1.632984102691959205e-01 -3.439466627827240941e-02 9.859769957433892618e-01
-2.096123741882660596e-02 1.823992152586149662e-01 -7.851071690944920745e-01 1.521365409942603275e-01 -1.602007955007596629e-01 -9.752897918132976685e-01
3.368171392593219404e-02 -1.788687817030103211e-01 -7.850552080978068226e-01 1.813087139550282056e-01 2.080439660853702910e-01 -9.611684859687414928e-01
7.172783779821760575e-02 6.803524181584698349e-02 -7.587899050808102341e-01 1.608989244482373071e-01 -5.680064494631354571e-02 -9.853350815053135703e-01
1.764301078872120357e-02 -1.286655810488800122e-01 -7.862201569660250966e-01 -1.699334162778822488e-01 -1.616898476610939273e-01 9.721003174546647418e-01
-1.987032840799027658e-02 -2.625282706845943337e-01 -8.277370087162487788e-01 3.579461178459855120e-01 -2.704001191378379021e-01 8.937328192973729157e-01
1.436440569276115076e-01 1.204982018735303584e-01 -7.556068336340039382e-01 -9.518800478141143939e-01 -2.743230741645065196e-01 -1.366426930147881524e-01
4.789962786545538115e-02 -2.959667475860076544e-02 -7.704176418663992720e-01 -1.671742236086354305e-01 -5.328934884747103806e-02 9.844861727115634675e-01
-2.432280153282676688e-03 1.672318451786628524e-01 -7.873643196926600751e-01 -1.505278615336432535e-01 1.237403336970966938e-01 9.808311234451317917e-01
-7.711096424105598479e-02 -7.508372958558905130e-03 -7.832730459091019615e-01 1.697710302682577110e-01 4.735315089264244964e-02 -9.843452018383556101e-01
-1.840966840684293143e-02 2.452637847328101306e-01 -7.971473096460148788e-01 1.665057208615868534e-01 -2.572948911563231467e-01 -9.518798158933821085e-01
-1.020055164833492262e-01 -5.680337670372022363e-02 -7.982284817458799031e-01 -1.682956112693770323e-01 -9.197500195662348943e-02 9.814362874086861588e-01
1.020643436780752644e-01 1.000416187394049666e-01 -7.560489199555974205e-01 1.533776026127933179e-01 -9.478846653997309579e-02 -9.836109279729217114e-01
7.141757099592563329e-02 1.990742504397480239e-01 -7.739198724144635833e-01 1.427318580801872350e-01 -1.848251552086413452e-01 -9.723514172823932711e-01
6.784395390116308711e-02 8.918081996869445249e-02 -7.606622763742730831e-01 1.574621688272307141e-01 -5.986238601423589378e-02 -9.857089631980158195e-01
-4.559313365086881120e-02 -2.872765491126621010e-02 -7.863616632144869723e-01 -1.654777410243625790e-01 -5.861285566277679715e-02 9.844702384412280516e-01
-1.317858857823433483e-01 1.253942261225059196e-01 -7.999332896603037479e-01 8.820619276572451151e-01 -4.244417360640920234e-01 2.044895314300574085e-01
-1.770939818698323565e-02 2.418192716339825910e-01 -8.023741840669320613e-01 -1.146075604033022360e-01 1.646962689993366480e-01 9.796633330262501937e-01
4.655690923205767218e-02 1.069614855367880257e-01 -7.654999852351006551e-01 1.573205122556622926e-01 -9.014006569160593063e-02 -9.834251496584418550e-01
-2.266524072200515327e-02 -5.261759661195872760e-03 -7.739422987380989438e-01 1.641185958649038212e-01 4.057456064327486650e-02 -9.856057992523874489e-01
6.137304072833741492e-02 1.177547174625422771e-01 -7.715462775148841379e-01 -1.572423361436718903e-01 8.970411578768229532e-02 9.834775133854513074e-01
3.668088727577639013e-02 4.682811745731021297e-02 -7.637920433415548160e-01 1.641611644183962604e-01 -2.163798647776356970e-02 -9.861961821250295746e-01
-7.525848924103713256e-02 1.088209720098400474e-01 -7.850033662382953636e-01 1.640324354442030119e-01 -6.947246724816578956e-02 -9.840055571066129714e-01
-7.459356255453519768e-02 1.400804579979990916e-01 -7.950787325580280784e-01 -1.511434193314174501e-01 9.241957772906686519e-02 9.841820402980275828e-01
-1.409655109921426619e-01 6.615136736357998641e-03 -7.912193225890032933e-01 5.731165506807680554e-01 -9.032518697676723829e-02 -8.144806811296327886e-01
4.392828229771448406e-02 2.558740797878671439e-02 -7.696709350345651846e-01 -1.608766467759950303e-01 -1.381976924237184653e-03 9.869735531724709299e-01
-8.015991108015284305e-02 -4.467380979263382151e-02 -7.860283552057829581e-01 1.730673518278807166e-01 7.221312114426781115e-02 -9.822591088230679945e-01
-5.888895716521893794e-03 -1.040483739831704092e-02 -7.713563985350730956e-01 1.641939735424973179e-01 4.208447597511661559e-02 -9.855299264528832870e-01
5.429433476235685785e-02 -2.076062670535726018e-01 -7.893167939567001801e-01 -5.244423325960393401e-01 8.375909183990402074e-01 -1.529761196941452073e-01
1.378440329104042017e-01 3.669370360960802491e-02 -7.538677111521722152e-01 -1.782670787673777957e-01 1.929259152101519409e-02 9.837929886618163033e-01
8.636106382050424968e-02 3.605294892913007282e-02 -7.553960199847277179e-01 1.628480314639563775e-01 -1.042675622962094435e-02 -9.865960680049573606e-01
6.884341917743082295e-02 -4.072554986675232941e-02 -7.674166963020953025e-01 -1.697154996546509642e-01 -5.304613961794693577e-02 9.840644065550819830e-01
-1.227102514779479236e-01 3.731337041689163081e-02 -7.971670611862728961e-01 -1.628899337881025977e-01 -1.065951764843153966e-02 9.865866632759688892e-01
5.616111483349042754e-02 8.734068259465707640e-02 -7.698558529642598458e-01 -1.559422344157338491e-01 5.707002636858995309e-02 9.861161349535441101e-01
8.900099013616628862e-02 1.623766591491493105e-01 -7.651522610224473775e-01 1.434132187006592618e-01 -1.505374831149186854e-01 -9.781467757342668934e-01
1.363144187672939434e-01 1.410752896922811139e-01 -7.580864188263959358e-01 -9.272787529343491375e-01 -3.653831885713809124e-01 -8.154287133728177484e-02
3.731632964767993277e-02 1.702705561106500898e-01 -7.741919431825525777e-01 1.476680737315742842e-01 -1.630630611273935771e-01 -9.755022183963346638e-01
-1.006761968214312380e-01 9.916988290963850428e-02 -7.957050367664247892e-01 -1.506831610741653227e-01 6.476454045666793502e-02 9.864583819240088092e-01
-2.697176420615465548e-03 1.262151065549556653e-02 -7.702155437179379893e-01 1.596426020096292642e-01 1.548207693051600366e-02 -9.870534660885967870e-01
-1.826838302858116436e-02 7.943793692838367615e-02 -7.814162771027799437e-01 -1.612556455234543384e-01 5.377055085375782167e-02 9.854467741322701091e-01
8.655741355504391332e-02 1.599352296613036351e-01 -7.651347938405413940e-01 1.434132187006592618e-01 -1.505374831149186854e-01 -9.781467757342668934e-01
5.956298803103566783e-03 1.879724327967104147e-01 -7.819967591147473085e-01 1.387974361239542320e-01 -1.648981284855380591e-01 -9.764957137373331264e-01
7.587048541539472002e-02 -1.680208834934557652e-02 -7.576504953076484972e-01 1.659635739001696364e-01 4.767116286901194183e-02 -9.849789603686969208e-01
-2.335311856676578618e-02 -2.766703412509985971e-01 -8.305826601585858393e-01 9.081647562705312815e-01 -1.452914844161778130e-01 3.925903208488840668e-01
1.961923942449977920e-02 -2.850753279785996422e-02 -7.677569372309195339e-01 1.646182595505035762e-01 6.178151850015398128e-02 -9.844205770880541939e-01
-9.898508137266013099e-03 -2.005609014583266403e-01 -7.946559903576515538e-01 -3.607415408082374486e-01 2.694131158942535964e-01 -8.929065537442584244e-01
1.484430669427340421e-01 2.745667817223741008e-02 -7.516496524291814696e-01 -2.189337786921597973e-01 1.909630045912305216e-02 9.755528339645922475e-01
3.785825708588323041e-02 7.588800323327783530e-03 -7.708212238474643208e-01 -1.689702061584798243e-01 -8.883837235655707085e-03 9.855811214033733947e-01
-7.905526130590717626e-02 -1.794745073449926509e-01 -8.131614728341822751e-01 -1.671800284668545911e-01 -2.050599634664254933e-01 9.643657239164867834e-01
-1.067617263027861516e-02 -3.662463398324272146e-01 -8.526958132802278101e-01 -9.088930765507700071e-01 1.661679655697082258e-01 -3.824938987964386916e-01
8.437892575756258950e-02 7.521087237309875828e-02 -7.535709936408346854e-01 1.439020500779372991e-01 2.181495004845638436e-02 -9.893514582481546249e-01
1.498570850820024336e-01 1.064851379689746649e-02 -7.512737717422097727e-01 -2.156454642207305539e-01 -3.970795200860987618e-03 9.764636534692412440e-01
5.668353132079471599e-03 1.145556218409918108e-02 -7.786531952988857697e-01 -6.629746893517663997e-01 4.238019925357991435e-02 7.474412886576147219e-01
-3.890840417380430141e-03 5.491465790461152324e-02 -7.790982379980885275e-01 3.728849424507100774e-01 -2.207128363331413781e-02 9.276150484615415248e-01
1.015012745758100271e-01 1.641661183303994853e-01 -7.707195516091625009e-01 -1.660345922120449458e-01 1.435049632210637083e-01 9.756222833248024973e-01
4.401644902712297663e-02 -4.185455346960587075e-02 -7.614466148875995710e-01 -2.142852308750994514e-02 7.078934483681740275e-01 -7.059941105672929984e-01
-7.001937876092984014e-02 1.723929406057888303e-01 -7.933177680622338634e-01 3.603123897390981822e-01 8.994279098598609856e-01 -2.473952642344268982e-01
-1.442260148716360650e-02 -3.793813740841997517e-01 -8.714181533092045795e-01 -2.498164182004556366e-01 -4.063911856847651771e-01 8.788844983245669429e-01
-9.287861351531391529e-02 -1.234213419305226454e-02 -7.827972335242675550e-01 1.367398805671035666e-01 -4.381772170397737337e-02 -9.896374145752407925e-01
6.985944050965569446e-03 8.664465571429770530e-02 -7.666343894627389854e-01 1.056303404891615061e-01 -6.504189400044937952e-02 -9.922760619872768029e-01
-4.969026135676248013e-02 9.210472870584837657e-03 -7.780936602918043787e-01 1.677744879946094503e-01 3.045860420579446504e-02 -9.853547557138906399e-01
-4.376084441835541988e-02 2.266092360178459664e-01 -7.967751311393541647e-01 1.759439748699752615e-01 -2.479179161052285918e-01 -9.526701551854104277e-01
-9.206137850581721030e-03 -3.669652520953247676e-01 -8.565012716843598550e-01 -9.088930765507700071e-01 1.661679655697082258e-01 -3.824938987964386916e-01
1.031543887893316969e-01 -2.166376162606259773e-02 -7.632510303852585443e-01 1.194959404519109827e-02 -6.825380237291799324e-01 7.307523885462302582e-01
-5.177480192686022969e-02 -2.339143278959270045e-02 -7.835732626324540817e-01 -3.702493130689925582e-01 -9.270633791278394265e-01 5.889768460653460602e-02
1.867936197167142931e-02 1.522011265138072389e-01 -7.747735638311765705e-01 1.640196157609640770e-01 -1.277902667403461590e-01 -9.781447813959120996e-01
-2.675937771464135737e-02 -1.730004605755036118e-01 -8.023960843087512007e-01 -1.729406070685989005e-01 -1.916974983112830766e-01 9.660971046266209061e-01
-2.804890987185704523e-02 1.331841497574921540e-01 -7.871458168236825648e-01 -1.576511837169229935e-01 8.995398590569270159e-02 9.833892335653929839e-01
-4.302201468750414121e-02 -1.792112128170475771e-01 -8.067033299010702985e-01 -1.750578670882441956e-01 -2.089602779105177999e-01 9.621280296437026980e-01
2.804698145071625112e-02 -9.351480314772264366e-03 -7.655455696129060961e-01 1.649235000150466035e-01 3.389890901007094892e-02 -9.857236443906139955e-01
8.752694142704948999e-02 -7.194316456411073424e-02 -7.592708992631328480e-01 1.680719032929506862e-01 9.181133845230605994e-02 -9.814899456719262671e-01
-1.132060769325944974e-02 1.591935966641623290e-01 -7.764048578781236332e-01 1.559485417212766734e-01 -1.293959079679413426e-01 -9.792531599827284383e-01
-5.187733435491376395e-03 -1.259166691230057256e-01 -7.898784733028689775e-01 -1.679029925982688520e-01 -1.432963602651222967e-01 9.753331421680049296e-01
-2.368726558560633674e-02 2.334178390138708648e-01 -7.950820140082431875e-01 1.514765477393601734e-01 -2.156463148154500187e-01 -9.646509847563941031e-01
-3.861849460570301179e-02 -2.073705107181000179e-02 -7.847135690824350585e-01 -1.654777410243625790e-01 -5.861285566277679715e-02 9.844702384412280516e-01
-6.825694310090398009e-02 4.282139648470176252e-02 -7.883948589071659852e-01 -1.653671907808801356e-01 5.570347585830524514e-03 9.862163370381838989e-01
-5.425472177774053745e-02 -2.114507317277029008e-01 -8.158803557725130551e-01 -1.256513011001254843e-01 -1.706557004846896430e-01 9.772862336203888001e-01
3.484326064685831781e-02 1.383837797425198878e-02 -7.712817890199995530e-01 -1.689702061584798243e-01 -8.883837235655707085e-03 9.855811214033733947e-01
-8.194659486964545048e-03 1.184089357193701258e-01 -7.752203922321078133e-01 1.538613571698468629e-01 -8.640192388598666451e-02 -9.843075689634072090e-01
4.414838054332530931e-02 -1.789104998413302838e-01 -7.905113043582894239e-01 -1.784303511556968591e-01 -1.919940226937642269e-01 9.650393282329590150e-01
-1.336160807871849820e-01 -7.075425328630585708e-02 -7.981061349587386111e-01 1.878703214852278647e-01 1.121039956696373019e-01 -9.757753001895155265e-01
2.004002744391159344e-03 1.193411993983903019e-01 -7.708784699082743552e-01 6.542551538539236322e-01 -1.249950201071813871e-01 -7.458729373049969302e-01
1.245208774768487986e-01 1.179167291040929127e-01 -7.543192515532981535e-01 1.403525623911256459e-01 -9.789514236315027818e-02 -9.852500694402124282e-01
1.143458296528402501e-01 1.273701149950248190e-01 -7.638188847111097024e-01 -1.617760683528763899e-01 1.190389750037780525e-01 9.796214708438844010e-01
3.983619221602683474e-02 -8.097302630051873840e-02 -7.684589364153785462e-01 1.674869031873672531e-01 1.041720450917913154e-01 -9.803552020987592597e-01
-1.236627658604985969e-01 1.828024891113724446e-02 -7.905079317898564550e-01 1.691932736063634091e-01 1.678992444327143466e-02 -9.854398685884142584e-01
1.533531551877231891e-02 1.340105449989299202e-01 -7.703976761852484589e-01 -3.900698382710491852e-01 -4.505664561002541146e-02 -9.196822385789398258e-01
-1.004398945294722179e-01 9.263110592789360054e-02 -7.862417372315404496e-01 3.415642996822808031e-01 6.011152074615918606e-01 -7.224917553446268403e-01
1.392963883054228469e-01 6.556672925816335595e-02 -7.480155950563849299e-01 1.519045898941637218e-01 -4.401251405549872625e-02 -9.874147528650765171e-01
-8.652565285146129881e-02 -1.239608525729230110e-01 -7.967230960256925787e-01 1.721321316405366453e-01 1.495724446806029062e-01 -9.736522033298915524e-01
1.358914056297534645e-01 9.264661009773526162e-03 -7.540380946523257411e-01 -1.918770763656549860e-01 -8.824983585389164012e-03 9.813792881603350393e-01
-3.157007540722848310e-03 1.498047787602354020e-01 -7.795860422265976641e-01 3.562683393365738693e-01 9.078914340094675905e-01 -2.209208329664548165e-01
-4.981996526212271320e-02 1.683183949186611295e-01 -7.845781258115631651e-01 3.418809333814672446e-01 5.467325715395077168e-01 -7.643303753011612134e-01
6.109860508690639902e-02 8.508659029221112002e-02 -7.615085332428457310e-01 1.608989244482373071e-01 -5.680064494631354571e-02 -9.853350815053135703e-01
-7.370092630984981241e-02 1.371266262736399733e-01 -7.874228271570057336e-01 1.606487133957302527e-01 -9.402358843274172262e-02 -9.825230560666384783e-01
2.865805295969961475e-02 -2.017168880398483577e-01 -7.911209477425541481e-01 1.790981192898913887e-01 2.280747969388730034e-01 -9.570296498375144845e-01
-3.383603703062157408e-02 -1.126773401744929765e-01 -7.855012149884086359e-01 1.721844310754387097e-01 1.369318198994664004e-01 -9.755009986638902841e-01
-1.149541482512898144e-01 1.060882732571453817e-02 -7.891434274949140626e-01 1.691932736063634091e-01 1.678992444327143466e-02 -9.854398685884142584e-01
-1.730261527913799433e-02 3.555313148624740516e-02 -7.799327380410612243e-01 -1.552806533735264505e-01 1.622596053280449604e-02 9.877371294492671705e-01
3.684998963762840113e-02 -7.180736379889567089e-02 -7.679951698292516449e-01 1.674869031873672531e-01 1.041720450917913154e-01 -9.803552020987592597e-01
1.371488911317857162e-01 -2.750993373325046065e-02 -7.480103051465240016e-01 1.510138706008607168e-01 3.322003629334904784e-02 -9.879732992722095597e-01
-1.421875424204605519e-02 -2.309655846503838039e-01 -8.067209671213361188e-01 1.879497645877495349e-01 2.740144184471751121e-01 -9.431813104989229535e-01
-4.174088577424716479e-02 1.006890752903326913e-01 -7.790271227236236218e-01 1.626685097041615513e-01 -5.727911978542060689e-02 -9.850167807642843387e-01
4.445506215656473692e-02 7.934072964101032688e-02 -7.712548526316878039e-01 -1.609819000374718145e-01 5.363602273624522299e-02 9.854988609457455695e-01
-1.256721416947043091e-02 -1.669760838076167486e-01 -7.873411594344805753e-01 1.156439179295642855e-01 2.071231030208924295e-01 -9.714558684988714443e-01
6.103524873000006762e-02 -6.458417318158785059e-02 -7.631714868679297936e-01 1.716246024668233727e-01 7.944589764164809720e-02 -9.819538406544460196e-01
-1.078718019590609173e-01 7.542492568999337177e-02 -7.955670720907589422e-01 -1.518497888946873098e-01 3.647277335478332772e-02 9.877304178855935701e-01
-3.671616362426134705e-02 1.518801331910805685e-01 -7.832897370807953008e-01 1.510005936677071836e-01 -1.246526448945021598e-01 -9.806429211659076772e-01
-8.396098059930223734e-02 -1.267105661560831431e-01 -7.966920981818880199e-01 1.721321316405366453e-01 1.495724446806029062e-01 -9.736522033298915524e-01
-6.677996717572511065e-02 2.367404330535993057e-02 -7.807541639563179148e-01 1.642652921183449521e-01 1.166620463300557147e-03 -9.864155071783742290e-01
1.210108945656941798e-01 1.320835467797904506e-01 -7.563786713785365379e-01 1.368184485592540134e-01 -1.270073081625901212e-01 -9.824204068560116188e-01
9.273670425163134390e-02 2.118349234079364152e-01 -7.738436032987729973e-01 -1.084691937925069821e-01 -3.824787161685371806e-01 -9.175753188028060725e-01
7.036267835073159449e-02 -6.283560493863751817e-02 -7.688204571158829825e-01 -1.714809817194216102e-01 -8.023595375596007107e-02 9.819146931548660140e-01
-1.173089254545673088e-01 -1.298731118847240296e-01 -8.034410658433501773e-01 1.896334093625590966e-01 1.663379694714269552e-01 -9.676625703031271897e-01
-1.334549617631940188e-02 -2.075854315322401278e-01 -8.077115849055481744e-01 -1.645802992475351167e-01 -2.336999135194883503e-01 9.582784958041034029e-01
7.200507880684963412e-03 2.725576257024536070e-02 -7.683511807094021151e-01 1.697102461617457370e-01 -1.733090133115014475e-02 -9.853416017842591135e-01
6.386281350506965715e-02 1.565681065989075194e-01 -7.788986932251010797e-01 -1.607785066768020465e-01 2.416227435391477552e-01 9.569580563407117380e-01
-1.420353396965231274e-01 7.811476477268221308e-02 -7.945581870914604217e-01 1.931130194363709640e-01 -5.134417916122382963e-02 -9.798321983842068761e-01
-2.041167721021390144e-02 -3.304888097381384338e-01 -8.526966335283613363e-01 -1.061596242535221279e-01 -3.608210047084825511e-01 9.265734383952044517e-01
-1.388934969381720730e-01 7.279091574934112852e-02 -8.000408306100383893e-01 -1.047166008758509820e-01 3.351640131765012270e-02 9.939371631766877879e-01
-9.589500427746518174e-02 8.971061818035563906e-02 -7.915709565390429692e-01 2.890803661101697952e-01 9.457065856374520241e-01 1.485651231331324706e-01
1.530982867802261893e-01 2.246577873201426392e-02 -7.449636561351211661e-01 2.556864417631238891e-04 1.126102250463423445e-02 -9.999365599859790787e-01
6.276646030605841087e-02 7.783041589775335778e-02 -7.655149929617358628e-01 1.166802339722127491e-01 -9.662214288416851593e-01 2.297865823918403549e-01
-9.919230131219805568e-02 -1.599233261524882210e-01 -8.056712947774208322e-01 1.857876721871417613e-01 1.951621830552019432e-01 -9.630133245020086052e-01
6.415671895089057608e-02 2.148564358340862845e-01 -7.780373984616347771e-01 1.458864514589021111e-01 -1.883724538707495511e-01 -9.712018131693543888e-01
-5.409853640023856713e-02 -6.587761484718025751e-02 -7.907982180713091225e-01 -1.721691415660651370e-01 -1.045359513446704053e-01 9.795049880265382924e-01
1.709231463459498848e-02 -2.167591931365062813e-02 -7.752645989176570884e-01 -1.688979773813613083e-01 -3.706910526593230892e-02 9.849362185803038905e-01
-4.997487710626045965e-02 -1.489976588338010055e-01 -8.019461958874237739e-01 -1.801694958555306592e-01 -1.817115033877635122e-01 9.667056854595004189e-01
6.989944939240172461e-02 -1.187412010224892650e-01 -7.678820135947569403e-01 1.706161311847462225e-01 1.440496877436900081e-01 -9.747511596507566489e-01
-1.123082397210047913e-02 2.932782453891096333e-02 -7.788731675678941535e-01 -1.731353642547561467e-01 -9.881133025654038199e-03 9.848484699965280864e-01
-1.213569121599479689e-01 4.920729611716426199e-02 -7.970473330043059690e-01 -1.591719674450886302e-01 1.339813040620316080e-02 9.871599540506481585e-01
4.199716123115766059e-02 -1.977717707348283505e-01 -7.948763022575602299e-01 -1.853303126230668729e-01 -2.040673597638628656e-01 9.612539663907984089e-01
-7.231450127265716399e-02 -1.592617013107828494e-01 -8.079126701540247923e-01 -1.750251180758090608e-01 -1.922784395844763239e-01 9.656061359133483180e-01
-6.569083710423663514e-02 -5.079783827558733561e-02 -7.840182234251654725e-01 1.686461516130287330e-01 7.969466819893487874e-02 -9.824496096018241476e-01
6.825344753046712343e-02 6.739855163454454290e-02 -7.595974622335360804e-01 -1.168178913751149739e-01 9.662212890142792832e-01 -2.297172194465544881e-01
-8.179842128169168003e-02 2.542092944034450921e-02 -7.832555241969415549e-01 1.685887585195365856e-01 -5.976948965252551656e-03 -9.856683552706295703e-01
-1.360138507640673289e-01 7.648962662100239340e-02 -7.933324531402529134e-01 1.688691024259041107e-01 -4.542944904747359819e-02 -9.845909767030734949e-01
-9.325262241713042077e-02 -2.018300111637653591e-02 -7.860559321614496442e-01 3.718749139354127764e-01 9.267775144901726492e-01 -5.284398755721531060e-02
-8.576178042641617594e-02 -1.007929618643661346e-01 -8.004269589447519095e-01 -1.659303261495005677e-01 -1.207344620160356735e-01 9.787187116560194244e-01
1.117402774124836608e-02 -2.325808229688389461e-01 -8.082564020137045224e-01 -3.033673420024171619e-01 -1.692169437246158689e-02 9.527234184515216420e-01
7.017775915568511165e-03 5.402113033188634533e-02 -7.762092147907351247e-01 -1.636988397561774944e-01 1.543403848092352385e-02 9.863896189227919775e-01
7.966151579118013748e-02 -9.096939218978288000e-02 -7.699593092917338399e-01 -1.742317809632348558e-01 -1.143903795938592260e-01 9.780378967906878662e-01
1.317861414703472289e-01 -8.141338901012168394e-02 -7.528492098421442069e-01 1.230150129294937528e-01 1.244520586862049027e-01 -9.845704604967192575e-01
3.599448694902596113e-02 1.412277247203237440e-01 -7.706583955394562535e-01 1.491515033963971282e-01 -1.228912144659502492e-01 -9.811480920032807918e-01
-1.297657978355037933e-01 4.868919506751072379e-02 -7.914855722158962159e-01 1.725581655712824514e-01 -1.721368740646622361e-02 -9.848489064118141068e-01
-7.476697690778989769e-02 -2.668543142113286720e-02 -7.912118262547052083e-01 -1.668441563730563293e-01 -5.328596417889744363e-02 9.845423472383950658e-01
-1.590489372186027969e-02 -9.996710714057237268e-02 -7.879853422633991133e-01 9.104700804881090681e-01 -1.128706556726538912e-01 3.978749145447610935e-01
7.914251770898132754e-02 -2.568667953590933126e-02 -7.648809403142439178e-01 -1.670522428396837289e-01 -4.963815024312651786e-02 9.846977212336140983e-01
4.971889734477338146e-02 -1.763090814409319917e-01 -7.889637963876684479e-01 -1.784303511556968591e-01 -1.919940226937642269e-01 9.650393282329590150e-01
-1.220245179471675517e-01 -8.286730279810324007e-02 -7.973080265128483779e-01 1.769484387390744262e-01 1.178944661327426119e-01 -9.771336371669330223e-01
6.654471750902832272e-02 2.140236851793091144e-01 -7.845039798709468881e-01 -1.535687131094852498e-01 1.757238688545199878e-01 9.723876656296581711e-01
2.920754135613640862e-02 -1.593838819504100612e-01 -7.894791942811112406e-01 -1.722786197205750658e-01 -1.823705767617870566e-01 9.680191371655555432e-01
-6.834798178099964205e-02 1.508637523700065985e-01 -7.954314676227980385e-01 -1.472278387934230215e-01 1.220235395970594994e-01 9.815468502666709893e-01
5.437196933051433728e-02 7.390137217729597641e-02 -7.717415709393184997e-01 -1.928484946437762984e-02 -6.333693340629719115e-01 7.736093208136544108e-01
-1.041504388661186054e-01 1.050491041706951012e-01 -7.921243641246746847e-01 -2.856713322176430148e-01 -9.483264802885933431e-01 -1.380897415901899128e-01
-1.452572075504135196e-01 -3.359407131749425623e-02 -7.967314442805927266e-01 1.868907226459340654e-01 8.380676502624827273e-02 -9.787994094423614344e-01
2.883054135410890659e-02 2.236233787701595588e-01 -7.881606956430446953e-01 -9.168739759669009004e-01 3.271322011459650014e-02 -3.978340827837408278e-01
-1.313434136855589351e-01 -1.034964348931469713e-01 -8.019284411876738128e-01 1.914176589438435216e-01 1.395526794495827172e-01 -9.715370963081647604e-01
-7.694518923632576168e-02 -1.428711837134280516e-01 -8.057009294524219989e-01 -1.770587196046145284e-01 -1.731846806553268281e-01 9.688432670965344551e-01
7.351973954984978611e-03 -5.967915887766356980e-02 -7.795775793448203039e-01 -1.699518285654354754e-01 -9.160668737229638037e-02 9.811852989094054234e-01
1.087830181663323459e-01 1.137080179273876335e-01 -7.634540562727053503e-01 -1.636143388644007435e-01 9.123298355037365304e-02 9.822967427567201870e-01
9.114333355274933934e-02 -1.247015089048409686e-01 -7.722495342316523237e-01 -1.890657441451133736e-01 -1.390971076234170933e-01 9.720628266946812479e-01
6.202819386773321397e-02 -8.103131260433899669e-03 -7.597311893594517196e-01 1.689009006127155099e-01 3.039623287316216629e-02 -9.851642273242231518e-01
-3.326508833818092592e-02 2.017748926669185872e-01 -7.901750428927040160e-01 1.498464874723646756e-01 -1.854193937593718311e-01 -9.711671733589956057e-01
-1.414005697624534652e-01 -1.991624837558570935e-02 -8.018193837278250191e-01 -1.518025197919613545e-01 -5.463364750512562928e-02 9.868997717828780214e-01
1.261449946838273939e-01 8.562182421962750978e-02 -7.480578099059449482e-01 1.532511071587730478e-01 -1.558253548979297576e-01 -9.758240399403698140e-01
3.880300763277628323e-03 6.827710186191701669e-02 -7.660347106199610900e-01 1.461808925220978161e-01 -8.078120605155514333e-02 -9.859541284513690940e-01
4.717625915446448104e-02 1.537103817508694292e-01 -7.810288801100256917e-01 -1.653820720871542471e-01 2.412956054393464445e-01 9.562558240490974804e-01
-1.247278280273014794e-01 -5.881114697491865266e-03 -7.884011602389592310e-01 3.578561675204888215e-01 6.493679836906678382e-01 -6.710142957680294007e-01
-9.448756863241257464e-02 -1.237646786123994258e-01 -8.054755998737423983e-01 -1.733125134518444521e-01 -1.634997150600089322e-01 9.712006053624040458e-01
-2.758197585527949122e-02 -1.372431175364050293e-01 -7.843956550236831360e-01 1.943021073329328774e-01 2.026889612234046567e-01 -9.597728252478073818e-01
-1.018399764844159089e-01 5.874900749262398220e-02 -7.868060301907641163e-01 1.638182369977058128e-01 -1.050779116461278591e-02 -9.864345754036627500e-01
1.211438357873091121e-01 5.937724970336739211e-02 -7.505000292747949775e-01 1.493702847777325093e-01 -4.488005560463402543e-02 -9.877622682783261387e-01
8.139700464334319319e-02 1.697613962981114333e-01 -7.674270990354378208e-01 1.500558813487650467e-01 -1.553572582717143713e-01 -9.763950812939099499e-01
-3.204376341852999133e-02 -9.795845821768782435e-02 -7.831348597396157185e-01 1.736868965654848052e-01 1.356372245304350577e-01 -9.754155039177565545e-01
4.231208426406257717e-02 9.745385262972279528e-02 -7.653075754553836374e-01 1.573205122556622926e-01 -9.014006569160593063e-02 -9.834251496584418550e-01
-4.353643832857725200e-04 -1.262734714472541764e-01 -7.815642488430865065e-01 1.728843229349716626e-01 1.404818256718675940e-01 -9.748722313919990778e-01
-7.100353351737352658e-02 -1.923453484396167312e-01 -8.074689910772134827e-01 1.985516426808455193e-01 2.388513335380151037e-01 -9.505405228899237446e-01
1.300765490388448298e-01 1.541449114424888744e-01 -7.637328267378920010e-01 -4.245883040348235049e-01 -4.140902492910572726e-03 9.053770623355642533e-01
1.368573101318761032e-02 1.663078550351463070e-01 -7.879139305109903457e-01 -7.208380737919896364e-02 1.387444552354313576e-01 9.877013216834034104e-01
8.011575275215258515e-03 2.184599024092775399e-01 -7.871968024225901583e-01 1.565755637514781029e-01 -1.973087880496466884e-01 -9.677568573739410152e-01
-9.651199985104719214e-03 1.009321358844492839e-01 -7.813475226021278086e-01 -1.537466408578521126e-01 8.685015646564611669e-02 9.842860462014176859e-01
-7.214108684695071105e-02 -1.969626002490790229e-01 -8.089367920596977068e-01 2.017023902765890386e-01 2.524586988276920629e-01 -9.463512831623038801e-01
-5.093178369526887676e-03 2.516854083988976365e-01 -8.024684708425574575e-01 -4.535332535271986709e-02 1.367663193710684684e-02 9.988773826743236883e-01
-1.361239502139009218e-02 -1.300559810437474650e-01 -7.808138094410005392e-01 2.295351129532218482e-01 1.439299961091432267e-01 -9.625994951907950181e-01
8.595932143179832452e-02 1.817324662005746772e-01 -7.758829779422610207e-01 -1.574305246543763748e-01 1.488403259186825145e-01 9.762490395833780532e-01
-3.630836802223952331e-02 1.056482266284539118e-01 -7.785348626954142759e-01 1.550854469044248840e-01 -8.995338527272594975e-02 -9.837971806406191622e-01
8.597057642206867856e-02 -4.279806883299146908e-02 -7.572608354256999963e-01 1.649689216131360880e-01 6.412704553737129387e-02 -9.842118557162613524e-01
-1.021926355614189152e-01 1.040386550435272450e-02 -7.942283449292358855e-01 -1.625561039139682418e-01 -2.095343339784367515e-02 9.864767948153434496e-01
-1.393029062179186248e-02 2.379294809935391664e-01 -8.012127283187796545e-01 -1.392769472330996627e-01 1.847597029234042121e-01 9.728647306512264725e-01
8.719708527333497328e-02 -1.115998191477243218e-01 -7.637989514692483661e-01 1.706161311847462225e-01 1.440496877436900081e-01 -9.747511596507566489e-01
-4.563020988197982741e-02 4.086973615144966210e-02 -7.771917902482777807e-01 1.606544491717620537e-01 -2.134509344411163884e-02 -9.867798817097863662e-01
-9.424955010626361387e-03 -3.622992299041606912e-01 -8.607211775605104753e-01 -6.547679083577822023e-01 -2.644014681473740858e-01 7.080754548960782602e-01
-1.412719260831432275e-02 1.551813943628654879e-01 -7.876440557556324551e-01 -1.513296498202943707e-01 1.235188910369491855e-01 9.807356527843112959e-01
9.958834456100107424e-02 -1.165478499458607597e-01 -7.611018887638028030e-01 2.468527730279986843e-01 -5.443066882777849447e-01 -8.017443093308849189e-01
-1.536348687375954647e-02 -3.101428993665643619e-01 -8.441326012469471118e-01 -2.553969799359728232e-01 -3.483195848276384732e-01 9.019123291457356029e-01
2.669113833209431699e-02 -6.534713938095358665e-02 -7.692253941755479163e-01 1.715781798847558215e-01 8.170821923108043117e-02 -9.817762958523289507e-01
-4.855724829872827553e-02 4.590027752542467226e-02 -7.777771478654684767e-01 1.606544491717620537e-01 -2.134509344411163884e-02 -9.867798817097863662e-01
-2.155383960085588413e-02 -4.090529566884247570e-02 -7.719581635786678664e-01 1.364040707948976916e-01 -2.944173145079176379e-02 -9.902156906047085982e-01
1.379953898362158704e-01 -4.252872553838622782e-02 -7.487073800529749912e-01 1.466609428681201754e-01 5.793818812005889496e-02 -9.874885995262925320e-01
1.159811584410246760e-02 -7.623461544805772150e-02 -7.803900371565251071e-01 -1.714468835437788496e-01 -1.096631342088865979e-01 9.790709693983421502e-01
8.842970185037846154e-02 2.144800258384541303e-01 -7.747318326414101008e-01 1.079643000679461895e-01 -2.356590218733536357e-01 -9.658201361125851037e-01
1.173617042984352599e-01 -9.603458930797997839e-02 -7.636583659909954580e-01 -1.926216756913771977e-01 -1.020995900133443712e-01 9.759470086910214670e-01
1.644458047006363069e-02 -2.307716508465272043e-01 -8.048033808781961396e-01 -4.836187780397362967e-01 8.664894771161688602e-01 1.237289924564987653e-01
3.635770284737238622e-02 9.030564495508380807e-02 -7.657541345780046749e-01 1.609486907083425289e-01 -5.331127461159543973e-02 -9.855219058745254834e-01
-4.776840763788351568e-02 -7.893600737979264426e-02 -7.835986961641927540e-01 1.689253286388258113e-01 1.124540462912643896e-01 -9.791926882983689184e-01
3.990459175565033018e-02 2.167463565138016690e-01 -7.820199861428001054e-01 1.390285979404579930e-01 -1.914511105533655555e-01 -9.716056407939352990e-01
8.785431868996432248e-02 8.421261806021734797e-02 -7.644561997971360823e-01 -1.645244431321354339e-01 6.005768049648176066e-02 9.845429308188866635e-01
1.175648265556213795e-01 -1.086688755008761859e-01 -7.650260436194005198e-01 -1.882751058944432399e-01 -1.226782799412848429e-01 9.744242013266520841e-01
3.747293026166513552e-02 2.023832108044069655e-01 -7.868256457675678606e-01 -1.421328434390342343e-01 1.826631845967895407e-01 9.728475809749921321e-01
-4.755076452885594052e-03 1.194732157398977757e-01 -7.822187461082349413e-01 -1.537466408578521126e-01 8.685015646564611669e-02 9.842860462014176859e-01
5.089095974012547777e-03 1.472142480412530763e-01 -7.762579908865087086e-01 1.405579259551506810e-01 -1.258299736721500139e-01 -9.820439334250032903e-01
-2.491623670614208363e-02 2.443324318623900371e-01 -8.015274021299767515e-01 4.707293000687193807e-01 -8.513906906761395943e-01 2.314040144137938793e-01
-2.385635592148465170e-02 -4.859989878758001064e-02 -7.840115832196690171e-01 -1.691818717615825030e-01 -8.790748765553360600e-02 9.816566445969484578e-01
7.827309556314408778e-02 6.938469705706125368e-02 -7.669071916760562546e-01 -2.126313431986778246e-01 7.018116090113029060e-01 6.798885036140058791e-01
-9.893281641878680366e-02 -1.080022668782668477e-01 -7.931683871294623600e-01 -6.646537360273126194e-02 -4.960620865268114965e-01 -8.657394298647346220e-01
4.991564558846345312e-02 -1.307923588919460700e-01 -7.732366516349328256e-01 1.755724339789385968e-01 1.587249921813729259e-01 -9.715866905653527397e-01
1.030360039489801177e-01 -1.012576144295813663e-01 -7.669056933455097314e-01 -1.832624392061365237e-01 -1.119274218370758800e-01 9.766714547979388206e-01
2.449172559599371163e-02 2.143548850276595363e-01 -7.942557442256276135e-01 -6.336052366906336220e-01 2.051407860038733100e-01 7.459635795103664035e-01
-1.204897661107495223e-02 1.409933886849351337e-01 -7.855364721059416855e-01 -1.513296498202943707e-01 1.235188910369491855e-01 9.807356527843112959e-01
2.876179159030637159e-02 1.086177126491723044e-01 -7.759001946036844233e-01 -1.561695810022464270e-01 8.846730962259485853e-02 9.837604368430977742e-01
9.702327511205902089e-02 1.922795311333599377e-01 -7.688943594323325303e-01 1.411291910043633580e-01 -1.773154921220690960e-01 -9.739824267921685097e-01
-8.173507081826271448e-02 1.819768370581276717e-01 -8.014414375302071347e-01 -1.218046824786854082e-01 1.299400218765021375e-01 9.840117936493447681e-01
4.898996975752302474e-02 5.876196503847809505e-02 -7.620883454991024264e-01 1.581456281835788846e-01 -2.646315849065258505e-02 -9.870611235020451124e-01
-1.474845731060623125e-02 -2.382085280646801251e-01 -8.090474933636340182e-01 1.697954851895679407e-01 3.043673492635537992e-01 -9.372993171402168588e-01
-9.048353003585853094e-02 -1.720170222540075289e-01 -8.065944173471621959e-01 1.898641272592050400e-01 2.174903813025216570e-01 -9.574181673756686495e-01
3.289051573888584351e-02 -1.953218974323720769e-01 -7.888182656690511108e-01 1.754296096269888638e-01 2.217173084625735646e-01 -9.592006501218782732e-01
-5.012220775047533661e-02 2.163854690948559256e-01 -8.023378991162823937e-01 -1.314080705242293701e-01 1.562567037568930173e-01 9.789360354651012175e-01
-1.258610862871616665e-01 8.073686735847290796e-02 -7.985370594262133359e-01 -1.401671832098996817e-01 3.806273663177068417e-02 9.893959717075376803e-01
7.604929845283650569e-02 1.926924967520045329e-01 -7.792587870870029132e-01 -1.477826324343682607e-01 1.698175858531457971e-01 9.743317099867875308e-01
-1.206670145176563791e-01 6.149857436991697235e-02 -7.971029144565365820e-01 -1.591719674450886302e-01 1.339813040620316080e-02 9.871599540506481585e-01
-9.828316225097138981e-02 4.207957426534186113e-02 -7.860377785711107901e-01 1.638182369977058128e-01 -1.050779116461278591e-02 -9.864345754036627500e-01
-1.332429094716035961e-02 2.825633762741048757e-02 -7.717631658357853031e-01 1.634022361196858231e-01 1.213399221213362633e-02 -9.864849088881602057e-01
7.070064629914403660e-03 1.765375727981735865e-01 -7.872150996837904424e-01 9.156877927221003244e-01 -3.918539889118742570e-02 3.999754627142347307e-01
3.868795655355207561e-03 -1.025955124654445577e-01 -7.848564958945928316e-01 -1.730993414220192983e-01 -1.392951277905656871e-01 9.750043514636604902e-01
-1.176103352293254335e-02 -4.319688585902809602e-02 -7.815747296058878080e-01 -1.688441179074923471e-01 -6.569271284195717098e-02 9.834511331670247047e-01
1.110613440579686639e-01 1.193015092417811923e-01 -7.565150182690361103e-01 1.516867706642294200e-01 -9.501201959451924250e-02 -9.838515333819570774e-01
1.413579271940595683e-01 1.217663687147310103e-01 -7.581801941523776955e-01 -3.918771277714952483e-01 2.759783862576684066e-02 9.196035428556967872e-01
-1.179395464435375879e-01 1.378802784910381496e-01 -7.948241244950717821e-01 1.992557360165489455e-01 -1.165261059654170150e-01 -9.729947678651922338e-01
-2.304184998566320350e-02 -1.235029081520808980e-01 -7.926450125393228463e-01 -1.725776550141667753e-01 -1.381238837058747226e-01 9.752634237680694040e-01
