-9.143052182817663909e-02 1.076958791103564683e-02 -7.582641579409543642e-01 -2.275644283510384891e-01 8.153742893376737522e-01 -5.323337291928328385e-01
3.220042377966278457e-02 6.193992060190262744e-02 -7.298029799041939603e-01 -2.261597715408867615e-01 8.579752982907800085e-01 -4.612267828947285153e-01
3.432064340144488218e-02 -4.474364520456242111e-02 -8.966833399208993249e-01 2.462973947872159619e-01 -7.307356892542933302e-01 6.366811963385468065e-01
-1.538598904427569136e-01 -7.993984765363598005e-03 -7.701897109015873877e-01 9.450075426071217199e-01 -3.024481384215941260e-01 1.244422274831233077e-01
-1.153037667991139124e-02 -1.545818119488910902e-01 -9.803696334422734582e-01 -2.735179715826685509e-01 6.872537660367212808e-01 -6.729562989449211496e-01
3.185530464175948331e-03 -1.266718765618528482e-02 -8.352971977370291512e-01 -9.949270856160684628e-01 6.061305360848520674e-02 8.028793209300688627e-02
9.051125989278466233e-02 4.821132629217236842e-02 -7.943509036334014395e-01 2.327688730061185374e-01 -8.176649538719740207e-01 5.265383888844233917e-01
1.687424365092426645e-02 1.205818285155113023e-01 -5.972077713821782874e-01 -1.908064828297657556e-01 9.114270690207147974e-01 -3.645457227378255949e-01
7.794557162444648579e-02 -8.669331187443383990e-02 -9.483952689042023376e-01 -2.798822523140205853e-01 7.035590986611806041e-01 -6.532002139701870158e-01
-4.488311230545420638e-02 9.644994736874883861e-04 -8.059515965045932484e-01 2.367208883790540008e-01 -7.921060518534240869e-01 5.626110766970483512e-01
5.834249500701397390e-02 9.922129508809018894e-02 -6.697455720988034766e-01 -2.113347777701831409e-01 8.902533218380784819e-01 -4.034682573153605123e-01
-3.625365788604156120e-02 -9.546521475952486277e-03 -8.113992749237317614e-01 -2.347878536247929859e-01 7.921582788340213455e-01 -5.633470733615144610e-01
1.070270876586821990e-01 -6.204794527601502352e-02 -9.346930879319215180e-01 -5.045303767715368926e-01 7.344770432930654014e-01 -4.538640454918715927e-01
1.290243739319608673e-01 1.073421027996220370e-02 -8.535237207121302294e-01 -2.564478788783750018e-01 7.777847133227284715e-01 -5.738339700124621690e-01
-8.998706190439126340e-02 6.249295689736224235e-02 -6.851934892603699367e-01 2.262595925283336085e-01 -8.619134676964423925e-01 4.537750224421858158e-01
-4.957503964259563078e-02 -2.734930934407753950e-02 -8.298874530091684409e-01 -2.453426800730847679e-01 7.627166289179664327e-01 -5.983897670470050834e-01
2.599115386388626409e-02 1.174147561465265360e-01 -6.029390006494705911e-01 3.216951859956644344e-01 8.420397164609277896e-01 -4.329911352552326953e-01
1.262999990657521776e-01 1.106648098763747118e-01 -6.974300671366454596e-01 1.968456590502714321e-01 -8.924265318627858656e-01 4.059885118330621712e-01
-4.325324565514186703e-02 7.039989061756549149e-02 -6.771951584752832209e-01 -2.162401911794907261e-01 8.761844468288216836e-01 -4.307446979986278013e-01
-1.537677056442436456e-02 -1.107253094629826184e-01 -9.525998338052937831e-01 -2.772229440923767441e-01 -6.491692153947303812e-01 7.083267389083549581e-01
-2.795472414655467315e-03 9.573593270363363328e-02 -6.629496913244509182e-01 2.158900411101464523e-01 -8.771655861040855706e-01 4.289196016786077092e-01
8.591747787136408410e-02 1.203735901253026597e-01 -6.550996466830494303e-01 2.084305824179629174e-01 -9.031995371015171248e-01 3.752163222629232298e-01
-1.204526832241640741e-02 -8.303091465899355150e-02 -9.211406540601911885e-01 2.421661606891267193e-01 -7.039789899357530301e-01 6.676594433887121927e-01
1.228662819589068991e-02 -4.093694978150490965e-02 -8.717947352168337050e-01 -2.399735287299538944e-01 7.447451860594178630e-01 -6.227096541328206447e-01
1.374480103571707190e-01 -6.912230246438762736e-04 -8.826412142496059543e-01 5.043853619418885159e-02 -7.519692199095103780e-01 6.572657349773148860e-01
1.161696105127859799e-02 3.851422953658274750e-02 -7.540930915590740025e-01 -2.258499284562207610e-01 8.388558845719275014e-01 -4.952904347303395127e-01
-9.487543695019734491e-02 6.122215768652299744e-02 -6.851781795282169130e-01 2.253444203110624711e-01 -8.622122666905881472e-01 4.536627595504718613e-01
7.486857784109139657e-02 8.550228112160242200e-02 -7.223831168994172547e-01 2.254755232729140912e-01 -8.606666572968459938e-01 4.565234861672277100e-01
6.009459909215077167e-02 6.079504618781328418e-02 -7.598359392892914954e-01 2.290651255095674799e-01 -8.425366777979361732e-01 4.875049895544686374e-01
-1.671518198910067199e-02 -1.203133632433056460e-01 -9.463804674754722202e-01 -2.657589145672375475e-01 6.651198467758387967e-01 -6.978451036963204679e-01
5.370328443347340691e-02 7.433052004894015463e-02 -7.330455631648700177e-01 2.241602619128862939e-01 -8.596716077174246795e-01 4.590391092964568598e-01
-8.152438205929656012e-02 -4.326559215057660529e-02 -8.371421252634544397e-01 -2.476438720986861020e-01 7.516799148611382764e-01 -6.112690227766505169e-01
1.224105820057082433e-01 1.119858576571057945e-01 -6.771625716137998907e-01 -2.987708519655574713e-01 8.516339378928059478e-01 -4.306455779930489780e-01
-3.086781303773069446e-02 5.147631165827402239e-02 -7.185754779164572614e-01 -2.306841341000809564e-01 8.426610629586412937e-01 -4.865256038975835362e-01
-7.538595135357537003e-02 -4.380917661224856263e-02 -8.521705316294062582e-01 2.486054433313391876e-01 -7.497483170397759578e-01 6.132477432832931230e-01
3.115722465755869225e-02 1.084841919320889553e-01 -6.483829669561130826e-01 -8.830909040117641551e-01 -3.451216149259641042e-01 3.178702977042361932e-01
9.403201000767540119e-02 5.347134214307956018e-02 -7.733648148592904281e-01 -2.311330332661885589e-01 8.326974322929537875e-01 -5.031823796456833531e-01
-9.869571046084285593e-02 -1.032241831254465947e-01 -9.096683748654765811e-01 2.560376090406921157e-01 -6.847682106723321782e-01 6.823028949149624323e-01
1.123379567334285983e-01 -1.052540124732251337e-02 -8.859405302490377387e-01 2.344492390636145895e-01 -7.587659032327002118e-01 6.077070498142644883e-01
6.278063772193438752e-02 -6.974701695070094354e-02 -9.244268948853839873e-01 -2.553559764471058924e-01 7.158418355013681511e-01 -6.498952160454615212e-01
-3.647981719571109088e-03 3.515530322763386201e-02 -7.728060940112241317e-01 2.257089354676889703e-01 -8.220108867118978146e-01 5.228322661974507124e-01
2.487868761487866190e-02 -6.736533298804689429e-02 -9.184193409721219670e-01 2.477663210427726026e-01 -7.106016640094288128e-01 6.585264803058115124e-01
-1.152542952796641179e-01 5.855388089147989250e-02 -6.798085524303938421e-01 2.642608306211068903e-01 -8.640627738706667671e-01 4.284410533671715871e-01
-1.333814036556658367e-01 -6.626054980876866507e-02 -8.557408569462197079e-01 2.613472004758046752e-01 -7.394226741418793436e-01 6.204447999365708677e-01
-1.407118671270852217e-01 -7.034040713219601171e-02 -8.572176303056289193e-01 2.810419117298829095e-01 -7.163334339529429107e-01 6.386562888223974443e-01
-1.142110921670866502e-01 -1.083832505560656523e-01 -9.088088707828069213e-01 2.668804450288866925e-01 -6.843993547148859991e-01 6.785074438258072993e-01
6.023204828176088876e-02 2.052291467002945787e-03 -8.531491631602021730e-01 5.479594483623970863e-02 -1.919080713402137595e-01 9.798819809466765562e-01
9.114481076360775313e-02 3.102209305115682155e-03 -8.416334784343725284e-01 -2.208454141989802944e-01 7.305270698414140229e-01 -6.461868949895210879e-01
4.625434832151584935e-02 -1.296415193706003562e-02 -8.504122806772457244e-01 -2.439582386199210806e-01 7.764949098421166651e-01 -5.809819556567561438e-01
3.219010252049245985e-02 -6.423484212291834250e-02 -9.141820711578240166e-01 2.090450634990297096e-01 -7.463498895748915674e-01 -6.318718254189166217e-01
-3.362079378708402594e-02 7.520566427226758888e-02 -6.890749315719535417e-01 2.257470674825081958e-01 -8.591379776697974924e-01 4.592604891001383360e-01
4.899224140503762731e-02 1.297802959661127631e-01 -6.110107548936449806e-01 2.004267930035431855e-01 -9.189436513639104298e-01 3.396640491195359601e-01
-3.587081503772315827e-02 -7.383192921912369588e-02 -8.910714024399011279e-01 -2.474026908284161774e-01 7.242540346689146924e-01 -6.436210079205443302e-01
1.022365890301744351e-01 1.227644038454737963e-01 -6.581789380290847813e-01 2.042032881446840531e-01 -9.010565807812646044e-01 3.826199881627664334e-01
-2.682021290311428080e-02 5.579201049814240532e-02 -7.127220121217910931e-01 -2.224375127168300714e-01 8.590420162324342579e-01 -4.610513716319083466e-01
-1.094919830378111858e-02 5.070467729605131202e-02 -7.507348146957044666e-01 -5.679380102430613142e-02 -9.897414651869409496e-01 -1.310965150368949006e-01
-6.130699065159734423e-02 9.410196575512390360e-02 -6.425531047466641610e-01 3.249948065065005887e-01 -9.404003860908261014e-01 1.001273668086178487e-01
4.205276199937203058e-02 4.328290517622764705e-02 -7.663325892010849349e-01 -2.275478896306542542e-01 8.272535375600637009e-01 -5.136862296373109205e-01
-8.377386406775036085e-03 1.210476566898399109e-01 -6.000356552568807400e-01 2.124666621430751079e-01 -9.142658558236346211e-01 3.449287786672163292e-01
-7.907375377322825583e-02 8.199304594904494731e-03 -7.808883186347389538e-01 2.413954455801740617e-01 -7.992224680498833944e-01 5.504286378972322868e-01
1.271387666010516566e-02 -1.955833801907086097e-02 -8.573853311493684348e-01 2.410981194562244190e-01 -7.623933738448049890e-01 6.005231388649463486e-01
6.490855590706808009e-02 1.200379865640029686e-01 -6.443234738484905355e-01 2.083472959272248959e-01 -9.047230676349199419e-01 3.715744544086334589e-01
-5.382992529194927968e-03 -1.027308425875300552e-01 -9.437742271453499754e-01 2.571964371770883995e-01 -6.851185625319702321e-01 6.815148919704825392e-01
-5.520428868204567407e-02 -7.961529214316928615e-02 -8.920868124346417183e-01 -3.454906044515891339e-01 -5.972216460119955661e-01 -7.238525732291061221e-01
7.466818619780779542e-02 3.391754763124974620e-02 -7.957665414704244711e-01 -2.322490959137389344e-01 8.149686243658323948e-01 -5.309298435259723892e-01
3.502282114480161773e-02 1.152945392675714387e-01 -6.297750657659210161e-01 -9.867297191965515024e-01 9.821791356568862486e-02 1.292969555291123562e-01
-8.094219704676067217e-02 4.659860314608929577e-02 -7.120929320846914878e-01 -3.133044863879189679e-01 -6.599481642541685789e-01 -6.828680101650355105e-01
-7.239582392229339247e-02 6.061673347336583167e-02 -6.818908906509858481e-01 -2.201673722057676530e-01 8.609749119284335617e-01 -4.585286569515943933e-01
5.322014248430069483e-02 1.003971631520151342e-01 -6.880474131994878118e-01 9.661130033634569847e-02 -3.582646016264813826e-01 9.286079538043700010e-01
-2.216177177335854412e-02 -1.863511219091642523e-01 -1.016432340910910170e+00 2.143495992278522388e-01 -6.343399461209553447e-01 7.427429448107349952e-01
-1.185568909078514935e-02 8.624525743954912504e-02 -6.776748971041016700e-01 2.178208181230935903e-01 -8.758463108748478776e-01 4.306359610147595385e-01
-4.265914276712529790e-02 2.457954047421068156e-02 -7.722273681955336144e-01 2.379297158646470345e-01 -8.106037768652487596e-01 5.350803371834572664e-01
4.182868037175481446e-02 9.483363242021121409e-02 -6.705188282877699857e-01 -2.205442920024656139e-01 8.759039694330740256e-01 -4.291298773058289107e-01
1.423620164959943091e-01 7.134648443724111999e-02 -7.661994037498572885e-01 -2.440077912078397471e-01 8.451389134160415262e-01 -4.756053141627245018e-01
-1.747933739361140840e-02 1.114219759850565844e-01 -6.011041271315619161e-01 -1.996857821665251886e-01 9.045428914306758994e-01 -3.767329902766353711e-01
1.045374684712282870e-01 1.192024797484659560e-01 -6.507930124527463445e-01 -2.366351764147112957e-01 8.878122060961072259e-01 -3.947065745461325603e-01
-1.799000758049511609e-02 -1.266126762840911468e-01 -9.473799979102153213e-01 -1.801427560759280566e-01 6.877246317600802517e-01 -7.032662499394028988e-01
1.091477746272005167e-01 -4.103193603679079760e-02 -9.241196921159027244e-01 -2.104236846908654965e-02 -7.332194231302304743e-01 6.796664595768894257e-01
-6.436031559566085525e-02 -1.250401766215909066e-02 -8.224568554636674245e-01 1.999474773152478402e-01 -8.404639396017428155e-01 5.036282086464047847e-01
-2.736382862954203979e-02 -8.200212963482333972e-02 -9.142806558426445074e-01 2.570371206479727388e-01 -7.050422378434171300e-01 6.609442952819440942e-01
-2.188699064669901578e-02 3.972327092517018154e-02 -7.377425887005265581e-01 -4.057454001534678278e-01 2.468035945686122279e-01 -8.800333266202560178e-01
-6.504640916014191310e-02 -8.215934321652615391e-02 -9.022234432292252082e-01 3.571986939424803831e-01 6.240136111150283993e-01 6.949936015453439531e-01
1.039275727759101514e-01 7.068753775834370201e-02 -7.483491153616248504e-01 -2.255518217325859498e-01 8.481317695767119913e-01 -4.793734214031756258e-01
-6.903132750546776830e-02 8.256826777220553637e-02 -6.450770898129551956e-01 4.239441861408725365e-01 6.134175614109260710e-01 6.663259130410777997e-01
4.365937701748073135e-03 8.531292433498809330e-04 -8.233452253228250584e-01 -8.767215078490565583e-01 -3.201765437949444792e-01 3.589517773718367000e-01
3.539341814673716002e-02 3.850193355203233164e-02 -7.850953164266815110e-01 2.336452224466496197e-01 -8.235284012449058944e-01 5.169244455148789275e-01
-7.335567813205931542e-02 9.225816375112064205e-02 -6.326965116009648504e-01 2.285162888704947159e-01 -8.881495627325142195e-01 3.987112488241338903e-01
1.105002067178927488e-01 -2.325162767625992000e-02 -8.897596300632643063e-01 -2.524579823951746405e-01 7.550720772420050908e-01 -6.050877004983667984e-01
-8.989985316961901507e-02 -1.077369478108060191e-01 -9.070893975097444883e-01 -2.468033117483640626e-01 6.933768063660347147e-01 -6.769909376820920643e-01
-5.872095095587544222e-02 4.479747215534943261e-02 -7.213639627187429237e-01 -3.836290807600311048e-01 -4.029323465796642578e-01 -8.309478037007010931e-01
2.080270237089851607e-02 1.092697075122922301e-01 -6.225695277018484797e-01 3.223247480111894325e-01 8.411643721899860759e-01 -4.342225878253571092e-01
-8.664404300659626218e-03 -3.224923771974919084e-02 -8.477114970504592284e-01 -1.776815927919614679e-01 7.669220339265386821e-01 -6.166521267788609428e-01
-3.623418846448470815e-02 9.219948310997126695e-02 -6.530302034923954890e-01 2.150954398512574250e-01 -8.904983306410020338e-01 4.009322572215694991e-01
1.179119923406325710e-01 5.129604537849909163e-02 -7.880760656718719392e-01 -2.390042119760373007e-01 8.311435529399061606e-01 -5.020730833894034850e-01
2.082342295597738174e-02 -4.482935111240309023e-02 -8.797397732986808050e-01 -2.399735287299538944e-01 7.447451860594178630e-01 -6.227096541328206447e-01
-7.597707927051236543e-02 1.546507970880851845e-02 -7.576857279874137374e-01 -2.354275663353470327e-01 8.145441624290526983e-01 -5.301807884695262096e-01
3.506449599781261383e-05 -8.366820561583167282e-02 -9.264158656235060851e-01 2.542426830740668886e-01 -7.024673476941457606e-01 6.647558074412375229e-01
9.341669370451641946e-03 -1.273421868056797551e-02 -8.471334550970098798e-01 2.435529583667588871e-01 -7.724844734156957049e-01 5.864722455517185074e-01
1.022442527420922426e-01 9.214046202793672521e-03 -8.515724246383629126e-01 -1.339350361280317869e-01 4.150094604292199896e-01 8.999047470991751174e-01
-9.560043748515793804e-02 -6.039168074276766995e-02 -8.639287794831755907e-01 2.443933501693306143e-01 -7.361391552521563408e-01 6.311664079287272466e-01
7.213560904632222714e-02 2.520161817832598447e-02 -8.079650498147022963e-01 -2.377630949213912770e-01 8.105046155290621668e-01 -5.353045664848085083e-01
-1.071153891770781907e-02 -6.738176341550013160e-02 -9.096747585644870959e-01 -2.819650639146579763e-01 -6.818520511568756381e-01 6.749618382284766627e-01
-2.237912506729287584e-02 8.918110560135616982e-02 -6.490616737016555726e-01 -2.094556840539929521e-01 8.901787925239117438e-01 -4.046109659390662028e-01
3.438066759253322578e-03 1.013023011184098071e-01 -6.358596706868645532e-01 -2.117259126191630425e-01 8.920854766666058699e-01 -3.991937377340697424e-01
7.227215946082962694e-02 -8.298606924959754660e-02 -9.524232444457370050e-01 2.373172315273431032e-01 -6.881431869803480428e-01 6.856671829923954853e-01
-1.228786517152734153e-01 5.408302686031739304e-02 -6.842020682104171803e-01 2.579099238771764835e-01 -8.648569460487902649e-01 4.307028372751086076e-01
-2.408775890259249805e-02 -2.158462036033971798e-01 -1.037171077565834931e+00 2.071002101908546444e-01 -5.610264861134010017e-01 8.014728846431137255e-01
-2.878339265057547336e-02 -1.958085721445841643e-01 -1.021463448783265671e+00 3.127489144254570475e-01 -5.469178591106703680e-01 7.765751553529762763e-01
8.253463853596310074e-02 -5.138535453198227881e-02 -9.139587863443037197e-01 1.214170096415268657e-01 -4.895240941876509710e-01 -8.634952640168149784e-01
-1.046206314381395580e-01 -7.843139299894792693e-02 -8.809440305318890774e-01 2.521806832467904380e-01 -7.205269124771873646e-01 6.459457186120777239e-01
-1.303501177356248819e-01 -3.200498085306690416e-02 -8.030740169346650692e-01 -2.368853456083385156e-01 7.776237411411123235e-01 -5.823973302220044612e-01
-3.119982368897871242e-02 -1.019141657466550582e-01 -9.334421755210979832e-01 2.493973368829826287e-01 -6.861337057081775548e-01 6.833897176917720362e-01
1.277618701282517144e-01 1.705320836820036282e-02 -8.393776067419345122e-01 -7.355390820606082236e-02 2.126868358269685955e-01 -9.743480550878758084e-01
-3.384900296617139853e-03 1.103986407485150062e-01 -6.110263293645290528e-01 -2.012583026939003261e-01 9.032561428507437373e-01 -3.789768277865638857e-01
1.150011490284641169e-01 6.822953380135748924e-02 -7.650607745791841996e-01 -1.393142603565735993e-01 6.090060846620302115e-01 7.808348901694421862e-01
-8.682004839823885545e-02 4.502803359534332528e-02 -7.223084980711730330e-01 4.088548970353749756e-01 -2.513896574911684834e-01 8.772918062290712138e-01
-4.473316168092512229e-02 -1.292369959176710992e-01 -9.548877437590042039e-01 2.548348090030345126e-01 -6.511566844649822050e-01 7.148805441449350706e-01
1.296856271590680065e-01 8.675982489849956569e-02 -7.316785204626065076e-01 -2.414722011030110693e-01 8.571947750669920429e-01 -4.548717332307163352e-01
1.070668117438879213e-01 1.025786566903941037e-02 -8.569106128188755944e-01 2.362230571086902375e-01 -7.754043220032100781e-01 5.856166021459489057e-01
-8.663266030469797541e-02 -1.700049738546205880e-03 -7.789358744872031393e-01 -2.335996612876484191e-01 8.000919320196326900e-01 -5.525252017450311692e-01
-1.116601050842764703e-01 -2.611604372397274137e-02 -8.148965381737852676e-01 2.453892186709713263e-01 -7.729933562618145348e-01 5.850345310621807293e-01
-6.130063498390740662e-02 -4.459745450968968100e-02 -8.587747494006343629e-01 2.494153181448379997e-01 -7.473341838792559866e-01 6.158600625793456684e-01
5.775442574673722573e-02 1.338504172233812572e-01 -5.911098302911811375e-01 -6.690140024653786766e-01 -3.046287143671802533e-01 -6.779539887693361022e-01
-8.490942249378448381e-02 -1.262427778110172816e-01 -9.275963710275620944e-01 -2.457432621010228468e-01 6.837372414330812331e-01 -6.871052567179414261e-01
9.302602556821626401e-02 6.934497623053523241e-02 -7.604720096361755610e-01 2.292677975792103418e-01 -8.439783442389662271e-01 4.849090960673260731e-01
-2.398753493702290504e-02 -1.622407325523325117e-01 -9.840734034839832001e-01 6.779659438982971187e-02 9.681603313023021684e-01 2.409755063938190389e-01
5.100167437619578664e-03 1.386371504193417009e-02 -7.955084125809208651e-01 -2.345468959743736981e-01 8.039804395113407942e-01 -5.464459776335972574e-01
6.399762113968944510e-02 5.775319942951733648e-02 -7.519703759239044771e-01 -2.322948189880792158e-01 8.421622154670811433e-01 -4.866229751161293970e-01
-8.064254669298437372e-02 -1.011561515790502658e-01 -9.142766891277445129e-01 2.562830290695416458e-01 -6.973940966196757740e-01 6.692985006788576552e-01
7.977752943831925569e-02 -5.071258902811096037e-02 -9.261089120470685776e-01 2.255957387887667365e-01 -6.433442840543183161e-01 7.315836895495874126e-01
-2.539013200919812419e-02 -3.040361450640904351e-01 -1.078339153050118515e+00 -1.946868780006424660e-01 5.102585775112720157e-01 -8.376951734435003072e-01
-1.515705630628852787e-02 -1.036125674783156814e-01 -9.256138379247925707e-01 -1.801427560759280566e-01 6.877246317600802517e-01 -7.032662499394028988e-01
-5.292741141760291812e-02 3.525423533337464655e-03 -7.988999973305856983e-01 2.390596469300942384e-01 -7.936559647491946423e-01 5.594289006010358944e-01
-2.591278537709943916e-02 4.547262383611004599e-02 -7.504673165433022319e-01 4.073477017876441231e-01 -2.413197745554830909e-01 8.808136103948525086e-01
-4.255053280374778563e-02 -8.002218648376040189e-02 -9.064352382428879640e-01 2.501345992964464360e-01 -7.075201031787824446e-01 6.609447676112512049e-01
-1.349829519370118400e-02 -5.232593464996827121e-02 -8.924760636486426257e-01 1.814547026250100115e-01 -7.360544326434533824e-01 6.521488044006467089e-01
2.922696850109294739e-02 1.021959324247318640e-01 -6.605712222936068745e-01 -8.827913626155899918e-01 -3.456069134722730696e-01 3.181749070110321265e-01
-1.062450034893401979e-01 -1.114345379250043788e-01 -9.149968095548058900e-01 2.613469743115296451e-01 -6.826384520390246236e-01 6.824239905044172660e-01
3.457754046222942957e-03 -7.394331383871305396e-02 -9.174340785961652145e-01 2.446650539272378078e-01 -7.080157077730162563e-01 6.624596357012678682e-01
9.387462074005943624e-02 -5.028358800790772715e-02 -9.150629479679449618e-01 -2.528666446594268202e-01 7.269834800983858702e-01 -6.383991538862835435e-01
8.300868761294457471e-04 -8.461393668363707821e-02 -9.167167000197407045e-01 -2.547345311277646740e-01 7.038272236431265538e-01 -6.631271053952825234e-01
-1.807855807183480698e-02 3.963530596123202021e-02 -7.448826598276768740e-01 -2.232339614386864568e-01 8.388693690383882684e-01 -4.964521932165547047e-01
-2.324811435648735727e-02 4.857631134585755489e-02 -7.494235065016637831e-01 2.583904877765629271e-01 -7.877220444826414925e-01 5.592211874228992796e-01
2.200193054762965977e-02 2.583388364545038257e-02 -7.985928913164638265e-01 2.323729795252254815e-01 -8.068941463186170004e-01 5.430696410436871568e-01
-3.390197972338543364e-02 -2.443169796803285054e-01 -1.046334288920554689e+00 9.995174280392477018e-01 -9.649738138688459740e-03 -2.952615111493914896e-02
8.025241253137176123e-02 7.429537524469399801e-02 -7.458392318485267403e-01 2.255560253553585137e-01 -8.446889273109380314e-01 4.854122943480005392e-01
3.852174766449664028e-02 -9.956665681542230251e-02 -9.463294362201701837e-01 -2.540447378505435450e-01 6.863755440994333545e-01 -6.814322296697267189e-01
-6.612543493745718162e-04 -1.469849634780043546e-01 -9.859674570832815954e-01 2.346139880095359787e-01 -6.029904068540048456e-01 7.624689146924633620e-01
6.114668919529825386e-02 2.280958459767038621e-02 -8.200278453956001412e-01 2.321925506419310892e-01 -8.004514026629059309e-01 5.525976577957787406e-01
1.721547368816294873e-02 8.277910505468585867e-02 -6.995669873925379756e-01 2.129992755594976306e-01 -8.782189480565518735e-01 4.282088134141713298e-01
-1.037481285836824862e-01 -1.069098596035909787e-01 -9.012463934507478625e-01 -2.418059230783453639e-01 7.015946381791995368e-01 -6.702946063056358650e-01
-1.441647116390523675e-01 1.509007062631717751e-02 -7.407139977694043864e-01 2.697089456468160229e-01 -8.188135538611678310e-01 5.067558077134661776e-01
1.090094832801934560e-01 9.335177376963746387e-02 -7.082065710637760469e-01 -2.324395137278521539e-01 8.725943069765181859e-01 -4.295940501102517017e-01
6.021015541121074732e-02 9.010788307717353118e-02 -6.895170846126071895e-01 -2.181453663451842218e-01 8.759714915162148952e-01 -4.302168583319150308e-01
1.168761840402584781e-02 -4.689584951113674911e-03 -8.248160941128602763e-01 -2.403606851126096344e-01 7.895831607973259336e-01 -5.646106386152329737e-01
1.251736501700848880e-01 3.882810422398277200e-02 -8.237058625997611960e-01 2.260353389718786910e-01 -8.071158591951760330e-01 5.454099516615926735e-01
-2.274754423481500226e-02 1.117645063328066846e-01 -5.976362382699954567e-01 -1.765455865697317661e-01 8.846491107805410925e-01 -4.315409675314123561e-01
7.065055402746368840e-02 1.484916081726829484e-02 -8.354492169205067764e-01 2.401686696939623611e-01 -7.934852811492649760e-01 5.591959573324045696e-01
-8.518742201097157310e-03 9.367367258741017555e-02 -6.642545281044079930e-01 2.178208181230935903e-01 -8.758463108748478776e-01 4.306359610147595385e-01
-9.129500039388033228e-02 -2.077446441785561759e-02 -8.163808468195983270e-01 2.453892186709713263e-01 -7.729933562618145348e-01 5.850345310621807293e-01
-5.056714972730432141e-03 -1.272759398812156259e-02 -8.235580240397892826e-01 -1.718364528215624576e-01 7.850264127355401911e-01 -5.951518837988102328e-01
9.640249666485042890e-02 4.284942954860263692e-02 -7.916775825393719268e-01 -2.360008319700179769e-01 8.171269173130755181e-01 -5.259346045963217975e-01
1.320291237922478489e-01 9.819391180792348683e-02 -7.108637884071425939e-01 -2.393734072753601339e-01 8.679083451435197771e-01 -4.352418595673234747e-01
-3.360076783244956341e-03 -4.631206254793435173e-02 -8.681479418078434929e-01 -7.178176850247469654e-01 5.655745160840066621e-01 -4.060335427302217415e-01
-2.052436411643285968e-02 3.488578706271653479e-02 -7.658465385482288168e-01 2.364632444852009796e-01 -8.232243587437905186e-01 5.161267181404260995e-01
-1.180117367187512589e-01 -1.769412260689086705e-02 -7.845144494593742079e-01 -4.336827533586491423e-01 1.473482868178879746e-01 -8.889363035735994290e-01
-5.324391641348787119e-02 7.513923802431185517e-02 -6.625848298416074922e-01 -2.125947063848807883e-01 8.763583216735012504e-01 -4.322031731150647316e-01
1.531796820963705896e-01 7.094978726948718284e-02 -7.737906833985426225e-01 -4.098863512806909526e-01 7.819543820881331708e-01 -4.696174223418119187e-01
6.935559621548320619e-02 4.135861926922785453e-02 -7.956719217516343701e-01 2.290548148102228565e-01 -8.154613131102204093e-01 5.315606631728965192e-01
5.981488731353991339e-02 3.348236470809597132e-02 -7.899371369893665173e-01 -2.322490959137389344e-01 8.149686243658323948e-01 -5.309298435259723892e-01
2.724761184927030743e-04 1.855709406567011832e-02 -7.807115717335298966e-01 -1.881459427222128000e-01 8.159736987595861413e-01 -5.466150630651974707e-01
1.969739653757371020e-02 1.200269858479914020e-01 -6.266763996389854707e-01 6.786962130827175477e-01 -7.069774155591154186e-01 1.988828404778359427e-01
-2.708938329275108886e-02 -8.745524228239555387e-02 -9.045113975628225056e-01 -2.464901082520050413e-01 7.000546370032787458e-01 -6.701985763519066053e-01
-1.370997411688714696e-01 -1.975528694065876653e-02 -7.786429486296063684e-01 2.554155565855179000e-01 8.003943912507446301e-01 -5.423391115422711017e-01
-6.007180059655217730e-02 1.353544249773066740e-02 -7.812528403767856622e-01 2.345861447480182826e-01 -8.109989792430599698e-01 5.359570844377158361e-01
-3.948434397914976635e-02 2.945365253878424062e-03 -7.924218817160331163e-01 -2.385057101981907790e-01 7.946389457410243384e-01 -5.582687275089389667e-01
-9.185144182462168239e-02 -7.687431986143282436e-02 -8.764793667365896601e-01 -3.621813323279046148e-01 -5.541051856020310362e-01 -7.495279353046973014e-01
8.559140496400728659e-02 -4.514718332811322454e-02 -9.196991384567310135e-01 2.840020106617970885e-01 -9.585071292843050372e-01 -2.463617363181572206e-02
-4.712047227223384316e-02 -5.761699184523925293e-02 -8.682196582942004470e-01 -2.418010726473172334e-01 7.446893312235792761e-01 -6.220691611295200429e-01
2.265115289134014831e-02 1.006115413286281512e-01 -6.656995589519535406e-01 2.131882901353746029e-01 -8.781826413876537840e-01 4.281892120483173914e-01
6.527136715769585318e-02 -6.451164837803258223e-02 -9.143671483480353412e-01 -2.269950410028768739e-01 6.522097770194980049e-01 -7.232535227154299751e-01
-3.763088166584060285e-02 9.411864591959197626e-03 -7.836602634249965060e-01 -2.315681946339573638e-01 8.068789156265729900e-01 -5.434359085957196633e-01
7.539854161866159366e-02 -5.154002758191131295e-02 -9.254862175627103227e-01 2.255957387887667365e-01 -6.433442840543183161e-01 7.315836895495874126e-01
-1.383730764047251260e-01 -2.103574859001981767e-02 -7.830553993204374397e-01 3.228776920795803917e-01 9.430269802626817244e-01 -8.031257967474078607e-02
9.471360124984160023e-02 1.138987395695002652e-01 -6.569110115411717077e-01 -2.169825017294964298e-01 8.912824396889110767e-01 -3.981635425869520239e-01
-2.671987255615691087e-02 2.347239827943739185e-02 -7.809210394108989650e-01 2.386959241987217373e-01 -8.060500596153191699e-01 5.415787635838930081e-01
1.104859117297138094e-01 4.182711533280874389e-02 -7.996016711067039928e-01 -2.402377624869346251e-01 8.163966962209192602e-01 -5.251497423353070904e-01
-1.049076418419227913e-01 3.822283751473717905e-02 -7.217801924782007994e-01 2.396151944885163143e-01 -8.355010719936170061e-01 4.944921811998115868e-01
-2.780319949432517174e-02 -7.880903674574142592e-02 -9.164883175800359050e-01 2.698724048952873544e-01 -6.754195081882423679e-01 6.862779123902988943e-01
-1.057417705046849177e-01 -6.194219527414115273e-02 -8.503808836987231112e-01 -2.444273736708211797e-01 7.410420995291441271e-01 -6.253893712926555937e-01
-1.163552706366866030e-01 1.978711203253562603e-02 -7.466424508198346022e-01 2.418768387001671571e-01 -8.196333699433455688e-01 5.193233422211328554e-01
-1.852564028982675581e-02 -2.991845609140689199e-01 -1.088673794917532911e+00 -8.679379120763558442e-01 -2.455501742498495954e-01 4.317277993208269993e-01
2.613107097414140573e-02 1.181511478544789578e-01 -6.274016489543722264e-01 2.082150444245899346e-01 -9.089401283406761678e-01 3.612123175741675518e-01
-4.679512360432997939e-03 -6.853754282618250426e-02 -9.010804193999480960e-01 -9.967334179998958987e-01 5.198404732041538023e-02 6.180738035569740413e-02
1.325229761498004921e-01 1.785480025409929422e-02 -8.395620479305769823e-01 -7.355390820606082236e-02 2.126868358269685955e-01 -9.743480550878758084e-01
-8.712430856943205459e-02 5.430245542971474937e-02 -6.867270860626514262e-01 -2.156448265553893573e-01 8.610543482001506987e-01 -4.605243948212837668e-01
5.839878161358656727e-02 3.571308629145515667e-02 -7.995532377830478765e-01 2.346297132524938212e-01 -8.109932077326490463e-01 5.359467461143512246e-01
-1.137127651183213184e-02 -3.901972691831585849e-02 -8.718774706736430735e-01 2.402224632241730939e-01 -7.382640502207662436e-01 6.302851420699528973e-01
1.077182818352949434e-02 -7.647278931462775375e-02 -9.117752563007223143e-01 -2.450845050265217095e-01 7.094461264817933932e-01 -6.607721082308818383e-01
-1.317101381136015770e-01 -6.761215079295417041e-02 -8.579760546773106400e-01 2.707949496954145108e-01 -7.203672236822976638e-01 6.385461285324001146e-01
4.894000717841670567e-03 9.807544091619449511e-02 -6.438424953685615293e-01 -2.137553713282256684e-01 8.914988276872645168e-01 -3.994226852102487069e-01
1.009118611305252419e-02 5.231709282785769466e-02 -7.297461980157353700e-01 -1.721398811572758258e-01 8.565617908395313229e-01 -4.864871630258436053e-01
1.149916014547875190e-02 -5.393265106299890282e-02 -8.982945807644929781e-01 2.480348772917812805e-01 -7.265722299076847746e-01 6.407585304729274123e-01
3.146152902123019318e-02 8.711995344049357215e-02 -6.743976759513716779e-01 -1.920821327409246160e-01 7.707079162557053387e-01 -6.075473332197964815e-01
-9.837796438327105208e-02 -5.775877596502850160e-03 -7.798721900242011618e-01 -2.335996612876484191e-01 8.000919320196326900e-01 -5.525252017450311692e-01
-7.465671046619336282e-02 6.751209007645603277e-02 -6.832832336548420038e-01 2.246863053435268209e-01 -8.619563250470533289e-01 4.544748154765607673e-01
-1.235827403929892071e-01 -1.194286667360579431e-02 -7.781839437628423894e-01 -2.340149331801267274e-01 7.926610310259125658e-01 -5.629613671839640565e-01
6.023215708454944528e-02 1.025573220634363181e-01 -6.633744196358292156e-01 -2.113347777701831409e-01 8.902533218380784819e-01 -4.034682573153605123e-01
1.113906505253289686e-01 7.501407740670379409e-02 -7.589912500284483610e-01 2.193232321725602230e-01 -8.500799202389303089e-01 4.788125406001341733e-01
-7.955063010545519731e-02 4.181368932101044156e-02 -7.248366030135013904e-01 3.870207837730210154e-01 3.913207392650023264e-01 8.349149609084798307e-01
-1.321336221001609412e-01 -2.505371392417035312e-02 -8.048841731206629602e-01 2.461657801969109882e-01 -7.740765426190764353e-01 5.832734477300877129e-01
7.820913145333169281e-02 -5.286112784786869273e-02 -9.227303871671265201e-01 2.452259364418693521e-01 -7.214556690509658088e-01 6.475847108220139647e-01
-1.164014178527450483e-01 -1.413313087667348450e-02 -7.966927685662196224e-01 2.386039793462517988e-01 -7.880097665542281637e-01 5.675462526131982433e-01
-1.384818448471414332e-01 -1.059381544240746431e-02 -7.777836920471778992e-01 -1.159501969663351700e-01 -7.381515311050426131e-01 -6.645960193611976097e-01
-7.842493886866534758e-02 -8.324601389312637212e-02 -8.851939559970619653e-01 -2.486230581794937611e-01 7.160682464953957993e-01 -6.522521301632406843e-01
1.307927088199952945e-02 9.834337125551161074e-02 -6.534469377559321002e-01 8.826060790604617345e-01 3.461708002930760086e-01 -3.180759126843299422e-01
9.909366547263220859e-02 8.574704069684026264e-02 -7.336441796340500421e-01 2.200759874021123719e-01 -8.625719999544801952e-01 4.555613072502026628e-01
1.620132478481476831e-02 9.908641621604644123e-02 -6.744442148424720784e-01 2.667656738634992530e-01 -8.753484884694304746e-01 4.032382657715367080e-01
7.073285629290919363e-02 -8.894785077350499114e-02 -9.479061129987128576e-01 -2.706835947328163350e-01 6.938980112960617674e-01 -6.672600253738351084e-01
6.535996422485310098e-02 9.562147740030797760e-02 -6.809115124537675756e-01 -2.202826267840172214e-01 8.755880734231588081e-01 -4.299082344131764377e-01
1.307072627442298074e-01 5.814857123647466930e-02 -7.962413423397484147e-01 2.168392750185927642e-01 -8.251722654981459293e-01 5.216046980828185076e-01
-3.166479996448379793e-03 4.690143448343211952e-02 -7.540908371483234784e-01 2.163807536697042733e-01 -8.406260856803208226e-01 4.965150083483002019e-01
-6.100771593937785731e-02 3.710080974447422381e-02 -7.227012997145139117e-01 -1.907787035887464622e-01 8.956785319944614576e-01 -4.017007014945873644e-01
2.317122861894519228e-02 -2.972238538480822742e-02 -8.622762408913139387e-01 -2.452286592414115451e-01 7.581283979102275694e-01 -6.042385596506824053e-01
-7.922114606988688024e-02 6.205368939964857854e-03 -7.704744802602491172e-01 -2.275644283510384891e-01 8.153742893376737522e-01 -5.323337291928328385e-01
-7.439701175653491705e-02 7.890433550837394616e-02 -6.607745175200925303e-01 2.225703911403747459e-01 -8.753250064308732981e-01 4.292651326446305649e-01
-2.935647855013429845e-03 1.149885384103261354e-01 -6.002752703912195287e-01 -2.020086492440255066e-01 9.043509417781667725e-01 -3.759546245699696976e-01
-4.000777515536420303e-02 5.559641943397406610e-02 -7.067058223854536525e-01 -2.221413931503099515e-01 8.597370133061749131e-01 -4.598972378701762787e-01
-1.253346316899010826e-01 2.914793828054365599e-02 -7.272287893322314511e-01 2.383819418451963712e-01 -8.355832605444756256e-01 4.949491534490957356e-01
3.731589860764981947e-02 -7.187350322106410283e-02 -9.168592088050955269e-01 -2.540888959728859198e-01 7.125312352176335073e-01 -6.540168742337718610e-01
-2.599020252637118666e-02 -2.019514844262425834e-01 -1.026914609026724490e+00 3.127489144254567144e-01 -5.469178591106703680e-01 7.765751553529762763e-01
8.184016603771605836e-02 3.792154922858944916e-03 -8.552290041513774810e-01 2.396823075059540953e-01 -7.836018505820717683e-01 5.731671058539328234e-01
-7.962480763919854709e-02 -9.659884112039770349e-03 -8.061090828338786096e-01 2.415891991173486075e-01 -7.833278238040726205e-01 5.727409356106947236e-01
-1.385360357191028381e-02 4.533940556736003324e-02 -7.371440675521209185e-01 -2.232339614386864568e-01 8.388693690383882684e-01 -4.964521932165547047e-01
-1.119110126377681480e-01 -1.202760295662813200e-01 -9.130521587589311983e-01 1.241611873148829731e-01 8.545194562341457134e-01 -5.043614760088824811e-01
-1.205304416263531381e-01 -1.832763806539420073e-02 -7.971413934782178856e-01 4.133103590524422333e-01 4.727876825797456828e-01 7.782328406722597292e-01
-7.580900342306730322e-02 6.121477602188976630e-02 -6.791290776805249951e-01 -2.201673722057676530e-01 8.609749119284335617e-01 -4.585286569515943933e-01
6.916320925578166301e-02 6.681004893747068130e-02 -7.537015239040347758e-01 2.290651255095674799e-01 -8.425366777979361732e-01 4.875049895544686374e-01
3.899586022596063933e-02 -8.909368689166856370e-02 -9.358010556750736564e-01 -2.575970742948611170e-01 6.940523418929089861e-01 -6.722611799201976268e-01
1.923584882864954118e-02 -1.014263296767607403e-01 -9.410048184505159785e-01 -2.544880821356018674e-01 6.897060914395987119e-01 -6.778947731632503082e-01
-1.399584943162171351e-02 8.362402078783441606e-02 -6.583391698125785618e-01 -4.303026359444968030e-01 1.679794030796606663e-02 -9.025283766733473989e-01
-1.111193230585347386e-01 4.546551158840531764e-02 -7.107219189733312570e-01 4.148361155604241568e-01 -2.806054429764670011e-01 8.655469846280553492e-01
-7.887729282053483615e-02 -1.145576853877976198e-02 -8.149297692313622887e-01 2.057606219739442632e-01 -8.398273903231694426e-01 5.023470124404746384e-01
-1.119738235636547202e-01 -7.214179388870424481e-02 -8.600823107155394220e-01 -2.352815757202601499e-01 7.433220653389215338e-01 -6.261907754884861177e-01
7.428209093123562534e-02 -7.441920236481854023e-02 -9.338699263047375299e-01 -2.643982346711095666e-01 7.080982060547050816e-01 -6.547446098173769213e-01
6.140395832412259142e-02 -7.690885428498042339e-03 -8.619431239820554147e-01 2.389082157104344684e-01 -7.685109833751908592e-01 5.935602184258591540e-01
5.225051614909795999e-02 1.044221618566980314e-01 -6.819452767998877007e-01 2.123740590431539565e-01 -8.719772669426475442e-01 4.410815173873937067e-01
5.773985636536723559e-02 4.391668512060765278e-02 -7.722639433849989299e-01 -2.344153865115980728e-01 8.261578537705527303e-01 -5.123598610545641030e-01
4.269791727265860592e-02 1.064505874889282305e-01 -6.634100567888596700e-01 2.113652777610169342e-01 -8.941131347939895724e-01 3.948245452677343059e-01
-1.294390056228524044e-01 4.338108414700105747e-02 -6.892226728204624564e-01 -4.549795131705154649e-02 8.329032138243434025e-01 -5.515452590921541276e-01
-1.011856654520097015e-01 -2.360952370919944601e-02 -7.978962905205755352e-01 -2.151675234966842210e-01 8.248281487085483699e-01 -5.228398052275023966e-01
-9.978371217785704517e-02 7.828886600534265550e-02 -6.473331552002635769e-01 4.116449221488455157e-01 -8.696243395973460855e-01 2.725838697519542553e-01
-7.722649266828071624e-02 -1.768470047398957440e-02 -8.180595317042069770e-01 2.387174357646039413e-01 -7.806244719583768088e-01 5.776152868836464949e-01
1.376507868746205121e-01 7.965537998994677571e-02 -7.643992063963197525e-01 -8.285368392796443882e-01 -4.921212822813459398e-01 2.671017586656080911e-01
-1.264978182427511644e-01 -8.209959208597381042e-02 -8.764497372459644220e-01 2.655675595162633740e-01 -7.204720175647187919e-01 6.406199678739331604e-01
-7.295797421424021247e-03 -5.488336574793829803e-02 -8.953706214209848913e-01 -3.057807124359926410e-01 -6.859279134272774359e-01 6.603037584956167327e-01
-2.069188113087428588e-02 1.155058226779530350e-01 -6.070802673558575169e-01 2.149101909182124515e-01 -9.120836600978070585e-01 3.491661593311778944e-01
-2.554719215096075066e-02 -4.173626879576917970e-02 -8.695410818786125651e-01 2.432046941793313544e-01 -7.403210288614121559e-01 6.267186377910890505e-01
8.649160463895773365e-02 -5.993746136167720645e-02 -9.335856486687614808e-01 2.409684483385921283e-01 -7.068425413117074285e-01 6.650622743001579629e-01
-1.395256672965128342e-02 1.114606130288865599e-01 -6.028807092533481349e-01 -1.996857821665251886e-01 9.045428914306758994e-01 -3.767329902766353711e-01
1.234513245927229691e-01 7.245156524363234596e-02 -7.546924865327760967e-01 -2.357864671041609017e-01 8.464924776492974701e-01 -4.773418347617272572e-01
-6.313570475424855333e-02 5.818498514291828294e-02 -6.908785414103866263e-01 -2.179753476445651927e-01 8.618141664681457925e-01 -4.579990068701528250e-01
-1.436065639692204847e-02 -1.575511734457517854e-01 -9.900242698417812681e-01 -8.734230756268263063e-01 -2.787667452583148520e-01 3.992758854484717013e-01
4.449733167706979714e-02 8.371434683846863678e-02 -6.945615390420772917e-01 -2.187946545159315526e-01 8.760342779891896470e-01 -4.297590521946145770e-01
2.026644426807073032e-02 1.115901343947534041e-02 -8.060759942751196672e-01 -2.391839920532627117e-01 8.050847474388980185e-01 -5.427979065791526114e-01
6.090971746430852429e-02 -8.379286304245540939e-02 -9.491879535878501306e-01 2.489633870212306921e-01 -6.857129223044355903e-01 6.839700432823268006e-01
-4.537459941693500892e-02 5.448822020287764911e-02 -7.062349148029825052e-01 -2.166365634159890807e-01 8.618870099497609738e-01 -4.584968718226664075e-01
1.791824482966929838e-02 -2.053806992412424495e-02 -8.607185990314024648e-01 2.410981194562244190e-01 -7.623933738448049890e-01 6.005231388649463486e-01
1.154118358617964996e-01 7.404539145278658807e-02 -7.479300823713410651e-01 -2.340585944542518393e-01 8.462562925648412504e-01 -4.786092995925904647e-01
1.045186604981680756e-01 7.284336388171017140e-02 -7.596913062807940653e-01 2.201636897114711555e-01 -8.499029826176615066e-01 4.787409214494139365e-01
-7.431703246411992814e-02 7.487190707346959295e-02 -6.529008619756101472e-01 -2.051043316387314297e-01 8.762447245650835104e-01 -4.360360028883971117e-01
8.625179660974272022e-02 9.688289310111286579e-02 -7.058911489029059405e-01 2.150965874221549001e-01 -8.763844603178859716e-01 4.309103570264596894e-01
1.334268535403812239e-01 9.520402201625216554e-02 -7.175945969659150991e-01 -2.393734072753601339e-01 8.679083451435197771e-01 -4.352418595673234747e-01
-1.498123450476808102e-02 -2.085447564267877696e-01 -1.022194304975549084e+00 -9.996203237169787315e-01 1.346404052229654980e-02 2.404013362643279972e-02
1.215399069113997643e-01 7.077504555315934642e-02 -7.567213782280958201e-01 -2.357864671041609017e-01 8.464924776492974701e-01 -4.773418347617272572e-01
2.901100016792265701e-03 6.003906929946797866e-02 -7.345222736502327043e-01 2.414795004181982396e-01 -8.372616279180352672e-01 4.905921088784640505e-01
-1.521494411260770063e-01 -2.287131503240877675e-02 -7.927314036724463220e-01 2.846687725740091324e-01 -7.711430675000359170e-01 5.694752491266341643e-01
3.002760450215860230e-02 -4.803822904996792736e-02 -8.988038763969696809e-01 2.462973947872159619e-01 -7.307356892542933302e-01 6.366811963385468065e-01
-5.909715086227144282e-02 -9.050317673457006218e-02 -9.003856833526348025e-01 -2.523093370939388236e-01 7.122100409775957708e-01 -6.550548495705597052e-01
-3.814303895195240296e-02 5.093621740725234187e-02 -7.310833159377062573e-01 2.307889100556367035e-01 -8.424692192296534543e-01 4.868080665374280858e-01
-1.209939751447169087e-01 -8.244053458912384280e-02 -8.683906359181440271e-01 -2.429265460354250450e-01 7.283109090041391953e-01 -6.407416898071037759e-01
3.890682027208454408e-02 1.049890922471108379e-01 -6.646902097774732843e-01 2.113652777610169342e-01 -8.941131347939895724e-01 3.948245452677343059e-01
1.417269440009215620e-01 7.179662339623103795e-02 -7.783191999561048791e-01 2.207097723294620395e-01 -8.374919458724128241e-01 4.998944258512153516e-01
-6.478501142661753295e-03 3.343914232661218677e-02 -7.763272425286769085e-01 9.932668635623533859e-01 -7.232312677551422375e-02 -9.050029327255491862e-02
1.104743418713665104e-01 1.034260187284791327e-01 -6.884004840177514462e-01 -2.271752744314661232e-01 8.825564712337379270e-01 -4.116861301652517402e-01
2.908814641609581281e-02 -1.508734888308877788e-02 -8.408210861958391735e-01 -2.228435525353667512e-01 7.232413652361543432e-01 -6.536533322065762874e-01
1.459907550480861183e-01 9.570998393542042015e-02 -7.343644100168976729e-01 -7.584072375836123925e-01 -6.414481334646667809e-01 1.155973791030277115e-01
-4.942555925070846873e-02 7.313942449240368182e-02 -6.685240378277786943e-01 -2.162401911794907261e-01 8.761844468288216836e-01 -4.307446979986278013e-01
-9.512455312100634788e-03 1.088515879978506629e-01 -6.113786713601419009e-01 -2.108373341385406385e-01 8.995889560221443926e-01 -3.824752655222846132e-01
-3.468182041042412039e-02 -8.358635359368206397e-02 -9.167306879942282993e-01 3.773872391063838316e-01 -5.953854390141358754e-01 7.092919362079381784e-01
8.236483878261242897e-02 1.138885766381545969e-02 -8.324595264860052968e-01 -2.376219271267371591e-01 7.890660828064511856e-01 -5.664896616118055839e-01
2.322472899958527917e-02 5.735942584324250915e-02 -7.485869038377261919e-01 2.318765599070464201e-01 -8.388866729722214144e-01 4.924453379566824385e-01
1.678110433549077560e-02 1.120922232780479783e-01 -6.284585227837925503e-01 9.867303502473624421e-01 -9.820205460090063176e-02 -1.293041854422316561e-01
-1.291681928521137557e-01 4.701612044399121511e-03 -7.514859953037185125e-01 -2.164509358126692762e-01 8.107571781157265622e-01 -5.438950179213298819e-01
-9.102318379546983640e-02 -8.519057876031203846e-02 -8.864391910720382795e-01 2.760679819300685400e-01 8.068497336686336618e-01 5.222834255764915445e-01
-3.155636901462575972e-02 -2.609228883774744601e-02 -8.381163863590401775e-01 3.184219836664912151e-01 7.704612835008061156e-01 5.522651998308304444e-01
-1.113971571939081917e-01 -1.053615342542135180e-01 -8.968664131265593475e-01 -2.418059230783453639e-01 7.015946381791995368e-01 -6.702946063056358650e-01
-3.124638360627196229e-02 9.204263118336612759e-02 -6.536781160807578761e-01 -3.526212662271159259e-01 -5.305724566282217225e-01 -7.708119815310859879e-01
6.373315982891063214e-02 9.119115921095707900e-02 -7.061365845232564498e-01 2.170218708109729333e-01 -8.759829051839808089e-01 4.307614855289850220e-01
-9.129470571156371450e-02 -5.486856376463294938e-02 -8.475323481174592555e-01 -2.382674823212780624e-01 7.534512826269142982e-01 -6.128129988635495629e-01
-8.193994647620378435e-02 1.680488447142469699e-02 -7.666027164910286240e-01 2.306956770903529352e-01 -8.150458585534114953e-01 5.314882435451948606e-01
-1.033822151548415870e-02 -1.332662193944806998e-02 -8.247385142703211880e-01 2.813199449738179037e-01 7.324177658276495029e-01 -6.200187939570560580e-01
-7.997192117072857154e-02 -7.354987642001979686e-02 -8.881256863412799740e-01 -2.197229509023512078e-02 -9.971093820167016286e-01 7.273306361441994605e-02
-1.435553812232667932e-02 7.930795960733201533e-02 -6.905198242660561814e-01 2.178208181230935903e-01 -8.758463108748478776e-01 4.306359610147595385e-01
-4.505736827050446994e-03 5.060094925172042846e-02 -7.324554381193815189e-01 -2.185563180067206790e-01 8.394314333787366023e-01 -4.975821585578252271e-01
3.579520264072587332e-02 -1.079914532802092181e-01 -9.638922910819619494e-01 2.517052144423319593e-01 -6.650892477523817625e-01 7.030652726075373726e-01
-8.608510469135760568e-02 -7.985017646332992491e-02 -8.926525248943131263e-01 4.057461898211196516e-01 -6.316066831953393024e-02 9.118008331993745497e-01
6.165714208512725752e-02 -9.835553654454649852e-02 -9.637630411284873189e-01 2.424045090798475632e-01 -6.685206152069969043e-01 7.030791143399270915e-01
-1.303310733274861410e-01 -1.207968938011548705e-02 -7.755968510273816285e-01 -2.169458718659477148e-01 7.949933383930675168e-01 -5.664980852491643404e-01
1.098194928853993557e-01 1.072400606653256955e-01 -6.765013798001980883e-01 -4.158430837105387412e-01 7.026967459550749195e-01 -5.773143103667693898e-01
1.607377875643077603e-02 2.181233603011174804e-02 -7.884273521459358447e-01 -2.391839920532627117e-01 8.050847474388980185e-01 -5.427979065791526114e-01
6.530381354304173880e-02 1.026736438907725341e-01 -6.834614288363317636e-01 2.198679085963486934e-01 -8.763845693054637120e-01 4.284952618789900081e-01
