-8.696952296194523924e-02 5.564653788572625909e-02 -8.148366280232799408e-01 5.885629982719495779e-01 1.654091320696775835e-01 7.913491113870596561e-01
-9.819541069758876140e-02 2.049811600279100587e-01 -8.411465763180975275e-01 -5.177296513050657634e-01 -3.066661858945035624e-01 -7.986938453427899764e-01
-5.644652174482118340e-02 -1.314279840689020762e-01 -8.121571114234995559e-01 -6.261510924395906619e-01 3.350261380870466627e-02 -7.789816328416810931e-01
-3.986806639158936572e-02 1.410021501953182266e-01 -8.555637678586532902e-01 -5.460927267474735558e-01 -1.723266866882955384e-01 -8.198086647801078319e-01
-5.498952810343895464e-02 1.837489661728443913e-01 -8.629501810900660486e-01 -5.511840638797845804e-01 -2.628228081641314495e-01 -7.919092746228481028e-01
-3.945885005988724811e-03 2.103412071699680974e-01 -9.067609604428940040e-01 -5.455397934393827475e-01 -2.771483026535989103e-01 -7.909330895280235474e-01
1.261580502558773687e-01 -5.489683234529143391e-02 -9.614705397271123832e-01 -6.562116362308119122e-01 2.044472585145269694e-02 -7.542998751558557258e-01
-1.139570227193218710e-01 -1.909998067633037833e-03 -7.838432213421716588e-01 6.095143430558463971e-01 1.289557107730786023e-01 7.822165239038421092e-01
-1.849243690917003191e-02 8.895652570223776257e-02 -8.583253999852091809e-01 -5.409309893253680945e-01 -1.572271459290892903e-01 -8.262404549345614413e-01
-2.297307771921429029e-02 -5.385843559587486342e-04 -8.449155716158328611e-01 -6.090870533591087321e-01 -9.970516985781155417e-02 -7.868111848048062740e-01
1.044795616240241053e-02 -1.669024590592354251e-01 -8.702528316212264636e-01 -6.492234390688499390e-01 6.877650113256517095e-02 -7.574818275414778590e-01
1.194109572053153384e-03 -1.915253282485818720e-01 -8.649726435786646572e-01 -6.462241870542303479e-01 1.059308674353125479e-01 -7.557598503430182912e-01
-9.123028684503017849e-02 1.326006406315518027e-01 -8.217717342066641617e-01 -5.609113486923549274e-01 -2.231895982755092989e-01 -7.972232197632855843e-01
5.685884523363162607e-02 -1.904575146349431758e-01 -9.133273582077771069e-01 -6.578279748392326098e-01 1.075640853984254630e-01 -7.454477332793454369e-01
-1.225034662189273260e-01 1.981996378068040243e-01 -8.291853266411194356e-01 8.933015630709139066e-01 -4.334429481732802181e-01 -1.189097476825051597e-01
-1.100050339441140529e-01 5.179216146993369241e-02 -7.841452830550463826e-01 -5.803999381112057154e-01 -9.371493990262531881e-02 -8.089211468861200460e-01
1.039576212902379448e-02 -4.447121362504692643e-02 -8.808184131298417707e-01 6.264281931906789946e-01 2.206409937215772846e-02 7.791667949128459059e-01
1.015371617420803008e-01 -8.481365451635672348e-02 -9.377744666922849248e-01 -2.334128264158647215e-01 -5.270338814636253977e-01 -8.171620036773263873e-01
-2.931340409373005274e-03 1.492070729456798361e-01 -8.979142202608422219e-01 5.602542752864506648e-01 2.231655895584465643e-01 7.976918369021240851e-01
-4.097825622457892947e-02 1.900895398367206945e-01 -8.835731777259933084e-01 5.455068998374407174e-01 2.545232710677695076e-01 7.985237170646259930e-01
-1.225150362839879346e-02 -3.095866876031154458e-02 -8.503292098609407379e-01 -6.158312286391413037e-01 -5.583134291103276914e-02 -7.858974226841288768e-01
1.597648288413609091e-02 -3.963250789281988484e-02 -8.815600849822398111e-01 6.212622790860553579e-01 4.261248566200880050e-02 7.824431970759956334e-01
7.902674556554824259e-02 6.757556304953478421e-02 -9.409227802323247847e-01 5.949736301240490244e-01 1.145867538679460756e-01 7.955352005379888736e-01
-9.771050513329347653e-02 4.009929114733697120e-02 -8.036896780507287730e-01 5.986836719023370668e-01 1.453339064614747878e-01 7.876902415481494835e-01
1.737514081098798582e-02 -1.303112394014805664e-01 -8.744522852176868088e-01 -7.548732977201998151e-02 -9.835153091450323792e-01 -1.643146363573301794e-01
2.880097919501177321e-03 -1.427549984922539261e-01 -8.683076842300374576e-01 1.056112176906442851e-01 9.780530160933814665e-01 1.796067047983990195e-01
9.629118942139408555e-02 -1.641566992908937983e-01 -9.441849526939077863e-01 -6.604492229093305022e-01 1.054229927706972214e-01 -7.434331285016366753e-01
1.605153947570796963e-02 1.258977740228974518e-01 -9.056318967454594082e-01 5.684014240872972135e-01 1.930980031324292800e-01 7.997705810304605034e-01
-4.691783482148231127e-02 2.288304440066035172e-01 -8.844123066025993962e-01 -5.320386722380221478e-01 -3.123636587588064506e-01 -7.869966937224158743e-01
4.196009799506616317e-02 -7.532460553699661665e-02 -9.016415421429427868e-01 6.303410386087678896e-01 -2.577891896826411434e-03 7.763140662895321453e-01
-3.470239564368964719e-02 1.490676979613225761e-01 -8.790551364792380529e-01 5.107517126288126930e-01 3.082763847755540798e-01 8.025573865066902846e-01
1.866746622021241836e-02 1.234556920797530433e-01 -8.977988075111260624e-01 -5.709936901193329861e-01 -1.940070687585812859e-01 -7.977013621121691322e-01
6.171798843448059874e-02 -2.362901490858644038e-01 -9.224403055670307161e-01 -6.928119447824868660e-01 1.381670720892835269e-01 -7.077580584896105975e-01
-7.544998038369619964e-02 1.067165158737005126e-01 -8.350565340627653654e-01 5.748757854566793890e-01 1.924312661612190556e-01 7.952911662398596260e-01
4.483902647674525843e-02 -1.951519477424498439e-01 -9.034420699129718235e-01 -6.603287711762592105e-01 1.065609816167384372e-01 -7.433778791124527885e-01
8.215456212072762276e-02 7.919696407945377506e-03 -9.368216677118427205e-01 6.127044681113035240e-01 5.808493645841145137e-02 7.881747109068312218e-01
-2.205972222982596764e-02 -1.514187848950058479e-01 -8.508104689871373028e-01 6.454085175845193367e-01 -4.932508366989060700e-02 7.622433217485814483e-01
3.323723515623938640e-02 -1.687352473332669467e-01 -8.995695953935806122e-01 6.520756609000856185e-01 -7.605011266654156110e-02 7.543299760881326810e-01
2.517408369364368403e-02 9.390384182306155125e-02 -9.053297524554815290e-01 5.817049249289969470e-01 1.596537496568775916e-01 7.975776203817712684e-01
-1.052492712651631884e-01 -2.404098784925496474e-02 -7.792847460048348829e-01 -5.937509372146915210e-01 -9.636056928815261990e-02 -7.988582259970404831e-01
-6.775569626780639232e-02 2.547839351567817053e-03 -8.110673555522669442e-01 -6.041960026706748588e-01 -1.130995171792863740e-01 -7.887684638539946835e-01
-4.744004567770756381e-02 2.340928947254576897e-01 -8.941274269471500835e-01 5.271434977207452022e-01 2.196122929904174570e-01 8.209081395492615618e-01
8.329730116448340327e-02 3.526939327143476573e-03 -9.282552318848991124e-01 -6.168547789675336013e-01 -6.182215965020513432e-02 -7.846452715980003489e-01
-2.834027625818702142e-02 1.907832621233800929e-01 -8.834806884145955941e-01 -5.500563084224335819e-01 -2.591020616054857117e-01 -7.939169851039035164e-01
-3.849765720055536161e-02 1.089325891219542902e-01 -8.530696440226926969e-01 -5.769507086979874799e-01 -1.900169696576247125e-01 -7.943685737584432749e-01
-4.054152686416314516e-02 9.799306983182420883e-02 -8.489660504728131496e-01 -5.771871242873231056e-01 -1.901057896398493929e-01 -7.941755550898927929e-01
1.194237389118346371e-01 5.970544643786696200e-03 -9.656039208678902641e-01 6.059027492564628137e-01 5.132835088212871905e-02 7.938811364676583437e-01
5.828862231675799310e-02 -1.336292862554196992e-01 -9.175585464300244354e-01 6.424613394751224060e-01 -5.378446239236431975e-02 7.644283216136067427e-01
5.093104338332817005e-02 -1.904268891755710874e-02 -9.133226113091614806e-01 1.584659234863677324e-01 5.931681388327517679e-01 7.893288986014015407e-01
8.638250137463385214e-02 -4.538845049193383774e-02 -9.286532236077948976e-01 -6.274870177428406581e-01 -1.070673771775435164e-02 -7.785534075011419919e-01
2.412945538671408541e-02 8.244603715584032655e-02 -8.961653380062102325e-01 -5.766948425488499508e-01 8.136578923762431970e-01 7.337501448999346476e-02
6.834781294919591021e-02 -2.863888465584031318e-01 -9.502040610422612943e-01 -8.800533496347884288e-01 -2.283385911191874174e-01 4.163743383090431349e-01
-3.749815798227002644e-02 -1.579535558864850198e-01 -8.380439160897124040e-01 6.500307112761805062e-01 -4.059555837716393584e-02 7.588228219010213493e-01
9.903162022124385733e-02 -2.498992393798637676e-02 -9.484910419099819023e-01 6.215297864476699852e-01 1.741341126855549745e-02 7.831969724573158986e-01
3.617602907959527325e-02 -3.635410826166753789e-02 -8.839155845635078279e-01 -6.601751173034027254e-01 3.373335840138023956e-02 -7.503538332176377113e-01
-3.164958541454918062e-02 8.520494968547501213e-02 -8.617028625507834327e-01 5.914594926433323074e-01 1.555772449426805204e-01 7.911835371253228555e-01
1.090162690511947696e-01 -1.378766350153329268e-01 -9.608222575784388653e-01 6.193309381495890609e-01 -6.813945424207080992e-02 7.821676315383693234e-01
1.057588293620700948e-01 -1.005159069469138133e-01 -9.552102946558795882e-01 6.319959521857640983e-01 -5.046853137001112294e-02 7.733266087250350029e-01
-6.460300840096720731e-02 -6.867959459773695374e-02 -8.065671817032351587e-01 -6.186880124184361840e-01 -4.525661283784328942e-02 -7.843321887339385068e-01
1.028077238754389749e-01 -5.563140123107266494e-02 -9.419982185246434936e-01 -6.352559442411306323e-01 5.332161031074836473e-03 -7.722832727471496961e-01
6.923841495124300957e-03 1.628847701824288063e-01 -8.995432446854858544e-01 -5.630178787587170053e-01 -2.240283627127947486e-01 -7.955012010665091227e-01
1.265549497299873344e-02 1.948965146261008863e-01 -9.108859582035149227e-01 9.215535402778131380e-02 -8.940144675000321062e-01 -4.384581195788809782e-01
4.731414346471097404e-02 -7.245398125449326043e-02 -8.965235578383405901e-01 -6.340057184148594205e-01 1.233203520465114681e-04 -7.733283479928487747e-01
7.616787078215568607e-02 -1.269880516022388051e-01 -9.322779064031719853e-01 6.426644869245519143e-01 -6.866847566071568321e-02 7.630642159716546358e-01
-6.189412411964213129e-02 2.263871779888499969e-01 -8.819131760292733269e-01 5.284400498502793697e-01 2.862151574347423511e-01 7.992696649872556014e-01
-2.744593433642560087e-02 1.965476416297517459e-01 -8.859815809098846584e-01 -5.500563084224335819e-01 -2.591020616054857117e-01 -7.939169851039035164e-01
-3.585698395044634168e-02 1.876154919696946255e-01 -8.773049505513724755e-01 -5.443694237023068982e-01 -2.601254600288444019e-01 -7.974939972080042905e-01
1.771335930327319966e-02 1.779461120189671508e-01 -9.114648267677852855e-01 -5.647922908852160973e-01 -2.248126355378385899e-01 -7.940207472472996519e-01
-8.176137297091708167e-02 2.222658463561945352e-01 -8.671826979847544470e-01 5.296669213845649482e-01 2.962018705404453889e-01 7.948065200282005138e-01
1.086862065601763572e-01 5.323833559855021408e-02 -9.531010369530699133e-01 -6.138664392298640582e-01 -1.006211651091678400e-01 -7.829708653068266910e-01
-5.441944464539988716e-03 -1.678160454498394891e-02 -8.568956282673203528e-01 -6.172925308055776661e-01 -6.964589451167044198e-02 -7.836449328549979221e-01
-6.266389674124657472e-02 8.492853705227556768e-03 -8.158171019347498776e-01 -5.979999155023443258e-01 -1.110261642628224132e-01 -7.937690419185379209e-01
2.362178448834026737e-02 -8.054788284853880986e-02 -8.866374424968885837e-01 6.313488175705688210e-01 -6.139409334973358265e-03 7.754746792805436995e-01
-9.098593258746724005e-03 -4.267424864755319652e-02 -8.613805585316157698e-01 6.171433054388134609e-01 5.034211719307579019e-02 7.852386973325843345e-01
3.987933928374621378e-02 -4.936732344094063585e-02 -8.908420841004185409e-01 -6.242003619562064287e-01 -2.041147567737304491e-02 -7.809976183026504648e-01
-8.079886909496430958e-03 -5.573120115841090350e-02 -8.521573392358461341e-01 -6.247541898762098977e-01 -3.079043504549429031e-02 -7.802141701749781832e-01
-4.651241002456421580e-02 -6.801205083344778746e-02 -8.302531714260253937e-01 6.289438768395164692e-01 3.984858967815067127e-02 7.764288052917287519e-01
-7.307823186171441554e-02 -8.893880590269261088e-02 -7.989783921600244199e-01 -6.202614324789104128e-01 -1.908112081359801537e-02 -7.841630354764925759e-01
-1.520908746786059015e-02 -2.000670559477252808e-01 -8.522990049416138136e-01 -5.952728335620549593e-01 2.194590257528031274e-01 -7.729734727910345660e-01
-4.045955451070627068e-02 -1.136117287492601630e-01 -8.248862630068184432e-01 -6.332669170370871514e-01 6.124138943085378345e-03 -7.739092367381000814e-01
1.624288266329313585e-02 1.853132640990808877e-01 -9.126368839304646041e-01 -5.562492618526432286e-01 -2.519239879393337933e-01 -7.919097568467836634e-01
1.020605130775912618e-02 1.366912816969535933e-02 -8.745940074891725979e-01 -8.663570879738472508e-01 -3.112649434958517647e-01 3.905630948617644371e-01
1.071779356085785090e-01 5.137909694387893939e-02 -9.516795847287090604e-01 -6.138664392298640582e-01 -1.006211651091678400e-01 -7.829708653068266910e-01
-7.422298648278856381e-02 -4.928929162875651804e-02 -7.961571649591452360e-01 -6.169699815330986770e-01 1.205153720913733177e-02 -7.868944035497675848e-01
6.728177296935418383e-02 -4.041048212609122947e-01 -9.995070100241447708e-01 -1.096320565836934185e-02 8.183791557377187997e-01 5.745740731843985705e-01
-6.243123035584106917e-02 -4.035054657800444394e-02 -8.149289324819276592e-01 1.547741291120262597e-01 -9.718347638020543577e-01 1.777137046584165991e-01
-1.319976611881213124e-01 8.569741759185318941e-02 -7.885132545498914070e-01 5.876398697875967470e-01 1.978892646977826186e-01 7.845503313066582995e-01
5.390467805978532007e-02 -1.412256820857142325e-01 -9.048753164079641476e-01 -6.418904371645128837e-01 5.252627601934415497e-02 -7.649952006413440753e-01
5.792881172726192102e-02 -2.090396061880870349e-01 -9.134429787973595838e-01 -7.103766572345668884e-01 1.293474359106472626e-01 -6.918339726260799294e-01
-8.284508504070227375e-02 -8.077410309926381926e-02 -8.001106408496068134e-01 6.359309407610324039e-01 5.980028472263288625e-02 7.694256068846946350e-01
-1.292156234676415105e-01 1.783157869367007764e-01 -8.168024312132723397e-01 7.972365675920578543e-01 -4.511400889289155502e-01 -4.011065637149858198e-01
8.559861144232784602e-02 7.539573897957439763e-02 -9.469845073997067431e-01 5.962463156516849550e-01 1.190738370749848396e-01 7.939217545804063692e-01
6.410537863685129845e-02 -3.580167225510316187e-01 -9.802520925172343302e-01 6.125161816491130340e-01 -2.599597998306912294e-01 7.464883319181737642e-01
4.067964750810067198e-02 2.589887546135423782e-02 -8.970300261212215132e-01 -6.029748565637201851e-01 -9.727171755606575654e-02 -7.918077641168049796e-01
8.029140098487023980e-02 -2.050471352370304423e-01 -9.430695142574349044e-01 -4.891030009831928704e-01 5.992980042642069849e-01 6.337350838593149849e-01
1.134361989275356614e-01 -5.894745062292960219e-02 -9.597377461909586405e-01 6.248625679085075824e-01 -4.325016214058686678e-03 7.807227840030889210e-01
-1.811540693113921144e-02 7.969662508565494852e-02 -8.728240686703609974e-01 1.117824061782064227e-01 -1.947008536595078165e-02 9.935419515273892221e-01
-4.669223578055350238e-02 1.935873606164308369e-01 -8.807722158809543345e-01 5.490609445769812913e-01 2.562089841303974991e-01 7.955432330119481810e-01
-7.964117032998405815e-03 9.784256331878739277e-02 -8.816609884564289290e-01 5.899034241241313259e-01 1.596176197434506783e-01 7.915403752646230640e-01
6.475343617538514840e-02 2.452390333820290633e-02 -9.247774529949401856e-01 6.104963907578759841e-01 8.795377453657279854e-02 7.871202515603167305e-01
1.099714245828363642e-02 -1.379028679199775231e-01 -8.819751371551934893e-01 6.420299563004944199e-01 2.041476274981897376e-02 7.664077065600617411e-01
-5.599105890490434917e-03 -2.991694041480785424e-03 -8.673493386172457242e-01 6.110400408320270094e-01 7.046557938183355130e-02 7.884571457107717452e-01
4.604391901553846547e-03 6.706021183279145537e-02 -8.793473152361904743e-01 -5.791373814982339052e-01 8.117033827766332310e-01 7.574636453546135240e-02
8.204723717371653971e-03 -1.322718174816278347e-01 -8.783568645585058121e-01 5.598923302933461743e-01 -5.541938283372471741e-01 6.159462469336040025e-01
-8.781976077648744050e-02 -8.146141175547938484e-02 -7.959456488798850593e-01 6.359309407610324039e-01 5.980028472263288625e-02 7.694256068846946350e-01
-8.035239132864102629e-02 -4.841741571768443109e-02 -7.956295748286092984e-01 -6.151452173913849464e-01 -6.879961043252200148e-02 -7.854062484630731644e-01
1.181329950445313554e-01 -7.212708253762535257e-03 -9.640593165901991668e-01 6.137688786028661081e-01 2.377498417014901194e-02 7.891276916863894098e-01
2.526439137987398359e-02 1.441094658610210244e-01 -9.165958724374889677e-01 5.693791236668178657e-01 1.937117877997420190e-01 7.989262524162253909e-01
6.019518753105294190e-02 -3.703166272931063818e-01 -9.817357423331116717e-01 7.214623868974076037e-01 -2.751016246453775183e-01 6.354613445440793207e-01
-6.227322983601477763e-02 1.901734341589295940e-01 -8.719409276334604275e-01 8.439195447482643331e-02 7.083849958943219671e-02 9.939114170769127732e-01
-8.306755036004097315e-02 -2.940153581800450389e-02 -7.954063275108780307e-01 -6.056082430427838226e-01 -8.978160541913364490e-02 -7.906819330723291461e-01
-1.253234862231925595e-01 6.292974662792186202e-02 -7.878949143596745142e-01 5.937215473281799438e-01 1.736061244203356002e-01 7.857198214389037316e-01
-3.220119474247661040e-02 1.553252002211547300e-01 -8.698714191891653291e-01 -5.594392322077896829e-01 -2.251023771710519428e-01 -7.977196658342453617e-01
-1.134181232629190468e-02 1.199622019143340920e-02 -8.647400029361359541e-01 6.003362347117781050e-01 9.467873392807196753e-02 7.941236318318843912e-01
8.217814182677131429e-02 -1.942420354577538422e-01 -9.364940852705139207e-01 -6.700007455461598482e-01 1.374522398967749082e-01 -7.295244222882117935e-01
1.088433670940736064e-01 -1.359517317207183384e-01 -9.516222533709213227e-01 -6.567267372353770005e-01 7.891808059751664883e-02 -7.499879526732279311e-01
2.883397089254578077e-02 -1.408455799377464346e-01 -8.965827781189728007e-01 7.040507450626665165e-01 1.374932955246899735e-01 6.967123811605936412e-01
3.748098627285761236e-02 1.427650563673156792e-01 -9.250073203617027451e-01 5.713515306626620882e-01 1.932398758179415810e-01 7.976313552032038290e-01
3.772952465663441390e-02 -2.180569827011424322e-01 -9.101333170559384733e-01 6.587575547053790004e-01 -9.977560517197545109e-02 7.457099387370103027e-01
7.939177623374459036e-02 1.452105087649988545e-02 -9.351843741080604344e-01 6.153379626010783143e-01 7.055049645536935754e-02 7.850998785070946173e-01
7.106948687152553346e-02 -1.155753114204234183e-01 -9.175799020894159774e-01 -6.447612140424516802e-01 4.511493410791490855e-02 -7.630515183045912808e-01
2.413868721997729921e-02 -8.280661054270475885e-02 -8.776124486020657756e-01 -6.373987300171157777e-01 6.483448573173429021e-03 -7.705068616613137689e-01
1.256988610731402806e-02 -1.692736868700481789e-01 -8.818292048051259435e-01 6.504142042813311209e-01 -7.257405598793414958e-02 7.561047343235873797e-01
-5.598227898086013260e-02 5.502286126013065937e-02 -8.285129898702854323e-01 -5.866199704443337826e-01 -1.614686757073021117e-01 -7.936024678900758245e-01
-9.484537974375178981e-02 -4.123753135115206664e-02 -7.910485204478756582e-01 1.700068656717547144e-01 -9.674849268249333667e-01 1.872714126368986709e-01
-4.494075017612696177e-03 1.925185941111559329e-01 -9.093972796363268829e-01 5.469774505957014643e-01 2.450972517922075100e-01 8.004642438633559065e-01
1.026746652396675827e-02 -1.633041550233909900e-01 -8.697680909980536335e-01 -6.444437112294549852e-01 7.154456357827415625e-02 -7.612973653436618804e-01
1.498259455499098385e-02 -1.196507312257448497e-02 -8.808077743687747763e-01 -5.664120856008774130e-01 -2.674715300129756335e-01 7.795103141830658222e-01
-4.428504035067114264e-02 -1.348279297659712717e-01 -8.342451085220804474e-01 4.841139444912336831e-01 -6.905228143482649017e-01 5.374122548041588843e-01
3.794994400385252181e-02 -1.758289526702477845e-01 -8.947613255977927560e-01 -6.532295076789940147e-01 7.757217656039748499e-02 -7.531757880608890288e-01
1.040967362616502731e-02 -2.083216054638596937e-01 -8.844862584838492081e-01 6.654452544983697759e-01 -8.459014116888570467e-02 7.416381336491724152e-01
-2.755885474267292384e-02 -6.441976625057871213e-03 -8.406927789735071377e-01 -6.112896846872144518e-01 -7.765727071330684461e-02 -7.875876266805910131e-01
-8.293825090566986358e-02 -4.077115123443825900e-02 -7.992725043725126266e-01 1.654595660595105655e-01 -9.676200449033062201e-01 1.906163180336928054e-01
-1.365287728815908763e-02 2.060986556173235174e-01 -8.985975681310679475e-01 -5.382224055730341350e-01 -2.813338810393274936e-01 -7.944607539196165691e-01
2.867646400390808092e-02 -2.087947758868966830e-01 -9.008110457914318969e-01 6.605548247840287157e-01 -1.101411619486795529e-01 7.426548645899626599e-01
-2.567891947145591654e-03 1.164325938608669481e-01 -8.808171631292501802e-01 -5.731327460945141450e-01 -1.921989474290166089e-01 -7.966043057637455238e-01
2.061374436589895245e-03 -9.618940724288893920e-03 -8.766020208486021703e-01 6.591317653213961680e-01 9.518047569086100779e-02 7.459798877929358918e-01
-4.969279359104097210e-02 1.968501125872309521e-01 -8.797601357168004510e-01 5.472957221178923470e-01 2.563290640780895302e-01 7.967200282786327525e-01
6.634574607058163487e-02 -1.861077352971875903e-02 -9.226805298483958806e-01 6.262718768723039009e-01 3.821638833886543268e-02 7.786674796735605364e-01
-1.000775696374237300e-01 6.262736073984054297e-02 -8.066691240199974633e-01 5.815252307408057542e-01 1.704299436223904174e-01 7.954759835021552039e-01
4.680136282404250697e-02 -4.790424924690411639e-03 -8.988347990206048133e-01 -6.206302091946264143e-01 -5.774216976769210030e-02 -7.819744147128812051e-01
6.582516003138084992e-02 1.117722962548318294e-01 -9.385133682998099136e-01 5.748194445212669867e-01 1.672658323878671305e-01 8.010023392699024969e-01
6.615179107861607344e-02 -3.978330386680234976e-01 -9.815766527481393222e-01 -2.036405181749901816e-01 4.158900459115674186e-01 -8.863216171735267546e-01
-4.399228837126242103e-02 2.181886420413383376e-01 -8.823504958751247074e-01 -5.345080934271714268e-01 -2.876301630187205194e-01 -7.947137770182886030e-01
1.269147922188622601e-01 -8.789981129374875579e-02 -9.711991282219608612e-01 5.800613178758066146e-01 -2.965167556257216480e-02 8.140329512006956314e-01
1.079474864276588619e-01 -1.081008255677098351e-01 -9.574939637933468362e-01 6.319959521857640983e-01 -5.046853137001112294e-02 7.733266087250350029e-01
-8.642650344485464098e-02 -1.101219714265030680e-01 -7.951654368727976152e-01 7.506334293296772486e-01 1.175624682638233415e-01 6.501757614895266046e-01
9.521267414766851345e-02 7.196960765874541033e-02 -9.535783480709077997e-01 5.818687314160219115e-01 1.118151591875918005e-01 8.055595257807847132e-01
-1.044564802726289099e-01 4.179123068922267759e-02 -7.901834778794170067e-01 -5.807671161021973338e-01 -1.474144630553189950e-01 -8.006113494926540008e-01
-4.694044047337515152e-02 1.727280868238022793e-01 -8.738900370189485178e-01 5.472957221178923470e-01 2.563290640780895302e-01 7.967200282786327525e-01
2.176400215894313921e-03 4.068076742061291218e-02 -8.660864458077134342e-01 -9.033691333184153960e-01 -2.439481540233127133e-01 -3.527229892084621787e-01
6.066438043210956033e-02 1.489018842906437434e-01 -9.427412534424196577e-01 5.601708031616522421e-01 1.869518104552921889e-01 8.070053852687215645e-01
-4.279288258233673176e-02 1.880385977653992458e-01 -8.726794897282919017e-01 -5.461253620430923661e-01 -2.615686578083897262e-01 -7.958196568228373957e-01
-7.551305523732622371e-02 -8.373634475665077403e-02 -8.059770123677361120e-01 6.308934659828735469e-01 2.471329192242369133e-02 7.754757815576666102e-01
-1.757447093847699579e-02 -1.318711659466448027e-01 -8.477934517977742113e-01 -8.740637693869048042e-02 -9.812485649594711035e-01 -1.717887628322354310e-01
-6.630741831454907420e-02 -8.426199670949148512e-02 -8.044478074180949623e-01 -6.202614324789104128e-01 -1.908112081359801537e-02 -7.841630354764925759e-01
5.902078344489779943e-02 4.150404958557657453e-02 -9.222285465949151551e-01 6.104963907578759841e-01 8.795377453657279854e-02 7.871202515603167305e-01
-1.158176137675125117e-02 -1.532964971429644219e-01 -8.598542317048529782e-01 6.449273396032325634e-01 -5.995674170613703169e-02 7.618883879914959412e-01
2.836602268678632428e-03 1.880104303710393998e-01 -9.130577064726546066e-01 5.507315028959253178e-01 2.441032131574341624e-01 7.981907247295044749e-01
9.729456725590235333e-02 1.034780384023956286e-02 -9.398093902250278520e-01 -6.146024605251015904e-01 -6.858349903454089014e-02 -7.858499342601421578e-01
9.722473391880154248e-02 -9.198562881065857830e-03 -9.476332323597131957e-01 6.134284912401868350e-01 4.183916036783726089e-02 7.886412180418306273e-01
2.676727503702616348e-03 9.584157568328334487e-02 -8.799487271077967021e-01 -5.855956120652869856e-01 -1.573191684735977536e-01 -7.951908314113396159e-01
-8.820185768672864079e-02 -7.358086880392215867e-02 -7.878369611330117150e-01 -6.025858935695239671e-01 -4.697834250373736364e-02 -7.966701175559554038e-01
4.705446378907893190e-02 -1.739258979561824625e-01 -9.120924340611005210e-01 6.597696262542450674e-01 -9.651802082583531284e-02 7.452437936193746504e-01
2.697644353992265098e-03 -1.379782690054885512e-02 -8.635639445019548388e-01 -6.156860826119290309e-01 -6.901412841556789357e-02 -7.849635009075367487e-01
-6.820075471760762842e-02 -6.187254527641661284e-02 -8.131798140257813223e-01 6.232730076422035026e-01 4.517280750615181723e-02 7.806985176152531070e-01
-2.698045663737041328e-02 9.623393455226864068e-02 -8.584318734123762562e-01 -5.665793824614393515e-01 -1.853334783868277047e-01 -8.028943300077870937e-01
4.784697284037146836e-02 -1.892964360533467005e-01 -9.021296324913793407e-01 -1.764443442763536096e-01 2.817794407339030971e-01 -9.431159738614208754e-01
-1.266076602360314551e-01 1.175307645430910541e-01 -7.928767671250607219e-01 -5.482089469457093189e-01 -2.238588989457815925e-01 -8.058251323031930813e-01
-5.634892453571710424e-02 -1.125961511786175290e-01 -8.119688359691384916e-01 -6.242779729471643613e-01 4.225442738460821399e-03 -7.811908589625478072e-01
-1.043805337933124272e-01 -6.183072274625661148e-03 -7.821793112469009879e-01 -5.910022866018230792e-01 -1.198669552042811726e-01 -7.977143663501813364e-01
1.073129409545550000e-01 2.953872162587740588e-02 -9.609664359136884659e-01 1.221389375186829607e-01 6.089050909761416497e-01 7.837835607647969383e-01
-9.550595123303544376e-02 1.578553371071268197e-01 -8.265393792007220686e-01 -5.482138066606864202e-01 -2.537441604531783246e-01 -7.969162586009341798e-01
6.562305891598065044e-02 -2.538820104236412870e-02 -9.217691320580627679e-01 6.243893778449283172e-01 2.988589720231776131e-02 7.805413108752385920e-01
-7.915614339357331108e-02 9.032184770206642954e-02 -8.283929476410570869e-01 5.777052436240893707e-01 1.968025374673506300e-01 7.921650161018494174e-01
-9.599510794055754470e-02 1.969360913353641884e-01 -8.483080592263043673e-01 5.448637370646685074e-01 2.815806575625230401e-01 7.898327932661322048e-01
-4.415401169304622626e-03 1.098381407771557156e-02 -8.606226149559784711e-01 -6.081875207772743375e-01 -9.627021899307418307e-02 -7.879339975567861698e-01
6.985502358597288353e-02 -1.822425689613467459e-01 -9.329386045841757680e-01 6.544052917328115893e-01 -1.013272120817979433e-01 7.493240355439186873e-01
5.209397258238595424e-02 -1.904995286620627662e-03 -9.125195513662029967e-01 6.172701567258783717e-01 5.593470308060889684e-02 7.847603854724662931e-01
9.856357678711577530e-02 -6.048155616745939933e-02 -9.477756565483028695e-01 6.321722173188680793e-01 -3.217415567935766503e-03 7.748212283405826462e-01
1.221029785633217235e-01 -1.032169564113276650e-01 -9.601410413392128529e-01 -6.553843099545205719e-01 4.972940484179159265e-02 -7.536566808298842401e-01
1.126859112933078777e-01 -8.301698668029904027e-02 -9.598977676094998523e-01 6.277837216095075723e-01 -3.217416887007078924e-02 7.777225866204712235e-01
5.440360584061490479e-02 2.373399577212371644e-03 -9.146486941030513851e-01 6.181123998202786574e-01 6.011243205196176859e-02 7.837879539143316476e-01
-1.954067761132127420e-02 1.850939227124604181e-01 -8.877071793613116046e-01 -5.450088341880601206e-01 -2.562702567955534860e-01 -7.983050332666784543e-01
2.529974049819326554e-02 -1.367544666275808951e-01 -8.755087506486323168e-01 -6.385930741317448200e-01 9.469460239209315233e-02 -7.636961555152487202e-01
-5.918147379410086673e-02 -1.405176232818447779e-01 -8.234797596755545346e-01 6.402951708000508280e-01 1.006103114927036912e-01 7.615114309525987668e-01
-7.864592205531029112e-02 2.461634361490554201e-01 -8.779539041058779247e-01 5.196814326203779144e-01 2.711662248525392171e-01 8.101852177674274680e-01
7.914228867160023884e-02 -2.555803649095382199e-02 -9.232790312009900857e-01 -6.259542938958435609e-01 -3.883711331469078681e-02 -7.788920981642692976e-01
5.854096251157921149e-02 -1.559808062202208967e-01 -9.103383275565514188e-01 -6.472599369454067331e-01 7.999694769677641315e-02 -7.580600651562032777e-01
6.788420781951280680e-02 9.342433176303767406e-02 -9.367150816592434426e-01 5.848440775123227020e-01 1.398233468040731842e-01 7.990036524868131540e-01
5.608859927582811322e-02 -1.165680470590021722e-01 -9.053553699253787945e-01 2.139750146258641017e-01 -8.569077621790617272e-01 -4.689603183992582247e-01
-2.745415268052826818e-02 -1.240984227692466246e-01 -8.357151795049585496e-01 -6.371259426767872380e-01 9.125626205082034217e-03 -7.707056870911100921e-01
-3.942727029343358336e-02 -1.301105544650951185e-01 -8.259907503222917446e-01 -6.372843909254320982e-01 3.197817280480180768e-02 -7.699649352709948547e-01
5.721836135595178424e-02 1.710328479396772822e-02 -9.181624594025857844e-01 6.085826834867097412e-01 7.820302578586417475e-02 7.896273830852439390e-01
3.656261490864911451e-02 -1.973841967121147678e-01 -8.965225412773686342e-01 -6.541385104064888489e-01 1.039201462686045185e-01 -7.492018502397679303e-01
1.123555892439822013e-01 -3.475174470593183490e-02 -9.499004347271090554e-01 -6.329877109003664293e-01 -2.097147750885909601e-02 -7.738777390390612076e-01
9.741269084601091033e-02 -8.055738878027718375e-02 -9.499360431583770970e-01 7.360861414458789165e-01 -5.901941642306740565e-01 3.314333128690807317e-01
1.515556123761246064e-02 -1.247597407231871951e-02 -8.688270874468623228e-01 -6.453280919310521169e-01 -8.570644287271919626e-02 -7.590823798605345063e-01
5.688368717802345931e-02 -3.039344818077562849e-01 -9.430057333594379365e-01 5.556243903181156130e-01 3.433102312279692758e-01 -7.572447570091326297e-01
-8.347226376981296825e-02 7.000721279462479574e-02 -8.113311421419312497e-01 -5.860947262443908512e-01 -1.643905571147719069e-01 -7.933906456469016488e-01
3.688105423033153502e-02 -2.078337397924632790e-01 -9.079251600880765549e-01 6.569113299587919785e-01 -1.104333939642310747e-01 7.458364231313138193e-01
5.873422756771389669e-02 -1.471259286126991861e-01 -9.192221803154964066e-01 6.514450793354515934e-01 -7.260732288136338697e-02 7.552135362092157189e-01
1.248213497713903247e-01 4.533806698610312429e-03 -9.694212824283909846e-01 5.811515402056346424e-01 2.218092761514973976e-02 8.134930201094230373e-01
-7.875694707575359166e-02 1.652780021086135420e-01 -8.495554148560778840e-01 5.519831877314897994e-01 2.571019572483713711e-01 7.932295657883909890e-01
-1.201564271843447163e-01 6.279760294205870286e-02 -7.833598457549770799e-01 -5.716979229509592253e-01 -1.704099048877671940e-01 -8.025720834976139972e-01
-7.824169081011148053e-02 2.101986259053397615e-02 -8.149337295065617326e-01 5.995314598369071435e-01 1.380267113954207203e-01 7.883594710582172427e-01
-3.067479266405389628e-03 -1.975937831169216063e-01 -8.712765493378725745e-01 6.590984758561584389e-01 -8.665154036517275227e-02 7.470479969027635780e-01
5.841779697228629414e-02 9.318206120548371300e-04 -9.084440531762202342e-01 -6.170373695520245949e-01 -5.637150723846013484e-02 -7.849121847365997384e-01
-5.837145408346683384e-02 -1.057173959273748493e-01 -8.193706435739638305e-01 6.351744258308898994e-01 5.288465622323177372e-03 7.723506204449896995e-01
-1.212611343545017401e-01 4.791821951884044778e-02 -7.816586607234049522e-01 3.186050420240225667e-01 6.961040459824365811e-01 -6.433739071206979743e-01
8.756707748407431546e-02 -1.150142710920637329e-01 -9.410038349888432130e-01 6.468590494479620201e-01 -5.918758604736625017e-02 7.603092790471286389e-01
-5.945689000379744682e-02 2.095000837143672356e-01 -8.687525562305860038e-01 -5.324044205154204734e-01 -2.916767079998802137e-01 -7.946510120965001311e-01
5.932973076986645944e-02 -2.311998984339603824e-01 -9.290154953779519165e-01 -4.098013523784716505e-01 7.891976780593755736e-01 4.574165241161123330e-01
1.905722084872185293e-02 -1.144126687519477353e-01 -8.835376432003303471e-01 6.396773909946725789e-01 -2.498977353308168628e-02 7.682371682423428938e-01
-2.673461256257324628e-02 -9.132375218268216910e-02 -8.361325248912813146e-01 -6.273746711487485639e-01 -9.999671836839340786e-03 -7.786533429994090261e-01
-1.949160868640731001e-02 -1.957226198518648430e-01 -8.564491255173204420e-01 6.741378875194783404e-01 -4.995864609952670177e-02 7.369139992500329805e-01
1.229759110460704880e-01 1.881343377709048664e-02 -9.611610398489901508e-01 -6.495676291264040891e-01 -6.405350091248215860e-02 -7.576008475522957308e-01
2.986863352047547729e-02 -4.030864881972882896e-02 -8.925024753581630721e-01 6.178652237244236511e-01 4.286898329140382408e-02 7.851145238648494784e-01
2.345742961247406985e-02 9.662095893265656987e-02 -9.046216230092943844e-01 5.817049249289969470e-01 1.596537496568775916e-01 7.975776203817712684e-01
-1.904137803085478517e-02 1.670000259235195350e-01 -8.915630232038310732e-01 5.613500040372774169e-01 2.240581855703338288e-01 7.966706361139954673e-01
-1.093730274001030872e-01 -4.297703987844713608e-02 -7.816581142334297905e-01 6.410467382104091394e-01 9.152363763177516487e-02 7.620252641379041680e-01
1.299804153765213299e-01 -4.960056643116547703e-02 -9.724514931605373613e-01 5.763491592225411519e-01 -1.251800540138925215e-02 8.171076711206670673e-01
-8.718930872519846387e-02 1.414682715518199019e-01 -8.271427180241718302e-01 -5.626357720632336745e-01 -2.257676752050048752e-01 -7.952797902797077434e-01
-4.569864396633964432e-02 2.052119795754047960e-01 -8.765062025576300098e-01 -5.345080934271714268e-01 -2.876301630187205194e-01 -7.947137770182886030e-01
1.015111266160084909e-02 -1.138538703708725786e-01 -8.761151601828487401e-01 6.382551814219019626e-01 -2.432803545216535163e-02 7.694403616129926737e-01
-1.068569704649471874e-01 1.515079175672442990e-01 -8.166858734719214530e-01 -5.499486388771169798e-01 -2.539995841602734616e-01 -7.956385522607704042e-01
-1.018533159668379290e-01 1.184717053500840139e-01 -8.193796035160700875e-01 5.666138713319553988e-01 2.249776213746862430e-01 7.926750851987228730e-01
4.735100689903574273e-02 -2.522831054957840394e-02 -8.933428390087071458e-01 -6.588899268056445102e-01 2.478993047061618660e-02 -7.518307812941115165e-01
-5.059800017280637746e-02 1.602394653538468661e-01 -8.544173661101935879e-01 -7.831173861632820254e-02 -4.621512472290660589e-02 -9.958571352567263668e-01
7.388821604961677558e-02 7.703680488635658574e-02 -9.294832001996033988e-01 -6.005388987343204255e-01 -1.172875730847896675e-01 -7.909466836056965322e-01
1.782762920827102304e-02 1.682398926506331049e-01 -9.087979669870784871e-01 -5.647922908852160973e-01 -2.248126355378385899e-01 -7.940207472472996519e-01
-1.017750323739576856e-01 1.132007811524313456e-01 -8.179402174908773082e-01 5.664986032112683256e-01 2.248102788024657350e-01 7.928049388749035531e-01
6.600472450833781701e-02 -3.076856501077582413e-03 -9.233795850512451775e-01 6.181123998202786574e-01 6.011243205196176859e-02 7.837879539143316476e-01
-2.052529825128165605e-02 -1.885234764784191885e-01 -8.549493420310331215e-01 6.609415402581352295e-01 -6.229069189238405080e-02 7.478476783842895603e-01
8.928137289537578514e-02 -1.487849760818145128e-01 -9.360846253757567625e-01 -6.538751168265306557e-01 8.334914491838738004e-02 -7.519975077328810986e-01
-9.455103945373939667e-02 -7.773073207105360427e-02 -7.906171071977726728e-01 6.613299487017516576e-01 7.781908851061945798e-02 7.460475108285765655e-01
5.892208099234173824e-02 -1.739701569964892955e-03 -9.168290058427739364e-01 5.612620823285361382e-01 -8.103756539248699875e-01 -1.681552094526805319e-01
4.423863748058562417e-02 -4.822931276275734674e-02 -8.944080210485145788e-01 -6.289239645511321974e-01 -3.003732949797268542e-02 -7.768863531108757270e-01
6.173347487302456582e-02 -1.783652038180594812e-01 -9.253634509673864805e-01 6.485620079201085408e-01 -1.039448485386768456e-01 7.540310274417814096e-01
2.843824736898940830e-02 -9.226974431268238075e-02 -8.945443056983983787e-01 5.848130169487534280e-01 -3.993047309980619908e-02 8.101847274080908878e-01
-5.635785187296075971e-02 1.654409080894163053e-01 -8.690380300342590569e-01 4.853741911571954892e-01 2.357625867720052892e-01 8.419191750026072674e-01
-1.347058381566636209e-01 5.405357058552887756e-02 -7.757654237743042414e-01 8.075255555916361905e-01 3.896629457018453008e-02 -5.885440552362150024e-01
3.534701267465722302e-02 -9.083895462950426769e-02 -8.943551522532001696e-01 -5.583309503383242500e-01 -2.905245895804156597e-01 7.770855890720370640e-01
-5.968822815405766535e-02 1.399672670922040008e-01 -8.461476917932981845e-01 -5.591273238021083891e-01 -2.226331710205979031e-01 -7.986307700929168307e-01
6.761484198687221780e-02 -1.621120382562398626e-02 -9.144810850326381413e-01 -6.259542938958435609e-01 -3.883711331469078681e-02 -7.788920981642692976e-01
7.457167129312795850e-02 -3.660521870200557637e-01 -9.803161336976330409e-01 -8.809731998589487301e-01 -2.087402779978629608e-01 4.246336273443964138e-01
-1.301889722456480436e-01 1.731555367523020250e-01 -8.129337329116370636e-01 7.968690525223819376e-01 -4.513324418244453740e-01 -4.016201440277429868e-01
-6.429248419531942427e-02 2.070066652360244841e-01 -8.646140608834383956e-01 -5.354775436254862742e-01 -2.950054481297621489e-01 -7.913504823064009264e-01
-2.122392791852299385e-02 -4.797278092248099396e-02 -8.513911559360813897e-01 6.221090210196996706e-01 5.234746063819696593e-02 7.811786667150116825e-01
-1.068779409599567437e-01 4.873747388509493995e-03 -7.819904892259449403e-01 -5.910022866018230792e-01 -1.198669552042811726e-01 -7.977143663501813364e-01
-3.434962748590097200e-03 -4.824695886932409139e-02 -8.655483322081979347e-01 6.269705529186921922e-01 4.492702845172957121e-02 7.777464161841742829e-01
1.021200801018694870e-01 4.350489733046343510e-02 -9.554266266709332545e-01 5.965654747370201516e-01 6.933112490575515929e-02 7.995641496910026458e-01
-1.434193830855270448e-02 1.247195714678277223e-01 -8.834680033971030744e-01 5.744166796203657999e-01 1.907987055709264579e-01 7.960159119806418104e-01
-3.040764131382988830e-02 1.759557237750336844e-01 -8.772215053404398555e-01 -5.443694237023068982e-01 -2.601254600288444019e-01 -7.974939972080042905e-01
-8.342404734484193396e-03 -1.775621952652988722e-01 -8.552137587834334198e-01 -6.470093194570547546e-01 8.078585145060622474e-02 -7.581903367500270052e-01
1.153644497581749265e-02 -1.380232808950134227e-01 -8.784364326651847854e-01 6.456710202309940971e-01 -4.656137623818685373e-02 7.621948385266544834e-01
9.115659204335133103e-02 -1.675282848067582431e-01 -9.492531563634941660e-01 6.438706140574381731e-01 -9.271487130766492557e-02 7.594962705581249640e-01
-2.384850523879270337e-02 2.372886225770785840e-02 -8.565775740903552871e-01 6.038512404849494253e-01 1.254663433332452727e-01 7.871606418358146895e-01
6.043838718340202587e-02 1.139286461116996163e-01 -9.367449400370487789e-01 1.027390787579641890e-01 6.799758554888869488e-01 7.260010452114521451e-01
1.377150607609376604e-02 -1.424103982728096018e-01 -8.700740969701316052e-01 -5.806163032312171984e-02 9.979588223696149729e-01 -2.659014740223341125e-02
-8.303264562913156843e-02 -1.170086183083936388e-01 -7.953391349166641922e-01 6.535313499232606738e-01 5.319024451249343421e-01 -5.384947200647347554e-01
3.689211044317005500e-02 -1.137519423938444796e-01 -8.984073376009665823e-01 6.443149445840201661e-01 -2.817954981144983259e-02 7.642409078020586666e-01
-5.770108677226563204e-02 -1.455719515106787265e-01 -8.173939034497342826e-01 1.289586234202825810e-01 9.900413654506394767e-01 5.646032361029246910e-02
-7.027881174418511290e-02 5.474555755690498765e-02 -8.178887695207406328e-01 -5.866199704443337826e-01 -1.614686757073021117e-01 -7.936024678900758245e-01
-3.731323196475738735e-02 4.874927975174977481e-03 -8.345680106184265590e-01 -6.010920876405653202e-01 -1.051299540065561561e-01 -7.922348104864405105e-01
-6.672224457951052290e-02 2.215714042368787939e-01 -8.770017869320210213e-01 5.288253817086857600e-01 2.832890426200015965e-01 8.000568942219705715e-01
8.068140636271084465e-02 -4.073397012549648255e-02 -9.240644707819376524e-01 -6.330316776008559909e-01 -1.225214186292163110e-02 -7.740289272201761328e-01
-1.243079992804034251e-01 1.335947732331214111e-01 -8.085941953987351161e-01 9.752333451060005709e-01 1.969594312479501508e-01 -1.006325247414778801e-01
6.804062656633347132e-03 -1.225874834109230288e-01 -8.640154754120954461e-01 -6.415463419530768041e-01 2.151703190299827234e-02 -7.667824388082390419e-01
-1.000225399585441682e-01 1.773820041614772858e-01 -8.387654864465997617e-01 5.436344867505240597e-01 2.673658147038565080e-01 7.955985582837848957e-01
3.853210094731651658e-02 1.321433542527470084e-01 -9.231869550889879594e-01 5.713515306626620882e-01 1.932398758179415810e-01 7.976313552032038290e-01
-6.262859301583006966e-02 -4.171807175697644227e-02 -8.073986984899236274e-01 -4.350600271111469963e-01 -6.980118202276891504e-01 -5.687726009860847309e-01
-8.539656868428352476e-02 1.027969481058362555e-01 -8.177853649828870086e-01 -5.752112776246081083e-01 -1.956864003129004936e-01 -7.942536237412110012e-01
-5.346002460027263550e-03 -4.496892467925084347e-02 -8.502383916357030280e-01 -6.149234357808648355e-01 -1.176288815669143117e-01 -7.797644608141444111e-01
1.091350356104425507e-03 -3.309586717097580399e-02 -8.700718077782855220e-01 6.252003945483078917e-01 4.420942620678178225e-02 7.792111352458375162e-01
7.685183385904801982e-03 6.248779877720364584e-02 -8.772295419736195754e-01 -6.002165757422235348e-01 -1.291597627719013042e-01 -7.893401154667015751e-01
6.561681095992549784e-02 -3.089176327562274671e-01 -9.621718726128711818e-01 2.031773450643249990e-01 -3.542433842987588455e-01 9.128146532200138719e-01
6.517254014576365218e-02 -2.202839909246939454e-01 -9.343518885221144821e-01 6.185899873970859275e-01 -8.360917032599386733e-02 7.812527978378522864e-01
-8.730604809731672133e-02 1.667086410516541162e-01 -8.351013476981604677e-01 -5.454329202244287966e-01 -2.572611509713695344e-01 -7.976964521272099651e-01
-4.458706639859764259e-02 -1.738637729599649961e-01 -8.252351029042978015e-01 -4.189655637658271092e-01 3.283601172399182588e-01 -8.465503468693221789e-01
-1.081908384913480986e-01 -4.739590921087075137e-02 -7.752716228617875238e-01 -5.153811997884906182e-01 -3.985745544444121297e-02 -8.560336454544705820e-01
6.693374932815984377e-03 1.975288745666768930e-01 -9.185408618949015835e-01 5.432392722598871071e-01 2.370702484764914131e-01 8.054121866236212401e-01
-2.064398637301188486e-02 -1.419357008344301618e-01 -8.542169357497030324e-01 4.776416854656407307e-01 6.286605120199498797e-01 6.137135984580726067e-01
6.396876533895118344e-02 -3.667889161063139225e-01 -9.839196514936204840e-01 6.202407373433048710e-01 -3.154054025430118036e-01 7.182066971189520199e-01
1.080532681603037920e-01 3.242911445346539218e-02 -9.625984703226754258e-01 1.972573637205595753e-01 -1.956716217294842200e-02 9.801564459934506424e-01
-5.539622429860048547e-02 1.338797663798300952e-01 -8.566326757544393544e-01 5.633814688878977517e-01 2.251226764889732168e-01 7.949346520589951615e-01
-6.277287408812486091e-02 -5.599968217748093474e-02 -8.087407456856545718e-01 -6.168009670702200298e-01 -6.180073317901914332e-02 -7.846892610452730343e-01
-6.757855854153686781e-02 -1.557784821735759898e-02 -8.088638731476619492e-01 -6.066927883645257813e-01 -9.018876327861671816e-02 -7.898036765707985296e-01
-1.357934813986566612e-03 -6.327642064416988399e-02 -8.572734960355971046e-01 -6.267003662140022691e-01 -2.924449398968795646e-02 -7.787113782130850037e-01
1.890089240804191176e-02 -1.175599849733294233e-01 -8.835098535406450404e-01 6.396773909946725789e-01 -2.498977353308168628e-02 7.682371682423428938e-01
-1.348823824104824487e-01 6.170672649569568236e-02 -7.799698214872023971e-01 7.257626258434716204e-01 1.816221948517165174e-01 6.635374814326874260e-01
-4.150626597059005329e-02 -8.861924535760715149e-02 -8.335476570893023407e-01 6.341588348058084801e-01 1.656287151138281441e-02 7.730253834933471513e-01
8.127197027489541092e-02 -1.742127369058026065e-01 -9.324220565793478466e-01 -6.608789932698171388e-01 1.120729195949383139e-01 -7.420772311209523631e-01
9.168433485445171005e-02 -1.912191929582377214e-01 -9.470939301529887056e-01 -5.554970011478577163e-01 6.141626727919127227e-01 5.605598032902739947e-01
-9.816992234359853131e-02 8.820489904735664966e-02 -8.050926833814578965e-01 -5.704521630165700907e-01 -1.964853483711204996e-01 -7.974821863748404738e-01
1.225315411847697350e-02 8.297144682908822594e-03 -8.824182167575598257e-01 6.066297625763366064e-01 9.386997120844378650e-02 7.894230549343635994e-01
4.491275162752128569e-02 -1.674358867471157086e-01 -8.998475569609907243e-01 -6.611807442572870119e-01 7.910975742996301241e-02 -7.460440132477120789e-01
-7.256335927824911561e-03 -1.693675402502232974e-01 -8.553438578119474389e-01 -6.492609673320403063e-01 5.928149345979553952e-02 -7.582518716312143248e-01
-1.100166898687113398e-01 6.030898089161519128e-03 -7.798650914075739848e-01 -5.853614275415276458e-01 -1.221058069229851856e-01 -8.015249035820604107e-01
7.014639332137044547e-02 -3.674408816729964333e-01 -9.698322766356940461e-01 -6.244833749533726941e-01 3.271242367388406125e-01 -7.092321539135659769e-01
9.643309950505504768e-02 2.802194989526810703e-02 -9.406781242540130927e-01 -6.146024605251015904e-01 -6.858349903454089014e-02 -7.858499342601421578e-01
8.947767430637010300e-02 -6.986636234041031235e-02 -9.404990022154646745e-01 6.296645697687709431e-01 -1.014913480647713744e-02 7.768008268794441840e-01
-5.856137251085786685e-03 -1.199634790526603149e-02 -8.663377165990112649e-01 6.153552031081789275e-01 7.215912215836474408e-02 7.849401474615922414e-01
-6.693333823498281987e-02 -6.532939210964724963e-02 -8.049223068212834065e-01 -6.186880124184361840e-01 -4.525661283784328942e-02 -7.843321887339385068e-01
1.462925204251020253e-02 1.831934403422252056e-01 -9.125297714850911790e-01 -6.357949881212408005e-01 7.718522901472795184e-01 -2.962308949265215346e-03
6.805601837203295590e-02 -2.659406264498582195e-01 -9.357817120025613278e-01 -9.490552349033918311e-01 -2.483314222176189953e-02 -3.141297123002878000e-01
-6.673423708591449954e-02 -1.387578537266903889e-01 -8.122103973001920663e-01 6.861164736791471874e-01 3.206432588000109052e-02 7.267847436152969909e-01
8.605046139918045775e-03 -7.524927071730465322e-02 -8.649071219334030225e-01 -6.323386735172367157e-01 -2.363504627510398456e-02 -7.743314449007190348e-01
-7.175733356373589777e-02 1.496567560668057573e-01 -8.403699892323041043e-01 -5.624390545555336685e-01 -2.237239144792918522e-01 -7.959961808958254670e-01
5.742871335216134104e-02 -1.260874723980653922e-01 -9.067928327174579195e-01 -6.418904371645128837e-01 5.252627601934415497e-02 -7.649952006413440753e-01
-6.042725078600342387e-02 -5.250373575871981890e-02 -8.170127726736745588e-01 5.991905848961318753e-02 9.937150846669826620e-01 9.455176854511768147e-02
2.232774293863046614e-03 -1.410850138251023012e-01 -8.573542369956680398e-01 -4.733306051273532544e-01 6.999655887873815763e-01 -5.347955803513224637e-01
