-7.231653258365262904e-02 1.535308444613129875e-01 -8.291298423727001543e-01 2.112055394968039013e-01 2.000744894175502109e-01 9.567457440564711701e-01
-1.142897548747485309e-01 6.219764933083168218e-02 -8.116624871672439845e-01 2.243456296303541486e-01 2.492702076453205164e-03 9.745064519551002169e-01
-4.600394074892159152e-02 -4.784990004638577099e-02 -8.256554541428500205e-01 -2.318398886256367863e-01 1.191586757483031611e-01 -9.654281309532901645e-01
-7.206941622110114853e-02 -1.067059260479467364e-01 -8.351749683359467324e-01 2.427012233744268443e-01 -1.584053600693220432e-01 9.570809046647336116e-01
7.965771065226643494e-03 -2.974296615618816919e-02 -8.367000111646477611e-01 -2.298637841447095098e-01 1.047597149207212669e-01 -9.675681076122775170e-01
7.470794734938134007e-02 -9.147526626768211211e-02 -8.688096883363776168e-01 2.308293444387897742e-01 -1.712478860671212133e-01 9.578058129200828219e-01
1.406386340140998448e-01 -8.914542221131726771e-03 -8.664370417670558266e-01 -2.515606090945182172e-01 9.303199006640726354e-02 -9.633599061494509952e-01
-4.116322076600334445e-02 -3.411893512178022780e-02 -8.315738099321527965e-01 -1.378691025671108517e-01 -9.845902758976441405e-01 1.075829873406577569e-01
2.015554486603178888e-02 -4.042312970792177884e-01 -9.541521046216189239e-01 2.763819510280096092e-01 4.586030982739591755e-01 -8.445686564154960552e-01
1.682837081699283151e-03 2.613485671742942634e-02 -8.387571813783899488e-01 2.272664605861752507e-01 -5.337431547642877000e-02 9.723688283465565796e-01
4.299352938824312076e-02 1.464754351664220300e-01 -8.425501003043420756e-01 -2.102798833220800301e-01 -8.294437640404633827e-02 -9.741163180508762842e-01
2.637697965220247090e-02 -2.689585429245585635e-01 -8.930148839530256399e-01 -2.879185580866722716e-01 2.986060846128884005e-01 -9.099106055769721202e-01
-9.278842877683161905e-02 1.943920235379084094e-01 -8.261550240181732008e-01 2.148560538913900919e-01 1.286372881988310513e-01 9.681370379192559827e-01
1.761621429140081824e-02 9.776324255584226131e-02 -8.343904951582167273e-01 -2.197596620380271870e-01 -1.333751928894724194e-02 -9.754628652696877289e-01
-5.285175953673341281e-02 -1.505701356406775882e-01 -8.486328100824077625e-01 2.388367135638334304e-01 -2.119627862391310347e-01 9.476438157365729698e-01
-8.334126558208659885e-02 7.991865433001844876e-02 -8.190665886234701487e-01 2.190573896738865212e-01 2.003618140817571905e-02 9.755062334315663941e-01
1.441889361976999850e-01 2.345735667774092453e-02 -8.648240739229311469e-01 -2.430506064664529065e-01 6.980538402818395327e-02 -9.674986362041897436e-01
-8.670935278355603598e-03 5.269370339039561833e-03 -8.299664824943374652e-01 -2.319807946484172545e-01 5.264276016168856209e-02 -9.712948320241634459e-01
1.424734373850193858e-01 -2.438977702224012778e-02 -8.684536520454877451e-01 -2.412282659927899864e-01 1.005416576498168596e-01 -9.652462373732096923e-01
1.000558937175101692e-01 5.643042248574670072e-02 -8.529015997270541494e-01 -2.235829723764269084e-01 2.950641155073875296e-02 -9.742381773163688585e-01
-6.695996930043485174e-02 -1.228745461837398439e-01 -8.359420045563251689e-01 -1.274037559109195694e-01 -9.915158266543661059e-01 2.578077721287203375e-02
4.395000717932975864e-02 1.786036347928529333e-01 -8.531241325078067206e-01 1.983121835648957443e-01 1.070809697831468371e-01 9.742720070699064649e-01
-1.115428286074780367e-01 -5.478441924676309693e-02 -8.181159778383300107e-01 2.414625888653427477e-01 -1.032341480146719975e-01 9.649033779929114818e-01
-1.001529289184498184e-01 -1.013490087734343209e-01 -8.272171601070804625e-01 2.461492356867562847e-01 -1.506379215743489097e-01 9.574543176332676042e-01
1.327030509071215336e-01 4.344349198900533671e-02 -8.678416114621877453e-01 2.061731366696797629e-01 -4.796235781531954512e-02 9.773393729654918927e-01
-1.460653827439800136e-02 -8.545318624609107849e-02 -8.382942988386801186e-01 -2.359244684638540090e-01 1.513438402702401986e-01 -9.599138957178939835e-01
-3.277809486963759872e-02 -3.607578019675773684e-02 -8.273535468467729803e-01 -2.125216571360513951e-01 -9.535265740108347376e-01 -2.135921765966785901e-01
-2.111229426034847562e-02 -1.341957926404379331e-01 -8.454614014545124290e-01 -2.415762442770483798e-01 2.012988013698696343e-01 -9.492732540043724576e-01
-3.835934463843731351e-02 9.474453251812786636e-02 -8.219488567904751353e-01 -2.144663858715575577e-01 -4.991640210074742984e-02 -9.754550333728913003e-01
-4.276543132099451527e-02 1.066425666883245027e-01 -8.215889730267069702e-01 -2.144663858715575577e-01 -4.991640210074742984e-02 -9.754550333728913003e-01
8.796203665541624250e-02 1.076620533866593926e-01 -8.504298817895316054e-01 -2.218338663638688424e-01 -2.948137744774665184e-02 -9.746386941414959537e-01
1.403574408510089959e-02 -2.193099431901413543e-01 -8.882803912714057892e-01 3.098701955433209587e-01 -2.949355975065975355e-01 9.038769027015628454e-01
-4.728397409398046175e-02 -1.639492770656842680e-01 -8.530321482284061174e-01 2.466798498311631727e-01 -2.184018971331350700e-01 9.441661204554642195e-01
-1.395326476800552197e-02 6.447342373274808636e-02 -8.375363249518280595e-01 2.083216281495082201e-01 -6.646938021191621526e-02 9.757991190503205736e-01
-7.289804562143252509e-02 1.937287804773141220e-01 -8.231231202664448521e-01 -1.963204802881185485e-01 -1.444674849397968308e-01 -9.698388602312304485e-01
1.041108427714542706e-01 -1.494181609326297733e-01 -8.807550109662258819e-01 -2.503916952226649117e-01 2.330220212513867684e-01 -9.396833171741629798e-01
7.835133575393081473e-02 -1.394792861587234034e-01 -8.794016989081152591e-01 2.413646292479154076e-01 -2.116427510141524471e-01 9.470746864377581620e-01
-4.727458294423644153e-02 -1.507604181998171144e-01 -8.500809990822570938e-01 2.388367135638334304e-01 -2.119627862391310347e-01 9.476438157365729698e-01
-1.356194530852298241e-01 1.233442733268878683e-01 -8.091540932448954004e-01 2.896721942042324582e-01 5.563359150457419799e-02 9.555076783580588318e-01
-1.332421676887561579e-01 8.044123835398077349e-02 -8.076988214874333272e-01 2.312445702955062687e-01 2.691994904337285943e-02 9.725231437103947219e-01
-6.588202377132267029e-02 -9.223859351258885397e-02 -8.268207784254262283e-01 -2.305666556115533727e-01 1.399846409901198685e-01 -9.629347421331161394e-01
1.294754925129710244e-01 -4.575160525221838581e-02 -8.749896841862524477e-01 2.282625820544267325e-01 -1.276744015889955675e-01 9.651919191605045079e-01
-4.789996921806707192e-02 1.046431662776432653e-01 -8.203577643910685557e-01 -2.144663858715575577e-01 -4.991640210074742984e-02 -9.754550333728913003e-01
1.475093440080400276e-01 -4.862811448298231393e-02 -8.728584531643025501e-01 -2.744458518353079524e-01 1.233958943553320753e-01 -9.536524144921144641e-01
7.639946743791570238e-02 8.926297643255642900e-02 -8.442890860092622241e-01 -3.983958028876107837e-01 6.235395808597274936e-01 -6.726657233298064531e-01
-6.034378360174289663e-02 2.135595226717382500e-01 -8.357790869555977720e-01 2.083499764562300183e-01 1.431666739990491155e-01 9.675192973614212821e-01
3.375290920457085092e-02 7.100173199165649152e-02 -8.438778393538372002e-01 -3.028118631598503696e-01 9.246780218547312469e-01 2.308149289549556726e-01
9.946662895597500886e-02 -8.895655722177758795e-02 -8.744057778002788384e-01 2.292543742608807722e-01 -1.601077370150427170e-01 9.601082982821125267e-01
-1.044143220185237558e-01 1.476758074127416387e-01 -8.183796552563593618e-01 2.229713508987659631e-01 8.175506439327416552e-02 9.713906969517625001e-01
-6.486384070727514717e-02 1.498261015908045890e-01 -8.278912920748555671e-01 1.316964408870271996e-01 9.883913785394760065e-01 7.575308763689934943e-02
-6.409862311006959967e-02 -2.764308583540563483e-02 -8.194271570519079395e-01 -2.274237370801612812e-01 8.745123423217444902e-02 -9.698611887501031870e-01
4.815564335052989475e-02 1.298303115621053105e-01 -8.501065832475123152e-01 2.124384998508561107e-01 4.922715755600777510e-02 9.759336917742280626e-01
-7.330209117438775401e-02 -3.111563976532338849e-02 -8.148563156420635112e-01 -2.905422019632491470e-01 -5.914080808091157770e-01 -7.522112142423994507e-01
7.991646531967619080e-03 -9.582971022436406749e-02 -8.455788486236914814e-01 -2.263249388435648324e-01 1.562308916564049133e-01 -9.614410697227891989e-01
4.859386307762408874e-02 -2.082909558469192013e-01 -8.822134603621104576e-01 -2.536968218053500812e-01 2.928180334244151473e-01 -9.218977827868567454e-01
5.445521662620935593e-02 -1.880384931232404744e-01 -8.853910974660699207e-01 2.440402929136009924e-01 -2.543011269731436652e-01 9.358286553930867946e-01
-5.703239685488542543e-02 9.300954933108035450e-02 -8.177545618199439925e-01 -2.144663858715575577e-01 -4.991640210074742984e-02 -9.754550333728913003e-01
-2.768779267536057576e-02 -1.296911143064986560e-01 -8.530648867353954889e-01 6.711039858858910967e-02 -7.781249658119175905e-01 6.245139966257624575e-01
-5.336523729310756886e-02 1.195190923443960884e-01 -8.273816916400278387e-01 2.119872514954294906e-01 4.938732950335925770e-02 9.760237173798288479e-01
9.693843087386536106e-02 4.013240896691272486e-02 -8.600277338460330379e-01 2.173773576992976131e-01 -3.574261860548895442e-02 9.754330061951430597e-01
1.259672596417689694e-01 5.871752610184290122e-02 -8.659020531504150187e-01 1.998232515595601555e-01 -3.068475995344818741e-02 9.793513739423476139e-01
-1.386527294261595267e-01 7.491885066543069183e-02 -8.078894376706990954e-01 4.877738556973159612e-01 6.397975880864369136e-02 8.706223384229018203e-01
1.229839623463117732e-01 3.998709810192901080e-03 -8.719045166020903403e-01 2.068726925594419064e-01 -2.248413103920258310e-02 9.781094790076509948e-01
7.421493521451220932e-02 4.149527738619308154e-02 -8.474632755959142782e-01 -2.284346643934840881e-01 3.383413862465594474e-02 -9.729711481677983942e-01
1.710989436999718269e-02 1.529468167432071757e-01 -8.450635752758223207e-01 2.083202748378754909e-01 8.334515769952136055e-02 9.745030773576417449e-01
-1.502802854203877936e-01 7.846666495704257560e-02 -8.030965482581431392e-01 4.009110124582815904e-01 5.533316192488996026e-03 9.161002906350317332e-01
1.156547733174964204e-01 1.024870971700763966e-01 -8.634748122195039510e-01 1.985988762197109236e-01 2.359921580884350237e-02 9.797966949206735610e-01
-1.130027823009519816e-01 -8.062382822038084706e-02 -8.138351678499250452e-01 -2.238188293948243646e-01 1.295627021380221233e-01 -9.659806612055050756e-01
-1.504713358371279619e-01 3.742004010236400433e-03 -8.036957418287643540e-01 4.203351236622230869e-01 -2.554334364336624877e-02 9.070093281832225518e-01
6.486224635599734112e-02 2.095516193564976037e-01 -8.543464208030910889e-01 -2.608217024622541680e-01 -1.929557803826345286e-01 -9.459070283815529390e-01
3.240292881516197709e-02 -3.234208100938630870e-01 -9.254227077439237670e-01 -8.758921621361468457e-01 -2.156749045071907067e-01 4.316216582544026292e-01
-5.863796363766551889e-02 2.471727147894652588e-01 -8.355864397516152842e-01 -8.417278348262480225e-02 -3.125207761637654458e-01 -9.461742476873826746e-01
-2.255996809052945862e-03 -8.061667446469253373e-02 -8.405726362055723211e-01 -2.293176232495019728e-01 1.559255249077012295e-01 -9.607812749785756834e-01
-5.649652380068519164e-02 2.511719382475585127e-01 -8.375300244630435875e-01 4.889361443714737576e-01 -7.616338139819005537e-01 -4.252709490742828669e-01
1.375527972983163205e-01 7.519764064395098591e-02 -8.614743723107087803e-01 -2.597606601862551545e-01 1.231017012622998355e-02 -9.655945625007756883e-01
2.766935941350376349e-02 -2.038990514627820883e-01 -8.777511127881079123e-01 -9.989047306410246962e-01 -4.455805995471093933e-02 -1.427999986184980662e-02
-2.104018199487185312e-02 1.288270505464437360e-02 -8.266736821203640728e-01 -2.262570575770238568e-01 5.182127268421357624e-02 -9.726881820984438765e-01
9.015402828621117692e-02 -4.138794334660875901e-02 -8.651525508035818879e-01 2.245043549492329038e-01 -1.131005756018887837e-01 9.678874182503615087e-01
-1.111230701416951461e-01 -1.160817358803202803e-01 -8.199555447603773528e-01 -2.150017206773151279e-01 1.817214546087821125e-01 -9.595580092108356718e-01
-2.807427882083875226e-02 -1.178226455758381308e-01 -8.404585625997750276e-01 -2.416438339097557730e-01 1.738089110820498218e-01 -9.546720483819908232e-01
-1.364909167533162326e-01 8.137126240217908016e-04 -8.008842240410926072e-01 -2.099878447167605466e-01 4.839130622980016699e-02 -9.765057022632195327e-01
1.139473064375285671e-01 1.332398886933454374e-02 -8.653971523446021274e-01 2.236457840480786385e-01 -7.373757288547785893e-02 9.718772214752638972e-01
5.420747165633801185e-02 -2.082325020612101618e-01 -8.908390901938522122e-01 2.298193069922543352e-01 -2.551013360195781288e-01 9.392051929661731080e-01
-1.960013916146883389e-02 6.843303380374639311e-02 -8.233975925474225077e-01 -2.342649993722377699e-01 -6.613855000805359818e-01 -7.125230735578635954e-01
-6.245135290109441600e-02 1.501615573716964802e-01 -8.206435445742947810e-01 5.543213266347835760e-02 9.568380872101416301e-01 -2.852860906746347847e-01
-3.301702882493157132e-02 -1.403671446709492121e-01 -8.514611178867731445e-01 2.361828188592798305e-01 -1.949265523956190127e-01 9.519565721433108640e-01
-5.117084829231010462e-02 2.391436771211523649e-01 -8.416877303409474598e-01 2.077965041446858674e-01 1.611695537745889972e-01 9.648030823962718827e-01
7.925365467999601066e-02 -6.538994063588796091e-02 -8.582368014338006557e-01 -2.379696490653857022e-01 1.390474187993518407e-01 -9.612680486986628914e-01
1.083712693101335778e-01 6.062894169120344560e-03 -8.646957350258536179e-01 2.295813494966689461e-01 -7.833987367139114144e-02 9.701315726005617091e-01
1.311210560248049217e-01 2.443590760994026126e-02 -8.685411835944537584e-01 1.989610273004859820e-01 -5.432824384008790031e-02 9.785003584755537220e-01
4.078542724869950453e-02 1.606267317060158240e-01 -8.432818422578660655e-01 -2.069290999906119033e-01 -8.428858341959209743e-02 -9.747183091961461043e-01
-1.649673653433418249e-02 2.024532707828200773e-01 -8.433559817234649314e-01 1.878656717823133648e-01 1.194477078009071602e-01 9.749044745342434481e-01
5.340076486056670457e-02 -1.247803985245269920e-01 -8.585095114512796277e-01 -2.104037300919872899e-01 1.012192842114046226e-01 -9.723604922389169625e-01
-7.517323317977994690e-02 1.713538129855826375e-01 -8.197836127513618010e-01 -2.026591699633885080e-01 -1.152448501413742693e-01 -9.724442839287207319e-01
1.100851923397899203e-02 -9.393874611033425914e-02 -8.421514386326256485e-01 -1.917510259990360399e-01 1.530994032395398274e-01 -9.694287579580119774e-01
5.221496298833735311e-02 5.659766458369199643e-02 -8.420245817430480617e-01 -2.213042064721656710e-01 1.349488964347279191e-02 -9.751114480669559326e-01
1.026916684956900028e-01 5.490179095273583360e-02 -8.535527944813906531e-01 -2.235829723764269084e-01 2.950641155073875296e-02 -9.742381773163688585e-01
2.594049364364382423e-02 1.133601201812650255e-01 -8.444243156376018966e-01 2.127268218979732062e-01 4.787823786450857294e-02 9.759379967929199262e-01
-1.240744218429445794e-01 6.071983989411305210e-02 -8.023615477445424915e-01 -2.081930721448415067e-01 -4.262832710094835616e-03 -9.780784595154820016e-01
1.050585997074002242e-01 1.553926578808172698e-01 -8.633825720650140090e-01 1.527631108213628464e-01 4.226483253637051962e-02 9.873586561644418502e-01
-2.244163554263345350e-02 1.921639843058765007e-01 -8.440996739589912146e-01 1.269934594829982277e-01 1.124775362216782759e-01 9.855056900363595718e-01
3.153170440147763653e-02 -2.844079987105955221e-01 -9.060574372466609905e-01 -9.996944315348347265e-01 -2.450474671412700145e-02 -3.249761025107219571e-03
3.507593026938626152e-02 -8.252388463824261722e-02 -8.576465021567103442e-01 2.357350678353933027e-01 -1.487211589436784609e-01 9.603702383326399028e-01
-5.707121098713233663e-03 1.850114806637744025e-02 -8.299572069041332156e-01 -2.319807946484172545e-01 5.264276016168856209e-02 -9.712948320241634459e-01
-1.252352527825576212e-01 -6.015523133444699438e-02 -8.083437504260415629e-01 -2.202549662355786642e-01 1.031968865202292224e-01 -9.699681193013999225e-01
-1.082428738985337646e-01 -5.670926711318676622e-02 -8.119168320749357015e-01 -2.277013827043562755e-01 1.037227878899483757e-01 -9.681909231070394695e-01
1.058071215767545925e-01 2.839074752519294732e-03 -8.569974551992036726e-01 -2.334117161102277072e-01 7.953913945726955037e-02 -9.691194436584560368e-01
2.776749800460929021e-02 2.136438311462093564e-01 -8.468651122012325061e-01 -2.033274732387904404e-01 -1.453545732946467939e-01 -9.682613214668136514e-01
8.047041335423936459e-03 1.295265364237475625e-01 -8.413129578791632701e-01 2.133616486608708729e-01 4.798589514612747881e-02 9.757941180124729552e-01
-9.703710482472663323e-02 -1.299033572665537206e-01 -8.330622237119255091e-01 2.151826697675277289e-01 9.298789785840350097e-01 2.983647161097149891e-01
1.022724572463761944e-01 1.549588975101568733e-01 -8.562784162006585875e-01 -2.217345556020377806e-01 -8.981436384902509451e-02 -9.709619801507995973e-01
8.504313604261294970e-03 -2.365361477728476769e-01 -8.867983412711389901e-01 3.462955175404683339e-01 -5.355861984915189639e-02 9.365953708892827967e-01
1.030440321292583339e-01 1.087875061151412359e-01 -8.628781663291146264e-01 3.872658863549175434e-01 -6.071628684653538333e-01 6.938143731738797282e-01
-7.828721817642617098e-02 1.264528234296401765e-01 -8.223204919297565363e-01 2.110012036836578786e-01 8.325779338006496222e-02 9.739335869994062422e-01
3.683536851425412567e-02 -1.937457503884341958e-01 -8.748071592201852598e-01 -2.392255758977708535e-01 2.611094201803763060e-01 -9.351967678138369822e-01
3.877807111581869914e-02 -4.437249089105094885e-02 -8.531391523146872879e-01 2.293790195414516231e-01 -1.276115631889357949e-01 9.649355182263105180e-01
5.914858889069145309e-02 -1.915492937016186337e-01 -8.875277380057803311e-01 2.300646183909412779e-01 -2.539399820584848921e-01 9.394598218533706246e-01
9.138196235283574387e-02 3.801937125414078800e-02 -8.588668904698273376e-01 2.173773576992976131e-01 -3.574261860548895442e-02 9.754330061951430597e-01
-5.240565489069364848e-03 -8.758223342698356114e-04 -8.406881845441779300e-01 7.051527726453820089e-01 1.128316791714638377e-03 7.090545071655265374e-01
-1.999490177490724843e-02 2.366974694561813919e-01 -8.478194831369888496e-01 1.988329499786256338e-01 1.602273712718886578e-01 9.668467549193603405e-01
1.467154635501601891e-02 9.948333711146306602e-02 -8.338036351176126848e-01 -2.111359571621367892e-01 -4.602041930724860147e-02 -9.763727406067896908e-01
-2.505733469609057809e-02 2.374815801780624513e-01 -8.469120000085252897e-01 1.988467467965009949e-01 1.612183740881402427e-01 9.666791645343478789e-01
6.532762310985154412e-03 -1.436374789740506031e-01 -8.651728732623006346e-01 3.587842832716516828e-01 -3.273214218351254423e-02 9.328464208782309974e-01
3.209346627705658012e-02 -2.331123065638634750e-01 -8.919600763272035326e-01 1.089902134177687804e-01 -8.935183957375690544e-02 9.900188796906524979e-01
3.366611437212813779e-02 -3.845782986338077136e-01 -9.503578468297985138e-01 -9.999966430130156070e-01 5.228486593246811339e-04 -2.537832141580184924e-03
1.125051660872958409e-01 1.058388139816764800e-01 -8.559756732996846029e-01 -2.223465903407166877e-01 -2.983066013736302910e-02 -9.745112238859163778e-01
-9.128850141930254514e-02 5.986782065326343855e-02 -8.169070054649999468e-01 2.211434907022497565e-01 -1.854476021009294649e-03 9.752395179845366746e-01
1.458340422456466667e-01 -6.145819444288127403e-02 -8.806361569012548518e-01 1.687262806625521860e-01 -1.356798029929809912e-01 9.762798949448704411e-01
4.809419900825138289e-02 -2.185590666278268146e-01 -8.854130917876845697e-01 -2.783246188396303333e-01 3.360931075976729132e-01 -8.997648746050902480e-01
1.019988244330879631e-02 2.418267948720653482e-01 -8.543652945250186370e-01 1.693298889833096676e-01 1.230885968366853267e-01 9.778428227612432355e-01
-1.174219359723164130e-01 -2.897081327445045346e-02 -8.035319868450040426e-01 -2.134044293563319150e-01 1.591399176867394905e-01 -9.639154714650844946e-01
1.229542518068510032e-01 4.180088676544257281e-02 -8.587132742420329201e-01 -2.349830657724129024e-01 4.876278133610595367e-02 -9.707755404605974414e-01
-5.716517397064593137e-02 1.244810870477093406e-01 -8.193085166724735080e-01 -2.162798684865108179e-01 -4.898570737844572948e-02 -9.751017480038125518e-01
1.313399250702818322e-01 1.205948228950785572e-01 -8.625557015192998334e-01 -9.018798230764243362e-01 -3.782868683940086019e-01 2.085948943006320777e-01
-1.174391434104876952e-01 1.955295450551551226e-02 -8.114600077204169315e-01 2.301173737458789559e-01 -2.913688381884756498e-02 9.727265989483512287e-01
-2.044183450593179199e-02 8.602118087660974577e-02 -8.257260785667771552e-01 -2.233198647708916906e-01 -1.068754297114626536e-02 -9.746866237021777346e-01
1.269526437925811921e-02 5.046882725606999937e-02 -8.406457991108929884e-01 2.168831405238964005e-01 -2.238866041968516282e-02 9.759408031438709941e-01
-7.744631403555461702e-02 1.401092795515987977e-01 -8.236701098149575850e-01 2.110012036836578786e-01 8.325779338006496222e-02 9.739335869994062422e-01
9.108247771902733270e-02 -1.854813293603173041e-01 -8.904870308610027818e-01 -7.221117174889335466e-01 5.990018086269098818e-01 3.460512978257319072e-01
6.812094492668237244e-02 1.108213867851233631e-01 -8.460094902982449039e-01 -2.218338663638688424e-01 -2.948137744774665184e-02 -9.746386941414959537e-01
9.416299984758071118e-02 -9.419225646383533324e-03 -8.661354463145946037e-01 2.052957033122708441e-01 -2.316652953978183549e-02 9.784257693410380874e-01
-7.141848535690185906e-02 8.901704703868562607e-02 -8.219308144632060387e-01 2.190573896738865212e-01 2.003618140817571905e-02 9.755062334315663941e-01
-2.290442513507697300e-02 1.073391310374238322e-01 -8.334798835544743323e-01 2.161890433952756430e-01 4.712630862619939659e-02 9.752135194669440121e-01
-4.966659136308068656e-02 -1.243351905155765935e-01 -8.439920330179573327e-01 2.391215766606209769e-01 -1.896742929937163258e-01 9.522838516706416678e-01
-2.480619856029313980e-02 2.133664323494128823e-01 -8.432252418988908094e-01 2.031776479234864707e-01 1.479471734568643948e-01 9.679000347403674542e-01
-6.923438824396921376e-02 1.268677683071414708e-01 -8.243172455414257138e-01 2.110012036836578786e-01 8.325779338006496222e-02 9.739335869994062422e-01
-2.934793949354441364e-02 2.133159625488460498e-01 -8.318184644895592061e-01 3.319605797162860084e-01 -6.395904034115371117e-02 -9.411224227873151715e-01
-5.547701081162503302e-03 5.169126259259779893e-02 -8.396415114158751747e-01 2.700623504532339014e-01 -9.723120814525584160e-03 9.627937410418186959e-01
1.930345952043425193e-03 -4.094879127064235402e-02 -8.334072329383503952e-01 2.814809850831196392e-01 8.728339849457693311e-02 -9.555888568751068624e-01
1.106089267978311863e-01 5.077484488644228716e-02 -8.627422689432231451e-01 2.161846234411720635e-01 -3.090077606668441626e-02 9.758633872761470762e-01
-1.828053900013313846e-02 -1.219345661451474300e-01 -8.436861476960599848e-01 -2.416438339097557730e-01 1.738089110820498218e-01 -9.546720483819908232e-01
4.942596658280511840e-02 7.435042455164486697e-02 -8.411590851851648010e-01 -2.160718717181754067e-01 -1.627016719816268275e-02 -9.762418900618575757e-01
3.235600852460271404e-02 -1.508014576462335943e-01 -8.702914642721607530e-01 2.448174004315445684e-01 -2.257136792718361373e-01 9.429304191908920441e-01
9.789545749420876242e-02 1.058237828964266047e-01 -8.626147317692629546e-01 3.871682168731069296e-01 -6.136766237629004417e-01 6.881146512684251926e-01
1.229698534336438748e-01 -3.014352242855070085e-02 -8.642617067784044149e-01 -2.340879307829963341e-01 1.029142481257250274e-01 -9.667530699172628417e-01
1.283668181774478279e-01 -8.184792171628096913e-02 -8.729754652910231005e-01 -2.400619995695790210e-01 1.568288299800303931e-01 -9.580057173366713918e-01
-1.296850490114161494e-03 1.034460239904503170e-01 -8.289552497849803636e-01 -6.928126487252228571e-01 -8.933919978131596440e-02 -7.155621155069453732e-01
3.716626877588425498e-02 1.036239350739181081e-01 -8.389113538242722878e-01 -2.209102415079978732e-01 -1.721540843020389136e-02 -9.751421921491546518e-01
2.020610357010602445e-02 -2.012348422826826522e-01 -8.840133243486040238e-01 1.804365396211171646e-01 -3.113219546361894463e-01 9.330173073052072663e-01
7.284062213688026477e-02 1.413129611270377006e-01 -8.487202946086779276e-01 -2.176119794811215979e-01 -5.394709868987274809e-02 -9.745433478964664609e-01
-7.049396559951902341e-02 -1.851336605100085131e-01 -8.450115301360756614e-01 -2.209927809403543775e-01 2.553002901583517059e-01 -9.412672057483518762e-01
-9.980826686352717303e-02 -3.631381898599877339e-02 -8.141145453124958298e-01 1.407252557378428637e-01 9.841120830666133523e-01 -1.082580729544437570e-01
-1.551819370047056220e-03 -1.647800421294014564e-02 -8.408011846214260565e-01 2.251806937425986921e-01 -8.241500922867489587e-02 9.708251240153601413e-01
-8.151606846683827345e-02 9.231931252952298161e-02 -8.123167896564693624e-01 -2.156791295073245407e-01 -1.958749840453786681e-02 -9.762678131543696125e-01
-9.460665452087460570e-02 -1.339808737156440444e-01 -8.271357901599782902e-01 -2.354056850052174965e-01 1.826608655243010526e-01 -9.545780071178767701e-01
-9.964705274899310350e-02 -1.293579268081264666e-01 -8.250852843578128093e-01 -2.204629885236533415e-01 1.820567652971605555e-01 -9.582543529255445058e-01
-1.437930435991006950e-01 3.085286793767302513e-02 -7.982844020575807775e-01 -1.842806484619136376e-01 2.227484558677458176e-02 -9.826212260360255302e-01
-1.322973080114822064e-01 -1.852238108138296035e-02 -8.065511509259751799e-01 -1.219381983270512310e-01 -9.819294457539405885e-01 1.447260838622795587e-01
2.791757482579926286e-02 2.262303862261790255e-01 -8.557096855972294858e-01 1.830962212728551863e-01 1.306171902632380366e-01 9.743792502733926719e-01
1.323222103739881972e-01 6.553804066934510765e-03 -8.595025869776214966e-01 -2.120983915870046921e-01 -1.964299144214983264e-02 -9.770508815683087711e-01
4.123057424740612931e-02 -2.979694879740395902e-02 -8.446334896893902267e-01 -2.266756387701356901e-01 1.015002255748329169e-01 -9.686670527051124413e-01
-1.375225591180740947e-01 1.099560800432618571e-02 -8.001578098763845182e-01 -2.099878447167605466e-01 4.839130622980016699e-02 -9.765057022632195327e-01
-1.333720296547972473e-01 4.324541781508423749e-02 -8.003011218557594120e-01 -2.094816189443689247e-01 -4.241079601355175754e-03 -9.778033874804593628e-01
5.858190382347024106e-02 -1.726568461153925593e-01 -8.824259324993721787e-01 2.324496798745423198e-01 -2.405937842188867193e-01 9.423809088269237133e-01
2.705043375993789606e-02 1.736987885924725361e-01 -8.444184277372988046e-01 3.474595890563690892e-01 -9.359300260715920361e-01 -5.750495865930175393e-02
8.724892019811099353e-02 -3.092803036560873645e-02 -8.557410947802732704e-01 -2.297308636881968402e-01 1.120072843631748083e-01 -9.667875146683794219e-01
1.088091015205674000e-01 -1.112260229200492112e-01 -8.734672892091825958e-01 -2.403382568769695249e-01 1.820363997801943134e-01 -9.534674988883495850e-01
1.390169532688253495e-01 8.067768722940310555e-02 -8.679467917219242379e-01 1.643726790515545322e-01 -8.868370793209434319e-03 9.863584411261904217e-01
-2.600214428306289391e-02 7.910482401883184300e-02 -8.318869636323871219e-01 2.240879900211965037e-01 9.935286212674185324e-03 9.745182721817648996e-01
-6.783801250699253438e-02 -7.210605540481407338e-02 -8.234257073397243110e-01 -2.305666556115533727e-01 1.399846409901198685e-01 -9.629347421331161394e-01
-8.974954126805757826e-02 1.015550263608359233e-01 -8.183861119377516813e-01 2.177156905703785117e-01 5.314415953057334552e-02 9.745643007966443561e-01
4.017183955279005764e-02 1.357983330324213644e-01 -8.486697248005729000e-01 2.124384998508561107e-01 4.922715755600777510e-02 9.759336917742280626e-01
9.798767805016361798e-02 -7.964230178781764313e-02 -8.725086610540163656e-01 2.337181371294563548e-01 -1.539168899156214410e-01 9.600444903104435879e-01
-1.213814240375879761e-01 1.750059863778180569e-01 -8.121272389356632981e-01 7.443591715692360333e-01 -5.333507979620942807e-01 -4.018287570768896977e-01
-6.282321572991585168e-02 6.475814898086673654e-02 -8.135248619418070648e-01 -8.557354699497310424e-02 6.623382841098027773e-01 -7.443017972954125705e-01
1.312768574522505116e-01 -1.040649705716253648e-01 -8.846400259263890176e-01 2.162453020804665504e-01 -1.893508008544968757e-01 9.578017767491812107e-01
-1.681016804373072077e-03 9.966109319555317703e-02 -8.281107417302906448e-01 -6.928126487252228571e-01 -8.933919978131596440e-02 -7.155621155069453732e-01
2.918370288916632277e-02 -4.691260733117060683e-02 -8.435899124926103942e-01 -2.367698952509437182e-01 1.208179315386173486e-01 -9.640244001692006570e-01
-4.664151208688127603e-02 1.937418674727296453e-01 -8.359061798302441781e-01 2.034296122130325735e-01 1.173273153094568644e-01 9.720343069856797191e-01
3.335811979715189862e-02 -3.551948608382394790e-01 -9.357050387774958899e-01 -9.997082628077093025e-01 -2.364499181155577112e-02 -4.929871826299223221e-03
3.962224502646319313e-02 1.718992906478388483e-01 -8.403944467125753492e-01 -2.085312291886965153e-01 -1.043116012794764735e-01 -9.724370500405477014e-01
3.517269960242325882e-02 -2.009742546017581899e-01 -8.840162121504058224e-01 2.415266933441145847e-01 -2.657394909772870517e-01 9.332991906872042387e-01
1.492787304634682344e-01 -4.190420781909913461e-02 -8.724976280899497949e-01 -2.744458518353079524e-01 1.233958943553320753e-01 -9.536524144921144641e-01
6.509432595740215211e-02 1.787877976765990806e-01 -8.574928589174394267e-01 1.912917293843648114e-01 1.000810616251557456e-01 9.764175619954410523e-01
-1.137202401531549160e-02 2.251696150085419346e-01 -8.477199266193328198e-01 1.902247621260575172e-01 1.484128124373906010e-01 9.704577151934588031e-01
-2.402707538207790941e-02 -1.530250639039941740e-01 -8.488026332154561260e-01 -2.362903212044220325e-01 2.231281017651002840e-01 -9.457170476986307417e-01
5.209186209497969518e-03 1.176146989441992363e-01 -8.401054899064227532e-01 2.137521952214682941e-01 4.823804449532070188e-02 9.756962078953012041e-01
-1.518335435573034131e-01 4.454780257252341502e-02 -7.967340922438118644e-01 -5.323511099097585908e-02 -1.534327502491715858e-02 -9.984641239770651877e-01
-2.622963559924984187e-02 1.810250280418208846e-01 -8.386898376668148192e-01 2.074190468464913173e-01 1.219345421197841617e-01 9.706231536715633768e-01
8.491792353726650144e-02 3.344524319939992663e-02 -8.575939743849757546e-01 2.173773576992976131e-01 -3.574261860548895442e-02 9.754330061951430597e-01
-7.452106009081990723e-02 5.151049750975523339e-02 -8.208026260347009995e-01 2.206212057212648958e-01 -9.405427765372190163e-03 9.753142168115083166e-01
-9.931845487037389494e-03 -3.501916394431864310e-02 -8.329827616164767745e-01 -2.330596102044345530e-01 1.043466451151980889e-01 -9.668479693025994193e-01
-1.807073209735150440e-02 1.686547139894434555e-01 -8.420430562285434739e-01 1.281973933761413331e-01 9.537868107707518639e-02 9.871516274248655076e-01
-8.260148268061183463e-02 5.106849646645321428e-02 -8.115815362937863764e-01 -2.247954766219739942e-01 9.394418783516820734e-03 -9.743606819787112849e-01
-3.261004962071334390e-02 -2.053228069699400155e-03 -8.323477636619173170e-01 2.314464152523474372e-01 -7.344217663269074492e-02 9.700715455873811788e-01
-3.592745034101067943e-03 2.259916738582607720e-01 -8.422952689349908484e-01 -2.051434633497029869e-01 -1.526088554264825314e-01 -9.667609304736659581e-01
1.339693565614114568e-01 -4.646079637814631846e-02 -8.690803459668261510e-01 -2.415004270587148560e-01 1.271505951124619338e-01 -9.620344431947357444e-01
-1.045614531986940356e-02 -1.790685557449903931e-01 -8.585328396502083237e-01 -2.351349388689320252e-01 2.489544432143506181e-01 -9.395388473751027369e-01
-1.515748748074376671e-02 2.547293228279639554e-01 -8.515587193672971011e-01 1.754140367494836095e-01 1.386192639207221855e-01 9.746869319844850832e-01
1.237828259210758536e-01 -7.527160617768445527e-02 -8.779523854996056365e-01 2.306806996942650789e-01 -1.473744701933462908e-01 9.618041278367412961e-01
5.047196468880387615e-02 1.352451931356561943e-01 -8.434338616328644900e-01 -2.160539103948843076e-01 -4.944199025619713112e-02 -9.751288106719979698e-01
-3.597656184523932016e-02 7.157303895745860400e-02 -8.240002743169438926e-01 -1.428872303583688941e-01 -9.813485532554229174e-01 -1.286011524987333843e-01
-3.179974638168565904e-02 1.581297544796257115e-01 -8.320505316862718548e-01 -6.671259243014954210e-02 -9.760025394032444401e-01 2.072883814632811017e-01
1.431395613019927904e-01 -6.676371248856848017e-02 -8.809298668455559644e-01 1.594880204842099025e-01 -1.368644701719793910e-01 9.776664503431482522e-01
-1.139473676766864646e-01 -4.167196278252881247e-02 -8.089904214477811051e-01 -2.257220434383991614e-01 1.020631190879408012e-01 -9.688305728186091814e-01
-1.228341531914369650e-01 -8.935711117239929224e-02 -8.195909600493632707e-01 2.519287034323897112e-01 -1.398338454501781569e-01 9.575899039011901426e-01
-8.444644841297291316e-02 -9.279175934977493267e-02 -8.298320675014161374e-01 2.372993821407666792e-01 -1.534635027397297791e-01 9.592382167962573147e-01
-4.126894616174310582e-02 2.540678632981830387e-01 -8.400663473528023895e-01 -1.704922149041326329e-01 -2.188171159282257805e-01 -9.607556788455307029e-01
1.498160271901264814e-02 -1.450976889786477209e-01 -8.646368999633147201e-01 2.433856680757635615e-01 -2.066881567057360092e-01 9.476515300746891635e-01
-4.025448085682171301e-02 -8.633423702668407973e-02 -8.397563217576182737e-01 2.342718168491701169e-01 -1.438579470128704407e-01 9.614684638153407903e-01
5.127152364289203242e-03 1.983259186016946007e-01 -8.399813624338789975e-01 -2.003193266938943506e-01 -1.223310422850456408e-01 -9.720634153420029122e-01
-3.333599702024211964e-02 -4.422802848225187294e-02 -8.283436142602275121e-01 -2.346587924752680521e-01 1.004895548439422998e-01 -9.668697432856792062e-01
1.154977652655837274e-02 -1.925168223522364941e-01 -8.662733412694149093e-01 2.882119567009778227e-01 2.693888855753504563e-01 -9.188925379733281495e-01
8.335216945657647480e-02 -1.136681999394998088e-01 -8.751625855103543072e-01 2.377835125808811512e-01 -1.898436924881266308e-01 9.525851004331169491e-01
9.240845373645448267e-05 1.965598969182437983e-01 -8.387092561558046055e-01 -2.041762201431935042e-01 -1.230233556535030165e-01 -9.711731694665941550e-01
8.913599842924317673e-02 -1.121170277571308105e-01 -8.649117757145610152e-01 -2.095462905579574264e-01 1.012475212290919468e-01 -9.725426939514608682e-01
3.615254026170171969e-02 2.250032609685001517e-01 -8.570926249403950647e-01 1.830962212728551863e-01 1.306171902632380366e-01 9.743792502733926719e-01
-5.997206751452760498e-02 -7.405401871586195228e-02 -8.331470405959759962e-01 2.310220074460784812e-01 -1.371087241118158495e-01 9.632393419332568874e-01
7.604067777137892004e-02 4.895326925470908780e-02 -8.476325798531021416e-01 -2.284346643934840881e-01 3.383413862465594474e-02 -9.729711481677983942e-01
-4.107430180551770865e-02 1.699295559585055626e-01 -8.341970846463695466e-01 2.034296122130325735e-01 1.173273153094568644e-01 9.720343069856797191e-01
-1.267326504692995737e-01 8.469623333799665768e-03 -8.026284687520590655e-01 -2.157624875967356359e-01 5.119611489204905358e-02 -9.751028185612165000e-01
3.784442422450828847e-02 -1.252416838026183532e-01 -8.688091603227507953e-01 3.592520370848558131e-01 -6.426787987643494127e-01 6.766845169421230599e-01
3.203470417980368995e-02 -3.847359109785594700e-01 -9.575062409948936759e-01 -8.714228201400172624e-01 -2.294062090097454265e-01 4.335839708833759132e-01
-3.914971296590522704e-02 2.353768245304440065e-01 -8.367252364815540577e-01 -1.829301720966472755e-01 -1.831046107385065347e-01 -9.659240413526266611e-01
-9.980729186414972684e-03 2.815114075201033753e-02 -8.339381492427746512e-01 9.935555680386031208e-01 1.086443288103774579e-01 3.230701219288419079e-02
-1.015569553843202466e-01 -2.432897883466610817e-02 -8.105230381177236376e-01 -2.079664384109555231e-01 -9.583867912334378403e-01 -1.955625702529421028e-01
1.177580579971858055e-01 -1.021385139302963679e-01 -8.739880402380038049e-01 -2.403382568769695249e-01 1.820363997801943134e-01 -9.534674988883495850e-01
-5.328123053868246382e-03 -1.528471921550875190e-02 -8.372378785420301339e-01 9.945731809851923177e-01 1.003992291444307655e-01 2.727970770004980658e-02
1.158865477623613333e-01 -1.085682340591300060e-01 -8.819960880620424382e-01 2.227063617958985331e-01 -1.811265000821233873e-01 9.579118265183048653e-01
-4.596874247780174949e-02 -4.564844339522435013e-02 -8.291161120854797506e-01 2.219018037349024253e-01 9.464462505413537841e-01 2.345188357795804923e-01
3.452956188916795482e-02 -2.962614379863522931e-04 -8.479795445752983385e-01 2.244176198484030549e-01 -7.433202518760671784e-02 9.716539929074992088e-01
-5.007766680375698443e-02 1.041524319619521743e-01 -8.273293618520022319e-01 2.144747611193430770e-01 4.809952773010135046e-02 9.755444696552493244e-01
-1.937686766974653849e-02 1.529947878897754132e-01 -8.257686047604450019e-01 -2.010714381364068215e-01 -1.203038714167667528e-01 -9.721611261966275341e-01
-4.782702286048869794e-02 1.725838253093683328e-01 -8.256504714067673945e-01 -2.060222562952082614e-01 -1.230530356527382713e-01 -9.707794704914589623e-01
-2.005867478870357670e-02 1.217502996221122985e-01 -8.365322585644504594e-01 6.824770964291138053e-01 1.106910538096162744e-01 7.224766456129934067e-01
-4.159040279816420688e-02 7.954621100954133162e-02 -8.209169551401848119e-01 -2.193474997560376227e-01 -1.317291191880728268e-02 -9.755578653992567073e-01
1.615386075848270625e-02 -1.101452825060092282e-02 -8.444904781108348857e-01 2.319840773414837409e-01 -7.651688804911090103e-02 9.697053953151444361e-01
1.207383660776935874e-01 1.352901803286288840e-01 -8.651979798922360132e-01 -1.252776846931174387e-02 -5.980492997127071636e-02 9.981314669763251546e-01
-3.412509562538074137e-02 1.728732851767427470e-01 -8.360111039756301654e-01 2.103150823497748068e-01 1.211977624361220141e-01 9.700920928018559319e-01
-5.654935611098541731e-02 -3.939613058497966336e-02 -8.223129091514951305e-01 -2.313578614399950106e-01 9.213873303972938689e-02 -9.684957376383983574e-01
-7.261289623086050748e-02 1.120831147298426977e-01 -8.153362830187893540e-01 -2.108510901696711293e-01 -4.878331095301310233e-02 -9.763001620130578040e-01
1.075570556277258977e-01 1.398753357796757024e-01 -8.564268610167045104e-01 -2.199763981815062164e-01 -6.087468279631579049e-02 -9.736039529693475414e-01
8.375635405524304439e-03 2.167647625272017542e-01 -8.504585123194720042e-01 2.016961664218386019e-01 1.361682705530606052e-01 9.699365229463846605e-01
-1.085724311367700090e-02 -1.516433869023176562e-01 -8.594897952162762200e-01 2.391485928193748112e-01 -2.263123978164874317e-01 9.442407792226857888e-01
-3.618382423778317841e-02 -1.080060085738153569e-01 -8.366968611463901917e-01 -2.355322657043046053e-01 1.689205159570696113e-01 -9.570738796461819575e-01
3.919900333864446106e-03 -1.056407053474208990e-01 -8.538719819271910483e-01 2.332751883840056828e-01 -1.775399350803098519e-01 9.560660322049342463e-01
4.632087137871745974e-02 1.893360514385817595e-01 -8.474522911368527200e-01 -2.038126698074903542e-01 -1.149846539623303049e-01 -9.722339867434721672e-01
-6.997653653823821852e-03 -1.831210676652952896e-01 -8.682061599906243377e-01 2.398820348726183049e-01 -2.475074277003689871e-01 9.387207692272067083e-01
1.119877281858305262e-01 4.118795581241312120e-02 -8.633512865363275335e-01 2.161846234411720635e-01 -3.090077606668441626e-02 9.758633872761470762e-01
-3.517866301616254937e-02 2.348704515993130237e-02 -8.303832456974904463e-01 2.292842093102292478e-01 -4.865192277283526129e-02 9.721428607830687740e-01
4.988470190965944850e-02 -1.889957188728177973e-01 -8.844593391166301055e-01 2.440402929136009924e-01 -2.543011269731436652e-01 9.358286553930867946e-01
1.176894715529376162e-01 -1.259222759730119490e-01 -8.788808890753088132e-01 -2.490369529557499573e-01 2.031303798583019016e-01 -9.469522928010353224e-01
-2.799735457518426687e-02 -1.050371602015834627e-01 -8.381875280418686902e-01 -2.355322657043046053e-01 1.689205159570696113e-01 -9.570738796461819575e-01
1.240921913393162879e-02 -3.299815587692244562e-02 -8.456589424714071601e-01 2.267610204051141720e-01 -1.057807961148021780e-01 9.681889602748783297e-01
2.360662347823544796e-02 -1.292801201821530688e-01 -8.609319776979978966e-01 1.953707055355076161e-01 -9.638434407083679156e-01 -1.812073652532165957e-01
1.322205487829949122e-01 -7.407140958054692081e-02 -8.797201031565120566e-01 2.139324436666509566e-01 -1.456948988230518660e-01 9.659223084719370522e-01
1.033254548222003605e-01 1.697752519648345615e-01 -8.622220343310880164e-01 -8.014109553699031441e-01 -5.495490805097779097e-01 2.360853420353680454e-01
-1.120636907484470479e-01 -1.312597366168889168e-01 -8.288787595842189715e-01 3.050290796252399517e-01 -1.504286066309548364e-01 9.403874174456230417e-01
-1.001521793748866157e-01 1.761744368326179436e-02 -8.155716515275369671e-01 2.300414465091697447e-01 -3.413933945463056008e-02 9.725818414866536088e-01
-9.909459898837455222e-04 2.275323533768934259e-01 -8.430735300903435814e-01 -1.983783384383676351e-01 -1.513832744237984251e-01 -9.683641562259319713e-01
7.461946170884402318e-02 1.852611048207532807e-01 -8.600398042702896984e-01 1.778458267458630226e-01 8.843038512073536639e-02 9.800770015139008695e-01
-6.754625779213502268e-02 -1.624407132221532268e-01 -8.399084276580125463e-01 -2.328934832364571994e-01 2.352373024986973149e-01 -9.436228255924750119e-01
-7.597709467010339834e-02 1.247395370750506854e-01 -8.152421288588096449e-01 -2.108510901696711293e-01 -4.878331095301310233e-02 -9.763001620130578040e-01
-2.335547181671873609e-03 1.779934361801028819e-01 -8.432988666005337697e-01 2.044875420316467907e-01 1.174618402174494591e-01 9.717960492030135455e-01
-2.752084628676827738e-02 -1.404706008537068632e-02 -8.269381729983609208e-01 -2.233573848132655026e-01 7.409493226845013936e-02 -9.719163645404437224e-01
-4.735869186144508330e-02 -1.642255103939448124e-01 -8.455004728879652598e-01 -2.352451485174649193e-01 2.154137976188799097e-01 -9.477640085455915075e-01
-4.373834782887294111e-03 -1.493631170034376288e-01 -8.529390878427960399e-01 -2.433536858187498042e-01 2.076087591628399398e-01 -9.474584881235141864e-01
2.738472724982695533e-02 3.030787002221702053e-02 -8.445322298916649872e-01 2.259435701436601773e-01 -4.900560926577279125e-02 9.729069602851175835e-01
1.143996991834281690e-01 1.091606957744878786e-01 -8.565234474666574283e-01 -2.277207319138669361e-01 -3.170325634341734228e-02 -9.732102402841005251e-01
-5.902943077551411205e-02 1.501641535271484584e-01 -8.199697771665342971e-01 5.677739179778239220e-02 9.566872154753027768e-01 -2.855274059118539931e-01
-7.066107517894451573e-02 4.386790241338107271e-02 -8.217617465496017681e-01 2.243696473596192287e-01 -1.310968393271276164e-02 9.744159263532717885e-01
1.147068816517347323e-01 -2.821975359183832854e-02 -8.693663785008322042e-01 2.205443309723220113e-01 -1.058824085611404370e-01 9.696128679185640475e-01
-4.887932384379962275e-02 -1.258650369964909033e-01 -8.387336319788211147e-01 -2.133001440340916988e-01 -9.252275986834442856e-01 -3.137784874549287006e-01
-3.355615172869348684e-02 -1.576585590652524738e-01 -8.474848361290114873e-01 -2.426834350278753993e-01 2.214949915030648697e-01 -9.444811904437949712e-01
6.711362487730322679e-02 5.604471003934229003e-04 -8.480102450018324189e-01 -2.253040096195609021e-01 7.068777563655866125e-02 -9.717208146504344723e-01
-4.877662878912342181e-02 1.162932937223624813e-01 -8.207577896366901049e-01 -2.162798684865108179e-01 -4.898570737844572948e-02 -9.751017480038125518e-01
-1.451808716402810118e-01 5.131048671334115935e-02 -8.043064645797578516e-01 2.746488396769254381e-01 5.092639100335331556e-03 9.615311122845231484e-01
2.789543623230721428e-02 -2.109567361096910953e-01 -8.766311596420289787e-01 -7.156654313960745251e-01 1.941051066855533913e-01 -6.709293538542344670e-01
-1.342852700142972743e-03 1.240347247673422304e-01 -8.389904467410024269e-01 2.111964112949695771e-01 4.787239693335351709e-02 9.762706128261678939e-01
1.539538448593032738e-01 -3.213743717605233030e-02 -8.728120828318371993e-01 -4.221272860111456304e-01 1.254513002690844925e-01 -8.978143046675410854e-01
6.493368629176772544e-02 -1.194972007798160013e-01 -8.640694892197132715e-01 -2.384769343848200107e-01 1.975260025848789847e-01 -9.508481635199474979e-01
-1.439730013259700181e-01 -4.751416217395958153e-02 -8.087852373250605797e-01 4.105538102206748863e-01 -4.801315791513385833e-02 9.105714170674932273e-01
-7.336719959374589373e-02 7.785452646466152482e-02 -8.212639457966177670e-01 2.190573896738865212e-01 2.003618140817571905e-02 9.755062334315663941e-01
1.651371040077411964e-02 -2.626309881986770289e-01 -8.897069286644099240e-01 2.930781885180034907e-01 3.226628409961941335e-01 -8.999965924686994523e-01
9.737320418537277755e-02 -6.496328809366634649e-02 -8.700646346150486821e-01 2.276153859345240449e-01 -1.367022543063503293e-01 9.641077376276157018e-01
-2.121688643782031897e-02 -3.778417613424051025e-02 -8.390171207998353697e-01 5.049601655236683750e-02 -7.294745161196125594e-01 6.821415415032281437e-01
-2.708825808270125951e-02 -1.825421507020875134e-01 -8.628807676640996016e-01 2.515271968391171176e-01 -2.381785622744854725e-01 9.380858392082863650e-01
6.002950540962702364e-02 -1.710484358813464112e-01 -8.747572031496410050e-01 -2.499626759497930450e-01 2.470772452514289064e-01 -9.362005637207148068e-01
8.738186330586168726e-02 -1.552176349179066883e-01 -8.852447883105110105e-01 2.358423688682704522e-01 -2.227380743907248217e-01 9.459207827631840315e-01
1.024097802394126067e-01 7.906840931547250151e-02 -8.532148818115370403e-01 -2.242515217609057920e-01 1.091943978866740435e-03 -9.745306884066119446e-01
-2.536114266375161241e-02 1.486771567148465756e-01 -8.386729947419307996e-01 2.272744534457768195e-01 1.318516011897689355e-01 9.648634504812675372e-01
2.796122274323283377e-02 -7.388818722932466443e-02 -8.545627987368816791e-01 2.357350678353933027e-01 -1.487211589436784609e-01 9.603702383326399028e-01
8.571375133575992455e-02 2.197244393327300871e-02 -8.583835157877400812e-01 2.232942191009947286e-01 -6.096071946125521113e-02 9.728429895922789949e-01
-3.661176078145392254e-02 -1.437797978534881005e-01 -8.512437552287329678e-01 2.432514229234371272e-01 -1.932136897410288157e-01 9.505247052772383132e-01
1.060007382196446746e-01 -5.957662774550404050e-02 -8.638780487674154740e-01 -2.363201702181612907e-01 1.305724309255087145e-01 -9.628622006446521109e-01
-1.004504049808951083e-01 1.322757534263266088e-01 -8.106786906217954281e-01 -2.051501387920603714e-01 -8.236728061854164951e-02 -9.752584537634650941e-01
-1.103438441345813400e-03 1.426692186997328693e-01 -8.403070338906868386e-01 2.064485306522403918e-01 8.334624728985270958e-02 9.749012294864694006e-01
-2.643228048129411464e-02 -7.565274004632577265e-02 -8.415260457082693879e-01 2.342718168491701169e-01 -1.438579470128704407e-01 9.614684638153407903e-01
9.476018881221846824e-02 1.193237875449792013e-01 -8.594810114117816813e-01 2.088112290351157030e-01 2.421918338212761951e-02 9.776560242667905465e-01
-6.372370648087374856e-02 1.835115218766017117e-02 -8.165744261180073460e-01 -2.244305913706563238e-01 4.114035253551865529e-02 -9.736212718764266638e-01
1.648216705836763260e-02 1.436592651659988895e-01 -8.366911073841477586e-01 -2.083241584497310395e-01 -8.262765914863443029e-02 -9.745633457861159199e-01
3.064018780135811804e-02 2.005211490953083264e-01 -8.528274411457706927e-01 2.023479676025561058e-01 1.296141783734029995e-01 9.706984417272453980e-01
