7.677212793472475150e-02 -9.535899034123397622e-02 -9.718174646505572944e-01 4.906810336516704285e-01 -8.368611356118185185e-01 -2.426840804771215054e-01
2.671363394823150772e-02 -5.610473527304136315e-02 -9.150729613570727228e-01 -6.656496596649984498e-01 -1.883815927719235256e-02 -7.460265775043934955e-01
-9.751618353887940571e-02 1.624977804583359053e-01 -8.618777802412196376e-01 -5.523522082703955505e-01 -2.418963424129676465e-01 -7.977425634539291321e-01
-5.985688198191299603e-02 2.201944608115362911e-01 -9.148272601203739640e-01 5.300943817754139031e-01 2.663269223315228307e-01 8.050278981821440416e-01
2.796363676779852273e-03 -1.547312170371593909e-01 -9.139442267101783868e-01 6.534322852126831505e-01 -8.077130654847951285e-02 7.526634338668128921e-01
-1.119124581218564896e-01 1.032576684807134416e-02 -8.257319389530496379e-01 6.108931537135428025e-01 1.124972141470695769e-01 7.836797378745160580e-01
4.219043590638166252e-02 -1.197088221138709746e-01 -9.442563077298241625e-01 6.428046316086803991e-01 -7.023224523358792548e-02 7.628038000114299999e-01
2.724376585807721917e-03 -1.930281059791628118e-01 -9.184075880953697091e-01 6.591272336774849361e-01 -1.034106543324537775e-01 7.448875931274463458e-01
3.334658060255540207e-02 1.910225710845443459e-01 -9.686691313497531874e-01 5.110326775565470214e-01 1.610762705373312564e-01 8.443340793425142543e-01
-5.828258052182310606e-02 1.890210790506649807e-01 -8.921206731691003755e-01 -5.052010509965034757e-01 -2.230271658697886850e-01 -8.336850612528200477e-01
6.038109991481351718e-02 -1.067209064561307069e-01 -9.586466428833855247e-01 6.459761346034683660e-01 -5.783924659258158490e-02 7.611632249894659807e-01
-3.674250215529707014e-02 1.250773487492350122e-01 -9.032619771957187682e-01 5.813239732764436951e-01 1.735549544583906423e-01 7.949472409393182337e-01
-4.690699166533218029e-02 1.306325866672413960e-01 -8.883393560218334484e-01 -5.650502527128177244e-01 -2.100057783992567428e-01 -7.978820620543509712e-01
-3.264981368646033971e-02 9.660178730073251674e-02 -9.037476885898334533e-01 6.433859001369819364e-01 1.789819936274275325e-01 7.443252175373858970e-01
-1.211624148298182796e-01 2.651212557728779493e-02 -8.132648368543611284e-01 -5.642394679611288932e-01 -1.261327221540063104e-01 -8.159193337560781689e-01
1.485573426946495100e-02 3.037676863613245765e-02 -9.157023806006122646e-01 -6.098551974284526223e-01 -8.299691149364876730e-02 -7.881549028281297220e-01
1.180277416196445772e-01 -1.192639066405360854e-01 -1.007949494549875924e+00 5.496990457620333226e-01 -4.932677591272335155e-02 8.339051674299459149e-01
-9.708086390948011957e-02 -1.814335964298983582e-04 -8.357406512575118462e-01 6.070174984073244406e-01 1.022656654754905414e-01 7.880808907035934396e-01
9.636107691708580003e-02 -1.470615276116406245e-01 -9.841020076041769871e-01 -6.517892220189150931e-01 9.942653464009837405e-02 -7.518544900906284356e-01
3.706314392809140906e-02 -1.795633658785432407e-01 -9.369381820949216344e-01 -6.523447051035399236e-01 1.182054847896144567e-01 -7.486480141488575102e-01
-4.557874820541188421e-02 1.689923966419028256e-01 -9.085432635785813948e-01 5.485834718449333902e-01 2.394639864460791079e-01 8.010700179222234318e-01
-1.780197424453963326e-02 -1.980777268947916669e-01 -8.922628085764402472e-01 -5.756173126270444085e-01 2.214447351784747664e-01 -7.871638575708076457e-01
-8.566177196403221283e-02 -8.478711238769767733e-02 -8.376416499385092029e-01 6.391348301628393402e-01 1.716699305947389995e-02 7.689030909171938877e-01
-9.412428085709945158e-02 1.304523268707034611e-01 -8.641285347709475317e-01 5.647010088797960181e-01 2.074670811284583805e-01 7.987929524089321109e-01
6.902777932277283368e-02 1.099436145779974644e-01 -9.767075030558206583e-01 5.878592013669389216e-01 1.288176878699648087e-01 7.986410724850439014e-01
-1.127972536594298164e-01 6.574349486545053023e-02 -8.351030438360714792e-01 5.897260812768533311e-01 1.549571635438475592e-01 7.925978971258323957e-01
9.622998707220618841e-02 5.606415345449909660e-02 -9.899020588483461447e-01 6.062385763939214245e-01 7.990447193883284949e-02 7.912585316165935412e-01
6.804423099914853890e-02 1.601273580374138750e-01 -9.833490669881187474e-01 -5.523190849211984110e-01 -6.136548927362494021e-01 5.642440084331179495e-01
-3.661372075708824170e-02 1.010962530086752242e-01 -8.965783105105765705e-01 8.564964194566521138e-01 3.436898671858265586e-01 -3.850859107416470528e-01
3.863183825102734035e-03 9.345742089820543996e-02 -9.169093522294072818e-01 -5.869728636565052504e-01 -1.405482460584437376e-01 -7.973136445971414910e-01
6.539885290477598367e-02 9.721975493617857067e-02 -9.720268124461853843e-01 5.862449953389211599e-01 1.229728671236566540e-01 8.007462016091340118e-01
-1.235127871701093005e-02 -6.582483655928712818e-02 -8.975300279805908943e-01 6.315337806217288241e-01 8.019904686861657403e-03 7.753068844415349492e-01
-7.824010597881711493e-02 1.721111488800179945e-01 -8.780779917493920506e-01 -5.500045518258609434e-01 -2.450563508948242486e-01 -7.983998859324484831e-01
6.101594582423226082e-02 -3.802443837911407831e-01 -1.023255291451549143e+00 5.527829794448780865e-01 3.796031983098920315e-01 -7.418439117961030949e-01
-5.010871484266115478e-02 1.602115392431371632e-01 -9.059455849310427134e-01 9.689767386897434054e-02 2.560864675547041766e-02 9.949648426000465840e-01
-8.411661548549385914e-02 9.330922388095219677e-02 -8.530259986995050170e-01 -5.765509013454803711e-01 -1.789166337689892528e-01 -7.972313944636698624e-01
-8.485542432625718667e-02 2.264678460831741624e-01 -9.003874271097268567e-01 5.309137797447122109e-01 2.793517673036602922e-01 8.000582157452699184e-01
9.316921286510980449e-02 5.942570232094891367e-03 -9.747991446278859717e-01 -6.256534571879193152e-01 -3.102403896847535231e-02 -7.794839706593632567e-01
8.882549383975391066e-02 -1.935996031258357675e-01 -9.885624666339233313e-01 -5.545522090556944672e-01 6.011859843367680645e-01 5.753670651579571027e-01
-3.000930165801727820e-02 5.704760379156760541e-02 -8.947142908834352371e-01 5.934540450801828460e-01 1.391499119604037715e-01 7.927481304799023354e-01
-1.594853708817582302e-02 8.921437907179767535e-02 -9.064970330524116937e-01 -5.724909418884966961e-01 -2.604828219226069108e-01 7.774334832889933100e-01
9.137678717210138968e-02 7.859610883763550049e-02 -9.800797266500851368e-01 -6.068845702821455967e-01 -1.090798393272605360e-01 -7.872691452138808055e-01
8.182387194452184209e-02 4.913546495659396052e-02 -9.692182370696271754e-01 -6.114385134753594908e-01 -7.495659926962115749e-02 -7.877337446529608656e-01
7.319468222108992117e-02 4.989253087441695989e-02 -9.716675093742536129e-01 6.090897812255504640e-01 7.373082704995724546e-02 7.896666407726367076e-01
6.731298696649092028e-02 9.074549148803645951e-03 -9.545601938499138628e-01 -6.197109886766868359e-01 -4.589127222761758829e-02 -7.834872568502274648e-01
1.098266848725779204e-01 -3.162142276648426120e-02 -9.873923841483063235e-01 -6.344513791386802160e-01 -4.742986784696629973e-03 -7.729482205072903955e-01
2.450307439464296383e-02 -4.821332003223684215e-02 -9.180882548097986096e-01 -6.302978156660663522e-01 -4.392848149284638883e-03 -7.763410117027972346e-01
1.058988950374788601e-01 9.376277402163163410e-02 -9.937236796704398412e-01 -6.264379786828597751e-01 -1.243933746880265395e-01 -7.694814794375868239e-01
-4.611677889554507276e-02 -7.824108429106634011e-02 -8.700939577874514663e-01 6.303948082749831761e-01 2.355615560569659928e-02 7.759171948301103461e-01
6.305495900363092265e-02 8.330902732772563213e-02 -9.591721848753563817e-01 -5.923870472461988390e-01 -1.179436206951355454e-01 -7.969735808621587481e-01
2.993961227600966737e-02 -1.441465860277422739e-01 -9.360802539824742974e-01 6.496377699991822130e-01 -6.851470927130888511e-02 7.571502508775636020e-01
-1.167077909083465564e-01 6.794099412571363850e-02 -8.241105113468608634e-01 -5.656197486603090629e-01 -1.826986303531244471e-01 -8.041738060845686764e-01
-2.869204401229360699e-02 1.440424126377873870e-01 -9.137621052258535492e-01 5.618792530746014036e-01 2.068284312880353248e-01 8.009455068700107594e-01
4.210597150873506000e-02 -1.178627757436560980e-01 -9.297422102708098324e-01 -6.945248155857373096e-01 3.503085941527789987e-02 -7.186154183039943355e-01
-1.562123928479562315e-02 2.020094638900238326e-01 -9.299647525878608212e-01 -5.462996849549429657e-01 -2.393684678160168389e-01 -8.026577046497109791e-01
2.884154871193574804e-02 8.676284593215950747e-02 -9.374281473511107965e-01 -5.773131052768104565e-01 8.113051426810165001e-01 9.216042499349651196e-02
-1.900288450209905791e-02 -1.392210668617603619e-01 -8.941147745619462128e-01 6.434738216750501838e-01 -5.375295073121531819e-02 7.635784577282109797e-01
-2.381130218140336055e-02 1.632228757075721570e-01 -9.130670488034042798e-01 -5.628604786425055462e-01 -2.065231492624239051e-01 -8.003350988186511694e-01
9.268275503663228609e-02 -6.405039730091058314e-02 -9.739281139661769560e-01 -6.348244562422579174e-01 2.685564651106892367e-02 -7.721895389133383025e-01
-5.812632943472855265e-03 7.702742302457565859e-02 -9.068682007153389124e-01 -5.847496180785790587e-01 -1.379354614789360389e-01 -7.994008335144197064e-01
4.625936783309067546e-02 -2.064184457852817900e-01 -9.523322043757984634e-01 5.535978356442351478e-01 3.395424374550080060e-01 -7.604211790429895590e-01
-6.177436893447844218e-02 1.531837814942526022e-01 -8.928736007807326347e-01 5.646949184725121862e-01 2.083195578982239282e-01 7.985753632866541274e-01
1.854600077977857850e-02 2.008600413680349528e-01 -9.614878309688064117e-01 5.368481721461769718e-01 2.061045859318915430e-01 8.181167029960654258e-01
-8.648888302780971538e-02 9.770418183975725090e-02 -8.614050184634852725e-01 5.790398116023864894e-01 1.800803930004886977e-01 7.951628440994097380e-01
1.659008345220826242e-02 5.909100294013924087e-02 -9.207401483521300278e-01 -5.968558883731294173e-01 -1.103892992925246674e-01 -7.947183470362492175e-01
1.158317201079648306e-01 -1.015619620687413793e-01 -1.004660137653150320e+00 6.187127891842590932e-01 -6.112206364569552908e-02 7.832359656167010575e-01
8.659974294814798412e-02 -1.794716899203452343e-01 -9.896814417837577205e-01 6.390831657687233713e-01 -1.116972356708219732e-01 7.609838597332556631e-01
-8.346242672995356215e-02 -4.088969568815840373e-03 -8.457020946177223886e-01 6.037280812916610007e-01 1.011753444736831209e-01 7.907439241186245971e-01
8.215295756905496849e-02 3.097606067386613621e-02 -9.768340788808143049e-01 6.167768703706437705e-01 5.404879516670949707e-02 7.852802174490461917e-01
-4.801942202113756303e-02 -3.384216603495370651e-02 -8.612166445672669868e-01 -6.168511000593608351e-01 -4.469682168045675807e-02 -7.858097190078665584e-01
5.826036528518161589e-02 -1.869001625213124740e-01 -9.555038163853792899e-01 -8.782408644659293051e-01 -2.584740406803851531e-01 4.023482997062267086e-01
1.743079870682215154e-03 9.367650010920350323e-02 -9.245562752796255834e-01 5.868201718792832589e-01 1.408308610386342363e-01 7.973761687275868759e-01
-3.259722280253198740e-02 6.853775938001757662e-02 -8.947938140819891029e-01 5.934540450801828460e-01 1.391499119604037715e-01 7.927481304799023354e-01
9.820546796380916210e-02 3.443576632952859845e-02 -9.895941336193403437e-01 5.771900608724193082e-01 -7.999455682914287102e-01 -1.641301964935047430e-01
2.439886342255057766e-02 1.553190927778028418e-01 -9.538586568706004520e-01 5.591538786473632117e-01 2.044420704722555715e-01 8.034614986510723034e-01
-8.564905680778395203e-02 1.795257006678019074e-01 -8.752498680042166690e-01 -5.500045518258609434e-01 -2.450563508948242486e-01 -7.983998859324484831e-01
-2.518120626813303772e-02 -1.359347355424521675e-01 -8.927777811454200574e-01 6.371426465743106338e-01 -1.616256773767654475e-01 7.536089094011462208e-01
9.232695033411215946e-02 -2.320866267287064258e-02 -9.824146149387219529e-01 6.276469549811721782e-01 2.143728505860492076e-03 7.784951536977962050e-01
9.843133399346808143e-02 -7.119763625603235321e-03 -9.785028999713555331e-01 -6.256534571879193152e-01 -3.102403896847535231e-02 -7.794839706593632567e-01
-8.165599722470263944e-02 -8.835295600472101163e-02 -8.408917543724585553e-01 6.391348301628393402e-01 1.716699305947389995e-02 7.689030909171938877e-01
6.742738995728733697e-02 -1.561837546164279167e-01 -9.697213742697153860e-01 6.555382113736164529e-01 -1.032625778133051259e-01 7.480685085287517300e-01
-3.820035083350899197e-02 5.831291098713712456e-02 -8.749965844275177096e-01 -5.963858849623864256e-01 -6.399366962464327069e-02 -8.001429162753384006e-01
-1.694904158001114478e-02 1.294402933896317276e-01 -9.184743687590145589e-01 5.757642536105656017e-01 1.739909719975495372e-01 7.988883939122011224e-01
1.105961854877324929e-01 -2.189597486190985112e-02 -9.970418679986899901e-01 6.249178844400228305e-01 5.340220505387772119e-03 7.806722229924414336e-01
-6.901046180178460610e-02 1.783896219627230939e-01 -8.863616520392268994e-01 -5.509523625894835464e-01 -2.485676990081201188e-01 -7.966590193846266876e-01
3.080215752928853676e-02 8.129912069709308020e-02 -9.346887236289947998e-01 -5.978306524385594845e-01 -1.208542924393379708e-01 -7.924599365292060993e-01
-1.090457505620517908e-01 3.225106780003233597e-03 -8.269815750801292609e-01 6.184139520461762185e-01 1.094878041467628876e-01 7.781880265448382072e-01
2.858358037885541138e-03 -1.308876527771065668e-01 -9.075362054915050436e-01 1.218086545853905578e-01 -9.909230149238305030e-01 5.687029244133712941e-02
2.908404759011278592e-03 1.500328595355070738e-01 -9.283874404085750154e-01 -5.643334387276254249e-01 -2.072128195569085951e-01 -7.991186503549576603e-01
1.624424656906572895e-02 -1.722575988971989380e-01 -9.178500909950475517e-01 -6.507387111423563741e-01 9.003653213186409154e-02 -7.539446615650597927e-01
-3.220553585277131231e-02 1.181519610217246219e-01 -8.958489995855866139e-01 -5.679452778945996982e-01 -1.683697025869392849e-01 -8.056610978370569720e-01
6.602603603757251083e-02 6.842966319245939733e-02 -9.593703130662228906e-01 -6.019453825499435640e-01 -1.006330972900961324e-01 -7.921709008519591810e-01
1.063557931597124417e-01 -7.214934390818573962e-02 -9.855776473967445828e-01 -6.441107020616962942e-01 4.588253822480763133e-02 -7.635549725957115896e-01
-8.849085773975315372e-02 -3.786619263924891760e-02 -8.383593931817673317e-01 6.176169379718259300e-01 6.008762461577913522e-02 7.841803334044656904e-01
-1.229491653164476311e-01 5.322399390737690694e-02 -8.198006442251201120e-01 4.870671717705729598e-01 -6.901827033400022016e-01 -5.351760515883550173e-01
-8.105273629539805347e-02 6.275230269390860705e-02 -8.488704197570779986e-01 -5.874619149107860316e-01 -1.476576198730235323e-01 -7.956668434858814587e-01
-5.473596222486088597e-02 -1.123664855143937102e-01 -8.630247186768765788e-01 6.428348554536245096e-01 -1.382483427391081703e-02 7.658800314482789862e-01
-3.177295231514389029e-02 1.105134325827867026e-01 -8.945513754164114983e-01 -5.725249400508388709e-01 -1.693654925670172173e-01 -8.022035420934734429e-01
2.090165265909116679e-02 -2.216453016123516306e-01 -9.386759675691450644e-01 6.825337256047745438e-01 -5.351757131590573896e-02 7.288920242206751166e-01
6.046872289577909926e-02 -3.723080326883947411e-01 -1.030555365513928123e+00 7.229369725254620738e-01 -2.881612523802150605e-01 6.279532039749342598e-01
3.820365553505750827e-02 1.684924727968878655e-01 -9.581961371448997067e-01 -5.653317446216777897e-01 -2.083278080975681235e-01 -7.981225112075670536e-01
-5.530058488154208918e-02 -1.638997724741818041e-01 -8.611232340739581881e-01 5.943974889508431003e-01 6.979235719629569568e-01 -3.994925691766991749e-01
-7.080343849315733074e-02 1.273903590807634878e-01 -8.706830677829083820e-01 -5.657184524615822552e-01 -2.094519393609541036e-01 -7.975540844622437398e-01
-1.252739889038893828e-01 1.250993522044780981e-01 -8.404880207999340103e-01 5.651437730808230864e-01 2.273401658383735757e-01 7.930504175300283620e-01
-1.095424419962571644e-01 6.026203258517596334e-02 -8.277630493499674724e-01 -5.775695607823614353e-01 -1.539026281303710331e-01 -8.017028024849576218e-01
5.052378312657548887e-03 1.635444468612416019e-03 -9.053556939230724687e-01 -6.134770325806859770e-01 -7.807794879766666307e-02 -7.858433459714124769e-01
4.779624689117632774e-02 5.175618544091030448e-02 -9.433961783258030254e-01 -6.067084749601440175e-01 -9.735432568627368222e-02 -7.889404043916797837e-01
8.908372505217818094e-02 -1.176117423537152533e-02 -9.708449437315332942e-01 -6.232708645556794824e-01 -2.103555151192394376e-02 -7.817230551599492205e-01
5.750137122151916663e-02 -1.185529140762794920e-01 -9.438450741070119054e-01 -3.846674384758844156e-01 -3.549107535027210547e-01 -8.520970125663700490e-01
-1.198814107700205273e-01 1.938422011081035734e-01 -8.576750589307475803e-01 -4.932498231392994370e-01 -3.050158285709577144e-01 -8.146594112230104434e-01
4.801053122148808694e-02 1.195080320505944801e-02 -9.396664985388554214e-01 -6.144909528567193968e-01 -6.182769270165303782e-02 -7.864974286495990397e-01
6.330583087066390946e-02 -3.844233372475784893e-01 -1.039151144599654186e+00 6.219119659464396044e-01 -3.303549845606231772e-01 7.099937258797327511e-01
5.649319514477519483e-02 -3.084326255478492262e-01 -9.915287271620575327e-01 5.538495120688324835e-01 3.602504070768227651e-01 -7.506466293683728974e-01
1.002297764075878034e-01 -8.146100286762657239e-02 -9.903046767038707898e-01 6.413945834525579537e-01 -4.740071601304353399e-02 7.657454932542343551e-01
-7.351198275470609278e-02 1.036354916157550404e-01 -8.720869601214392697e-01 5.762204423585427504e-01 1.756393653668117949e-01 7.981984810444511247e-01
6.564740377723769782e-02 -1.049460730619584600e-02 -9.576275087437149391e-01 -3.524479746374936107e-01 8.202974887055833886e-01 4.504358502575504519e-01
-3.965262630841839137e-02 2.082092212350072358e-01 -9.244862574034766745e-01 5.428280062480727031e-01 2.568233695578514553e-01 7.996121012601634659e-01
-5.272896095727541005e-02 2.300824891972845510e-01 -9.227963097414809690e-01 5.334564595610057358e-01 2.628700891730300637e-01 8.039424867307364275e-01
5.279872858395356916e-02 -1.856362013135468836e-01 -9.517945932324363145e-01 -6.479139751661883162e-01 1.278709943917699654e-01 -7.509037818373323070e-01
1.603827530172767871e-02 -1.475104368103744674e-04 -9.230751270313422019e-01 6.141175169607917539e-01 5.455066943328821388e-02 7.873270602654857120e-01
2.656365927944200414e-02 1.371269949448903902e-01 -9.423805309586416046e-01 -5.776413003732060458e-01 -1.805981178233797280e-01 -7.960620879942748029e-01
6.851457359812516967e-02 -1.462847877145488640e-01 -9.598111135550412287e-01 -6.497899204544782537e-01 9.043280055623960367e-02 -7.547151567706310571e-01
-1.310721929336320091e-01 1.041213331862835406e-01 -8.306431994989671441e-01 5.820647361102817552e-01 2.028368849708404309e-01 7.874375156621599148e-01
-3.156859721875439773e-03 1.859706509711682443e-01 -9.337773027209655963e-01 -5.504974733808931653e-01 -2.368525312549112638e-01 -8.005332037082497632e-01
-2.400050469202946041e-02 -3.046529600365510682e-02 -8.895387248343386011e-01 6.189767337719861429e-01 3.951923161037053378e-02 7.844144525580145633e-01
-6.690744461006457866e-02 -2.261405367078559228e-02 -8.566144450849315639e-01 6.132687835665255882e-01 7.190149769612408370e-02 7.865949235355439439e-01
1.216566251583229286e-01 2.593599373829775720e-02 -1.006593597152967368e+00 5.816270396678758781e-01 3.107682983672706636e-02 8.128617455474717035e-01
1.044871812563960140e-01 4.840659945562269389e-02 -9.868047882546153726e-01 -6.152731653028775671e-01 -8.415722387097888946e-02 -7.838089650728089497e-01
-3.590623610867750559e-02 -7.567106590270421262e-02 -8.783843945772785711e-01 6.277998478814158512e-01 1.431311037803996433e-02 7.782432048346951126e-01
2.580605353281404182e-02 -1.395514834596663367e-01 -9.177250289260013849e-01 -6.420486978434084557e-01 9.751942557468773476e-02 -7.604363426567449791e-01
-2.537088937179077935e-02 1.629753794942334355e-01 -9.209894999152211659e-01 5.626677835302861252e-01 2.072155579354910682e-01 8.002916205525321125e-01
9.768671848876835095e-02 3.311571086055475205e-02 -9.924735344072541654e-01 7.728904648496172092e-01 -5.289367503307575991e-01 3.505228145129509199e-01
-8.024429672051906770e-02 1.100684741028421371e-01 -8.595169452234212581e-01 -5.622310010104906164e-01 -2.063347231630876522e-01 -8.008260007766689892e-01
-6.364172668521106413e-02 -3.020663857996799123e-02 -8.493527616338514274e-01 -6.107881703360716896e-01 -7.113430576079035617e-02 -7.885922403380878354e-01
-1.621167417152334644e-02 -1.587918562801129696e-01 -8.980609602367187749e-01 6.545357549296307864e-01 -6.991008785020814964e-02 7.527918205822076159e-01
-1.019908920092426480e-01 2.311040009048372645e-01 -8.830568619875382996e-01 -3.888125148539564591e-01 -4.012975356066034727e-01 -8.293281113099981727e-01
4.780348755450625903e-02 8.014150108733904265e-02 -9.473379598368860677e-01 -5.978306524385594845e-01 -1.208542924393379708e-01 -7.924599365292060993e-01
-8.504427583379975397e-02 1.690220060314984174e-01 -8.724468516906377369e-01 -5.467216764730653544e-01 -2.403727848570989534e-01 -8.020700298443546039e-01
-1.117901369131348438e-01 9.500361686084163315e-02 -8.336849900032483607e-01 -5.704216141622370229e-01 -1.794614334335894179e-01 -8.015065664150915481e-01
6.287823626423529261e-04 1.531035024632991515e-01 -9.367035478941018178e-01 5.615748505920854505e-01 2.062998806691710152e-01 8.012952304977004614e-01
3.545872605024749658e-02 -2.050434932140119959e-01 -9.492942182393379058e-01 6.597557282647417143e-01 -1.268597919613276837e-01 7.406949251921394195e-01
-8.496439643028420863e-02 1.537491952073424817e-01 -8.679157638894963167e-01 -5.523522082703955505e-01 -2.418963424129676465e-01 -7.977425634539291321e-01
-6.813068413671803658e-02 2.405371100611903082e-02 -8.611240729345721601e-01 5.951543223135590255e-01 1.196513914248060334e-01 7.946539354722886861e-01
-6.651532834473292133e-02 -1.029978883411810098e-01 -8.442962648112366519e-01 -6.217466288388747708e-01 -2.616826499245565509e-03 -7.832140714686933736e-01
-4.385427842023864597e-02 -1.459007426116651629e-01 -8.724356216781016249e-01 9.850026451781018766e-02 9.760035096629248175e-01 1.942031076362450703e-01
-6.230316091304398396e-02 -1.537090287902924124e-01 -8.538254604229155165e-01 5.552053227714903727e-01 7.004165344554736938e-01 -4.485127956118862835e-01
9.823359374123352694e-02 -2.617730779220828197e-02 -9.871685594711884226e-01 6.276469549811721782e-01 2.143728505860492076e-03 7.784951536977962050e-01
-7.540305333281811795e-02 2.126487383444396473e-01 -8.902720986056328334e-01 -7.609754517407665841e-02 -6.985621911702734332e-02 -9.946503266320044778e-01
-2.117565488874630780e-02 -6.291303623919687615e-02 -8.811524527075630386e-01 -6.277533121372027569e-01 -1.511540842657426234e-02 -7.782655739070496459e-01
1.043388581580353414e-01 -1.247399988480935029e-01 -9.881584202629765112e-01 -6.539500320493686347e-01 9.437472601107513293e-02 -7.506282479849558653e-01
6.168907375154813327e-02 -3.748733447500035010e-01 -1.033137501060405139e+00 7.229369725254618517e-01 -2.881612523802151715e-01 6.279532039749344818e-01
-1.376183841247685113e-01 1.187608349063129370e-01 -8.262483234846430546e-01 8.148916087081716775e-01 -2.402817609202068661e-01 -5.274621706114024366e-01
-9.209062485975277879e-03 -2.096674728255510101e-01 -9.077313598605405431e-01 4.135274663312822341e-01 8.874437986320964367e-01 -2.035645815437094053e-01
5.148801379656987171e-02 -9.843397915844052937e-02 -9.411330466725641442e-01 -6.363857148381643070e-01 4.669078116928703642e-02 -7.699566175465475393e-01
2.544494462037209109e-02 -3.717863759797093715e-02 -9.149859912892082114e-01 -8.406713514612123017e-01 -1.568253501178278608e-01 -5.183410927109670663e-01
-5.889031465093992612e-02 -2.383442872615388480e-02 -8.536076716055750468e-01 -6.107881703360716896e-01 -7.113430576079035617e-02 -7.885922403380878354e-01
-3.071965432017028166e-02 6.466503984420993167e-02 -8.888031716899458257e-01 4.874004072081331018e-02 -9.961803490119565119e-01 -7.245081554372022337e-02
-6.829509147231142829e-02 -4.899700970336873240e-02 -8.444556962918481346e-01 -6.126499029014630393e-01 -5.053763207023494880e-02 -7.887369930588784550e-01
5.278247564837852505e-03 1.911995426259220365e-01 -9.414896708447034746e-01 4.954001723066200347e-01 -8.427824786626907372e-01 -2.104670115190086233e-01
1.109000771285020837e-01 -5.896791900742216069e-02 -9.978299239988402958e-01 6.263630261629701268e-01 -2.070439783095575845e-02 7.792564965185878600e-01
5.953810163667171140e-02 -1.107230649781861392e-01 -9.621955053994126761e-01 6.764514921870052877e-01 -1.346616878627090175e-01 7.240715493236425937e-01
1.095961202042922411e-01 1.146678627037521145e-02 -9.970112451261120556e-01 6.037367219857665557e-01 2.962363653930767324e-02 7.966331719706809533e-01
-6.244645062474390995e-02 1.397450543514268673e-01 -8.797876420490730043e-01 -5.604502005796159203e-01 -2.057460552599707504e-01 -8.022244906603323011e-01
9.664036948645886305e-02 1.097652420093520875e-01 -9.889895934698660351e-01 -6.140491000896253215e-01 -1.469360296637216845e-01 -7.754698613523179906e-01
-3.431134001207648831e-02 9.541088559279807535e-02 -9.012224078221242607e-01 8.818881550013141224e-01 2.913423038680889587e-01 3.706655420257086719e-01
2.557309370826606199e-02 -6.188675455714422180e-02 -9.189117745816640648e-01 -6.235618496878980732e-01 8.160285107114020973e-04 -7.817735949181685573e-01
-2.033724261399330602e-02 -9.932499918874744538e-02 -8.911308665307772214e-01 6.342809209006227134e-01 -8.507673788712963314e-03 7.730558407179671798e-01
5.465995723409129703e-02 -1.285205923208013745e-01 -9.411372098987483836e-01 -6.657230883893454632e-01 9.998586856382991883e-02 -7.394698071408245532e-01
-1.151811133421597189e-02 4.074723717401824985e-02 -9.100807794442311582e-01 6.338037971803173187e-01 1.288830215140632784e-01 7.626807414935928842e-01
1.047944285018946042e-01 -4.362982965130511592e-02 -9.833145425895174485e-01 -6.367411285392399201e-01 2.151749685044827831e-02 -7.707773560217414666e-01
7.550570197077434431e-02 -3.603638737143001203e-01 -1.022033900621973634e+00 -9.608785969945299321e-01 1.125522741647174280e-01 -2.530697678865929667e-01
-9.454033888885989001e-02 5.825845173687073386e-02 -8.431734157920334205e-01 2.478632862330265862e-01 -9.466209068062715337e-01 2.060889374397306961e-01
-3.656310020443982733e-02 -4.675773042269680546e-02 -8.787754116671501192e-01 6.208788144426894418e-01 4.034652334307610444e-02 7.828675851191997381e-01
-2.502931394858219638e-02 -1.977833702207255906e-01 -8.921382323743763942e-01 4.733877214051332438e-01 8.320254322565261429e-01 -2.892019109570282964e-01
2.185522782099500946e-02 3.057536660568002315e-02 -9.303914437309757091e-01 6.044450711914463037e-01 8.050839188026423510e-02 7.925683281264911395e-01
7.346395317722594076e-02 -3.421368924942884138e-01 -1.017578764888161569e+00 -8.799343777897329355e-01 -2.375113227014749306e-01 4.114655056895918928e-01
-7.966901650541050040e-03 2.193008996042918046e-02 -8.972834438123796774e-01 -6.096078475723316625e-01 -7.969375863510425040e-02 -7.886869955900365214e-01
6.957515662739910400e-02 1.554870102500152673e-01 -9.779762655397684634e-01 -5.960480091075122111e-01 -2.085647510870822785e-01 -7.753886222037013054e-01
-3.300952858420160008e-02 1.691026365288771649e-01 -9.172208997699754507e-01 5.532818332041319342e-01 2.365147704520939864e-01 7.987114475229890598e-01
1.057630104140592359e-01 -1.660746403883584799e-01 -9.967423040458647243e-01 -7.581863494407976578e-01 4.716680871178582368e-01 4.502029265966817628e-01
-4.914773417097353936e-02 1.822269923967999028e-01 -9.100553940034076250e-01 5.485834718449333902e-01 2.394639864460791079e-01 8.010700179222234318e-01
-4.109758752752503547e-02 9.536512218468280733e-02 -8.936738510918721401e-01 5.784251252611151140e-01 1.737912291045286828e-01 7.970075176264027617e-01
1.128360073749862073e-02 2.056556611705878945e-01 -9.497176700806002625e-01 -5.536920551258033285e-01 -2.578793701903465130e-01 -7.917849067270698038e-01
-7.040033460844298541e-02 -6.863676820735453710e-02 -8.417919261233133277e-01 -6.201490763824000219e-01 -2.878089018927010995e-02 -7.839558555314002364e-01
4.468706736517337463e-02 -1.519576737793273871e-03 -9.453391823168971753e-01 6.206410908498495305e-01 4.021436085781089631e-02 7.830628592453524606e-01
-9.534175754132540037e-02 -5.470450367314722874e-03 -8.276093664959467411e-01 -5.980106327325072080e-01 -9.926695427300998020e-02 -7.953171411004711366e-01
-6.939581227149960174e-02 1.969541451301816126e-01 -8.918884934416445587e-01 -5.305951687998015087e-01 -2.756790496003447277e-01 -8.015421563821585327e-01
1.434430264722080621e-02 7.633675664950329530e-03 -9.223280594854805781e-01 6.058783474367713806e-01 7.796962395203234364e-02 7.917273304920485755e-01
-1.209780947470128348e-01 1.661902170707163506e-01 -8.556520973678424236e-01 5.671907877573160173e-01 2.411319972104201959e-01 7.874960128181915930e-01
-1.150659447825140985e-01 -3.472189828527981470e-02 -8.166715961092987364e-01 7.474493701588110772e-01 1.410025745482317017e-01 6.491823418886001340e-01
7.419494398600821883e-02 -1.511414928321671847e-01 -9.652837118336150546e-01 -6.497899204544782537e-01 9.043280055623960367e-02 -7.547151567706310571e-01
5.528717875548831706e-02 3.461419757570940309e-02 -9.564280716283306560e-01 6.119229226608603467e-01 7.139925011753259221e-02 7.876880624998989777e-01
-1.472347627065803688e-02 -6.040544721212828122e-02 -8.956926235545362713e-01 6.250943894819483981e-01 1.307431072032298053e-02 7.804396623938192334e-01
5.786242972268498819e-02 -1.415874233582808395e-01 -9.597005318613618385e-01 6.529603453548026293e-01 -8.838941752959532383e-02 7.522167894050995063e-01
-9.793731276417569354e-02 1.281795170761308444e-01 -8.608411136707108113e-01 5.648242951374049525e-01 2.076570317105130570e-01 7.986564172431803721e-01
8.640029549004624165e-02 -8.494306055837098912e-02 -9.695072151827157647e-01 -6.481239200986987914e-01 5.183618240996613891e-02 -7.597686453053036360e-01
6.950012566809507519e-02 -1.152559370686792595e-01 -9.652921862342060955e-01 -2.972558697721044974e-01 8.181743902045578443e-01 4.921682792495162273e-01
-6.560538322418854595e-02 1.550865842376354109e-01 -8.906609564180846261e-01 5.646949184725121862e-01 2.083195578982239282e-01 7.985753632866541274e-01
-1.641415512655046427e-02 3.266402547468027356e-02 -9.014848449645657125e-01 5.977406462444915247e-01 1.041585251022884434e-01 7.948944090102367799e-01
6.876755881132152505e-03 -5.130018113942852453e-02 -9.132756288399852540e-01 7.468078493562527176e-02 9.904352337177106946e-01 1.160208092194795482e-01
-2.215268159752482868e-02 4.048117353611510247e-03 -8.938211365898386385e-01 6.087767898054202709e-01 8.235259550483491064e-02 7.890556825774872607e-01
-8.610564549833657488e-02 1.601832325687779501e-01 -8.780406268546375737e-01 5.495247681621440172e-01 2.349456085036409625e-01 8.017624899065781685e-01
2.718808349493757534e-02 1.619044662008249369e-01 -9.574666363860230289e-01 5.537956639974447315e-01 1.998110417529142813e-01 8.083228996702027658e-01
-7.879700066312111950e-02 -7.265054824561648084e-02 -8.438267556557900173e-01 6.240913119085129690e-01 3.649432114460469251e-02 7.804986860491860412e-01
-1.201461242632267806e-01 -8.654171685018521507e-03 -8.162659696306968637e-01 6.373980907756977565e-01 1.220850930792588690e-01 7.608014878556192961e-01
1.055907931973223551e-01 -7.801360322335151865e-02 -9.945319189060792819e-01 6.293044417548002700e-01 -4.847879970236323999e-02 7.756453606946266399e-01
-1.127403051267787393e-01 1.956311729353749085e-01 -8.627058276782491042e-01 -5.196806271435189251e-01 -2.845957203932264479e-01 -8.055664601419174620e-01
6.598451840245890543e-02 -1.352667904324261761e-01 -9.659664199281287056e-01 6.520237891353140025e-01 -8.271073775319705279e-02 7.536736112283285438e-01
-2.550702743070911577e-02 -1.490726728748682783e-01 -8.892561988068897749e-01 6.474493580391363912e-01 -5.103206341351187308e-02 7.603979598068825174e-01
8.905453670629487339e-02 -1.584600703173762448e-01 -9.886983746256288175e-01 6.471006953227590452e-01 -1.084336140488659783e-01 7.546541204135198688e-01
4.073014238274774018e-02 -1.704207771835539176e-01 -9.529088379963140953e-01 7.058735785046148514e-01 -7.907689629466560510e-02 7.039100337695806120e-01
-8.445849497933075045e-03 1.380576767327216375e-02 -8.960929262147320218e-01 -6.087968966993873021e-01 -7.935898438248323306e-02 -7.893468756934280961e-01
3.533551912366805076e-02 1.418850438259749991e-01 -9.586904724698540603e-01 5.726999296795487471e-01 1.763934156496275441e-01 8.005623982304550523e-01
-8.780352646562628038e-02 -1.587126836879260497e-02 -8.409986755568419348e-01 6.094613013581249295e-01 8.125046337833211063e-02 7.886414168350955878e-01
-4.189701990804158699e-02 2.794994845565854091e-02 -8.722668734116096889e-01 -5.936461639057692974e-01 -1.147579907141703104e-01 -7.965016231290498183e-01
8.858288036911197982e-02 6.903484235961383775e-02 -9.854043855301625188e-01 5.963914536800259958e-01 9.782763076959855031e-02 7.967101032592925902e-01
1.046395679255018030e-01 -7.575127440744097718e-02 -9.936187628297518115e-01 6.293044417548002700e-01 -4.847879970236323999e-02 7.756453606946266399e-01
-1.096397611244743497e-01 -5.341291496095329494e-02 -8.190763607871927032e-01 7.485513768460275719e-01 1.323623518873162930e-01 6.497315168781445660e-01
-7.267202262709507310e-02 4.037805028123910706e-02 -8.601808103521845217e-01 5.951543223135590255e-01 1.196513914248060334e-01 7.946539354722886861e-01
8.337404774593400181e-02 -1.450027354811480040e-01 -9.724829324751858017e-01 -6.553942452985821454e-01 9.905633075471473314e-02 -7.487631311482387808e-01
9.631985761144858105e-02 6.050420901614888408e-02 -9.816944451121661919e-01 -6.150247272030511247e-01 -8.404428584589544726e-02 -7.840160348777733823e-01
-5.181693232767885932e-03 -1.495009534954893082e-01 -8.970462468201290118e-01 -6.449807417366274498e-01 6.129306237927802103e-02 -7.617368333571904460e-01
-9.192092484735837898e-02 -6.916079998587046362e-02 -8.333305006050502062e-01 6.321053619831121795e-01 4.495907254381650148e-02 7.735770764107470221e-01
1.864072293699400515e-02 2.081273710232574015e-01 -9.625738277071991256e-01 3.677191140972446148e-01 -1.041632215211271417e-01 9.240847777178661238e-01
9.329029367985140764e-02 -1.395098096698754175e-01 -9.898229073739220896e-01 6.422648103612978998e-01 -9.498331633157916509e-02 7.605748372055316509e-01
-7.697099994355657837e-02 -1.130075301398076743e-01 -8.362171122870706297e-01 -5.983503222218082840e-01 4.009591145085436570e-02 -8.002307228430959318e-01
6.091300359911894224e-02 -8.916198089516681746e-02 -9.580415531795613004e-01 6.379646358090285130e-01 -4.104574259167233230e-02 7.689709815540192173e-01
-2.842282238473722855e-02 -1.181649303013315999e-01 -8.850568647195410366e-01 6.348755626902398141e-01 -2.616794062322962827e-02 7.721711330931055883e-01
-3.814348505340528495e-02 -1.754927573349884112e-02 -8.794597669211812185e-01 6.163330032963149074e-01 6.421220457964246786e-02 7.848633141068367403e-01
-3.177834864599147352e-02 3.499720617923676724e-02 -8.901178227310505564e-01 5.984938498574050580e-01 1.112256044570870545e-01 7.933687519659553544e-01
-1.288769337789642255e-01 7.574612887849241361e-02 -8.254006746020459140e-01 5.889587906237531145e-01 1.813422713247792306e-01 7.875547749698280642e-01
3.424818605097647295e-02 8.675611595369091267e-02 -9.472670821607003244e-01 5.953682306014230763e-01 1.197407315725073779e-01 7.944802245449609224e-01
1.033439178742539405e-01 1.727614112008412500e-02 -9.834810538573702798e-01 -6.160446470952735121e-01 -5.206522376039419975e-02 -7.859886801093511899e-01
-9.189620013981476820e-02 1.937374539732130904e-02 -8.424018556569966565e-01 5.938523829485942152e-01 1.271056898988286443e-01 7.944705726844883964e-01
-1.669733443932696834e-02 1.589203703057533446e-01 -9.141672563817289099e-01 -7.790611957779692842e-01 4.087823016189289227e-01 -4.753532193181527754e-01
1.015601585254063965e-01 -1.551790300786027865e-01 -9.899235665405220486e-01 -6.628107125548754475e-01 1.154408809189141488e-01 -7.398346858151243488e-01
-4.980617917932608774e-02 -1.244189011778382703e-01 -8.673800470359849246e-01 6.428348554536245096e-01 -1.382483427391081703e-02 7.658800314482789862e-01
2.625240160109258009e-02 8.618200321428533262e-02 -9.412540880653614828e-01 5.830845828814379406e-01 1.428265339878472817e-01 7.997580574117386654e-01
-5.958544604307049880e-02 1.516367563720494305e-01 -8.848962164794877960e-01 -5.640454234850920123e-01 -2.096085788157182050e-01 -7.986970664353151284e-01
1.342518191917944741e-02 1.975404954614191633e-01 -9.501475888103438905e-01 2.420861904869902048e-01 -9.680971836273152276e-01 -6.466930824090505459e-02
4.881066366944288026e-02 8.332340892720783987e-02 -9.485830296871411438e-01 -5.978306524385594845e-01 -1.208542924393379708e-01 -7.924599365292060993e-01
4.283195690185730847e-02 -1.936146420139088775e-01 -9.491102695647285481e-01 5.535978356442351478e-01 3.395424374550080060e-01 -7.604211790429895590e-01
8.828381418565752967e-03 -1.200079380227231790e-01 -9.066610338269280867e-01 -6.430360828745083079e-01 3.757267700027473040e-02 -7.649136487633367842e-01
-6.051155438495514627e-02 2.398623501381441647e-01 -9.208062586788897663e-01 5.272056630804133892e-01 2.416993578888264882e-01 8.146383303111084384e-01
-1.555417397912993481e-03 -4.193291346862237229e-02 -8.940673799913384512e-01 -4.417624954385830915e-01 -6.811183451191376026e-01 -5.838867163808777461e-01
-8.234130506804317184e-02 1.907883379440868388e-01 -8.900040433923172012e-01 5.410663490143298171e-01 2.631333762659924247e-01 7.987540499172216535e-01
1.904403087346136225e-02 6.901395944448651676e-02 -9.332053805341717911e-01 5.992990388793798529e-01 1.172852383142082566e-01 7.918868826239207070e-01
-6.565167322289881813e-02 1.332429577821213074e-01 -8.849373757564323872e-01 5.642230090291846523e-01 2.078089409170290058e-01 7.990418262875826905e-01
9.847156973107958067e-02 3.681207318719766086e-02 -9.810606856723848024e-01 -6.193962414106707337e-01 -6.264746257145753505e-02 -7.825749750405336380e-01
-2.461860601473098847e-02 1.072268596466672969e-01 -8.942418090868907710e-01 -6.042915487371449679e-01 -1.884698252830286636e-01 -7.741516964281917046e-01
-1.213435555634894275e-01 -2.596377051463938986e-03 -8.162348524426946694e-01 6.373980907756977565e-01 1.220850930792588690e-01 7.608014878556192961e-01
1.248750959522377524e-01 -6.878260897627688775e-02 -1.001159357927035698e+00 -6.538786513809654588e-01 3.889199965657227226e-02 -7.555991805388110327e-01
5.788361787057696300e-02 -9.381577880876422471e-02 -9.462445116057880412e-01 -6.363056407857006214e-01 4.038368865538172897e-02 -7.703793151395513794e-01
3.219188541056250408e-02 6.506014060734335164e-03 -9.361852691317866793e-01 6.119157040980082174e-01 5.697079000075418870e-02 7.888684935811094423e-01
4.609255535070165555e-02 -2.261466787519135491e-01 -9.538455386002329117e-01 -6.483762191330080249e-01 2.092447220175739364e-01 -7.320006316736167307e-01
-6.130560414856217610e-02 1.678104886597697465e-01 -8.917327115113750091e-01 5.806077797496741466e-01 2.388849902545064074e-01 -7.783499004466167825e-01
2.342041711533503559e-02 -6.648595053979355907e-02 -9.171221680722756453e-01 -6.362589762565740159e-01 -4.487006609414019229e-03 -7.714624954621082109e-01
-6.158895354707789177e-02 1.269189693656880280e-01 -8.861614651006505250e-01 5.642230090291846523e-01 2.078089409170290058e-01 7.990418262875826905e-01
-3.436000191794075665e-03 -7.735081354860695937e-03 -8.979609507424410886e-01 -6.187294881023950310e-01 -5.317797845781693789e-02 -7.838022219665419232e-01
4.392110468356398567e-02 -2.092094377748803524e-01 -9.622572686340297166e-01 9.499977741971971090e-01 1.865812178391651477e-02 3.116987383867117489e-01
5.150131230721276265e-02 1.633235645487313981e-01 -9.664356118090704495e-01 -5.832290635484418395e-01 -1.889713963309919420e-01 -7.900213103461973807e-01
-2.619194008942465901e-02 -1.215949296920642297e-01 -8.870073244147820279e-01 6.348755626902398141e-01 -2.616794062322962827e-02 7.721711330931055883e-01
5.206333947479680618e-02 -2.042243119165920162e-01 -9.681602739001498037e-01 1.941990236792793256e-01 -2.994304996237142635e-01 9.341456605353940512e-01
7.852418702164758527e-03 7.682703207182781102e-02 -9.123658526093021415e-01 -5.541674410188490718e-01 -1.987109851344729672e-01 -8.083392800684053858e-01
-1.272105882381215358e-01 8.690495681049511395e-03 -8.126706169820154813e-01 7.360754142159622315e-01 1.500857073222388871e-01 6.600509563998698814e-01
-3.860903629254434921e-02 1.869560813858481274e-01 -9.097476563945727790e-01 -5.485408732544112542e-01 -2.446650598037903301e-01 -7.995260589127135553e-01
-1.124551894012861789e-04 -4.750648933912266642e-02 -8.938896101683482254e-01 -6.215406511865188000e-01 6.611735978275265491e-02 -7.805867752261731463e-01
-8.825173366920370781e-04 -5.218661901639078810e-02 -9.022407546963825409e-01 8.588322214905551311e-02 9.858262641117426783e-01 1.441202593002828547e-01
-6.870376042747747269e-03 3.107381861331654643e-03 -9.055312037005789350e-01 6.095313314311664454e-01 7.787668131043791464e-02 7.889276129733462373e-01
5.605344801822813999e-02 7.363072160517186715e-02 -9.615457878940184555e-01 5.899515138088353705e-01 1.168442490745766199e-01 7.989396928510075213e-01
-3.355852683614413134e-02 1.039191695393668624e-01 -9.010088079109570547e-01 5.678384333070389811e-01 1.688264043157977068e-01 8.056408373867391948e-01
5.937604835002910537e-03 -2.469813815105808760e-02 -9.172264331607178356e-01 6.714313749500736561e-01 5.811959788510744768e-02 7.387841505299957978e-01
-5.390304587748130649e-02 -1.043534617629696404e-01 -8.543880078174952430e-01 -6.249247575289118561e-01 -7.641330889809363992e-04 -7.806846120733093031e-01
-9.360394801789213848e-02 1.928570718378032067e-01 -8.830077542938136181e-01 5.461146818298058259e-01 2.648570957328040820e-01 7.947386193774114149e-01
1.325915275957495346e-03 -6.397130732486260019e-02 -8.992444556511407505e-01 -6.256151719162674762e-01 -1.177939606879159148e-02 -7.800428850367354672e-01
3.260629384098018280e-02 -9.886984933811689136e-02 -9.209701312802958117e-01 -6.035382386797748522e-01 5.394992836873899883e-02 -7.955067565271356500e-01
-3.171360069103134477e-02 7.490827062501480282e-02 -8.873488355171722519e-01 -5.916337427813864736e-01 -1.393150141437927425e-01 -7.940786114967479659e-01
-1.505401649185734124e-02 -3.123129837760081975e-02 -8.872577787944290195e-01 -6.172854201689700337e-01 -3.931625958999816761e-02 -7.857562865027999388e-01
9.891141716681287055e-02 -1.679207332907515018e-02 -9.785452237528342589e-01 -6.232708645556794824e-01 -2.103555151192394376e-02 -7.817230551599492205e-01
-1.597179138733865675e-02 1.225254981330014536e-01 -9.176726970549683449e-01 5.757642536105656017e-01 1.739909719975495372e-01 7.988883939122011224e-01
7.394765110244319595e-02 -1.853079013615868964e-01 -9.797884217804841978e-01 6.515871780967257276e-01 -1.300149857116976448e-01 7.473488160359478272e-01
4.699088452889321060e-02 -1.639172988024427957e-01 -9.434624126241636377e-01 -6.626844725138780756e-01 9.468125747654747293e-02 -7.428894597257811316e-01
9.997167491203406975e-02 1.988343024860395047e-02 -9.771265509485306255e-01 -7.741670400940996455e-01 5.082719073422413691e-01 -3.772599398804767912e-01
-3.121538057560941173e-02 8.890091404549090026e-02 -9.031358275391075940e-01 6.433859001369819364e-01 1.789819936274275325e-01 7.443252175373858970e-01
-9.105780131039310776e-02 1.452926777987071094e-01 -8.635971572189956591e-01 1.552752373616536619e-01 -9.849892719043589207e-01 7.540381220869074586e-02
-4.833208147378974945e-02 1.387301392774468733e-01 -8.872013864804604300e-01 -5.414574651338148747e-01 4.923914259240800284e-01 -6.814502895496596935e-01
-3.037579442065114696e-02 -1.636118932168459106e-01 -8.770687221713622250e-01 -6.422673089159717241e-01 7.202838862992592961e-02 -7.630888645034810125e-01
-1.209592074909338205e-01 3.442242636605552519e-02 -8.146450693122462283e-01 -5.843581132143572665e-01 -1.302762716994827485e-01 -8.009704667168688896e-01
5.395305980647612659e-02 -4.288742192567237405e-02 -9.419597586851077287e-01 -6.262272325315784149e-01 -1.209314490938960020e-02 -7.795467972367282616e-01
-4.086497967391052033e-02 1.513014100377385596e-01 -8.980544534075980412e-01 -5.655579353809472298e-01 -2.118642796263817407e-01 -7.970305820644744133e-01
6.683315753736754350e-02 -2.066858410436299143e-01 -9.682307465688089199e-01 -6.675374978886299271e-01 1.597997506710671090e-01 -7.272260505496571659e-01
-9.563731038285561148e-02 5.820463405645700389e-02 -8.400956838319479925e-01 5.851601711410609613e-02 -9.968746976080244959e-01 -5.307271436446099611e-02
-1.067845556410516178e-01 -5.314509010641997599e-02 -8.152597781081121209e-01 -5.169851057290072438e-01 -2.172180041382319737e-02 -8.557187410832775010e-01
-8.261560907449364000e-02 2.059423321767809567e-01 -8.948572941870823749e-01 5.387197384114502663e-01 2.646423156749285188e-01 7.998409143074077798e-01
1.397599704060130399e-02 6.897282628730595777e-02 -9.293638064609863747e-01 5.992990388793798529e-01 1.172852383142082566e-01 7.918868826239207070e-01
-9.936293090168314690e-02 2.340409257810623089e-02 -8.285900585974632637e-01 -5.893999175493805920e-01 -1.256414227480113499e-01 -7.980112593708430513e-01
-2.709203895103570736e-02 -1.491475255034370728e-01 -8.785152276202096155e-01 -6.443902610327062463e-01 5.167573760262064719e-02 -7.629487595044806003e-01
-1.161558797902714421e-02 -2.017047833532061296e-01 -8.981465795580437783e-01 -6.412343062681578054e-01 1.487054613203175335e-01 -7.527982799118936308e-01
7.024566701257040080e-02 -7.024081403984060168e-02 -9.554153531497201479e-01 -6.393912133373019779e-01 3.313087313382780119e-02 -7.681674436946954732e-01
-1.205766957207208417e-01 1.402162172403891571e-01 -8.501007701588744192e-01 5.058253726805992390e-01 -7.459934339392555458e-01 4.331679684280115850e-01
3.152328237933323118e-02 -2.162454354763091169e-01 -9.385681367479247195e-01 -6.546504647086346385e-01 1.589716028148526472e-01 -7.390269268133911051e-01
-7.269719303632982133e-02 -4.690327886720936645e-02 -8.501858252831193674e-01 6.149891233539667157e-01 5.330213133185991714e-02 7.867320134275714860e-01
3.379837543714382664e-02 1.077318147783547231e-01 -9.506590528438317866e-01 5.817052568418825675e-01 1.452896322856511990e-01 8.003186346155010122e-01
-3.540682996911417163e-02 1.054889471619034763e-01 -8.924428537878239531e-01 5.727854322387775365e-01 2.536488560971645878e-01 -7.794736085433788819e-01
-3.535127147862023034e-02 2.468227986396776333e-02 -8.859673893760343644e-01 5.994742378955011386e-01 1.116024045723429253e-01 7.925752591352315246e-01
-4.752379161535912749e-02 1.034513123899774012e-01 -8.816207449716301214e-01 -5.714465173848634061e-01 -1.743862104581807848e-01 -8.018967061727753087e-01
3.084126871231038583e-02 -1.236207423325546007e-01 -9.389439608396115133e-01 6.870727862821527365e-01 -4.424285894008171682e-02 7.252403434609020483e-01
-2.497215519034038517e-02 -6.274227243554864053e-02 -8.874425727167237765e-01 6.277998478814158512e-01 1.431311037803996433e-02 7.782432048346951126e-01
2.564563580441256430e-02 -1.289079084277471865e-01 -9.265321758985139988e-01 2.466769234510548386e-02 -9.960152237381656448e-01 -8.570401995343954193e-02
-6.537234483933423990e-02 -1.421719892124387596e-01 -8.521283694401909914e-01 7.836384775017480875e-01 5.965800362888808994e-01 -1.732137317890810047e-01
-6.748963645532421451e-02 6.372663340443480984e-02 -8.681547177716443242e-01 5.904258273956911607e-01 1.458926511344271759e-01 7.937963697882989278e-01
-1.086549043931514524e-01 1.200079193868398703e-01 -8.421850085109793271e-01 -5.603993439720836855e-01 -2.056481562126259988e-01 -8.022851183475895320e-01
