4.968659171843083783e-02 8.898100286159862926e-02 -8.561087455251761291e-01 -8.045548261858453953e-01 5.936984241227386550e-01 -1.461892113805217039e-02
-2.188815762334308732e-02 -1.305402273890346292e-02 -9.742788078617949932e-01 8.847460035390428690e-01 -4.311128794320103208e-01 1.771050377869943238e-01
-5.578472063460927083e-02 -7.767879733045464363e-02 -8.890743705735534297e-01 -8.666953941050284937e-01 4.856024262901535993e-01 -1.141462983116190710e-01
-7.787825520166682253e-03 7.422126340815821989e-03 -8.611840695160023484e-01 -8.287902516483726112e-01 5.567994604155886984e-01 -5.550747385295601993e-02
6.475712065568753339e-02 1.236090797210658981e-01 -8.497613597060282853e-01 2.331783330669725748e-02 -7.807894615730680554e-01 -6.243589475184281312e-01
-7.660246630099623588e-02 -1.519047465139614361e-01 -1.020164053896617240e+00 9.112809277600224522e-01 -3.634978328380630841e-01 1.934848733696366008e-01
3.736375837149526029e-03 1.314909718667731445e-02 -9.533635688458917956e-01 -8.542904876169449269e-01 5.122482405374869652e-01 -8.825816015219929700e-02
-1.377046972860975806e-02 -3.668606171551942827e-03 -8.752235851549911017e-01 -8.429385526842159138e-01 5.340193718863577299e-01 -6.540570960351380081e-02
-5.215417001955985343e-02 -9.008558239931821476e-02 -1.008340622161156608e+00 9.009429326827952389e-01 -4.042076853557938776e-01 1.578542972118139875e-01
4.491641742734890641e-02 6.543540409684060755e-02 -1.061364273984793716e+00 -8.662138951320093039e-01 4.971521939424643488e-01 -5.013166602484735168e-02
-3.683454426142213078e-02 -4.842013942312306529e-02 -9.113738340891505141e-01 -8.630184059441106115e-01 4.946198231171006765e-01 -1.027154398388798046e-01
-1.055847631257129764e-02 -1.358745247496210076e-02 -9.662720331303064070e-01 -8.696452923246986710e-01 4.835808155594664148e-01 -9.933106442765407551e-02
-1.507711215329724137e-02 1.558473079310207857e-02 -7.660102651106588389e-01 4.121783420996669167e-01 -7.557856092459834529e-02 -9.079630473937455593e-01
9.165793318674281265e-02 1.538752359837501638e-01 -9.551719813255873381e-01 7.904636998349928723e-01 -6.120095466452201149e-01 2.472759709891247243e-02
-6.629836257652760301e-02 -1.469232731419722049e-01 -1.059881404467167609e+00 9.133662304743241922e-01 -3.507698285865375465e-01 2.066945968875208151e-01
5.215790489676767200e-02 9.723372221857189135e-02 -9.969022551596473658e-01 8.230412509552367251e-01 -5.657799131997689468e-01 4.996187592255586785e-02
2.618260745943144785e-02 6.004319280082309057e-02 -7.670445858472837442e-01 -7.830771649080908725e-01 6.218684837125606490e-01 -8.351213357798731307e-03
6.157178890502198326e-02 9.686733575723484313e-02 -1.018717107014465606e+00 -8.441150971808218939e-01 5.345839051744952775e-01 -4.110658146571857102e-02
-1.901331581084584818e-02 -3.106097982751395564e-02 -1.035807435157292122e+00 8.838903484053072246e-01 -4.459192122848121831e-01 1.410457660166973826e-01
-1.121983042157364066e-02 4.341317562150150133e-03 -8.408441141564461097e-01 -8.287902516483726112e-01 5.567994604155886984e-01 -5.550747385295601993e-02
-8.524349743614366426e-02 -1.701536524593701138e-01 -1.012954899501694372e+00 9.166465316114876805e-01 -3.529330757522295414e-01 1.876096482718860592e-01
8.778557435233923234e-02 1.347824114878272694e-01 -8.847563545182838274e-01 -2.896695346121733738e-01 8.175342980183574193e-01 4.977240523434632302e-01
4.424312873523790490e-02 9.361155271156154645e-02 -8.664663809469216327e-01 8.005803107659186235e-01 -5.987057693708141004e-01 2.495130730135951269e-02
-5.855654267399823532e-02 -1.466742073728251328e-01 -1.059550911600031453e+00 -9.151629850410560874e-01 3.558390836083316633e-01 -1.893548451651720921e-01
-8.989594670726511194e-02 -2.166041073454270938e-01 -1.078906581445157276e+00 9.360275173841254848e-01 -3.039659145926055239e-01 1.773618038518765261e-01
2.189706365336618193e-02 5.233856844694104171e-02 -9.823570296019492609e-01 8.417797083184651585e-01 -5.354834922307885048e-01 6.829606292897692776e-02
-4.053834953288304455e-02 -2.330344938239018587e-02 -8.027879895939015187e-01 8.376660027588123114e-01 -5.438432017413370456e-01 5.049989843360725567e-02
-4.322959407182053876e-02 -6.120058772783587564e-02 -9.756065693325545185e-01 8.826856647657524979e-01 -4.488456121152475942e-01 1.392969263908226119e-01
9.716304442127551844e-02 1.459910887220096654e-01 -8.051024672304210039e-01 -7.473504560660135798e-01 6.634380141958260424e-01 3.629458827181121505e-02
1.194826861976556742e-01 1.759789052055964753e-01 -8.801828409389932384e-01 -7.736690659513701940e-01 6.322922990412604971e-01 4.052930992567613244e-02
1.230201844217224116e-02 4.838567802337797458e-02 -8.843735909137984130e-01 8.151512198040282708e-01 -5.770690600766311684e-01 5.019749749019607188e-02
-5.682243360806817772e-02 -1.168434229554830700e-01 -1.004490975566338928e+00 -8.962666379524028004e-01 4.110296227933457058e-01 -1.666156141538251978e-01
4.410345893700108599e-02 6.067433834414769078e-02 -1.049969599667609277e+00 -9.481927698080564459e-01 2.116138073666719577e-01 2.369600553163064838e-01
-2.152565180932440418e-03 7.799584279900868139e-03 -9.256992129847267936e-01 -8.474028458359083027e-01 5.257590969981744689e-01 -7.406611096087402368e-02
-8.882546968454159420e-02 -1.203395894362381119e-01 -8.685347561003818884e-01 8.882710696608255851e-01 -4.439301786500559066e-01 1.179003956199559250e-01
-2.062322728166757560e-02 6.479064153988200320e-03 -8.061642129408053137e-01 8.254682598894875767e-01 -5.626826249286703829e-01 4.461407309810039995e-02
-1.184029153639090236e-03 2.519002762257697287e-02 -9.117637116791683649e-01 8.345310033258391824e-01 -5.477031600193404959e-01 5.982685845669221542e-02
-6.628194946275756116e-02 -1.430316870060667211e-01 -1.053014582825923640e+00 9.119720842049369169e-01 -3.647991913690253329e-01 1.876924814887603599e-01
-1.245434980958687321e-02 -2.936131283712140397e-03 -8.854222001191032199e-01 -8.436618559159506647e-01 5.314395919364297560e-01 -7.620126636017753030e-02
6.235204491859386300e-02 1.029014245849177028e-01 -1.038157736016541488e+00 -3.830133509831562533e-01 -5.020528695398994712e-01 7.753990515569426645e-01
2.783305860801742193e-02 7.336862860294794675e-02 -7.764307371937512192e-01 7.848991121394192083e-01 -6.196063897236546714e-01 -4.615796396042305856e-03
5.908651186082151952e-02 9.918761616952367910e-02 -9.317293697719164491e-01 -8.154296849265740832e-01 5.779404751272199103e-01 -3.254590834915124103e-02
-5.169194665076745632e-02 -8.937283073788367116e-02 -9.589043812924620269e-01 -8.893295684068353024e-01 4.335401142760884619e-01 -1.453818698145961097e-01
9.041329436246420270e-02 1.364680587251542454e-01 -7.637455648197366553e-01 -7.462310996924724771e-01 6.650699613796522414e-01 2.865470855253864774e-02
7.760239058870512137e-03 4.465702544490418591e-02 -8.822000306049545548e-01 9.574765568646228520e-01 1.134438078429823027e-01 2.652718332517631228e-01
7.219395913181261837e-02 1.296234246140521851e-01 -8.828344050164357304e-01 7.842178764856023720e-01 -6.204602083819570346e-01 -5.608209610123758224e-03
2.814298472032137483e-02 6.266241115141808760e-02 -7.560270112291876954e-01 -7.803275436359817796e-01 6.248712885223133284e-01 -2.499594814162540285e-02
3.082093288730521768e-02 6.039735522160641357e-02 -9.090067385594853278e-01 -8.216574596079196935e-01 5.688876019955975138e-01 -3.529752634900312075e-02
8.394642095189271125e-02 1.286845658249502200e-01 -9.850708214455111689e-01 -9.328607158776808239e-01 3.481654386697191628e-01 9.247546749329270399e-02
5.161598033390307760e-02 1.095316492601260822e-01 -8.533895513751179607e-01 7.689100832257784734e-01 -6.379106837108806660e-01 4.297957097555799022e-02
1.507844196442639957e-02 4.064578100009422906e-02 -1.027288634001742640e+00 8.811706909920153930e-01 -4.394178276438832631e-01 1.744998168634704916e-01
-6.102639773321589384e-02 -5.718468364795032538e-02 -8.088920801909703640e-01 8.595523778213196575e-01 -5.059141518777338087e-01 7.225358615009001839e-02
-7.805380238711133456e-02 -1.052939393810257834e-01 -8.920077652403943791e-01 8.860966640843227493e-01 -4.450712686707046783e-01 1.293996433630494602e-01
4.974688626187512286e-02 1.064978118617392333e-01 -8.465500603798838952e-01 8.555686665041110084e-01 -2.947409908981142856e-01 -4.255937090474612994e-01
-5.332648525998127942e-02 -4.777657015710826127e-02 -7.877214163239710798e-01 3.347050445058491475e-01 4.187717094156960251e-01 -8.441580353081961086e-01
-5.301969798919008853e-02 -8.852466907634191917e-02 -1.016884711971543620e+00 8.432393542715216350e-01 -5.063411672611503045e-01 1.804605600799325804e-01
3.829005847917629074e-02 6.278862951347942423e-02 -9.977420565901804483e-01 -8.414140234466972457e-01 5.371142304108920129e-01 -5.942006931463463676e-02
-4.799496675215265962e-02 -4.236302266958776735e-02 -8.747536388742978009e-01 3.346316068014662526e-01 -9.339583902565159468e-01 -1.254727579952159278e-01
6.335499417298383340e-02 9.887433781787707820e-02 -1.030829721984814151e+00 -8.536283215414126602e-01 5.207412909285246139e-01 -1.213245995189624060e-02
2.357077286622498088e-02 5.678944084289771349e-02 -7.644267348753922553e-01 -7.830771649080908725e-01 6.218684837125606490e-01 -8.351213357798731307e-03
3.776957487191955759e-02 7.635402738318933236e-02 -9.881232593832847133e-01 8.367112428030917259e-01 -5.440956234359982657e-01 6.224346330899650781e-02
-2.223049010498932831e-02 -4.713897858047952361e-02 -1.013686170102024553e+00 -8.831971549321437909e-01 4.520888157259487228e-01 -1.248138142004966838e-01
4.698721496356354776e-03 4.542091821316603800e-02 -8.636430285725003042e-01 7.804797836899038943e-01 -6.250460871326521950e-01 1.298831057226156743e-02
3.921820206143123572e-02 6.364462540658079315e-02 -1.002780585906817290e+00 -8.487374869524079157e-01 5.232572762009806144e-01 -7.646241654853681846e-02
1.005148349542089870e-01 1.653487873574051303e-01 -7.970351402532421803e-01 7.448312116589305143e-01 -6.558391331621833409e-01 -1.228881505750874098e-01
-2.375067604770957769e-02 -5.659347654516765774e-02 -1.082162037441273483e+00 8.972561758670064558e-01 -4.096000384537644146e-01 1.648003742932342697e-01
-5.930841437397283561e-02 -1.231486535873391880e-01 -1.048002708605809241e+00 9.100090766473531989e-01 -3.687420323218984497e-01 1.895067123311142132e-01
1.271600975226421003e-03 7.498614476849840664e-03 -9.623011685678678484e-01 -8.542904876169449269e-01 5.122482405374869652e-01 -8.825816015219929700e-02
-2.154747677273164894e-02 -2.447160552089368279e-02 -9.251907864064875531e-01 -8.653758264025331881e-01 4.916243872036291096e-01 -9.710891300384787150e-02
-6.575011751616902100e-02 -6.817359731667184397e-02 -8.294041496807869063e-01 8.707929510204117651e-01 -4.850298382275419207e-01 8.040952979670570877e-02
4.745951274266169834e-02 8.629436891907260598e-02 -7.494202357951149640e-01 -7.676684620995790631e-01 6.405754323828830588e-01 -1.866139665592143199e-02
-2.553569080825443538e-02 -4.297947000215812663e-02 -9.752836747827231534e-01 -8.791691313750186199e-01 4.635730296753162172e-01 -1.102800280873350303e-01
5.112982567469262496e-02 1.072529724449387961e-01 -8.436396944988794333e-01 9.505992098846512972e-01 -7.113865147646725173e-02 -3.021596174752450015e-01
-7.251079379674109371e-02 -1.366554570785912248e-01 -1.028184265598488301e+00 9.278135423888640432e-01 -3.507259705418808160e-01 1.270957282810211975e-01
-8.295221834753829793e-02 -1.158554555512243400e-01 -8.488008497897898685e-01 -7.778753308236462383e-01 5.732206177092512567e-01 -2.575424103502710893e-01
5.361085631070742347e-02 8.974584257724881053e-02 -9.602800084738000175e-01 -8.309000845932693613e-01 5.546234717275159154e-01 -4.469736045691059118e-02
-7.524620823684377569e-02 -1.002532423962037705e-01 -8.937948023289844501e-01 8.848795741116440849e-01 -4.468388269007481095e-01 1.316176359533895168e-01
1.215436532751232451e-01 1.791821779756327948e-01 -8.893355587969992149e-01 -8.249889852002625368e-01 5.625497002635581056e-01 5.413879414635906079e-02
1.055100249386961980e-01 1.668315679632078330e-01 -8.202520022027747215e-01 7.460578435086305804e-01 -6.640408069293876059e-01 -4.947222323505585939e-02
1.145866205132598133e-03 2.101292504223001290e-02 -9.656701356284812521e-01 8.554095660629676967e-01 -5.109129473142560718e-01 8.510249440895169271e-02
-4.875059862197574090e-02 -9.190457342352892356e-02 -1.032222856563865365e+00 8.959192344029545119e-01 -4.134173456861528484e-01 1.625263785132734784e-01
-6.471466309616277779e-02 -1.608857106668613590e-01 -1.056576912158173176e+00 -9.143527027347977398e-01 3.576511415110856795e-01 -1.898546706757251457e-01
-7.844545724126440744e-02 -9.463167760792381977e-02 -8.467090706325067773e-01 8.793393376067798473e-01 -4.653605124610414312e-01 1.010045681108852206e-01
8.427800236452830107e-02 1.448481377558308580e-01 -9.332452537607127674e-01 7.821933337977229339e-01 -6.230352189910661753e-01 8.393206526840515068e-04
2.339951519349232900e-02 4.549240488200090998e-02 -8.915044815213243323e-01 -8.259033762555527680e-01 5.614717437557910085e-01 -5.131368290729053372e-02
1.340722797582719061e-02 4.241013899604384463e-02 -8.005597683334930714e-01 -7.985899811733560005e-01 6.015867814907477351e-01 -1.863830209922870754e-02
1.208884620890400725e-02 4.693335524403367126e-02 -8.976421796927487318e-01 8.366292827821161238e-01 -5.452534527226999828e-01 5.244154350756877886e-02
-6.774537077930296858e-02 -1.368202131671529265e-01 -1.019739927939345092e+00 5.600525494017923878e-01 3.311377416483172742e-01 -7.594003805402029794e-01
2.326567706185106443e-02 5.537921775225952692e-02 -8.028378025684007602e-01 -7.968873370096423159e-01 6.037621796960481735e-01 -2.101909803862699391e-02
3.333755715547527532e-02 7.750376475322523495e-02 -8.986863810287403220e-01 8.172776396434296986e-01 -5.749002347863033657e-01 3.933166385391530934e-02
7.249755618982105243e-02 1.252443582082369833e-01 -1.008399637436532048e+00 7.956050014390809721e-01 -6.004851328563938218e-01 8.018906972623586482e-02
-3.995883347551061615e-02 -4.460844297855801749e-02 -9.176278009260346868e-01 5.886561693547641694e-01 7.505949956822982605e-01 3.001517395206392269e-01
2.847843599246894716e-02 4.905990495441260590e-02 -1.064044415149515865e+00 8.554354854811205833e-01 -5.044816690044978680e-01 1.171681518934040711e-01
6.690585422228076395e-02 1.047517916743798821e-01 -1.027639083246666862e+00 -8.512363222857319833e-01 5.245618565798053634e-01 -1.521782648767676903e-02
2.225948563955273268e-02 3.753925680884241667e-02 -1.067821824951160625e+00 8.617749275496704442e-01 -4.949562542503662677e-01 1.111857932705740681e-01
-8.367662617608734310e-02 -1.671312123411348993e-01 -9.777831541786640157e-01 -9.048649583127900131e-01 3.817063636575875329e-01 -1.884665995896734891e-01
-1.660177329993649600e-02 -1.319011688755010632e-02 -9.080321934417682206e-01 -8.556918852993820046e-01 5.104731216697006024e-01 -8.490341268512426043e-02
2.890119941887689045e-02 7.380223509129082982e-02 -8.421268169879785326e-01 7.999550895471700951e-01 -5.997839927123094217e-01 1.819386692430572175e-02
5.107634869021334713e-03 4.063013209527937403e-02 -9.124402903486044103e-01 5.335335840855244260e-01 -6.852342904086216047e-01 4.957780570991894842e-01
-3.570480280689677238e-02 -1.017381816768871960e-01 -1.082707993939309166e+00 -9.087493924235232612e-01 3.842197598602000719e-01 -1.629408417274416376e-01
-7.323859257174523962e-02 -8.016639289573773697e-02 -8.184024705690340351e-01 9.179050025566435345e-01 -3.935013650496838600e-01 -5.105959249273171741e-02
-9.817574746965952726e-02 -1.621771868799214700e-01 -9.302011611119017642e-01 9.423647295294622639e-01 -3.126687061943206891e-01 1.191091797706334970e-01
-3.806673742109906861e-02 -7.777111212392355533e-02 -9.941292754245768526e-01 -9.419298228568677711e-01 1.539606808556815976e-01 2.984364548162386499e-01
-2.762034439894968732e-02 -2.167381603541778876e-02 -9.320573483628028510e-01 8.665828279204613738e-01 -4.881350639239701028e-01 1.037225227292401658e-01
-6.783586332555453097e-03 1.895612278416408669e-02 -8.918864982919506579e-01 8.332371184362836747e-01 -5.495927302184874241e-01 6.052879769983378344e-02
-7.612298385450419480e-02 -1.511782372550929399e-01 -1.039211551525941024e+00 9.432339772194684446e-01 -2.934784007049429100e-01 1.554994936918195625e-01
8.039603785925875101e-02 1.400405501250111262e-01 -9.084448941168813407e-01 7.822610623869813429e-01 -6.229495240083680052e-01 1.233211635886383595e-03
-6.447715750933703804e-02 -1.595604134793942863e-01 -1.037374041840306793e+00 -8.964318847197627615e-01 3.525167614107901914e-01 -2.685922727522556674e-01
2.332299923225451474e-02 2.860543859326311264e-02 -1.053168495465821808e+00 -8.654294206127887135e-01 4.916506150571252065e-01 -9.649658362741835027e-02
-1.566843902166556793e-02 -5.275296023443889343e-02 -1.058522078197224658e+00 -7.978839043444380108e-01 -1.068746187877349374e-01 -5.932614019528426041e-01
7.774593753231201151e-03 2.357330465809727438e-02 -9.266940795762320660e-01 -8.427541687378364843e-01 5.322651100625293008e-01 -8.036954451234604169e-02
6.129861150477986659e-02 1.078649465435128768e-01 -9.531064025780665583e-01 -2.378074415973532307e-01 -6.490054406291265732e-01 -7.226614413089400557e-01
-1.133076190423829704e-02 2.906942212152086730e-03 -8.531453609996118015e-01 -8.395808647539660940e-01 5.395372227614685379e-01 -6.327366587944582843e-02
-2.137228887801740154e-02 -2.719464193997207790e-02 -1.005862833003335455e+00 8.784369068712342132e-01 -4.602047815667687503e-01 1.286862839217187415e-01
4.860429644091010526e-02 9.935847240631769106e-02 -8.710132978830490424e-01 8.028569961216969197e-01 -5.959238780903332033e-01 1.718648597658778074e-02
-8.771603889374363083e-02 -1.349307277646357439e-01 -9.022028847210529223e-01 5.089270100088092441e-01 7.982155283118524958e-01 3.222503201632594960e-01
-7.029728170147563418e-03 -5.649775871577694675e-03 -9.575675456546891562e-01 -8.568219016632531160e-01 5.082437796466761082e-01 -8.685901956980457417e-02
-9.858874606021593434e-02 -1.738323606277917821e-01 -9.523122947186095644e-01 9.593415944652403660e-01 -2.531894610390140743e-01 1.247349267353140556e-01
1.009785297861164229e-02 3.485027324111918123e-02 -8.505826179519202501e-01 -8.173006667127625802e-01 5.748949518268656744e-01 -3.892832586766564046e-02
1.167745044170499964e-02 1.883822181903349255e-02 -9.980189233388876424e-01 -8.605428907606759159e-01 5.002517574385626498e-01 -9.599016793864388608e-02
1.103800069179710491e-01 1.605140246384299807e-01 -7.980723955326454178e-01 -7.478273666589390078e-01 6.627607114931073351e-01 3.876169471407354961e-02
2.569479622810741729e-02 4.948677791982598190e-02 -1.038757676921863826e+00 8.575069465785878364e-01 -5.065844385988442777e-01 8.974432092873889377e-02
3.881110760183394820e-02 7.095477104095541943e-02 -9.230234220071438234e-01 -8.182702706292185324e-01 5.736668474072059709e-01 -3.660754553725902721e-02
5.388869800606742311e-02 1.046179163713643612e-01 -7.562191824617569003e-01 7.558333192219202079e-01 -6.536912104346910279e-01 -3.746725175941063857e-02
6.702364989613669721e-02 1.223879229647291539e-01 -8.168397931882014351e-01 7.623687398570193618e-01 -6.466607772329401316e-01 -2.497486090672203923e-02
5.300241495596910712e-02 8.862308606195605509e-02 -9.629010389350329824e-01 -8.309000845932693613e-01 5.546234717275159154e-01 -4.469736045691059118e-02
-4.027552145341892903e-02 -8.004375958951585879e-02 -1.001697743631382309e+00 -8.891798560996636569e-01 4.331385591983986094e-01 -1.474793953137760738e-01
-8.514640009471034776e-02 -3.109671103563576566e-01 -1.137031231944845455e+00 -9.825854118763711620e-01 -6.021043075748443857e-02 1.757857002026627091e-01
6.891008650501262434e-02 1.216019041217791113e-01 -9.934475004756881944e-01 8.187971937704062730e-01 -5.719145464947545943e-01 4.984884132461579048e-02
1.166040682004170076e-01 1.828830774800147829e-01 -8.929597493227684479e-01 6.999080726976709688e-01 -7.142325239250165714e-01 7.691165921274801046e-04
2.402632924902214223e-02 5.217748438052918769e-02 -8.869200966260192276e-01 -8.233415936505944499e-01 5.668644445526908049e-01 -2.780866172379657317e-02
-3.062444814898836187e-02 -6.423597871269695787e-03 -7.796325063971157876e-01 8.247675587228990857e-01 -5.644445772324803157e-01 3.407041694954517780e-02
-7.016658087680316402e-02 -1.624910409137399203e-01 -1.034977050773576268e+00 1.077320088223446964e-01 5.053925480427472472e-01 -8.561379483809614666e-01
9.283684495033109330e-02 1.502868208611272127e-01 -7.813434790455816570e-01 7.456309622352118582e-01 -6.651623366940218052e-01 -3.991909317533010731e-02
2.235019179400972444e-02 4.129922589820840539e-02 -9.677052584694820769e-01 -8.429443164288087376e-01 5.339765666248975640e-01 -6.568032959611976029e-02
-4.646514550519460079e-02 -3.516286624534728511e-02 -8.236446298746532557e-01 8.495573916088581257e-01 -5.222647260992344664e-01 7.410664096587112060e-02
-8.675658309492392806e-02 -1.283602227000370521e-01 -9.089554429154602655e-01 8.931556518398555689e-01 -4.258179958443224500e-01 1.447481122559012567e-01
5.868595174524837178e-03 1.177319144460155925e-02 -9.826303428352827218e-01 -8.618493175571156906e-01 4.975815458412544690e-01 -9.812420223656131979e-02
4.362916689107766699e-02 7.684597782732587035e-02 -9.385519136937359175e-01 -8.179793904214017752e-01 5.743674482339146126e-01 -3.180803758632811534e-02
5.528094779864786007e-02 1.048264292689023575e-01 -7.421642999940837315e-01 7.483983674245022755e-01 -6.528132556054467850e-01 -1.171952940273514737e-01
1.886651028943187730e-02 2.342704082018548517e-02 -1.038888176101736116e+00 -8.675380219815196359e-01 4.867729048803690062e-01 -1.021269772916025276e-01
2.147972522302758064e-02 5.745925443174824954e-02 -9.332794305105468480e-01 8.327588330475843570e-01 -5.509759808967527039e-01 5.420511466722435778e-02
-1.307404176164081618e-02 6.757078632325968191e-03 -7.850019630399752701e-01 -8.212627002606281978e-01 5.684910546918444663e-01 -4.843034065516939324e-02
-9.819779894656768815e-02 -1.547839536841237040e-01 -9.112061183282236243e-01 9.344753252732229676e-01 -3.303681942746822808e-01 1.327129333079112572e-01
-3.747348328293597774e-04 1.738241402202550523e-02 -9.981768931395302857e-01 4.655541325899762994e-01 -7.687245469616965643e-01 -4.385452320193767850e-01
-8.526408154267135775e-02 -1.649650142703161515e-01 -9.652945034311011252e-01 -9.010476329129986084e-01 3.939748410160228143e-01 -1.813752680722521549e-01
-4.599865490224448045e-02 -7.194226379883530975e-02 -9.763722898199970190e-01 5.539420848504394979e-01 3.186355394477473069e-01 -7.691680958232679499e-01
-8.381889306464598496e-03 -1.353346708824682346e-02 -9.847454364767377344e-01 -8.652557187830123286e-01 4.917860332169322612e-01 -9.736035459080459586e-02
9.641352447947381180e-03 4.685233016517075660e-02 -8.514847214891904104e-01 8.174701308463673266e-01 -5.746453536049886957e-01 3.905512455774034358e-02
2.560625781236389870e-02 6.905237025842428378e-02 -8.542343456713999972e-01 8.010705433274171172e-01 -5.981847559791144686e-01 2.147049900035000528e-02
6.758916486093852205e-02 1.070472269458787040e-01 -8.487216071901878545e-01 -7.733321085902309378e-01 6.339676237338077724e-01 6.519346646449262692e-03
3.718737553015702413e-02 7.391456081701432146e-02 -7.518104722932835715e-01 -7.676684620995790631e-01 6.405754323828830588e-01 -1.866139665592143199e-02
2.264996408651340221e-02 5.205922323639899235e-02 -8.605871734695856867e-01 -8.193158893895765571e-01 5.723500740620449667e-01 -3.371744526115189738e-02
-9.004147849591001562e-02 -1.728573571868072256e-01 -9.588678996206694283e-01 -8.810435814156015732e-01 4.301493965377199968e-01 -1.968088013900943789e-01
3.769920677741289694e-02 8.600116217172928956e-02 -8.116809530716806442e-01 7.813945518157909831e-01 -6.240362433445665324e-01 1.149515115246026739e-03
-6.611855639437315413e-02 -1.089803633893974971e-01 -9.292533582853320651e-01 -8.864977501647113289e-01 4.392618293171542954e-01 -1.455018359260537020e-01
-3.731223094172329835e-02 -4.004529673597059108e-02 -9.689985592739817077e-01 8.573870162783898685e-01 -4.893732998804690149e-01 1.593777828975565802e-01
-8.909548602324596223e-03 -3.515737097183270488e-02 -1.062430520509243248e+00 -8.875736069309967391e-01 4.424328636367927947e-01 -1.283209002993959680e-01
-8.490377913193566939e-02 -1.238679299840005354e-01 -8.990143989978639505e-01 -2.209536816635329637e-01 -9.314119793247881418e-01 -2.892251637212959192e-01
8.460940785021396626e-02 1.453486429992546791e-01 -8.975929563875705286e-01 7.831101343860644715e-01 -6.218830118977142218e-01 -1.921844612691946629e-04
3.745865017612590858e-02 6.979097638293858819e-02 -9.112651659926945813e-01 -8.171491012092818584e-01 5.750983415443354785e-01 -3.910554878553317709e-02
-7.586677328319045566e-02 -2.132979944047438126e-01 -1.084377675205900671e+00 -5.633883544975475388e-01 -3.449795117485628393e-01 7.507214519981887380e-01
4.427975148404043187e-02 8.077083855885709707e-02 -1.031712812169299998e+00 8.418247905098381612e-01 -5.335219353096274375e-01 8.176409130258022184e-02
-5.959131210352059532e-02 -9.818045923193795266e-02 -9.867603596651447484e-01 8.978164133959540827e-01 -4.111881218873768562e-01 1.576388792638311054e-01
-6.622737122329769299e-02 -1.281617880364801787e-01 -9.807204421386336302e-01 -9.043226067748300068e-01 3.938534058396336301e-01 -1.645603767147398866e-01
-7.262296868917086923e-02 -1.257778618800805548e-01 -9.451742293933452776e-01 2.061491613196676786e-01 9.379225339293536523e-01 2.789334035836121273e-01
-1.118241138437115617e-02 4.050793557699840751e-03 -8.443170904746598593e-01 -8.287902516483726112e-01 5.567994604155886984e-01 -5.550747385295601993e-02
-2.988160491753750689e-02 -3.602751925624929352e-02 -9.771296495812511473e-01 8.734755911269416195e-01 -4.716131593197676053e-01 1.209190624420613536e-01
-3.622191742772976064e-02 -1.018640789109304806e-01 -1.080120825565836995e+00 -9.087493924235232612e-01 3.842197598602000719e-01 -1.629408417274416376e-01
-5.112088054098593015e-02 -9.086933274605585309e-02 -9.669984725696354477e-01 -8.910873824704425017e-01 4.312225664814003379e-01 -1.414580325014078988e-01
3.897550955131078021e-03 1.238041712007795746e-02 -1.034608646427118028e+00 8.698616971764412398e-01 -4.817686887360525527e-01 1.060167832886188821e-01
7.844393539232837054e-02 1.344115941567862460e-01 -9.965660928102786364e-01 7.859070878953696715e-01 -6.151748180170433233e-01 6.252993262044320710e-02
-4.189807093724105119e-03 1.119838955741333381e-02 -8.771396539672210446e-01 -8.314660610765218784e-01 5.526312039341410021e-01 -5.712216484163855357e-02
-5.970710517267317080e-02 -1.552289814858975603e-01 -1.085889894213027285e+00 -3.000210237585259829e-02 4.297333099864864003e-01 9.024572877101093571e-01
-7.459527240620428268e-02 -1.455174746399415242e-01 -1.030464598614333482e+00 9.572844726699537565e-01 -1.004167371727791858e-01 -2.711510967718581133e-01
2.322646844603180535e-02 5.360154877503097576e-02 -8.489982617875641013e-01 -8.171771758245192085e-01 5.754510960000622788e-01 -3.282528634741602169e-02
1.629856782011998226e-02 4.774548967194838095e-02 -7.588267242992262629e-01 -7.820224314153733092e-01 6.228815110834613478e-01 -2.143688208605628101e-02
-5.880645636634607848e-02 -5.686500700507469280e-02 -8.323223281513525418e-01 8.566144673593849568e-01 -5.098519101740343062e-01 7.913712152009047540e-02
2.558766392048998292e-02 6.120256123236853668e-02 -9.579953474760773968e-01 8.372338143339913552e-01 -5.425181885457976971e-01 6.865533652049179980e-02
-4.523252804996601151e-02 -6.481621245994563518e-02 -9.910594109657798745e-01 5.664655298880181267e-01 -6.037089794726044900e-01 5.609387413549120627e-01
4.839383571990189120e-02 9.842440422789537624e-02 -7.621956407380061638e-01 7.709537340704039066e-01 -6.364825820543184021e-01 -2.280926707214817745e-02
-6.062498596496778552e-02 -1.225764668179398220e-01 -9.980098917286025495e-01 -9.057522431934520446e-01 3.891407281099238946e-01 -1.678760485480523257e-01
5.649235330587895620e-02 8.997314603937037192e-02 -1.007744521235263591e+00 -8.368569091403204041e-01 5.444733706322599787e-01 -5.673854330572018073e-02
1.072748138878537733e-01 1.632407377958609851e-01 -9.359355780368681099e-01 -7.973594017880355489e-01 6.032986649834061188e-01 1.577039027627060580e-02
4.262145880025215022e-02 8.043752728982188349e-02 -8.023535175381019124e-01 -7.827261208935578640e-01 6.223662200425654767e-01 -3.283608570049879514e-04
9.619242071015834949e-02 1.588616264856385629e-01 -8.723310757490578826e-01 7.656078476255244736e-01 -6.428122554249140475e-01 -2.523941223061421449e-02
-1.410703711987202486e-02 -2.251111197675228007e-02 -9.486428624300778933e-01 -8.859129484255831022e-01 4.620957917110836144e-01 -4.032030623392410945e-02
-5.241607819760316783e-02 -1.134826225015291845e-01 -1.021779846839355299e+00 -5.578327081151472910e-01 -3.324688006097786808e-01 7.604519487633759622e-01
6.879284655023281542e-03 3.122476352930483867e-02 -9.615814241479355706e-01 8.532015127818222133e-01 -5.145026658023224009e-01 8.563985911428007025e-02
1.233261229525183383e-01 1.744601144385894975e-01 -7.929600020115122883e-01 -7.507079125353619542e-01 6.581355236311942081e-01 5.740437780773596788e-02
-5.209849290068874206e-03 -1.494087289416131357e-02 -1.015241244810121790e+00 -8.724607664665522400e-01 4.758896740697389216e-01 -1.110910846575629690e-01
4.761364000522450707e-02 8.087839782670531996e-02 -9.595041738025384959e-01 -8.280403844411228231e-01 5.583765591425530195e-01 -5.064326149371380092e-02
-5.258489976764010865e-02 -6.840861065891142012e-02 -8.738536824099432110e-01 -8.659672217938094718e-01 4.887624870388036502e-01 -1.058867415796443945e-01
-1.645744899083406709e-02 -7.366129327396109261e-03 -8.710117700951818254e-01 -8.406904562814208060e-01 5.368288486135009974e-01 -7.109390982101936041e-02
-4.103557565472174679e-02 -5.560472984444879418e-02 -9.714783543972135282e-01 8.826856647657524979e-01 -4.488456121152475942e-01 1.392969263908226119e-01
-3.954728987313049782e-02 -4.266551949294006274e-02 -8.828449362361124875e-01 -5.919626961149215827e-01 -7.455092058977574876e-01 -3.062616370524521847e-01
1.767950308904192580e-02 5.870765990773065685e-02 -8.442054363145216067e-01 8.173610910351709613e-01 -5.751815322923320428e-01 3.297046817440616590e-02
-2.296454098856596029e-02 -1.879323414928401811e-02 -8.781739526030428733e-01 -8.515345573370073362e-01 5.169714549378529034e-01 -8.734650788844738889e-02
4.055765395544116275e-02 8.113825038390831690e-02 -9.837813145932793324e-01 8.367112428030917259e-01 -5.440956234359982657e-01 6.224346330899650781e-02
-6.947024964657119717e-02 -1.142522206115121342e-01 -9.435237316649556227e-01 -5.125509498344634762e-01 -7.918936203070658930e-01 -3.319578556695982341e-01
-4.950453908295724542e-02 -6.218349197447736038e-02 -8.456821725055491124e-01 -3.097237847607476335e-01 9.410747504074393754e-01 1.358289045050930510e-01
6.007183549174267834e-02 1.024529125861399492e-01 -8.484736591869680433e-01 -7.844747582816037346e-01 6.201257658681252893e-01 6.586966334395970638e-03
3.489377718783371468e-02 7.783371316647529070e-02 -9.272120013056635024e-01 8.183960283275973913e-01 -5.734726079409582233e-01 3.683895708363812277e-02
4.813386128594254396e-03 2.412925911377308916e-03 -1.019062332729755660e+00 -8.682224938053069163e-01 4.835351357076092538e-01 -1.112810576276011681e-01
-9.671399592607552234e-03 1.655468525731126905e-02 -9.262897804943406310e-01 8.161316250813120954e-01 -5.641127989690496447e-01 1.253232643264650392e-01
-6.913617768467666957e-02 -1.434129995572265559e-01 -1.039863826927155621e+00 9.168531974700221410e-01 -3.557580149566647587e-01 1.811531095043361350e-01
-9.635242895631936089e-02 -1.487769225043178711e-01 -9.070324331428004649e-01 9.076893213991236165e-01 -3.963638270054092305e-01 1.378252968784196841e-01
-1.214610651496278275e-02 1.360326004290510725e-02 -7.849216134254848320e-01 3.991008638035006273e-01 8.531371920763362038e-01 3.359693914739916298e-01
7.429867781781517022e-02 1.321807227010172447e-01 -8.612861669451647995e-01 7.822227031134111330e-01 -6.229966882315364218e-01 1.664087283188879322e-03
-3.877709799846075500e-02 -2.543046845206223261e-02 -8.429238871697731783e-01 8.490665583595551347e-01 -5.228882996388058979e-01 7.532466778087018588e-02
5.433775584853456526e-03 1.554973469985730487e-02 -9.558602231549345740e-01 -8.542904876169449269e-01 5.122482405374869652e-01 -8.825816015219929700e-02
-7.431728811485932562e-02 -1.476361101338213300e-01 -1.022907416801226210e+00 9.112809277600224522e-01 -3.634978328380630841e-01 1.934848733696366008e-01
-1.917480393355562585e-02 1.061271533579298716e-02 -7.718016233161583139e-01 8.098177281801521854e-01 -5.861715549256339974e-01 2.445721409321817419e-02
3.917422535256376293e-02 8.352026601554567165e-02 -9.331706317946070195e-01 8.149808121851336296e-01 -5.781964035466048424e-01 3.866774748845919901e-02
-3.329088832254541858e-02 -2.255801387786596571e-02 -8.829913711032433277e-01 8.528159464237047294e-01 -5.149800489829563510e-01 8.660548871146940553e-02
-6.410273645386510566e-02 -1.689379723191585803e-01 -1.077846345552685214e+00 -8.922062494340410321e-01 4.506454060551674523e-01 2.977795278750632393e-02
-4.924743557685423712e-02 -1.024386462951665799e-01 -1.054500954102072674e+00 9.018462257147705774e-01 -3.959266329743630353e-01 1.729609391325309942e-01
-6.038397432185671487e-02 -1.030277381019894523e-01 -9.462217560840313624e-01 -8.864977501647113289e-01 4.392618293171542954e-01 -1.455018359260537020e-01
-2.829204818917638309e-02 -5.419842600555993539e-02 -9.968739047288066590e-01 -8.861389426362820121e-01 4.450152318327044720e-01 -1.293028142784858059e-01
2.984774236025652255e-02 5.521596779181428549e-02 -8.933118844391356728e-01 -8.404449780908213041e-01 5.414399487397923982e-01 2.224906089186276872e-02
-1.248068150570693161e-02 2.011816547155976728e-02 -7.656355297825500061e-01 8.098177281801521854e-01 -5.861715549256339974e-01 2.445721409321817419e-02
-3.325831674128457149e-02 -1.135539961361137565e-02 -7.948745148202549515e-01 8.376660027588123114e-01 -5.438432017413370456e-01 5.049989843360725567e-02
-5.792723855679324241e-02 -8.980791371266784451e-02 -9.196108798752216096e-01 -8.793865680369682414e-01 4.587909444830857719e-01 -1.272404543236180796e-01
-1.509983140461802591e-02 -2.825563625929379541e-02 -1.051798216398443397e+00 8.866509639924201602e-01 -4.429114305371649740e-01 1.329644040743013234e-01
-2.649871391675819639e-03 -3.219636307526031749e-02 -1.095026262914470028e+00 -8.970007546120862818e-01 4.273254118118455236e-01 -1.130603318816298525e-01
-8.214908139456877922e-02 -1.783455023503150993e-01 -1.053931763839827562e+00 9.432339772194684446e-01 -2.934784007049429100e-01 1.554994936918195625e-01
7.749774187844609731e-03 1.259430539547339023e-02 -1.062616476150991751e+00 8.715687567499295074e-01 -4.740651528060920716e-01 1.250205309232002848e-01
7.457014018320336224e-03 4.716344030299138290e-02 -7.560559015979824160e-01 8.009989186327782784e-01 -5.986655939774816471e-01 -4.888115267845159848e-04
-1.585651325205010218e-02 -3.234560914824059080e-02 -1.004874900430874574e+00 -8.800524971786917172e-01 4.578993551401938644e-01 -1.258403066260711245e-01
4.651595750426953252e-02 6.953430844243821407e-02 -1.048708357707674121e+00 -8.618739120991431024e-01 5.025611720889265888e-01 -6.786477695773085461e-02
-6.931407117998650280e-02 -1.140416437807009881e-01 -9.250122291737696845e-01 -8.923941667253255661e-01 4.265204293307675032e-01 -1.473532305655692320e-01
-6.111143192135019137e-03 2.600497081736332858e-02 -8.282439287444125497e-01 8.157714538286298112e-01 -5.771681909603899596e-01 3.733382463442983662e-02
-3.534175967853341732e-02 -5.478544570748593995e-02 -9.491381964664926674e-01 -8.744680367189444636e-01 4.696033612159330461e-01 -1.215661790615004539e-01
-1.509940056338665570e-02 -5.756039353354564479e-03 -9.861626161609124974e-01 8.028649794010289664e-01 4.289286737421858092e-02 5.946158648907740041e-01
-9.307334929697176629e-02 -1.750820413129280662e-01 -9.843579841177678702e-01 9.233399863067062174e-01 -3.375999376616955483e-01 1.829468550643900682e-01
-5.941792058287719003e-02 -1.176753574559972620e-01 -9.730189494781126269e-01 -8.711372322920296618e-01 4.720432543145878235e-01 -1.352593382013822232e-01
4.385468941463942227e-02 8.739862977151642565e-02 -7.864801693638412416e-01 4.292287349409666386e-01 8.353634470282931268e-01 3.434102567920553351e-01
3.508796758630006174e-02 4.791428340531873886e-02 -1.061823832508751453e+00 -8.679454925065523963e-01 4.896187586061535590e-01 -8.333122619119079366e-02
-2.576927402670246836e-02 -8.162357807455319914e-02 -1.107082623332928506e+00 -1.422774916001376677e-01 1.764690986123240435e-01 9.739690819625265172e-01
4.033512684833078649e-02 6.992682174666328687e-02 -9.609105301924500964e-01 -8.310254657080913265e-01 5.539683288380062853e-01 -5.015741210505781505e-02
-1.465284100180080928e-02 -7.407078826883233859e-03 -9.729705269250961130e-01 8.645297801430286144e-01 -4.918114499773293402e-01 1.034879554201533353e-01
-2.896451767383663098e-02 -5.232153337773692153e-02 -9.858105504629326443e-01 -8.859131184212988286e-01 4.453025713453843126e-01 -1.298597957885297971e-01
-6.212232699205554737e-02 -1.292700563369580946e-01 -1.005344668894365467e+00 -9.046309215333201426e-01 3.887566093989805460e-01 -1.746745386551356860e-01
-8.111188454379092416e-02 -1.066756836185843993e-01 -8.751017880272305982e-01 8.868088905617396156e-01 -4.462661757897693482e-01 1.200686968640501395e-01
3.720923563052396660e-02 6.896463997476341701e-02 -8.866639920219602233e-01 -8.719943957388498479e-01 2.664851541360230280e-01 4.106232292809771645e-01
-9.307791929614002424e-02 -3.417780429997749891e-01 -1.159449929802917278e+00 -1.025809599520991627e-01 -3.595652589154211820e-01 9.274642695200672193e-01
8.860899071160030505e-02 1.386399350262108310e-01 -9.550455695638954134e-01 -8.032098087997096014e-01 5.956611599314145522e-01 -6.464177990712707822e-03
7.300229713988988511e-02 1.298758327255631617e-01 -8.302397919470849708e-01 7.625344352744487519e-01 -6.464188857483922357e-01 -2.615070110885473614e-02
8.239590589372416734e-04 1.014522886359430463e-02 -1.019720557456124777e+00 8.680386812069880165e-01 -4.839898519785290620e-01 1.107369455522166368e-01
-3.597253031361850178e-02 -9.016854041315591761e-02 -1.053779859714153444e+00 -9.047541978094603143e-01 3.939251553188037880e-01 -1.619963380858224777e-01
-3.649446239124359836e-02 -1.090224331604156688e-01 -1.102344108505997955e+00 -2.350019522855761878e-01 3.339916563768455804e-01 9.128108543902284655e-01
1.004251301167430679e-02 4.000137041220125367e-02 -9.341943109284854829e-01 8.438747753417252806e-01 -5.312198158338089504e-01 7.537155171181333935e-02
3.469267379819347685e-02 7.598769902686434985e-02 -9.457536876310888019e-01 8.298902611771967752e-01 -5.554150108405020436e-01 5.288024334559306150e-02
7.370357737707158852e-02 1.197794233075585718e-01 -8.757611704560982480e-01 -7.834476277452094850e-01 6.214540778189657777e-01 2.154934472900933099e-03
-6.809577450706198742e-02 -1.064906826654666433e-01 -9.597504620582344437e-01 8.975194936115684641e-01 -4.133896150981274387e-01 1.535180273331299972e-01
3.050986179874078108e-02 6.279027516139888687e-02 -1.005509910050584432e+00 8.475109083492377016e-01 -5.248586925185064755e-01 7.904816959812546728e-02
7.350803430755051271e-02 1.195450559824288300e-01 -8.801870082579348331e-01 -7.833706305446386242e-01 6.215533636509632531e-01 1.367967203009805895e-03
5.127016025655519588e-02 1.018873848685268174e-01 -7.623851975145224946e-01 7.661586246555807111e-01 -6.423638609405910582e-01 -1.922581658515397363e-02
-8.137375247755006258e-02 -1.362018585721923303e-01 -9.165329850098051789e-01 -8.859219006166298982e-01 4.361342871844064994e-01 -1.578900552598796747e-01
4.421665345701516342e-02 7.811589678317285013e-02 -9.313402976008112732e-01 -8.148395807108330668e-01 5.784119038534236701e-01 -3.842040067010421556e-02
-5.870816802356897818e-02 -1.270318342266255895e-01 -1.017963975592743875e+00 -9.085663449248606582e-01 3.818882403094365219e-01 -1.693179517453518024e-01
-5.371879144288618096e-02 -9.306270117523454677e-02 -9.575092544214967027e-01 -8.893295684068353024e-01 4.335401142760884619e-01 -1.453818698145961097e-01
-2.778237646950164341e-02 -7.338199059614104736e-02 -1.038459161796063901e+00 -7.988852679832260106e-01 -1.079095569418918321e-01 -5.917244765260042394e-01
-6.932983116250931825e-03 1.578467951306740044e-02 -7.770174344613864914e-01 -8.083080634881656401e-01 5.874828748394520517e-01 -3.875495155956762416e-02
2.409373320498613136e-02 5.534847347832886483e-02 -9.858324480487037356e-01 8.417797083184651585e-01 -5.354834922307885048e-01 6.829606292897692776e-02
8.695962318990255180e-02 1.354092709477231760e-01 -8.362669535246319841e-01 -7.627405020671350622e-01 6.463535461702691887e-01 2.130774177364865365e-02
-5.417144092498040082e-03 -2.397062185573553550e-02 -1.047873003807392678e+00 -8.840493535053357554e-01 4.491062681453031891e-01 -1.294615791630753243e-01
1.204093975462873500e-02 3.938966524530298358e-02 -8.227818240437092534e-01 -8.141077382657286865e-01 5.796148583564798562e-01 -3.571003315956893659e-02
-6.704037262335814373e-02 -9.835296713307792316e-02 -8.877036267505968858e-01 -8.752667291853833964e-01 4.667919919075333435e-01 -1.265440202937999636e-01
3.564751021292474065e-02 5.862824474582699341e-02 -9.974744189876494360e-01 -8.487374869524079157e-01 5.232572762009806144e-01 -7.646241654853681846e-02
-3.917327137016882871e-02 -5.732588661578234823e-02 -9.655197412064014939e-01 5.548291026884981658e-01 3.121172862037149831e-01 -7.711987204752768221e-01
3.071001688679820055e-02 3.910248404380793630e-02 -1.028867910223352222e+00 -8.775278247752642535e-01 4.485274450864446538e-01 -1.696114611381540349e-01
-1.479289017573820648e-02 -4.658798978303819310e-02 -1.104382333787982562e+00 8.816775112947012882e-01 -4.211177231961849565e-01 2.128488414045129340e-01
2.922014813477736769e-02 6.642818880611764398e-02 -9.602751737701761270e-01 8.298902611771967752e-01 -5.554150108405020436e-01 5.288024334559306150e-02
-1.546975211139644570e-02 -2.881524554830473817e-02 -9.937749512132107998e-01 -8.759005102973440593e-01 4.690652695959219853e-01 -1.130312740782704189e-01
-3.405636297780972183e-02 -9.117831808825409279e-02 -1.104832977641422298e+00 8.792500016624300585e-01 -3.534928917814407212e-01 3.193152204900535085e-01
-2.610317735567773811e-03 1.408917056342966212e-02 -8.721635821864283100e-01 -8.314660610765218784e-01 5.526312039341410021e-01 -5.712216484163855357e-02
1.423004806418775615e-02 1.815803819701608188e-02 -1.086139828462369117e+00 8.667005374164120646e-01 -4.668005225531836055e-01 1.758620214434529760e-01
9.396194134185308078e-02 1.487358640373552809e-01 -8.009719420252097155e-01 5.197123171379260942e-01 2.615960872025114292e-01 -8.133059661501712556e-01
-7.105314282484610777e-02 -1.976817532266738620e-01 -1.071494558016033327e+00 -9.672990406035065769e-01 4.829676362483788232e-02 2.489979692103976017e-01
6.823266251411919114e-02 1.078560357769693945e-01 -8.438109917451923625e-01 -7.917447042504249799e-01 6.108492348363233626e-01 1.880316804496139560e-03
-4.729971685944525661e-02 -1.055947266933947443e-01 -1.071395375442812936e+00 9.056919350690394444e-01 -3.834546637512083467e-01 1.807889366038384071e-01
-1.441018429616624727e-02 1.608686669342407685e-03 -8.208792612448722048e-01 -8.257575844719187153e-01 5.611369841215414489e-01 -5.700611140994614467e-02
1.101358905717240554e-03 5.927766948881418863e-03 -9.700030783488677866e-01 -8.562452321155556989e-01 5.097596163834025029e-01 -8.360165060586052799e-02
8.600493796913341593e-02 1.463256971058538858e-01 -8.598123526408293360e-01 7.626925683462735250e-01 -6.464617824846197180e-01 -1.967765169356309324e-02
-8.296523740769287669e-02 -1.514482620176308691e-01 -9.874061203621626870e-01 9.081121519470418679e-01 -3.754445610016405865e-01 1.854014592725690691e-01
-3.381285369264408914e-03 2.958714869670365719e-02 -8.325140767978863598e-01 8.157714538286298112e-01 -5.771681909603899596e-01 3.733382463442983662e-02
-5.703894378958412892e-02 -1.067156724040031479e-01 -9.771211222681234210e-01 -8.991718372858268360e-01 4.102834095467490783e-01 -1.521759865508515164e-01
-7.330635224830664431e-02 -2.098196646657433384e-01 -1.077893427368151968e+00 -9.672990406035065769e-01 4.829676362483788232e-02 2.489979692103976017e-01
4.866067995826453378e-03 3.750693724195223316e-02 -7.441755528822896482e-01 1.597954000644162542e-01 1.680205404812925019e-01 -9.727458702531854851e-01
-3.227398946256360146e-02 -3.852912176896323287e-02 -9.015094703642673180e-01 -8.626300954845732560e-01 4.965926092175367290e-01 -9.625538340682465721e-02
7.816076404374508457e-02 1.252844983045981186e-01 -8.511982369144370786e-01 -7.839633435929489469e-01 6.207953603803323395e-01 3.820527819186636271e-03
9.918070723180376011e-03 2.976673668176486529e-02 -1.000687635320532287e+00 8.594434204752983142e-01 -5.022033024270298185e-01 9.564962118641721911e-02
1.239706904525160192e-01 1.869635006740878458e-01 -8.280224148677004514e-01 6.967227634527161095e-01 -7.154198630242236678e-01 -5.245770179117250492e-02
5.504510838057807831e-03 -2.937635717359601047e-03 -1.047424619623839037e+00 -8.768551480933880482e-01 4.664937737394041495e-01 -1.162265388131801941e-01
3.231561161088604243e-03 4.103309256981726993e-02 -7.903538421940835557e-01 7.987294972505983859e-01 -6.015606216930708960e-01 1.249034227121942169e-02
6.792642224442034526e-02 1.215447602248346526e-01 -7.703912752266161013e-01 7.508062391483331099e-01 -6.593350868706856494e-01 -3.958831238082199250e-02
8.271333412206871571e-03 4.645943069778562390e-02 -8.257858987819421959e-01 8.153275212695274554e-01 -5.780687359157948846e-01 3.282635552727845157e-02
-2.061508843231833407e-03 -2.217462933840018673e-03 -9.837562509435686664e-01 -8.652557187830123286e-01 4.917860332169322612e-01 -9.736035459080459586e-02
9.257485767585964254e-02 1.474788210915446152e-01 -9.851398906460810956e-01 -5.166723370543075955e-01 -6.314271994240067132e-01 5.782295287776262338e-01
1.269344864101761838e-01 1.816006515104550967e-01 -8.294822187758802423e-01 -7.708934103232174539e-01 6.345949772598860061e-01 5.488683591503772108e-02
2.398660450114437764e-02 6.743094642901199809e-02 -8.360776211036501371e-01 7.999550895471700951e-01 -5.997839927123094217e-01 1.819386692430572175e-02
-6.499665590771259993e-03 1.071903995634186993e-02 -9.514525857382291063e-01 8.585116213958652320e-01 -5.053011421933152336e-01 8.734158016874690733e-02
3.158327723763392630e-02 6.592141846342335076e-02 -8.183976565418493720e-01 -8.002071303973802285e-01 5.994434443615039854e-01 -1.833317957165811474e-02
-2.433125285764423367e-03 2.740581698077466932e-02 -8.737135311154089479e-01 8.315231823868818317e-01 -5.525410612474085381e-01 5.716268703254029360e-02
6.255365248445074466e-02 1.158849698216731366e-01 -9.427904192703878694e-01 8.084695950183226065e-01 -5.875538776233845129e-01 3.401991799863933463e-02
8.513581557347114914e-02 1.344613562913534732e-01 -9.278213052629021851e-01 -8.006569501655688148e-01 5.990098044969123237e-01 -1.164913164750051855e-02
3.394091422450213474e-02 6.615118154604537892e-02 -1.050074831454670177e+00 5.808503801015181267e-01 -7.127177920008991308e-01 3.932507913549380674e-01
-7.867025657483437198e-03 5.291449463190594539e-03 -8.781498941912458944e-01 -8.429385526842159138e-01 5.340193718863577299e-01 -6.540570960351380081e-02
-3.569086502516449419e-03 1.841223960719457452e-03 -1.021578299035495796e+00 8.680386812069880165e-01 -4.839898519785290620e-01 1.107369455522166368e-01
-1.388323562623540106e-02 3.115934452663133322e-04 -9.391338264312379946e-01 8.590995215087061654e-01 -5.041611032457329333e-01 8.814530116550625682e-02
-9.539405575602585841e-02 -1.846258801142147687e-01 -9.837109278158833181e-01 5.935568039204510704e-01 8.023711868743742537e-01 -6.237626947443241504e-02
