1.229349079314293047e-02 1.277727360627352038e-01 -7.946037019867456808e-01 -2.355357269322317648e-01 -4.859276519025724356e-02 -9.706501246637068148e-01
1.463045492178869644e-01 4.898898867396873913e-02 -8.270131750376156221e-01 -2.848570278503007036e-01 3.664543384346190258e-02 -9.578692947697602378e-01
9.965799472121525393e-02 -1.119342666664661506e-01 -8.348441527161716280e-01 -3.669994073856641115e-01 9.241996110823583743e-01 1.056717268420876710e-01
9.063000718591324167e-02 -1.354470690462691029e-01 -8.438414429261642535e-01 2.492793191067647907e-01 -2.124550008546587099e-01 9.448400360259480157e-01
-5.333357102269749989e-02 2.025953877750575338e-01 -7.870238529477741052e-01 -2.116638188839344292e-01 -1.458178407596417703e-01 -9.664034277110490345e-01
3.013996882333568397e-02 -1.409351527146759098e-01 -8.246108364886137743e-01 -3.413807072139588561e-01 8.900448606014278452e-01 3.021247405610498205e-01
4.781879399071030379e-02 1.920046969815925042e-01 -8.084744101310229469e-01 -2.202742333061601943e-01 -1.127613915398303079e-01 -9.688984109386207244e-01
6.486511397444154337e-02 -5.222428591960096012e-02 -8.218847242481175375e-01 2.499308794136086143e-01 -1.218546943190446236e-01 9.605654527349776206e-01
1.070418000359615179e-01 1.675897795209065240e-03 -8.302035675749483978e-01 2.883271539614254420e-01 -1.707128583939913902e-01 9.421913671157561287e-01
1.281146204272900768e-01 5.391790534265315619e-03 -8.318062325016549741e-01 2.420265858530634140e-01 -7.574289654407925787e-02 9.673087125439441269e-01
1.367077154790122435e-02 -2.439094827884328298e-01 -8.494406488044689008e-01 8.683929113003538980e-01 2.041078377548489753e-01 -4.519222744790700186e-01
-5.370434100231543523e-02 1.346733744137366406e-01 -7.870420464611920242e-01 2.254797908867641754e-01 8.086805033827658418e-02 9.708857926327622012e-01
4.387844332198586467e-02 -1.389789447337897166e-01 -8.318599893818062752e-01 2.555676182291869991e-01 -2.016058616969596262e-01 9.455370267959297692e-01
3.241603998468938624e-03 7.171540685442356899e-02 -7.982909959353373663e-01 2.386735229520611234e-01 9.525994126836646522e-03 9.710531421490522508e-01
1.278769672255443135e-01 1.180951952632455643e-01 -8.280332480776313453e-01 4.024314131828959917e-02 -5.016362328603313908e-02 9.979299075965470944e-01
-6.863723460799035607e-03 -1.983084299983052870e-02 -7.921264537264159911e-01 -2.480410911082641945e-01 8.184881950360678449e-02 -9.652856509177415445e-01
1.295539031253967743e-01 3.180934307292462154e-03 -8.251840005241231069e-01 -2.531660889589207875e-01 7.248836058131703786e-02 -9.647032543645100988e-01
4.033628532423375046e-02 -6.175216232504609354e-02 -8.167855209584361509e-01 2.481832897442871055e-01 -1.295235628455030374e-01 9.600149485083605549e-01
-8.374778113853795225e-02 -3.095940247119167293e-02 -7.700554729509168084e-01 -2.969040794094497948e-01 -5.749960660663103740e-01 -7.623827723908077614e-01
-1.360331622522933659e-01 -4.130526108793258766e-02 -7.613388769076072649e-01 -2.089404667737753130e-01 1.047478818587596894e-01 -9.723023000026587148e-01
-3.932740685789200968e-02 1.306235932639756847e-01 -7.825667577671541197e-01 -2.220897959023767076e-01 -8.023026812364693339e-02 -9.717197263783670103e-01
1.366413866201779750e-02 -8.564132699182810948e-02 -8.019152596913392550e-01 -2.964567082072581128e-01 1.435535602056078053e-01 -9.441958459510461088e-01
6.379579497429101187e-02 3.465197481654136435e-02 -8.138945965798702886e-01 2.393587066456177859e-01 -4.371534774999375622e-02 9.699465850880831796e-01
-1.737657233655083566e-02 8.054361561276292270e-02 -7.933600451922797614e-01 2.408487523590734369e-01 7.814685549857064428e-03 9.705311994865670755e-01
6.774659024757410941e-02 -2.377822376727481077e-02 -8.080485021954100233e-01 -2.831728727277494362e-01 1.821029849849089277e-01 -9.416218067837531791e-01
1.071343870227596945e-01 4.696812999346865192e-02 -8.167640882224576071e-01 -2.455898007637356550e-01 3.070661257149576856e-02 -9.688873792682061170e-01
8.854708116562122477e-02 1.823451437226459859e-01 -8.232756392238469445e-01 1.519238531006771586e-01 4.787585307869902246e-02 9.872320120169478797e-01
5.511793358353686556e-02 -1.379229987809834357e-01 -8.347011243400613845e-01 2.639702246675629249e-01 -2.216103325067551033e-01 9.387271067862064111e-01
4.671630490108497763e-02 6.279418872802955409e-02 -8.013999903202456698e-01 -2.427778540265276286e-01 1.485263598170909367e-02 -9.699682019523467869e-01
-1.059179950602196071e-03 2.565888322521302223e-02 -8.013550556451980444e-01 1.778140204271769775e-01 -5.522887921396794214e-02 9.825130762693656816e-01
-1.732859427043748415e-02 8.013097591325030189e-02 -7.858232412773800135e-01 -2.408884240077580896e-01 -8.661065360648449382e-03 -9.705141694616710168e-01
-1.310035847649598240e-01 3.668761441725197636e-02 -7.651599590326729761e-01 2.636767806664218616e-01 -2.662397477176765143e-02 9.642435995663874992e-01
-4.529917748865880389e-02 -1.706673786551212574e-02 -7.895683482641995266e-01 2.497896583259189840e-01 -7.535908208573907641e-02 9.653632142052106513e-01
9.904819152373667279e-02 -5.841049097666342615e-02 -8.242060396239190290e-01 -2.497401468813899572e-01 1.412084989504480415e-01 -9.579613869357278544e-01
-1.412405433580449232e-01 1.282168328022433856e-01 -7.625602215846535303e-01 9.211740851399536911e-01 -3.235401895121313154e-01 -2.162407238172849022e-01
-8.759096644598150794e-02 1.947040297352754523e-01 -7.853990454168010560e-01 2.311010784724858158e-01 1.265452071837616099e-01 9.646650206510407610e-01
-8.458915304250312628e-02 1.241177778301497288e-02 -7.703002590494051338e-01 -2.448800193659393387e-01 3.638259547098647573e-02 -9.688705191418159890e-01
-5.472482410404409109e-03 -2.908815960283008331e-02 -8.008935189501890095e-01 2.540001479729963596e-01 -1.080456571634396540e-01 9.611503840699520129e-01
-3.702747000306449293e-02 1.548291948413691721e-01 -7.851088244684337747e-01 -2.275060257630130145e-01 -8.317909716727441005e-02 -9.702176281824383963e-01
-6.851861861958417899e-02 -1.366663721374934970e-01 -7.929294937780315689e-01 -2.598259311199626609e-01 1.896073877276192032e-01 -9.468577105546284178e-01
6.340030612788995212e-02 -1.751350260407996406e-01 -8.385356212391363862e-01 -2.582524124824108758e-01 2.485928278575351980e-01 -9.335455518531532437e-01
-1.747809355257310890e-02 -2.059042322653354129e-01 -8.242864083226099092e-01 -2.639888169479329139e-01 2.674347794858845107e-01 -9.267084456547092230e-01
4.794985366147396996e-03 1.428693546595034003e-01 -7.938234996149002853e-01 -2.293978572793739512e-01 -8.124732676451114355e-02 -9.699358200258678675e-01
-8.661774789156038989e-02 8.978560641131839992e-02 -7.692569621877326513e-01 -2.277655219766636929e-01 -2.585154531575892603e-02 -9.733727778212647452e-01
1.171096206748993007e-01 2.688082871045235217e-02 -8.275226161990032470e-01 2.363850826044705811e-01 -6.044042890256266787e-02 9.697778339785622093e-01
1.176491633944529297e-01 1.314856970400933578e-01 -8.200906389734416990e-01 -2.651966355411911058e-01 -7.493000767487310865e-02 -9.612784396039869561e-01
2.867203602562203284e-03 2.248197229069348047e-01 -8.029652574135134335e-01 -2.143984597172536311e-01 -1.491188787543082928e-01 -9.652962552863897372e-01
-1.307816914351366683e-02 -1.763579534939876958e-01 -8.250433213287946543e-01 2.581315797507899301e-01 -2.434277478108429482e-01 9.349390456768303936e-01
6.692076782004170721e-02 -7.816109864291670428e-02 -8.262692423384330187e-01 2.514477084872819290e-01 -1.458008347136537652e-01 9.568260899940473907e-01
-3.754756694308318543e-02 -9.295483730470840977e-02 -7.931809548508191865e-01 -2.493203016376669690e-01 1.454849049764729285e-01 -9.574306918076573858e-01
3.706547926211717359e-02 2.649474766589008171e-02 -8.000665185282208602e-01 -2.394610327216178947e-01 5.159581628494153832e-02 -9.695340558999393510e-01
-2.200630100282132285e-03 -4.975706030575476058e-02 -8.069895450870013809e-01 3.424377296375211155e-01 3.880182449416696433e-01 8.556741452872620446e-01
-1.571993446699269242e-02 1.655168262703349547e-01 -7.984933608916719994e-01 2.207219848388961014e-01 8.016774904532475432e-02 9.720364897583751995e-01
3.179506529763350287e-03 6.892653408430027273e-02 -7.874742599353791173e-01 -7.391565565295662998e-02 -4.865409949838884196e-01 -8.705253218887324396e-01
5.229600907689656297e-02 -5.119614388634884106e-02 -8.184531517283667457e-01 2.481832897442871055e-01 -1.295235628455030374e-01 9.600149485083605549e-01
-1.449613395010946638e-02 -9.607044449054343016e-02 -7.998748965238150488e-01 -2.595296609117154207e-01 1.561307406845160173e-01 -9.530307166720044521e-01
-1.268501042638377208e-01 -1.001244726896107912e-01 -7.714487318529656967e-01 -5.531333161663901099e-02 2.255569096312560196e-01 -9.726584785334805305e-01
3.827099879073002364e-02 -2.264904876426052094e-01 -8.468396563884595940e-01 -3.023248177042555107e-01 3.527296356460479787e-01 -8.855402355269322845e-01
-1.080084500612520657e-03 -6.156327537537203271e-02 -7.982734226228686003e-01 -2.476459298528609632e-01 1.311315675379007284e-01 -9.599354173184593275e-01
-9.196315767976878316e-03 -1.326454261838931614e-01 -8.190635611198268107e-01 1.409500482994482939e-01 -6.700388708145946781e-01 7.288216486095113744e-01
1.216644864919058933e-01 1.277271978621364046e-01 -8.209309836935916316e-01 -2.731743096205180854e-01 -4.593720644505815132e-02 -9.608670925926112716e-01
-6.887409645048643558e-02 5.446775490136307463e-02 -7.731093375860120798e-01 -2.351480669797706979e-01 1.183391929607931735e-02 -9.718875166138163380e-01
-7.895314834780596536e-02 1.155088851619140711e-01 -7.723624840973263295e-01 -2.329493962684445751e-01 -5.046858996789977542e-02 -9.711784080202870983e-01
-8.685375976669176476e-03 1.028674224420900452e-01 -7.960098410520565215e-01 2.423321976615923912e-01 4.574463948298355953e-02 9.691143038543361676e-01
-6.749797666812126784e-02 -1.201006493621112198e-01 -7.899450755433221616e-01 -2.535880035354458051e-01 1.848558793853177229e-01 -9.494848225851678647e-01
-9.500451585343094862e-02 1.623305078275828206e-01 -7.826057904030496726e-01 4.258471917028638920e-02 -8.219085366278493510e-01 5.680254387890164569e-01
-4.534791127428846810e-03 1.568257177294007654e-01 -8.003505462282831662e-01 2.232815920589201197e-01 8.114030809988999338e-02 9.713709801353388462e-01
8.421084489262052608e-02 1.367644855983649321e-01 -8.193996662652357488e-01 2.231525565267988287e-01 4.718845455085203533e-02 9.736406864303976949e-01
-9.802478447863173516e-02 3.435271389638677036e-02 -7.735464861187720809e-01 2.438288319830135553e-01 -3.140045589721250641e-02 9.693098122185942467e-01
2.781754443107022079e-02 -1.895692512976051847e-01 -8.372321670956575090e-01 -8.672278067994857453e-01 -2.047263893249981759e-01 4.538755739491860952e-01
4.824166603618851995e-02 -6.148419436750077183e-02 -8.111486287446545429e-01 -2.500808317001436687e-01 1.233117655111065220e-01 -9.603404532261973214e-01
-9.083052050558926283e-02 -4.737746519570984471e-02 -7.732055817418136412e-01 -2.455150782303461288e-01 1.058327140349433759e-01 -9.635983514937874750e-01
1.485537685846166633e-01 -6.516136836735086924e-02 -8.390649622721421119e-01 -3.032199539142672595e-01 1.544365545857539768e-01 -9.403228223093976768e-01
1.298240880840641487e-01 4.420222766487796190e-02 -8.226878475271066637e-01 -2.580024798594012236e-01 4.642613045491219420e-02 -9.650281523341083245e-01
-1.493622928774244185e-01 5.979237319417601143e-02 -7.541846052852201332e-01 -1.822805024007755348e-01 -8.569675844020675087e-03 -9.832092244789251145e-01
1.058108767967994163e-01 -3.069506879902469607e-02 -8.223495778262106537e-01 -2.534870077712699787e-01 1.047271747362942262e-01 -9.616530329401150601e-01
-1.751109047496438031e-02 6.528137250014807991e-02 -7.818862376770278066e-01 -2.415189989189642505e-01 -6.239921924518401775e-02 -9.683877893688936922e-01
-1.088837202015943834e-01 2.860918037794592597e-02 -7.636706672408040131e-01 -2.365007581802306691e-01 3.196707200124582898e-02 -9.711052969106096500e-01
8.600899197155775777e-02 -5.821504761889755020e-02 -8.207604721435586281e-01 -2.568223028042718181e-01 1.408538496241596161e-01 -9.561393715501760315e-01
6.355720836542818990e-03 -1.974080441038997269e-01 -8.362273449697905647e-01 2.707299230445331384e-01 -2.552038357995393691e-01 9.282113503731264093e-01
-3.690095455854915801e-02 1.046681541118868880e-01 -7.818014802302170052e-01 -2.255927965140422375e-01 -4.720977906294992338e-02 -9.730771433559630701e-01
-7.406045132503409623e-02 6.930317628688008325e-02 -7.681832228864794443e-01 -2.232468372650780186e-01 6.480177912216097957e-02 -9.726055619179558853e-01
-7.013165675435389934e-02 -9.058608193793124541e-02 -7.842304305545529930e-01 -2.564240863282395977e-01 1.402815768432780497e-01 -9.563303650669527922e-01
1.090701903174781315e-02 -1.718630927095311789e-01 -8.230183801971079349e-01 8.687941943355067531e-01 1.884888344199028010e-01 -4.578958475329780731e-01
-4.996509875707540183e-02 1.359499669065424299e-01 -7.880167842858493144e-01 2.254797908867641754e-01 8.086805033827658418e-02 9.708857926327622012e-01
3.285382143545511474e-02 -2.721910591271733404e-01 -8.621928205152229463e-01 -9.984625117548051598e-01 -5.523002080818410070e-02 4.717777211052591457e-03
-6.565456314483553157e-02 2.156762410549175613e-01 -7.862990143924030173e-01 -2.116638188839344292e-01 -1.458178407596417703e-01 -9.664034277110490345e-01
1.289696028011058648e-01 1.063717981512510846e-01 -8.219984414553523910e-01 -2.790112238967115688e-01 -4.667546359941627393e-02 -9.591528230878739736e-01
-1.210469074711908316e-01 7.726740448018377949e-02 -7.575285742878566930e-01 -2.243558261437779977e-01 -1.135317049893881242e-01 -9.678713836236432222e-01
2.514024476415062468e-03 -4.991171430254862096e-02 -8.053007830269129919e-01 2.508478266199621332e-01 -1.085096967278506019e-01 9.619256798714084233e-01
5.262062923423256773e-03 7.008378000251078155e-02 -7.987606718608867284e-01 2.262605106994805826e-01 4.299387134810359057e-03 9.740573374130884199e-01
-5.103878576123690308e-02 -1.575942501343513269e-01 -8.022979215563040833e-01 -2.636583264421215045e-01 2.139356913595241994e-01 -9.405933270336667151e-01
-2.753931337743453778e-02 2.022657781053346093e-01 -8.001246350665829343e-01 2.178727158913347506e-01 1.179450607893122310e-01 9.688242576987526888e-01
-1.422458659252349711e-01 -4.623374625389567449e-02 -7.664334624247959304e-01 2.939667619913946539e-01 -8.180398730719595779e-02 9.523085899565009171e-01
6.412765958509705592e-03 -1.671425744073202352e-02 -8.028487028273999515e-01 2.507946158455953700e-01 -8.339700887704358523e-02 9.644412888160805997e-01
-7.964383504331104535e-02 1.293984964035943264e-01 -7.805360981151447941e-01 2.278165802212247515e-01 8.110309125826567489e-02 9.703205111532270388e-01
1.156225635760988191e-01 8.912752377691807171e-02 -8.253307888329329822e-01 2.321821479168929558e-01 -8.826511332984223520e-04 9.726719236801660839e-01
2.391508880131031425e-02 -2.033821367155629611e-01 -8.428580467022824818e-01 2.534340094801266763e-01 -2.721226685548878144e-01 9.282889938469558455e-01
2.574736064552028431e-03 -7.613259571620545341e-02 -8.088762739429081750e-01 2.616454640819954047e-01 -1.314429348284658072e-01 9.561717450379909611e-01
1.127930662080178087e-01 1.238001474049219564e-01 -8.184479883036137604e-01 -2.450465566101682757e-01 -2.972738025275908219e-02 -9.690554514354726701e-01
3.117992256778933172e-02 -3.911736821817840548e-02 -8.114366392939793560e-01 2.448021055842442284e-01 -1.078270123713716416e-01 9.635586461158369698e-01
3.862556372252223813e-02 -9.901285378324983788e-02 -8.223584331695181771e-01 2.585818142016784171e-01 -1.773524629970605893e-01 9.495691387324278754e-01
1.052208488017295773e-01 1.294572798237656475e-01 -8.237604834053593450e-01 2.126549034073469402e-01 4.506937207550112956e-02 9.760874160430160762e-01
2.308379650751225809e-02 3.742154079216167967e-02 -7.960664936198359465e-01 -2.377102424574392969e-01 2.565242891493335273e-02 -9.709973190084459915e-01
6.004473152797040053e-02 1.547441684596150557e-01 -8.076672198143739489e-01 -2.294382895066146011e-01 -8.117796721048350927e-02 -9.699320640889507184e-01
5.195351357910016343e-02 -1.182085032915612260e-01 -8.218842305744642474e-01 -2.604805587397759914e-01 1.992056499154311877e-01 -9.447047091871536573e-01
-5.373312682521262651e-02 -1.133959618332436026e-01 -7.924044284322561138e-01 -2.550417714821140991e-01 1.706351985269571880e-01 -9.517548654054419632e-01
1.486431149400249500e-02 1.483376291125443336e-01 -7.966453565113981172e-01 -2.251580154277346979e-01 -8.044260193511869328e-02 -9.709958063156359787e-01
1.782336228456346539e-02 5.273330260238165423e-02 -8.019568499893854341e-01 2.392129512967066385e-01 -2.055804263922465791e-02 9.707494686142059681e-01
-1.844654942761919311e-02 -1.933321769548945190e-01 -8.203908395295417266e-01 -2.616263886681879369e-01 2.557543340860173320e-01 -9.306671549746774463e-01
-5.305262788067348356e-02 -6.378600425347903669e-02 -7.924986156951925320e-01 2.524633588391210770e-01 -1.215034925787944059e-01 9.599474744666106618e-01
-9.419786793485218634e-02 -1.819113071927511843e-02 -7.770896833298795991e-01 2.456452479699043068e-01 -8.059921571610893787e-02 9.660031980152820053e-01
8.403885823759296714e-02 1.184381244690811408e-01 -8.184668264895502698e-01 2.276587411679250050e-01 4.888137716761458557e-02 9.725132947862631383e-01
5.071960256461717498e-02 8.175982633251657750e-02 -8.128754025204456557e-01 2.113261019476340152e-01 7.504330670028316885e-02 9.745305437774156587e-01
-6.896311963541407707e-03 1.025965620187112015e-01 -7.888928066990200660e-01 -2.424682905845634562e-01 -4.529551380538160421e-02 -9.691013592447935698e-01
-1.072141118307226443e-01 5.565569936229280111e-03 -7.649293157787038222e-01 -2.408001853884744747e-01 5.946335746894319124e-02 -9.687514541075006314e-01
7.412797894843313473e-02 -7.635901295232960795e-02 -8.278886496070146928e-01 2.514477084872819290e-01 -1.458008347136537652e-01 9.568260899940473907e-01
-1.696932031978477806e-02 -8.671063440463555594e-02 -7.977109874462704475e-01 -2.548786940054660333e-01 1.531645676333041606e-01 -9.547656605491060544e-01
2.290011503105273197e-02 -1.328141771331953491e-01 -8.281088812207364480e-01 2.549352320358217461e-01 -2.152387513067126334e-01 9.426984180546654768e-01
-1.794862548867758728e-02 1.367796802973177128e-01 -7.955577085139143856e-01 2.207219848388949912e-01 8.016774904532458779e-02 9.720364897583755326e-01
3.404498023777606519e-02 -3.954001001341039268e-01 -9.258061362157494756e-01 -8.610014712115684477e-01 -2.403008008466450962e-01 4.482543827827850103e-01
-6.297876424575601928e-02 4.350246796001261407e-02 -7.747047677459549808e-01 -2.390138963767373392e-01 1.555836746550059123e-02 -9.708914947308060484e-01
-8.509636167842755949e-02 -4.840238731587067494e-02 -7.747791551506268970e-01 -2.455150782303461288e-01 1.058327140349433759e-01 -9.635983514937874750e-01
7.175778601664726565e-03 2.311130443449743999e-01 -8.118892608838262914e-01 2.067254139458856166e-01 1.413520024430882371e-01 9.681343990553333834e-01
6.300965212205134058e-03 -3.861548185695164170e-02 -7.935937448990336707e-01 -1.846480264080024858e-01 1.123396629894660298e-01 -9.763631017521314792e-01
-4.575044308901540790e-02 -2.090251183433951276e-01 -8.229406303704748238e-01 6.085367415596724117e-01 7.148969850711508478e-01 3.443912526591159096e-01
-2.137720173225144543e-02 2.281516377381291507e-03 -7.866803218850475510e-01 -2.444279037936763488e-01 5.380465783856650669e-02 -9.681735684482942750e-01
4.990277054463024969e-02 2.928852490684833929e-02 -8.031548425730803409e-01 -2.458008227326260453e-01 4.258844431360105098e-02 -9.683843141826036227e-01
1.152233438294162221e-01 -1.257479451518149216e-01 -8.409745510679217384e-01 -2.682822092843997197e-01 2.047551089174992900e-01 -9.413288487843474162e-01
1.030681906324556509e-02 -2.079900492844188042e-01 -8.327335850290679131e-01 -2.640931628425771116e-01 2.880501632157326242e-01 -9.204791713076367898e-01
-6.048577115762490686e-02 -8.960648002214206820e-02 -7.866328896341496790e-01 -2.494608177571151497e-01 1.418747330845904764e-01 -9.579357288023701011e-01
-1.462160612417471618e-02 -1.370835074154573285e-01 -8.038111675526010691e-01 -2.652779851391026122e-01 1.466587619988267144e-01 -9.529526736042611690e-01
-6.979930328849029419e-02 4.747849937943446341e-02 -7.804399184299609660e-01 2.384072553082647317e-01 -1.146124748879479363e-02 9.710976369152489740e-01
6.190459426027702418e-03 2.136020294378297435e-01 -8.091949442511273682e-01 2.178997642128405743e-01 1.339320557641096587e-01 9.667377603025487653e-01
-1.149603675618779963e-01 1.852097474828991730e-01 -7.715555794326404149e-01 6.327871967381747120e-02 -2.809600429507544406e-01 -9.576310656518787212e-01
-6.230749635879370002e-02 7.734170604570730911e-02 -7.824054487812902581e-01 2.399238516438824964e-01 1.516989152172278955e-02 9.706731786773462600e-01
-2.754630332408118318e-02 -1.186349224938461899e-01 -8.081385576614594779e-01 2.590480476405668253e-01 -1.770655214054630000e-01 9.494956082800077857e-01
1.441359876359496299e-02 -6.742194544818069790e-02 -8.031403040704867546e-01 -2.534148832560184639e-01 1.317405225878870156e-01 -9.583451005001324408e-01
-2.702387909957079323e-02 2.469321778804778322e-01 -8.003005639239177960e-01 -2.069001851964016314e-01 -1.832125666988577428e-01 -9.610543526613419818e-01
6.797931696780176204e-03 -5.781020530680962971e-02 -8.107011620497400761e-01 1.860055011020245175e-01 -1.352885621772083324e-01 9.731900937143823649e-01
-9.941246166327660783e-02 -1.054512408115313299e-01 -7.861822371690057043e-01 2.650492839711745541e-01 -1.523423619040018828e-01 9.521242995722133395e-01
2.592095882775844167e-03 -1.322340211891575024e-01 -8.132871611292284975e-01 -1.119257091020987999e-01 -9.693864971342399661e-01 -2.185462303857012845e-01
8.570546305453032032e-02 -1.130433848924985024e-01 -8.403871331034979963e-01 -2.298459826547782220e-02 4.620590531740256246e-01 8.865512617003585838e-01
-1.119602415078967683e-01 -8.807961887930501610e-02 -7.800776654602594729e-01 2.580483907887428652e-01 -1.480904256144813247e-01 9.547147499921962988e-01
-1.266013613104970403e-01 1.144528363429822559e-01 -7.612325056864798212e-01 -2.145845323219413292e-01 -5.469005725039060434e-02 -9.751730493231047792e-01
4.382406909666222011e-02 -1.665802007834060183e-01 -8.384437456204768546e-01 2.580656905497411557e-01 -2.277937748886075253e-01 9.388887556484438734e-01
-1.155350674247402655e-02 8.116844691807614809e-02 -7.872503034993135751e-01 -2.229972257440067662e-01 -5.668312406870070624e-03 -9.748025992707112231e-01
-7.659189486057037255e-02 8.507122032946229373e-02 -7.715744333905458774e-01 -2.331870899725202173e-01 -1.747466850398026600e-02 -9.722748670159194750e-01
-6.930442353781873788e-02 -3.930816132368580851e-02 -7.882169486645137502e-01 2.952126952879820521e-01 5.957041499759175851e-01 7.469846251712778384e-01
-1.049794689261157946e-02 -2.434054054966470343e-02 -7.991134345688249985e-01 2.483713228426961683e-01 -7.870861205326773469e-02 9.654618792982028186e-01
-3.414159390660587851e-02 -1.313884330136055045e-01 -7.979595453813688177e-01 -3.033504819530427055e-01 -4.932079774636416447e-01 -8.153063081229535713e-01
-1.129706746894888203e-01 1.619769881467339745e-01 -7.710383393210039626e-01 6.782895153037170610e-01 -4.423989596794591361e-01 -5.866911401270524795e-01
-1.356450631497970183e-01 2.327106456884795241e-02 -7.574372713500197030e-01 -2.308086132607923280e-01 2.701203886113487385e-02 -9.726241482716715403e-01
-2.474777592739604848e-02 -1.219785279031675683e-02 -7.869158457730753842e-01 -2.417426159721272338e-01 7.610338041035628887e-02 -9.673514268935924365e-01
-3.442720948322280233e-02 6.317005567373576436e-02 -7.778259253319343980e-01 -2.252752678634254435e-01 8.060616787846208720e-02 -9.709550449887013324e-01
-2.337296079049918859e-02 1.860473453508075525e-01 -7.878053100207198511e-01 -1.637152149538321777e-01 -1.095179050523800435e-01 -9.804096882760586773e-01
7.404433243262828479e-02 -1.625142088214323044e-01 -8.458041744416130436e-01 2.591822339761385985e-01 -2.323260904703214058e-01 9.374695500537145731e-01
1.364473063879809850e-02 8.829893241038251628e-02 -8.008909081012520748e-01 2.401060083400023137e-01 1.209276927782443507e-02 9.706713499893896424e-01
-1.457063461799768533e-01 6.072386661635866684e-03 -7.558048707110945896e-01 -1.995108193379093453e-01 4.848116156995412040e-02 -9.786955655054049297e-01
-3.099224571988635352e-02 1.018017624911622676e-01 -7.830678594740512199e-01 -2.336532415410756680e-01 -4.459119028692688780e-02 -9.712969620389753089e-01
1.364165106056515475e-01 5.337160440406842760e-02 -8.240688550623694875e-01 -2.498637783229566423e-01 2.436948742985015071e-02 -9.679742870368936991e-01
4.357968724324605414e-02 -3.671149499319121406e-02 -8.150077307564286277e-01 -3.212991259896431084e-01 8.733331207137351448e-01 3.661367666633602025e-01
1.353446476420094857e-01 -3.774040312406138492e-02 -8.311280629445464418e-01 -2.602445827568227177e-01 1.289247788839804620e-01 -9.568966289706762884e-01
-9.470063951008897418e-03 2.330716186207885607e-02 -7.954157081469857005e-01 9.928690683864971334e-01 1.185601953225880745e-01 1.242952639480359237e-02
3.461300672895607777e-03 -2.314860366331856524e-03 -8.040658732281653620e-01 1.834563902099820287e-01 -8.253656815330873142e-02 9.795567711003773104e-01
7.500900611236711868e-03 -3.435412428048781330e-02 -7.972718764171616845e-01 -2.484821236199444838e-01 1.066798466448670019e-01 -9.627440181902717775e-01
4.221513628371337257e-02 -1.765118019733362131e-01 -8.328526991203574203e-01 -2.677999646724988358e-01 2.552128355210338539e-01 -9.290584413839219069e-01
1.077713221724254516e-02 -1.954892957222479632e-01 -8.291915729204468732e-01 -2.537694578680523283e-01 2.598775071987039498e-01 -9.316999213832435345e-01
-2.520720190956248635e-02 2.271668341852398909e-01 -8.043201943956189703e-01 2.134672258131443123e-01 1.449368755955952603e-01 9.661392475188175233e-01
1.676461217023758740e-03 1.393654374672865237e-01 -8.003226857181979792e-01 2.241002846486382927e-01 8.096142845676385091e-02 9.711973586880472409e-01
-1.116199820708585200e-01 -1.273104923348545581e-01 -7.842091023281063666e-01 6.437599374490284854e-01 7.394988713642901557e-01 1.967601641251696953e-01
1.219135706116869639e-01 -1.781376708345945581e-02 -8.324156427722241292e-01 2.449833818701134813e-01 -1.001268857181201316e-01 9.643431699161211235e-01
-2.494307798517076194e-02 2.197885290248335899e-01 -7.960023765826336195e-01 -2.180654204484516745e-01 -1.561512527993854094e-01 -9.633609181681714873e-01
7.026917218918467267e-02 -4.766963131550933097e-02 -8.227130228041785731e-01 2.499308794136086143e-01 -1.218546943190446236e-01 9.605654527349776206e-01
-2.024001270143734391e-02 -2.020697800940318423e-01 -8.223930602607427698e-01 -2.639888169479329139e-01 2.674347794858845107e-01 -9.267084456547092230e-01
9.037041860301707474e-03 1.164043062967897862e-01 -7.932487206810925340e-01 -2.283764879855485763e-01 -4.385862140808249876e-02 -9.725844955907785305e-01
-2.685704304496530637e-02 1.844111583158940804e-01 -7.906739718723215793e-01 -2.135017610495752449e-01 -1.196122838454896364e-01 -9.695926462087034459e-01
-2.239583197479904503e-02 1.212036616863470806e-01 -7.931312261089074056e-01 9.896926656080748952e-01 1.427951830726618687e-01 1.086109261669108809e-02
-9.252459604401529203e-02 -5.965256734129628646e-02 -7.815608652007367541e-01 2.518669209185570579e-01 -1.067043463510703033e-01 9.618613395998386606e-01
-1.862429688007532363e-02 -1.097778765087113750e-01 -8.089210266675374017e-01 2.590480476405668253e-01 -1.770655214054630000e-01 9.494956082800077857e-01
-1.109165846581328108e-01 2.112398969041029417e-02 -7.707196780291222238e-01 2.480560871531447831e-01 -3.108207169134229175e-02 9.682469119215645348e-01
-6.010181041601690005e-02 7.333682781115123672e-02 -7.753684003751365461e-01 -2.367029639886143177e-01 -1.459019552520053782e-02 -9.714725076056146547e-01
1.149334268328876165e-03 -3.368557682003108390e-03 -8.003304470876894117e-01 2.436307703858261453e-01 -8.439929060007962669e-02 9.661888052898419676e-01
1.180964752886050871e-03 1.620041204367301257e-01 -7.908402229752675705e-01 -1.514670558328659322e-01 -2.676339006868245218e-01 -9.515407643398564597e-01
-6.363480263573313700e-02 -6.195089272806435232e-02 -7.894832592105028857e-01 2.524633588391210770e-01 -1.215034925787944059e-01 9.599474744666106618e-01
1.137512624853507098e-01 -6.360053496378136571e-03 -8.257903668278560039e-01 -3.278634856504169526e-01 8.797117097417993525e-01 3.444021523166177490e-01
-1.223281582212284724e-01 1.237750949756746127e-01 -7.698356083134030303e-01 2.346248771880681261e-01 7.701408780042875990e-02 9.690304418772157646e-01
2.290093375444931731e-02 -8.158669160425117972e-02 -8.152133638685106209e-01 2.598856018180035754e-01 -1.535796734769268868e-01 9.533481829124208495e-01
-1.199790226953062616e-01 -8.853947083291964504e-02 -7.778767350121185142e-01 2.707194671516368611e-01 -1.414799864605976454e-01 9.522050112954891787e-01
-1.607727786483501009e-02 1.714811100436123004e-01 -7.989409493161173659e-01 2.217200903393976852e-01 1.161874548409994184e-01 9.681635589493441385e-01
8.955294628565371728e-02 -1.637599610654530136e-01 -8.428653769841366605e-01 -2.610502267127815523e-01 2.378653703843400802e-01 -9.355601769555639269e-01
3.521727143753788924e-02 1.778539555245971793e-01 -8.091734666572365509e-01 3.924688572645663176e-01 -9.154485056645222940e-01 8.900690733891658546e-02
1.249014918572085853e-01 4.796233725188902425e-03 -8.346740379170854984e-01 1.976267737435056238e-01 -1.455261818624051413e-02 9.801693117026561985e-01
-4.126474784957535197e-02 1.645735374131001016e-01 -7.849506325114439242e-01 -2.275060257630130145e-01 -8.317909716727441005e-02 -9.702176281824383963e-01
-1.012525743533534694e-01 -7.657200003789882414e-02 -7.740572436673730516e-01 -2.461324164784235158e-01 1.340621472336122888e-01 -9.599198790720011587e-01
-5.912893358109824055e-02 -7.968881073911385227e-02 -7.930963053287859443e-01 2.498921984414414488e-01 -1.389956556173009838e-01 9.582453218657629446e-01
3.437736181553016634e-02 -1.985035138093535489e-01 -8.367852499202167449e-01 -2.588521183944374471e-01 2.627794444889089420e-01 -9.294850963607822480e-01
-6.585406777097929654e-02 -1.110482105916094087e-01 -7.963265823074532346e-01 2.616746679439748702e-01 -1.601431993788797747e-01 9.517775600680585812e-01
-9.608023343686403206e-02 -1.340397420471773626e-01 -7.850464029514577780e-01 -2.397044963507773407e-01 1.840275850280467529e-01 -9.532447756887866275e-01
1.484457867973805745e-01 1.450447051831704401e-02 -8.356822586200263192e-01 2.066362831617793439e-01 -7.591290739358835804e-02 9.754684397622187531e-01
1.191679038194425749e-02 1.056691944517367809e-01 -8.009574741909990525e-01 2.309571730517924470e-01 4.610608249487554294e-02 9.718708830770166340e-01
-5.121582720352923362e-02 -1.201428523199419146e-01 -7.942918991483651769e-01 -2.509193332979141600e-01 1.924792895876601129e-01 -9.486786659650147113e-01
-1.031878223454975457e-01 1.651463001259058094e-01 -7.739846732945832031e-01 -4.206531974450443412e-02 -9.978382324747483434e-01 5.049129317478606022e-02
-2.573994596264400983e-02 1.430158562770108555e-01 -7.913830070186467225e-01 9.775445127142484703e-01 1.981630987028429325e-01 -7.168062482114689882e-02
-3.456442150222599485e-02 -4.164057680834343245e-02 -7.979952503243317175e-01 2.611617796062845054e-01 -2.013503922000871998e-02 9.650850247871879395e-01
1.330886667798759082e-01 -2.215197730494305149e-03 -8.265203025803025128e-01 -2.613651743026647600e-01 7.154282498720825056e-02 -9.625849935743790997e-01
2.934071094895038950e-02 -5.213359422969839757e-02 -8.126021344881181330e-01 2.524093506481048799e-01 -1.290088969361414262e-01 9.589818685547303323e-01
4.133919185802694546e-02 -1.369599164595574903e-01 -8.218282430296187657e-01 -3.598894438002157581e-01 9.150410399632374903e-01 1.821523632132394099e-01
-3.516890475792823489e-02 -2.005661167490705443e-01 -8.250781961088673455e-01 2.695710802294424835e-01 -2.434163630424275859e-01 9.317080588398538588e-01
3.323991433712087523e-02 -2.812072214057816377e-01 -8.681779042550071823e-01 -9.992852940385753557e-01 -3.479488598058168292e-02 1.477217072188679800e-02
-1.748416541010851255e-02 8.880940714224762333e-02 -7.884625266424756251e-01 8.747920899585656107e-01 1.226093544455447160e-01 -4.687277947256508481e-01
-1.158703320046567398e-01 3.065645895507427762e-02 -7.691544313115219467e-01 2.444857700227479891e-01 -2.782685436695464185e-02 9.692535140160308815e-01
-1.040472112669417193e-01 9.633584737943441320e-03 -7.654866005584274324e-01 -2.448800193659393387e-01 3.638259547098647573e-02 -9.688705191418159890e-01
-1.313566370005306294e-01 -2.859806633433463821e-02 -7.716629987857595019e-01 2.789851163832381964e-01 -1.830632469591636415e-03 9.602936809233892923e-01
-1.079217394339812008e-01 1.982834338174478683e-01 -7.796497785095924948e-01 8.193971113952127627e-01 -5.409137448496083023e-01 1.897384896902951368e-01
1.506275995410157054e-02 5.873529247520711816e-02 -7.935631716512304701e-01 -2.442408789444985018e-01 1.985156662694374102e-02 -9.695113760832695382e-01
1.358051268346242846e-01 -9.621441279867612439e-02 -8.402528159276211328e-01 -5.347822117578102663e-01 6.522874229564957771e-01 -5.371490517912119733e-01
-1.052995696723505181e-01 2.745907839939052547e-02 -7.645887465796757931e-01 -2.406042085047197798e-01 3.165742173455324271e-02 -9.701069129219409559e-01
2.331018122981404900e-02 -1.956530015863774952e-01 -8.405058983719039256e-01 2.709897114295120590e-01 -2.523550687948727944e-01 9.289141486450104290e-01
1.288183603768266461e-01 -9.455620068894306229e-02 -8.347774561055345544e-01 -2.395797492537117268e-01 8.668899492774376214e-02 -9.669987393507533113e-01
-7.062396402398141149e-02 1.565466422638489563e-01 -7.849196648054739267e-01 2.276127948438748660e-01 8.094599151686877880e-02 9.703814518428880431e-01
8.731356914446976314e-02 1.123793145325005516e-01 -8.117838604383276202e-01 -2.392096746431613685e-01 -2.743860908088694220e-02 -9.705801637622825107e-01
1.541280106288210085e-02 -1.518956878070698846e-01 -8.303611768854920472e-01 1.887973275425451902e-01 -2.502484870514177784e-01 9.495953158273630068e-01
-1.375078945380470152e-02 -1.900348678313681650e-01 -8.284662009317995679e-01 2.644203450704762925e-01 -2.481280630383053964e-01 9.319411705926876621e-01
8.248909440324933562e-02 -1.218919389287203420e-01 -8.310310060118479836e-01 -2.643995114061454266e-01 1.906098718293951777e-01 -9.453892188561138221e-01
1.184510119540140571e-01 1.075622533693179313e-03 -8.224844543822016352e-01 -2.466308893103428268e-01 8.204356453104735825e-02 -9.656303940727162249e-01
3.782025615371599481e-02 -1.447000375727359178e-01 -8.314510223969974190e-01 2.561699296283858618e-01 -2.071729532936520124e-01 9.441696534933614604e-01
-1.199102657729498450e-01 -3.406640300816563688e-02 -7.667305107150514942e-01 1.344171234873285381e-01 9.830916006785513916e-01 -1.243500767537981527e-01
-1.101556026998785909e-01 -2.348012735759991490e-02 -7.708895556532026072e-01 -1.185269242502119541e-01 -9.832517612676410224e-01 1.384461707374599615e-01
-3.552779376743579742e-02 2.985302971648028450e-02 -7.892567021537154615e-01 2.414415576414830622e-01 -2.027953396094752878e-02 9.702034398753599520e-01
3.078298381382042065e-02 -3.820021500744623655e-01 -9.210008824139842565e-01 -2.863403783148381621e-01 -4.504349153237190428e-01 8.456462468454698511e-01
-5.102004070120495609e-03 1.254648322104222613e-01 -7.978617467120422413e-01 2.284161315749514143e-01 4.571155909017043939e-02 9.724898581485980076e-01
6.909547206704581834e-02 -2.051388322155149255e-02 -8.192535137582011018e-01 2.469745773887276619e-01 -9.494941758751593297e-02 9.643589405524538583e-01
-9.662942813799217656e-02 1.411803422894974125e-01 -7.774831204332193213e-01 2.316411133226109753e-01 8.095797923393913131e-02 9.694267379317627054e-01
5.671192817004235692e-02 -1.422477959005279680e-01 -8.361703338971678834e-01 2.639702246675629249e-01 -2.216103325067551033e-01 9.387271067862064111e-01
4.142253574233741020e-02 5.342916885503048996e-02 -8.002187065741710459e-01 -2.379963634707301101e-01 2.086942892255877133e-02 -9.710418105885835205e-01
7.211929053137048316e-03 -1.218726325256352591e-02 -7.951132303162672388e-01 -2.439648264110527986e-01 8.393919670705668468e-02 -9.661445930762119216e-01
-9.228515685654464784e-02 4.885407926642478665e-02 -7.748333540181644441e-01 2.457617336595990798e-01 -1.103786634843324094e-02 9.692674222190191813e-01
4.658977838055482212e-02 -4.740209279894069816e-02 -8.164660887938980371e-01 2.481832897442871055e-01 -1.295235628455030374e-01 9.600149485083605549e-01
3.569814950136566967e-02 -3.964882123575588779e-01 -9.199591548791935525e-01 -9.998304468387814170e-01 -9.775144256446922225e-03 1.560525965590407564e-02
2.464732239360205648e-02 -1.945071900992910441e-01 -8.290658027584025813e-01 -3.313033742778559998e-01 2.946835771779972024e-01 -8.963256459198778447e-01
-3.530564888183240074e-02 2.614004030046436777e-01 -8.017213946362182764e-01 -1.900476627017793352e-01 -2.981753561719689971e-01 -9.354000977513902138e-01
7.961528007439561822e-03 -1.077945753073231427e-01 -8.157221301685380066e-01 2.510232004662346084e-01 -1.842634813808269600e-01 9.502811806287158047e-01
7.271116179215321440e-02 1.756521497095296300e-02 -8.170281965911116995e-01 2.462462955392701602e-01 -6.226847978152931506e-02 9.672049412399027490e-01
3.338796803496315441e-02 -2.848749204419005476e-01 -8.645873120753405638e-01 -7.409016987024350520e-01 2.600840192383195304e-01 -6.192099609960157736e-01
5.487636917347639420e-02 -2.862054525421000445e-02 -8.163989618810332249e-01 2.494690209833010652e-01 -9.463447161337271152e-02 9.637476455753813953e-01
-6.012992530058421103e-02 -1.003513617937454167e-01 -7.960524982851874265e-01 2.528857250331790207e-01 -1.625757080649877506e-01 9.537389313756733378e-01
5.840878018014350470e-02 1.871511787196901699e-01 -8.121760015488187490e-01 3.096720729763733360e-01 -9.490553913197614655e-01 -5.828440121859333745e-02
3.761464157862857288e-02 3.213807400517176144e-02 -7.999104797444314130e-01 -2.458008227326260453e-01 4.258844431360105098e-02 -9.683843141826036227e-01
-8.828958602887376772e-02 1.951681133423277537e-02 -7.690981772027016827e-01 -2.448800193659393387e-01 3.638259547098647573e-02 -9.688705191418159890e-01
3.111686754983590888e-02 -1.316338026683702145e-01 -8.267652362735772309e-01 2.561699296283858618e-01 -2.071729532936520124e-01 9.441696534933614604e-01
-2.803063233716737365e-02 2.624153185149936673e-01 -8.088423488505621650e-01 1.756110921960593874e-01 4.680455173485672041e-03 9.844484941514595189e-01
-1.030871151690614940e-01 -8.365576391504635223e-02 -7.745761668010926471e-01 -2.461324164784235158e-01 1.340621472336122888e-01 -9.599198790720011587e-01
3.017051639595280318e-02 2.268482298347692383e-01 -8.095295694935881192e-01 -2.227968599954225637e-01 -1.692681356608614351e-01 -9.600572157043955057e-01
5.519615957055717947e-02 8.949022281607060814e-02 -8.005683963892183952e-01 5.563565047719700590e-02 -6.194893578698070780e-01 -7.830310401778676210e-01
-5.574254936119510742e-03 -2.698831541708109072e-02 -7.930760825492950694e-01 -2.522569242292677649e-01 8.278824240948889912e-02 -9.641123124912039932e-01
-8.766021460847889940e-03 -1.803705765639308789e-02 -7.914855374507412389e-01 -2.480410911082641945e-01 8.184881950360678449e-02 -9.652856509177415445e-01
-1.450763775481413720e-01 1.339020780201114966e-02 -7.555707929046486804e-01 -1.995108193379093453e-01 4.848116156995412040e-02 -9.786955655054049297e-01
-8.705999892304988608e-02 6.218704465461041830e-02 -7.686342964162626856e-01 -2.368915290753528247e-01 -1.755895656304012897e-02 -9.713774171231069898e-01
3.085391964838251483e-02 1.918713476421202158e-01 -8.045910690255775322e-01 -2.161926988805515371e-01 -1.161581121826093382e-01 -9.694163243544620112e-01
9.455720956377881847e-02 9.991343660810543537e-02 -8.204949966225756341e-01 2.262985640145681043e-01 2.202909437066874476e-02 9.738088513287156411e-01
3.238857960483340365e-03 1.323309679574000142e-01 -8.001576794549390970e-01 2.305710708967513289e-01 4.584948801689266162e-02 9.719746939679623221e-01
2.128073316735445975e-02 -2.299877793145628513e-01 -8.398215677410929558e-01 -1.983480855565304124e-01 3.131216850275601593e-01 -9.287695340188332205e-01
-7.540443292681408595e-03 -5.173945163875948161e-02 -8.008633960088334947e-01 2.240106407407357891e-01 9.496720881064906195e-01 2.189569772955014537e-01
7.100346942599842365e-03 -8.922435269217818266e-02 -8.045753255508671931e-01 -2.613544587411263942e-01 1.596278500149231061e-01 -9.519520977421848107e-01
-1.250660169980357672e-01 1.646241830510088988e-01 -7.664546024389182755e-01 -1.726583350026590913e-01 -1.263178618449687374e-01 -9.768484514667692409e-01
4.095712222201711855e-02 -1.796301099515644484e-01 -8.333466789169223787e-01 -2.677999646724988358e-01 2.552128355210338539e-01 -9.290584413839219069e-01
9.328590637345436642e-02 -1.537755782785414360e-01 -8.413924536082685313e-01 -2.645096157563107675e-01 2.334263687710786128e-01 -9.357065744851841282e-01
1.888024548555342422e-02 -1.034086173842377332e-01 -8.101566799194743762e-01 -2.678482885596630836e-01 1.795047600648852493e-01 -9.465914300423956540e-01
-6.222459114401049894e-03 1.082682662754002045e-01 -7.982338306866979538e-01 -3.077474082194366356e-01 -2.342680956991936500e-02 9.511796451394417540e-01
-4.726427563381336433e-03 3.294864941143903214e-02 -8.000936023598239633e-01 2.883955633547461983e-01 -3.716638180009115139e-02 9.567897674521756990e-01
-1.139939471339524307e-01 -1.329052550630903384e-01 -7.811023269276595737e-01 6.793466500059410773e-01 5.832165915327002237e-01 -4.453611304174231456e-01
-8.830340815302224061e-03 1.563591004231320303e-01 -7.877915558095270887e-01 -2.436629954613234728e-01 -4.076368881638686020e-02 -9.690029237917168192e-01
-1.473104875571447647e-01 3.775938870143354456e-03 -7.555916183868455205e-01 -1.995108193379093453e-01 4.848116156995412040e-02 -9.786955655054049297e-01
1.004349247362154585e-01 6.705538535774642483e-02 -8.218302490686718587e-01 2.286964082219344052e-01 -6.211727953515283444e-03 9.734779747391401061e-01
-2.516195658446646749e-03 -5.307066054333241245e-02 -8.007250003088760559e-01 3.214515234431337132e-01 9.282449671000707614e-01 1.871635625047698148e-01
1.526609092869075368e-01 -5.071668805887955683e-02 -8.409202209779861326e-01 -9.544763568030963929e-01 1.253230769494989572e-01 2.706824905452848706e-01
-3.929394235261499807e-02 -1.548985751565207410e-02 -7.909991189386466059e-01 2.497896583259189840e-01 -7.535908208573907641e-02 9.653632142052106513e-01
-2.321396771858260516e-02 1.951328355921129742e-01 -7.928211057879666068e-01 -2.215664431146424918e-01 -1.213682911241037721e-01 -9.675629432730156188e-01
5.998659154836457480e-02 2.000503226866139350e-01 -8.123134240510823112e-01 -2.309506598221209017e-01 -1.325072260256515422e-01 -9.639002167126604625e-01
-3.221316374458956661e-02 -5.832940844398978170e-02 -7.896807903718032762e-01 -2.505661352897238237e-01 1.210480256321344317e-01 -9.605019455141847740e-01
-6.277034234791963041e-02 -5.693671650156831993e-03 -7.842481692744466271e-01 2.498367641799708050e-01 -7.027028081789865599e-02 9.657347870393069300e-01
6.011163926209524971e-02 5.118924484662426555e-02 -8.123706949557408796e-01 2.359639987026406760e-01 -1.598417117350051792e-02 9.716303296975432602e-01
4.407533105098070114e-02 1.990948348435256365e-01 -8.157444612276619766e-01 2.164652874306904617e-01 1.151686590046787501e-01 9.694735475094781174e-01
-4.840777125905564721e-02 1.082207508254129369e-01 -7.792494250370954889e-01 -2.316496576143091679e-01 -4.779276806978213082e-02 -9.716245609531498628e-01
-3.839171701542439669e-02 2.606026671991344412e-01 -8.066159049700967199e-01 2.391057095620052197e-01 5.565917950793649455e-02 9.693969854457734625e-01
-4.534573685476611660e-02 6.027667179983748486e-02 -7.806258699618495722e-01 5.985860528345465087e-02 9.815456138313258805e-01 -1.816181580734841650e-01
-8.015325840365379595e-02 -1.218711906307153731e-01 -7.951209488398153225e-01 -1.179405052960857125e-01 -9.928866237674580653e-01 1.631531655108472284e-02
-3.511371561918957135e-02 2.251497297504189699e-01 -8.018025031097349986e-01 2.117714624344899932e-01 1.447011018535543925e-01 9.665476909189348875e-01
-1.103741971381681231e-01 7.497119711987608459e-02 -7.597571677637217080e-01 -2.255367347709368864e-01 -9.515271153537553650e-02 -9.695767853843911821e-01
6.929229175996958617e-03 2.516349962559671569e-02 -7.925585596939579425e-01 -2.426019506536324921e-01 5.575047028547901184e-02 -9.685226784138821765e-01
9.731420288465146562e-02 7.912067800317890143e-02 -8.210201185730983120e-01 2.286964082219344052e-01 -6.211727953515283444e-03 9.734779747391401061e-01
-4.721184979597143651e-03 2.205524138285182290e-01 -8.078009920211749462e-01 2.083098734129446850e-01 1.387729104321281104e-01 9.681678965803809378e-01
5.098156249991132871e-02 -5.985803356996174246e-02 -8.116533152085460001e-01 -2.500808317001436687e-01 1.233117655111065220e-01 -9.603404532261973214e-01
5.650166036695791066e-02 -5.888445699549445245e-02 -8.129657843596319600e-01 -2.500808317001436687e-01 1.233117655111065220e-01 -9.603404532261973214e-01
9.936146265293829827e-02 -1.595001711263934474e-01 -8.445994581788430766e-01 -2.792815181509484268e-01 2.498920924463135518e-01 -9.271223089496362091e-01
-6.568579440644337075e-02 1.274942304869476351e-01 -7.761145084024155816e-01 -2.243607095051574352e-01 -8.040129444252974711e-02 -9.711837642188566599e-01
6.181403900908193777e-02 -5.334370952789629222e-02 -8.212328677547737765e-01 2.499308794136086143e-01 -1.218546943190446236e-01 9.605654527349776206e-01
1.473063255195626309e-01 -7.369867873130347968e-02 -8.455308243551955538e-01 5.208962913659404351e-03 -1.081341710162204983e-01 9.941226623329733059e-01
-1.296496501399445611e-01 1.095517751083439489e-01 -7.671387854540419049e-01 2.489167279763959406e-01 5.017812127711530901e-02 9.672241822238648590e-01
-4.168957835782641924e-02 2.220130650637919811e-01 -7.926845293693978167e-01 -2.219095410156947112e-01 -1.545722276295972419e-01 -9.627375457786132573e-01
1.299823890061102549e-01 2.008155368293294135e-02 -8.240265253194911654e-01 -2.531660889589207875e-01 7.248836058131703786e-02 -9.647032543645100988e-01
4.271908189399176159e-02 3.555946221359381626e-02 -8.085925653858208051e-01 2.458124549662330516e-01 -4.262107622668457468e-02 9.683799258786567332e-01
1.179004292700418406e-02 2.052746776591508893e-01 -8.093034003248104069e-01 2.178997642128405743e-01 1.339320557641096587e-01 9.667377603025487653e-01
8.611562724204030461e-02 -1.279381192029461767e-01 -8.333371671767013655e-01 -2.553797517298799780e-01 2.150837559070346294e-01 -9.426134734615818633e-01
2.299528890417655916e-02 -1.648197089582384700e-01 -8.208531816210442589e-01 -3.208985697334549303e-01 2.334579325588317100e-01 -9.178897001646650899e-01
-2.912485285735831944e-02 2.413438776059291246e-01 -7.987715472321239574e-01 -2.103782194471836287e-01 -1.836950763622490768e-01 -9.602068129848382316e-01
-1.228299483950327786e-02 2.485780848774433449e-01 -8.038931951646591800e-01 -2.208174336633251800e-01 -2.179293181510663369e-01 -9.506558122057394700e-01
6.777833671008461069e-02 1.785139048054335542e-01 -8.126462024694270925e-01 -4.891062239937653544e-01 8.586644856200922327e-01 -1.532005312828348398e-01
-1.754382861846250780e-02 2.319165325550610543e-03 -7.876460140877242777e-01 -2.444279037936763488e-01 5.380465783856650669e-02 -9.681735684482942750e-01
2.590633301514636000e-02 -3.344612684615218962e-02 -8.044532863736361117e-01 3.161108409024032673e-01 -8.749189653925641963e-01 -3.668661067206673843e-01
-8.631383581171582497e-02 -7.058875925774864279e-02 -7.770834759029274785e-01 -2.494980651018393614e-01 1.331825000762225097e-01 -9.591731528685970565e-01
