-1.661637275618234322e-02 3.293401854202417101e-02 -7.567310490590536398e-01 8.310106419407661260e-01 5.493863207908725732e-01 -8.715493967104911976e-02
8.818822638287389382e-02 -2.808383456623748109e-01 -9.560860516241932450e-01 1.548327323619742013e-01 -5.092268415360838851e-01 8.465901303750885676e-01
4.958941355884296555e-03 1.997654501449671466e-02 -7.189573866227898513e-01 -8.298241896543371299e-01 -5.501338585150961080e-01 9.351230924223020990e-02
-9.452730775561236920e-02 1.492008042341937679e-01 -7.803180442495807334e-01 -7.585767975697006449e-01 -6.497311950212238951e-01 4.909802852650348853e-02
-8.356950947757864345e-02 1.280623693608033409e-01 -6.627029490587356131e-01 7.518561156702694426e-01 6.593014219565476175e-01 5.832352466080744161e-03
4.046702776988821137e-02 -1.112458777214373334e-01 -9.181863704108255142e-01 -7.806675030013969507e-02 1.586565371286342008e-01 9.842426965560505669e-01
-8.858886672047561195e-02 1.334487006412323762e-01 -6.419706467841410635e-01 7.509992975826875750e-01 6.601987843912171527e-01 1.173116015870544551e-02
-3.470774632354865774e-02 6.766943183556166364e-02 -6.674276098012286162e-01 7.858441409192872262e-01 6.174373662210448366e-01 -3.492971481198809541e-02
-1.118559997259244571e-01 1.715952423381195691e-01 -7.034314211140307860e-01 -7.369686933811221419e-01 -6.758704385457154906e-01 -8.734716717992618493e-03
6.979323105003422401e-02 -7.206020499938713131e-02 -6.689039210937661739e-01 -8.513223431167683541e-01 -5.107035734684820527e-01 1.201337927341769168e-01
-7.714744619115433341e-03 1.263799364596302627e-02 -7.925590487792830707e-01 8.458056187945113269e-01 5.204036163771712520e-01 -1.174433109086919225e-01
4.614653034817409183e-02 -2.659684081274213061e-02 -6.221372732801930816e-01 -8.230847763565166675e-01 -5.629749588510345459e-01 7.477062683178922753e-02
-8.644029004189753007e-02 1.410332817085323265e-01 -6.120579785863996536e-01 -7.297917365621596764e-01 -6.826202824358121868e-01 -3.786253098828700620e-02
-2.457152692968899051e-03 1.199601403381459278e-02 -7.537528280981139472e-01 8.318770979838168156e-01 5.476923615955768820e-01 -8.951855059082930444e-02
-5.993904567390306165e-02 9.994177502715291539e-02 -5.617648412707474392e-01 7.450852424520677530e-01 6.669007120459220506e-01 -9.561472312657465569e-03
6.137547665936193136e-02 -5.786899081852932974e-02 -6.097091834462550208e-01 7.322344286622736176e-01 6.315183497750809227e-01 -2.549849316704663749e-01
4.990852058190992785e-02 -1.054409998569712514e-01 -8.725098299948021996e-01 -8.880779998884585913e-01 -4.161376670614932438e-01 1.953123349067652226e-01
-2.907375919062801795e-02 4.544550985751261152e-02 -7.954633301620499530e-01 8.333340571960944354e-01 5.439320445950049931e-01 -9.844937775219135545e-02
3.955856288356786321e-02 -5.259101586906216041e-02 -7.380397865959480441e-01 8.567929567560444992e-01 4.988145741864762339e-01 -1.307281524094907887e-01
4.503745213013558152e-02 -1.035694377986069864e-01 -8.534842390216973440e-01 8.861559528301274913e-01 4.187246116516010752e-01 -1.984875987585734691e-01
-4.023222585871569917e-02 7.717497066226630675e-02 -5.948696854847469462e-01 7.680961107049101289e-01 6.402116127120038858e-01 -1.254813407187218080e-02
2.187362128358071381e-02 -4.467070864648468170e-02 -8.641398151256064475e-01 -8.751144972897734187e-01 -4.493519906094149974e-01 1.796034664716226192e-01
3.286170612850309453e-02 -7.720968268469327600e-02 -8.576030076970271310e-01 -3.901232177252357547e-02 6.782885480508128451e-01 7.337592822806654480e-01
-6.609178073830584976e-02 1.076132355901026627e-01 -6.274789234719005959e-01 7.676993417702083766e-01 6.406925897765078926e-01 -1.227705384285001679e-02
-6.004027241586114283e-03 2.407796666007519515e-02 -7.107587956115425376e-01 8.205306242589415211e-01 5.668902689877118872e-01 -7.324559768526198167e-02
2.807005268545045493e-02 -3.919058625960016029e-02 -7.614295406315001458e-01 -3.050525104464877901e-01 9.037495692761322585e-01 3.002993205178806080e-01
1.085693898009875910e-02 -9.433757015860595252e-04 -7.111753939746271458e-01 8.287101543767128042e-01 5.520924798085955487e-01 -9.183340226584434107e-02
-6.452487961415213913e-02 1.055234796550876125e-01 -6.030108414708648112e-01 7.538419924821994078e-01 6.569811318611366024e-01 9.901653848091359136e-03
-9.419377001327214338e-02 1.399856294700783377e-01 -7.336976420174824431e-01 7.759186421674001410e-01 6.308317343378212483e-01 -1.258447231579958980e-03
6.702504263822035846e-02 -7.989602506032754403e-02 -6.642464519156785485e-01 8.464073223114637612e-01 5.182180871773983677e-01 -1.226566706695411263e-01
4.878238126326413931e-02 -3.803813674385337490e-02 -5.973136075614462470e-01 7.973975437200943039e-01 5.920644504701683131e-01 -1.166912325696223829e-01
4.281097925756335507e-03 -3.610709441200636582e-02 -8.898243632197504471e-01 8.807215957161075304e-01 4.473893793165630295e-01 -1.554741589911764477e-01
-7.581300800434910558e-02 1.269831075186685920e-01 -5.628464273093212178e-01 -7.256903741510510875e-01 -6.860913268330599557e-01 -5.149924377074478754e-02
3.975795547114972101e-02 -9.598774065599501026e-02 -8.612188923323653711e-01 8.846168719017807325e-01 4.234673052175401131e-01 -1.952650285086994231e-01
7.961345300958240501e-02 -1.311929144611788667e-01 -7.534325368566495706e-01 8.750710646490332811e-01 4.498765079963433777e-01 -1.784986256726450726e-01
3.837114831553533473e-02 -1.105772458714411877e-01 -8.982610148985974430e-01 8.948964087734080364e-01 3.996036867212938715e-01 -1.986889808801866608e-01
5.747109445307393982e-02 -1.343161704383525890e-01 -8.450552629015907202e-01 8.592270423220336184e-01 4.392225011001376078e-01 -2.623213378089359615e-01
9.302229244449794140e-03 1.316297182203349930e-02 -7.204943988167601399e-01 -8.302522510351506568e-01 -5.496366901268263661e-01 9.263211385632953709e-02
-8.387537734736126571e-02 1.265105821310214818e-01 -7.471367501095133035e-01 7.857987379541636619e-01 6.178608591037773046e-01 -2.771826504645695868e-02
4.191107561810267224e-02 -3.525212789789369805e-02 -6.379935801857054001e-01 8.290657849248279643e-01 5.513738651603123930e-01 -9.293430521156442747e-02
1.205665804292914423e-02 1.550504566972705188e-02 -6.772087515872894370e-01 -8.159448504244053435e-01 -5.743677481252535966e-01 6.584596403288434097e-02
-5.714606825357942954e-02 8.291611684172903174e-02 -8.261375926100568146e-01 8.243352136921626716e-01 5.613475786217652086e-01 -7.321442100145025833e-02
3.754730796256262274e-03 -3.440424567501401687e-02 -8.879060152240288994e-01 8.807215957161075304e-01 4.473893793165630295e-01 -1.554741589911764477e-01
6.922537692910825380e-02 -7.178505486852757023e-02 -6.210803176785342217e-01 7.367882326519072933e-01 6.248450161324730079e-01 -2.582862869764643854e-01
6.595713815071978237e-03 1.469786262452893455e-02 -6.423209604377636550e-01 8.127863231459545590e-01 5.787578548896273878e-01 -6.646606886552722249e-02
4.427631945521346563e-02 -9.775382723887347802e-02 -8.816177799894057143e-01 -8.886699605036960659e-01 -4.099511627596351127e-01 2.054403695732227308e-01
-4.778183952603617252e-02 8.022777800080251043e-02 -8.333125654050416165e-01 -8.258322079781086344e-01 -5.551814765988253297e-01 9.886704358657535940e-02
8.002571027061995690e-02 -1.240152579874779504e-01 -7.739824462017739215e-01 -8.797985545704707366e-01 -4.403590776816549979e-01 1.789926983959755358e-01
6.995720536664104539e-02 -8.043526143121311478e-02 -6.473438265317164042e-01 8.396171727746976066e-01 5.274028117449200970e-01 -1.299587524769910685e-01
-1.212567324086947507e-01 1.739033792921971244e-01 -7.149125410246652823e-01 9.422188064853779244e-01 3.152104950407398354e-01 1.134286759221031227e-01
3.066336040781405398e-02 -9.281316197108258059e-02 -8.964318297248546896e-01 8.924519147027849542e-01 4.102337996247706342e-01 -1.877173662417949418e-01
9.142093116649167850e-02 -1.113523163565018903e-01 -6.745065347243796028e-01 -8.874283408610307289e-01 -4.462034591197878153e-01 1.156434732536780335e-01
2.483135512956658603e-02 -5.727807409683625950e-02 -8.390167402976772548e-01 8.747986950841981635e-01 4.560631899197040706e-01 -1.635041585992475788e-01
6.883426575993112362e-02 -1.052958374682742143e-01 -7.394835102438839236e-01 8.700379254420160802e-01 4.680373248851155132e-01 -1.548388543193780220e-01
2.689753730067984475e-02 -2.312324651992780228e-02 -6.977905272183597685e-01 8.355318841278428499e-01 5.391899474391810276e-01 -1.056440778572570877e-01
-2.587909480808085836e-03 2.173000013552082652e-02 -6.919564403919364892e-01 8.164535047785992372e-01 5.728514913065839709e-01 -7.242129136217105578e-02
1.814113246911756676e-03 2.715354764451200290e-02 -5.685541449260540503e-01 7.781634421595401419e-01 6.263895589125199059e-01 -4.580150403419967070e-02
-5.087872163998580916e-02 8.212508411799886165e-02 -7.577208469523537548e-01 8.126732573608267396e-01 5.788899604763313445e-01 -6.669775431193314397e-02
-2.829874753946257440e-02 4.640876863920647549e-02 -8.532594694217991993e-01 -8.416189757228526025e-01 -5.290383476438037524e-01 1.086090531471940179e-01
2.417115995731105443e-02 -7.632420161936227451e-03 -6.244519028708851449e-01 8.089843158170132442e-01 5.844240218281948618e-01 -6.318971017686525471e-02
-7.119100701169570056e-02 1.278147627372223094e-01 -6.777296695546830563e-01 -8.341005632312379348e-01 -1.365397987056466422e-01 5.344465677565466422e-01
4.008809996120422936e-02 -1.022608975693906214e-01 -9.080868647511457503e-01 -8.907159874071756134e-01 -3.972842980826704617e-01 2.208850748109070783e-01
7.924377147459109316e-02 -1.161538852260563387e-01 -7.153469203312068370e-01 8.620855283975142891e-01 4.806429653655590051e-01 -1.605953971077019315e-01
-4.824788418341254687e-02 7.941130103103741233e-02 -7.484400954724816923e-01 8.030563570758141312e-01 5.940495117354223087e-01 -4.696450752460564620e-02
-5.776687182861273140e-02 1.089460526847268323e-01 -6.306871430348395258e-01 -7.670293932794545189e-01 -6.415126466518666914e-01 1.128866825932042448e-02
-1.080039919845901392e-01 1.656071519053353980e-01 -7.078959394406458827e-01 4.438466852216561009e-01 -7.239607253548154819e-01 -5.280918368631325466e-01
-4.565796385540851765e-02 8.568705490190722807e-02 -7.713457140012356383e-01 -8.113177030580294158e-01 -5.804777043333098074e-01 6.934853622516941318e-02
7.135980598443293632e-02 -1.520472223464798267e-01 -8.520919952683178034e-01 -6.000373327258651246e-01 3.557795464589876833e-01 -7.165026961963691932e-01
6.390145437929492522e-02 -9.487570194320948946e-02 -7.810151503824488417e-01 -8.715848978348590403e-01 -4.603593637934895177e-01 1.685497612987082727e-01
-1.262440927197845120e-01 1.743117468412869464e-01 -6.200880652798457238e-01 7.543034532923991176e-01 6.555108445635384751e-01 3.649428737155676478e-02
3.733398565803662528e-02 -3.036983924168961194e-02 -7.423460912163295511e-01 -3.428346468877131459e-01 -9.302994998679411376e-01 -1.304118301337563735e-01
-8.650641335901501638e-02 1.302308715983382104e-01 -6.024424870488870321e-01 7.363476169670044591e-01 6.761752199795142415e-01 2.406779742039882874e-02
-3.649061921336718695e-02 6.350628595474397398e-02 -7.439366252329498996e-01 8.128649292664578141e-01 5.779937899008280588e-01 -7.192903172373457665e-02
-5.188555200068003387e-02 9.050636814873151692e-02 -6.314087690770183725e-01 7.681538110786636508e-01 6.401561954264857190e-01 -1.182235096804247314e-02
-3.631577270223877024e-02 6.130384094227299407e-02 -8.420739998770776502e-01 -8.353065760283726604e-01 -5.387202524688897709e-01 1.097424877775781682e-01
-3.481900201665385358e-02 8.528204324837272698e-02 -6.775451077622972607e-01 -7.689487448392956503e-01 -6.362337399717119535e-01 6.264547814231723188e-02
4.579734663151244223e-02 -3.345342326269681865e-02 -5.944497541497812954e-01 7.973975437200943039e-01 5.920644504701683131e-01 -1.166912325696223829e-01
1.155877765085240854e-03 -2.093428227945896836e-02 -9.059810122054472448e-01 -8.679488648479573021e-01 -4.619695589463631569e-01 1.823427942531444246e-01
3.572453428392961816e-02 -5.968037451142501476e-02 -8.322659771233951176e-01 -8.751424164641156134e-01 -4.562027740241159091e-01 1.612599760574507934e-01
-7.655593260724487606e-03 1.590163917227726750e-02 -7.754219858646482777e-01 8.405448859512950621e-01 5.319911692448499041e-01 -1.023215057875014461e-01
8.250481071370688313e-02 -1.792948435745255753e-01 -8.670834493806948151e-01 -9.198041330932064108e-01 -3.090427544041728924e-01 2.417704131918065880e-01
-7.104846748466787931e-02 1.201412818502743812e-01 -6.275964659077875041e-01 -5.626736760022366113e-01 2.785550769471650256e-01 -7.783350200531189422e-01
3.689683817786676423e-02 -4.530295890745743986e-02 -7.815248869052838776e-01 -8.566817269971142013e-01 -4.944974364393969757e-01 1.468628747645441268e-01
-4.883313047457440298e-02 8.673521418710726516e-02 -6.372788658396625339e-01 7.681538110786636508e-01 6.401561954264857190e-01 -1.182235096804247314e-02
1.869296941209269008e-02 -3.229266260280150899e-03 -7.321436396639449118e-01 -8.401983923930649301e-01 -5.306876310125175911e-01 1.115226421424416192e-01
6.742272519925317231e-02 -1.680581266686440867e-01 -8.641492677593287652e-01 5.693463053422589404e-01 5.377615289156159051e-01 -6.218177567514925341e-01
-9.424056882075937391e-02 1.502968151833730392e-01 -7.575150036387005015e-01 -7.750355823319572401e-01 -6.308002048553409402e-01 3.756258342850587323e-02
6.941998069351393297e-02 -1.076511166531434610e-01 -7.433117765142241984e-01 8.700379254420160802e-01 4.680373248851155132e-01 -1.548388543193780220e-01
6.303028913182218140e-02 -1.615083541134531842e-01 -8.721367531746003765e-01 9.771623986304578402e-01 7.111540897704199393e-02 2.002404687089950619e-01
-2.610611306807822385e-02 7.012937943450490985e-02 -7.222830140818958800e-01 -7.765305153225021684e-01 -6.300767972632342895e-01 1.894287062312239710e-03
4.196674297693882283e-02 -2.573029963739668219e-02 -5.844398001032226064e-01 7.336484131887752724e-01 6.366324545692562120e-01 -2.376112867999245759e-01
-8.686513961755001900e-02 1.424584659610229898e-01 -6.489974548669034116e-01 -7.474469723598902160e-01 -6.642015340664668699e-01 -1.262321883615891670e-02
4.036701862524927353e-02 -3.437691309131412493e-02 -7.451607955014788454e-01 -8.898911393303163830e-01 -4.300466767133722112e-01 1.521631229607737501e-01
3.512585142933843940e-02 -4.079923444566183055e-02 -7.500107624375365045e-01 -2.757729134518430159e-01 9.121219153694407611e-01 3.032868472404716131e-01
6.525302520449233375e-03 2.460925947032312038e-03 -7.296471879844329544e-01 8.307842712328096235e-01 5.486178047159655513e-01 -9.389355154004870585e-02
-4.993939504121469586e-02 7.760114141088780837e-02 -7.865354000741170415e-01 8.158607691034965859e-01 5.750222272004014146e-01 -6.099707913778391194e-02
-4.204105425635279447e-02 7.660432248216067497e-02 -6.745128816865081367e-01 7.917045118484907773e-01 6.104476881481569750e-01 -2.361325799869848363e-02
1.297038380806749512e-02 -1.806488999499374429e-02 -7.543680600677474812e-01 8.178424785169186029e-01 5.482055993935986971e-01 -1.749408503660853376e-01
8.012219370394939311e-02 -9.779627562130223384e-02 -6.995220726954349821e-01 -8.622515704583644247e-01 -4.883592579999208594e-01 1.342663932927783133e-01
-8.527747327534265787e-02 1.284784666840024792e-01 -5.891950861500091507e-01 7.339157984237650867e-01 6.789878762092410591e-01 1.852200812199835539e-02
4.345621413051873466e-02 -4.900811672108999761e-02 -7.540049044174750303e-01 -8.571919449029202775e-01 -4.978604076240935039e-01 1.317459073896426469e-01
5.069295410997740753e-02 -6.943459135943944038e-02 -8.008958846555105371e-01 -8.911677099040264949e-01 -4.356956256333030519e-01 1.264493362118501718e-01
-1.745856329926957426e-02 5.629434596540928287e-02 -6.783647443959730516e-01 -8.026515227014127118e-01 -5.936413321729054893e-01 5.779707467581354785e-02
3.393911166554947068e-02 -2.589392248158461224e-02 -7.246953572019008138e-01 -8.473356540101357748e-01 -5.187501162181447079e-01 1.136688451902133912e-01
-1.093941306445654973e-02 1.669048249521793911e-02 -8.577460819908868661e-01 -8.538288946442802452e-01 -5.050347756279907063e-01 1.261590031543981250e-01
-5.819170973728062662e-02 9.641617948118481884e-02 -6.912407201204201490e-01 7.864503170179135694e-01 6.168354765900184722e-01 -3.177882443369726972e-02
5.239855794836317804e-02 -1.381631313120717519e-01 -8.898549464014758881e-01 8.995705900112007658e-01 3.815689641776577323e-01 -2.125508860562321523e-01
6.467068410514259513e-02 -1.235083416320691130e-01 -8.436117183329664426e-01 -8.842818569369975679e-01 -4.155930477889908103e-01 2.129037719757753411e-01
-2.521581776967108529e-02 4.863784800910882222e-02 -8.466204607901132162e-01 -7.931188353020620641e-01 -2.529732011459810692e-02 6.085413368737738748e-01
-3.656783698295683338e-02 6.443179541161431212e-02 -6.820915373965366069e-01 7.610307489430021555e-01 6.389708701207884589e-01 -1.120197585265005208e-01
-4.763653113174880216e-02 9.420721179955121594e-02 -5.965616515200465875e-01 5.397292435910039377e-01 -7.437050309822643701e-01 -3.944555367900823839e-01
-5.039012603403521945e-02 1.026814519542451204e-01 -6.450004650412447527e-01 -9.639733744738708809e-01 -6.346961622101414575e-03 2.659230140165112499e-01
9.448602104953285341e-02 -1.427381350405328986e-01 -7.480341103666845459e-01 -8.846602342827530885e-01 -4.303284160944255698e-01 1.794260967096121262e-01
3.129154976163452118e-02 -1.487803324074889319e-03 -5.825818166955686328e-01 -8.099099058538690166e-01 -5.843074075039186299e-01 5.129130468048421349e-02
1.604418530336120668e-02 -1.726089106857723113e-02 -8.112712821376821815e-01 -8.568441609699408712e-01 -4.982879206433766806e-01 1.323904526490403966e-01
-6.243052282149422205e-02 1.141065096916970278e-01 -6.524891512036959940e-01 -7.651619689977515737e-01 -6.437137886197861203e-01 1.263801963303989861e-02
6.894563824885778514e-02 -1.567137302327936688e-01 -8.850298460660799282e-01 -9.008468419130500893e-01 -3.587192700738526807e-01 2.445310873753406278e-01
8.112360648521721451e-03 2.412218138027835690e-02 -6.082991169176622526e-01 4.049251701606831344e-01 -8.312025783148699887e-01 -3.809696580740444816e-01
7.326032235440141371e-02 -6.926704725584290068e-02 -6.214915170570576297e-01 -8.802362677593988938e-01 -4.745255772567790742e-01 3.096683730109261491e-03
-9.720401544836021479e-02 1.417342751333191264e-01 -5.998918314824109865e-01 7.358277466327417526e-01 6.766310317724208989e-01 2.698099568159609621e-02
-3.493688877205354537e-02 6.206744957143263408e-02 -7.379399576746137335e-01 8.128649292664578141e-01 5.779937899008280588e-01 -7.192903172373457665e-02
3.153241879408916204e-02 -4.239146938330790731e-03 -6.104141299047217695e-01 -8.111042833659675155e-01 -5.819906305831680227e-01 5.828162162111427680e-02
8.812640635343751971e-02 -1.293029882825365851e-01 -7.469638329004235633e-01 -8.764703931562467520e-01 -4.485414974968874868e-01 1.749576375691654917e-01
9.947936542693662509e-02 -1.715590536158913826e-01 -7.853397515096491865e-01 -9.087587362428194426e-01 -3.622523559968094387e-01 2.071974659041809497e-01
2.197699057181664445e-02 -3.621709029471064517e-02 -8.395586373457136764e-01 -8.711854884899299378e-01 -4.632388887245714182e-01 1.626209599583837428e-01
-4.394685846484910202e-02 7.949878834294465957e-02 -5.674182708356249050e-01 8.532836620679330464e-01 -2.875890939031999771e-01 -4.349706945483497456e-01
8.620051341852540128e-02 -1.738739926452300411e-01 -8.447081617312853785e-01 -9.060999134378201481e-01 -3.563611773398990823e-01 2.280124078924116449e-01
5.261567417738068769e-02 -5.681097167256181357e-02 -6.643795334587656587e-01 8.413577789674973051e-01 5.297804544860059694e-01 -1.070035411352375093e-01
-6.292021417237957104e-02 9.884907300065989832e-02 -7.525248495186094289e-01 8.020053101656938743e-01 5.956341856772857657e-01 -4.480401007259987578e-02
-3.614910703309656692e-02 7.922021582632957082e-02 -6.683730074023325196e-01 -5.725858766765122843e-01 2.871371644961672187e-01 -7.679177446808290730e-01
4.153429316411875148e-03 1.235612339481072068e-02 -6.902030535085446061e-01 8.159516213430133558e-01 5.734299314525928004e-01 -7.349194066006392578e-02
-3.022466763747624213e-02 7.454654336636919176e-02 -6.538420556848949516e-01 -7.873665847699813369e-01 -6.159081344286666537e-01 2.666516702095203875e-02
4.570770947657632616e-02 -9.575254340118680152e-02 -8.157718149802904994e-01 8.558375208321713501e-01 4.653246706662550469e-01 -2.258652005183257316e-01
4.407643134448759742e-02 -5.729070267254037646e-02 -7.263752540691348347e-01 8.553164796670161829e-01 5.005778512146111803e-01 -1.336246028371468053e-01
5.666908583140579936e-02 -9.954959762114767852e-02 -8.071444318478276925e-01 3.659296865470239024e-01 -8.544690943940104200e-01 -3.687519914916752573e-01
9.451414562777671335e-02 -1.346526153869481712e-01 -7.006941399376648283e-01 -1.419268504744186088e-01 8.284429699431479222e-01 -5.417924091994907876e-01
-8.438487320279056472e-03 3.491558001124948907e-02 -6.432228250178242401e-01 7.991759858049858334e-01 5.985833211701930834e-01 -5.491585681285798132e-02
-2.462668175251693861e-02 6.991887327771331706e-02 -5.795887142215239152e-01 -7.705339428240620681e-01 -6.373513871906539840e-01 7.787952372348695175e-03
-9.745739104797233876e-02 1.580107116941580625e-01 -6.076947342425071952e-01 -7.034869633336680028e-01 -7.102438548345476610e-01 2.568577601195050700e-02
-1.447607954390439135e-02 3.490464479712564183e-02 -6.770602956422968610e-01 7.647106021295870804e-01 6.438728423908023357e-01 -2.540586196517084089e-02
-7.809910977025280587e-02 1.373174965338469777e-01 -6.205185565750674925e-01 -7.761221808358739205e-01 -6.260090036840955108e-01 -7.580954900942823982e-02
8.906202953052874682e-02 -1.203298424945347112e-01 -7.395374215713745869e-01 -8.397545762073072018e-01 -5.253546729920246516e-01 1.371667572858983886e-01
-4.267693712634147013e-02 8.191016491255372067e-02 -5.680241478177733283e-01 6.527457202818218729e-01 -6.180915749544986237e-01 -4.380477481097612702e-01
4.277595066788252715e-02 -6.533501549083306492e-02 -7.631442707891034072e-01 8.678484265847600243e-01 4.751824407507903580e-01 -1.450543225018750826e-01
-8.075727306216294588e-02 1.254586567462687152e-01 -7.946825210170591625e-01 -3.838478439240961548e-01 3.781315296770725309e-01 8.424235152100750801e-01
-1.227587327770871956e-01 1.702843559103266735e-01 -5.785668574859157420e-01 5.166281135620053311e-01 -4.608330584757456827e-01 -7.216150528455276270e-01
-9.979182874243817947e-02 1.469815527128901511e-01 -6.970409231053403820e-01 7.584356722933699446e-01 6.517229236957881033e-01 5.706287963097926921e-03
-5.158819439136107937e-02 8.275283301605648734e-02 -8.508087775534823871e-01 -8.221996817843534311e-01 -5.601274272744872773e-01 1.012173329453611714e-01
6.283830848789932755e-02 -1.546216010556957787e-01 -9.021824751672147258e-01 -8.570248115873503325e-01 -2.377231337049211524e-01 4.571610044887673974e-01
-8.093639799648680300e-02 1.238689022987705252e-01 -7.210737443980413941e-01 7.866971137473192099e-01 6.168596042340557251e-01 -2.432858166521929474e-02
5.672528493929326204e-02 -4.245265718698863766e-02 -6.215677720844361431e-01 -8.337080775334724247e-01 -5.459759552523235637e-01 8.271092879271728371e-02
4.551490443046114776e-02 -1.118064527370471184e-01 -8.689075819035180226e-01 8.885365717535430585e-01 4.161665916866015835e-01 -1.931531222124503178e-01
2.509243893719392132e-02 -7.530705432326353921e-02 -9.192241737225081977e-01 -8.850151928016334324e-01 -4.054224841662728562e-01 2.288683417223445205e-01
-1.994572859322843103e-02 4.565573045877020786e-02 -6.956404689882826897e-01 8.047516803910624850e-01 5.913507730678861929e-01 -5.175901950167252630e-02
-4.708283639199452308e-02 7.258888588341282089e-02 -8.663558214336257723e-01 -8.251342823183477337e-01 -5.490971201986090122e-01 1.328373770163337186e-01
1.370521633320937122e-03 -9.641427614638160837e-03 -8.223970815641296062e-01 8.563431387024440511e-01 4.993783071255935568e-01 -1.315208545046103739e-01
-1.275303617611150964e-01 1.816916322925952454e-01 -6.558800299439951909e-01 7.112866972801750176e-01 -7.018502510400455030e-01 3.843773389894174913e-02
5.345626419754724579e-02 -4.522765861482006683e-02 -6.672286440337990010e-01 -8.434535549956230227e-01 -5.268466302603471707e-01 1.049701326500178666e-01
-5.761964863421869393e-02 9.257101567078300508e-02 -6.166982695933274083e-01 7.771804262945468667e-01 6.291836887223881680e-01 -1.088443063809310316e-02
6.194469852400821125e-02 -1.217551983391804704e-01 -8.154885512080961574e-01 8.884129125831973228e-01 4.161570576192669124e-01 -1.937415808470508150e-01
-4.544349820477353030e-02 8.036452997066664827e-02 -6.868196269197358594e-01 7.933319752536744929e-01 6.084057126901637469e-01 -2.160707768479934454e-02
5.488705274717678440e-02 -1.061784884551405378e-01 -8.127942432440589116e-01 8.806801200524205786e-01 4.352150208789642427e-01 -1.870572418961014560e-01
8.778682410173835327e-02 -1.395046700659144656e-01 -7.344809042099148533e-01 8.755210671804443123e-01 4.462013788606434272e-01 -1.853839001264032949e-01
-8.445606772487394831e-03 4.200638559510611741e-02 -6.988906637147764833e-01 -8.172635524863023360e-01 -5.712715624576666373e-01 7.569073724469238540e-02
7.176749878551632982e-03 1.981690994544733561e-02 -6.316144830885760397e-01 -3.865046484012597539e-01 8.413195738722389905e-01 3.778829599011483409e-01
-8.317656277826088185e-03 4.927186924356552304e-03 -8.111620407889440498e-01 4.769709902523953104e-01 7.639280641822419060e-01 4.346407565017593178e-01
-4.150369682660732390e-02 7.574815981731568282e-02 -6.786298153952721179e-01 7.917045118484907773e-01 6.104476881481569750e-01 -2.361325799869848363e-02
1.838398940535014223e-02 -4.472339883190140641e-02 -8.379894910284585441e-01 8.716506579999744320e-01 4.616733269021465746e-01 -1.645687383293528705e-01
-3.017014686112744464e-03 2.282427524951678027e-02 -6.353276410869119761e-01 8.416590992090264844e-01 5.340499817773691760e-01 -8.000361043253985394e-02
-3.256247874554499960e-02 6.615938261428305767e-02 -7.790136412983105219e-01 -8.214549846553403922e-01 -5.638170171341284620e-01 8.556914966778673970e-02
-1.050112752626377599e-01 1.609408417741611808e-01 -7.639984554870059563e-01 5.767725692534396709e-01 -6.821360056210731271e-01 4.494706588778775158e-01
4.391134253375426899e-02 -7.446044936043752505e-02 -8.295720492133711321e-01 -8.775349243607198924e-01 -4.507865329919306108e-01 1.634746408478713331e-01
-5.205646341637845675e-02 8.223002074462378019e-02 -8.571831957474713715e-01 -8.172076972911003212e-01 -5.656338646428139549e-01 1.105889264683044826e-01
8.208347553067663060e-02 -1.689291362406151464e-01 -8.220805526895970106e-01 8.887524759664002794e-01 4.014404692000542729e-01 -2.212794300246481716e-01
-1.012535562003648131e-02 -6.079903719535875543e-03 -8.811775097019334257e-01 8.665375447806065168e-01 4.775484414207181172e-01 -1.451212237484270362e-01
-3.329660278029850096e-02 5.464940079423812741e-02 -7.770094086335268546e-01 8.228045136702036855e-01 5.622280777811077268e-01 -8.302000264092933290e-02
-6.205408038164672568e-02 1.013297665557639088e-01 -6.914699828565693540e-01 7.867202827292802958e-01 6.165172516030884564e-01 -3.126779842162032835e-02
5.447672152268634438e-02 -8.318040549332327005e-02 -7.528875502384618779e-01 8.640131860455503299e-01 4.816800462414984607e-01 -1.465112534660912014e-01
2.051900307426267681e-02 -1.391133519038777189e-02 -7.016552249490272120e-01 8.374934175480874821e-01 5.369267465667966199e-01 -1.015600530957902065e-01
-2.193276007953416304e-02 4.468495088020482675e-02 -8.425059380195749625e-01 -7.931188353020620641e-01 -2.529732011459810692e-02 6.085413368737738748e-01
-6.367179786138554842e-02 9.178656430755698092e-02 -8.330373481944548519e-01 8.296534139788117601e-01 5.551954900419205918e-01 -5.859334868749187242e-02
-1.146882590390193579e-01 1.745115661589450307e-01 -6.914172009342208769e-01 -7.373744420449965808e-01 -6.752554578870748614e-01 -1.757836205528419057e-02
2.705991562216117710e-02 -7.711297211059389700e-02 -8.781799309422730904e-01 8.834173257563310289e-01 4.292119469751408123e-01 -1.880184382642868524e-01
-2.852284208698682710e-02 6.198660749294514910e-02 -6.255813060865023090e-01 7.853124789685650420e-01 6.182731808010710761e-01 -3.197787169861644740e-02
-9.337405946969240533e-02 1.342834534351126929e-01 -6.834973698978384915e-01 7.687606656704938368e-01 6.390517801914660234e-01 -2.489701090446615542e-02
2.269239647926523523e-02 -5.958042652222166752e-02 -8.747186236071731180e-01 -1.853526285238911789e-02 6.942074044533234067e-01 7.195363254438048584e-01
7.125398303536945033e-02 -8.195818663362243461e-02 -6.451461925850703327e-01 8.396171727746976066e-01 5.274028117449200970e-01 -1.299587524769910685e-01
-3.038048111086397163e-02 5.201768751574086663e-02 -7.656243740295830547e-01 8.247733973821043119e-01 5.585157292466985668e-01 -8.836867745309807953e-02
8.117430138105113935e-02 -1.281545962824421347e-01 -7.378892015500417845e-01 8.758312905866073583e-01 4.516367801194985376e-01 -1.701286844500052298e-01
-8.745136825251935420e-02 1.289285219062611676e-01 -8.135235821393689282e-01 8.780921422838405821e-01 4.724643224451777201e-01 7.570768571152114434e-02
-8.653500435655549217e-02 1.305934107621910811e-01 -7.308845007068072164e-01 7.860502985768536011e-01 6.176431474112544784e-01 -2.533516455756355465e-02
2.549264823293325571e-02 -6.326358346675720057e-02 -8.517858250685205190e-01 8.781588927292058866e-01 4.436086020762530224e-01 -1.790205778243598722e-01
-1.245322715098228471e-02 1.662115500098183124e-02 -8.670721335721588430e-01 -8.572160715411404341e-01 -4.942427137071924714e-01 1.445847386100079790e-01
4.858995184329674422e-02 -7.933338118030916486e-02 -7.741750871251874555e-01 8.664151317086119519e-01 4.735159626330031624e-01 -1.584533138753773940e-01
9.062924791264657942e-02 -2.311974156874403996e-01 -9.078919023984654002e-01 -6.006879660935962040e-01 3.759063276697985900e-01 -7.055979026387086961e-01
-1.246019434343023473e-02 4.370336065563632660e-02 -5.883311497439975835e-01 7.822412488667561670e-01 6.218969935518803283e-01 -3.664366224205723582e-02
4.078420275454516103e-02 -3.466302682526886669e-02 -7.136886839560853124e-01 -8.473356540101357748e-01 -5.187501162181447079e-01 1.136688451902133912e-01
-5.725012195471011582e-03 3.403433077402102935e-02 -6.103432848844714265e-01 7.967602410982802530e-01 6.026642762483264137e-01 -4.437215725081215811e-02
5.205876142435986176e-02 -1.172908531602251531e-01 -8.342765761191297536e-01 8.592270423220336184e-01 4.392225011001376078e-01 -2.623213378089359615e-01
-4.301632101091228122e-02 9.039976087508713731e-02 -6.623022295152242167e-01 -7.842776723766613500e-01 -6.190536053945335793e-01 4.100202750444717492e-02
7.545872145751408855e-02 -7.434393685362865323e-02 -6.346623606805330553e-01 -8.645545023284613162e-01 -4.958207768882662014e-01 8.189792249808620916e-02
4.155967310614955279e-02 -4.361258070043073920e-02 -7.459687556240206519e-01 -8.558196001424233090e-01 -4.994850131951170114e-01 1.344899015002104237e-01
1.269495209869545872e-02 2.359012006125183261e-02 -6.273969312612400762e-01 -9.505864891284152574e-01 7.232063854434010730e-02 3.019189492679318354e-01
7.133632207198511987e-02 -1.130542141597560279e-01 -7.483369404994578700e-01 8.775896015540188833e-01 4.465101103743455702e-01 -1.745428674502280952e-01
1.055133425250265843e-02 -2.762220525858275280e-02 -8.763881547421775720e-01 -8.703329828097902121e-01 -4.674349782354297322e-01 1.550001295336767004e-01
9.060441694008418423e-02 -1.532625296206201748e-01 -7.891773772470619397e-01 -8.900479107880502339e-01 -4.089332508884552797e-01 2.014654134575624422e-01
-8.761187534915043651e-02 1.307248468487175186e-01 -7.616846130179387719e-01 7.888906254654048933e-01 6.141959694309799822e-01 -2.036890246284224840e-02
-1.150361205075497023e-01 1.717439796614390057e-01 -7.318733119394756903e-01 6.158410036628633177e-01 -7.033686658179508777e-01 3.549822223055584813e-01
-5.572688728574251571e-02 1.062637472785568915e-01 -5.933039631738477038e-01 -7.484131791641041032e-01 -6.631870852864858445e-01 -7.784803317613363423e-03
9.310463180143861706e-02 -1.797277885938468600e-01 -8.257276962678259391e-01 -9.262131933041055643e-01 -3.022964939973522558e-01 2.252686180237278846e-01
6.760155426552949542e-02 -1.510255084446363583e-01 -8.812403605814124186e-01 -9.009134693094272839e-01 -3.703106512967996866e-01 2.263292786030823567e-01
6.301849376582344120e-02 -8.706359756362147539e-02 -7.153084477028053279e-01 8.587020212086273752e-01 4.908322290322923442e-01 -1.473586160202692841e-01
-3.368515946883979956e-02 3.606500196491795041e-02 -8.799700962074078481e-01 8.561315465689038895e-01 5.069308958513094598e-01 -1.002987627088479106e-01
-1.690744632820436605e-02 3.887538032095042007e-02 -8.342121801137593051e-01 -8.632026946120354705e-01 -4.651036627929865386e-01 1.963662162162040647e-01
-7.812240014129244459e-02 1.190503630228316595e-01 -7.503366314560525607e-01 7.857987379541636619e-01 6.178608591037773046e-01 -2.771826504645695868e-02
4.143247523461716930e-02 -2.859137757845965980e-02 -6.003142519264170751e-01 8.119036449239781517e-01 5.772917342722794221e-01 -8.687188785828493798e-02
9.074775432995207600e-03 1.251422521983738302e-02 -5.897016657845676191e-01 9.518220414188605094e-01 -4.477081198912697541e-02 -3.033650867569748222e-01
4.561725212750167985e-02 -6.514152418555672897e-02 -7.456598880817855157e-01 8.568103064746548370e-01 4.962497914853313263e-01 -1.400437187794331129e-01
8.664361396927595937e-02 -1.173496456427505358e-01 -7.426988570013771662e-01 -8.317048209236848066e-01 -5.400240740293364983e-01 1.290003500811484627e-01
-5.089208206559018600e-03 2.521151825089969212e-02 -6.926164847771281163e-01 8.164535047785992372e-01 5.728514913065839709e-01 -7.242129136217105578e-02
-5.520035664097985156e-02 8.915513332496101395e-02 -7.440731464081110635e-01 8.030563570758141312e-01 5.940495117354223087e-01 -4.696450752460564620e-02
-2.722896107958038166e-03 3.400802351873559448e-02 -6.413533843218804931e-01 3.859640519634935929e-01 -8.408508371210720034e-01 -3.794754541531162317e-01
6.735609926351376897e-02 -7.786513205747945532e-02 -7.085203147361743836e-01 -8.607490881547052997e-01 -4.902885414991210444e-01 1.368508433131038204e-01
8.410687869049085497e-02 -3.231833347140108392e-01 -9.754002030069409690e-01 9.863783326538092533e-01 -5.766393563932677852e-02 1.540540664756191169e-01
8.093598544951401130e-02 -1.413383017743610470e-01 -8.081013467826414498e-01 -8.959283379128764047e-01 -3.955561553775909234e-01 2.021082414637512537e-01
-1.208883216336325284e-01 1.798467786367617116e-01 -6.610958897044832971e-01 -6.911623375061582975e-01 -7.219166139972404972e-01 -3.363072475850369808e-02
9.983029715219347844e-02 -1.762725675169362904e-01 -7.896891904969572940e-01 -9.903606752556077808e-01 -2.459447887482013595e-02 1.363115714682076873e-01
6.163994586021840499e-02 -1.053557983892123712e-01 -8.372214277179348407e-01 -8.586441364587092950e-01 -4.572854647749333146e-01 2.315604686267725421e-01
2.536533320582535014e-02 6.801020282912881125e-03 -5.711542234151438802e-01 -8.074911793979885344e-01 -5.898648203185282712e-01 -4.181978602966858992e-03
2.663584072211662435e-02 -8.956379584660920101e-02 -9.084638113824046179e-01 8.939028790303883421e-01 4.054387763624852092e-01 -1.911989578498627385e-01
1.609999531123305211e-02 -3.784494022456079410e-02 -8.298601657716153657e-01 8.670204892006330155e-01 4.762719593004928753e-01 -1.464257220926853120e-01
-2.300020156063534854e-02 3.500250287958957957e-02 -8.016244645192260876e-01 8.388583386888320836e-01 5.353076109580744424e-01 -9.880510747209095279e-02
4.070152874544893939e-02 -6.332518190398087055e-02 -8.160965346058701719e-01 -8.775349243607198924e-01 -4.507865329919306108e-01 1.634746408478713331e-01
1.224113594817197517e-02 -6.300074539375739857e-02 -9.202358677624695726e-01 9.034683128809879449e-01 4.240959516357401538e-01 -6.235087349955221320e-02
-8.886863073595195617e-02 1.444846277352370145e-01 -7.373211261876283507e-01 -7.675278221408440293e-01 -6.408834896870185815e-01 1.301517907375152223e-02
5.850773859873054789e-02 -8.403966827242835558e-02 -7.321986682522161338e-01 8.629648874992668084e-01 4.829551565738043339e-01 -1.484786842686515451e-01
1.340071640510514216e-02 -3.988655635334562022e-02 -8.769967189692412513e-01 3.583785632541604954e-02 -6.897507255882915356e-01 -7.231594461834985887e-01
-9.740034862820871886e-02 1.514070785319487633e-01 -5.886174771674539397e-01 -7.143437054026713362e-01 -6.978511958276412130e-01 -5.212273048788365615e-02
8.946790923147608654e-02 -1.356096149602759315e-01 -7.556216952777852214e-01 -8.837374666864894479e-01 -4.317053485998303963e-01 1.806615121292986237e-01
-9.425938582272368194e-02 1.404980731044487285e-01 -6.928475571472044736e-01 7.697883871880880635e-01 6.382315611584539194e-01 -9.290494691081381193e-03
-1.178472203280869768e-01 1.725113672380427232e-01 -5.934564602366440011e-01 -6.832381757258502164e-01 -7.276623233525604251e-01 -6.077119715758453472e-02
-1.053732780575460971e-02 3.763700252943701086e-02 -7.530525899690041491e-01 -8.280355138895573175e-01 -5.529166207467396399e-01 9.295374247260015932e-02
-7.139854677331192168e-02 1.132168712225903040e-01 -5.897913938220928909e-01 7.514489996957591789e-01 6.597806724827314229e-01 3.723583553174894707e-03
1.797328982525244617e-02 9.630659633063627309e-03 -5.638116492249312106e-01 -2.562300868944833443e-01 2.665965073929258966e-01 -9.291245582891128896e-01
-1.794154572897302749e-02 6.183463300849234567e-02 -5.795613863734057070e-01 -7.706588303557361241e-01 -6.372059910389193949e-01 7.313834755945988926e-03
6.309243623476719354e-02 -1.017172838252623224e-01 -7.599643684202805893e-01 8.697373450034369124e-01 4.641732724962340240e-01 -1.676309154258522338e-01
9.830072540539974701e-02 -3.365543178952469239e-01 -9.718401965919101215e-01 -6.101170030176643611e-01 3.917707351188339238e-01 -6.886747662962479088e-01
7.006095565665694525e-02 -1.628134778906025759e-01 -8.898091229771321053e-01 -9.019034227077711297e-01 -3.557650836130389904e-01 2.449518756609440628e-01
-6.226250905728272084e-02 9.283295502505134467e-02 -8.072475747107846766e-01 8.215326124884831938e-01 5.653924277221027417e-01 -7.359055165137905197e-02
-1.267382607249087079e-01 1.735672049466586431e-01 -5.855031329082814873e-01 9.367031010402289137e-01 -8.259031213817184802e-02 -3.402442370452993803e-01
-4.227612172673905766e-02 9.051965628634352223e-02 -6.202675005733458979e-01 -7.666948812757804488e-01 -6.418746963061338073e-01 1.326021370210738078e-02
4.640229159644117425e-03 3.023852289568931817e-03 -7.431858445706295280e-01 8.306227356615069057e-01 5.488013750690821091e-01 -9.424925317730277474e-02
-1.173981233822460890e-01 1.764713619823220780e-01 -7.180005849074547752e-01 3.466475986776209051e-01 -8.760670259193408249e-01 3.351745939475128111e-01
3.769000780615288509e-02 -4.051762010422542415e-02 -7.594370542388348966e-01 -8.571919449029202775e-01 -4.978604076240935039e-01 1.317459073896426469e-01
-9.831600846479610079e-02 1.442655159193163006e-01 -7.805355273555117934e-01 8.155273236742712761e-01 5.786209917122555613e-01 1.062696055351356091e-02
-3.073680129150242399e-02 4.360925851811578435e-02 -8.202311998485399824e-01 8.352537567684479303e-01 5.416682540503676702e-01 -9.458680858460466467e-02
4.862618575019988371e-02 -1.113124971647824341e-01 -8.537798441925731341e-01 8.893326812680190097e-01 4.131834208097052707e-01 -1.958745588294354967e-01
-7.867822156681780407e-03 4.969999163953699173e-02 -5.582078392877878326e-01 -7.764019955738467038e-01 -6.290208484859088900e-01 -3.914988427844960650e-02
-1.013816126583568095e-01 1.460763398235128685e-01 -5.947970160464004508e-01 7.334900921766402959e-01 6.793444377446730131e-01 2.198680477190900415e-02
7.279399812140792403e-02 -1.220778626607837425e-01 -8.040036769454220744e-01 -8.885639878083850807e-01 -4.177764770590078336e-01 1.895174260753459961e-01
7.182387811608040296e-02 -9.698454074788241674e-02 -7.442687544140313971e-01 -8.721774217297190157e-01 -4.647779372577027224e-01 1.526041089334568279e-01
-4.362384935723294388e-02 8.102753836037786261e-02 -6.060162032593477965e-01 7.682515371062939025e-01 6.400272103152880865e-01 -1.243968608312471906e-02
1.965982451805562380e-03 -1.304863976688284792e-02 -8.802429820142108063e-01 -8.664609215414825760e-01 -4.734649601031232224e-01 1.583553061821191266e-01
-1.116974889781288845e-02 3.983615380196407763e-02 -6.283768095417161526e-01 7.989103155300930625e-01 5.993234033971818198e-01 -5.053479870372490357e-02
-8.084648009546634151e-03 2.712356975630494244e-02 -7.913263089648375770e-01 -8.373181088671642902e-01 -5.367175352612258976e-01 1.040801225317798118e-01
-6.520906773558628189e-02 1.033959844068195466e-01 -7.316074741760592026e-01 7.866971137473192099e-01 6.168596042340557251e-01 -2.432858166521929474e-02
4.639929242972097578e-02 -3.795402077088950998e-02 -7.174220977215618467e-01 -8.181321037178119759e-01 -5.675501379082558140e-01 9.244837384501036759e-02
8.182912690474999917e-02 -2.700243210372746394e-01 -9.463919051574490870e-01 6.038862096409143287e-01 -3.745059393220244170e-01 7.036097975568973428e-01
1.868923213351760231e-04 -4.210690278249629506e-03 -8.095843320034492585e-01 8.549336331854445747e-01 5.009870000082142782e-01 -1.345381309187288210e-01
6.000190733221200112e-02 -1.219338546315200944e-01 -8.614177189043933369e-01 -8.922608486954131113e-01 -3.963359157272240973e-01 2.163063101021416301e-01
3.602492051501919590e-03 -1.578277065753326894e-02 -8.794428394665300130e-01 -8.674837415877331148e-01 -4.725022275714343412e-01 1.556072074840355868e-01
-1.396286042515391165e-04 5.193789403001375198e-03 -7.388881605682799947e-01 8.080878559580192411e-01 5.659897817666689201e-01 -1.632470030012491413e-01
-2.985882480040252373e-03 1.740477991355786347e-02 -7.265521432472628049e-01 8.317842569639321004e-01 5.474484130333551191e-01 -9.184326286789089300e-02
-9.823970054945244113e-02 1.445064949279452615e-01 -6.463274616395013883e-01 7.526845657120134758e-01 6.582433423998679256e-01 1.347763796693141926e-02
5.692134800961771990e-02 -7.218849692785997418e-02 -6.997300539400633790e-01 8.502422186332744269e-01 5.090436313646095057e-01 -1.340251880084427916e-01
-9.922732339145555469e-02 1.528928250070110961e-01 -5.834708172510423285e-01 -7.143437054026713362e-01 -6.978511958276412130e-01 -5.212273048788365615e-02
-4.944892515245676717e-02 8.236941897337832219e-02 -8.352114146013558393e-01 -8.258322079781086344e-01 -5.551814765988253297e-01 9.886704358657535940e-02
-5.408959310660323844e-02 8.822908220361080911e-02 -7.367934895133826378e-01 8.030563570758141312e-01 5.940495117354223087e-01 -4.696450752460564620e-02
-7.330597381006376083e-03 2.563638260590378817e-02 -7.135581527930806578e-01 8.205306242589415211e-01 5.668902689877118872e-01 -7.324559768526198167e-02
3.680954445378469692e-02 -6.034749135428039285e-02 -7.818710711493341847e-01 8.666799649075190848e-01 4.732075152096032467e-01 -1.579255710043641070e-01
6.605910636940853786e-02 -1.306524668946274226e-01 -8.157330420664283821e-01 8.884129125831973228e-01 4.161570576192669124e-01 -1.937415808470508150e-01
9.151086713873372858e-02 -2.913853261849230769e-01 -9.630377734964047365e-01 1.548327323619742013e-01 -5.092268415360838851e-01 8.465901303750885676e-01
6.565559307626515906e-02 -1.673239721841309480e-01 -8.671316375652622366e-01 8.764393890563215717e-01 3.815424034578424051e-01 -2.937335385586647973e-01
-1.013815723060568913e-02 3.902652340363180206e-02 -6.215225435566468226e-01 7.817889352774167744e-01 6.225942992674083909e-01 -3.438603201195984671e-02
-1.138194065277541578e-01 1.736958061505523843e-01 -7.007242305908596425e-01 -7.347339238969632369e-01 -6.783161162764600460e-01 -7.301196791693075061e-03
-8.050275691111025145e-02 1.240083431836426359e-01 -6.307007359718503903e-01 7.500126666429191014e-01 6.612821552989595064e-01 1.367153825800196225e-02
7.228474948586693927e-02 -8.621915334251016583e-02 -7.074501695351063102e-01 -8.607490881547052997e-01 -4.902885414991210444e-01 1.368508433131038204e-01
-1.136507010779481824e-01 1.608864327260531302e-01 -6.285859348196622953e-01 7.404535184059520825e-01 6.713492317424185618e-01 3.191858579433511783e-02
-4.525456951504390479e-02 8.283045466809081658e-02 -6.139655817493072654e-01 7.682515371062939025e-01 6.400272103152880865e-01 -1.243968608312471906e-02
7.636112927973136288e-02 -2.284281737700256665e-01 -9.127092771845671804e-01 9.439585054546291154e-01 2.377015966214565956e-01 -2.289984518364105714e-01
4.754494027915235482e-02 -1.105556082200096352e-01 -8.570273114913625756e-01 8.861559528301274913e-01 4.187246116516010752e-01 -1.984875987585734691e-01
8.436563361943877348e-02 -1.745755037434268409e-01 -8.529510903634721641e-01 -9.066603847311298647e-01 -3.519389453391765232e-01 2.326068045280438035e-01
4.594347376696478191e-02 -3.746245431506745049e-02 -6.157943516741055667e-01 8.202896679280724523e-01 5.624627051630888275e-01 -1.037331479859391614e-01
3.388003428429629121e-02 -5.701474034395172252e-02 -7.881531100025419567e-01 8.692334470051663597e-01 4.707315723376449546e-01 -1.511456298145770205e-01
-9.948541149274008066e-02 1.508970744926705354e-01 -5.653054702810280663e-01 -6.471438657269007466e-01 -7.300494600075120299e-01 -2.196192227351308479e-01
5.638601974230881414e-02 -1.313573744373399965e-01 -8.931558218251857140e-01 -8.944392443797868353e-01 -3.864194194838636576e-01 2.250743662860558159e-01
-8.269383697876035721e-02 1.258385740953833209e-01 -5.947947183601123289e-01 7.339157984237650867e-01 6.789878762092410591e-01 1.852200812199835539e-02
-2.798298806983344142e-03 2.353314072840806404e-02 -6.291670141691008133e-01 9.527928113228048002e-01 -5.465796854116966585e-02 -2.986609535351723577e-01
1.911583653816497502e-02 -7.757149316271490236e-02 -9.197491384391881519e-01 9.033930366223255071e-01 4.242804936986173114e-01 -6.218588303747894092e-02
1.347264828874551734e-02 -1.321963814263648652e-02 -8.126971304710232102e-01 -8.553588717270722563e-01 -5.007737114670813838e-01 1.326155739770939201e-01
-1.377588517161509537e-04 2.031310230277300066e-02 -7.624614811500445288e-01 -8.382347810218733208e-01 -5.347941771634630026e-01 1.065722288275252616e-01
-5.748749175095758251e-02 1.074960082527538913e-01 -6.872206607519164567e-01 -7.833331048433412880e-01 -6.206203629026079138e-01 3.492294384965201337e-02
-6.689689446394769812e-02 1.083890293661109727e-01 -6.158436244908613855e-01 7.510608729059472521e-01 6.601485059474594408e-01 1.056007978633712215e-02
3.638143442690897067e-02 -7.657110052061846805e-02 -8.717527213170953582e-01 -8.826589790118087864e-01 -4.286033320606090213e-01 1.929049261070706622e-01
9.564315290883798615e-02 -1.441851557016873842e-01 -7.108554939560540742e-01 8.385765311177820758e-01 5.012841813437569627e-01 -2.133156604494538811e-01
-1.185722308554344392e-02 4.592710238294580444e-02 -7.064513871793567379e-01 -8.214673276885533504e-01 -5.660333688511852701e-01 6.926510584128763026e-02
-8.615870525516584888e-02 1.306281354888536306e-01 -6.997152779074422568e-01 7.698136738831051762e-01 6.382048191351475941e-01 -9.028639724220872270e-03
6.282679252870600195e-02 -1.415093079848517565e-01 -8.646392920640518787e-01 6.018769847982092802e-01 -3.547098295203751639e-01 7.154893654079300669e-01
4.263231101144535073e-02 -1.883616024815631604e-02 -5.994789093680908953e-01 -8.231320000948765259e-01 -5.646622534003847838e-01 6.008535599135251398e-02
6.925212242426405373e-02 -1.085424614851941694e-01 -7.729533041312053321e-01 2.085308902550196686e-01 -9.250405202465510346e-01 -3.175136275995714130e-01
-5.970129461638049723e-02 9.994470645711875378e-02 -5.986996505530377544e-01 7.514489996957591789e-01 6.597806724827314229e-01 3.723583553174894707e-03
2.883943187691228108e-02 -2.250756616465409560e-03 -5.702058308222599514e-01 -2.564282193054000514e-01 2.670292754457738726e-01 -9.289456035736252115e-01
