-1.010507948502854803e-02 -2.031202823562360815e-01 -7.689814985928967728e-01 -5.873935409232048377e-01 1.950877234496021240e-01 -7.854359351601828410e-01
-6.111446315649445016e-02 7.581176256207194930e-02 -7.317319598016802651e-01 5.344270563563652265e-01 9.581251438237911588e-02 8.397664458181194336e-01
3.292502226314945879e-02 7.670380425008258007e-02 -7.836162059320423978e-01 -5.462781935965179692e-01 -6.751184098773442555e-02 -8.348786058627758466e-01
2.689527659488743019e-02 1.694537279424858933e-01 -8.014448542573135992e-01 5.113251931956482865e-01 1.570959474027242564e-01 8.449067464004966777e-01
8.926760324510223110e-02 6.619349781955885526e-02 -8.199198805983833882e-01 -5.544551579413224962e-01 -5.375098838343095320e-02 -8.304759533424597162e-01
4.482924589541773669e-02 -1.488551136155587817e-01 -8.091889303704253855e-01 5.944003022232123845e-01 -1.422452244075752825e-01 7.914888355815211662e-01
-7.429325663851393813e-02 4.985900380923519865e-02 -7.103360344514941804e-01 -1.962625015004879625e-01 9.634406897094750510e-01 -1.823816545513881893e-01
4.638820317161333751e-02 -1.494650497149515589e-01 -8.057787907488543899e-01 -6.166708204552163730e-01 -3.288464614750422066e-01 7.152461841732774550e-01
9.071185251246041692e-02 -1.873329436727761699e-01 -8.477453508821687356e-01 -5.988137521548656528e-01 5.377319447472980185e-01 5.935203836672331423e-01
-3.718167427121787938e-02 -1.336735488126628291e-01 -7.461767930858282938e-01 5.875443135517017801e-01 -9.606167582116820203e-02 8.034698712780016239e-01
7.565856839842843851e-02 -2.072585296533889856e-02 -8.183924189313057651e-01 5.751661965808604338e-01 -2.689930332112459507e-02 8.175941987266942546e-01
8.537533081259014722e-02 5.292715386993399745e-02 -8.251726544381678963e-01 5.518540780698198978e-01 2.288147900340362431e-02 8.336267236817243020e-01
-1.754681877269295351e-02 1.262821353878640362e-01 -7.665163093713843745e-01 5.271546386121076511e-01 1.262305224907264434e-01 8.403415033077066276e-01
-4.625868975669074346e-02 2.346712764734752987e-01 -7.652885660025466885e-01 -4.816066041913428797e-01 -2.557061647095230650e-01 -8.382538017383693862e-01
3.823624865410744228e-02 -8.705041836401056221e-02 -7.870807992202163428e-01 -5.767133199693479373e-01 7.475784967233038703e-02 -8.135189060386375237e-01
-6.906933920216816458e-02 2.338913734025270252e-01 -7.476433062073262192e-01 -5.139075406128045254e-01 -2.837076892230031566e-01 -8.095733362562298474e-01
-1.896649026100648977e-02 1.324529275618973601e-01 -7.578508433595585458e-01 -5.187143162457352741e-01 -1.606820171930012087e-01 -8.397123004175343075e-01
6.076640418191258872e-03 1.321553351167726043e-01 -7.735357959019254492e-01 -5.248967595142294273e-01 -1.260345757175252990e-01 -8.417830347394537061e-01
1.575311950420277447e-03 -1.393080658380629888e-01 -7.792567492963682341e-01 5.911164958952889181e-01 -4.454340985330956099e-02 8.053553084937821183e-01
1.566261228712062872e-02 -3.817211357532995786e-02 -7.806462412874567436e-01 2.511670650071379796e-01 -1.590377651448547924e-01 9.547890315213251045e-01
1.158733560511535608e-02 -1.523617237042202421e-01 -7.848333218843204229e-01 5.911359120279067181e-01 -1.338415541519169527e-01 7.953896981311326941e-01
-5.619641683186938491e-02 -5.826220675188143600e-02 -7.276074750174543748e-01 5.722635255428776269e-01 -1.996386453381825132e-02 8.198267508724703667e-01
-4.010254664906486716e-02 7.437859035880410585e-02 -7.362834316400542756e-01 -5.369421886870837657e-01 -9.245542216801751201e-02 -8.385374654239712289e-01
3.797581614401548955e-02 1.106221563846925965e-01 -7.905703895430512551e-01 -5.375178118102277303e-01 -9.982793452405611112e-02 -8.373225098344158068e-01
1.215211757281422084e-01 -8.190596862492612040e-02 -8.555979702504645790e-01 5.701640541682222452e-01 -1.064676770643837311e-01 8.146027160984491422e-01
-1.055313932017354003e-02 -6.755382794130608548e-02 -7.599165338161121275e-01 5.786753784150077129e-01 -4.077996916639150399e-02 8.145377833661466838e-01
1.601043384835574429e-02 1.965675808128393154e-01 -7.920057137369075351e-01 -5.112396704055557350e-01 -1.880925265799794077e-01 -8.386031247547188761e-01
9.376854751544370925e-02 -1.652168900048998912e-01 -8.490307341046212652e-01 5.725211933864273739e-01 -1.382686637780046746e-01 8.081468058097033280e-01
-4.251763353224197878e-02 -1.457952055235182121e-01 -7.343855310369575840e-01 -7.766045470483773361e-02 9.965529464175634233e-01 -2.917325421530142168e-02
5.452576912933822240e-02 1.581641280912682024e-01 -8.162172913254666096e-01 5.169634686886772634e-01 1.265828939340961634e-01 8.465964463690124342e-01
-1.079479310579452705e-01 -6.710894404158593285e-02 -6.840736294526780226e-01 -5.317398167203937209e-01 2.607744856211275178e-02 -8.465061925294181666e-01
-4.760632961873850766e-02 1.963979608497913865e-01 -7.540340293878912137e-01 -4.939071991558773300e-01 -1.948716193924164564e-01 -8.473964423912656585e-01
-8.853764690746245003e-02 6.760669419422299375e-02 -7.045427439003504322e-01 -5.287992469533765449e-01 -1.061308212522376060e-01 -8.420852719302643896e-01
1.133465676983494569e-01 7.172069153035688822e-03 -8.351341589647606201e-01 -5.736440033911042180e-01 1.555254108794206815e-02 -8.189570659315021928e-01
7.686178674448496118e-02 -1.702539964391038274e-01 -8.284507706086977619e-01 -6.004796045554048334e-01 1.651501905196955666e-01 -7.823999355088757657e-01
-1.241284537694090362e-01 4.614563151628042759e-02 -6.894070424110211315e-01 4.450336318707544536e-01 7.453132072546921894e-01 4.964406204126027844e-01
2.116141655105538769e-02 -9.179679914703572918e-02 -7.771259414399190879e-01 6.190384197420657486e-01 3.129922950480457100e-01 -7.202966459201398663e-01
-9.215795315562790024e-02 1.122027445449044897e-01 -7.091796029538662838e-01 -5.129881272351273225e-01 -1.586895641295928416e-01 -8.435999072736770632e-01
-5.171480823059180360e-02 1.976777442813584251e-01 -7.545100410264005131e-01 -8.834646736175298942e-01 -3.468674153464635368e-01 3.149177140789881646e-01
-6.902934001881838588e-02 2.266537311711701586e-01 -7.452587796618775906e-01 -4.299770826802452595e-01 -2.515730923127735275e-01 -8.670817075650796291e-01
-3.749239024126459902e-02 -1.876950766099390044e-01 -7.453811126256261188e-01 -5.307907581741175829e-01 2.421397799427896236e-01 -8.121757802386148084e-01
6.875844364589120405e-02 -3.568490916406231728e-01 -8.806974679372940873e-01 -9.307360736758247821e-01 1.042330019687486425e-01 -3.505222424598655739e-01
-1.173550490986753451e-02 -1.736486787750273764e-01 -7.618166793534362213e-01 -5.934096765801871731e-01 1.452498505366497938e-01 -7.916864509766973201e-01
-7.813177762996805636e-03 -1.767036033797814432e-01 -7.744021263943743350e-01 5.973537993010915592e-01 -1.418420904257885196e-01 7.893346944384197483e-01
4.786434704321941569e-02 -6.643320966344230805e-02 -8.013092105010710675e-01 5.771443419397316310e-01 -6.405180315676720082e-02 8.141263876569292401e-01
-3.509480005147266185e-02 1.487067235512007368e-01 -7.464202259903920389e-01 -5.288033284889331886e-01 -1.444227912433831973e-01 -8.363666045153259621e-01
-1.018046547130865009e-01 1.053232782162778769e-01 -7.104958558831117044e-01 5.205444079183673134e-01 1.606257237942874672e-01 8.385898259819740685e-01
-8.222431501411332777e-02 -1.724317818392858206e-02 -7.015663888900054435e-01 -5.565611876667689861e-01 -2.503911456830574742e-02 -8.304292186120325603e-01
-5.844843401616865719e-02 1.877869167433860731e-01 -7.455975811829836930e-01 -4.966701037199181545e-01 -1.953705242741402004e-01 -8.456649255560343414e-01
-1.115636937044316712e-01 1.365666371333746909e-01 -7.144905179060027089e-01 5.033842645804931237e-01 2.749354213789370061e-01 8.191549281081951239e-01
-7.369269194053421068e-02 -3.993016324692334751e-02 -7.068061743420076537e-01 -5.604030753290257794e-01 -1.924907395975592600e-03 -8.282177780591810645e-01
-1.354186102286469018e-01 1.267920246883778301e-01 -6.934302038792580225e-01 5.837914438929482364e-01 1.621816344070125537e-01 7.955404876550637994e-01
-7.953623951150395888e-02 -6.718880354482838213e-02 -7.029562328334574284e-01 -5.655409369194149827e-01 1.865497590384362567e-02 -8.245092119208476955e-01
-8.729513044019371337e-02 1.534232470645156832e-01 -7.203307489791604956e-01 -5.029571788296115509e-01 -1.899165699493131076e-01 -8.431878632442747490e-01
-4.255483695464678390e-02 1.282160749034325919e-01 -7.545745063099957850e-01 8.472735120552079557e-01 2.832387706428483032e-01 4.493366161068573783e-01
2.052272275759341527e-02 1.559092869655023805e-01 -7.864841861829618974e-01 -5.168725620777041563e-01 -1.598197717727373457e-01 -8.410115309089046809e-01
3.108200197523102240e-02 -1.008060148812495865e-01 -7.949641112733648596e-01 1.063657630124763137e-01 -2.253660403671032542e-01 9.684505523298682084e-01
-3.748077002255243567e-02 -9.008667879449175353e-02 -7.332593101009708958e-01 -5.753725952572336100e-01 5.509366116016924803e-02 -8.160337401890466191e-01
-5.416914293391397739e-02 4.647098283464959519e-03 -7.212255683448705046e-01 -5.540559434355237789e-01 -4.097588212309727362e-02 -8.314703774807649106e-01
-2.995839556697797376e-02 1.103437722810007154e-01 -7.597934080138267765e-01 4.569245968669854996e-01 1.015020772393080972e-01 8.836952195717980851e-01
3.076692400371117825e-02 1.373119281948721043e-02 -7.784934850646849647e-01 -5.641818749588145554e-01 -1.039576568174245715e-02 -8.255850895115819377e-01
-2.277237486700451827e-02 1.651709577774697069e-01 -7.649872834381312714e-01 4.847574463733304584e-01 -8.509391539487752842e-01 -2.022690645218636896e-01
6.096188792186835181e-02 -2.639977152096818491e-01 -8.479060439950590888e-01 -6.123504285040153317e-01 -3.446406986860289234e-01 7.115122918967420329e-01
6.417381329660724887e-02 -2.728880678912072866e-01 -8.437089384926365065e-01 -9.394096665282979375e-01 9.293086610630207911e-02 -3.299595923108232243e-01
6.901789920691119018e-02 -8.973947975482436668e-02 -8.095828478627533631e-01 -5.855816248306731087e-01 8.192838712474410923e-02 -8.064625844041415359e-01
-8.033647011476834077e-02 2.256480027475698258e-01 -7.475550984747707517e-01 8.886380599253197454e-01 3.398748327060366892e-01 -3.079082599496278383e-01
-6.318810018409094786e-02 -5.584762447744788527e-02 -7.139598283061350248e-01 -5.660758315214058367e-01 3.363043469537568570e-03 -8.243463124840012535e-01
4.583106845188518463e-02 7.697058869296409533e-02 -8.007789371189087957e-01 5.451473473826253802e-01 7.148059976946882776e-02 8.352873119461854401e-01
-6.255486811919627223e-03 2.165862295034509666e-01 -7.916175896864464656e-01 4.899187655836164113e-01 1.975757988360740403e-01 8.490838632569297495e-01
1.161150643797378562e-01 -1.241715474079997522e-01 -8.495650239685648142e-01 -6.082815932998280051e-01 1.381531992817910115e-01 -7.816055250449732705e-01
-8.157328715707985733e-02 2.233247395121071843e-01 -7.416942702512669960e-01 -4.771948738224322528e-01 -2.551638329358081880e-01 -8.409378519005432651e-01
3.804371873130617948e-02 -2.017500925061205611e-02 -7.833730219981012155e-01 -5.729002163233776201e-01 1.541028815977576842e-02 -8.194802408572517960e-01
1.373232082450815961e-01 -6.599604953124363349e-02 -8.577806332327313488e-01 -7.692445545142373442e-01 8.946200897916070649e-02 -6.326605442886454878e-01
9.059829128270700804e-02 6.323892323720055331e-02 -8.290376896689743980e-01 5.452731528055214660e-01 4.948265978103095347e-02 8.367966630015449825e-01
-6.755421009030031232e-02 2.382797540909321332e-01 -7.541618053575178671e-01 -4.803535297549262340e-01 -2.602862501022463193e-01 -8.375628659746645610e-01
4.635755720755257298e-02 1.112216417445584526e-01 -8.016035608474652019e-01 5.578303423863265609e-01 -8.260760090220173879e-01 -8.014821539753327895e-02
7.412262313633308231e-02 -8.746524582098703926e-02 -8.130575369339397840e-01 -5.852228914487672684e-01 8.202721881068210374e-02 -8.067128997967794035e-01
4.543093004704158722e-02 9.709042690031437217e-02 -7.937428970007955886e-01 -5.375178118102277303e-01 -9.982793452405611112e-02 -8.373225098344158068e-01
8.323100772081779009e-02 1.283671119042112119e-01 -8.185308420587583678e-01 -7.435295729130435571e-01 -1.623752460553961052e-01 -6.486894894109173082e-01
1.929730055864447083e-02 1.836374047675512489e-01 -7.877570012813838174e-01 -7.430634057434809536e-01 4.312128197816454400e-01 -5.117736600303511851e-01
-1.252951679866646205e-02 -5.670119314901332641e-02 -7.579691089945079785e-01 5.786753784150077129e-01 -4.077996916639150399e-02 8.145377833661466838e-01
-4.708285718575595108e-02 4.084182125684614195e-02 -7.283482429191195928e-01 -5.431263053842459998e-01 -6.649915692557945013e-02 -8.370135473980369056e-01
-1.136986855600112117e-01 2.206083942228622904e-02 -6.916724849018167642e-01 5.457097500806072921e-01 8.375025947357853107e-02 8.337786053294179434e-01
2.135916645024826810e-02 -3.083795125735264500e-02 -7.760821751707169813e-01 -6.275196516767982402e-01 -2.947100316079957483e-01 7.206698856127150554e-01
-6.272390063992420994e-02 -1.423195845646887669e-01 -7.282869278873168595e-01 6.068635819838449352e-01 -7.029128825014560600e-02 7.916916872481811751e-01
6.654166528967814243e-02 6.971189716792647317e-02 -8.050681504295391644e-01 -5.512080443322090462e-01 -5.223409468937142974e-02 -8.327312238744525308e-01
1.039826793236338226e-01 6.429468036610581916e-02 -8.378798748578544231e-01 5.350231407946629547e-01 2.325705664891102378e-02 8.445172278469180727e-01
-2.452621113301726649e-02 5.740394928769305266e-02 -7.444711199049800499e-01 -5.421169562408535425e-01 -9.118019434692890834e-02 -8.353414738386983895e-01
1.592366012139669398e-02 -4.516209228791615016e-02 -7.686260600884302630e-01 -5.713048813324664854e-01 1.981533304292109124e-02 -8.204986807680403338e-01
-4.711864642899128014e-02 5.168894502334137747e-02 -7.304568094905899978e-01 -1.901822806879663597e-01 9.675903201601683268e-01 -1.661314914297300771e-01
6.034376201385791005e-02 -3.947589345888031370e-02 -8.084070329242737385e-01 5.758332455986410192e-01 -3.423398140812256712e-02 8.168501134114406481e-01
-2.812447628409413258e-02 -1.625101293360723398e-01 -7.567295792624124662e-01 6.004494792110650625e-01 -1.187009849175554022e-01 7.908037045277184207e-01
-1.084304457793670018e-01 -8.120738610759944964e-02 -6.899806048486205601e-01 9.394842395166649318e-01 3.367562672349393993e-01 -6.296491227488455744e-02
-8.275490780055766438e-02 1.398775215265011806e-01 -7.327283834790784267e-01 5.052082373457308373e-01 1.899495164740198916e-01 8.418336047636170161e-01
2.349375173540776268e-02 9.315255452285136142e-03 -7.734675960678049078e-01 -5.641818749588145554e-01 -1.039576568174245715e-02 -8.255850895115819377e-01
-2.060854875448011464e-02 2.123237738176669276e-01 -7.740251207728021665e-01 -4.921383056754530250e-01 -2.213972850224948385e-01 -8.418925883220272910e-01
-1.175127575107370592e-01 1.825699918265053512e-01 -7.174236393044759463e-01 5.177070661071091484e-01 1.978056584680786545e-01 8.323775076134503070e-01
-3.704836969982030354e-02 6.066719889681769506e-02 -7.367273282874723384e-01 -5.369421886870837657e-01 -9.245542216801751201e-02 -8.385374654239712289e-01
1.023773102180768196e-01 -9.309135183430800042e-02 -8.310943825844594457e-01 -6.962813805275730461e-01 6.341110293920850793e-01 -3.362966570365026886e-01
-4.086938998224657477e-02 2.357233646649740250e-02 -7.398119735882472403e-01 5.490908143089803239e-01 6.326640506981014156e-02 8.333646498568579863e-01
-1.048741201558510000e-01 8.578459065693683216e-02 -7.054367104172539760e-01 5.284263423369711665e-01 1.303536481724013041e-01 8.389121093013951480e-01
6.884353527305246689e-02 1.221119429982641946e-01 -8.241910355738525373e-01 4.675211942540420940e-01 1.986562327830815045e-01 8.613707878142304875e-01
-5.028143253776894833e-02 -1.762178644833237995e-01 -7.341264637804086890e-01 -5.287668174787821807e-01 2.117540751625786311e-01 -8.219281382124602464e-01
1.471344920737030146e-02 5.889741996899694465e-02 -7.789750072953063320e-01 5.462444132828604415e-01 6.217659867684689756e-02 8.353149774391943616e-01
1.053506782614160586e-01 2.743282813399827713e-02 -8.295139608696396882e-01 -5.679516951432501681e-01 -1.398012129838051981e-02 -8.229431500367392349e-01
7.745444367741116665e-02 1.288519437767853271e-01 -8.262665988096582481e-01 5.226172529782036058e-01 9.980365841052080134e-02 8.467056375490790154e-01
1.736152505196062942e-02 -1.064983615025563851e-01 -7.830242482648499536e-01 5.828354002767016651e-01 -9.162874137515436557e-02 8.074076231608803278e-01
-1.318101130435358759e-01 9.624119128586185179e-02 -6.822220484508111360e-01 -5.028174283860604721e-01 -1.602123397531095006e-01 -8.494154695448293824e-01
4.374389902036273509e-02 9.709772021053112573e-03 -7.960637031422818088e-01 5.620573708204132934e-01 1.458503845185599862e-02 8.269696418610554822e-01
3.686326676557058479e-02 -2.773953062413190424e-02 -7.826900162287526719e-01 -5.729002163233776201e-01 1.541028815977576842e-02 -8.194802408572517960e-01
-9.180210063889816807e-02 1.073207468675768800e-01 -7.170806955800854698e-01 5.174078228305826199e-01 1.602610044509196752e-01 8.405983317412061284e-01
4.524099081706604852e-02 -1.467500239798395778e-01 -8.055196153404535764e-01 -6.166708204552163730e-01 -3.288464614750422066e-01 7.152461841732774550e-01
8.383915380444889598e-02 -5.118203808059421100e-02 -8.168688048366592458e-01 -5.813871082687417369e-01 5.279087435312666138e-02 -8.119126516589963982e-01
5.001641083238204250e-02 -3.687240307787180427e-02 -7.921450655365228632e-01 -5.742303841806941644e-01 3.399107185679600684e-02 -8.179878195411705022e-01
-7.184558605637635098e-02 -1.350274009978415235e-01 -7.207054722672066038e-01 5.955707061045121264e-01 -7.204711646135424086e-02 8.000654642213829160e-01
6.488523368639212419e-02 -2.507805711954222069e-02 -8.109666127346663034e-01 5.729026283770519701e-01 -3.524874137341513919e-02 8.188651321373108249e-01
2.140432406473247173e-02 2.622605508128712098e-02 -7.726538411758233638e-01 -5.587609402321522811e-01 -3.446567844282068943e-02 -8.286122909300568384e-01
7.363312613731830270e-02 6.392477329237750139e-02 -8.093991818420653850e-01 -5.512080443322090462e-01 -5.223409468937142974e-02 -8.327312238744525308e-01
-7.983997769369294284e-02 3.141804398544134624e-02 -7.148558948985089812e-01 5.510290147789882464e-01 7.310693120033767700e-02 8.312775718628323540e-01
6.794392045455846518e-02 1.229970314979334234e-01 -8.196501931435474786e-01 5.264858877096031398e-01 1.024590498327079824e-01 8.439874129097009181e-01
-1.081886752133133928e-01 9.167007093030277165e-02 -7.042633999241807441e-01 5.284263423369711665e-01 1.303536481724013041e-01 8.389121093013951480e-01
-1.048063987670061620e-01 -3.379829434119558523e-02 -6.860648185295833423e-01 -5.483369678113169110e-01 -2.938739743968317789e-02 -8.357409590316923209e-01
-8.607989294984449979e-02 1.672762264266790255e-01 -7.327541123845022764e-01 5.028750141070258417e-01 1.879689928666890553e-01 8.436731463709989942e-01
6.234493949425485432e-02 -3.520309490862246760e-01 -8.731120254577549034e-01 -5.707741210149031019e-01 3.167940776955163740e-01 -7.575344316377388143e-01
-9.708758566195527240e-02 4.995594590698244908e-02 -7.092889882610712293e-01 5.239594616352304390e-01 1.856628603622828277e-01 8.312615622323787923e-01
6.892704880119844557e-02 9.278288748009307085e-02 -8.170788340029124797e-01 5.418378608134354346e-01 7.810732508351733716e-02 8.368458510128480299e-01
1.742799606355729253e-03 -4.041415826908266451e-02 -7.673074269223298938e-01 1.044346866358745740e-01 -9.876798817912640915e-01 1.165411829872232963e-01
-1.264046478909738869e-01 1.615515461874687253e-01 -7.068918413265600220e-01 5.325400231560424302e-01 1.842463276688864060e-01 8.261079920188950654e-01
1.329950456522297486e-01 6.428368884773303510e-03 -8.562328215250742947e-01 4.069772320448528657e-01 -6.125457114441749257e-02 9.113821427431105793e-01
1.207593745122363393e-01 1.693123575066764544e-02 -8.401889364366883495e-01 -5.855221202658000834e-01 4.959974596698633019e-03 -8.106412556312699857e-01
-3.138923569770037808e-02 -4.220315092699586379e-02 -7.465943370745513619e-01 4.216112626771846283e-01 -6.864942901612928194e-01 5.924268163745564086e-01
7.919045784994566128e-02 7.472310175163601742e-02 -8.222832200897175481e-01 5.452731528055214660e-01 4.948265978103095347e-02 8.367966630015449825e-01
1.779135312320066775e-02 -9.859160005488648570e-02 -7.734202563509088302e-01 -5.857396980919304941e-01 6.740637511501160195e-02 -8.076913932146537745e-01
-3.705154373281483587e-02 1.039073303063660358e-01 -7.509545645701030114e-01 5.352226273901906639e-01 1.265563840181773980e-01 8.351767602093492782e-01
6.577500736666699009e-03 -1.355805938747219330e-01 -7.787046431651009071e-01 5.928991417156640464e-01 -1.112722520350837990e-01 7.975519379199511594e-01
-5.077207405185026057e-02 -3.333069874750486938e-02 -7.311488352554615933e-01 5.658445249152184164e-01 -5.635671935757724862e-03 8.244927002862447729e-01
-7.554936760041998378e-02 1.712788123770241366e-01 -7.400095578905822036e-01 5.031102140931940081e-01 1.920922185431698237e-01 8.426035200794403934e-01
-9.136609545477633598e-02 -5.823252207947483133e-02 -7.030845979518759448e-01 5.709157522031718113e-01 7.932817765068510274e-03 8.209703248526055708e-01
-7.971603842271753060e-02 -1.066228528773867715e-02 -7.120665220450337340e-01 5.591960520930436829e-01 2.580640939708388898e-02 8.286336974547825474e-01
3.004423418517775113e-02 -7.459402433592278447e-02 -7.891912505116916998e-01 5.856927138848305736e-01 -6.482316945104335537e-02 8.079368797155773718e-01
2.989694014084058257e-02 -2.164627185699979361e-01 -8.029357018545641989e-01 -6.003253543358122446e-01 2.125741086936917268e-01 -7.709874948756717528e-01
1.191735954762814381e-01 7.026113587359907042e-02 -8.406036979592442782e-01 -5.882087242718168074e-01 -5.480173521659507940e-02 -8.068502131794799137e-01
-6.853525666372509151e-02 2.017847999544199536e-02 -7.213287305652297254e-01 5.487673778321445761e-01 6.846235287846939854e-02 8.331670128285062482e-01
1.336872950192418419e-01 -8.747218510326043583e-02 -8.598376464325258040e-01 -7.909324992778630214e-01 1.550590581324891859e-01 5.919311362626051842e-01
4.679940021525900995e-02 -1.322131725258866297e-01 -7.940681463638942228e-01 -6.114635003197131935e-01 1.487028971762861529e-01 -7.771742636938917537e-01
-8.525462128512420468e-02 1.363992578570589476e-01 -7.299631656252076883e-01 2.768649267372120804e-01 7.838816908462797883e-01 5.557655144921963553e-01
9.373087541372406017e-02 2.273346584070868454e-02 -8.232353852307211506e-01 3.640757784778290151e-01 -8.209676469847846381e-01 -4.398419604017208551e-01
1.840326046345339833e-02 1.961554431834155177e-01 -7.987535701813798239e-01 5.335753090524241182e-01 -8.448492099423642321e-01 -3.907943230617441643e-02
1.126542901690536468e-02 -1.460210832671482092e-02 -7.761108140767689623e-01 8.021272792324335432e-02 -1.446133382021160818e-01 9.862316668476793780e-01
1.053885300183912167e-02 1.194447478439690791e-01 -7.831061885417455182e-01 5.279854327165621752e-01 1.282186144036902564e-01 8.395185344943270067e-01
-5.836870252054437991e-02 5.916192144056642288e-03 -7.272152842074344203e-01 5.566287540154080116e-01 4.183681453315571397e-02 8.297072442452053664e-01
1.180503624173201288e-01 -1.374857187742980491e-01 -8.539348757992319960e-01 -6.780055074755730882e-01 1.897200546764466478e-01 -7.101512745087181777e-01
9.335332643559715593e-02 1.057467741676873935e-01 -8.259055377529995745e-01 -5.483209800522916844e-01 -8.858527370974214610e-02 -8.315628371423681164e-01
6.291811154168418241e-02 -3.867256030491809660e-01 -8.909708334005858044e-01 -5.663204136806498923e-01 3.875659297729431296e-01 -7.273746208988952633e-01
9.441497699031065061e-02 -1.307745488485553553e-01 -8.341777546482861405e-01 -5.895692672685757252e-01 1.264641793598753339e-01 -7.977561597576217078e-01
-3.590034748376422918e-02 -1.040400255327710993e-01 -7.442351906573829723e-01 5.810505227639620740e-01 -7.494320151169361899e-02 8.104096535351142938e-01
-5.292529808722550022e-02 -1.612110143829014464e-01 -7.294943398317115246e-01 -5.803511505720971853e-01 1.229935915517885864e-01 -8.050249179167281444e-01
4.823052624084556844e-02 2.225689955871198479e-03 -7.902171164672989745e-01 -5.614012159798535961e-01 -9.316788506630209465e-03 -8.274913124306891854e-01
-7.885434574090044446e-02 7.710195753891027626e-02 -7.205150472714302312e-01 5.308754953113229424e-01 1.323176187868065345e-01 8.370563041017889949e-01
2.785780623666100561e-02 -2.232180622319546864e-03 -7.763090431369924493e-01 -5.619291811593286612e-01 -6.252319795237487078e-03 -8.271617156631371204e-01
-6.082589600118372408e-02 2.162499940880384663e-01 -7.472595499579262057e-01 -5.515660472181482810e-01 -2.451482871878403191e-01 -7.972936804246071318e-01
2.407554761597455184e-02 -1.548794152377123978e-02 -7.736375166867256459e-01 -5.664078034837460862e-01 -7.968162969769191153e-03 -8.240865904330715308e-01
5.340680638051192169e-03 1.889432621051466074e-02 -7.573112480455256312e-01 -6.068750519724683823e-01 -6.122001614555819954e-02 -7.924359790649029289e-01
1.255610770385273411e-01 -3.585060340376507171e-02 -8.539676817365594585e-01 5.646553230236402987e-01 -6.184047759323030302e-02 8.230067566624893471e-01
3.624557077103236769e-02 6.749988409469097339e-02 -7.850446407227613665e-01 -5.462781935965179692e-01 -6.751184098773442555e-02 -8.348786058627758466e-01
3.699157356813136122e-02 -1.000486721087370523e-01 -7.919027372022441336e-01 -6.166465281703393808e-01 -3.130196139452767201e-01 7.223335660074347020e-01
5.590613610169705566e-02 -2.124545781255605392e-01 -8.188059870509047933e-01 -9.269097187582323594e-01 2.604609317758151132e-02 -3.743794522963560523e-01
-1.090227502423262301e-01 1.941753779708861316e-01 -7.255553126003686515e-01 5.020052116236469741e-01 2.107937972901831047e-01 8.387828935586862933e-01
4.429358997943347309e-02 -8.708126798706253280e-02 -7.914137547705558662e-01 -5.791748900417401646e-01 6.995282092032943655e-02 -8.121964353470326747e-01
3.143218710243264602e-02 3.543904952740676434e-02 -7.885113252944448980e-01 5.567405525375350717e-01 4.207596906129977554e-02 8.296201359584713941e-01
8.116319010370787873e-03 8.582052338809870173e-02 -7.772663990362271846e-01 5.371499148945617641e-01 9.275927965711115719e-02 8.383708516916953402e-01
-3.871454729257595151e-02 1.259041989185351665e-02 -7.318883126185573573e-01 -5.512905771970769697e-01 -4.001201677222697428e-02 -8.333533092317644275e-01
5.645990896304231565e-02 -3.188425978153137663e-01 -8.734804030373126693e-01 5.540890579805198835e-01 -3.221765395840264223e-01 7.675855608125534690e-01
4.190771974765809815e-02 9.804468739499212077e-03 -7.860128168905506918e-01 -5.614012159798535961e-01 -9.316788506630209465e-03 -8.274913124306891854e-01
2.480777336005891495e-02 -1.348670217238550351e-01 -7.783585020367606022e-01 -5.815045702546053352e-01 9.939838375817212912e-02 -8.074480763982720966e-01
3.495572398613941423e-02 1.117705027881058799e-01 -7.887685554099951313e-01 -5.375178118102277303e-01 -9.982793452405611112e-02 -8.373225098344158068e-01
-8.892303171534540751e-02 1.382635676291107778e-02 -7.073569047862822146e-01 5.530988260343119300e-01 5.275843445925481462e-02 8.314434654460123308e-01
-9.079325805616800249e-02 9.971813900577129741e-02 -7.079153454964152159e-01 -5.217690104725839495e-01 -1.299189880245621709e-01 -8.431359061628997953e-01
2.261573285590370505e-02 -3.019951489289662491e-02 -7.817691473986196904e-01 5.669840417705328539e-01 -2.213421337963056637e-02 8.234313407780977645e-01
-1.202124598912872044e-01 1.435382418421555506e-01 -7.019717566156394861e-01 1.661651742710614221e-01 -9.854331005898058216e-01 3.620413127571620038e-02
1.223069795957997946e-01 6.982225898012416054e-02 -8.429821406653922322e-01 -6.748257205972374440e-01 -9.312594807293199384e-02 -7.320777312662481995e-01
-6.592942633473784786e-02 3.830404816139108826e-02 -7.158815145631156618e-01 -5.422398739033703619e-01 -7.045147493635407765e-02 -8.372648976450339786e-01
-6.167000742989095508e-02 1.466597374009115384e-01 -7.299116491706872933e-01 -5.130872173006526538e-01 -1.474481626694537639e-01 -8.455770495750668525e-01
6.544483272370636706e-02 -5.053965493263824424e-03 -7.986582107377256934e-01 -1.160730936196360669e-01 -5.518489202296058549e-01 -8.258267410171368228e-01
-3.295082240788103217e-02 -1.303302744083308928e-01 -7.488809196966489390e-01 5.935221326625300664e-01 -9.984180224619745858e-02 7.986007090930692387e-01
6.420796496020153565e-02 -1.845484637435706732e-01 -8.217952596787382324e-01 -5.974191780168990329e-01 1.731574421056685520e-01 -7.830113830469099812e-01
-5.291337472652573454e-02 1.626265752816653531e-01 -7.552111521242473868e-01 5.686604135538169125e-01 2.042533873004821199e-01 7.968098191118639928e-01
-5.284954971636120213e-02 -5.431552251738326620e-02 -7.298665138381290607e-01 5.658445249152184164e-01 -5.635671935757724862e-03 8.244927002862447729e-01
-2.950566383031990106e-02 8.997291202135603017e-02 -7.487284560482092566e-01 6.297322443075802356e-01 2.648687856480291258e-01 -7.302614784230896383e-01
-1.884461764332028000e-02 -1.008552119659168744e-01 -7.472069969819510327e-01 -5.781580561825571118e-01 5.759016279837059910e-02 -8.138898176166503573e-01
-6.495017513735161507e-02 7.077777751484694291e-02 -7.199725572725064193e-01 -5.385532646679561664e-01 -9.666552943776948736e-02 -8.370281694984953447e-01
-6.251198721825287907e-02 -1.220745987639240693e-01 -7.264774793383973472e-01 5.898252285607185064e-01 -6.269478288855064030e-02 8.050935125510909618e-01
-6.589438597016822330e-02 -1.101504565257713508e-01 -7.144941385089009778e-01 -5.716679722878406089e-01 6.931878863260142187e-02 -8.175516099934102554e-01
-3.061336620705182657e-02 -1.909281894641362554e-01 -7.593030634496775733e-01 6.085646923808726294e-01 -1.267162211209134914e-01 7.833211439072799154e-01
4.107993079258413088e-02 -2.032692278399553243e-01 -8.105056048690767456e-01 6.140200825201621582e-01 3.443460666778581647e-01 -7.102148439911838418e-01
1.130590867197022314e-01 6.765526981964881115e-02 -8.438057314978520962e-01 5.186179407398561203e-01 2.217118570762329627e-02 8.547185911556323124e-01
-8.863664179725537495e-02 -3.981112129986347226e-02 -6.967060739691697258e-01 -5.562798824306345313e-01 -9.511314550858927797e-03 -8.309405678497553405e-01
1.263751691857559201e-01 -7.491782495339202597e-02 -8.581094288012781623e-01 5.604657500323211305e-01 -8.805570493507333674e-02 8.234830513550930320e-01
-1.206663282373554580e-02 -1.875429064499576914e-01 -7.730856551035711899e-01 6.043314891222011376e-01 -1.368609542520719258e-01 7.848901391000875361e-01
-1.020320627785864659e-01 -7.800389709585313358e-02 -6.881297213897961118e-01 -5.356878686688349989e-01 2.562848707705669624e-02 -8.440270659233517492e-01
-1.216419118493271695e-01 1.130914655943416058e-01 -6.995706639260462767e-01 5.240433351819506758e-01 1.574642631777750101e-01 8.370087148132079324e-01
-9.192301966821028736e-02 4.195438089310628282e-02 -6.993362638884560445e-01 -5.412032526000077892e-01 -7.796310057508550051e-02 -8.372698455837827014e-01
-6.544743170181283043e-02 -1.263853907489622119e-01 -7.161832005782532429e-01 -5.716679722878406089e-01 6.931878863260142187e-02 -8.175516099934102554e-01
5.680877187717758153e-02 1.016970195121048338e-02 -7.961455374025833143e-01 -5.600003556522249459e-01 -1.211961140423211715e-02 -8.284037160037318603e-01
9.599221885034649182e-02 -1.571974131818933140e-01 -8.491468644922345321e-01 5.898160878453583278e-01 -1.571144400575378297e-01 7.921060757526121598e-01
8.765894411435087852e-02 -1.163638492940662419e-02 -8.175887257600107372e-01 -5.704538445218254594e-01 2.769361555698303737e-02 -8.208626407186838669e-01
-8.236821108629782673e-02 1.928297073569746611e-01 -7.327563343685464803e-01 -4.912235886693250841e-01 -2.246104155966366644e-01 -8.415756336422388628e-01
-2.787392043290357058e-02 2.134867505757880868e-01 -7.782930192649013534e-01 4.921241756607929729e-01 2.074437103725947085e-01 8.454471614223065812e-01
-7.030703172923647749e-04 -1.053086230473019441e-01 -7.606632060037364917e-01 -5.835608283957546272e-01 8.270209288631537314e-02 -8.078472153781827148e-01
1.953477502470419777e-02 -6.607342086876938358e-02 -7.692803496186680912e-01 -7.473769174117723957e-02 2.111638706794874976e-01 -9.745891940468339731e-01
-7.911983681731440954e-02 -1.371797807223898713e-01 -7.151949550079679252e-01 6.336999948738807342e-01 -3.483261077453222304e-02 7.727942842202401019e-01
5.429713554215786359e-02 -3.639881870707701306e-01 -8.908981961949611339e-01 6.694948954640529415e-01 -3.350129943160489732e-01 6.629803003008247764e-01
-6.376135983565320298e-02 1.870131411611936356e-01 -7.422965251576332246e-01 -4.969435833762019250e-01 -1.954752428932009234e-01 -8.454800437367305799e-01
4.109223551531947932e-02 -4.148718132363025946e-03 -7.941096620020782204e-01 5.598814489832844021e-01 8.372544146329126760e-03 8.285304240574968837e-01
6.284480647912764339e-02 -3.544029703460226943e-01 -8.744806146371875144e-01 -5.707741210149031019e-01 3.167940776955163740e-01 -7.575344316377388143e-01
-7.675905578612968183e-02 -5.158908537520260316e-03 -7.143229258808435622e-01 5.574559967285014350e-01 4.889417120789191218e-02 8.287654503738234313e-01
-9.271649515803137565e-02 -5.105804861935224481e-02 -6.899521659974742205e-01 -5.388469670199284023e-01 1.052742438163125210e-01 -8.357997844713336288e-01
-1.588191466915043690e-02 -8.793795281446781242e-02 -7.483893677751645157e-01 -5.757562395950119871e-01 5.868385316042533384e-02 -8.155126963730587875e-01
5.323565554585072551e-02 -3.745183749626129210e-01 -8.885269839036151751e-01 9.144078352557810652e-01 2.070032802636931069e-01 -3.478619737523886979e-01
9.702137521057777048e-02 -4.436209695842089490e-02 -8.345721653144697605e-01 5.724339102738412732e-01 -5.240954723039513430e-02 8.182741947096368040e-01
-5.272147256631012913e-03 -1.601024624943324370e-02 -7.535893459104170411e-01 -5.668827468954531490e-01 -4.505497637014564162e-03 -8.237861687132823629e-01
7.750117627417797694e-02 4.478527929470370317e-02 -8.196432415856113041e-01 5.575816834580846759e-01 2.518831333724091265e-02 8.297398478699653523e-01
-7.347502930309385283e-02 -8.452286037630679649e-03 -7.163470380523849768e-01 5.591960520930436829e-01 2.580640939708388898e-02 8.286336974547825474e-01
3.071735961715836571e-02 -1.227129146537692395e-01 -7.946537514116992496e-01 5.849177915144730955e-01 -1.212983781128454813e-01 8.019712467645112586e-01
7.092643147507564144e-04 -1.417852726399347792e-02 -7.692910697486897709e-01 8.857589863862310731e-01 1.638075252828865014e-01 4.342788421011701261e-01
3.272727642377057811e-03 -7.535135445468732485e-02 -7.610832992560998544e-01 -5.810370539214125829e-01 4.142458869563594298e-02 -8.128222102167994567e-01
5.302673520067746615e-02 -2.810997806298790036e-01 -8.551583229935936226e-01 5.524329623296654335e-01 -3.228216079566116337e-01 7.685076652629938554e-01
-3.991135767054307393e-02 1.206438915469387890e-01 -7.549333185887430187e-01 8.559957205494934662e-01 2.697318482773836679e-01 4.410397447235567814e-01
-1.194950822135632668e-01 1.229338275862457003e-01 -6.945897169213256506e-01 -5.122518418361138304e-01 -1.582687384176829082e-01 -8.441262091507312215e-01
1.093832681283725405e-01 -1.138304777106761284e-01 -8.513714408706222203e-01 5.852321194628753442e-01 -1.268377821835628139e-01 8.008842259401454111e-01
-1.002074980674603072e-01 2.750209719754120527e-02 -6.926555530608473621e-01 -5.391627404334814466e-01 -7.747338788552028677e-02 -8.386306776512519878e-01
-1.072557961718109687e-01 5.821030730249501101e-02 -6.966679942168051420e-01 2.061563275824552510e-01 -9.609265822367391019e-01 1.847151107747684318e-01
6.647996369314322640e-02 -5.917263732655510255e-02 -8.140035002249542684e-01 5.775812848885369943e-01 -5.862151277567926450e-02 8.142256306371088437e-01
-4.961694812636940899e-02 2.045389387169400941e-01 -7.632809558698890884e-01 4.976444923406898035e-01 2.176636249924729927e-01 8.396264083496380870e-01
3.222611060243276565e-02 5.465122775574624697e-02 -7.901111414612909112e-01 5.462444132828604415e-01 6.217659867684689756e-02 8.353149774391943616e-01
9.927116792941183265e-02 -1.064400676861525091e-01 -8.429497670946554111e-01 5.894504852997789479e-01 -1.152088375796815611e-01 7.995467773203727146e-01
3.118127758030571003e-02 -9.722331298627680252e-02 -7.829096319822501648e-01 -5.892552070229869488e-01 6.612091862150076826e-02 -8.052368130661597956e-01
-1.050184728864683587e-01 2.261803462492222028e-01 -7.341301901001331398e-01 7.875468323162282402e-01 -5.932241437806655693e-01 -1.668984785561897222e-01
4.610512422310399094e-02 -2.077328717372274869e-01 -8.133603449432819099e-01 -6.106848055172636736e-01 1.947724365075332587e-01 -7.675465890011241576e-01
-8.157530618676980816e-02 -4.623615948413484222e-02 -6.973314281012059634e-01 -5.563772293809322589e-01 -1.068634497412055406e-01 -8.240294786813189276e-01
7.964236432817908828e-02 -7.181335225152600532e-02 -8.244883690258627551e-01 5.846744662328687836e-01 -7.355569612369314281e-02 8.079265610827934818e-01
7.551452614580556749e-03 -2.223082726864451519e-01 -7.926047617378115806e-01 3.841795945938968893e-01 9.230094264960704287e-01 2.143916269504123409e-02
-7.585288972812763431e-02 -7.824674488850251464e-02 -7.143102134155363547e-01 5.788171694497135089e-01 -1.687368542079077660e-02 8.152827503943289589e-01
-8.376860043027026248e-02 1.470601011803756020e-01 -7.243266017952186830e-01 1.162779695504995991e-01 -9.919476126267771088e-01 5.019330235450104177e-02
4.677947047271834025e-02 -1.575667983144544149e-01 -8.091663631466263773e-01 -6.166708204552163730e-01 -3.288464614750422066e-01 7.152461841732774550e-01
-1.090913594876589260e-01 8.698355406207132490e-02 -6.945954751627005930e-01 -5.218397944784796127e-01 -1.318012808059748908e-01 -8.427998880378205770e-01
-3.450100722461969804e-02 9.048228915009912110e-02 -7.418241541154803054e-01 -5.300156177286357018e-01 -1.255427083595869742e-01 -8.386432336467469773e-01
4.770305656691117835e-02 -1.121214441252902927e-01 -8.057529407746488737e-01 5.947720740330956213e-01 -1.110187278811509137e-01 7.961915736868989679e-01
-1.258441654971969269e-02 6.194266787744146657e-02 -7.614031536577242631e-01 5.370462615149329544e-01 8.750079054547574287e-02 8.390023388803816706e-01
1.128364766466765645e-01 -1.409105369508230621e-01 -8.502177904974820288e-01 -6.138905489141683880e-01 1.570499521682459099e-01 -7.736108236560632623e-01
9.064530658492152282e-02 8.063547285044399271e-02 -8.301377878883196004e-01 5.467897323756245598e-01 5.400411339385571136e-02 8.355265072426705242e-01
-7.194999868808593657e-02 -9.679402273675290214e-02 -7.093644691186552498e-01 -5.682073244827751113e-01 4.608421461503289795e-02 -8.215939882736740252e-01
6.473054755264449900e-02 -5.665985396223072700e-03 -8.015977235051316985e-01 -5.661250090575704608e-01 8.801259717102785651e-03 -8.242724136758172726e-01
3.394477497011540168e-02 -3.268957603919681043e-02 -7.931609722121372164e-01 1.231141089117087917e-01 5.416146615430660338e-01 8.315626702711382823e-01
-1.430466908553502080e-02 6.701174903410693495e-02 -7.608306801824836763e-01 5.370462615149329544e-01 8.750079054547574287e-02 8.390023388803816706e-01
7.299239195805394542e-02 -1.066737956725988534e-01 -8.237387402039886286e-01 5.858194041349770176e-01 -1.080431965975083008e-01 8.032075033314447499e-01
1.035269326161398773e-01 -1.266909279968422841e-01 -8.492150489283675219e-01 5.777706068610578560e-01 -1.350645818646553087e-01 8.049463861482520910e-01
-1.074087145987798197e-02 1.742973796369620965e-01 -7.823019042396275324e-01 7.059062164324999555e-01 -6.500905748753577074e-01 2.812092780478255838e-01
1.112923424208114159e-01 -8.515870609288342385e-02 -8.454385251724743089e-01 -2.867059918945559227e-01 8.094266978426862824e-01 5.124725310016562396e-01
2.857385930844080768e-02 -2.068128343209055808e-01 -7.994789711700978074e-01 -6.035657776712507472e-01 1.877611289348286583e-01 -7.748897408568633516e-01
-7.998725005192020357e-03 8.680225434337936197e-02 -7.582923272116069979e-01 -5.348522758242929553e-01 -8.987519685418353388e-02 -8.401520648287404969e-01
6.275723749822337272e-02 1.489939631610182613e-01 -8.198618915148869757e-01 5.116451270548596497e-01 1.221971414115825133e-01 8.504628872513215754e-01
-1.060896091841579680e-01 1.659345416279478513e-02 -6.961621544429335007e-01 5.504586288516108983e-01 8.046527706900664934e-02 8.309757139104683166e-01
-3.514559285906943692e-02 4.611745064775066988e-02 -7.365334987633284092e-01 -5.491022938065821535e-01 -6.315283696633162969e-02 -8.333657001097741768e-01
3.333904014309247311e-03 -2.026102893508788944e-02 -7.626652013295899257e-01 6.236984881731442165e-01 2.893690818392727349e-01 -7.261306565116435463e-01
-9.956768473041346934e-02 -3.235592921378079023e-02 -6.895527030179607886e-01 -5.483369678113169110e-01 -2.938739743968317789e-02 -8.357409590316923209e-01
1.293845263982923779e-02 -1.195468629834846447e-01 -7.721382474812382712e-01 -5.872293964820234358e-01 8.859736612413414425e-02 -8.045571096095196495e-01
-6.883810700909959168e-02 -7.948783984062573679e-03 -7.108181915176629007e-01 -5.565611876667689861e-01 -2.503911456830574742e-02 -8.304292186120325603e-01
5.636825771108869981e-02 1.634998750744510454e-01 -8.181024856337134610e-01 5.116451270548596497e-01 1.221971414115825133e-01 8.504628872513215754e-01
4.484764509066096333e-02 1.568606653574131371e-01 -8.017857450628669280e-01 -5.282452954266668721e-01 -1.342537658280807678e-01 -8.384108982000247901e-01
1.321258942191172805e-02 -1.793886347263925693e-02 -7.618222808682475478e-01 -5.283583619480406446e-01 5.367143959013609411e-03 -8.490044965283202183e-01
6.545403311683381520e-02 -3.269796485797973884e-01 -8.653880819963198912e-01 -6.568751283008262831e-01 2.838284388696076799e-01 -6.985388200441078332e-01
3.473928763924791913e-02 -9.101219503758417595e-02 -7.805935089173184904e-01 -6.228325413431342605e-01 7.341339990838442742e-02 -7.789031378534462258e-01
1.231733444309424941e-01 -2.179429413651650348e-03 -8.422165489356810975e-01 -5.781930678327864559e-01 1.426793421710653015e-02 -8.157752155853271736e-01
1.289027482748025255e-01 2.442472678208968198e-02 -8.460781422297475318e-01 -6.038436701266579609e-01 -1.529076196114859901e-03 -7.971013009486023204e-01
-6.402868473380754488e-02 1.224091734596317455e-01 -7.283628237578120279e-01 -5.184337120442197300e-01 -1.620579597981575415e-01 -8.396211668854650645e-01
7.517153833255373063e-02 -9.939794372841324888e-02 -8.186661364096026183e-01 2.706972061801158347e-01 -8.100637619390046451e-01 -5.201151066442000204e-01
3.364973520659656631e-02 -1.167279711544532833e-01 -7.990786240491509762e-01 1.166126851907910433e-01 -2.472011453386916136e-01 9.619215536600853600e-01
-5.874205031825717807e-03 2.184277324315233859e-01 -7.842851965581802975e-01 -4.940263363240472438e-01 -2.179352600937823070e-01 -8.416900863299356939e-01
-4.308941223518683583e-02 -1.523457525274223290e-01 -7.352915136818350961e-01 -5.836941536914674877e-01 1.198770960402248537e-01 -8.030757229498127758e-01
5.691132058850555120e-02 -6.776567350953506541e-03 -7.989863969664020571e-01 3.530773465290856783e-01 -8.165203983787993058e-01 -4.567612356574350385e-01
-1.626737645155227827e-02 1.322105268738082151e-01 -7.682094399660603923e-01 5.271546386121076511e-01 1.262305224907264434e-01 8.403415033077066276e-01
-1.196367843669160075e-01 6.371168049163525304e-02 -6.845468205469363854e-01 -5.233700611789461332e-01 -1.056200759679201684e-01 -8.455342563220469287e-01
-1.127046050572339947e-01 1.322708904070371283e-01 -7.091726047555528822e-01 -4.632584150011794660e-02 9.972914838801576476e-01 5.712803680697597919e-02
-1.146771846447980055e-03 5.006116607545083724e-02 -7.679262977437733007e-01 5.549887019516372977e-01 6.221317973228509407e-02 8.295282158996371003e-01
7.479763805332836912e-02 1.560540001201287386e-01 -8.278725621778687538e-01 4.809284832232699758e-01 9.478544345627616663e-02 8.716211985337218859e-01
1.213585250496813928e-02 5.866705179096429884e-02 -7.772688954112666471e-01 5.472649547832683092e-01 6.259934246136268643e-02 8.346151158405126225e-01
-4.733807903440343662e-02 1.904617240532495148e-01 -7.612656808082124416e-01 5.021362101708017889e-01 1.925391632765435235e-01 8.430823785609997678e-01
-1.473253965970861695e-02 -1.728796026447397272e-01 -7.684761880978282500e-01 6.043314891222011376e-01 -1.368609542520719258e-01 7.848901391000875361e-01
-1.203136750163116969e-01 -2.859894145277808858e-02 -6.833777824505532505e-01 5.910632368203591058e-01 4.990843920217472723e-02 8.050797462213560296e-01
-8.035964651586589846e-02 2.229472540555069437e-01 -7.505585612500503823e-01 8.875471636093267280e-01 3.364439759303326505e-01 -3.147466972491193560e-01
-1.168872460463119545e-01 2.301056526320255716e-02 -6.816260935084732520e-01 -5.329026175361039064e-01 -8.268201907872838041e-02 -8.421273561310271827e-01
3.103187810552708245e-02 -1.465785223324583275e-01 -8.021016503412204957e-01 6.515699779014396675e-01 -9.257612891927412269e-02 7.529184711851870659e-01
-3.043638461786173435e-02 1.321206281579200559e-01 -7.594780634218014637e-01 5.127195112725215775e-01 1.591553086360120717e-01 8.436754651484433820e-01
-1.302373557638789314e-01 1.675642204100425969e-01 -7.012435204424730673e-01 8.650650673689707082e-01 -3.357039243800525874e-01 -3.727805042833520766e-01
5.407427134170934152e-02 -1.194147467605754520e-01 -8.154098616056651982e-01 5.635929355247362160e-01 -5.508140213678740932e-02 8.242141967748772835e-01
6.807589418536225123e-02 -3.569987993959656825e-01 -8.900392540057023849e-01 -6.102909012613914053e-01 -3.767607133378302331e-01 6.968474587187127867e-01
-1.353887981656295703e-01 1.250775981503932099e-01 -6.859378851020285772e-01 -4.600659907266632098e-01 -1.946307631994333154e-01 -8.662898765385059763e-01
1.214030181748722466e-02 -4.275074444816593516e-02 -7.748397203925676546e-01 5.716836755844999507e-01 -2.192349484122263839e-02 8.201811601372852589e-01
-3.260910901130280315e-02 1.119141658592731348e-01 -7.549396597249002916e-01 5.186273893917088262e-01 1.211353200453850892e-01 8.463757234291652276e-01
-4.577329854073448889e-02 1.721731599787302835e-01 -7.450112456463454658e-01 -5.475475747773879132e-01 -2.116048080459194403e-01 -8.095770862414835012e-01
3.422736197907317712e-03 3.570537466651905328e-02 -7.573395667881672733e-01 -8.825608195329111005e-01 -1.887692524935141447e-01 -4.306420429294339769e-01
5.035628978848390169e-02 -6.916667771336998394e-02 -8.032908367421508489e-01 5.771443419397316310e-01 -6.405180315676720082e-02 8.141263876569292401e-01
1.266005879972863409e-02 -1.115820682638596628e-01 -7.710661182865644614e-01 -5.857438983785138165e-01 8.795953509420441352e-02 -8.057091321924759741e-01
7.457519354057844108e-02 1.023730902995649561e-01 -8.131503718300209238e-01 -5.463367224911060971e-01 -8.022010257458135618e-02 -8.337151316850377469e-01
1.322980082929703927e-01 -4.243981715849671349e-02 -8.512531283545535787e-01 -5.931167897207687556e-01 6.222790972511463986e-02 -8.027080172781211331e-01
4.410075563232170037e-02 2.922109502570686967e-02 -7.966930220550828556e-01 5.515025629373307980e-01 3.986118701971125278e-02 8.332202643016641819e-01
1.170670210358772390e-01 -1.103358822749193197e-01 -8.563826070641010757e-01 5.699558299773098691e-01 -1.222515991651271783e-01 8.125299369109084680e-01
-7.986932131335389151e-03 -1.723181874786883783e-01 -7.644017475917166404e-01 -5.960447722414526917e-01 1.333053856243279767e-01 -7.918082492922031701e-01
-5.801598651914145754e-02 1.646094026976157865e-01 -7.403662156291960228e-01 -5.051010703243953293e-01 -2.016926806198313660e-01 -8.391620650038567053e-01
1.124050010692474316e-01 -5.067133779563828822e-02 -8.373018459276404535e-01 -5.856589155711452443e-01 6.993117196838467831e-02 -8.075353031286981453e-01
9.860585076558071871e-02 2.080408521753071213e-02 -8.208440325857336850e-01 -5.153746592586475606e-01 -9.208673496731668850e-02 -8.520029306505301214e-01
