7.036410197707504421e-02 2.037027157718163395e-01 -8.600920367022808488e-01 -4.725562186511738511e-02 1.497508785725290559e-01 9.875938338046145182e-01
-4.484018376297938674e-02 -2.028794332421120228e-01 -8.832685201382162177e-01 -2.822843610261607447e-02 -2.334107879784522444e-01 9.719683942652036501e-01
-1.261040705801230732e-01 7.256861825320538861e-02 -8.481405118007416810e-01 4.840564845631487728e-02 -2.757735618789413853e-02 -9.984469853844065712e-01
-1.741204854423614428e-03 -1.290552148342309913e-01 -8.688385628865792354e-01 -1.208359700018930283e-01 -1.684298447226832973e-01 9.782791297786098683e-01
-4.598886958857668558e-03 -6.114405947486242082e-03 -8.443441894466349185e-01 3.567212548383721926e-02 6.057869159465317788e-02 -9.975257999611565340e-01
4.216680280364100419e-03 -3.094926589435121334e-01 -9.084287879511440122e-01 -9.585304239500492818e-01 1.100240550952617385e-01 -2.628956706804693177e-01
2.577963270597825873e-02 1.503462043054185349e-01 -8.544669113226202040e-01 -2.127137959076846052e-01 9.750120186320025972e-01 6.406562692810686965e-02
-1.029940932767721244e-02 2.612209345319129739e-01 -8.711268004578472945e-01 4.541704764393450500e-01 -8.793425411032657069e-01 1.431288710809595077e-01
-1.082631383961900062e-01 -1.030162917291639335e-01 -8.583739944471842076e-01 5.075413724972562685e-02 1.573836455731208450e-01 -9.862324298349501861e-01
-1.439058598247756719e-02 9.367827593418420751e-03 -8.440269409747132023e-01 3.666220470972131329e-02 3.064850104593781419e-02 -9.988576235527559799e-01
-1.198157960208136169e-01 -4.546393744348557059e-02 -8.587724190283489989e-01 -2.857279087379348617e-02 -8.394397804595245260e-02 9.960607432137373873e-01
-6.029966852704285452e-02 -1.232637993253319492e-01 -8.703328953614914987e-01 -6.540038378083801174e-02 -2.601573744040244773e-01 9.633488103197734853e-01
-4.469080402926220441e-02 -4.804315487744166557e-02 -8.489536369381400771e-01 4.018414202797878504e-02 9.838923093646341489e-02 -9.943363585654536596e-01
-1.182026607977570976e-01 9.660823216466916941e-02 -8.555992567958160544e-01 -2.699196535413998094e-02 4.783957280801595657e-02 9.984902648898822397e-01
3.710009797596587611e-02 5.087073561133233224e-02 -8.487643249789055266e-01 -3.960943843736067921e-02 3.116312484255940023e-03 9.992103787407220494e-01
9.977258783629165684e-02 7.761477909641525431e-03 -8.469090039033101425e-01 -3.956705576342139236e-02 -3.596483964383229148e-02 9.985694659900269388e-01
-9.837763958003321874e-02 -1.828760207970452425e-02 -8.559075493406571589e-01 -3.284279701395181883e-02 -6.828189735305620345e-02 9.971253347389017474e-01
-3.380672046694009614e-02 -9.052353040953352303e-02 -8.534342464542761242e-01 3.670431042690035922e-02 1.310535496708001568e-01 -9.906955943753704696e-01
-6.644967415991076543e-02 -2.689210913044355264e-02 -8.586285768000723184e-01 -6.558385222833268413e-02 -1.538737347563000069e-01 9.859115741683124323e-01
-3.527963710420933818e-02 -2.689733302965782724e-02 -8.468205533449579825e-01 3.518923211623375263e-02 8.021508882544985120e-02 -9.961562414941717014e-01
1.111906346377045940e-01 -2.363936621700228613e-02 -8.398413136120800315e-01 -2.597267002749550358e-01 9.579767051272990441e-01 -1.217484028549347536e-01
-3.248880232910146548e-02 9.647067858332923629e-02 -8.452789376741515204e-01 4.051101814874018270e-02 -3.867593827127126932e-02 -9.984302825973322415e-01
-1.202407865851667645e-01 7.794002602019702930e-04 -8.485775191759910019e-01 4.621125620103541665e-02 5.024578000593204335e-02 -9.976672197641442974e-01
8.013767159621877634e-02 -1.176500305923290912e-01 -8.509967356605457889e-01 1.909044258758252066e-01 -5.212555306777008068e-01 -8.317741111136663923e-01
7.160771483811503857e-02 5.421028813523703915e-02 -8.402287802605898914e-01 3.410330600168252901e-02 -1.225072014474013100e-02 -9.993432265121381386e-01
7.940468707657103928e-03 5.558768460751308677e-02 -8.513779242849519591e-01 -5.659614559141781243e-01 2.924005110540019436e-01 7.708369292884600377e-01
-9.883783940258482337e-03 2.370526950659877230e-01 -8.687099239148605712e-01 -3.089808126508574240e-02 1.751049073929989153e-01 9.840648250908193839e-01
1.711890641585016998e-02 -4.613191097035050647e-02 -8.463051406915768071e-01 3.935273090222875247e-02 8.378701598467391820e-02 -9.957063314667234932e-01
1.307749570202550726e-01 -1.146135995776379757e-01 -8.566012519296772876e-01 -2.503796035487333427e-01 -6.447304610091814103e-02 9.659985923660798779e-01
-8.163570117877753940e-02 1.733485703607369754e-01 -8.507596439484749196e-01 8.712029789524065870e-02 -2.228151023354392468e-02 -9.959485870246299610e-01
8.540741694775177972e-02 -1.793714217194596339e-01 -8.715902726023058156e-01 -7.575717864898584564e-02 -1.895909069073014597e-01 9.789362276988283762e-01
9.338960677541764677e-02 1.223011354730624278e-01 -8.425529574763610530e-01 3.386250498645046458e-02 -7.671845106080532606e-02 -9.964776013653660058e-01
-6.561780868732353111e-02 1.383344574390027726e-01 -8.568234296778414194e-01 -3.339551085133440900e-02 1.051611058821275008e-01 9.938943010524944333e-01
-1.374837225784988348e-01 5.569415833429900570e-02 -8.549064327945568031e-01 -2.203091059715664782e-02 -8.507189274608020421e-04 9.997569280858054075e-01
2.499795071831274057e-02 -1.483727453934371998e-01 -8.606754308365432982e-01 4.405349993583489859e-02 1.838238912609713727e-01 -9.819715200274791167e-01
-3.747386186689734971e-02 -3.014108687213643695e-02 -8.471592663630942432e-01 3.518923211623375263e-02 8.021508882544985120e-02 -9.961562414941717014e-01
1.143076821850201458e-01 -1.234651931668281390e-02 -8.382559783058295411e-01 1.961935054036915982e-01 -5.787864243418368027e-01 -7.915266157464337926e-01
-1.286813243559869861e-02 -2.842273304107273968e-01 -9.035474114816719471e-01 9.571526266878941369e-01 -1.116414379334723234e-01 2.671985002963366829e-01
9.000303539955855497e-03 1.287734399369565991e-02 -8.461183693659373173e-01 -9.598052712070730408e-01 2.355639591770994010e-02 -2.796764873465147905e-01
-2.481288459975977342e-02 -1.649375190852831741e-01 -8.662301596046086960e-01 4.346761482538566423e-02 2.075192750673552355e-01 -9.772647118037728342e-01
-5.200311963545046351e-02 -2.065635161525443131e-01 -8.775384084541129059e-01 5.574168850093748351e-02 2.710466934185722931e-01 -9.609508593835184298e-01
1.343806594476896388e-05 -1.431708860763725166e-02 -8.551505446521207032e-01 -1.119341138943092395e-01 -5.070019981928774316e-02 9.924214043867554125e-01
-6.842275237499580165e-02 -2.004754729494913346e-01 -8.830126158106924583e-01 3.584651331730207696e-02 -1.555148195501330211e-01 9.871829457518408457e-01
1.243990361061836185e-02 -3.937603077076970437e-02 -8.449873722855546498e-01 2.651842454942240912e-01 -9.313171724061966028e-01 -2.496510370957538694e-01
7.040927472456719183e-02 -6.864044565438535972e-02 -8.465154178543069508e-01 3.610219672939426333e-02 1.191092803511717146e-01 -9.922245767594843890e-01
-6.707746512338237654e-02 -3.289154668209964133e-02 -8.463544101951500087e-01 2.341319958710590954e-01 7.031028594632312556e-01 -6.714376944468206654e-01
-2.282186945048891857e-02 -4.058933323340955385e-02 -8.547431543829949740e-01 -3.269221860397976409e-02 -8.603198727357916353e-02 9.957558516064608511e-01
6.876519538491121519e-02 1.080375208428644290e-01 -8.496116218694732547e-01 -4.258316858321952586e-02 7.450431781092752004e-02 9.963110861477658675e-01
5.081468477013792451e-02 1.686396631602057050e-01 -8.478065100276608312e-01 2.124434726399799800e-01 -9.756551520962408741e-01 5.444993223803980265e-02
4.461200948502443489e-03 8.369149004522155599e-02 -8.536765520032384424e-01 -9.156635804383403410e-02 5.479818240123911915e-02 9.942900790413773393e-01
-6.976219364655961153e-02 2.424104315964957165e-02 -8.457400279465139281e-01 3.821903500723205366e-02 1.975986536738176189e-02 -9.990739978018539080e-01
7.710331894942501485e-02 -3.668810021418915379e-02 -8.431037676111914347e-01 3.601559852319963922e-02 9.132761392663653333e-02 -9.951694044721646204e-01
-1.205963498005680201e-01 1.479270233780033694e-01 -8.590543977889401051e-01 2.579712795919995860e-02 7.065064960421835183e-02 9.971674853802435790e-01
-5.642370661328351827e-02 -1.570674674794629300e-01 -8.659326677732253064e-01 3.909740346346826656e-02 2.022113889810406295e-01 -9.785611617107908833e-01
3.206578844902179676e-02 -1.498396091458045754e-01 -8.681208793890380360e-01 -3.701044031900661835e-02 -2.009480646616356725e-01 9.789024990345750465e-01
-1.200034219179445596e-02 -1.746071196297567796e-01 -8.710174133639929650e-01 9.782684581547980152e-01 3.528527341829527930e-02 -2.043178241349254409e-01
6.571220886133880001e-02 -5.515643569413736236e-02 -8.525734751516774734e-01 -4.092902623017694030e-02 -9.909166731595506206e-02 9.942362175461088025e-01
2.227220928762725996e-02 -7.052729254230338807e-02 -8.560136842386888434e-01 -4.370167820626261190e-02 -1.101968227772646275e-01 9.929485503145428771e-01
4.468567904500720528e-02 4.231393882272653506e-02 -8.411317217760142517e-01 3.958591162720365153e-02 -3.004618880979418455e-03 -9.992116531876633623e-01
7.893304178650462077e-02 -2.537925263925184735e-02 -8.422506427924711936e-01 3.714014662757418594e-02 6.626364731046463508e-02 -9.971106952357881026e-01
-7.937280633152755949e-02 -3.032374631677276985e-02 -8.520335069104473247e-01 3.028822303765359436e-01 9.493156088487938460e-01 -8.403707109471866832e-02
-4.397189960216656840e-02 -2.554217313964109864e-02 -8.543639371104951863e-01 -4.029733635816033083e-02 -7.190017658450294225e-02 9.965974559919137388e-01
3.290992041827182218e-02 -8.497809790677272879e-02 -8.499902157724155138e-01 4.349282249948802082e-02 1.309205411346823500e-01 -9.904383808698196123e-01
1.840945998902201314e-02 3.702819786525319429e-02 -8.495003910707741301e-01 -4.335246892953664721e-02 -7.185245510013322688e-05 9.990598371844091607e-01
3.300773807711237379e-02 -6.212601104552187281e-02 -8.546433015161482016e-01 -4.361957145117803525e-02 -1.064512253894451949e-01 9.933606946117310432e-01
9.886807688451940135e-02 4.766893343536697525e-02 -8.390885910722686303e-01 4.173225203184533633e-02 -1.180770523894605906e-02 -9.990590559307995777e-01
-1.685037100008471636e-02 -1.961174902253479402e-01 -8.731478259783717055e-01 4.119609140551450110e-02 2.376785354477695122e-01 -9.704698840460284082e-01
-1.476504024621871081e-01 7.155826595999929818e-02 -8.492773906360003844e-01 9.130463372826105872e-02 -4.077099096224229280e-02 -9.949880351821848157e-01
4.655359361654682476e-02 1.548950977986058575e-01 -8.498504942638265280e-01 -2.052559823539348016e-01 9.334133006643726693e-01 -2.942950761578634888e-01
4.029895977935973872e-02 2.368128882454547390e-01 -8.602446236942981050e-01 2.358884258641045020e-02 -1.973239321746242114e-01 -9.800545047580657698e-01
-1.727034231058676220e-02 6.956912335941366210e-02 -8.401612108652118938e-01 2.272431636760224513e-02 -8.461015703698514245e-02 -9.961549712629063080e-01
7.312421120884183244e-03 -2.581745779278943678e-02 -8.450441995886891489e-01 4.847944423130581826e-02 6.032531792245991731e-02 -9.970008021584424451e-01
-7.386121955552533980e-02 1.484102810661742933e-01 -8.509019512354195625e-01 3.895544820298097594e-02 -1.053818165619035269e-01 -9.936685291350521032e-01
2.768086846306964076e-03 8.588794394882121042e-02 -8.539535274850832414e-01 -9.156635804383403410e-02 5.479818240123911915e-02 9.942900790413773393e-01
2.744695058295698598e-02 -2.252409887825172485e-01 -8.855664177338754550e-01 -7.775130231288270022e-02 -2.138530839982941967e-01 9.737667038120934038e-01
5.112582210103871344e-02 -1.698703364990255815e-01 -8.714809367612340596e-01 -4.286762662631352083e-02 -2.109254377855044049e-01 9.765617370563010047e-01
6.881883434916562237e-02 1.673325059546071358e-01 -8.478319654786157233e-01 3.531427169319235199e-02 -1.374314268920335536e-01 -9.898815611562824524e-01
-2.241303306805449841e-02 7.094056292989574242e-02 -8.440133497903501425e-01 3.355812414544970951e-02 -3.177898740242512954e-02 -9.989314031821779905e-01
3.119633363379296573e-02 -2.224619228036694152e-01 -8.846950163592173233e-01 -8.293356577739753599e-02 -1.857055394096710221e-01 9.790993189150981602e-01
2.430875157778076417e-02 -1.750600451336590049e-02 -8.438352196640163116e-01 4.080848831750777395e-02 5.550159618579419973e-02 -9.976242980712071162e-01
-4.295288377952363734e-02 -3.895872445278503876e-02 -8.575689938058677075e-01 1.693475495733788305e-01 5.750355971648785092e-01 8.004095635652558327e-01
1.379312445533134764e-02 -1.634145003454245404e-01 -8.717173039289559666e-01 -4.315707884043368248e-02 -2.102083214033737268e-01 9.767036030233207100e-01
1.374236597664984794e-01 8.921674490890359188e-02 -8.455585293404864755e-01 -5.526116571534334110e-02 4.808621756387911755e-02 9.973133505795359621e-01
5.480631525281603328e-02 1.184801386769463588e-01 -8.509344634612316938e-01 -3.738386337005004945e-02 7.139567869148305546e-02 9.967472617588231110e-01
1.035990048985288708e-01 -1.225388513554618863e-01 -8.528454499153775847e-01 3.799091432512881339e-02 1.623777657267769792e-01 -9.859970342888056960e-01
-1.238742769961365120e-01 -1.015192277856543646e-01 -8.609528610292357387e-01 -2.524367433958036866e-01 -9.097872686767036754e-01 -3.294887195906780475e-01
-2.121763606513359102e-02 -1.939469514788222729e-02 -8.457362056556843033e-01 3.568343521673245089e-02 5.906772578630337805e-02 -9.976160063980364923e-01
1.342138973688875025e-01 1.939972461664074208e-02 -8.450396832609826658e-01 -6.570529577903007346e-02 -2.914985422494287270e-02 9.974132042966217249e-01
1.011486188198441188e-01 -4.095519649104106992e-03 -8.401400681320269070e-01 3.866940111054670282e-02 3.907528234505168452e-02 -9.984877564233854974e-01
-1.946520397490454635e-02 -2.277195430177747226e-01 -8.819519525486068101e-01 4.623181897665727680e-02 2.838836810673134869e-01 -9.577435327569595591e-01
-8.749242853212484128e-02 1.111801083358315290e-01 -8.482714189401400207e-01 3.863462355169772905e-02 -7.681195203683011119e-02 -9.962967880542976662e-01
-1.206073357843708872e-02 -2.541959747869568242e-01 -8.963850872478417164e-01 9.577615952610116778e-01 -8.932070211345231880e-02 2.733396034551925924e-01
1.801154885845441048e-02 -1.431663119173393062e-01 -8.630100600337483607e-01 -2.617520917174265271e-01 9.639519278222616894e-01 4.777576089710451612e-02
-8.874156079155592902e-03 2.101077581380975667e-01 -8.569137249831753067e-01 2.566902600564430550e-02 -1.781397363369217057e-01 -9.836703388034697682e-01
-1.168885835191652706e-01 1.304314222055953099e-01 -8.509673930732571945e-01 5.134236839742909592e-02 -8.124432502319199612e-02 -9.953709463606360552e-01
1.137010987652542354e-01 -1.237466087824727091e-02 -8.493734796310022928e-01 1.471048650713014938e-01 -6.862017232962936975e-01 7.123814663630371191e-01
-4.628831439701952544e-02 -8.511205798597699934e-02 -8.605804829867890193e-01 -3.596349672674721554e-02 -1.283658282271946394e-01 9.910745890429899507e-01
9.316534845523430364e-02 1.012338875476993666e-01 -8.409971964332744188e-01 3.088437824564093867e-02 -5.053040595477581443e-02 -9.982448763977832540e-01
3.734775647185687580e-02 8.423319469031373408e-02 -8.422376864806089269e-01 3.849376486517303714e-02 -3.482388440125480655e-02 -9.986518548231473336e-01
-1.220041328974793143e-01 -4.682689297164800007e-02 -8.519695888359924973e-01 4.948254771702095822e-02 1.075839183799291998e-01 -9.929638351810470276e-01
-4.177678105508706580e-03 -1.521409469997151431e-01 -8.626716173212782834e-01 4.485558170475804907e-02 1.893598614945563585e-01 -9.808826737406926011e-01
-7.626015857674668663e-02 1.448692432640695527e-01 -8.506218946911033862e-01 3.945640180858848989e-02 -1.051315848008960857e-01 -9.936752700120754511e-01
-6.148645348888383960e-02 7.486905872290168518e-02 -8.551338101233522115e-01 1.410773037268668317e-01 6.750131182159561094e-01 7.241922980876894789e-01
-7.500375958038651980e-03 -1.963172329360816926e-01 -8.833623492576766489e-01 4.841198329537464984e-01 -2.538450180319392069e-01 8.373713000582243549e-01
-1.019510728667271243e-01 -1.422128824382169476e-01 -8.719352177148038674e-01 -2.575588834066098315e-02 -1.784794443640037032e-01 9.836064874507993716e-01
2.907008961940347677e-02 -5.039939959369300372e-05 -8.427251462221745371e-01 3.688765589288221097e-02 5.245940035573048305e-02 -9.979415374444763343e-01
-6.477319320954660897e-02 2.411155771408178203e-02 -8.528261927122388064e-01 -3.499054785800140288e-02 -1.994129801109878822e-02 9.991886739721529409e-01
-1.138454979282242513e-01 -1.503746750816851996e-01 -8.732394470507276463e-01 3.141487817689712081e-01 2.668301766628985647e-02 9.489987141620854771e-01
-1.158458430794487015e-01 7.562045263712309506e-02 -8.546949550806659524e-01 -3.229889105641641639e-02 2.347865464533206020e-02 9.992024491626162463e-01
-4.481988955603630892e-02 8.972339503457302246e-02 -8.528400241798299586e-01 -4.044207992263194884e-02 3.902621997628439449e-02 9.984194470891949447e-01
8.368877958112733162e-02 -1.503464032762949765e-01 -8.659039703887650985e-01 -4.275884151894185359e-02 -1.821330325466200273e-01 9.823437483525457870e-01
-1.326710001975580089e-01 -9.810094330663465464e-03 -8.598392178832966470e-01 1.932411037696591394e-01 6.100291491375566810e-01 7.684544963863457756e-01
8.761317150763357764e-02 1.121879281493868979e-01 -8.491386082732315099e-01 -3.909001291207307716e-02 7.347994194986462446e-02 9.965303151543249971e-01
7.890570356331487456e-02 1.893502106491825598e-01 -8.576561668129208948e-01 -3.871989901299673770e-02 1.403879949479130418e-01 9.893391634292699743e-01
-5.395085748259977401e-04 -2.330696738100774545e-01 -8.826731432360054308e-01 4.985943038625047230e-02 2.932112502346390093e-01 -9.547466679373111109e-01
-8.362997817920189703e-02 -1.512436601961683891e-01 -8.658534456617068553e-01 3.663212582044486632e-02 1.932105065749043227e-01 -9.804732467063769219e-01
6.453109692329325742e-02 1.589045181551919927e-01 -8.550753132480962693e-01 -2.161630371737912060e-01 9.742537334315977127e-01 6.405625851074731036e-02
2.738681485785705687e-03 -2.635497053878922413e-01 -8.900495892227711092e-01 -4.832575410611767985e-01 2.533555439157968991e-01 -8.380173729551408934e-01
8.199495409390325507e-02 -2.203060432411512587e-02 -8.520932408844610340e-01 1.482071045912639329e-01 -6.860776228834338797e-01 7.122725247595127485e-01
1.077138910320551701e-01 1.682114954264962436e-01 -8.534955047486236790e-01 -5.886282334148271178e-02 1.155805098069726256e-01 9.915524765644173621e-01
-1.203620746299180824e-02 1.524007906822982539e-01 -8.491172892320304477e-01 3.334382042932748647e-02 -1.072503821236617944e-01 -9.936727555757504105e-01
5.814683576488699837e-03 9.893194237065411692e-03 -8.407738400928373990e-01 -4.857777339561766272e-01 2.973279981447011014e-02 -8.735765300233256925e-01
-6.770042479398498967e-04 -2.217300666120228803e-01 -8.793206579141512602e-01 3.645894696853527878e-02 2.637846156095227657e-01 -9.638923289214836876e-01
-9.705410514831533386e-02 7.077071783876849598e-03 -8.473649674040988344e-01 3.852653276078009392e-02 3.907808159028484940e-02 -9.984931696374570453e-01
6.670437009041263465e-02 4.515418707447038660e-02 -8.475976974974291922e-01 -4.092589130356733690e-02 8.156337996655301306e-03 9.991288933723680987e-01
3.599062610181922445e-03 -2.542974683733023045e-01 -8.986732562832849824e-01 -5.446916587861408976e-01 -2.350735022549667874e-01 8.050164255382533662e-01
-6.067385161677037175e-02 3.415079846116798878e-02 -8.451963614173368944e-01 3.821903500723205366e-02 1.975986536738176189e-02 -9.990739978018539080e-01
-1.041313343850850393e-01 -1.438292934164139281e-01 -8.653502798463704737e-01 4.638708152054107914e-02 1.866602988781471961e-01 -9.813287784890072363e-01
1.014542252310296350e-01 -4.084355069823113193e-02 -8.425701673962699978e-01 3.521134005243623660e-02 8.261381772483195052e-02 -9.959593960863263318e-01
8.619786810827502477e-02 -1.366927028510022020e-03 -8.406122983081926181e-01 3.866940111054670282e-02 3.907528234505168452e-02 -9.984877564233854974e-01
6.701773887158468668e-02 -1.406948548321671766e-01 -8.575253711818947577e-01 3.572411807943354917e-02 1.952315657682812677e-01 -9.801063325553568406e-01
1.188428036191193637e-01 6.489879033811134235e-02 -8.456544124008690266e-01 -4.248115384384010262e-02 2.367815754865466166e-02 9.988166480506804890e-01
-4.647625700640478641e-03 -4.081879099629558139e-02 -8.467640041171043963e-01 3.817379994148592526e-02 8.381005455239884383e-02 -9.957502878502978438e-01
-9.672069948731640276e-02 -1.470877101933352853e-02 -8.459026719169910891e-01 -1.643895563411575111e-01 -5.708994480797905391e-01 -8.043941160576372207e-01
-3.585031667103557446e-02 -8.106905265433572705e-02 -8.596780578465793576e-01 -3.596349672674721554e-02 -1.283658282271946394e-01 9.910745890429899507e-01
-5.524031592692214138e-02 1.398635613570416436e-01 -8.566365291061577292e-01 -3.339551085133440900e-02 1.051611058821275008e-01 9.938943010524944333e-01
5.642038406408056428e-02 9.328572459549591689e-02 -8.492236674302822141e-01 -4.204875575708343083e-02 3.850748003654963503e-02 9.983732148452879596e-01
-1.536141060467323231e-02 -1.551907210520532543e-01 -8.712075763911438786e-01 -4.267812145470693819e-02 -2.102964280071409064e-01 9.767056825454301094e-01
-7.606032992409947173e-03 4.433707471299421637e-03 -8.512746611880153136e-01 -3.745339997688702099e-02 -3.230164880534567434e-02 9.987761742826203326e-01
-4.593018262753487124e-02 -3.622268866317272101e-02 -8.443761740670079341e-01 6.761532104660518405e-02 1.634269832822868584e-01 -9.842356371799465542e-01
-9.320140425253058136e-02 -1.128018973596566638e-01 -8.698926816656853411e-01 -7.297288494432072059e-02 -2.702261759695778198e-01 9.600274849626762030e-01
8.357785342339302259e-03 -1.197715733556862505e-01 -8.562432819309232501e-01 3.939563614947750453e-02 1.592431559693937293e-01 -9.864530405089161347e-01
-1.067342000094250593e-02 -4.007402759890664190e-01 -9.459393955613236704e-01 5.441604528460498580e-01 3.726820605051373581e-01 -7.516631448568081852e-01
-1.264138762162331231e-01 8.840163207297524472e-02 -8.554164398707415629e-01 -1.849686397696481341e-02 4.736588799779330866e-02 9.987063325508644951e-01
-5.938501384047303877e-02 -1.077957785535960632e-02 -8.539753061717372251e-01 -3.448921896002399984e-02 -4.780801348807124651e-02 9.982609316315308456e-01
-4.506637519857387836e-02 2.332999209464012569e-01 -8.688619052845761859e-01 6.396757144809506711e-03 1.131863946796653753e-01 9.935531800348934572e-01
-5.047521345067052662e-02 -1.345434413661600881e-01 -8.602113692400815692e-01 2.830742464270364911e-01 9.557913791014620575e-01 7.957267524150897497e-02
-1.108558331874292258e-01 -1.243795348476725154e-01 -8.690071670621293265e-01 -3.068858192597288814e-02 -1.758121729563441871e-01 9.839452681830129777e-01
1.491319799449465078e-01 -2.922908695978268523e-02 -8.462847209034062290e-01 -8.734154030782553813e-02 -6.441034607757901986e-02 9.940939405583473221e-01
-2.105182445406717645e-02 -4.507754482494853721e-02 -8.477527819103048978e-01 3.726399498677915312e-02 8.381949803085333994e-02 -9.957839556989663832e-01
1.343371990746732589e-03 -1.657522781603505413e-01 -8.758926885556272968e-01 -1.157947188674830208e-01 -2.178572791562936872e-01 9.690870905140658298e-01
-8.714072826359987390e-04 -1.989884748830068190e-03 -8.439604146907012661e-01 3.567212548383721926e-02 6.057869159465317788e-02 -9.975257999611565340e-01
-8.480281133728949372e-02 5.432946256902560639e-02 -8.533384303126287929e-01 -3.021504354888265159e-02 1.150316891377159076e-02 9.994772274785854727e-01
-1.219700709728663429e-01 -9.763214521454274819e-03 -8.598290206205030373e-01 -6.113707508335580049e-02 -1.244626639036279792e-01 9.903389840576126701e-01
-1.093675899989138417e-01 9.468653829418291479e-02 -8.552647010269156524e-01 -2.893716979042626133e-02 4.691012870676638385e-02 9.984798846392622940e-01
-8.103992965979059382e-02 1.597802588054656955e-02 -8.463877987723708030e-01 4.335078040556445550e-02 3.892729393004202426e-02 -9.983012449283594769e-01
-3.037469132413374642e-03 -7.388874997682753909e-02 -8.464089570252615324e-01 9.159530103561591696e-02 1.249488755252431416e-01 -9.879261507487147043e-01
7.204007424626251814e-03 -5.012387015857359268e-02 -8.470625683123255145e-01 4.398016772382143391e-02 8.369544880829768441e-02 -9.955203748270359254e-01
2.457558325227113954e-02 1.420271117742152311e-01 -8.540381823975411457e-01 -3.718636404294164977e-02 1.056040950417861807e-01 9.937127097102416151e-01
7.989499276462730393e-02 -1.080816671668279744e-01 -8.513920260723916167e-01 4.280206207176664307e-02 1.407766838392575381e-01 -9.891157206159580939e-01
-2.358688299732094110e-02 1.367286286073211843e-01 -8.551928850609419319e-01 -3.401453552457319590e-02 1.055434473283771435e-01 9.938327787405130120e-01
-2.275456906894797113e-02 -2.170790247037774068e-01 -8.860333398371461611e-01 -3.442801236489277661e-02 -2.356031397519987025e-01 9.712393487207995335e-01
7.772036335130937112e-02 -1.335893247346654246e-02 -8.487489057090059630e-01 -3.812897853335436849e-02 -6.829469084570848059e-02 9.969363150163065290e-01
-2.912132228447335616e-02 1.628021254368498261e-01 -8.581566502964320664e-01 -3.507541049414912571e-02 1.056159465617012710e-01 9.937882004786244838e-01
2.109118839046861954e-02 2.445539554358492629e-01 -8.690709912549362537e-01 -4.987500529155229623e-02 1.826149836555000794e-01 9.819186583376797728e-01
-5.846574998407719215e-02 8.406445852549235265e-02 -8.516786647312536429e-01 -2.572984933946231290e-01 -9.493838075437306401e-01 1.801884326770886724e-01
-8.221608220093860886e-02 -7.369890486967867194e-02 -8.605902884899194749e-01 -3.333817111927330629e-02 -1.155109965299719460e-01 9.927465819770293631e-01
5.748794959704277285e-02 1.634780983753318651e-01 -8.442239924592283007e-01 9.669332594191554567e-03 -2.412698888918045001e-02 -9.996621391321790506e-01
2.487839457392207465e-02 1.235801490402744715e-02 -8.497445176405006295e-01 -4.176919987081544050e-02 -3.070458025418618467e-02 9.986553773417363722e-01
-1.811592662001068610e-02 -7.933739371293113685e-02 -8.513354695094177416e-01 3.503614864553488556e-02 1.347735196453977713e-01 -9.902568185528840550e-01
-5.159132888553648322e-02 -1.973941664647156091e-01 -8.821473456447839201e-01 -2.822843610261607447e-02 -2.334107879784522444e-01 9.719683942652036501e-01
3.577336070060274653e-02 5.196116964391127302e-02 -8.415138114934745950e-01 3.958591162720365153e-02 -3.004618880979418455e-03 -9.992116531876633623e-01
-1.043826557037917518e-01 -9.694905759274957679e-02 -8.572774929204920458e-01 4.456268185509424523e-02 1.369854638997647922e-01 -9.895701845074192926e-01
-2.262880019081520144e-02 1.809761521223177960e-01 -8.602345978391863213e-01 -3.529579202431020607e-02 1.397905783331570839e-01 9.895518183878285745e-01
1.784366859411132961e-02 -3.697531508978316520e-03 -8.506502214582619681e-01 -4.072115923358414491e-02 -5.587393486503434287e-02 9.976070822690518147e-01
3.381804668521706803e-02 -8.032735497829528171e-02 -8.493355816549043036e-01 4.349282249948802082e-02 1.309205411346823500e-01 -9.904383808698196123e-01
5.273845634214627959e-03 1.521867976793792876e-01 -8.485197353169893209e-01 3.068923593183248491e-02 -1.087145075834315411e-01 -9.935991780586436173e-01
-8.499937110225929890e-03 -3.573915360858311852e-01 -9.247422897715688039e-01 9.704645503345436797e-02 3.725825647397252860e-01 -9.229107313372232335e-01
-1.516450768055176701e-01 -4.876701845259086981e-02 -8.541299330528662193e-01 2.369044049278508923e-01 1.263954105520997129e-01 -9.632759226292054722e-01
-7.290189305968726441e-02 -1.107216850768388827e-01 -8.653767217226208119e-01 -3.994440124521899532e-02 -1.698357600360118069e-01 9.846625104177323395e-01
7.174675042691298779e-04 -2.495070530402065945e-01 -8.989286587839429021e-01 -1.085566825334148833e-01 -2.833837157582784760e-01 9.528426503470395215e-01
2.478337267854562043e-02 -1.202973540020794117e-02 -8.435133243800763125e-01 3.688765589288221097e-02 5.245940035573048305e-02 -9.979415374444763343e-01
-4.565566508736779334e-03 8.773893576779111247e-02 -8.410934683419272195e-01 5.566033768263896064e-01 -5.381064612847545614e-02 -8.290338324029339345e-01
-7.411737778851797132e-02 -1.665291219064863049e-01 -8.759297120105630219e-01 -3.000298351693902327e-02 -2.089396079744043344e-01 9.774681893543053501e-01
1.403797536178969484e-02 1.972440355322368361e-02 -8.426306083496036825e-01 3.988778564956932393e-02 3.226397969165076957e-02 -9.986831330158882913e-01
-3.799525776009775313e-02 8.614231224134823173e-02 -8.524236075819886516e-01 -4.044207992263194884e-02 3.902621997628439449e-02 9.984194470891949447e-01
8.564827435038159520e-02 -2.444800027579686896e-02 -8.419320833189906095e-01 3.903807631672803063e-02 6.619659478901368521e-02 -9.970426467487878419e-01
5.170206182217926272e-02 -3.300987353720971629e-02 -8.511528936886330055e-01 -3.804547775950753441e-02 -7.194429765441458235e-02 9.966827778471260002e-01
5.465950698535781277e-02 -4.953246028408940516e-02 -8.524679541764023094e-01 -4.092902623017694030e-02 -9.909166731595506206e-02 9.942362175461088025e-01
6.700247054344977624e-03 -1.052400796606801081e-01 -8.596944945862888821e-01 -9.778274724933905260e-01 -1.880657934316862581e-02 2.085659286906578480e-01
4.703722219805537424e-02 -8.553916187263295445e-02 -8.494611515841296034e-01 3.565754333346647653e-02 1.227054122516198914e-01 -9.918023600534442430e-01
8.240191530967215516e-03 1.962603695681373606e-01 -8.505849349666703141e-01 -4.981714842026188084e-01 -1.129533697347588350e-01 -8.596898909449397497e-01
-1.817961982321345676e-02 -1.529262955778023514e-01 -8.633867678077907781e-01 3.723023930406484105e-02 1.884028564158941321e-01 -9.813858940170752110e-01
-7.068121509855901374e-02 -2.029363509845480071e-02 -8.532511633950792262e-01 -3.004917679322193225e-01 -9.495443865055924748e-01 8.983404399606706447e-02
1.962621655997653231e-02 1.994248198332586597e-01 -8.541696020046161131e-01 3.481320192349921655e-02 -1.457910848407676929e-01 -9.887026856202958403e-01
-1.264572033202369938e-01 9.583175798684596958e-02 -8.490788499680744783e-01 4.900421859895340987e-02 -5.234597034216671024e-02 -9.974259300561836294e-01
-3.961995062070271245e-02 -7.177524465009352261e-02 -8.586284305930048655e-01 -4.037713771327561263e-02 -1.233649812772143611e-01 9.915395948445809848e-01
5.046344150364375815e-03 -3.478748103094801980e-01 -9.275249285141742295e-01 -9.590662025890873688e-01 1.092593086147732873e-01 -2.612554736888194062e-01
1.573351386685572784e-01 8.361379772991783810e-03 -8.423039584148270809e-01 -9.992367505083812329e-01 -8.077488242875133923e-03 -3.821872076793412371e-02
-8.369822134071784603e-02 9.678744733205664474e-02 -8.472621704238297857e-01 3.482135279876680950e-02 -4.114816501917328145e-02 -9.985460940311260414e-01
-1.294046166019117289e-02 -7.104250818928864453e-02 -8.574504184155997688e-01 -3.008080940405611151e-02 -1.104987718323778845e-01 9.934209411569360215e-01
4.520526635599258353e-02 -1.834869493567021781e-01 -8.675095061545178288e-01 4.519000952171341179e-02 2.270963811091715745e-01 -9.728232607861230230e-01
1.265512315782356401e-01 -2.171335939612318786e-02 -8.401968688184054956e-01 3.931708522484825968e-02 5.898777390082705907e-02 -9.974841398937862591e-01
3.939755736992991281e-02 -1.559657340038750895e-01 -8.616780390694444014e-01 3.632975462271873651e-02 2.030927601202242583e-01 -9.784852986712686551e-01
-8.309424485212917044e-02 1.118857232992102602e-01 -8.481552662942097864e-01 3.863462355169772905e-02 -7.681195203683011119e-02 -9.962967880542976662e-01
3.989087068836179306e-02 9.420817642903835110e-02 -8.498426902789455450e-01 -3.370017102407584647e-02 3.889412454452443463e-02 9.986748948225657729e-01
-6.039565776679434519e-03 -1.608806714514615099e-01 -8.720385364985648868e-01 -4.795154458039958129e-02 -2.137129758511544242e-01 9.757189212704638903e-01
3.373268347512159426e-02 2.481313097755377395e-01 -8.689808300620238679e-01 -5.888585391734154489e-02 1.647830662299437088e-01 9.845704633454546162e-01
4.892221311786087296e-02 1.551756624361839976e-01 -8.510353040216308562e-01 -2.161630371737912060e-01 9.742537334315977127e-01 6.405625851074731036e-02
-8.507476551196382908e-02 9.310461026832997367e-02 -8.543611302962448306e-01 -3.146221111235157630e-02 4.111426640624549211e-02 9.986589740095453971e-01
-6.726960911204454482e-03 -4.084800495760170791e-01 -9.483744995980539771e-01 1.057606258860895043e-01 4.420563238298945152e-01 -8.907305409461281354e-01
1.532960510913011776e-01 -2.223593057880672227e-02 -8.399120675953987147e-01 -9.536170278161049119e-02 9.115176890521553554e-02 -9.912605614408563914e-01
7.576027063211876467e-02 1.257321225562227085e-01 -8.506369666729439727e-01 -4.116522126859085279e-02 7.468549624377987528e-02 9.963571152998950131e-01
-7.335866776362948150e-02 8.297245946439302244e-02 -8.463163506419908444e-01 3.859769160975144026e-02 -4.164736700880388581e-02 -9.983865559109019738e-01
-5.721246414867103142e-02 -4.092391688814480538e-02 -8.560662931437041934e-01 -3.830107530113374681e-02 -9.914315723043468087e-02 9.943357893615003551e-01
1.320734676169844218e-02 3.169818141035292414e-02 -8.497116863777250950e-01 -3.991997661587269597e-02 -3.134024688576429827e-03 9.991979650480875552e-01
-3.183854074053082961e-02 -2.277188639153081284e-01 -8.827990422026246176e-01 7.899940351074200007e-02 3.217014772335214934e-01 -9.435397467996338161e-01
-4.415276914295710418e-03 4.130303939025200405e-02 -8.503648314928617946e-01 -3.713703067490306542e-02 -3.188558046266591010e-03 9.993050955790413470e-01
4.877304527601026424e-02 4.072638073202591857e-02 -8.482699627527632291e-01 -3.960943843736067921e-02 3.116312484255940023e-03 9.992103787407220494e-01
-3.127306236352141861e-02 -1.855029744926635082e-01 -8.785741799494993787e-01 -3.882273247356898133e-02 -2.276135736304643331e-01 9.729773155333348855e-01
-7.907690236532302630e-02 1.460874075916182221e-03 -8.468686302574480740e-01 4.335078040556445550e-02 3.892729393004202426e-02 -9.983012449283594769e-01
1.689125649454430514e-02 1.175094098258588626e-01 -8.449137909609167885e-01 3.919897053269644910e-02 -6.841933626302150462e-02 -9.968862699097145175e-01
2.342054521539123618e-03 2.484985097798848297e-01 -8.638904485655717336e-01 2.097294476494868803e-02 -2.124079901921618330e-01 -9.769559771506660661e-01
-4.303700230871211618e-03 -4.136076237633278807e-01 -9.632809925748201385e-01 1.098036193407601196e-01 8.269685897520924200e-01 5.514219044824976157e-01
-8.392782524712499859e-02 6.273589190908181179e-02 -8.462062815900668333e-01 3.352772361018786784e-02 -1.164695244021299314e-02 -9.993699216248075334e-01
-1.537727339546891003e-01 -4.695694494691974447e-02 -8.576047793771288674e-01 9.868489389413569457e-01 1.510324883160656384e-01 5.760520100976503771e-02
-1.542854158869548520e-01 -1.157916768184268259e-02 -8.568137347389319647e-01 1.966265877156487540e-01 -4.533058481538720236e-02 9.794299990727234340e-01
6.859782211458710643e-02 7.225623398845269774e-02 -8.491567048264199169e-01 -1.691985154185201012e-01 6.810582404127203393e-01 7.124124757091904181e-01
-1.224940273920283908e-03 -9.909796285026747920e-02 -8.607195770678368607e-01 -3.645712159691915505e-02 -1.358880404704213007e-01 9.900531898549573828e-01
-6.709134297373005318e-02 -5.732887541805754134e-02 -8.507555598177115597e-01 3.808933791794884977e-02 9.837222181478816330e-02 -9.944204886828277301e-01
1.000652574054590321e-01 -3.644136873028700624e-02 -8.422541167204090629e-01 3.521134005243623660e-02 8.261381772483195052e-02 -9.959593960863263318e-01
-7.541109362028242113e-02 -2.726604756027044014e-03 -8.541433287024503551e-01 -3.448921896002399984e-02 -4.780801348807124651e-02 9.982609316315308456e-01
-7.498947887281422198e-02 -6.457107975960169055e-02 -8.592143418024299484e-01 -4.297249766489930761e-02 -1.161584438481853832e-01 9.923006501898543608e-01
1.689190851417685796e-02 3.008088349089542077e-02 -8.422222587805596739e-01 4.058082224065103633e-02 1.682569135775322921e-03 -9.991748424712142418e-01
-7.449920293839654151e-02 -1.903649991734676292e-02 -8.527340551952807823e-01 -3.003971614116661693e-01 -9.495737059777100697e-01 8.984053835307774516e-02
8.709604183165574331e-02 -3.074234161959018413e-02 -8.460533943805357282e-01 -2.703138343106337160e-01 9.361961537568401770e-01 2.246490433346694238e-01
1.094785638143387363e-01 -1.389359799460750111e-01 -8.556698140980426581e-01 2.643098863531660389e-02 1.866356164554860697e-01 -9.820735967889780982e-01
1.352694213954290792e-01 3.587919172538076712e-02 -8.379664046963911650e-01 2.801546724215330311e-02 2.330727356024757304e-03 -9.996047725502291703e-01
8.577375185253499623e-02 -1.183736089917347550e-01 -8.494580348667886138e-01 6.374600847789883840e-02 5.896265687257968430e-02 -9.962227920990675001e-01
-4.762776371800112214e-03 -4.556836275529350944e-02 -8.433577407368026968e-01 3.732770148757402068e-02 7.963732113664688528e-02 -9.961247611538591729e-01
3.697760661169189732e-03 -1.239555110491613182e-01 -8.545461204571717095e-01 -4.782706782797248590e-01 1.538812198463867242e-01 -8.646257736595873711e-01
-6.581685322036143204e-02 2.877265240381421743e-02 -8.527697168491911173e-01 -3.499054785800140288e-02 -1.994129801109878822e-02 9.991886739721529409e-01
8.286567275003221822e-02 -1.813897173442654553e-01 -8.721876817687128636e-01 -7.922919854844616416e-02 -1.930111235031264361e-01 9.779925563629978669e-01
-9.042480424728628619e-02 -2.639120375693099207e-02 -8.542028742299753175e-01 2.889586601730396720e-01 9.252382273383816802e-01 2.458396131276059937e-01
-1.486742129546467575e-02 1.624763394192301758e-01 -8.541767002576207135e-01 -2.556896249141307753e-01 -9.461152397116785462e-01 1.987178122277520331e-01
3.421110434422844349e-02 1.087987658161716220e-01 -8.509974173147462073e-01 -3.730160058013786556e-02 7.002241039709110326e-02 9.968477580033677787e-01
8.291025683407317326e-02 1.753603327255579825e-01 -8.522936173437132279e-01 2.073135443156466085e-01 -9.530996246825906848e-01 2.205044212100726875e-01
-3.188706224206416112e-02 6.931339773316227970e-02 -8.516123684917658032e-01 -3.575363052626718413e-02 3.509118315393458531e-02 9.987443550624192090e-01
7.494276149535693266e-02 1.695048598325635814e-01 -8.444401313009337606e-01 1.680194457549159456e-02 -1.314487159190278476e-01 -9.911805737310031006e-01
-1.331351345018386423e-01 -1.141614970191926343e-01 -8.673012948150270462e-01 1.760545778778720427e-01 -6.531869372933707396e-02 9.822109009055728368e-01
-1.369592566335781048e-04 -1.859081230555897912e-01 -8.664135137739541470e-01 -2.105698077977807489e-02 2.220069584045295252e-01 -9.748176824311350908e-01
9.162622943955348043e-02 1.293825163851783644e-01 -8.502550812781365375e-01 -4.116522126859085279e-02 7.468549624377987528e-02 9.963571152998950131e-01
-2.598740057454081631e-04 -1.885711246709165928e-02 -8.522469946919245531e-01 -3.524631205528751254e-02 -6.099032268107332927e-02 9.975158535210153499e-01
1.068477547548647884e-02 -4.566112445712953299e-02 -8.465336024765678369e-01 4.398016772382143391e-02 8.369544880829768441e-02 -9.955203748270359254e-01
-3.950954180909092145e-02 5.472326409226926230e-02 -8.443615458439319710e-01 3.602214468735902286e-02 -2.934793355346524552e-03 -9.993466826282481064e-01
-6.505411955573084382e-02 4.818049331588094425e-02 -8.453265584097383600e-01 3.776203989244378972e-02 -8.097461370768435293e-03 -9.992539514370260001e-01
-1.033342354261620674e-02 -2.922411705253730174e-01 -9.119239971678083645e-01 4.690698179172986815e-01 -3.317762716873475237e-01 8.184729754025331649e-01
-1.958656435892483158e-02 3.487971669792765128e-02 -8.435951957426320869e-01 3.489430803778591217e-02 3.239896281773114420e-04 -9.993909556811512163e-01
-1.405648813424668908e-01 -1.046152931406459617e-02 -8.526132197009734792e-01 4.906971454026275437e-01 8.666766214778314215e-01 -8.993300438373208472e-02
-1.076515554557607862e-01 -5.665161997812618450e-02 -8.523514620892767013e-01 4.270465471815024922e-02 1.103039005715793774e-01 -9.929800410804329180e-01
-1.326053242092897766e-01 1.183599222147442426e-01 -8.507829433811698872e-01 7.528065232746918023e-02 -9.473166731677000463e-02 -9.926523734885919215e-01
3.501156890708865665e-03 -4.136225605356853574e-01 -9.588000191164216535e-01 -9.798865344806167998e-01 1.049282523381911414e-01 1.697422793673384056e-01
-7.319630607168915726e-02 -1.903108759175707598e-02 -8.550526184039405342e-01 -4.009056174615003437e-02 -6.825625719355947474e-02 9.968619915579111090e-01
2.444068371633884018e-02 4.524352243469096507e-02 -8.492380977885271021e-01 -3.830276059718707576e-02 3.121105961955552861e-03 9.992613057795286524e-01
-8.600094165526571410e-02 -1.209713646349106497e-01 -8.699914145252600761e-01 1.465768093144895201e-01 5.057841986073855489e-01 8.501162175904352081e-01
-1.284374096831673029e-01 2.018052196464450998e-02 -8.551709495151895712e-01 -3.623545246076912557e-02 -2.914480700488194381e-02 9.989182009602243228e-01
3.821368205304831196e-03 -9.876223425698917036e-02 -8.504538735884472622e-01 -4.991380222134814137e-01 1.370909042410956291e-01 -8.556093260099336684e-01
1.485405077544743879e-01 1.243845751874800417e-03 -8.385014897224840613e-01 4.257744365224775708e-03 5.343873141768463314e-02 -9.985620529528391742e-01
-2.401566617126106584e-02 -1.417057372324160014e-01 -8.614540848007415930e-01 3.723023930406484105e-02 1.884028564158941321e-01 -9.813858940170752110e-01
9.986092831774653900e-02 -8.560693081038948937e-02 -8.546400027216300987e-01 -4.198081955257670916e-02 -1.333201697381966588e-01 9.901834896273884468e-01
1.088013233339650554e-02 2.354433252346519179e-01 -8.581863152546931328e-01 -4.947172378176072916e-01 -1.743952000067151009e-01 -8.513760443075285567e-01
-9.879544793929161128e-02 -1.609021982034991236e-02 -8.452406776097542984e-01 7.037270690351143422e-03 -4.166792133985528640e-02 -9.991067316120167963e-01
-5.882424624546878089e-02 1.245172268808850680e-01 -8.481961848832427764e-01 3.905884235709345537e-02 -7.118788564632395899e-02 -9.966978939332266085e-01
7.099080774229404867e-02 7.471714663354196706e-02 -8.406337819288027813e-01 3.868873551405573735e-02 -3.831054315328860649e-02 -9.985166418380932996e-01
-6.288535081707898045e-02 -1.046082745554604426e-01 -8.640564125827986386e-01 -3.409524522240799105e-02 -1.504484092806543105e-01 9.880297517778219296e-01
1.350173927844588832e-02 5.610870682289639810e-02 -8.496873803699521721e-01 -2.967015498104585286e-02 -2.062068515968863897e-04 9.995597227690473652e-01
-4.913766352086915840e-02 -4.837845608620709725e-02 -8.564715109593964426e-01 -4.199626672480727407e-02 -9.917370045953531610e-02 9.941835296957703960e-01
-9.313268774923315341e-02 8.990519265633309387e-02 -8.473122162786158595e-01 4.275996204271325513e-02 -5.076308640072674239e-02 -9.977949161552076562e-01
7.780150055783109642e-02 -1.467008031432347481e-01 -8.654942707487474074e-01 -5.121877117102586335e-02 -1.894414366590731758e-01 9.805552404409841882e-01
1.408212158243483669e-01 -5.210930892446199308e-02 -8.423079600029029779e-01 2.301986116501381421e-02 1.042809914704722341e-01 -9.942814293799712155e-01
-1.147509007945247406e-01 -1.545456205109145553e-02 -8.563358822413263960e-01 -2.993389004333948597e-02 -5.739406382033660631e-02 9.979027425882044389e-01
1.550494008855428651e-01 9.177751691467127965e-03 -8.382618322874976213e-01 -1.264942235446790408e-01 1.931792987522774202e-02 -9.917792239178861990e-01
2.484497392719808503e-02 8.681269218781716146e-02 -8.427879583908045591e-01 3.538145922739539817e-02 -3.487437641271012856e-02 -9.987652027442507352e-01
5.680908347315715562e-02 -1.667243323747737704e-01 -8.705519630063978109e-01 -4.286762662631352083e-02 -2.109254377855044049e-01 9.765617370563010047e-01
9.510091659619780702e-02 -1.557896662134759802e-01 -8.594689022753789764e-01 2.554757050242392399e-02 2.117643992854053581e-01 -9.769867761831348973e-01
-4.403913241593786394e-03 -3.196593873109597472e-02 -8.562422258003499209e-01 1.077727039059305641e-02 -8.282517681779030805e-02 9.965058156017102542e-01
6.358494508336814954e-02 6.742599158789036595e-02 -8.406645713330540559e-01 3.410330600168252901e-02 -1.225072014474013100e-02 -9.993432265121381386e-01
-7.608849771468931267e-02 -5.421166663734645202e-02 -8.507918109951757568e-01 3.808933791794884977e-02 9.837222181478816330e-02 -9.944204886828277301e-01
-7.379713059708280232e-02 -1.688055910666298454e-01 -8.692138644591818064e-01 4.097880734075044079e-02 2.167869910031173797e-01 -9.753584663500614038e-01
-8.330135712895164746e-02 1.660459586917889807e-01 -8.602951373697053095e-01 -1.978446831637174427e-02 1.239741641128539185e-01 9.920881923730155982e-01
-3.713820897824392578e-04 3.963102005395387206e-02 -8.532312640708591411e-01 9.663095726019600359e-03 -2.114196618516991574e-02 9.997297844151762369e-01
-2.196108004295189986e-02 -3.543346263647552397e-02 -8.508571757151811576e-01 -3.001870738104470138e-01 -9.501637739331927346e-01 8.412207452359896087e-02
-6.710230505330530559e-02 -2.253094479195599451e-02 -8.464729717699446265e-01 -1.670920923807001357e-01 -5.816040535170797776e-01 -7.961262196387839385e-01
1.908232090207009207e-02 6.297975779580415601e-02 -8.421983133971036040e-01 3.834323433941322357e-02 -3.330368058611898885e-02 -9.987094979220987323e-01
5.338077009658499100e-02 -1.323611577802665806e-01 -8.565361847331433021e-01 4.131718090772427271e-02 1.775950414904476082e-01 -9.832359288593174318e-01
3.359656643019690719e-02 -5.407690559706248429e-02 -8.464386613356925659e-01 4.094958094135765087e-02 1.005659727526873187e-01 -9.940873286311583401e-01
-9.779581542340040623e-02 1.307749405928407826e-01 -8.572031182664857640e-01 -2.875435402488123182e-02 7.222056666544568460e-02 9.969741104337330739e-01
-1.089912523640730775e-02 1.047044212684851011e-01 -8.450571422151275103e-01 3.404065111867562998e-02 -6.832407616212744783e-02 -9.970822707720804479e-01
1.501042539689266264e-01 8.910864964263330579e-02 -8.405784885100886505e-01 -9.697258068943938047e-01 -2.428467161311913536e-01 -2.563848488724676869e-02
7.413882124847943900e-02 5.867098997531385030e-02 -8.474390167307803701e-01 -3.747530902240893413e-02 1.223848861622143028e-02 9.992226081359776302e-01
-4.952762031274019622e-02 -1.889589742595832456e-01 -8.728349917064043284e-01 4.415463702593452194e-02 2.402380303123940464e-01 -9.697092640687358100e-01
-4.811296812949854979e-02 7.186913486820764585e-02 -8.549428488275750970e-01 1.410773037268668317e-01 6.750131182159561094e-01 7.241922980876894789e-01
9.768345200221977345e-03 4.472204697964311804e-02 -8.498082315560138156e-01 -3.991997661587269597e-02 -3.134024688576429827e-03 9.991979650480875552e-01
-5.946592725248936104e-03 -1.040085599812724110e-01 -8.646523839091212471e-01 2.874563790732591675e-02 -1.519034934938137404e-01 9.879772350442471707e-01
-5.949221774256768097e-02 -1.973521840090992907e-01 -8.823461677912562973e-01 -1.919477862784029973e-02 -2.232288359812355516e-01 9.745770607088444226e-01
9.522990991844811071e-02 1.794926497843322699e-01 -8.487019035082747909e-01 2.811830377853059837e-02 -1.330648972296209764e-01 -9.907083799574366578e-01
-8.111700880198105534e-02 1.738763792093063199e-01 -8.541115209070433423e-01 4.162496209157009325e-02 -1.333008831021636753e-01 -9.902011094192221252e-01
8.553713286558399520e-02 3.738666726006749375e-03 -8.476538074644395238e-01 -4.193688332170630167e-02 -3.926358871113329319e-02 9.983484704344391947e-01
4.674254605215952089e-03 -3.990639057268497991e-01 -9.513780780360751033e-01 -9.787518908795950212e-01 -8.425997047826064290e-02 1.869358004091778991e-01
1.271644516499646597e-02 -1.012229848216912448e-01 -8.530427536528608634e-01 3.855941750982222471e-02 1.545863037037986942e-01 -9.872265424047813598e-01
1.007668570361604787e-01 -1.197664886051315464e-01 -8.620705375428501238e-01 -1.986053174241477481e-01 5.133613454494327932e-01 8.348748749897804133e-01
-1.226168200499341485e-02 -3.823201201981403230e-01 -9.380228713367924076e-01 5.589143294837892739e-01 3.669184464906796728e-01 -7.436300329616551963e-01
