-9.961802326779049810e-02 1.857503707718561603e-01 -6.277748001703740144e-01 7.934675376449009665e-01 4.958519827466865149e-01 3.529023631401706496e-01
5.135244031928802577e-02 -6.531703726231846696e-02 -7.575869286981192774e-01 9.392298013806525958e-01 2.367997782237934723e-01 2.485422403367720245e-01
2.750525073109622021e-02 3.443917312060029712e-02 -7.585015808287453032e-01 2.703345502389286059e-01 -7.362320841242030456e-01 -6.203882246249107224e-01
2.716699675359639937e-02 9.522174665212480155e-03 -7.488601390661577817e-01 9.118542198685702926e-01 3.070229839178176823e-01 2.725046220783800544e-01
5.837327849251863765e-02 -1.780430013135329559e-01 -6.852910464035328886e-01 9.613718914338437171e-01 1.810477963201302110e-01 2.073301275949493983e-01
2.206071209392595003e-02 -9.766160585895265756e-02 -5.862135089774636043e-01 -9.257846616476325119e-01 -2.713950817403998905e-01 -2.631871384872375152e-01
1.057435563933893929e-01 -3.643961070878238284e-01 -8.314554790540882312e-01 -9.176554521749101800e-01 -1.822699166572706031e-01 3.531092586939804656e-01
8.381164902498208780e-02 -1.400073368336385848e-01 -7.988652517987028245e-01 -9.750254880634152688e-01 -1.375415787192938999e-01 -1.743777845658756043e-01
-2.287136429083049330e-02 3.714738794379671138e-02 -6.001261049913070300e-01 -8.772798754028463541e-01 -3.733186064413864247e-01 -3.016840040469950246e-01
-3.623536903585807684e-02 1.677019039068909645e-01 -7.367992985602291878e-01 -8.392991442809442093e-01 -4.639877581776177262e-01 -2.833589713959718259e-01
3.114727284104759977e-03 -2.942540914580759216e-03 -6.662737406526166861e-01 9.097741081194447021e-01 3.520551824753985204e-01 2.199277624304914192e-01
4.324660603562528044e-02 -8.590784203295913357e-02 -7.058432787643236228e-01 9.443541567383341162e-01 2.320520079628572707e-01 2.331246281529162356e-01
7.390179122520141794e-03 -1.029600681134849038e-01 -5.532156892804265258e-01 9.246269210472308764e-01 3.147652278709533458e-01 2.144479148839284199e-01
-4.637605706374343939e-02 6.196458984551247995e-02 -5.898182844658815815e-01 8.627273084680798787e-01 3.986693556233533164e-01 3.110696644005684908e-01
-3.160938036833476489e-02 7.254938730203570885e-02 -6.287892382290153348e-01 -9.242697185340163768e-02 3.083425680314297868e-01 -9.467745854287564766e-01
2.206830535642450870e-03 3.943182366470170813e-02 -7.029758823944258772e-01 8.907925745480509416e-01 3.532075895602555526e-01 2.858898175995235880e-01
-4.547495078437300414e-02 6.607764173141927877e-02 -5.976496731984944910e-01 8.476264093965868440e-01 4.255625005256846172e-01 3.169006598916701556e-01
4.540494643917379614e-02 5.288312405482897133e-03 -7.797746314120801436e-01 -9.268140521266402532e-01 -2.757254410369622821e-01 -2.549337050010640482e-01
2.162669466666659185e-02 -1.681816074312218398e-02 -7.124512802405976730e-01 8.783958841450311139e-01 3.591238425475311025e-01 3.153581082372312605e-01
3.015337348929388733e-03 4.238390484563319544e-02 -6.837324019086162830e-01 -8.942214401303126836e-01 -3.465027721883958134e-01 -2.833793303630771643e-01
-1.938185988598810361e-02 1.020793297752286936e-02 -5.766324483780388421e-01 -8.754476028262144771e-01 -3.768015032473351900e-01 -3.026749442163702564e-01
-3.035540735617344235e-02 3.268907033384311350e-02 -5.728879489199638630e-01 -8.636823966420457133e-01 -4.002241413811095661e-01 -3.063875884992819376e-01
-2.852128097723441794e-02 -2.084585377938722589e-02 -5.127679831251050757e-01 -8.739641452346250672e-01 -3.547472882995909016e-01 -3.321762096965977795e-01
-6.320424188856901826e-02 5.294234949339242380e-02 -5.320053202814628568e-01 8.468150036974160244e-01 4.332313938952919719e-01 3.085691314057312784e-01
-7.706472341022224670e-02 1.519232988037512166e-01 -6.330738165887550561e-01 8.093026645113521322e-01 4.804764953272266936e-01 3.378927857366761378e-01
1.731096013491936064e-02 -6.216576934661811188e-03 -6.978384851501127084e-01 9.145047860434500908e-01 3.046774097858387376e-01 2.661816527670822219e-01
-8.558440883185686188e-02 1.021711444016547565e-01 -5.436264328678936941e-01 -3.402437440452748540e-01 9.309850900157922160e-01 1.322911818918421634e-01
-1.831461019388306785e-02 4.859338521639958858e-02 -6.201581426048969892e-01 -9.335763001167494135e-01 3.221033470861306980e-01 -1.571137347790840522e-01
2.611268166626963885e-02 -6.459771014096891972e-02 -6.359462970388702896e-01 -9.220422059093672518e-01 -2.846116953720139175e-01 -2.623630183148072392e-01
3.240801243177401925e-02 -4.077832537476438340e-02 -6.708593737858431494e-01 -9.445211798933760283e-01 2.322610725426418332e-01 -2.322380996179706225e-01
6.454804353900159275e-02 -3.327610274498414566e-02 -8.271175996409815268e-01 -2.401947551110785728e-01 -8.654937914541965815e-02 9.668586683619645461e-01
5.836004445836216747e-02 -5.496693628893491862e-02 -7.946948119805755661e-01 9.439890334541927164e-01 2.281985483889799604e-01 2.383487512687683940e-01
5.470236558003270175e-03 1.006057808792126945e-01 -7.638230493770379326e-01 -8.837075347057213870e-01 -3.704195249220865738e-01 -2.860950343169760268e-01
1.275561501467526240e-02 -4.346691717618777345e-02 -6.517103056515796133e-01 9.406590975544250055e-01 2.159409102236783118e-01 2.617823246131487647e-01
-1.119314480314685251e-01 2.054701788250824224e-01 -6.094715622701170066e-01 -7.697846645564462298e-01 -5.346018705161080797e-01 -3.487583837765020900e-01
1.608720735168705715e-02 7.687845907027923698e-02 -7.897674305645806525e-01 8.897983029904590335e-01 3.396919619925053979e-01 3.047430900824192324e-01
8.237209923702361325e-02 -1.964810237598334508e-01 -7.512109578271753962e-01 -9.753925389341718821e-01 -1.056402016272451061e-01 -1.935188435054956413e-01
-4.604771313770940344e-03 4.461018204052663583e-02 -6.512949574557871379e-01 -8.839623390344423237e-01 -3.919385013033303555e-01 -2.549407663847758632e-01
-7.535302627670711906e-02 1.107288897080899032e-01 -5.771976559358590331e-01 -3.496315380640679371e-01 9.275664744587116539e-01 1.318264884277441373e-01
5.506531118510915590e-02 -4.919513492079515687e-02 -7.871719054213272004e-01 9.439890334541927164e-01 2.281985483889799604e-01 2.383487512687683940e-01
6.009729913070820106e-02 -1.017790824500581226e-01 -7.145854053038960263e-01 -8.749614411181279028e-01 -4.096935385422544318e-01 2.580575149714013916e-01
-1.240451557238750474e-01 1.920365336703539760e-01 -5.891625735295568100e-01 7.310705436545521518e-01 6.576876389961153757e-01 -1.816117554354696739e-01
3.158448609577058086e-02 1.319483499654424893e-02 -7.411273126717594639e-01 -9.100399082451990918e-01 -3.132960967444374245e-01 -2.714275615440880363e-01
7.854766605929497381e-02 -2.327774383605548114e-01 -7.600939740375213249e-01 8.970741879512487138e-01 3.197914374735987830e-01 -3.049448111219092428e-01
5.780402907941446095e-02 -1.050704734593904122e-01 -7.142296478465696152e-01 -9.439629719450122192e-01 -2.331710211591969950e-01 -2.335919144326645547e-01
3.363996717749476867e-02 2.483411563983408191e-02 -7.490116567255772351e-01 -8.655580399598858943e-01 -3.804025913265435821e-01 -3.257347816442863198e-01
-1.076861302711648732e-01 1.704810040997680187e-01 -5.873543980921821506e-01 7.937565874217038520e-01 5.038198064655347030e-01 3.407580997389235700e-01
1.352489572624619371e-02 -2.566273897224436579e-02 -6.364152989298194063e-01 -9.044379242420865772e-01 -3.248703325557318333e-01 -2.764982969527908230e-01
-5.891864114516690010e-02 9.026649918004142625e-02 -5.712717417094673733e-01 -8.465926485746152474e-01 -4.249486000409153363e-01 -3.204677436227926779e-01
-3.877913973205853598e-02 2.878843431851929244e-02 -5.675684120255189979e-01 8.627169315200573507e-01 4.042902359703570148e-01 3.037579647805957461e-01
3.650940941124601602e-02 -1.018240014818831175e-02 -7.595209382601419978e-01 9.201740132035479691e-01 2.919623559822144832e-01 2.608405032087450226e-01
-2.151955032724461869e-02 1.987060841050070775e-02 -6.068738896687040363e-01 8.772121836281129292e-01 3.734590335203936129e-01 3.017070353445729380e-01
-6.474716097926722091e-02 1.080118276327537707e-01 -6.032589475741561014e-01 8.287402716256687674e-01 4.541423456766632283e-01 3.270233815021652002e-01
-7.869778542121586007e-02 1.524026688757420811e-01 -6.009021205123663556e-01 -6.190192419681409541e-01 -1.878663487507017671e-01 -7.625755130347864341e-01
-7.314515669054115488e-02 1.558235716355299838e-01 -6.265572819220285306e-01 -8.061488973544059800e-01 -4.849749017406104756e-01 -3.390033922779543407e-01
8.212266569397938532e-02 -1.780341291554002614e-01 -7.622407039478723556e-01 -9.700167461400748259e-01 -1.370641002411464582e-01 -2.007011326149072961e-01
-1.692078150353578878e-02 5.341716873209083338e-02 -6.626092566199972556e-01 8.809555571761410464e-01 3.656414820455302639e-01 3.003724569397515642e-01
4.599731521999020356e-02 -5.431362010447546296e-02 -7.478337119514755216e-01 9.392298013806525958e-01 2.367997782237934723e-01 2.485422403367720245e-01
-5.472827454936964736e-02 9.448794925547920887e-02 -6.110289452242603225e-01 8.475302858496063241e-01 4.253034573472044833e-01 3.175049349792830600e-01
4.198202052654247986e-03 7.744195318409341500e-02 -7.550296273004051262e-01 8.845144783034550873e-01 3.579746958640363519e-01 2.991458754397546826e-01
4.504854257329010615e-04 -3.022044916382773602e-02 -6.146207212718366453e-01 9.028257762382623230e-01 3.299878512612511861e-01 2.757057050185242608e-01
-7.003461744668139366e-02 1.224851003938914051e-01 -5.877424714440124820e-01 -8.289823465592510709e-01 -4.532150776428407468e-01 -3.276955332169045887e-01
7.712034904138083402e-02 -1.821075961778353403e-01 -7.346927482714672442e-01 -1.185584760130243276e-01 3.816637696706244864e-01 -9.166660540710983573e-01
-2.654296242789257881e-02 1.596431055059537862e-01 -7.525224869752593637e-01 -8.154833331209206948e-01 -5.511926807757756563e-01 -1.765603637887254440e-01
-6.830626564501247888e-02 1.658962603218643861e-01 -6.525088455227748829e-01 -8.078237996773780516e-01 -4.796998196387596280e-01 -3.425037105103311275e-01
-1.217570073235170747e-01 2.020870549493148649e-01 -5.832095896666239510e-01 -7.663700815743192951e-01 -5.296831998796632801e-01 -3.634729781331919041e-01
-2.096386390779215840e-03 1.841092675681243671e-02 -6.387414196285972068e-01 -8.934091064010736272e-01 -3.437292455906357236e-01 -2.892583176424270985e-01
6.912150743987466317e-02 -2.034960209692469046e-01 -7.147798997643278751e-01 9.653421539403549412e-01 1.695528574123453536e-01 1.984095621917066898e-01
-1.688176081938452984e-03 1.011689961312005198e-01 -7.662760241755877111e-01 8.832585662465730625e-01 3.624438244005251941e-01 2.974706360398772231e-01
-5.737460434828201700e-02 1.317580849585888725e-01 -6.546066003493878904e-01 8.287277299279800502e-01 4.533453234827469203e-01 3.281590579654024009e-01
-8.948792867548113761e-02 1.304326856925077105e-01 -5.514973894519399344e-01 -8.101648748281453649e-01 -4.780314741776454657e-01 -3.392915933091216751e-01
-3.438444021644576566e-04 -1.019699421738267872e-02 -6.095684512453390935e-01 -8.980720746315324909e-01 -3.335126084444597350e-01 -2.867680051462982438e-01
4.554847736465329582e-03 -1.980264038789407779e-02 -6.403744719539924413e-01 9.048274999462962986e-01 3.254394469460596406e-01 2.745475581978059632e-01
-2.286427580992400274e-02 1.122025162055287351e-02 -5.919698401359133610e-01 8.782486697186246971e-01 3.761730857143814055e-01 2.952508826770662287e-01
6.904079451976247173e-02 -1.712948500184803546e-01 -7.397695213570040229e-01 9.659943384458525850e-01 1.658558952826474642e-01 1.983601776833013308e-01
9.143707252079938397e-02 -3.414758647525534818e-01 -8.185601630849488330e-01 9.809838814495286385e-01 -5.374808514553510580e-02 1.864987069108128559e-01
6.205688416306039817e-02 -1.080577410321533899e-01 -7.292722965643504418e-01 -9.498914640109498153e-01 -2.082077601130436217e-01 -2.331431646603510377e-01
-1.645972273583696729e-02 -1.124919583337107704e-02 -5.588403702810424978e-01 -8.851643267918387625e-01 -3.611998407271628797e-01 -2.932896002824224579e-01
-8.356992890306895461e-02 1.544079861443866664e-01 -6.210504543465249494e-01 8.089488739299588449e-01 4.815190996075238150e-01 3.372552091230187621e-01
-1.892970734569624988e-02 3.145786743928278423e-02 -6.045477263890245423e-01 -8.772798754028463541e-01 -3.733186064413864247e-01 -3.016840040469950246e-01
-3.976701482221818573e-02 1.531480803703425542e-01 -7.285246542462695540e-01 8.439548756313295375e-01 4.234743984294087604e-01 3.292561339944286569e-01
-9.030489916657663541e-02 1.037393135849271064e-01 -5.326917395665971000e-01 8.199205549153122385e-01 4.746235912111288480e-01 3.200980010765730466e-01
-9.796661355095365176e-02 1.598891904897504768e-01 -5.989470457521015589e-01 7.538167696735609269e-01 6.336519743979885932e-01 -1.739121994008705763e-01
8.469768704712855867e-02 -2.030876763037916810e-01 -7.598940696581009124e-01 -9.855710421619744421e-01 -7.753471030463007785e-02 -1.504595944090517112e-01
1.006896006444055053e-01 -3.241700970717046326e-01 -7.994311049939762936e-01 -7.852424049825319496e-01 1.895733308580860310e-01 -5.894542540728839874e-01
2.687410734789713249e-02 -5.296010280556251448e-02 -6.792780029106867401e-01 9.240708906655272781e-01 2.773211506659431502e-01 2.630322573714798939e-01
5.578794070376517922e-02 -1.823048816239485337e-01 -6.697617589563350515e-01 9.600460086464976950e-01 1.835425118529312172e-01 2.112434794843266184e-01
-6.156151066654452775e-02 1.409809713441707857e-01 -6.345973623579198586e-01 -8.273198459565858087e-01 -4.538795022892777031e-01 -3.309611304791070241e-01
-9.047232723031206625e-02 1.955408778954591531e-01 -6.626648757055420003e-01 8.018973369863733325e-01 4.823372826750954023e-01 3.525782277392743302e-01
6.573239575784325939e-02 -1.955011923572019805e-01 -7.051431588961681873e-01 9.650291279299501035e-01 1.704585467666512033e-01 1.991548796313089287e-01
-3.590621981416391995e-02 9.155909749412539239e-03 -5.276762951585037831e-01 -8.673424955673265657e-01 -3.859130488318525121e-01 -3.143057653374274896e-01
4.823089343854124883e-02 -1.111380251429634758e-01 -7.147511923540947887e-01 9.333036488796200292e-01 1.867572723671712120e-01 3.067018425213011712e-01
1.340014590328315706e-02 -2.198094024851478777e-03 -6.633557295089301808e-01 -9.079247431470403029e-01 -3.187380596613507144e-01 -2.721740437747476316e-01
9.627243467889581852e-02 -2.716765412299606552e-01 -7.927252182888149257e-01 -3.614020261558836822e-01 -4.184541916876289847e-01 8.332374601213482501e-01
-6.470755810352971094e-02 1.350283095560469993e-01 -6.394110588920016713e-01 -4.070163294738438076e-01 7.331151785076486238e-01 5.448668117837035529e-01
-1.331616974288091226e-01 2.041335415172649825e-01 -5.729960552581560007e-01 5.663696263490175520e-01 -4.724023385329134683e-01 -6.753232388256078522e-01
3.687385266840117332e-02 -1.310668374635119704e-01 -6.070093012485057171e-01 -9.410120211585613070e-01 -2.286622115389765342e-01 -2.494192635888081988e-01
5.793477906156029554e-03 6.446930044527884006e-03 -6.491051248691774855e-01 -8.953209388511719213e-01 -3.433538185148931610e-01 -2.837403245326565737e-01
9.230133982533864773e-03 -8.897366142468511596e-02 -5.768449933276558195e-01 9.179041977712569800e-01 3.020477075076683504e-01 2.573306551953476462e-01
3.947361469645593868e-02 -1.318636552802540940e-01 -6.603579435516431229e-01 9.666065863480129972e-01 1.294244784811280080e-01 2.211809476390968199e-01
2.523962865172522246e-02 -5.537190928901500331e-02 -6.428862198447899967e-01 -9.220422059093672518e-01 -2.846116953720139175e-01 -2.623630183148072392e-01
-5.286932672904885722e-02 2.934532494455609208e-02 -5.284564927840759152e-01 8.598538690038279864e-01 4.116365992391959328e-01 3.020043611041689502e-01
-1.319471767473287364e-02 6.052428005589089582e-02 -6.824414917975840655e-01 8.799350247527446545e-01 3.699031020074114995e-01 2.981376315373168717e-01
1.330222400087611827e-02 5.255979551792453602e-02 -7.533228741843635001e-01 8.972623772722986280e-01 3.376518308249048528e-01 2.844494110949307708e-01
1.076176563617732215e-03 -5.648943532062877804e-02 -5.860451708554306194e-01 9.113278273802460916e-01 3.134750302389940346e-01 2.668613806062277716e-01
4.160942133468375353e-02 -8.727540083097795609e-02 -6.685244443723211694e-01 -9.340569565720975298e-01 -2.579263704288090597e-01 -2.470052414761501891e-01
5.214265352092406491e-03 -5.101174745161362462e-02 -6.185060344403383592e-01 9.379098472668194741e-01 2.251098926803403455e-01 2.639141046200008667e-01
1.821621952819631532e-02 -3.322377169176357614e-02 -6.435167873524147986e-01 -9.157412320753943735e-01 -3.023268316002741263e-01 -2.646062787833611818e-01
3.486710298699853550e-02 3.440206962286622427e-02 -7.725995449371571011e-01 -5.675580211223091309e-01 6.277244202109426574e-01 5.327663136221773010e-01
-3.666871516021733696e-02 6.964252667486489634e-02 -6.030692876576638772e-01 -8.628916286281665959e-01 -3.983571935128263353e-01 -3.110137997260158382e-01
-2.949200207864152885e-03 -4.734296093699046776e-02 -5.578420599346465281e-01 -9.024587158159360634e-01 -3.227783794085252733e-01 -2.852759787193048235e-01
6.549277835922105717e-02 -6.012127030554585000e-02 -7.799576145072766309e-01 -4.821433042237349698e-01 -6.657610805898943607e-01 -5.694734565930136272e-01
-4.348495807698990988e-03 8.121369340963088823e-02 -7.101628967035491513e-01 -8.763206578481637088e-01 -3.797798292851203295e-01 -2.963602299511967075e-01
-2.004969496252646810e-02 5.098699780002047266e-02 -6.552125729467366266e-01 5.023306839533103751e-01 2.953506993291105664e-01 8.126695812966083787e-01
-1.199239170864892373e-01 1.854362088433911815e-01 -5.810762011763924706e-01 7.885021691291657087e-01 5.087098597268268074e-01 3.456567775920389995e-01
3.175798058677004737e-02 -2.650870822336779883e-02 -6.972510467390605760e-01 -9.166380766853865492e-01 -2.974568890518168862e-01 -2.670094296577003590e-01
6.327709943545602178e-02 -3.825935759401272868e-02 -8.260218384835181782e-01 8.642593682986798864e-01 2.121407311763033876e-01 4.561272349728198172e-01
-8.072965253987431089e-02 1.096333874444489626e-01 -5.336788639373967191e-01 -8.643928931174965635e-01 -3.641532555116047121e-01 -3.467237125266514619e-01
7.594778766831483674e-02 -1.163730236997138068e-01 -8.113873317019687503e-01 9.472549078277453516e-01 1.888362218057257902e-01 2.589382569849194016e-01
-3.579881684477091708e-02 1.453740143531744300e-01 -7.069153391030925659e-01 -8.442901770439602549e-01 -4.316048688317358772e-01 -3.176339625226149987e-01
-6.876015320750294979e-02 8.542165927088823940e-02 -5.617832014232257976e-01 8.290203342737092473e-01 4.541158947532584755e-01 3.263495664056485501e-01
-3.510045148054810604e-02 -1.211050937073720329e-02 -5.250095144678330605e-01 8.836707962828515006e-01 3.743363127878329699e-01 2.810662710558500810e-01
6.648526841609606053e-02 -1.124596942134310495e-01 -7.433836413859569170e-01 -9.498914640109498153e-01 -2.082077601130436217e-01 -2.331431646603510377e-01
1.922211936813093477e-02 -3.694480649852480147e-02 -6.427464930662267761e-01 -9.157412320753943735e-01 -3.023268316002741263e-01 -2.646062787833611818e-01
3.135534721509549566e-02 4.559014576251433498e-02 -7.710988156972645724e-01 -4.197427953601819972e-01 -6.951779677427056825e-01 -5.835611184000710772e-01
8.763198488794379792e-02 -2.563611458590090986e-01 -7.673315816905005304e-01 3.658392009125332467e-01 4.181975478675759583e-01 -8.314279824694534859e-01
4.245860099500241118e-03 1.846325878484864763e-02 -6.695266138809802259e-01 -3.367773912172711825e-01 -4.962994011930608185e-01 8.001674156951772421e-01
6.508246998491115654e-02 -1.493459361772247196e-01 -7.056503223617454079e-01 -9.566201088824668464e-01 -1.872312595865939788e-01 -2.232093696853126308e-01
7.190673984100111327e-02 -1.993620875266224612e-01 -6.984584554061179507e-01 -9.702577241746689340e-01 -1.236862974056730097e-01 -2.080904815542202468e-01
7.965231988345936043e-03 -1.111333537962905585e-02 -6.731697521351511782e-01 8.926544102851513562e-01 2.924465385955460905e-01 3.429914370096610599e-01
6.293219503293749628e-02 -2.034592940436013853e-01 -6.829889369982325986e-01 9.480714990971425005e-01 2.673778265353535799e-01 1.722484556590483662e-01
2.944958403272582986e-02 -2.245561603390450189e-02 -6.903579163074387015e-01 2.270006588939289249e-01 -7.463600922092239465e-01 -6.256335298073151252e-01
4.622894763528977158e-02 -2.237616317226531759e-02 -7.531084982443659870e-01 -9.299916720198198039e-01 -2.685573100338497499e-01 -2.509829898641784962e-01
1.877579098239151242e-02 -5.147522394535353901e-02 -6.167993562650755379e-01 -8.971765786860356195e-01 4.174976940088537258e-01 -1.441175289633743750e-01
1.848809761268139368e-02 -4.219260051617189367e-02 -6.615423426428118647e-01 9.182536911033449822e-01 2.984681742235027468e-01 2.602439389318632612e-01
-3.752928491128089405e-02 1.205032508236845851e-01 -6.914852489091475318e-01 8.444440851684464899e-01 4.260189490360353215e-01 3.246876069181836577e-01
-6.514098583159261269e-02 1.632225605542657332e-01 -6.539252507465577180e-01 5.122100268926005340e-01 -6.881886335795879273e-01 -5.138455925300331462e-01
-3.523472393576293493e-02 7.165204778719030942e-02 -6.429821405047710936e-01 8.476753888049380903e-01 3.882692658794522633e-01 3.615154386576425183e-01
-7.054794499041103228e-03 -5.566323744351959167e-03 -5.945087351244024987e-01 -8.904005325184335407e-01 -3.516971995723904287e-01 -2.889566948589838979e-01
3.516830504800455559e-02 7.963173294711942823e-03 -7.472272727857386387e-01 -9.198873876507976943e-01 -2.924905270635199672e-01 -2.612594220675975576e-01
-7.961732521503689375e-02 6.904946553333253523e-02 -5.094983316121007855e-01 8.525517532465145543e-01 4.522628942601783497e-01 2.619423266898663338e-01
5.916097153598616487e-02 -1.562224303790297197e-01 -6.743626256480113046e-01 -9.556948677341334797e-01 -1.939370108127322911e-01 -2.214401852050771058e-01
6.114267088086382945e-02 -1.135194214887237513e-01 -7.522082860406736904e-01 9.555891674906914490e-01 1.959906994795334312e-01 2.200840491538866850e-01
6.631758843634373568e-02 -1.536624793424566371e-01 -7.217879229800514551e-01 -1.171303918998349569e-01 3.662710268709127304e-01 -9.231067143988924695e-01
3.430915969007231753e-02 -1.565371764340055261e-02 -7.458072386268553844e-01 9.222142836089084472e-01 2.836809271382924047e-01 2.627659541981542390e-01
3.475213335170329598e-02 -4.804004909267987206e-02 -7.128517967186401849e-01 9.259317691111947912e-01 2.729075177374794547e-01 2.610973874112497706e-01
-1.900727000760407638e-03 5.967263773386818210e-02 -6.902348815030230345e-01 -8.799892078347179014e-01 -3.698220735293087369e-01 -2.980782246741754404e-01
3.089585256947569719e-02 1.833551549882024914e-02 -7.447521145868352122e-01 -9.100399082451990918e-01 -3.132960967444374245e-01 -2.714275615440880363e-01
1.156829178172596138e-02 -5.678220513613861653e-02 -6.063156040953778803e-01 -4.842534326915997611e-01 8.743242600300328293e-01 3.249155658532842939e-02
1.020771851846211456e-02 -3.870931651700498799e-02 -6.371869189618061258e-01 9.119080545182236541e-01 3.071379208214712886e-01 2.721947789694940667e-01
4.756912883420964799e-02 -5.304227533489647151e-02 -7.258506891933125260e-01 -9.332138701632203270e-01 -2.550502788417572386e-01 -2.531031959453015623e-01
-9.035912766429570961e-03 4.095232521159915956e-02 -6.705612342999581754e-01 8.809555571761410464e-01 3.656414820455302639e-01 3.003724569397515642e-01
3.299611193087990252e-02 -3.606490430864443819e-02 -7.192723382966740298e-01 9.245886168649976034e-01 2.761700129789739777e-01 2.624233478463066649e-01
1.882155333850521603e-03 8.788206586191671388e-02 -7.366945473643282671e-01 -8.756487624561408722e-01 -3.760640666052825209e-01 -3.030100041538666411e-01
7.388280545894532203e-02 -1.741691008169169719e-01 -7.253939523216630381e-01 -9.645970734507794964e-01 -1.608721275668766049e-01 -2.089800097193458273e-01
-3.821005945821907140e-02 -1.269655756129972612e-03 -5.088997771213751298e-01 -8.547362897621230138e-01 -3.771551019953687800e-01 -3.566229157002434036e-01
-6.100632279145885850e-02 1.493628156276710639e-01 -6.553604784185600440e-01 -7.046186514420272884e-01 5.644128378101058718e-01 4.300589547436046711e-01
-1.082209141327694080e-01 2.098300923863110901e-01 -6.241807803986050285e-01 -7.753770330776458275e-01 -5.284816261692506512e-01 -3.456842885888962713e-01
-1.857948074404610142e-02 5.603751417318652422e-02 -6.247296098980515966e-01 -8.413015101976153431e-01 -4.426827116539249207e-01 -3.102318258044127752e-01
2.277336984038716081e-02 -1.354763497234338747e-02 -6.810732383545414770e-01 -9.062978696646267762e-01 -3.132986975328286294e-01 -2.836689929576233782e-01
-6.880390897216658030e-02 9.244975784173704858e-02 -5.493275253129772384e-01 -8.282652829814111106e-01 -4.518460915845550208e-01 -3.313785305771703715e-01
-3.662375571840267158e-02 7.262547507482972065e-02 -6.407706273228682692e-01 8.476753888049380903e-01 3.882692658794522633e-01 3.615154386576425183e-01
7.983956856421448034e-02 -1.839742883119361572e-01 -7.786201447491319927e-01 9.536226544672343763e-01 1.661204751960485282e-01 2.510135864998241373e-01
6.889488237015373162e-02 -1.231209002418530707e-01 -7.771786630790379347e-01 9.576061109197562260e-01 1.844250699059816478e-01 2.213095793663550914e-01
-6.309452921822442106e-02 1.697962802722481901e-01 -6.706122796733363645e-01 -8.105378466409050020e-01 -4.781993578528068722e-01 -3.381623475667978052e-01
-2.303766143751233286e-02 5.349369227670511956e-02 -6.206283071678960761e-01 -8.670605935625506078e-01 -3.958546197070334505e-01 -3.024980118076103230e-01
7.964501418230211793e-02 -1.797680149061355037e-01 -7.808132781150207702e-01 9.450344100427542360e-01 1.890314875884154255e-01 2.667902931803441957e-01
2.142696425256591236e-02 9.536682841470060183e-04 -6.932106405861032661e-01 -9.052681192851980141e-01 -3.207523144900258361e-01 -2.785813794120701181e-01
1.359560323471173914e-02 -5.050184079890805006e-02 -6.435723115899615321e-01 4.591813258986471857e-01 8.509322096444944528e-01 2.550821133194136059e-01
6.268082379359125877e-02 -1.337941529630670978e-01 -7.413606347170235145e-01 9.573797671372124007e-01 1.849441548039121308e-01 2.218550001243227709e-01
-1.971695857400537072e-02 1.358306094497537253e-01 -7.588085510046691518e-01 8.563900114371822969e-01 3.993673439894103172e-01 3.272642248481591465e-01
-4.462116526822278856e-02 1.226165351003409704e-01 -6.756458116016978988e-01 8.466780385688486010e-01 4.258499744952730093e-01 3.190424708837095169e-01
6.801053341732959945e-02 -5.486321747445471742e-02 -8.032764108541072812e-01 -9.441324257656994456e-01 -2.299059203017190522e-01 -2.361296898485981399e-01
3.263032212810942911e-02 -1.374688889090845412e-01 -5.930950787575589578e-01 1.041850730720104423e-01 -9.794856901475897937e-01 -1.724913138250141198e-01
1.689007606329243072e-02 -2.068067692045489139e-02 -6.533207342814691954e-01 -9.073119610654534206e-01 -3.200060114364485786e-01 -2.727290926030745966e-01
1.244231952765934013e-02 7.745779915550324302e-02 -7.798652351862968013e-01 8.909838843603128389e-01 3.316785676336947986e-01 3.100597451825516937e-01
2.483524426622377851e-02 4.603188230292069860e-02 -7.568832304120480803e-01 -8.986873161282399325e-01 -3.354533796251516486e-01 -2.825458156269257115e-01
8.034233655921636796e-02 -2.045604775040781587e-01 -7.362419206968918717e-01 -9.740718084013045841e-01 -1.159777343308423109e-01 -1.942505526820877404e-01
-5.054459265008564434e-02 5.715959882467079589e-02 -5.491957533441809147e-01 -8.436975128104892141e-01 -4.295830634771656831e-01 -3.219206399890626180e-01
8.029040424687410027e-02 -2.286564939572288402e-01 -7.558256458903018782e-01 3.611072388230114893e-01 4.391071469878404243e-01 -8.226703322314592448e-01
6.146428482581373087e-02 -1.120615384210331550e-01 -7.359004301950308191e-01 -4.203798360568620773e-01 6.969403014875986679e-01 5.809948447268538096e-01
-9.706297434502787758e-02 1.683224987615218049e-01 -5.881964194249529321e-01 -7.871907011062166948e-01 -5.132680707776677842e-01 -3.418869515089359989e-01
-6.414562417061177302e-02 5.939945567476723892e-02 -5.167610454970392730e-01 -8.398107678955286648e-01 -4.274561612048566883e-01 -3.346626725147721637e-01
2.147640509019435595e-02 4.103458748734255951e-02 -7.734696725892358238e-01 9.568260259646814703e-01 -2.258210033810052197e-01 -1.829995367989508959e-01
3.178602752686619792e-02 -9.089558625477046905e-02 -6.572755284690520172e-01 9.332225541270833258e-01 2.605893562373585715e-01 2.473638047175089894e-01
-2.479527319013216657e-02 1.286144716390062726e-01 -7.135741208549226666e-01 -8.580868364573280838e-01 -4.120922164126755716e-01 -3.063771960684134599e-01
-2.266976169085802711e-02 9.047602399364217118e-02 -6.694480859086487934e-01 -8.650160187822011348e-01 -3.961436851973350604e-01 -3.079244516573262369e-01
1.569786804678441339e-02 -8.840520152264708109e-02 -5.735631898451989397e-01 -9.242769362909381003e-01 -2.725966178521916916e-01 -2.672138263192667673e-01
6.406006561060892390e-02 -1.287190695693968268e-01 -7.189060490721923546e-01 -9.513963569635587314e-01 -2.029119543646983603e-01 -2.316715578839299849e-01
-6.713083983760942397e-02 8.863600753071577965e-02 -5.483134064601475899e-01 -8.283448884902674392e-01 -4.514306612308157107e-01 -3.317455407579049109e-01
-3.787253408836346175e-02 3.582460965251121204e-02 -5.869599247706251965e-01 3.436278254775279040e-01 8.915288746724392421e-01 2.951206248009102251e-01
6.569507760830270438e-02 -1.742849733271451540e-01 -7.365629485373228480e-01 8.970741879512487138e-01 3.197914374735987830e-01 -3.049448111219092428e-01
4.332786069158599956e-02 -1.657148755081098435e-01 -6.297684952384574597e-01 9.503867627370057303e-01 2.209949537115108442e-01 2.189206058102370622e-01
1.480746584974276976e-02 1.770781784602259296e-02 -6.911903766839949670e-01 -9.044765110467883895e-01 -3.250340161226269453e-01 -2.761795237301716832e-01
-1.286136845058308449e-02 -6.275900439185155312e-03 -6.009041102336165618e-01 8.908488170662328676e-01 3.529652397750951964e-01 2.860138539340413288e-01
4.493815125998434912e-02 -1.779610614694263904e-01 -6.222033703521514525e-01 8.535889872853981153e-01 5.203101264103962009e-01 -2.575292488021005410e-02
-4.226807580037519885e-02 1.349777798395215486e-02 -5.375849085789982107e-01 8.712032824708481060e-01 3.896929631201513367e-01 2.985703185292468143e-01
-4.128082180695653164e-02 5.596401072746579053e-02 -5.962591297749272323e-01 8.627273084680798787e-01 3.986693556233533164e-01 3.110696644005684908e-01
6.755386367651439183e-02 -9.113444038899388977e-02 -7.983376039126450774e-01 9.495526714948219205e-01 2.102867916806462345e-01 2.326568058357784963e-01
-9.086582719066964992e-03 -6.563476710822144233e-02 -5.532359957992838417e-01 4.168232648315530198e-01 8.774777081412943325e-01 2.372577451006946392e-01
-3.747107614367482797e-02 1.320992830042060917e-01 -7.069197711240612358e-01 8.453924460739264957e-01 4.267490120404340281e-01 3.212427319701669504e-01
-8.104763024550171169e-02 1.883486152652231183e-01 -6.746787538501457515e-01 8.084259806055492659e-01 4.789654786556222232e-01 3.421103683581460109e-01
8.369900011102711368e-02 -2.011752505990397344e-01 -7.553363966121988682e-01 -9.753925389341718821e-01 -1.056402016272451061e-01 -1.935188435054956413e-01
5.434277050895401640e-02 -1.629869043519176774e-01 -6.478083218411396782e-01 -9.534684032726705727e-01 -2.030955936695801878e-01 -2.228232119700837011e-01
-6.599893905270065586e-02 1.582824574098451453e-01 -6.715493197453490382e-01 -4.069592153613139085e-01 7.310237741478256002e-01 5.477120033951898836e-01
9.139013338141294129e-02 -2.275928579995363243e-01 -7.707359842269415617e-01 -8.973516413064817066e-01 -3.200743113047106458e-01 3.038296678854428001e-01
2.089933074441918670e-02 1.859675606932491981e-02 -7.489314440166123799e-01 9.567627982817279442e-01 -2.252925791042623971e-01 -1.839788075422464642e-01
-6.533389220329342828e-02 1.848754175571515890e-01 -7.068514657304754145e-01 8.200969717039771067e-01 4.509254788490215105e-01 3.522884748707322822e-01
-6.400094068766691568e-02 1.226910638701092376e-01 -6.032147799383621445e-01 -8.278719557341090995e-01 -4.557646290303242198e-01 -3.269657900053642985e-01
1.008328825172425530e-02 1.671861310353658231e-02 -6.662865580964359991e-01 -8.266637400467178320e-01 -5.180531975841279335e-01 2.196541494368656200e-01
8.146445753375840260e-02 -1.906530924802319060e-01 -7.504235804857063430e-01 -9.711122410337595934e-01 -1.389659624075255118e-01 -1.939831864016550445e-01
-2.864910158030141950e-03 -3.185849621008340210e-02 -5.762533986090159210e-01 -8.987050593925457465e-01 -3.355139087152418931e-01 -2.824174804803363248e-01
-7.126805322291523276e-03 6.887518808939288584e-02 -7.107945454070301317e-01 8.774480427719648645e-01 3.734418396624826220e-01 3.010417323647149312e-01
7.959025205971902162e-02 -2.229615766011712186e-01 -7.705753217638395824e-01 7.758037211412945888e-01 -1.146735835953848620e-01 6.204664015792576981e-01
-1.036782344389808840e-02 6.626676145393469580e-03 -5.991402982709611580e-01 -8.904005325184335407e-01 -3.516971995723904287e-01 -2.889566948589838979e-01
4.971938663997645114e-02 -1.654344403706977384e-01 -6.266384020042625735e-01 -9.504303435151477686e-01 -2.046443569312532684e-01 -2.341000839424703106e-01
3.953203814274047073e-02 1.511633751784918246e-02 -7.704718250448147066e-01 -9.166632940547759789e-01 -3.002762422975669421e-01 -2.637471964671856406e-01
2.194685913999600349e-02 4.172969430681618130e-02 -7.425884210157431831e-01 -8.986873161282399325e-01 -3.354533796251516486e-01 -2.825458156269257115e-01
6.919125136068780824e-02 -8.709230649342156183e-02 -7.777887103774708821e-01 -9.541429792797009313e-01 -2.016845192337939907e-01 -2.212115046571704047e-01
-1.018680633478980142e-02 1.079679809886586184e-01 -7.504736570776696647e-01 8.699387156149744893e-01 3.853790398293148733e-01 3.077167963150593821e-01
2.714152396838953596e-02 -3.158578526812194642e-02 -6.759171924962743550e-01 -9.167838331198621127e-01 -2.979561426712737382e-01 -2.659502592112065189e-01
8.430410342719468417e-03 -4.900569363473225581e-02 -5.836872246318695057e-01 -4.641973881248401823e-01 -8.469671841279949875e-01 -2.591666912787427557e-01
3.158663458282936348e-02 -8.279801098006776827e-02 -6.650538044282475747e-01 9.332225541270833258e-01 2.605893562373585715e-01 2.473638047175089894e-01
-6.844707924107915065e-02 9.115852008489540304e-02 -5.705613481126071695e-01 8.290203342737092473e-01 4.541158947532584755e-01 3.263495664056485501e-01
-3.144080532806970557e-02 1.033164039235211634e-01 -6.853449657143074747e-01 8.627926243740848822e-01 3.975434382826508184e-01 3.123269152732232601e-01
5.698591016519348462e-02 -1.392548948195231340e-01 -7.121095571345452679e-01 9.574610643986619651e-01 1.850763922592860711e-01 2.213934036706331487e-01
2.190094157731904429e-03 2.501738368400006126e-03 -6.588188387390137013e-01 8.959410157283779208e-01 3.416315404258858379e-01 2.838619152366842480e-01
2.377941560884745675e-02 -4.445321518467956756e-02 -6.364938381216382890e-01 -9.406336784099740278e-01 -2.157739383760510776e-01 -2.620112412829063153e-01
3.238648069586367445e-02 -1.371103676420157569e-01 -6.269751046124846239e-01 9.676571899143787681e-01 1.166776352777274539e-01 2.236646870496216966e-01
5.595629426110707710e-02 -9.439460877947376816e-02 -7.173575106496803411e-01 -9.429863693916986644e-01 -2.320525054668933218e-01 -2.385966090454768596e-01
1.036212323495580706e-01 -3.671975037502407946e-01 -8.205932874389958442e-01 -7.916106386741506018e-01 2.477173585306515768e-01 -5.585594928210421140e-01
-4.962120293356078737e-02 1.920012464315474371e-02 -5.238380116056654545e-01 8.609558843112464777e-01 4.149432902060427586e-01 2.942397511941972077e-01
2.534537534195598681e-03 -3.301649575716576746e-02 -6.180986128704797355e-01 9.028257762382623230e-01 3.299878512612511861e-01 2.757057050185242608e-01
-1.212141634376341232e-01 1.673446593805412164e-01 -5.506960721120569557e-01 8.282946068380262483e-01 4.774785574557415258e-01 2.931591230936260173e-01
5.440042413985182734e-02 -1.330375341085712204e-01 -6.704578396639916393e-01 -3.439928886441868117e-01 9.341158447824027267e-01 9.537547425143458324e-02
3.702863434248322705e-02 -1.537624383740549827e-01 -6.148234118583557617e-01 9.490627093418928517e-01 2.212135915072543091e-01 2.243758468933035877e-01
3.482079193856300187e-02 4.347545334222006896e-02 -8.104146176251172395e-01 9.024203024758160607e-01 2.923113017654213053e-01 3.165307260593534511e-01
2.687591965325152391e-02 -4.242991567989827517e-02 -6.628578398170835717e-01 -9.168922751508374880e-01 -2.983481594393760927e-01 -2.651356851271768345e-01
5.903770836082881945e-02 -1.426082172984029228e-01 -7.320367214742824480e-01 9.482055417440514722e-01 1.448657691640559408e-01 2.827015378988522176e-01
1.215616133143723049e-02 2.913835790293217622e-03 -6.651925035473316150e-01 -9.079247431470403029e-01 -3.187380596613507144e-01 -2.721740437747476316e-01
-2.878457621196343560e-02 9.771793708804205406e-03 -5.725581628928517741e-01 8.770991091381257210e-01 3.808719334015443492e-01 2.926324026762508468e-01
-8.224965419313029491e-03 -6.104286201388036542e-02 -5.628632597515119684e-01 9.287282874089232143e-01 2.528020362184399406e-01 2.712100636965726896e-01
-5.097174948706771624e-02 3.165562405770391829e-02 -5.369961080876740622e-01 8.601112932428972568e-01 4.100440105182022177e-01 3.034344619092878004e-01
-4.766632233486021997e-03 -1.738085913002508642e-02 -5.873627251713672281e-01 -8.980720746315324909e-01 -3.335126084444597350e-01 -2.867680051462982438e-01
4.272673693865574468e-02 -5.786203099684988915e-02 -6.886843729469706021e-01 -9.243269766767212570e-01 -2.385264012706892756e-01 -2.978670778795905472e-01
3.210509708544487251e-02 -3.428630708894157136e-02 -6.898887697278458520e-01 -9.160535619693782605e-01 -2.954930339834267450e-01 -2.711636746883399063e-01
-6.061788567707011161e-02 1.278646284120526500e-01 -6.410835109936564580e-01 8.283471358193872369e-01 4.527973502948716700e-01 3.298720693628979794e-01
6.074262604875875493e-02 -5.253617328773604878e-02 -7.765413179122352405e-01 -9.366114717636958575e-01 -2.467593413142210590e-01 -2.487343531457103796e-01
-6.314840943710746390e-02 1.026025141546918207e-01 -5.997984961565300255e-01 8.287402716256687674e-01 4.541423456766632283e-01 3.270233815021652002e-01
7.158921347292737658e-02 -1.988094621339992762e-01 -7.306735337346856873e-01 9.648809809244334179e-01 1.657460424243438479e-01 2.037963249692466006e-01
1.954103170343473098e-02 2.517077664573198065e-02 -7.412118667196340160e-01 9.107345708504143156e-01 3.111444152312090594e-01 2.715726317734185602e-01
-7.816067628344326723e-02 1.204744304774295199e-01 -5.865898773566255997e-01 8.285809644378164807e-01 4.537335730147540325e-01 3.279930336006585678e-01
-1.211475996932617344e-01 2.046130846044998952e-01 -6.065044969228775562e-01 7.816140415767134364e-01 5.059702189969570441e-01 3.647925814737559835e-01
-3.877661593479660856e-02 4.597201850091062886e-02 -5.856068591578956761e-01 5.731303476248219564e-01 -8.180303452284649612e-01 -4.845574183570947047e-02
2.361784598261270490e-02 -9.682241618343376266e-02 -6.209544855760801285e-01 9.290322780787694246e-01 2.728815738671912516e-01 2.498693117042115330e-01
-5.906136946901177631e-02 1.632078424930517857e-01 -6.607843100748544973e-01 -8.731618186663860914e-01 -4.000220595050577033e-01 -2.785153323114206714e-01
2.570314953303970678e-03 2.339416948672186358e-02 -6.849671804835576472e-01 8.947504250245549295e-01 3.410588322238801706e-01 2.882716598635065575e-01
3.962808793825602777e-02 -7.063153553856990619e-02 -6.782605419738533259e-01 -9.355077616672816676e-01 -2.554187728073925023e-01 -2.441034173415809749e-01
6.366238771566061494e-02 -1.934458074174192077e-01 -6.968719072505964451e-01 9.650291279299501035e-01 1.704585467666512033e-01 1.991548796313089287e-01
-7.383433747904079823e-03 6.364147887002948034e-02 -6.789728790122510071e-01 -8.799892078347179014e-01 -3.698220735293087369e-01 -2.980782246741754404e-01
3.538396870167208330e-02 -1.240239712020922841e-01 -6.081273675164666770e-01 -9.351343851711785282e-01 -2.492920435579481786e-01 -2.517482049374411557e-01
-8.779000618369173226e-02 1.373275016871419174e-01 -5.867161768567068503e-01 8.091674203885397265e-01 4.800135053429661625e-01 3.388733103537580615e-01
8.544106182361661458e-03 6.899252467716024580e-03 -6.844016979246216881e-01 9.054304672829891487e-01 3.204777315681585081e-01 2.783697046818042753e-01
4.609374691520153750e-02 -4.859368578186119142e-02 -7.248936374115382275e-01 -9.332138701632203270e-01 -2.550502788417572386e-01 -2.531031959453015623e-01
-6.196007892559242392e-02 1.301049591091691382e-01 -6.187360505876077221e-01 -8.273533698746312615e-01 -4.580646489213883177e-01 -3.250587312557789432e-01
1.027194925365165212e-01 -3.226035852594139608e-01 -8.020534958576511775e-01 -9.796901374501243431e-01 -8.301232213374608315e-03 -2.003455118706086446e-01
1.225243985752712782e-02 -1.034276115446287336e-01 -5.480784306448297505e-01 -8.912976112367656523e-01 -1.660841356131839142e-01 -4.219059469849375521e-01
3.709018696540553051e-02 -1.250390248341990973e-01 -6.433747741873072634e-01 9.462056741464303089e-01 2.224512304712991106e-01 2.349686623252214279e-01
7.693573235486203532e-02 -2.203596686781706115e-01 -7.663919618519893229e-01 9.644135026269313737e-01 8.800521529614127592e-02 2.493224378822200826e-01
1.924367674558204178e-02 5.766445581673995679e-03 -6.916650547718896647e-01 -9.044765110467883895e-01 -3.250340161226269453e-01 -2.761795237301716832e-01
-2.668519002841956630e-02 7.596882354569993445e-02 -6.301575836293971111e-01 -6.638425916183881004e-01 -1.262065592102672995e-01 -7.371464698183713971e-01
5.319694031005381407e-02 -1.753416336965578082e-01 -6.642920649051256010e-01 9.585502630644971989e-01 1.918702606395144283e-01 2.106352208466272802e-01
4.610464939843652438e-03 2.755651959584089900e-02 -6.707933064391607969e-01 -8.956425613429195298e-01 -3.405916372474103726e-01 -2.860449946218647232e-01
-3.871532046297815333e-02 5.609133985181224968e-02 -6.035375324879653780e-01 8.627273084680798787e-01 3.986693556233533164e-01 3.110696644005684908e-01
3.130004593585643952e-02 2.207608799096832941e-02 -7.504008139630720109e-01 -9.097939458813646407e-01 -3.125179575469340665e-01 -2.731437391709883866e-01
2.428378657329891346e-02 -2.917259283101114771e-03 -7.251663324105936947e-01 9.121877198350025751e-01 3.080919666420522951e-01 2.701719894305315006e-01
3.092514617421682904e-02 -1.570402326572257340e-02 -7.338762548150639109e-01 9.222142836089084472e-01 2.836809271382924047e-01 2.627659541981542390e-01
4.611306753878762626e-02 -8.451927127844921506e-02 -7.117529403797487886e-01 1.133833221199715829e-01 -3.509476266126176358e-01 9.295052370159135879e-01
4.944827851852817008e-02 -4.729226973426001873e-02 -7.386405910429267863e-01 -9.313005078792941926e-01 -2.656373687329510180e-01 -2.492311223671769549e-01
-8.372291089649169793e-02 1.666856878874984349e-01 -6.067454950017114879e-01 -7.500607770167105892e-01 -6.348993604790067469e-01 1.852339948401377778e-01
6.264279935425062784e-02 -1.355905688992810332e-01 -7.067423145391038553e-01 -9.520265779634525805e-01 -2.071315685990282873e-01 -2.252596460551778978e-01
6.608465272760827812e-03 -4.533648470050068852e-02 -6.110087034164657371e-01 4.896854565439960894e-01 -8.712665000433624796e-01 -3.320902816234223148e-02
-8.741507275701268509e-02 1.727411829978617031e-01 -6.168550978118454431e-01 -8.057080822935679398e-01 -4.848089751207196874e-01 -3.402862673826528850e-01
-4.741559843992442652e-02 2.770666654673166127e-02 -5.195779942619632719e-01 -8.550506367039638622e-01 -4.055612288688729139e-01 -3.231230389658336088e-01
2.795327168241803703e-02 -7.638183012731226962e-02 -6.581749947925407129e-01 9.309843363577654518e-01 2.629893233364480332e-01 2.531892202830289818e-01
9.700575126593845299e-02 -3.101162514321095243e-01 -8.117091956481109483e-01 -3.596436289626047667e-01 -4.186779652865773582e-01 8.338856165746595384e-01
2.180612372229564361e-02 7.929506287187812474e-02 -8.037998268811582525e-01 -1.117546129703910762e-01 -4.461456476670800364e-01 8.879554986301734232e-01
-4.275226144675344647e-02 4.736751983065078803e-02 -5.573172091829470265e-01 -8.623271061202247845e-01 -4.028464492378915907e-01 -3.067681541274145940e-01
3.083989452609515319e-02 -6.398552999026582699e-02 -6.816636920334647742e-01 9.276007583087724218e-01 2.786327366752777146e-01 2.488385646113465410e-01
7.816084677472170950e-02 -1.352684465488626364e-01 -7.755004469182459337e-01 -9.615097923886631870e-01 -1.687498989586117548e-01 -2.168464681339491995e-01
3.492526113547797517e-02 4.237417953639575213e-02 -7.858745568506975143e-01 -9.068618220344590863e-01 -3.184759512473101517e-01 -2.759976525506361855e-01
7.024988018188221828e-02 -1.129447516227318482e-01 -7.592455387690193458e-01 -9.562572581468060662e-01 -1.943623360243926512e-01 -2.186214504038739570e-01
-5.040554920681034751e-02 5.965235252288454693e-02 -5.528865865180868644e-01 -8.436975128104892141e-01 -4.295830634771656831e-01 -3.219206399890626180e-01
-3.376125032400699444e-02 9.680661263165492303e-02 -6.702885029335741152e-01 8.635646070839596566e-01 4.015257028252838811e-01 3.050135724235691903e-01
5.961652226211301003e-02 -1.402734606879594559e-01 -7.226928092251005964e-01 9.577208457928241270e-01 1.796554590981257193e-01 2.247102524365970078e-01
-1.216729308790376191e-01 2.129536296365679982e-01 -6.166421656292911946e-01 7.913890913891687973e-01 4.885474312235481009e-01 3.674570906583489172e-01
-6.199020349557915477e-02 1.501441913951969132e-01 -6.577087287651024461e-01 -4.069592153613139085e-01 7.310237741478256002e-01 5.477120033951898836e-01
-4.746338150443005222e-02 4.103507465608131205e-02 -5.592037085539346419e-01 8.627169315200573507e-01 4.042902359703570148e-01 3.037579647805957461e-01
1.053310468027304214e-01 -3.727978463821643440e-01 -8.274577657975251688e-01 -9.822943448042789072e-01 6.470311262206991654e-02 -1.758161749741700142e-01
3.760114188622434850e-02 5.342623002475554994e-02 -8.100888378719167671e-01 -9.270772923782538699e-01 -3.469876229390601585e-01 -1.418706575853728169e-01
-4.596622131827066138e-02 1.375818667218258740e-01 -6.919546341908164866e-01 8.445177092445030897e-01 4.267879532111397700e-01 3.234839745122822796e-01
-3.474591780820092402e-02 4.080719241459342117e-02 -5.711561180544018068e-01 -8.616488826864895367e-01 -4.015886154427951160e-01 -3.103027342964657653e-01
1.466087845700491353e-02 -5.759688475282279813e-02 -6.310032518444984584e-01 9.225406570008655160e-01 2.847943121448134329e-01 2.604053301112973506e-01
-7.207807021171243680e-03 3.429198669774136121e-02 -6.677659483734175172e-01 8.827600644661049989e-01 3.646448125300749687e-01 2.962580450868874671e-01
7.858144723044097057e-02 -2.101462279351026252e-01 -7.253095977528494220e-01 -9.761337250463089088e-01 -6.559743789438643446e-02 -2.070263919622547244e-01
-1.362253698695042002e-02 3.441864447821787326e-02 -6.487377598665221567e-01 8.831071828246993549e-01 3.658245071946752414e-01 2.937586314973502644e-01
-7.159545940016022285e-03 5.736496623746936696e-02 -6.963341325446402719e-01 8.799350247527446545e-01 3.699031020074114995e-01 2.981376315373168717e-01
6.304152330428633433e-02 -1.736899304246674602e-01 -7.101504525659444456e-01 9.624030251174516826e-01 1.710924377328567336e-01 2.109687061992986945e-01
1.613958118422183707e-03 -2.862640944384055655e-02 -5.942662051992321226e-01 -8.980720746315324909e-01 -3.335126084444597350e-01 -2.867680051462982438e-01
-4.194358935221328272e-02 1.080161951356033989e-01 -6.402282573011863764e-01 -8.480154088431168802e-01 -4.226929200352192995e-01 -3.196882258024854595e-01
-1.198985245414019019e-01 2.018657945915063312e-01 -5.868876734997561240e-01 -7.659421279532140359e-01 -5.407622164791008323e-01 -3.477195448275984258e-01
9.467971495159241413e-02 -3.817005334649168913e-01 -8.353100925062867388e-01 1.185554834398786506e-01 9.363149875731194838e-01 3.305432519236861100e-01
