8.304368766319329687e-02 6.171350354731287152e-02 -6.372648460494791944e-01 -8.130948692348222151e-01 3.427153660775470456e-01 4.705559599859938658e-01
-1.498497413170310488e-02 8.575483176596980506e-02 -8.259786657056008563e-01 -8.472617993248838797e-01 2.700351243657554412e-01 4.574149921171483668e-01
-6.492817420721180843e-02 -1.739940578775530933e-01 -8.176482816555535882e-01 -5.316892796648567954e-01 4.338479026183661991e-01 -7.273805793964465138e-01
-2.349886221909950126e-02 -7.265893122142254301e-02 -7.433644897570873544e-01 8.845811292746109666e-01 -1.917141426899810763e-01 -4.251610438691430516e-01
-5.532611043699594416e-02 1.884873233682581029e-02 -8.510358484105563504e-01 8.789738909252999832e-01 -2.088289074862797745e-01 -4.287136415717668902e-01
3.141923971667373323e-03 -1.338282767560769193e-01 -6.633398630355001879e-01 8.803294675682562520e-01 -1.343671119385146384e-01 -4.549346192149955614e-01
4.211873409980676497e-02 -3.299553372546652763e-02 -6.334572065056126577e-01 8.503657095720016379e-01 -2.499425699289764546e-01 -4.630408963810919154e-01
-2.139797622963656581e-02 1.375581476280509641e-01 -8.565218864424800627e-01 8.421849806278750572e-01 -3.356072142893776200e-01 -4.220097820213999373e-01
3.844277590563104172e-03 -8.009096238215285268e-02 -6.834915980666586011e-01 8.764040328220519260e-01 -2.051722074328440615e-01 -4.356837575012151853e-01
1.090387932384699089e-02 6.898495146452982008e-02 -7.450025786018759089e-01 8.002528484962643240e-01 -3.438380151304289978e-01 -4.912950211683216883e-01
-2.685426918103541241e-02 9.047172688797999740e-02 -8.352148551938677334e-01 8.494084609581676881e-01 -2.737500496763756175e-01 -4.511830856258452482e-01
-1.195194126596962197e-02 -9.168356578031530701e-02 -7.112058570327298712e-01 8.893089522486424814e-01 -1.731436499643077276e-01 -4.232621692609190300e-01
-7.057070570551952915e-02 -1.697200823986301788e-01 -8.393959524288440166e-01 -9.209159135655995421e-01 6.580387647256590034e-02 3.841662790808432204e-01
2.946070164771131053e-02 1.087234100264425352e-01 -7.469498420917923820e-01 8.124924899489757157e-01 -3.413622897548646007e-01 -4.725756457011189848e-01
-1.385225053700342912e-03 1.041317166553649837e-01 -7.898964595080573137e-01 8.674765694402976068e-01 -2.549378162891052790e-01 -4.271897837002135434e-01
-6.621166283741070080e-02 -2.907788217578690868e-02 -8.522683998331714861e-01 8.892090506120423621e-01 -1.738549165681285147e-01 -4.231804961180506419e-01
-6.924328662567645620e-02 -1.463642273955273743e-01 -8.220616626242747138e-01 5.272313676795252757e-01 -4.489233502219119876e-01 7.214533322123559689e-01
4.975423592678833440e-02 1.365579300567438537e-01 -7.480748492075053324e-01 -7.939780683407249295e-01 3.667302991868050532e-01 4.848790721945910320e-01
-8.382190077107931625e-02 -2.512353054541796027e-01 -8.515831929352187801e-01 -7.323415559677273756e-02 4.223830033077170532e-01 -9.034541255485973865e-01
8.696161960594930851e-02 2.067109984687977298e-01 -7.307674401614093762e-01 7.586009242590444623e-01 -4.218874600941326936e-01 -4.965235228351675412e-01
7.217452111373481860e-02 1.615335816975372110e-02 -6.100628265664899130e-01 7.984208236041034912e-01 -3.102942746832391685e-01 -5.159860962604975176e-01
-8.679146495229538363e-03 1.366307709206022458e-01 -8.256076301766286374e-01 7.752820967582112477e-01 -3.914460627529507963e-01 -4.956890662516214019e-01
-2.478334971256127353e-02 -3.995320595852251688e-02 -7.778292895377069138e-01 -8.786188124919530607e-01 2.035633535325112042e-01 4.319617383910618336e-01
2.888752397059159843e-02 5.506066719138916210e-02 -7.274205140117599999e-01 -8.344989624567318298e-01 3.080151988023505649e-01 4.568786698516207334e-01
-8.279583467977012778e-02 -9.777334966478573586e-02 -8.659418979104338554e-01 9.115956806933565026e-01 -1.064633593488773511e-01 -3.970628011503569699e-01
9.394939360590302824e-02 1.727505078410547512e-01 -7.058351988015080236e-01 -7.742029947550872482e-01 3.982963639420006308e-01 4.919041871979090153e-01
-6.280021732844714988e-02 4.645383036643115082e-02 -8.943117507886039208e-01 -8.552732769081944353e-01 2.003217070537715583e-01 4.778899826212952284e-01
-1.036166852800953289e-02 -1.485350795513109418e-02 -7.609383364417174889e-01 -8.684091498792023689e-01 2.242219061486074583e-01 4.422556785493725329e-01
3.877739197135355448e-02 1.483731329462815440e-01 -7.749005774611910091e-01 -7.932730145995761095e-01 3.655911056993120800e-01 4.868891739828020704e-01
6.599666387231836739e-02 7.504787731222259568e-03 -6.293928369930380518e-01 -8.356053527977129747e-01 3.006443868599901759e-01 4.597571609288864658e-01
-6.702376942438838248e-02 -1.853162988889993368e-01 -8.278996632221808927e-01 -9.300607842632342415e-01 6.067615693448057124e-02 3.623607892078277715e-01
-3.461910481061218625e-02 -6.192488077812948605e-02 -7.888213717139357373e-01 -8.844890420574963441e-01 1.782545013788775501e-01 4.311664031651584184e-01
7.701569560984794505e-02 3.874096860641269152e-02 -6.167258810986138151e-01 8.168135741649693582e-01 -3.170131718996022085e-01 -4.819940185334269933e-01
-1.292263245335429321e-02 -4.742525422778564453e-02 -7.499116923333759566e-01 -8.799538003347424642e-01 2.075885528709365546e-01 4.273035244336215732e-01
-3.269108469024244179e-02 -1.021645565299824643e-01 -7.692768523989955698e-01 -9.015457784456407664e-01 1.411121923724955873e-01 4.090263543228860321e-01
8.410550471043132248e-02 4.443114375177256020e-02 -6.226352585269823159e-01 -8.167065369032406874e-01 3.469652359586792301e-01 4.610917019592235544e-01
1.117065303563316396e-02 2.246079605287460215e-02 -7.235403670303771628e-01 8.461466753742725722e-01 -2.780656127307086223e-01 -4.546595635965010596e-01
8.071473669220727287e-02 9.188069700035571274e-02 -6.486418736581310851e-01 7.928306212623051907e-01 -3.647333520657863870e-01 -4.882511524611918841e-01
-4.202015414196911408e-02 -1.231148350092839544e-01 -7.647617255645507983e-01 9.080286794877212575e-01 -1.211499394584936717e-01 -4.010069941995876852e-01
-6.968394241528057254e-02 -5.790818582976829665e-02 -8.486943948342174915e-01 9.002768257664082174e-01 -1.489108973086323284e-01 -4.090564528896933338e-01
6.608333779719731405e-02 1.124936279576263104e-01 -6.881997403251635115e-01 7.942971508380386458e-01 -3.665942828750929916e-01 -4.844591499124256684e-01
2.362544430110219765e-02 3.436083363656070033e-02 -7.238332768247296434e-01 -8.433534824850598133e-01 2.812350288439627866e-01 4.578883730031341193e-01
-8.335502558667133577e-02 -1.483697268645923217e-01 -8.556219713977244457e-01 9.237026574033487814e-01 -7.063320171800854808e-02 -3.765426290887324834e-01
-4.508326634183016518e-02 -1.959180341449516874e-02 -8.289895371474498287e-01 -8.832471896856338711e-01 1.918525522575903475e-01 4.278632960475559077e-01
-3.768536799586728187e-02 4.152937144643047140e-02 -8.437791129370990628e-01 -8.686006859115522616e-01 2.294499288161941097e-01 4.391874071512343325e-01
7.317922477111929447e-02 4.789995304616433830e-02 -6.442386166293484484e-01 -8.110908718905992520e-01 3.414692379793309307e-01 4.749003653921128887e-01
4.881847837499649068e-02 3.712593117045294433e-02 -6.863955717191507766e-01 -8.006130372340681811e-01 3.702924282600735251e-01 4.710650509049666423e-01
3.585615868694458364e-02 9.019886285450810781e-02 -7.230584992355211238e-01 8.092762489281911664e-01 -3.303648642087496645e-01 -4.857272994356513496e-01
-3.706658346438680696e-02 7.120445645172578109e-02 -8.429518247141605247e-01 8.607572528322895433e-01 -2.493305321598233981e-01 -4.437693516112947156e-01
-1.521523060915849768e-02 -1.033104562476337140e-01 -7.305795304879776353e-01 -8.925729706928138274e-01 1.720709168926677080e-01 4.167794279331958340e-01
-5.035929641178057276e-02 -5.640289282636579138e-02 -8.072681243392394457e-01 8.942744695052642356e-01 -1.638715983256026354e-01 -4.164363966481439694e-01
-4.504172207002610229e-02 -1.236327188409084843e-01 -7.977279791403076858e-01 -9.144333325849079985e-01 1.103819529296512225e-01 3.893937656474422693e-01
5.805685250758006732e-02 1.191720817233512530e-01 -7.214026284767354191e-01 -7.955228469486332887e-01 3.688767897188585110e-01 4.807008570716827522e-01
-8.933763130728834823e-02 -3.745874768854808301e-01 -9.146891284673815958e-01 -5.441069267648276364e-01 4.008626973804667593e-01 -7.370595295465562913e-01
-7.992310265525054067e-03 7.613291874972601125e-02 -7.917470342534143057e-01 8.410170735355672056e-01 -2.852844964518708726e-01 -4.596771020029960519e-01
-5.422472770655050595e-02 1.472634925599997612e-02 -8.467696920730044541e-01 8.789738909252999832e-01 -2.088289074862797745e-01 -4.287136415717668902e-01
1.198651481179411477e-01 1.741757670688402482e-01 -6.670788947279369108e-01 -7.625162138804246759e-01 4.214265358061988764e-01 4.908856266869593976e-01
-2.921732967128468431e-02 -2.798140402359889853e-02 -7.670582028011904141e-01 8.958266396402344567e-01 -2.373778091800554380e-01 -3.756945666625521318e-01
-9.003211198624136435e-02 -1.490015781608561851e-01 -8.864973618078932915e-01 7.928004300384491887e-02 4.196636696891288265e-01 9.042107492860068652e-01
-1.619423937596785323e-02 1.965355634909855126e-02 -7.739683748110701700e-01 8.573096849813304221e-01 -2.518146733588623731e-01 -4.490094367809892018e-01
1.443766314371697397e-02 6.911878768708802764e-04 -7.048038035382562239e-01 8.518982066462703617e-01 -2.600092930834992377e-01 -4.546037978537875168e-01
-2.650607436193496910e-02 -1.663889575068715487e-01 -7.166886708389211824e-01 9.075086187496971268e-01 -1.117829029678867603e-01 -4.048860203799198865e-01
-7.866373469126805573e-02 -1.783334430455005559e-01 -8.390653929579970915e-01 9.306925479619420072e-01 -4.002798723307270101e-02 -3.636057499630294676e-01
-6.323668316009402324e-02 -3.380201692104140704e-02 -8.439854906029571335e-01 8.916820254053056116e-01 -1.765203409683008817e-01 -4.168257847033060015e-01
-6.982889582562448738e-02 -9.932490760951513675e-02 -8.262097620788300123e-01 8.890518855630327177e-01 -1.633534654024947352e-01 -4.276708899584025780e-01
-1.333729308863909569e-03 7.998597443208473046e-02 -7.977501828941010453e-01 -8.391990042115401449e-01 2.888465602684920364e-01 4.607740183120352939e-01
1.088389814828926855e-01 1.621161869654887400e-01 -6.739966990140052738e-01 -7.644973367670988562e-01 4.098683860333678930e-01 4.975457046407046890e-01
5.704712060239272575e-02 2.120489021129620122e-01 -7.822773225942983855e-01 6.957968563447932686e-01 -6.511623736716963817e-01 -3.030747396516993986e-01
1.542998709850772372e-02 9.896075256215396132e-02 -7.801224433863186425e-01 -8.256200417403884995e-01 3.087235386535309156e-01 4.722725096359523533e-01
-5.750465841658723709e-02 -8.076479605825317987e-02 -8.316650182564825355e-01 -9.013207038623873846e-01 1.410885325034920423e-01 4.095302367164377344e-01
-3.480507517747185448e-02 -5.821742460726211238e-02 -7.734865866733914297e-01 8.868689787208090536e-01 -1.827569829547894265e-01 -4.243386616418207136e-01
1.161737279860808048e-01 2.072555342986135418e-01 -6.882038062628633712e-01 7.356940614058651295e-01 -4.509986325457746581e-01 -5.053261139640262689e-01
-2.381183808460165391e-02 -5.037004884685929856e-02 -7.784983666660919566e-01 -9.043423902307171636e-01 2.175240748097142796e-01 3.672167181787491241e-01
-7.308244758375399830e-02 -2.789533803300637410e-02 -8.844171469290036391e-01 -8.911476648152205637e-01 1.586807393873857219e-01 4.250603044767315986e-01
-5.848176748757425575e-02 -1.075202244831725135e-01 -8.115911791267235165e-01 -2.933994931897318525e-01 -7.956223106993060012e-01 -5.300017699154460082e-01
-2.198248891619803552e-02 -1.425372838775017248e-01 -7.377526456889120787e-01 -5.429631185069564436e-01 7.437332256391507856e-01 3.899383810572960019e-01
-7.033572368447933709e-02 -5.962034403090307397e-03 -8.872227703947500599e-01 -8.915924345480007451e-01 1.663343083185837012e-01 4.211838417282256497e-01
1.266218763862816087e-02 1.666378091800332084e-01 -8.171546709098627126e-01 8.110820338148592157e-01 -3.531844876429516833e-01 -4.662688624722189368e-01
-5.185578035762156146e-02 -1.640129342911911536e-01 -7.949400697283373063e-01 -9.171906913235490233e-01 9.753970049424404154e-02 3.863253066742107777e-01
2.365595550614778969e-02 7.634779889430926003e-02 -7.350106733579888640e-01 8.346073987865689769e-01 -3.109104592909078257e-01 -4.547143896933918406e-01
9.238385872873011717e-03 1.161718663733223994e-01 -7.869446103189433606e-01 8.261560815147321879e-01 -3.143207901857160147e-01 -4.676201127338840413e-01
-3.740037817469864245e-02 8.833494435523222416e-03 -8.328097466558309625e-01 -3.424105223027862355e-01 6.415145342678592044e-01 6.864503889862869634e-01
-1.808022610035476749e-02 -1.137792582210860742e-02 -7.778625448425022793e-01 -8.670828414522266936e-01 2.294306623862146510e-01 4.421865185825497035e-01
-7.291904838546856005e-02 -8.336381829048017389e-02 -8.397522826127049589e-01 4.520145257376655401e-01 -5.865755558058503016e-01 -6.720208224848475131e-01
4.521223818929599736e-02 1.932325487807345643e-01 -7.893390452578303851e-01 3.196773110306852517e-01 -9.064571525520714879e-01 2.759381224104074937e-01
-3.602633604414554047e-02 1.013540023180755922e-01 -8.593181631003787846e-01 8.485204193257932515e-01 -2.808935081963386815e-01 -4.484550535341677580e-01
-2.327884865235713835e-02 9.832068010664805208e-03 -7.825947907308018481e-01 8.677160756235399175e-01 -2.353330413569009738e-01 -4.378209357148127867e-01
5.625251201260606654e-03 7.689877183976140396e-02 -7.597201330724657753e-01 8.737597463036010925e-01 -2.409822787743969297e-01 -4.224588110764945226e-01
7.541664623289583147e-02 1.633555460059638864e-01 -7.051765703760037862e-01 7.906978871978792567e-01 -4.217380710099963848e-01 -4.437722959374289511e-01
-4.218766283891713792e-02 -1.779663908236744363e-01 -7.685620282240556156e-01 -9.181484938079359504e-01 9.289150356722795931e-02 3.851941223373456236e-01
4.008152191713774959e-02 6.447279445755405014e-02 -7.135386887713103254e-01 -8.271298585819645277e-01 3.062395461484886949e-01 4.712467903518780532e-01
-4.635649568155201378e-02 9.330400174683084469e-02 -8.744235913460139953e-01 8.657052153949328366e-01 -2.812389060623868842e-01 -4.140762704561140040e-01
2.939350659938182522e-02 1.032137531241607009e-01 -7.431588101613962882e-01 8.119008089154753360e-01 -3.348309348468125335e-01 -4.782314518640593537e-01
4.812132874754098538e-02 -2.948865945205216693e-02 -6.244507989739576104e-01 8.423777320262691992e-01 -2.721529614136123376e-01 -4.651156008779749329e-01
-8.112950697846834855e-03 -5.280736313922967246e-02 -7.389483466172780401e-01 9.961063231199093759e-02 9.839110393304375535e-01 1.483131437671773301e-01
9.230205021759098002e-03 -1.029836840846908991e-01 -6.623762662952230595e-01 8.839343494860213424e-01 -1.811725742104577652e-01 -4.310876525170727058e-01
2.272510001836566210e-03 2.684246865548110469e-02 -7.576140671643539770e-01 8.936808451629185690e-02 -3.632075911148795466e-01 9.274123091842242372e-01
-2.319782866312010677e-03 -2.770888247805585944e-03 -7.583165692447183526e-01 -8.839382572939135096e-01 2.625062269485491373e-01 3.869672313070395830e-01
-2.386836887522389081e-02 -2.676357936581448202e-02 -7.653165982748761920e-01 8.785255464944974335e-01 -2.064320227569072241e-01 -4.307884447580229148e-01
-6.168269421960152765e-02 -1.686564071856951619e-01 -7.987288810704515907e-01 9.217790478161372869e-01 -6.751312993861043055e-02 -3.817923051779169574e-01
-7.554967229968946596e-02 -1.673174208880799096e-01 -8.329021344763867241e-01 9.269646865999029428e-01 -7.150040602895088582e-02 -3.682718584611624490e-01
1.099842343734709627e-01 1.893142061345135518e-01 -6.952696019760256085e-01 -7.587307131015957884e-01 4.202525395907609762e-01 4.977102650778458259e-01
6.429539793215094390e-02 1.100743075291760464e-01 -7.042898779145653210e-01 -7.942604625310480948e-01 3.675744517465044936e-01 4.837761259955083992e-01
-8.609931522346932209e-02 -3.843881966320888272e-02 -9.031291709971136505e-01 2.211410344850542609e-01 3.603986513338094944e-01 9.062060775472934315e-01
1.962234255156332374e-02 -8.175782467073818005e-02 -6.669137640200121231e-01 -8.768264462256666336e-01 2.138367677252793198e-01 4.306381543338596019e-01
9.912772661420307663e-02 1.869385390442728223e-01 -6.957028303301683314e-01 7.505884421587176725e-01 -4.256914699801700452e-01 -5.053748736174675793e-01
-5.710108087927845757e-03 -7.697858425247582070e-02 -7.215771261314963825e-01 -8.840635682975561682e-01 1.930141929373100362e-01 4.256490673474463970e-01
-8.600440001596749984e-02 -1.551905125801413265e-01 -8.611018258067394404e-01 9.259310133139905252e-01 -5.876650296673529422e-02 -3.730928258656113217e-01
4.712437469281537117e-02 9.173445579010075512e-02 -7.047782143601424298e-01 8.136021414072895919e-01 -3.372507026154331622e-01 -4.736174818172038670e-01
7.695467053813777325e-02 1.624907464262854984e-01 -7.096410704500784039e-01 7.742307140947849442e-01 -4.019480217511631204e-01 -4.888809560236578311e-01
4.807338676141485745e-02 1.101151034358456293e-01 -7.307074322982091141e-01 1.025610726134779521e-01 -3.435012824989198688e-01 9.335352673070096419e-01
-5.419907485493883487e-02 6.552187942441678632e-03 -8.594550866805630296e-01 -8.776289624631001818e-01 2.044705674483897617e-01 4.335426060876549359e-01
-5.207847244518216262e-02 -7.833095722786929949e-02 -8.205612056379901764e-01 -9.013207038623873846e-01 1.410885325034920423e-01 4.095302367164377344e-01
-2.451155260957800161e-02 8.261567422698479213e-02 -8.417450379076010236e-01 -8.460040702774809240e-01 2.678741128981086406e-01 4.609995365648282273e-01
7.432751262502653757e-03 9.777483914972917578e-02 -7.778725592151043422e-01 8.267356165231254383e-01 -3.101028746594742813e-01 -4.694085933385303555e-01
-6.181661023682323217e-03 -9.480195552195157943e-04 -7.597903134447289153e-01 -8.707223266793978622e-01 2.275008178264728842e-01 4.359885408015924391e-01
6.721348093274492896e-02 1.319398627933278667e-01 -6.935170014370420910e-01 6.880795503778948108e-01 -5.385353299786682646e-01 -4.863396248677674394e-01
-4.724039606103429267e-02 -1.198117263874787404e-02 -8.368551281714520229e-01 -8.832471896856338711e-01 1.918525522575903475e-01 4.278632960475559077e-01
1.917924857561248767e-02 -6.625421424112665214e-02 -6.679846709246894942e-01 1.213638472127752943e-01 9.827886896389631533e-01 1.392738601010400090e-01
2.491643027228609281e-02 1.683027640246895773e-01 -8.120322097526636584e-01 -7.938854578339583634e-01 3.587008792649062361e-01 4.909985326397112160e-01
-3.095448329608027280e-02 -7.827652401738716126e-02 -7.745997509996424002e-01 -8.930381361126196182e-01 1.606277961552093625e-01 4.203351026869144302e-01
-7.281083414034916768e-02 -1.672752755314178179e-03 -8.939184631569402351e-01 -8.856176984827809351e-01 1.645502035602435797e-01 4.342862220268381424e-01
7.820478165683508731e-02 1.439308785460048090e-01 -7.072534087956670046e-01 -7.743353945365256674e-01 3.948625728468435625e-01 4.944575263182211522e-01
-4.470504182260216786e-02 -1.848999850454550731e-01 -7.545515461833836035e-01 9.191460975988891002e-01 -8.690339990883744203e-02 -3.842112053975236252e-01
9.239028728733027218e-02 1.207857136322816327e-01 -6.620923511251680660e-01 -5.127748141270013216e-01 -8.583430035980874617e-01 1.758630635560289382e-02
3.287098129208623071e-02 -6.646968330335316366e-02 -6.561440628347045001e-01 -8.503153092994731876e-01 3.091811828538721385e-01 4.258765912092629669e-01
6.158593369672790696e-02 1.561217377969546516e-01 -7.285383567959675677e-01 7.921718334959644281e-01 -3.673102661896188170e-01 -4.873878892292599074e-01
-6.943547509069308843e-02 5.704107865113207344e-04 -8.717359496051214629e-01 8.896883855502601968e-01 -1.849898496772139633e-01 -4.174126640788147768e-01
-5.266943977533027760e-02 -2.941930659937351533e-02 -8.406535043872327417e-01 -8.905115835408957681e-01 1.786946161981461112e-01 4.183985584598530760e-01
-6.945175991117985559e-02 -1.838153440009073492e-01 -8.151720956831225440e-01 9.262602076024555320e-01 -6.594754964621478421e-02 -3.710700048615029889e-01
-6.562630110082351420e-02 -5.210160034731813050e-02 -8.595402027028040681e-01 -8.948389300233421384e-01 1.540203866463336346e-01 4.189761446812860779e-01
-8.804226988244674701e-02 -5.124956833143014950e-02 -8.921940300567682280e-01 9.088254611299679819e-01 -1.462169705792441265e-01 -3.907132947783186760e-01
3.952666004078418671e-02 -7.025443340349830923e-02 -6.318340278301908253e-01 -8.761450618885322505e-01 2.551906500581815895e-01 4.089591210026040646e-01
4.864184024603047246e-02 7.878728075643622042e-02 -7.083877040044905815e-01 -8.117645665733067561e-01 3.375046315752904813e-01 4.765804361503719333e-01
-7.126948827564620614e-02 -6.512981737562070772e-02 -8.495627015021773865e-01 9.085610767150575917e-01 -1.325026830354178453e-01 -3.961815352421042546e-01
4.974636237975933045e-02 1.899230051568625843e-01 -7.802330987877118540e-01 -5.382132868273215021e-01 -7.370712270319207393e-01 -4.087205208503605358e-01
5.718231876054613583e-02 1.294056221849402000e-01 -7.247985876194020793e-01 2.010838430009173061e-01 -3.294190720052408428e-01 9.225228252369631621e-01
-2.860107026440392858e-02 -1.322249303051876990e-02 -8.055328574641712480e-01 -8.373038314323625331e-01 2.689944356453884411e-01 4.759876967532927217e-01
2.267037271802062673e-02 -7.230598266343347957e-02 -6.494688400884115476e-01 8.605014975778543240e-01 -2.277752193449196216e-01 -4.556924644084466847e-01
-1.841291655550420653e-02 -5.720814464834172997e-02 -7.568625954046663828e-01 -8.861157845639716646e-01 1.856208908781614431e-01 4.246689313055224124e-01
-5.177068221197755893e-02 -1.327815548362537290e-01 -7.813678746107137751e-01 2.783988283629087457e-01 9.569520356089400437e-01 8.207858374792725842e-02
-8.355573200917755516e-02 -1.482182692288818437e-01 -8.744335407622717549e-01 -9.181829348015607684e-01 7.700102617400324256e-02 3.886012612014314027e-01
-8.305769331658099941e-02 -2.609600890100570170e-01 -8.562848999755363621e-01 -7.191440015957697995e-02 4.429233201299358491e-01 -8.936706616728349317e-01
2.823225627685940764e-02 8.454701316706157710e-02 -7.376292277098508432e-01 5.043701149311816678e-01 -5.076175023092601712e-01 6.985236277418358508e-01
-2.137316143946172559e-02 9.300410251642315940e-02 -8.420427607324705299e-01 -8.454212120312197820e-01 2.724922049045334083e-01 4.593593065498170480e-01
-3.444148861057101663e-02 7.267119025955885714e-02 -8.387273556494161397e-01 8.492955974058479240e-01 -2.654787661523300701e-01 -4.563091199497119055e-01
-4.909497465379355358e-02 5.294723230058587943e-02 -8.792471360274878300e-01 -8.233583127158403681e-01 2.729748535523067732e-01 4.975598639458581607e-01
7.082719738447283697e-02 2.155685923911801749e-01 -7.731285039153809047e-01 -3.974793149788682367e-01 -7.221841504857618999e-01 5.660920834555877024e-01
1.918147810806419828e-02 4.385122839208665385e-02 -7.217639253407411859e-01 8.417184123404687357e-01 -2.789312122979528130e-01 -4.622850777745642903e-01
-1.169044397638290683e-02 -1.526168205259489097e-01 -6.869030104333246900e-01 7.661716932367261812e-01 5.307736445367496891e-01 -3.622985988765953236e-01
-2.647423633743536953e-02 8.752542191442724828e-02 -8.327275672550832342e-01 8.482162770999506218e-01 -2.716668312343880620e-01 -4.546716178405756925e-01
-6.527677320615665746e-02 -1.780212134156336778e-01 -8.248389807928622197e-01 -9.201091862033048407e-01 6.819955240974076571e-02 3.856785014949663526e-01
-1.592099394019378181e-02 -1.457782783112843150e-01 -6.910116507801963293e-01 8.727260842029558319e-01 -2.279369508771594000e-01 -4.317336312781278607e-01
5.636529376480656217e-02 1.635051780034055546e-01 -7.576007948996501540e-01 -7.934120497764601820e-01 3.655888651736917683e-01 4.866642589409335695e-01
6.452045257359971531e-02 4.446783236302441489e-02 -6.419275224597299490e-01 8.195126510242196627e-01 -3.185796006489037269e-01 -4.763465680170692051e-01
-5.281899335352170655e-02 -1.359790616885536707e-01 -8.122991364549461135e-01 -9.404806516953625461e-01 1.166909582770764842e-01 3.191854696615176179e-01
-7.451574333681400264e-02 -1.513754989738253232e-01 -8.523104318313657890e-01 -9.209273922096596898e-01 7.581700867294270674e-02 3.822885290900086552e-01
-3.461267527679447870e-02 -1.440068029956623752e-01 -7.415602638480707220e-01 9.042155610194119175e-01 -1.263193659657363410e-01 -4.079676911133581774e-01
2.017534962051318118e-02 -6.124897176831502893e-02 -6.600940872525256076e-01 8.689485315136787902e-01 -2.277097319786861584e-01 -4.394049698654031166e-01
-4.738044297623006385e-02 -1.412290682806323916e-01 -7.899850424836832863e-01 -9.116777944539734557e-01 1.167150828975556248e-01 3.939812032619769977e-01
-5.559902628201331132e-02 4.544614962205020120e-02 -8.699367853416728469e-01 5.989634002247992139e-01 6.516446562574765844e-01 4.654052934402680974e-01
-4.635123006818683139e-02 4.742128501420741354e-02 -8.583136427379428612e-01 -6.106205940238205176e-01 -6.532164006873898421e-01 -4.477173483650231933e-01
-9.388151765328579552e-04 4.663064387229071128e-02 -7.765323793556131449e-01 -8.426482311007704729e-01 2.801880316906837365e-01 4.598245595007326991e-01
-8.703448707578483046e-02 -3.606083494981578985e-01 -9.111513785175101576e-01 -9.689346547802795140e-01 1.374636726643966300e-01 -2.055951688718292147e-01
5.501131854935168569e-02 1.034199258158141066e-01 -7.150022872128960483e-01 -8.126035561709857857e-01 3.386368956911088302e-01 4.743421901696668885e-01
4.641223805700234704e-03 -5.381033507192637538e-02 -7.112396899264052941e-01 -8.742007472886282882e-01 2.169550874719112510e-01 4.344002111648422315e-01
4.122932919606172447e-02 1.667254906023761252e-01 -7.845867485464269597e-01 -7.924078937458428618e-01 3.633268544859426519e-01 4.899829861726094915e-01
-4.127823211057873171e-02 -1.500712877951135005e-01 -7.735607057105938766e-01 -9.137501620377735945e-01 9.955113774990119457e-02 3.938911173771790231e-01
2.344878603562360400e-02 2.468041827616650891e-02 -7.022303901988408148e-01 8.438121606049383550e-01 -2.816799535639716301e-01 -4.567684767750774810e-01
-1.481274844253268295e-02 -8.442057863647663141e-03 -7.564604945149674409e-01 8.704427842853152963e-01 -2.276858166422631446e-01 -4.364499148648948168e-01
-6.467740332033272005e-03 9.385352040950407926e-02 -8.156463415487184010e-01 -8.370917762466352219e-01 2.849931172854880956e-01 4.669649678939019610e-01
-1.199741777925813005e-02 -6.315143900467316829e-02 -7.407888216233654566e-01 -8.874444561620956629e-01 1.876158005036896448e-01 4.210019579865654227e-01
-9.488440868759093205e-02 -3.737437984519064726e-01 -9.121151014727623130e-01 -6.030973888775393449e-02 4.630300983442424689e-01 -8.842883372648379092e-01
-7.459243995994384313e-02 -1.729370123185281216e-01 -8.202188216788853792e-01 9.101678310979470776e-01 6.498428677071739490e-03 -4.141887126168309896e-01
1.242029687423127082e-01 2.217802894073033770e-01 -6.903248415746855438e-01 6.573641181917320164e-01 -5.376464516312242647e-01 -5.280233983095448114e-01
-4.407675894611244594e-02 -9.198567844157265472e-02 -7.980553009218671612e-01 -9.058929422863982728e-01 1.395328564665261062e-01 3.998606745880167734e-01
2.165786994517650971e-02 -2.486930233712322108e-02 -6.927763926519830973e-01 -8.605702646935519118e-01 2.439655345145501364e-01 4.471013727269237958e-01
-8.798102051457998285e-02 -2.623776544807767674e-01 -8.566278952456811702e-01 6.351955581078542190e-01 2.862028620210319008e-01 -7.173663810989622247e-01
-2.436571754741336058e-03 -5.232899564189984198e-02 -7.261982916767945051e-01 -8.734096670754664116e-01 2.157856506482224712e-01 4.365685586863146672e-01
-6.034375723246294954e-02 -4.630488132938091750e-02 -8.502797339142957878e-01 -8.981120626969268939e-01 1.570286709034393047e-01 4.107757531215424085e-01
1.005606223293259854e-01 1.160055186571840036e-01 -6.387750825463983650e-01 -4.048934308668767357e-01 -9.080591402110141930e-01 -1.071909861885953219e-01
1.251085225355448929e-02 9.980755131144925657e-03 -7.137276633385128966e-01 8.518982066462703617e-01 -2.600092930834992377e-01 -4.546037978537875168e-01
-2.576457392950582195e-02 7.154218396808087466e-02 -8.219207824304108900e-01 8.492955974058479240e-01 -2.654787661523300701e-01 -4.563091199497119055e-01
-4.528159512192241054e-02 -1.259613922826994525e-01 -7.896512577450484072e-01 -9.116777944539734557e-01 1.167150828975556248e-01 3.939812032619769977e-01
1.311946529589709531e-01 2.161995702341923120e-01 -6.853613918200808230e-01 -8.454610957617665346e-01 3.361924378104673705e-01 4.149339469269391345e-01
-7.255860082701512392e-02 -4.318239346858442768e-03 -8.762261297127581505e-01 8.896883855502601968e-01 -1.849898496772139633e-01 -4.174126640788147768e-01
1.166743610803202685e-01 1.611703905814547422e-01 -6.477606698355304893e-01 7.410450348412008781e-01 -4.323306197980230636e-01 -5.137533372371028140e-01
4.213195762191247057e-02 4.625034847063913546e-02 -6.762320860235303543e-01 3.766934314060160216e-01 -8.380681457276547563e-01 -3.946439431337717685e-01
-2.442515486310483513e-02 -1.318802599502578304e-02 -7.729463989945539737e-01 8.677615410884489400e-01 -2.238793314356469499e-01 -4.436980423257776973e-01
-2.152176820622457576e-02 -4.059872301776397234e-03 -7.719026658724136292e-01 8.684937968368963146e-01 -2.270619746221837765e-01 -4.406374751839733372e-01
-4.292091119492032897e-02 9.881441900351937979e-02 -8.709835012263374976e-01 8.657052153949328366e-01 -2.812389060623868842e-01 -4.140762704561140040e-01
-5.051480621001038472e-03 1.044287799015540530e-01 -8.042596540703104147e-01 8.251795581309705474e-01 -3.122895575485287178e-01 -4.706951551576883941e-01
9.514662025898674991e-02 1.356651854035154925e-01 -6.593485513829544509e-01 7.756698837336033492e-01 -3.979322321943606910e-01 -4.898838332191741696e-01
6.623723059881185538e-02 2.772432761405054999e-02 -6.426057956376759472e-01 -8.255291190487090702e-01 3.217136513616679072e-01 4.636830815656372562e-01
6.074496849336594867e-02 1.039350020868565067e-01 -7.055765213859769291e-01 -8.119976026499974298e-01 3.375274892926700687e-01 4.761670791460106966e-01
-8.290593773371286723e-02 -2.035559682645240176e-01 -8.396933667566713888e-01 9.530277465470486931e-01 -5.448776153899134028e-02 -2.979416019187722253e-01
-2.996178148568551594e-02 -3.484467310705490622e-02 -7.862678964082023825e-01 2.880109126350676729e-01 7.284014093039068438e-01 6.216760419440318097e-01
-4.462815873606159472e-02 -7.242180583244230141e-02 -7.887388154905272675e-01 8.947495634707305356e-01 -1.546441508707542267e-01 -4.189372330915461795e-01
4.203017805376326604e-02 2.028382296838249221e-01 -7.978196689323131530e-01 7.789359768554815489e-01 -4.291850100495132603e-01 -4.572296699788804264e-01
-6.284573300123413864e-02 -1.707110250970035048e-01 -8.011735377123690993e-01 9.217790478161372869e-01 -6.751312993861043055e-02 -3.817923051779169574e-01
-4.089907954621061631e-02 -1.782301799591020364e-01 -7.470135925363641238e-01 9.169368465601837048e-01 -8.881952865597569913e-02 -3.890217355747573325e-01
-4.628811185600259503e-02 -9.129401910011777921e-02 -7.852466795905902464e-01 8.996331072958284603e-01 -1.338808465792670210e-01 -4.156154366436252690e-01
4.679832779980381413e-02 9.037846958515152740e-02 -7.227212863889267425e-01 -8.507076930690110617e-01 5.246477037612939931e-01 -3.226775311673924646e-02
1.129445861086392396e-02 3.018884198290082074e-02 -7.509245760433044259e-01 -8.373637762393805195e-01 2.395882577418487203e-01 4.913444545269134434e-01
-9.165944978903504958e-02 -4.039142503578265625e-02 -9.065732048771246721e-01 7.032587923243609485e-01 -4.801888700134188115e-02 7.093104098415825565e-01
6.135873353725326829e-02 1.334686282311926819e-01 -7.037528048149893634e-01 8.113778115392690227e-01 -3.262362823903993680e-01 -4.850112730585112719e-01
-4.774266571376270529e-02 9.234815899427130381e-02 -8.766724390164822855e-01 8.657052153949328366e-01 -2.812389060623868842e-01 -4.140762704561140040e-01
5.142295693823579344e-02 -1.178953356373132555e-03 -6.504236989223567411e-01 -8.390824405875131342e-01 2.984472568216819943e-01 4.548295205825094167e-01
-3.052846324273675999e-02 -3.815624646013107690e-02 -7.822996866706865005e-01 3.091367051665112053e-01 6.530976882080984369e-01 6.913016036261098174e-01
1.205644474673110179e-02 -1.252550952811974649e-01 -6.546225665751460587e-01 -2.132870407254809086e-01 6.545746454886303134e-01 -7.252866135135825898e-01
-2.196706316071452003e-02 1.230030032016694863e-02 -7.978029602661769193e-01 -8.652841371208420673e-01 2.313418415021586960e-01 4.447069983904343715e-01
8.426537815335469195e-02 1.682544205738946141e-01 -7.028462076857696639e-01 7.712625579407828003e-01 -3.987198289356250758e-01 -4.961618332078623905e-01
1.071139186152376827e-01 1.252704705798589890e-01 -6.324417372694678408e-01 7.621885967358977831e-01 -4.015064707583504977e-01 -5.078002529981021640e-01
-4.396334595262425815e-02 -2.382607142210318996e-02 -8.077100964681935835e-01 8.835835451073192903e-01 -1.933214311776066674e-01 -4.265055017968978901e-01
-2.397978326232319546e-02 3.367296393058593490e-02 -8.130292580305018557e-01 -8.630928020088118879e-01 2.354430720144077283e-01 4.468079844418587632e-01
3.368253554417200563e-02 9.148431123787201247e-03 -6.897404575466572485e-01 -8.419969598751750883e-01 2.866789830890911772e-01 4.570079651559340594e-01
1.089553352334572123e-01 1.304680180456732896e-01 -6.477860479063040078e-01 -7.761966099953044873e-01 3.970584773062365569e-01 4.897584999068925193e-01
2.851508982873353706e-02 1.179071749003794828e-01 -7.550926328127185450e-01 8.106889153761999145e-01 -3.383944038940429055e-01 -4.777789341310013649e-01
1.279313344682608822e-01 2.205322668361710259e-01 -6.946443506931531120e-01 -8.045579553363317871e-01 3.401286620973488217e-01 4.868254201712236551e-01
6.171190335340008375e-03 7.853367729638099926e-02 -7.712290267962458312e-01 6.448191569753977115e-01 6.609601918238353635e-01 3.838487718122020609e-01
-7.261606138298110080e-02 -5.339403692297627069e-02 -8.760486902359069239e-01 -5.092639954179406514e-01 -7.123670673121199615e-01 -4.828906132656601846e-01
1.063860583679824001e-01 1.933990297188486196e-01 -7.041529481535315771e-01 -7.592730100600322274e-01 4.210276542183060688e-01 4.962259672546456835e-01
-7.429261042558777187e-03 1.289495946077842681e-01 -8.176337189793919658e-01 7.857868891038931602e-01 -3.772884551056522318e-01 -4.900942629295061970e-01
1.394776130348394320e-03 2.187924617187659779e-02 -7.416408987851799139e-01 8.586500751697265787e-01 -2.512922558806168771e-01 -4.467351010895084240e-01
5.654449239506771641e-02 1.001543015314743795e-02 -6.483208067898874605e-01 -8.390824405875131342e-01 2.984472568216819943e-01 4.548295205825094167e-01
1.106016518908712609e-01 1.731852355674073918e-01 -6.806060927618250433e-01 -7.637520535759766416e-01 4.186947249065403054e-01 4.913018705377730222e-01
-2.214280273655994807e-02 -7.287534372876437738e-02 -7.404455159126192010e-01 8.845811292746109666e-01 -1.917141426899810763e-01 -4.251610438691430516e-01
-2.029062997994397072e-02 -7.523068143188257895e-02 -7.355298524309927810e-01 8.845811292746109666e-01 -1.917141426899810763e-01 -4.251610438691430516e-01
-4.068453589536051573e-02 -1.868615232941079896e-01 -7.446850502993261900e-01 9.169891235192577650e-01 -6.551707610896512213e-02 -3.934951843231571100e-01
3.458188848393635439e-02 1.422695960463569442e-01 -7.621276306403593770e-01 7.945142469392936224e-01 -3.670112191823297620e-01 -4.837870155396760130e-01
-1.015146101828822561e-02 -7.685450336670890392e-02 -7.308579821106401253e-01 -8.840635682975561682e-01 1.930141929373100362e-01 4.256490673474463970e-01
4.491642100999227762e-03 -1.426237701931905855e-01 -6.694281067146836683e-01 -9.167022463581819824e-01 3.314150549445415983e-01 2.232063011609873304e-01
1.524536886960610287e-02 1.617480866093941871e-01 -8.232877284357814629e-01 -8.049648928318803298e-01 3.303882694091308525e-01 4.928236122031888211e-01
9.664157597266985478e-02 1.978412253497240647e-01 -7.087929957898899680e-01 7.506652440159571338e-01 -4.224140955476666792e-01 -5.080039599344772228e-01
3.138085844329428775e-02 -5.243455853547529522e-02 -6.429675362358671098e-01 8.631521200067591160e-01 -2.317348220555653648e-01 -4.486283428125252271e-01
2.195555325947108616e-02 6.626823092142473774e-03 -7.101655597357459104e-01 -8.519100159473042000e-01 2.599766109287408589e-01 4.546003591053023318e-01
1.050571556090835884e-01 1.529801173313118934e-01 -6.722814991860400768e-01 -7.644973367670988562e-01 4.098683860333678930e-01 4.975457046407046890e-01
-3.544210043723495379e-02 -1.513731857725902907e-01 -7.412866320798987552e-01 9.142643899686184739e-01 -1.102607166181837628e-01 -3.898245754261197571e-01
-6.714012455458542861e-02 -1.455740589927754236e-01 -8.080839678483665578e-01 8.991111748389656322e-01 -5.512740448272430288e-02 -4.342350337716807673e-01
1.119987436343989479e-01 2.045176522381847717e-01 -6.918169199089601040e-01 7.345738017019299848e-01 -4.494039022223397239e-01 -5.083674483289691848e-01
1.207251340312531229e-01 2.001852921926587370e-01 -6.754677920740181918e-01 7.089396101308621523e-01 -4.672274684214591245e-01 -5.283021123750835102e-01
9.709812588652948218e-02 1.047258199838741050e-01 -6.339385863594512172e-01 5.364518472307909791e-01 8.319348581031563716e-01 -1.417878960826821633e-01
-1.517605445223823082e-02 1.749741846346211313e-02 -7.708151071119455633e-01 8.573096849813304221e-01 -2.518146733588623731e-01 -4.490094367809892018e-01
-1.641018755030769147e-02 -3.761942200795869579e-02 -7.505625052111777329e-01 -9.997753401466651091e-02 -9.830457713209247439e-01 -1.537059015795889383e-01
-6.322661440219806694e-02 -2.972412119489123254e-03 -8.570042960726851344e-01 8.884643600600805602e-01 -1.837992626092957715e-01 -4.205340794362691370e-01
-1.620954172829521672e-02 -1.465435334590722838e-01 -7.170368425086607322e-01 -9.079316001723793939e-01 1.457681893756707370e-01 3.929527253685373145e-01
7.906007104227733007e-02 4.413680825470427810e-02 -6.170257245382133604e-01 8.033721852664651442e-01 -3.436982400474661303e-01 -4.862763121194150218e-01
9.835863443367449943e-02 2.255286148234197929e-01 -7.318552562877088663e-01 6.542804126107791829e-01 -6.274922833874806427e-01 -4.221025656911293611e-01
-8.168027257804699737e-02 -2.593906137065590811e-01 -8.728068869465975821e-01 -6.591391975144221815e-01 -2.753774334733408713e-01 6.997876731078358503e-01
4.711920776125499977e-02 2.006078919371800662e-01 -7.997897058400762482e-01 -7.782528058708417795e-01 3.106605691576284634e-01 5.457220729683013305e-01
2.674701310147288222e-02 -3.660784212445064578e-02 -6.764417337714474510e-01 -8.621011613013992436e-01 2.460665869159632535e-01 4.429817405788949447e-01
-8.271066775887485345e-02 -1.996674151861111413e-01 -8.397798966290158651e-01 9.530277465470486931e-01 -5.448776153899134028e-02 -2.979416019187722253e-01
9.924141964966040619e-02 1.600957021021226223e-01 -6.729192386092610612e-01 7.562479474159649051e-01 -4.185393645175921051e-01 -5.029054010232439920e-01
1.990560210294295765e-02 6.158603831116973154e-02 -7.538378740372627673e-01 -7.739704045787945130e-01 3.749221192475540865e-01 5.102971853097563182e-01
-1.941761063423987597e-03 -1.035441466795353760e-01 -7.021038661977767603e-01 -8.912820291423759755e-01 1.809485177251627941e-01 4.157811665538914681e-01
5.677604351888618922e-02 3.753853520814612321e-02 -6.729749814725106694e-01 -8.586251298936045107e-01 2.201506510276335649e-01 4.629217829907119053e-01
1.302298982380677983e-01 2.000550179607323842e-01 -6.729315119830417968e-01 -8.532311044106853926e-01 3.535200483754479817e-01 3.834322076492047704e-01
1.161278838093526139e-01 1.871471019272296921e-01 -6.839862476709139827e-01 -7.577088184068938581e-01 4.268351301406089204e-01 4.936487801932443187e-01
-1.591613110020150684e-02 -1.319542980817501043e-01 -7.212894115943002671e-01 -9.044389917544657376e-01 1.357105632139573581e-01 4.044412852643951561e-01
7.402899740154937624e-02 2.138194141588035113e-01 -7.566336912956381777e-01 7.518929770684202873e-01 -4.379319672094146854e-01 -4.928210051644307255e-01
9.558461101763843226e-02 1.234583426792643657e-01 -6.489248356764942827e-01 7.767256546765864966e-01 -3.931720877180520102e-01 -4.920497604985256124e-01
-1.100034931658292435e-02 -5.964195054381329214e-02 -7.233356221451673340e-01 8.832229433910436800e-01 -1.928083241257007863e-01 -4.274835463681611603e-01
-1.605887252690796352e-02 1.071481426017941302e-01 -8.410703965830673701e-01 -8.332768311677445361e-01 2.901863445757246751e-01 4.705758260480673028e-01
5.637844135634959702e-02 -2.702151005279857313e-02 -6.247743064164044124e-01 -8.496092108875642479e-01 2.848651088599282177e-01 4.438649102252075207e-01
1.166029708025988904e-01 2.172581706024042381e-01 -7.087986012657822021e-01 -7.551092065963957989e-01 4.065672801869905095e-01 5.143084024150438305e-01
-8.870050065468464140e-02 -4.860324156448788541e-02 -8.888368806070535699e-01 9.140181466736021498e-01 3.960027362075231872e-01 8.804919345177490697e-02
6.096036490814343844e-02 1.136528131979519518e-01 -7.160517412605792442e-01 -8.414386761854735219e-01 5.397823461567702319e-01 -2.481880328965022087e-02
-5.944987643789393511e-02 -1.273210342136693596e-01 -8.219046343269008625e-01 -9.097257480921479011e-01 1.126523537003243508e-01 3.996354719791008758e-01
-5.913421506800823485e-02 -1.614253697719797986e-01 -7.940421197409566201e-01 9.188923896555313275e-01 -9.243956873177910927e-02 -3.835253607857370128e-01
-3.508028609741967174e-02 -1.562392556198572424e-01 -7.390617074091060390e-01 9.142643899686184739e-01 -1.102607166181837628e-01 -3.898245754261197571e-01
-5.262080316795358231e-02 -2.302424549862261589e-03 -8.354555389855733427e-01 8.819356984454622683e-01 -2.008802118031051409e-01 -4.264229875527986158e-01
3.023393660907475189e-02 2.362216240824272992e-02 -7.050422463315237920e-01 -8.396497918962247953e-01 2.838441626840803589e-01 4.630558479047638398e-01
9.988765823439590963e-03 2.758697711262016530e-02 -7.518810609849904125e-01 -8.373637762393805195e-01 2.395882577418487203e-01 4.913444545269134434e-01
-4.944680053664508856e-02 -1.325451893013979143e-01 -7.910579315264185674e-01 1.626220802870483872e-01 9.793360214451288792e-01 1.202290152298472470e-01
2.456086778709603430e-02 4.851247886828567724e-02 -7.358704645561504609e-01 -6.190849928773589639e-01 7.603632864242060307e-01 1.964215982325290821e-01
3.951457273641106188e-02 1.089638230621381987e-01 -7.224211659955050990e-01 8.276267943447288555e-01 -3.737389927799473766e-01 -4.187517815585958814e-01
2.814241720413631145e-02 4.957674739203293823e-02 -7.314166153436858497e-01 -7.848275117060976580e-01 3.902066230320773155e-01 4.814400982584619015e-01
1.407211659088370738e-02 -1.058940372010885866e-01 -6.514495882853744702e-01 8.727378236963821978e-01 -1.654239109526469131e-01 -4.593077625893480231e-01
-8.251323715000212500e-02 -7.665486360392370635e-02 -8.889182159072722689e-01 -9.040519884537443485e-01 1.152418168164424245e-01 4.115936416293091704e-01
-6.758748150894863804e-02 -9.950477747871559753e-02 -8.302424692723546773e-01 9.091000397675653710e-01 -1.176304274847107534e-01 -3.996250745691206641e-01
2.724107679455574013e-02 4.482331930727852937e-02 -7.077828229556040185e-01 8.292756480705921751e-01 -3.084673233955480542e-01 -4.659933582297987598e-01
-3.022652771095483970e-02 -8.541518346955538632e-02 -7.701884299725522132e-01 -8.960033986317036403e-01 1.649913400858163959e-01 4.122569190894471158e-01
8.679364243883550684e-03 1.467899711237231619e-01 -8.239021991504565934e-01 -8.063179414656564958e-01 3.356117621116513905e-01 4.870483778875546732e-01
7.308642306230823428e-03 -1.144627569793636446e-01 -6.614920890410039833e-01 8.839343494860213424e-01 -1.811725742104577652e-01 -4.310876525170727058e-01
3.616199969120879876e-02 1.227285843965160161e-01 -7.455322969675993727e-01 8.106889153761999145e-01 -3.383944038940429055e-01 -4.777789341310013649e-01
-7.025586049527195176e-02 -1.951706137903363447e-01 -8.345676428141941550e-01 -9.314416415416651995e-01 6.127512426538211238e-02 3.586946160014528040e-01
6.958382236808623167e-02 1.106468058591910247e-01 -6.810290194020920396e-01 7.945294872687150844e-01 -3.694343506102065189e-01 -4.819140529697467090e-01
-2.368690914524367724e-02 -5.420091194352447822e-02 -7.760038178657547858e-01 -9.015610071717624630e-01 2.014612605642104870e-01 3.828852450007919073e-01
8.118965358439193813e-02 1.146946657839410244e-01 -6.650421031755735513e-01 7.937070415272308166e-01 -3.686101893012856401e-01 -4.838963324652926778e-01
1.693972623614264233e-02 5.399010482452305804e-02 -7.480878157181590771e-01 -8.479030923220129967e-01 2.809077660869646609e-01 4.496122473674387110e-01
7.884005861400976423e-02 1.596542334850587774e-01 -6.990355442595891367e-01 4.919112305903577398e-01 -1.058548704489764569e-01 -8.641863731981138663e-01
4.496109029103513566e-02 -1.287872405725324840e-02 -6.553697984351758432e-01 -8.490202258055550288e-01 2.725372229048560468e-01 4.526456873807512826e-01
-7.331406215161788420e-02 -1.702221060626128712e-01 -8.459658775903613481e-01 -9.248171508279295905e-01 5.790953784978587759e-02 3.759783543776615833e-01
-8.981666066821619721e-02 -5.737541935377086372e-02 -8.943394685873744532e-01 9.187488943609731784e-01 -1.266188108928706646e-01 -3.739894996367740254e-01
-2.471641726244586112e-02 9.345685575745600604e-02 -8.330012741367879281e-01 8.494084609581676881e-01 -2.737500496763756175e-01 -4.511830856258452482e-01
1.890768422702480620e-02 1.218999527554283230e-01 -7.742389493870919237e-01 8.089259219933604417e-01 -3.396893113877121340e-01 -4.798437500438383352e-01
5.309902119155377603e-02 1.345765799469679225e-01 -7.191967321644880951e-01 9.899431657863290157e-01 -1.293849067940135711e-01 5.720204897418566803e-02
4.502406392699467158e-02 9.438779996122965315e-05 -6.474418473222917081e-01 8.342227330364058169e-01 -2.933789165589891224e-01 -4.669060323062267925e-01
4.736969010670023100e-02 8.117353979634357730e-02 -7.122444713939031224e-01 -8.117645665733067561e-01 3.375046315752904813e-01 4.765804361503719333e-01
1.019641904954022779e-02 -9.353360993955232849e-02 -6.807542604003555820e-01 -8.877683267463527539e-01 1.881888147820599544e-01 4.200623382510081383e-01
1.032752104384939695e-01 2.039646889304612687e-01 -7.040811018471478944e-01 7.392245613441766894e-01 -4.538293712517302847e-01 -4.975800937485024278e-01
1.482264837561370584e-02 -1.162614824357724314e-01 -6.602834084365608591e-01 -8.891922129192780799e-01 1.979587803073035168e-01 4.124918542019487266e-01
7.329712139139922533e-02 9.360739254976470358e-03 -6.170748895163250536e-01 -8.370603097563064088e-01 3.071207284857362385e-01 4.527768721622901782e-01
-6.270313363402098272e-02 9.545505016815858737e-03 -8.780678453415643459e-01 -8.846417200991713026e-01 1.837399066188541985e-01 4.285424993809530680e-01
9.066202480073440317e-02 1.113860137976870335e-01 -6.683202215242495248e-01 -7.338666522059174024e-01 4.683848722839519807e-01 4.919912074373126720e-01
-9.552683330302668210e-03 -1.054870615556410679e-01 -7.002697745694521636e-01 8.913637078830241034e-01 -1.769208194473483875e-01 -4.173365116007771158e-01
1.385068711411429915e-03 -1.271592878618548472e-01 -6.850353647915234934e-01 -8.943062638279170029e-01 1.701958677020929400e-01 4.138232389502594089e-01
-1.655573201033909599e-03 -6.761530391645799443e-02 -7.005870114871819432e-01 8.797773021784103253e-01 -1.978089886351455384e-01 -4.322771131887725438e-01
8.363377978600183837e-02 1.394562839638998075e-01 -6.951590322108219810e-01 -7.750905335873721214e-01 3.946276977108663653e-01 4.934608849165899036e-01
-8.739887611169181239e-03 6.389006232533780971e-02 -8.013962349193231027e-01 -8.507309079201046398e-01 2.678543632699159627e-01 4.522288827426905189e-01
6.685765595129068706e-02 1.414407103601915752e-02 -6.176956460630406154e-01 8.300874219331855208e-01 -2.968664297873122582e-01 -4.720436365566770265e-01
-1.792847988832479283e-02 8.458671684425231319e-02 -8.151453460111933724e-01 8.381020846881730435e-01 -2.865301486453845636e-01 -4.642040171719671870e-01
