1.054885691880201454e-01 4.515730206105660755e-02 -9.176530708837273842e-01 -4.571989911316886590e-01 7.566057673942525597e-01 -4.674578005060137653e-01
1.185240914231370513e-01 7.185397549605306022e-02 -9.007346398848570246e-01 4.406903347950233973e-01 -7.755873039714621386e-01 4.519473008399642056e-01
1.220324125183220587e-01 5.004657282693368570e-02 -9.263182096851564351e-01 -4.788533382331008337e-01 7.497793676563526688e-01 -4.566512677085827754e-01
-3.142115461318426006e-02 -2.268361454995332718e-02 -8.941752241409509638e-01 -5.032658906795902665e-01 -5.514455786454555142e-01 -6.653053562619628547e-01
-2.233338649825249156e-02 3.288124896290238984e-03 -8.758423963565552528e-01 4.592868441360344334e-01 -7.413371630826802727e-01 4.893616305311294656e-01
-1.001639269340325739e-01 -8.352139795888308127e-02 -9.238775877490144062e-01 4.835937111477255912e-01 -6.684619506697483393e-01 5.650626009967084640e-01
8.770764227974943428e-02 4.075691763720169086e-02 -9.224132674723087844e-01 4.548238683231228818e-01 -7.536491552006622241e-01 4.744978394776092623e-01
-7.838348386772533679e-04 1.276189399918963019e-02 -8.662095730589314257e-01 -4.572677268395914374e-01 7.548460735485281736e-01 -4.702272123551797800e-01
8.086069242731673545e-02 6.015592218672761310e-02 -8.669593029595654698e-01 -4.524203859813603623e-01 7.793267464071287343e-01 -4.335500163567703180e-01
5.224766202928219500e-02 1.202151250879768124e-01 -6.927683218675344534e-01 1.027888643055849399e-01 8.660614769496781662e-01 -4.892565457083941083e-01
2.544875488063632740e-03 -7.144660389246849930e-02 -9.964844821646828832e-01 4.854152767901526166e-01 -6.549965667767726485e-01 5.790954209535597030e-01
8.697626345087906830e-02 -2.982996165837157806e-02 -1.018261453629077273e+00 4.511466645299459510e-01 -6.773446229953300479e-01 5.810946125914597804e-01
-6.145849719118523513e-02 4.318324241875141217e-02 -7.669233379928932504e-01 4.415589584577279680e-01 -8.014899449820134247e-01 4.032859460710919164e-01
9.704151940678999722e-02 9.016898241001918002e-02 -8.443683872225253850e-01 4.313003669003186991e-01 -8.044153596226012448e-01 4.085289741436849420e-01
-2.466258289579755306e-02 -7.296443465483931634e-02 -9.573277504442166963e-01 -4.063292850182967375e-01 6.938992435825761529e-01 -5.944748538769730750e-01
-5.588753998355313474e-03 1.270029491281457305e-02 -8.771049483036162941e-01 4.512503466735631741e-01 -7.558172396868653165e-01 4.744611942183648567e-01
-3.949897105218270685e-03 9.885653569247948580e-02 -6.867078146102391090e-01 -3.979965100322204186e-01 8.559550886397115921e-01 -3.300600918529172922e-01
-1.256998696196224286e-01 -1.456646372877739258e-02 -7.904297139053095833e-01 -4.094302224826339986e-01 7.702500580200906111e-01 -4.889598562641601642e-01
8.438515163509953398e-02 4.865754240615575293e-02 -9.065740575343570473e-01 4.546494465794952422e-01 -7.657622232301716236e-01 4.548649230250053077e-01
7.228876900806710006e-03 -6.218258510187098936e-02 -9.898528461785378596e-01 4.809185039989250510e-01 -6.589141367652580072e-01 5.784025872023143000e-01
-1.136624331115144576e-01 -1.819900711344673086e-02 -8.217891883658403618e-01 4.599473024066423332e-01 -7.521966721290274105e-01 4.718565941542715025e-01
3.745931669180203871e-02 1.473762065183557499e-02 -8.999357072789914147e-01 -4.586136406558964929e-01 7.459663856213326616e-01 -4.829158105999320494e-01
-3.957813073988063896e-02 -6.166871821178807750e-02 -9.493869128266381185e-01 4.808192808603153345e-01 -6.745751192920755868e-01 5.601439347034393723e-01
-2.520374987661044147e-02 6.397382629993995928e-02 -7.452989476573680383e-01 -4.301851432885221427e-01 8.143177288796507041e-01 -3.896503290465974656e-01
-3.558974186096517528e-02 -1.356434533772366696e-02 -8.887151586074697462e-01 4.696332845947680523e-01 -7.241397331839969365e-01 5.050408150089843451e-01
7.743996161059701899e-02 -3.186405420803839483e-02 -1.000906123532734560e+00 -4.833698570421289253e-01 6.749382535081335233e-01 -5.575050988596087498e-01
-3.586921407445031133e-03 -6.755907000797833385e-03 -8.936963740802730261e-01 -4.588192658684610570e-01 7.384033584152823737e-01 -4.942118589724031619e-01
2.474901521529011134e-02 -9.502677196436654095e-02 -1.039986063786713322e+00 4.820634274675848485e-01 -6.169950089469713461e-01 6.220385927197216169e-01
7.005897614946816898e-02 -3.491445851206862079e-03 -9.569940378191703623e-01 -4.745203941002830161e-01 7.160328573551382192e-01 -5.119837329161429640e-01
-4.169639878752037787e-02 -2.724673192519884712e-01 -1.121090033358652427e+00 -8.789326048812429182e-01 2.986972482593526768e-01 -3.718298400598900599e-01
-6.252565002212429057e-02 -1.259376837462306276e-01 -1.001564893306897464e+00 4.914454342005160625e-01 -6.156504697161605533e-01 6.159999061215328808e-01
-6.120155997427699501e-02 -6.036979321372776958e-02 -9.156377801224852009e-01 -4.742750545152392694e-01 6.965050305778546225e-01 -5.384644046214278612e-01
-5.798965736861420167e-02 7.263164696074862585e-03 -8.192599182175227535e-01 -4.531869042508835932e-01 7.663048268913269512e-01 -4.554103008261382590e-01
6.269326167554492568e-02 1.080201207672269459e-01 -7.666989003263604552e-01 4.224744926739245066e-01 -8.311709101595262661e-01 3.614833621959590015e-01
8.011768640858651924e-02 1.195326109129726116e-01 -7.380953374900025565e-01 -4.157836378733037463e-01 8.471101615230876014e-01 -3.309506620648610120e-01
5.743012797473546344e-02 1.216618671075420655e-01 -7.159943460496243084e-01 -7.373743549835291011e-01 -4.512801708173944104e-01 5.026184119584633514e-01
-1.940676218726264737e-02 4.548312253842177327e-02 -8.040990775515626243e-01 -3.633040764289663938e-01 -7.238276031986852210e-01 -5.865865229424748195e-01
5.814613870865512762e-02 2.460403510492226511e-02 -9.195295457326548849e-01 4.616547291666921460e-01 -7.441968539285218620e-01 4.827483336490336341e-01
1.424926806240333910e-01 1.215451694798047183e-01 -8.256653128829644084e-01 -6.258594809662170189e-01 -7.573647973183865734e-01 1.862752637028778913e-01
3.361859118076293562e-02 -3.335533547032926843e-02 -9.641521508474929503e-01 -4.757876868485752531e-01 6.961608726975214712e-01 -5.375742891622585784e-01
6.757103805634290250e-02 7.346889606588043187e-02 -8.278830214458094972e-01 -4.438045751343406287e-01 7.950229012385631178e-01 -4.134925459981658724e-01
6.865607292481537560e-02 6.440367360409290920e-02 -8.406298373817729930e-01 -3.513918679204491857e-01 2.668250837490377392e-01 -8.974007632277212210e-01
-7.289448986849081380e-02 -2.283719049352578648e-02 -8.632185254420572385e-01 -3.520614060404005374e-01 -7.940226449152973931e-01 -4.955611019224285818e-01
-4.690143127217907132e-02 4.383577596977254048e-02 -7.636713094856661943e-01 -4.375517103256015838e-01 8.016340164856711192e-01 -4.073467864169197927e-01
-1.346298752951394229e-01 -1.078303505831537251e-01 -9.121309304488347536e-01 -4.134038850864277248e-01 7.015451496991942371e-01 -5.804581214256397947e-01
-2.416903605120819531e-02 -2.971040093972171156e-02 -9.279263152875633081e-01 8.498155837571619298e-01 -4.767622668980954770e-01 2.247470010159499099e-01
-2.589946054126822036e-02 -1.174794373476938658e-01 -1.008137726795046429e+00 -8.613648887753275751e-01 4.137732747477541606e-01 -2.946900159312957346e-01
-1.154336849330177689e-01 -3.092291770533948242e-02 -8.236728103224048025e-01 -5.124754889283754666e-01 -5.225153407530546135e-01 -6.814298143795455287e-01
-5.329732646158804460e-02 -1.043132287907796302e-01 -9.866173930639740020e-01 4.907410070031600902e-01 -6.354412881250511846e-01 5.961439703557355196e-01
-3.885108166966799725e-02 -1.943832683103249859e-01 -1.065283056180961863e+00 -5.703239739691883248e-01 5.512093674735236704e-01 -6.090146122429499487e-01
-2.895871555525930327e-02 -6.960515997179377023e-02 -9.678884264966075568e-01 4.854678768203858907e-01 -6.693817342803785042e-01 5.623602354250339941e-01
9.099495508597069821e-03 -7.483641436570320771e-02 -9.969576550333432152e-01 -1.585313236749968102e-01 7.199903987481736101e-01 6.756342539601580821e-01
1.055825300256637012e-01 7.161004268427170749e-02 -8.718594948027971192e-01 -4.523774786533686365e-01 7.829099561570620480e-01 -4.270908771647649038e-01
-1.695438289790394612e-02 2.172024526412807272e-02 -8.355085176291553450e-01 -4.440531282931025614e-01 7.756726806858248446e-01 -4.484960553792820548e-01
9.910460258457709504e-02 3.532000444768557124e-02 -9.271041475660729558e-01 -4.640028079460903898e-01 7.508150840146231575e-01 -4.700830818421974922e-01
-1.311375745431312967e-01 -9.041363508665871754e-03 -7.887912116199259360e-01 4.909370030930596540e-01 -7.514386187465152966e-01 4.408183994008585405e-01
1.836624933055919923e-02 1.241006670783105503e-01 -6.632014198014336559e-01 3.829371309962151804e-01 -5.632709412400719318e-01 -7.321782572972997949e-01
2.870345472813377527e-02 4.452191879534963398e-02 -8.349097739564229625e-01 -4.356908184960328612e-01 8.367466333950418500e-01 -3.317055654949438437e-01
-4.916985887714700465e-02 -2.986852306176198124e-01 -1.131924806800896022e+00 -4.446485720493464910e-01 4.631932132233841926e-01 -7.666418294081492890e-01
1.441751459957627685e-02 -2.979015936909674284e-02 -9.562847064694192101e-01 4.700713505462329467e-01 -6.981680226622881680e-01 5.399947569444275564e-01
-2.741430673504382035e-02 -5.951081118124738195e-02 -9.571876085793722400e-01 4.898652430918634670e-01 -6.688588987685780696e-01 5.591599209069216814e-01
9.933255185371615836e-02 7.950158123811357225e-02 -8.675669292730714410e-01 4.422973546833681158e-01 -7.863140855706500787e-01 4.313736302479411755e-01
-2.414200238626399223e-02 -7.014388125114658090e-02 -9.543758145654631653e-01 -4.178372897795353813e-01 6.929793425907534443e-01 -5.875301098770852049e-01
-5.254772168080774214e-02 -1.214547950819815265e-02 -8.558087145161811238e-01 -4.556197212583639744e-01 7.467888948292646933e-01 -4.844760222757533707e-01
-4.530748899277149688e-02 -1.536455329370019773e-01 -1.030832006874681905e+00 -4.987221267566557814e-01 6.022652209290784153e-01 -6.233400708622595099e-01
-9.951120506599316073e-02 3.321551395507658933e-02 -7.303286906995734018e-01 -2.647928424366746136e-01 8.081924287610519064e-01 -5.260320795233106583e-01
1.253340829015667235e-01 7.712886481617763079e-02 -8.982315337477110306e-01 4.346655797159546530e-01 -7.793991948371602474e-01 4.512235908032505849e-01
2.874282709722976795e-02 7.168210817651414490e-02 -8.000034561774549413e-01 -7.278378142600980816e-01 -4.376878886014693992e-01 5.279028587767552461e-01
7.165380834415709110e-02 -6.247669131195282555e-02 -1.032793829947515230e+00 -5.565181043145639439e-01 6.593638469353518827e-01 -5.054967031789009413e-01
9.611207674559078817e-02 8.644839429485405569e-02 -8.330478014004445431e-01 -4.329078525249842047e-01 8.144633675548594853e-01 -3.863162100318917047e-01
2.062828810257270537e-02 -2.862521392420482730e-02 -9.465663706949715150e-01 -4.742626237672916689e-01 7.069671547230736985e-01 -5.246640885748956595e-01
-1.150515427177871940e-02 -9.869804813583223091e-02 -1.014652760282567234e+00 4.850660837458177221e-01 -6.371498996894224831e-01 5.989581786112068151e-01
-2.024059149610878128e-02 -1.283349512936997512e-02 -9.052091952096442684e-01 8.350630843812545390e-01 -5.089002425128131835e-01 2.090219803610757765e-01
-7.499325219999759991e-03 -3.277271461876942599e-02 -9.239064685674445165e-01 -8.371536303625979336e-01 4.902469233297550577e-01 -2.425525784988318001e-01
1.556037018270216982e-02 9.493080090086944423e-02 -7.207932994840992036e-01 -4.082290808656524606e-01 8.492644739888546290e-01 -3.348116944732049127e-01
1.065269828250923340e-01 1.267843389139835797e-01 -7.831896105418031384e-01 4.002000470862661641e-01 -7.979721805526129863e-01 4.506443402243709984e-01
-4.209098084930505690e-02 -1.097809415441926562e-01 -1.005574622422853004e+00 8.620894104269404279e-01 -4.117173141138350534e-01 2.954499986268744327e-01
-4.495405875879241592e-03 5.006941662036222714e-03 -8.952067372453986760e-01 -6.949121852691453327e-02 -7.609863820889712915e-01 6.450354229209298573e-01
8.564409037708972661e-02 4.460319239471044472e-02 -8.988985391848216544e-01 -4.574844615424304428e-01 7.648661816692919890e-01 -4.535280493926149292e-01
-6.596556228615983730e-02 -6.431402034223378250e-02 -9.165474181511723550e-01 -4.720359621243518378e-01 6.972307418286081138e-01 -5.394917451736092051e-01
-3.104361440892740298e-02 -1.395889555951342342e-01 -1.039515683708091665e+00 4.940603685615226337e-01 -5.902245649035027242e-01 6.383880600397562333e-01
-9.389683692432126624e-03 9.256019036191334703e-02 -7.175738000873432831e-01 4.139214322955626080e-01 -8.469818175097741930e-01 3.336028307647128655e-01
4.249091970189795668e-03 1.028182189761973342e-01 -6.864578985201844619e-01 -4.084663534178618605e-01 8.540020350652367531e-01 -3.222355694673517124e-01
4.479246304680551717e-03 -6.805402583250168974e-03 -9.227877721714508041e-01 4.692750853285889701e-01 -7.685418689216046984e-01 4.348842259778257224e-01
6.721344900864724414e-02 -4.768975312191653555e-03 -9.699627284714958941e-01 4.690883041393332786e-01 -7.060869863130359025e-01 5.304689723999499451e-01
-8.898211086302076217e-03 -9.761289322064079649e-03 -9.126690713044020020e-01 -3.361491945658964808e-02 -7.566187851765434624e-01 6.529916164147122615e-01
-1.284520219351689418e-01 -1.044833182989853559e-01 -9.241544864354632738e-01 5.065017889352807501e-01 -6.460028118257679086e-01 5.710834482967983572e-01
-6.422265715134251041e-02 7.314627099875251059e-03 -8.288626291352735320e-01 4.559906595860580558e-01 -7.655679676865262406e-01 4.538482182653070796e-01
4.758839087949009138e-03 -1.912501943300883370e-02 -9.192835881185860147e-01 -4.728048000742149370e-01 7.198293530629145121e-01 -5.082335324393774112e-01
9.409330667242514490e-02 8.766517058315741184e-02 -8.461859803532378876e-01 4.313003669003186991e-01 -8.044153596226012448e-01 4.085289741436849420e-01
1.025508721825254127e-01 -1.385772126120178582e-02 -1.008913321995686063e+00 -7.819754421758734475e-01 -7.265342913563156702e-02 6.190604874070718688e-01
5.155033247179878486e-02 1.305956215336000481e-01 -6.926391466524802754e-01 3.977672628993980664e-01 -8.678080577341797941e-01 2.978093005551567529e-01
-4.574579393839986463e-02 -5.085653379896969833e-02 -9.304928506661211962e-01 4.764278615396140282e-01 -6.909915081322937080e-01 5.436425557642159401e-01
3.116864325816102836e-03 -1.655297139651737241e-03 -9.072722839882170209e-01 4.644786028436693193e-01 -7.378835866432552626e-01 4.896809574231762996e-01
6.852799001123482947e-02 -3.687008214072888534e-02 -1.011624905092002535e+00 4.707842368218656537e-01 -6.753882458822364487e-01 5.676380181807497705e-01
2.706068212534543799e-02 1.115909835679787104e-01 -7.139137168589563265e-01 4.099754766954497032e-01 -8.511944242375684144e-01 3.277013284306509733e-01
-2.173223984537200545e-02 5.158034166311229471e-04 -8.656143165780643134e-01 -4.621319202966188144e-01 7.420989494322014490e-01 -4.855133751963819355e-01
-3.976818315293370598e-02 -3.395839067741556611e-02 -9.135681001339138740e-01 4.735268771515921959e-01 -7.107473201120402262e-01 5.202024063464277814e-01
5.725132040721418042e-02 1.246882964968979018e-01 -7.172644788216795408e-01 3.899015689766596737e-01 -8.689823782580946565e-01 3.047070606114092861e-01
-7.913227712911259648e-02 5.167409261908174206e-02 -7.128894504963887435e-01 -3.764336802271344706e-01 8.281199747421078561e-01 -4.153492407887440785e-01
-1.079470200160515814e-01 -2.404026927846020234e-02 -8.433639865984168260e-01 4.158976711547938132e-01 -8.045339654442551502e-01 4.239743218339537822e-01
-5.100346876058039353e-02 -9.422351652159368859e-03 -8.681175164655478005e-01 4.589273611866871438e-01 -7.431960791304047520e-01 4.868729455611774393e-01
-5.860519997667135335e-03 8.215505219158601713e-02 -7.261185135553482883e-01 -4.202064859264714181e-01 8.318837652164530194e-01 -3.624857381396180966e-01
3.842016295496454310e-03 8.820516773377405639e-02 -7.232631774177601391e-01 -4.152293675663886185e-01 8.459122676678108022e-01 -3.346894197902273715e-01
-9.815006407965518043e-02 -1.465547181126992116e-01 -9.830768612563890452e-01 -4.531141986098818353e-01 6.536607348729579492e-01 -6.061478092870330459e-01
2.605907107424449906e-02 4.917802808491616995e-02 -8.474213340800480498e-01 4.463243075781331282e-01 -7.767051111947794739e-01 4.444364776982255294e-01
-6.187015944677286619e-03 -1.259834382165557209e-01 -1.034940872023895730e+00 -4.897509627315340675e-01 6.158043680070465209e-01 -6.171944384446261811e-01
-2.750193685774552851e-02 -2.221305706557444998e-02 -8.942018348192116717e-01 -4.623394830592468252e-01 7.237006046708120977e-01 -5.123471842448337199e-01
6.904447290393113390e-03 8.322047471613140679e-02 -7.586441026302982449e-01 4.251959390564806207e-01 -8.304782503809963190e-01 3.598809373306636195e-01
-3.766888536559371420e-02 4.278018929603158958e-03 -8.597340901028981408e-01 4.606595313919855661e-01 -7.445026369082683448e-01 4.832272961809499501e-01
8.216394632956652844e-02 1.269090945238117961e-02 -9.452881947582527644e-01 -4.686604090463835082e-01 7.219923093383133761e-01 -5.090034638868440320e-01
-2.380692871560222482e-02 1.112724363677377454e-02 -8.464795341711475185e-01 -4.556108229550284161e-01 7.577832254916146981e-01 -4.671010181639153047e-01
1.666938355537498501e-02 2.793391211340456523e-02 -8.583260100337184451e-01 -4.415541782563115469e-01 7.756685461237071699e-01 -4.509636506623654895e-01
1.348535098757670109e-03 -5.290285766759441483e-02 -9.737566033681454014e-01 4.830846006790145419e-01 -6.741131881214714738e-01 5.587492086683456538e-01
8.634344458454183691e-02 1.221798533403913312e-01 -7.606273594981338704e-01 4.111058296440207038e-01 -8.477847352566016959e-01 3.350418473841667577e-01
5.402265330677533811e-02 9.290179606228346487e-02 -7.712335709949328377e-01 -4.231237139596768504e-01 8.312618557875670611e-01 -3.605135916960408582e-01
-5.554991198708489342e-02 -1.540372314692328437e-01 -1.033754710664300802e+00 5.014130361737233477e-01 -5.754603691096433771e-01 6.460884852241536302e-01
7.186310969487402778e-02 -4.742138052042815105e-02 -1.009531765613933540e+00 -4.121694059697739720e-01 9.056220799235733532e-01 9.982499254908382136e-02
-3.232297925921542858e-02 -1.363896009690174771e-01 -1.024394288791628860e+00 -5.013695632463791574e-01 6.106769723906557701e-01 -6.129455085420867366e-01
-7.451955087003855893e-02 -1.537719528901805299e-01 -1.008443751747699624e+00 -4.740884260206465473e-01 6.214189423885863039e-01 -6.237617031799217449e-01
-8.887471035455021817e-02 -1.466016085628806809e-01 -1.000692778673334171e+00 5.144926914473959556e-01 -5.800234166654447687e-01 6.315616411459443746e-01
-2.504402166316702441e-02 9.914297511595263068e-02 -6.799459453051761582e-01 4.201750213472457696e-01 -8.636695311183187895e-01 2.784383099605818312e-01
-4.774973232419007368e-02 3.023565371027759838e-02 -8.057851550565127141e-01 4.489009932223563260e-01 -7.806892113597247995e-01 4.347553950792480970e-01
2.012361010795235897e-02 5.326246364840050290e-02 -8.090979593364987510e-01 -4.823701049903334481e-01 7.899488887991571451e-01 -3.785496465413636380e-01
1.214758922730781593e-01 9.110041096191728860e-02 -8.514566077634042607e-01 -4.442094423203345466e-01 7.990290346562258783e-01 -4.052537145169644583e-01
-6.328801030048804288e-02 4.873188086997629238e-03 -8.180089725316264104e-01 -4.531869042508835932e-01 7.663048268913269512e-01 -4.554103008261382590e-01
7.811055868457261742e-02 8.121127921417359286e-02 -8.238025409978844138e-01 -4.356838328232168212e-01 8.140872118776134592e-01 -3.839812616180701688e-01
7.339172393031051511e-02 1.251292900332560409e-01 -7.368051393251054959e-01 4.128987998227700018e-01 -8.500938360360251744e-01 3.268869086373326072e-01
-9.491391714090456622e-02 -1.594132078433119215e-02 -8.213639618732216929e-01 -4.559263779257600180e-01 7.532109848957969644e-01 -4.741353711165207097e-01
-1.067229616951262394e-01 -1.711151020630742592e-02 -8.268199109052797313e-01 4.599473024066423332e-01 -7.521966721290274105e-01 4.718565941542715025e-01
-4.644947212447862045e-02 5.170341940703867406e-02 -7.663361963086265938e-01 4.278344090288185853e-01 -8.162892794909094585e-01 3.881102042451003986e-01
1.390632156066983760e-01 6.764417832440221268e-02 -9.213762431465780667e-01 -8.695031971425489781e-01 -2.614805520934888050e-01 4.190371236964214319e-01
-4.456592250882562140e-02 -1.849280125741200806e-02 -8.943543155829342117e-01 4.277883094285346299e-01 -7.803725399186530742e-01 4.560875587616775584e-01
-1.449449985640501315e-01 -5.767369507824818275e-02 -8.413258580128541997e-01 8.806913583974457227e-01 3.573926325182935626e-01 -3.108910379308251759e-01
-5.779597981513006494e-02 -6.454637646654935723e-02 -9.239724577992476373e-01 -4.712557686544070479e-01 6.942568927239486376e-01 -5.439902273159249457e-01
1.987443397032336891e-03 -3.024104164963751021e-02 -9.319680280700406438e-01 -4.705219438609279381e-01 7.089003558345016165e-01 -5.254230541602175064e-01
9.878411781776366696e-02 -8.247345701536176049e-03 -1.001645476525707013e+00 4.387104022535585068e-01 -6.956863572834844911e-01 5.688177873837605425e-01
-2.587538983747107377e-02 -8.667139830771009024e-02 -9.898713161952308326e-01 4.879412496621024498e-01 -6.497283276646597105e-01 5.828948765500264750e-01
6.034601760049103369e-02 3.718733007458957518e-02 -9.018922468093744094e-01 4.533529954429802444e-01 -7.522634831826967572e-01 4.780906957813692570e-01
-6.105639208485966890e-02 -1.011623896032608355e-01 -9.768901680113828423e-01 4.905533519716681057e-01 -6.388012635255014837e-01 5.926975236894309607e-01
4.702631600273750323e-02 7.600798696806998489e-02 -8.188375245412334857e-01 4.319295709730092692e-01 -8.140136179039858533e-01 3.883538020747781538e-01
1.295198693541502362e-02 -5.165666328093746623e-02 -9.691256040800040328e-01 -4.769483488941523852e-01 6.779973667116567793e-01 -5.593208767954233052e-01
8.793066310461562785e-02 1.049406282627571296e-01 -7.832167372066770605e-01 -4.237688309996679448e-01 8.309209796506981105e-01 -3.605416805994825502e-01
-6.643438719028507689e-02 -1.385644828229943282e-01 -1.010922540382286350e+00 4.983897571239966351e-01 -6.038363215198020439e-01 6.220846781647317858e-01
6.166837825222835218e-02 1.129893506633980749e-01 -7.317094966420848445e-01 -4.171130408449530425e-01 8.479613381304906827e-01 -3.270753432972656749e-01
-1.323851971445761354e-02 -5.032384397529633679e-02 -9.393160516924703440e-01 -5.125271099179976586e-01 6.832519631881681654e-01 -5.200795289170867530e-01
-3.333962828280696410e-03 4.602475853353069080e-02 -8.296611227780772424e-01 6.427729433822946259e-01 -1.619272086213310036e-01 7.487473020744483954e-01
1.161858432971983185e-01 1.070327950511908849e-01 -8.302226459509267631e-01 4.260177924376994940e-01 -8.180855370337843935e-01 3.863222678317337899e-01
-2.820614871279927480e-02 -1.173837330860657696e-01 -1.020413520818094000e+00 4.830187864842057643e-01 -6.157654091517813510e-01 6.225157128904172943e-01
-5.285509185477169775e-02 -1.101998649150121856e-01 -9.810471761103340960e-01 -4.902921701282953459e-01 6.362838755776756283e-01 -5.956143194977264743e-01
-1.625414846315197115e-03 -1.194493959997378410e-02 -8.994718088125943645e-01 -8.394380121542133200e-01 4.993383458951320963e-01 -2.144878552955762907e-01
-1.032185679522448080e-01 -9.763405141919509478e-02 -9.192755201393936204e-01 -5.215486226544810977e-01 5.795112233211580088e-01 -6.262218267132092508e-01
5.795728423865081219e-02 -8.154050290486933306e-02 -1.043120185370872033e+00 -7.006073799454783924e-01 6.824284484307755472e-01 -2.084243554345237004e-01
6.196151604303868493e-02 7.634841512149970200e-02 -8.339911286533773227e-01 4.409369324622720021e-01 -7.957874711188204220e-01 4.150866444503776287e-01
4.843742667145061603e-02 4.123247917283805880e-02 -8.674971883690275609e-01 -4.496025181420846284e-01 7.757829401395264224e-01 -4.427396587937075800e-01
8.661700003598327147e-02 5.662930250349267058e-02 -8.953356371151216520e-01 4.501940166831365775e-01 -7.698166269667162664e-01 4.524463594596510596e-01
1.046006740580883720e-01 1.458866277177748860e-01 -7.178076301238245360e-01 3.515750427679599777e-01 -8.954243437375639658e-01 2.731487395996183287e-01
2.722111407606721614e-02 -5.661892386068174271e-02 -9.874001185888066079e-01 -4.822142435328131693e-01 6.640196252969515767e-01 -5.714432260116247830e-01
-1.072143778447081502e-01 -1.377304130541014970e-01 -9.667623723512135392e-01 -4.542639733945317282e-01 6.574803096127055380e-01 -6.011354963295655329e-01
3.353554436982205539e-02 -5.642810993467708286e-02 -9.925068446868026140e-01 -4.822142435328131693e-01 6.640196252969515767e-01 -5.714432260116247830e-01
-2.054424688111960995e-02 7.952870421094986042e-02 -7.150779306211654252e-01 -4.124584858055443948e-01 8.435156768409903805e-01 -3.440338652087662763e-01
1.416595523540512824e-01 1.186216359563626449e-01 -8.171260542451427300e-01 -4.836915523029982067e-01 7.975335392131088774e-01 -3.605311859755387371e-01
-1.219118884046530432e-01 -3.492782240403948663e-02 -8.396284501178679083e-01 4.613403312472271200e-01 -7.387882851163501963e-01 4.912809466481894982e-01
-5.916292887388893001e-02 -2.928542055842919267e-01 -1.136361446189277480e+00 9.626214233980934232e-01 1.312826580166758517e-01 -2.369068570537898044e-01
4.491145339710345824e-02 9.232076304958927726e-02 -7.821150373346039686e-01 4.186455359573544310e-01 -8.323449819479780132e-01 3.632323584828308083e-01
4.124949909398802073e-02 5.532051815984229820e-02 -8.519485096171405258e-01 4.434750449641304271e-01 -7.801842356772558107e-01 4.411830038598027470e-01
-1.800188297163111918e-03 -5.942304327370651063e-02 -9.658530618272954671e-01 -4.791155685743954673e-01 6.743168078158410239e-01 -5.619120168199714938e-01
-5.739052415811300017e-02 3.670128784738822033e-03 -8.259020167415664915e-01 -4.531869042508835932e-01 7.663048268913269512e-01 -4.554103008261382590e-01
6.918344924894634373e-02 1.104582500001639461e-01 -7.686780691723574810e-01 4.224744926739245066e-01 -8.311709101595262661e-01 3.614833621959590015e-01
1.061957799415802206e-01 4.944935776085923607e-02 -9.262244590303702063e-01 4.466334321058902379e-01 -7.598114925123800045e-01 4.724458415219917051e-01
5.563496035490252817e-02 -1.212548898352488504e-02 -9.694399998670563123e-01 4.760510439566359442e-01 -6.991048785805502597e-01 5.335051755069216695e-01
-1.576966145038339803e-02 -3.016283303787372153e-02 -9.100519759443260748e-01 -4.435994731125470492e-01 7.384455586227955948e-01 -5.078559484780483801e-01
8.871848437035280421e-02 6.990978356430363472e-02 -8.741648681275815402e-01 4.495479051233348677e-01 -7.802030603090505112e-01 4.349596138535315459e-01
7.612613257420046409e-02 1.468286527498740834e-01 -6.748608995366748298e-01 3.674293035546316588e-01 -8.952746331738393737e-01 2.519504675224986112e-01
4.473152347190756384e-02 -9.382933983279513612e-02 -1.043996133876490262e+00 -5.082613222207151837e-01 6.402292170018960560e-01 -5.760008489851292657e-01
-5.599611659708764178e-02 -2.917610474941778609e-01 -1.128660419049709818e+00 7.120200789769814964e-01 3.517077995202741447e-01 -6.077244695503216665e-01
8.681404724496126490e-02 8.049026857217900233e-02 -8.348551688163352580e-01 -4.436140812047665305e-01 7.964269778445418613e-01 -4.109873671030055964e-01
1.271437247218039079e-01 1.026197830551148216e-01 -8.340651215775352068e-01 -4.402861777499271212e-01 8.125583257870919729e-01 -3.819647220312862856e-01
3.586574331761317042e-02 5.334677365791721387e-02 -8.311381094466050445e-01 -1.080503680715248355e-01 -3.527835215322479012e-01 -9.294454824759298406e-01
-1.221203776607851232e-01 -2.195607588676589186e-02 -8.054696347710270654e-01 -4.316998543124665466e-01 7.632259983604005038e-01 -4.807507786924166138e-01
1.457564160357304461e-01 1.112118188285501907e-01 -8.396312929204200470e-01 -6.434059644427688740e-01 6.862720199670780952e-01 -3.392041856017948276e-01
7.226765271045815231e-02 -2.528095682282735859e-02 -1.000780707266059943e+00 4.725219166846086893e-01 -6.882926180049737663e-01 5.504328390026917983e-01
2.456758509090480741e-02 5.242368986157564664e-02 -8.425199812915910025e-01 1.024765913881115487e-01 3.555658342904396418e-01 9.290164076607138055e-01
1.329108928512067189e-01 7.125142965070119239e-02 -9.015016380744781399e-01 -4.625080530110194932e-01 7.701234572984310134e-01 -4.393132839087247055e-01
-5.225109066939297164e-02 -1.933236913784676034e-02 -8.816465024503886694e-01 4.669762840260236469e-01 -7.300047771960150866e-01 4.990252252424149382e-01
1.057135996475413869e-01 1.406465608797122513e-01 -7.150497514151908929e-01 -4.669413212263214263e-01 8.202002295161583412e-01 -3.305107956376896472e-01
1.723214684257466048e-03 -2.621771436568049937e-02 -9.263031385543879503e-01 -4.705219438609279381e-01 7.089003558345016165e-01 -5.254230541602175064e-01
2.451045823248441252e-02 -5.404771596266602640e-02 -9.988597392980297363e-01 4.111993309314657674e-01 -9.080903983327717199e-01 -7.929021816934828104e-02
-1.342950206646194022e-01 -8.071753164834323535e-02 -8.904857441530635853e-01 4.890695217353652757e-01 -6.865750291782777293e-01 5.379830222399106798e-01
2.368644602263083199e-03 8.818692010710062201e-02 -7.270628620897378047e-01 -5.125288424045265634e-01 -4.551353325397540783e-01 -7.281249994179596063e-01
-6.142114736982124540e-02 -4.262482313618195379e-02 -8.919071926942242490e-01 -4.683968295875431398e-01 7.131669596825948032e-01 -5.215336016494264149e-01
-1.593276216237442255e-02 5.000742526230585183e-02 -8.021445102081705691e-01 4.392633299661812818e-01 -7.945808052880187766e-01 4.191528012728359398e-01
-4.661813009611873691e-03 -8.555740590804654377e-03 -8.953875965316994145e-01 -4.588192658684610570e-01 7.384033584152823737e-01 -4.942118589724031619e-01
6.546946759671981586e-02 3.167123527805974781e-02 -9.002937926106796551e-01 -4.561999248121703654e-01 7.513216780882696622e-01 -4.768619974751571178e-01
-7.643145540830892370e-02 -1.359078742580587806e-01 -1.000373785120075798e+00 4.914810123271419751e-01 -6.066908062931481993e-01 6.247981114578193829e-01
1.778425851078681286e-02 -6.910208192267078275e-02 -1.000942138808444293e+00 -3.594915590210504344e-03 5.081021236209350977e-01 8.612893291767843573e-01
5.126940943604149648e-02 1.265467295519168839e-02 -9.163609741837153155e-01 -4.626958782613377896e-01 7.330709573057188067e-01 -4.985172973878105318e-01
2.385662987735850948e-02 -4.214985022291127537e-02 -9.800266034667308723e-01 4.775027051461337435e-01 -6.794503800899085455e-01 5.570801985116714539e-01
-3.154682131007598839e-02 -1.606274942510587389e-01 -1.048607360067862260e+00 -5.060446160891733935e-01 6.321674877966051431e-01 -5.867564349030099935e-01
9.655364721536126293e-02 1.382382447992441254e-01 -7.305693993388766572e-01 4.025561416349663912e-01 -8.625765469729120838e-01 3.064477988895606964e-01
-5.237568068241973962e-02 -7.277613237887162190e-02 -9.517782204775018240e-01 4.808192808603153345e-01 -6.745751192920755868e-01 5.601439347034393723e-01
-1.194630756695883034e-01 -2.828368090394773465e-02 -8.226533725995153201e-01 -5.164113218381147785e-01 -5.176699849519937890e-01 -6.821562382308128392e-01
6.537528447444994339e-02 -1.791925481597843621e-03 -9.502762078868244311e-01 -4.745203941002830161e-01 7.160328573551382192e-01 -5.119837329161429640e-01
-1.006481197796503663e-01 -7.590229852433760804e-02 -9.010835282501148402e-01 -4.740760091486108108e-01 6.902341083925450649e-01 -5.466523695743712441e-01
1.249114686655736078e-01 3.094254456733826902e-02 -9.674327013297693290e-01 -8.398243877420852321e-01 -1.858540400938821779e-01 5.100522262812047236e-01
2.495050708580254240e-02 -9.211087033800621771e-03 -9.238226051656736049e-01 -4.680823392576992092e-01 7.263993652479165952e-01 -5.032324371922624051e-01
8.723085305717498406e-03 -1.067348478331494321e-01 -1.039055048084061017e+00 4.889918876798799996e-01 -6.123282562277350127e-01 6.212415314580708170e-01
-1.092451563328950132e-01 -1.351149654624900498e-01 -9.731146177024623256e-01 5.019158080793084675e-01 -6.103144073694592997e-01 6.128595644659229347e-01
8.586180387324816865e-02 -2.779275110998176250e-03 -9.704834211693421642e-01 -4.752337712080558774e-01 7.067335031495399766e-01 -5.240998170476197648e-01
-3.962658259052071613e-02 5.846139365037647528e-02 -7.596437801189140915e-01 4.278344090288185853e-01 -8.162892794909094585e-01 3.881102042451003986e-01
7.596147423965296519e-02 2.365763596820710801e-02 -9.376142966416390889e-01 4.573637594140946838e-01 -7.398514242683910114e-01 4.933946306787694858e-01
5.938451116645627331e-02 1.421137926178009381e-01 -6.809289673438622126e-01 3.400485046730918337e-01 -8.956956738770702753e-01 2.865244741160785091e-01
7.529616787194329253e-02 -4.785472976035590881e-02 -1.018493517222641920e+00 -5.005264176739278037e-01 6.607181699774336003e-01 -5.593968225438682440e-01
-6.995973383477342711e-02 2.047110234185483754e-02 -8.005140547013432917e-01 4.424605141001087816e-01 -7.822241523222072113e-01 4.385818840149144915e-01
-9.169491476618671366e-02 -7.726334836027397290e-02 -9.234971151391121458e-01 4.747264486642673309e-01 -6.852530552555495813e-01 5.523251299746803067e-01
9.471071362781968705e-02 7.032154242403954036e-02 -8.629432650260195903e-01 -4.452344277644485482e-01 7.854314560691345593e-01 -4.299578260136487917e-01
1.689484759848051965e-02 5.939739932300869968e-02 -8.011674504471090197e-01 -4.419680644897459043e-01 8.095064109689759091e-01 -3.864758732072616776e-01
-1.326301439617458278e-01 -2.824285984147920786e-02 -8.060984908039966479e-01 -4.240460202531241563e-01 7.552238071878629722e-01 -4.998219420595265694e-01
-8.844925686888008287e-03 8.245223822700217808e-02 -7.421296015157382575e-01 4.179856000376105940e-01 -8.331132834345926774e-01 3.622296165777046939e-01
7.377584138265572133e-03 9.305113451313230810e-02 -7.465052033774316476e-01 4.742758616367637736e-01 -7.691419447619448624e-01 4.283492452153019880e-01
4.022543748065160463e-02 6.410029317079612987e-02 -8.344881039759212138e-01 4.415701263502734286e-01 -7.939229824400074742e-01 4.179738286885521514e-01
-1.786648511284088386e-02 4.645891463147366895e-02 -7.893277638426869913e-01 -4.422923328487027295e-01 7.957251766957125216e-01 -4.137619309165955217e-01
9.937901817542886540e-03 9.131167884841237536e-02 -7.500011861662650992e-01 6.361526982625407278e-01 -2.313883910493128582e-01 7.360496973580650248e-01
9.366714825009688980e-03 2.670284860372333299e-02 -8.628521139301414955e-01 -7.269780971403245751e-01 -4.243567809083524933e-01 5.398371687604820446e-01
-1.038357669131451388e-01 -1.206650457181451808e-01 -9.627209535130228923e-01 4.909831347093838727e-01 -6.317333911686063841e-01 5.998737233064637131e-01
9.441488429478858344e-03 -1.271108548549549355e-01 -1.048933306310904534e+00 -5.067374347413905467e-01 6.121085134103156911e-01 -6.070752342521710254e-01
7.899343605822566061e-02 1.419154075424192418e-01 -6.740022553604928524e-01 -5.174054525405515914e-01 7.705817366853988659e-01 -3.721496805966945653e-01
-5.860846319666133952e-02 -1.949755816510928552e-02 -8.796527286150230829e-01 5.819770365463276113e-02 -9.980619696791440676e-01 -2.203025123586746861e-02
4.718243265468884812e-02 4.861166972008813814e-02 -8.532267679694121032e-01 -4.434648809941197367e-01 7.802659680412090681e-01 -4.410486576802910008e-01
9.008365296692955049e-02 1.336926988467834476e-01 -7.127385680825925052e-01 -4.118303627230784358e-01 8.586928210750760515e-01 -3.050285091159599116e-01
7.877044833059558548e-02 6.847108032864397675e-02 -8.541391087049212683e-01 -3.818833165653383321e-02 6.093911688391396853e-01 7.919495278527272086e-01
2.224909645315291049e-02 8.863337803536240622e-02 -7.739099225694300310e-01 4.836202377497759164e-01 -8.056060476838784457e-01 3.422139120112022148e-01
1.144656758038732070e-01 8.773278128425207600e-02 -8.504123965871780433e-01 -4.442094423203345466e-01 7.990290346562258783e-01 -4.052537145169644583e-01
9.980739397699103788e-02 2.810398992795492754e-02 -9.532381843143068467e-01 4.619734543811445104e-01 -7.386077391149920013e-01 4.909573659357729936e-01
1.879779455091119822e-02 -1.091231274270849372e-01 -1.049197465673846308e+00 4.761415803892605214e-01 -6.015866445659887596e-01 6.413912257774129211e-01
-1.152825835746301014e-01 -1.373082815989636572e-02 -8.129746340363517287e-01 4.637662426574590269e-01 -7.549257755461188379e-01 4.636894926429473429e-01
4.132515360276833166e-02 6.198313140891316408e-02 -8.356226446964067911e-01 3.665536905431299869e-02 -6.100865582477861260e-01 -7.914864341003341464e-01
1.055500122477271742e-02 6.888266198817175057e-02 -7.746237762273620042e-01 -4.315247568799994160e-01 8.134185154075410651e-01 -3.900470522794006190e-01
2.168568150483234092e-02 7.723540359528072163e-02 -7.694581971726129899e-01 -4.186865921202662655e-01 8.326363788827796375e-01 -3.625164798180768311e-01
-1.255738527186965603e-01 -1.233932548869768608e-01 -9.370463011361369610e-01 -3.936675874472342906e-01 7.039700764391098042e-01 -5.911446202679914164e-01
1.409141654544773525e-01 1.129072645407948744e-01 -8.442621831649758102e-01 3.905506579353069108e-01 -8.348932087799697532e-01 3.878447028378556594e-01
-6.460395230722226767e-03 -7.381686825079845915e-02 -9.835446944954311377e-01 -7.937258762167989645e-02 -5.101729374531503991e-01 -8.564015216151023013e-01
-1.896924887406196622e-02 -1.050349864140296824e-01 -1.003131699601171878e+00 -4.907615327946031059e-01 6.336467000801853100e-01 -5.980342610641831147e-01
1.243933666776462915e-01 1.363905926691741932e-01 -7.706279970680318669e-01 3.891071936856991820e-01 -8.645037938195926364e-01 3.181647093779748636e-01
7.723867977170552346e-02 4.174562290853690849e-02 -8.952390378919564684e-01 -4.574844615424304428e-01 7.648661816692919890e-01 -4.535280493926149292e-01
-2.056855765210399700e-02 -9.197385299854171636e-02 -9.876906402028312604e-01 -4.880257798978483441e-01 6.511094091345407397e-01 -5.812808060581099445e-01
-7.066210024803791252e-04 7.902497738228214663e-02 -7.314951134815634859e-01 6.003526959486378718e-03 9.781810302541692481e-01 2.076675942821568366e-01
-7.584948000683407188e-02 2.645792971825892265e-02 -7.583535123561698787e-01 -3.744232629954421521e-01 8.654570132120262826e-01 -3.328533887614253395e-01
9.149533481281629799e-02 1.408745022753966070e-01 -7.160422469027400982e-01 3.865557898964923078e-01 -8.764003347030275837e-01 2.872230398660942652e-01
7.779572114356092527e-02 4.377912495769299001e-02 -8.923714772693306374e-01 -4.574844615424304428e-01 7.648661816692919890e-01 -4.535280493926149292e-01
4.053774297248720349e-02 -3.608733579609820635e-02 -9.737338729496829437e-01 -4.748455810600432092e-01 6.856272957093048070e-01 -5.517579954346791826e-01
4.386698191596345026e-02 1.001653861145541113e-01 -7.627893899585871385e-01 4.231861408426700333e-01 -8.319653573944773006e-01 3.588135090742371469e-01
-7.867867430189352806e-02 3.779571018376532560e-02 -7.674855790541051936e-01 4.856787770496900913e-01 -7.437782897339995092e-01 4.592493671676469713e-01
8.620899337336464241e-02 1.049777224185719088e-01 -7.724607290520451031e-01 -4.042279850646499639e-01 8.785956248124273671e-01 -2.543019153506980157e-01
1.101939134038266987e-01 7.664040422311392542e-02 -8.674887903220490637e-01 -4.475579708248801358e-01 7.867021495830798239e-01 -4.251959437629636018e-01
3.310130328281489509e-02 -2.639817900103478762e-03 -9.363407656340290153e-01 4.688965529662337262e-01 -7.134597543860845548e-01 5.206833985136573029e-01
5.256012171350176593e-02 -3.841178313194563293e-02 -9.870929364988622057e-01 -4.826125963185984302e-01 6.841736155502479155e-01 -5.468011939082825235e-01
-1.375969511743885265e-02 -9.441581994736845951e-03 -9.028690473909165570e-01 4.655769780723643114e-01 -7.231652124633732859e-01 5.101667893658010655e-01
-7.858247493791196969e-02 -7.799571586891507202e-02 -9.227377233755196251e-01 -4.730849463554278600e-01 6.795355438794222769e-01 -5.607335179355518173e-01
-1.315130629101821380e-01 -4.091225234975326419e-02 -8.391199762087393488e-01 4.838754713428499721e-01 -7.229888357211740058e-01 4.931041184732451454e-01
3.169309732889881437e-02 -9.382400844327271018e-04 -9.207805441738080576e-01 -2.485411225369007354e-02 -4.148924960040043519e-01 -9.095309174863974722e-01
-4.766534474023133988e-02 -3.083383698605168810e-01 -1.155250132196081303e+00 -3.312423371841225015e-03 -4.996176004725302877e-01 8.662397365334130184e-01
2.572385277006237776e-04 1.936942291449050141e-02 -8.566144274580569373e-01 -4.573402753280312871e-01 7.548352337590625849e-01 -4.701740554717818155e-01
-2.246232041145385799e-02 7.465017892060699101e-02 -7.442281560043538802e-01 4.231604475135373744e-01 -8.310033140321340106e-01 3.610660988347603739e-01
-5.009443423102167420e-02 -1.861320348986628403e-01 -1.070781823121596865e+00 5.336512717958326046e-01 -5.641847447846161101e-01 6.300094395030982897e-01
1.106655908572582864e-01 1.319068986515821718e-01 -7.446348716449748828e-01 -4.200193266650490420e-01 8.496749019450646756e-01 -3.188045266812934986e-01
-6.517369268073368478e-03 5.896725263772869402e-02 -7.950540287743942391e-01 4.419219371411237107e-01 -7.938761160131095895e-01 4.176909310691056532e-01
3.140444765657753740e-02 -7.553970304497904797e-02 -1.012557730514023424e+00 -4.838200451386631684e-01 6.483308992205248922e-01 -5.878649581646516742e-01
8.455951352005194877e-02 7.574382086302056116e-02 -8.416288327248210299e-01 -4.403596316031714863e-01 7.975658052889457172e-01 -4.122768257956232474e-01
-1.309771767263444020e-01 -2.283191312723111682e-02 -8.119913878050574185e-01 4.735644268563300452e-01 -7.399275771402499258e-01 4.777487982230778640e-01
5.329214059318781310e-03 1.701316037695449479e-02 -8.808748603029499247e-01 4.615214840849758415e-01 -7.536979233127539812e-01 4.679074268720722074e-01
-1.348702276242492726e-01 -5.106766619283460013e-02 -8.506314108427380782e-01 4.753912008368815223e-01 -7.219514992835102118e-01 5.027815020952537406e-01
-8.694702628886999407e-02 1.054054982917752674e-02 -8.008236455549344601e-01 4.510457532852804596e-01 -7.695737395574756556e-01 4.520110483459855444e-01
4.566246403638767049e-02 -4.832627746637683380e-02 -9.990195533769182790e-01 -1.636721152173056457e-02 -4.883996100026203879e-01 -8.724665812145994126e-01
-1.656155941713985738e-02 8.275102357389706176e-02 -7.119093758041082909e-01 -4.084528286784596118e-01 8.455538756607369200e-01 -3.438094386425015747e-01
9.342222812406118793e-02 8.707314686994758676e-03 -9.614983825635157189e-01 -4.758955319784953786e-01 7.202025891433068150e-01 -5.048085510707819301e-01
7.839727751130548539e-02 -2.516893410734807185e-02 -9.932390970814746201e-01 -4.849781293527297144e-01 6.881548776541193124e-01 -5.396657098708155242e-01
-1.165331513829204607e-01 -1.320583178027469155e-02 -7.965257682516858617e-01 -4.375085339813043483e-01 7.646776819815870319e-01 -4.731324607050301223e-01
8.727334896777511411e-04 -3.737677159494150886e-02 -9.540666717462999991e-01 4.758227064824304686e-01 -6.911985450901282357e-01 5.439092969062256921e-01
2.235989149423219663e-02 4.360737075742894000e-04 -9.224988950995597348e-01 1.276070727528340054e-01 -6.571316739482313540e-01 -7.428959537360858567e-01
2.310225262964377656e-03 -6.841008470927459340e-02 -9.928532801765083127e-01 4.854152767901526166e-01 -6.549965667767726485e-01 5.790954209535597030e-01
4.396104422928590744e-02 7.522324927035958786e-02 -8.170731685700980407e-01 4.319295709730092692e-01 -8.140136179039858533e-01 3.883538020747781538e-01
4.970715372663853104e-02 8.243394729344423466e-02 -8.083499585555955491e-01 4.319295709730092692e-01 -8.140136179039858533e-01 3.883538020747781538e-01
-6.904106253584843533e-02 4.144473336047944934e-02 -7.620762756402232885e-01 4.415589584577279680e-01 -8.014899449820134247e-01 4.032859460710919164e-01
-3.270139222256700923e-02 -1.541432269348593787e-01 -1.034534020062509052e+00 -5.528391546267784618e-01 5.581653694507657804e-01 -6.187247283384099683e-01
2.530450393557038408e-02 -8.707146302020415951e-02 -1.020249611597610073e+00 -4.913988491743822018e-01 6.409554340966503450e-01 -5.896637198709678840e-01
2.014192784212871443e-02 4.284689445180201589e-02 -8.288794071166168953e-01 -4.416869132066132408e-01 7.532678095948793784e-01 -4.873400021854827346e-01
9.072115118906134978e-02 1.314428573375062137e-01 -7.419397527670333892e-01 4.004743476851676531e-01 -8.619789585792999587e-01 3.108256292725635195e-01
-1.117814672353900501e-01 -1.226961823859091666e-01 -9.582946529066367347e-01 4.958597853969069491e-01 -6.289414237414816533e-01 5.987952561002564122e-01
-8.599338874776341068e-02 -1.128528353276784940e-01 -9.567951817695067307e-01 -4.860733748829537682e-01 6.476883233087021852e-01 -5.867133116603523435e-01
2.635889050403473002e-02 -7.759481982955487855e-02 -1.010671674948120602e+00 -4.838200451386631684e-01 6.483308992205248922e-01 -5.878649581646516742e-01
1.383033750412381302e-01 1.140740152667691215e-01 -8.226698141777618600e-01 -4.987576326476926836e-01 7.903525343902390032e-01 -3.557860245408682176e-01
1.299244050115860583e-01 9.217471311956848545e-02 -8.587066444814753785e-01 -4.504507865758480833e-01 7.971060672260984470e-01 -4.021392873924937161e-01
4.655603631231861050e-02 -2.455814958640742743e-02 -9.776373655928575213e-01 4.698669628645222307e-01 -7.004756732235151162e-01 5.371767571577659162e-01
-1.236710397009930934e-01 -6.615759316295399817e-02 -8.683758828344619873e-01 -4.665395306872973102e-01 7.092128160616374410e-01 -5.285433263602885567e-01
5.408534752132808376e-02 8.308493839622853316e-02 -8.118548959021704148e-01 4.319295709730092692e-01 -8.140136179039858533e-01 3.883538020747781538e-01
-1.419114895427765199e-01 -6.830416590735290117e-02 -8.675306220509283461e-01 5.076443842625151248e-01 -6.956846524108918350e-01 5.082519488665718788e-01
-6.184489917051711610e-02 3.834330389351386925e-02 -7.832546792762004051e-01 6.269390958747677045e-01 -1.783231627991798685e-01 7.583852712658826212e-01
8.431436988163219792e-02 1.297226987527076436e-01 -7.161127217452607496e-01 -4.116679157705638858e-01 8.577457131077239616e-01 -3.078990398985387289e-01
-2.336451250462142845e-02 3.466010626494343133e-02 -8.089074568794935027e-01 3.601530760273667919e-01 7.248140362543032955e-01 5.873111395817138813e-01
-1.007290596383090264e-01 -8.463479081614723454e-02 -9.119625715252782650e-01 -4.706263638404593053e-01 6.875916968512538752e-01 -5.529271960028020461e-01
1.137411663966571423e-01 1.151325630998102784e-01 -7.903205926527550051e-01 -4.348791629213851206e-01 8.264014993788916241e-01 -3.576879582556773962e-01
7.824877110506285594e-02 1.030528566267752133e-01 -7.743924370796466672e-01 -1.236124349280197550e-02 5.711080088889475270e-01 8.207818479000454914e-01
5.173028470502355480e-02 1.571815892113263488e-02 -9.268291783236526360e-01 4.614579339180693296e-01 -7.346067435378570432e-01 4.974027619271652045e-01
-2.785752150087992748e-02 5.879558486212543844e-02 -7.531909483861097820e-01 -4.301851432885221427e-01 8.143177288796507041e-01 -3.896503290465974656e-01
5.902995618551906687e-02 1.892179284570459641e-02 -9.341848953080963414e-01 3.794279474187093326e-01 -9.048950562349568072e-01 -1.928713818044546779e-01
-2.052037310536551987e-02 -5.199374372081250889e-02 -9.537600970094688435e-01 4.676066114541412300e-01 -6.911569448559903295e-01 5.510409553760131640e-01
-6.591378657931735996e-02 -1.478125739317812104e-01 -1.020065121877921754e+00 5.028113227623561832e-01 -5.818447404008748602e-01 6.392475825294985370e-01
-6.808314696117935549e-02 -1.404882998662299043e-01 -1.000158741636745896e+00 -4.916817411714263786e-01 6.152537731730303161e-01 -6.162076435707235511e-01
6.069235536384635227e-02 8.029595431591483867e-02 -8.250491354253883802e-01 4.319295709730092692e-01 -8.140136179039858533e-01 3.883538020747781538e-01
1.104959193679502273e-02 -7.150160531823125665e-02 -9.869027957273708296e-01 -3.174935303109133744e-01 9.999189585507026190e-02 -9.429737424626530862e-01
6.300761817662170472e-02 8.584212030291574203e-02 -7.972504815092086305e-01 -4.297510545919859815e-01 8.145382369461293681e-01 -3.896684380723785535e-01
