3.234161358263056962e-03 -1.164617520704655934e-01 -9.591735175133698776e-01 -9.363035419075064203e-01 1.662799157541321182e-01 -3.093326155261635346e-01
4.056920299935165564e-03 -7.350555163510262557e-02 -9.545877376534828151e-01 9.363035419075064203e-01 -1.662799157541321182e-01 3.093326155261635346e-01
1.444946835865800090e-02 -1.660312103724631005e-01 -1.020672641226015864e+00 -9.417381854712256750e-01 1.764682587835987859e-01 -2.863357184621723173e-01
2.800242825966547250e-02 -4.959117802887645643e-02 -1.013760058600806646e+00 9.287476900865274665e-01 -1.743826948782410402e-01 3.271366746268932202e-01
2.985045094554206885e-02 1.644605455162961860e-01 -8.898479952641221713e-01 -9.407653419051339450e-01 1.580101206356489540e-01 -2.999889552080611810e-01
2.036450565279538175e-02 -1.364147548105090757e-01 -1.022321069151557404e+00 -9.411641412319787792e-01 1.682724870104909953e-01 -2.930775142763022978e-01
1.675381979202041072e-02 -3.849085850242076751e-03 -9.395612287648298366e-01 -9.363035419075064203e-01 1.662799157541321182e-01 -3.093326155261635346e-01
-6.807663653535794314e-03 2.138865705747329815e-01 -7.791969643669259815e-01 9.527940776776051557e-01 -1.492215714534836646e-01 2.644170345409587730e-01
-2.005449763020546519e-02 -4.999063696779258194e-03 -8.451398659871375285e-01 9.367106878995352659e-01 -1.628297918889901885e-01 3.099347448224668566e-01
2.429454674770321898e-02 -1.071152640465216216e-01 -1.018239192402696114e+00 -9.393722960066043237e-01 1.639503751808210341e-01 -3.011643471152404272e-01
3.596729055917265508e-03 -3.603707291095540888e-01 -1.085093486897784176e+00 -9.070092605858567358e-01 2.048729826620193373e-01 -3.679147485310497179e-01
2.036296963719058661e-02 7.969730352234535853e-02 -9.223074695781765531e-01 9.359412283855385040e-01 -1.639357494399610315e-01 3.116714408856351426e-01
-1.148089544012263763e-02 -8.411507900926540326e-02 -9.132601829395696758e-01 9.363035419075064203e-01 -1.662799157541321182e-01 3.093326155261635346e-01
1.125779800822603038e-02 -1.148649326377971930e-01 -9.826015042495038765e-01 -9.363035419075064203e-01 1.662799157541321182e-01 -3.093326155261635346e-01
-1.560771657850564161e-02 -1.464436666887806993e-01 -9.183149020257350692e-01 -9.340426049753784987e-01 1.702379125332602328e-01 -3.139800395361578844e-01
3.243527591738716576e-02 2.256710252980511852e-02 -9.732986423127554243e-01 -9.383621675198405843e-01 1.638064039725922183e-01 -3.043746122544303545e-01
-1.392427135147895033e-02 7.241667538634108392e-02 -8.059981717955945202e-01 -9.363035419075064203e-01 1.662799157541321182e-01 -3.093326155261635346e-01
1.012840828370398065e-02 2.207007195639186237e-01 -8.010974030160333825e-01 -9.388598202582553176e-01 1.532339346874278252e-01 -3.083206109958364083e-01
-3.411400445883705501e-02 -1.973521080227173125e-02 -7.954592202509577215e-01 -9.164550186009678967e-01 1.901195002210888663e-01 -3.520863168553745037e-01
8.911946773360227003e-03 -1.142400826970725765e-02 -9.436700355158355036e-01 9.414618737955812167e-01 -2.062838861378099298e-01 2.666392666303980530e-01
-2.923360525763734480e-02 -5.979093404769150744e-02 -8.464197021692346778e-01 9.383893574963317885e-01 -1.632825004658871315e-01 3.045722225995490806e-01
3.522260315623845783e-02 7.545487664776160362e-03 -9.901444986522965896e-01 -9.429133202159202254e-01 1.587813908678208652e-01 -2.927506455560262566e-01
2.327261928408348376e-02 -4.418494376086716698e-03 -9.525983391127597066e-01 -9.451101272697346456e-01 2.252833712388299658e-01 -2.366732979773037426e-01
-3.719139070077460973e-03 -1.542517256232334988e-01 -9.828504704792120350e-01 9.032234629948132643e-01 -2.072191844858885801e-01 3.758291972115266888e-01
1.700218216368126062e-02 1.945957826599319929e-01 -8.518464311938165334e-01 9.345952780430160090e-01 -1.648359275548243463e-01 3.152154552791446296e-01
-2.506410205585909989e-02 -1.623901791432713904e-01 -9.140783620539040255e-01 9.396354277243358366e-01 -1.592046962222835593e-01 3.028846771728062603e-01
1.500598591126173220e-02 1.557737725237897664e-01 -8.489982773066988564e-01 -9.364336779376899456e-01 1.637670106858513663e-01 -3.102778320072372975e-01
1.098907235372560687e-02 -1.739744989839388939e-03 -9.209783371565055665e-01 -9.363035419075064203e-01 1.662799157541321182e-01 -3.093326155261635346e-01
2.813642728618419991e-02 2.616657344953701378e-02 -9.737302136741740055e-01 9.358413582528442021e-01 -1.636672433712220709e-01 3.121121363079894517e-01
-5.921771173974066209e-03 1.943824646029719827e-01 -7.832183425153214085e-01 9.360537504218386928e-01 -1.637243984354375403e-01 3.114445338710641331e-01
3.306130027493912188e-02 8.612142590929809660e-02 -9.410599377321720027e-01 -9.382879832230005546e-01 1.635197863948228969e-01 -3.047571820264551312e-01
-5.723891243249637495e-03 -2.066307304676169299e-01 -9.967886838545515493e-01 9.400988571659869564e-01 -1.473523634646484171e-01 3.074108321718472259e-01
8.850461769350672150e-03 4.557030255924174322e-02 -9.056871397048058547e-01 9.359573220557126927e-01 -1.640812175790325178e-01 3.115465379812157320e-01
-1.420530583118595827e-02 1.335761567924852733e-01 -7.728214373838682150e-01 -9.359505204563821623e-01 1.608658496962900031e-01 -3.132392083678514072e-01
-6.674961827473737189e-03 2.074949336082221318e-01 -7.832822065607474293e-01 9.527940776776051557e-01 -1.492215714534836646e-01 2.644170345409587730e-01
3.074948484337219554e-02 6.702652301561969755e-03 -9.766434163139965374e-01 -9.383893574963317885e-01 1.639628884131301978e-01 -3.042064840874453280e-01
1.425943534958093624e-02 -3.640795527987882664e-05 -9.540950233113349999e-01 9.182670305249146514e-01 -1.091603012208828688e-01 3.806175104856869829e-01
2.069073703604054279e-02 -1.486871213301583783e-01 -1.030989738071064643e+00 -9.633997055713536817e-01 1.832718726932142106e-01 -1.956334020165046705e-01
1.846586304902774617e-02 -1.327551638417563407e-01 -1.029821133871137606e+00 9.308416337788679717e-01 -1.697775652489621201e-01 3.235883668521206680e-01
-7.674306035653875348e-03 5.207440930889591785e-03 -8.607526647104410955e-01 -9.363035419075064203e-01 1.662799157541321182e-01 -3.093326155261635346e-01
7.869710473333350192e-03 -1.216124232803691280e-01 -9.686947709543519691e-01 -9.363035419075064203e-01 1.662799157541321182e-01 -3.093326155261635346e-01
3.751846485274256543e-02 3.539933857985364668e-02 -9.824342289848673193e-01 -9.426395619076263221e-01 1.586908488151497765e-01 -2.936798781478320852e-01
3.492170192100175347e-02 3.288411285437945614e-02 -9.898286800639471972e-01 9.229778719252891284e-01 -1.809640572796401281e-01 3.396525546925209804e-01
3.092840025305850209e-03 5.268550761856886228e-02 -8.607520352056737822e-01 -9.410880303000552782e-01 1.070780617456420780e-01 -3.207609825380244306e-01
-1.121508678768221370e-02 2.046338669824687706e-01 -7.613041237090725222e-01 9.444363687078660696e-01 -1.744746165911782998e-01 2.785651694438148751e-01
5.882015012028418179e-03 2.071770975141694060e-01 -8.121276650729795099e-01 9.369484572199981987e-01 -1.623945053538494998e-01 3.094440387920633362e-01
-1.847115459697557319e-02 1.508738144000069392e-01 -7.515045393136653429e-01 -9.321460047218560474e-01 1.604576949515341411e-01 -3.245876676830498075e-01
-2.526583306181295809e-03 -1.579193906443600304e-01 -9.805578131014635046e-01 9.361100346847622822e-01 -1.694816373287267308e-01 3.081784833028862747e-01
-2.124564883012809713e-02 6.015696248447102018e-02 -8.072663475630373897e-01 9.364933831244591778e-01 -1.634156712987271942e-01 3.102828737428017791e-01
-1.428053061729427087e-02 -1.420374356702444607e-01 -9.199072228901946646e-01 -9.363035419075064203e-01 1.662799157541321182e-01 -3.093326155261635346e-01
3.894159843749275818e-02 1.173647333395252124e-01 -9.442987341390315370e-01 -9.847235457106078282e-01 7.007506268292787444e-02 -1.594020831517338199e-01
1.965596630760060512e-03 2.526713017856402690e-02 -8.956916552547660171e-01 9.359019849286631665e-01 -1.639231350337113924e-01 3.117958954305017349e-01
3.053832475080365400e-02 1.184336070108958777e-01 -9.162674093484466376e-01 -9.383863556109118820e-01 1.630589102590739303e-01 -3.047012297126396874e-01
-1.983299433396288908e-03 -1.279800924857810163e-01 -9.424544733675974673e-01 -9.408154955158747335e-01 1.358616431317629103e-01 -3.104960826206293878e-01
2.257793040707711460e-02 6.627701216168224718e-02 -9.195421254144979795e-01 -9.376720364408843711e-01 1.616008274553095425e-01 -3.076626799638922938e-01
2.045884658204406847e-02 4.485153539473477752e-02 -9.245970599087469655e-01 -9.363035419075064203e-01 1.662799157541321182e-01 -3.093326155261635346e-01
3.672118854402810911e-02 4.045728265971506275e-03 -1.005378969041433868e+00 -3.484804552436083225e-01 -3.306534456223895191e-01 8.770573933393692734e-01
-1.287370881950004008e-02 -1.399282810556572720e-01 -9.393375444237255234e-01 9.363035419075064203e-01 -1.662799157541321182e-01 3.093326155261635346e-01
1.464458761577303557e-02 7.290675525923263900e-02 -8.846571174345855271e-01 -9.402962154218421631e-01 2.100614028331366234e-01 -2.678007361885609283e-01
-4.870938541434283696e-03 9.712177360336055054e-02 -8.201211763111633246e-01 -9.363035419075064203e-01 1.662799157541321182e-01 -3.093326155261635346e-01
1.437176441619004985e-02 2.459121437739180543e-02 -9.170631885906784797e-01 -9.363035419075064203e-01 1.662799157541321182e-01 -3.093326155261635346e-01
3.359632567575054213e-02 4.000629260600820081e-02 -9.772716633586174817e-01 1.855358751407820694e-01 -8.482593357111758436e-01 -4.960166715087092615e-01
6.348371068942785730e-03 7.192231377428276451e-02 -8.842864420785268020e-01 9.360398174424758855e-01 -1.642296551556558515e-01 3.112203086717043599e-01
3.008264784863678466e-03 1.191828369104273727e-01 -8.495262320760383901e-01 9.362096348311514937e-01 -1.620369629143605661e-01 3.118582086442687751e-01
5.895233132963199202e-03 1.637229515245281972e-02 -9.121637061301394178e-01 9.358932465250250354e-01 -1.639060974775584378e-01 3.118310797828304226e-01
1.191018206176773855e-02 -1.322289675454391654e-02 -9.460233224256501261e-01 9.358371904127359420e-01 -1.636896905964958793e-01 3.121128613704025612e-01
1.092793683008390403e-03 -1.319909823983593244e-01 -9.540104029874598712e-01 -9.202294778449860990e-01 2.488953751360622468e-01 -3.020410573763497308e-01
-6.467450755212903087e-03 -1.738997678194808272e-01 -9.772806434827514543e-01 9.363035419075064203e-01 -1.662799157541321182e-01 3.093326155261635346e-01
3.054507120693870231e-02 -3.590400787867229632e-02 -9.989996147779676150e-01 -9.385942692645966590e-01 1.642218825515776581e-01 -3.034336352398556147e-01
-1.743981810174961844e-02 -7.874859237395948064e-03 -8.545530198779727193e-01 9.367106878995352659e-01 -1.628297918889901885e-01 3.099347448224668566e-01
-4.063661288707393592e-03 -2.420029305023679508e-02 -9.037953453905558376e-01 9.363035419075064203e-01 -1.662799157541321182e-01 3.093326155261635346e-01
1.896777640082405580e-03 -6.565265982192496075e-02 -9.278133304398127335e-01 -9.363035419075064203e-01 1.662799157541321182e-01 -3.093326155261635346e-01
-2.395396804755862280e-02 -1.759765714039554507e-01 -9.108134810127023195e-01 -9.076846111545746609e-01 2.247799675257774743e-01 -3.543763717748114606e-01
7.451830103786290758e-03 -9.653846564381276737e-03 -9.307838094993288180e-01 9.358352651746391082e-01 -1.636920592080833847e-01 3.121173917098030159e-01
2.500272824427277312e-03 -1.303120274770642462e-01 -9.720873162182390725e-01 -5.636717863011041496e-01 -4.034273921123661122e-01 7.207776748911816078e-01
-3.026272208500058181e-02 7.762886801989000995e-02 -7.552840187454034071e-01 -9.139022989224421245e-01 1.732652832015322553e-01 -3.670990733594520217e-01
-2.426332240829008613e-02 -4.910361641478602074e-02 -8.400255080004359609e-01 -9.346033435045043580e-01 1.685315340683513907e-01 -3.132310845602168659e-01
1.854732550597899127e-02 2.070976906113507210e-01 -8.496551308865974983e-01 9.290953213505529495e-01 -1.842960644571676188e-01 3.206506579910799459e-01
3.155543304003096804e-03 -1.417007185232113109e-01 -9.725026093901162350e-01 -9.363035419075064203e-01 1.662799157541321182e-01 -3.093326155261635346e-01
-5.770360844349052033e-03 2.777771819901145300e-02 -8.543831030231848755e-01 -9.363035419075064203e-01 1.662799157541321182e-01 -3.093326155261635346e-01
-5.760492055685692905e-03 5.875893288462331193e-02 -8.379143625731000355e-01 -9.365599290255922638e-01 1.635731105092054494e-01 -3.099989304206081653e-01
-1.362906585775356273e-03 -2.704517395372011204e-02 -8.971935286200027893e-01 -9.363035419075064203e-01 1.662799157541321182e-01 -3.093326155261635346e-01
2.313375786863469327e-02 2.083724585435555929e-02 -9.693736859462895872e-01 9.431282649475891677e-01 -2.058499237119625069e-01 2.610265978108926022e-01
-6.262659538927934678e-03 5.537728023593137261e-02 -8.444621038185264883e-01 -3.187013224414215751e-01 -9.134302913855103512e-01 -2.531295515214894709e-01
8.065127842350522727e-03 9.559477744948991634e-03 -9.223600103838945907e-01 9.363035419075064203e-01 -1.662799157541321182e-01 3.093326155261635346e-01
-3.413508834967589334e-02 3.344771911214899918e-02 -7.675567247827046469e-01 -9.168516261490554653e-01 1.833000538832783577e-01 -3.546606629924159981e-01
1.625656100089313202e-02 2.002480209291332691e-01 -8.296199649701446743e-01 -9.379121450400036419e-01 1.573854255482174669e-01 -3.091126590928717222e-01
-5.421516990321896025e-03 7.702720482098142363e-02 -8.461381760990576151e-01 9.365964928676000500e-01 -1.612842235881408459e-01 3.110858543387699515e-01
-1.327139126100708791e-02 -1.781041436520338916e-01 -9.426288465552193907e-01 -9.321627141808066508e-01 1.765898727741026242e-01 -3.160517222302359208e-01
-2.222276904285393206e-02 -2.058379393134818214e-02 -8.307751246809453871e-01 -9.346166372092644670e-01 1.684236700192328351e-01 -3.132494354805753223e-01
2.682136792075506815e-02 1.125747890624489572e-01 -9.242117123158402059e-01 9.356901347769357447e-01 -1.615223398086275686e-01 3.136789846704210460e-01
-4.042097540695070886e-03 1.642503385686280848e-01 -8.047505977581095316e-01 9.362630472272270854e-01 -1.641141753118494362e-01 3.106091496696432586e-01
1.739901843386786745e-02 1.114461086449519689e-01 -8.798290423528261073e-01 -9.363035419075064203e-01 1.662799157541321182e-01 -3.093326155261635346e-01
9.387849106451956818e-03 9.331095749857725580e-03 -9.264864551212751431e-01 9.363035419075064203e-01 -1.662799157541321182e-01 3.093326155261635346e-01
3.409285832819428097e-02 -3.789086780412065369e-02 -1.011351686028163943e+00 -9.433136731083200388e-01 1.602286506895329865e-01 -2.906649163987657936e-01
-3.382272778404065566e-02 -6.341082078922574694e-02 -8.199112236007117804e-01 -9.155509209770134049e-01 1.942287408399174797e-01 -3.521955526832824535e-01
1.275744052418210754e-02 4.126880273856454312e-02 -9.196751923497993308e-01 9.358847560873707616e-01 -1.638723779939960934e-01 3.118742808470675865e-01
-5.128513184253952716e-03 -1.308096695024933975e-01 -9.578794370574418293e-01 9.363035419075064203e-01 -1.662799157541321182e-01 3.093326155261635346e-01
6.572612396805429906e-03 -2.946556062146827790e-02 -9.236414962046806121e-01 -1.008734651372384661e-01 -5.797687054541805773e-01 -8.085127038007440259e-01
-8.808095957081832350e-03 -1.461273428173862632e-01 -9.386699691373403542e-01 -9.363035419075064203e-01 1.662799157541321182e-01 -3.093326155261635346e-01
-1.557784319367930097e-03 -3.641918707702732072e-02 -9.259995446038089550e-01 9.384468296107627561e-01 -2.102745888843312316e-01 2.740477061809377668e-01
3.729400326831685403e-02 1.144942306436567969e-01 -9.395875072355552859e-01 -9.531148469005212842e-01 1.400782066169186380e-01 -2.682353158120383552e-01
2.359513779611689156e-03 -1.096758330171917484e-01 -9.483953585331770242e-01 -6.355142063422818399e-01 3.655635594459439863e-01 -6.800624806165619374e-01
-1.053023607971889652e-02 1.131869881869024541e-01 -8.118983312474455927e-01 9.361913613475610907e-01 -1.642527706549067046e-01 3.107519304371049174e-01
1.677321225662344040e-02 6.881346438790940379e-02 -9.005606032463555621e-01 -9.363035419075064203e-01 1.662799157541321182e-01 -3.093326155261635346e-01
5.623123204615780753e-03 -2.798289081346580498e-02 -9.349137943469131296e-01 9.358428164248222547e-01 -1.636868704575079325e-01 3.120974709700218286e-01
-3.026130203247356931e-02 -2.578950726201143309e-02 -8.096676986549601329e-01 -9.297180776399338598e-01 1.745384306211877068e-01 -3.242848012870770402e-01
2.615735263526684437e-02 -6.542897988379617336e-02 -1.016827955666962824e+00 9.319668695577977280e-01 -1.694427937966198339e-01 3.205103643831741511e-01
1.789510307336960454e-02 1.214795037308716713e-01 -8.759372242122930308e-01 -9.363035419075064203e-01 1.662799157541321182e-01 -3.093326155261635346e-01
-1.682437079424295781e-02 1.845182378643337728e-01 -7.549613547612078479e-01 9.457886733034185367e-01 -1.786857295878810648e-01 2.712106109513534591e-01
3.351307806009183599e-02 -4.798720237883149359e-02 -1.023076973693238134e+00 -3.406332453195546894e-01 -2.156296441056418101e-01 9.151354264620852330e-01
-2.157390157208096196e-02 -1.765492835839657104e-01 -9.324005837704394395e-01 9.388577756950164943e-01 -1.614556438482626088e-01 3.041022066453145101e-01
2.421917945863423863e-02 -7.188184086005036666e-02 -9.989086836102761824e-01 -9.382987161432557732e-01 1.645499179230847375e-01 -3.041691039461832391e-01
-3.839918917954868692e-03 -3.061787739210192205e-01 -1.053562290237159971e+00 5.731583567311079319e-01 3.830221144879384365e-01 -7.244194626889071120e-01
-1.678762508673874165e-02 5.165910067395881877e-02 -8.321455870889007400e-01 7.172980730806902683e-01 -6.795220834426702883e-01 1.540558745016278597e-01
-5.120003504225385110e-03 -3.522983481962615321e-02 -9.108043646657015824e-01 9.814694144994350333e-01 9.072640269551421333e-02 -1.687794663342314649e-01
-2.877916483727968600e-02 4.073140646517456331e-02 -8.016357811823208168e-01 8.413848277692489441e-01 4.030583494441883352e-01 3.600215806629347703e-01
9.904900948830855367e-03 -4.753179686314046998e-02 -9.583266619738296521e-01 9.363035419075064203e-01 -1.662799157541321182e-01 3.093326155261635346e-01
7.739054990238873090e-03 -1.915743913028929435e-01 -1.014343969783208177e+00 -9.399503021582081841e-01 1.757390748462653030e-01 -2.925905108592416481e-01
-1.960358193370100033e-02 1.188667522759504908e-01 -7.815448523278942794e-01 9.382217487485725593e-01 -1.592074198457717749e-01 3.072343529640245152e-01
-1.602605764011875034e-03 7.586178638972988081e-03 -8.778521165578990759e-01 -9.363035419075064203e-01 1.662799157541321182e-01 -3.093326155261635346e-01
-3.777049794421380446e-02 4.531978277247457332e-02 -7.638192362561613269e-01 9.488272859777344692e-01 -1.509713951447038682e-01 2.773705449974604442e-01
3.061350833952795891e-02 5.548085114604534712e-02 -9.655796631739551605e-01 9.297393383434500169e-01 -1.741705558540322385e-01 3.244216087287976613e-01
-1.367334393815983727e-03 1.004325287035655045e-01 -8.289463850240198495e-01 -9.363035419075064203e-01 1.662799157541321182e-01 -3.093326155261635346e-01
7.184774554508826551e-03 -1.252095473421322991e-01 -9.921396041053482939e-01 9.363035419075064203e-01 -1.662799157541321182e-01 3.093326155261635346e-01
-3.705109788945657335e-03 -1.596578538798136271e-01 -9.613891908112257578e-01 -9.363035419075064203e-01 1.662799157541321182e-01 -3.093326155261635346e-01
-2.369908961852813453e-02 5.684220024633351853e-02 -7.851042686067063459e-01 -9.341868689176509033e-01 1.683599852510596906e-01 -3.145628860944961747e-01
4.946477687626561065e-03 9.585095981451395575e-02 -8.674677194011832793e-01 9.362096348311514937e-01 -1.620369629143605661e-01 3.118582086442687751e-01
1.866931804070117839e-03 -1.582843125799063555e-01 -9.775165879790852497e-01 -9.363035419075064203e-01 1.662799157541321182e-01 -3.093326155261635346e-01
3.176655486827550251e-02 7.117544020323755827e-02 -9.450984631681331738e-01 -9.383041247959723608e-01 1.636258900736500821e-01 -3.046505169673445756e-01
1.846632555752715510e-03 -3.655116212072684334e-01 -1.085330362768186063e+00 -6.212924088836481173e-01 3.748819945794035213e-01 -6.880837396739744038e-01
6.217192122044814216e-03 2.915446282482576923e-02 -8.899275712395119386e-01 -9.363035419075064203e-01 1.662799157541321182e-01 -3.093326155261635346e-01
-5.133300374713991969e-03 -1.898560272020506923e-01 -9.737990614416708324e-01 -9.337312221732596562e-01 1.790536233045698644e-01 -3.099771035420779142e-01
5.330920022438168787e-03 1.450121185300547733e-01 -8.210572741194911428e-01 -9.872939793218888926e-01 -7.757353101972720710e-02 1.386828961331622034e-01
2.292950592583585523e-02 1.173118107411489225e-01 -9.101614129018464894e-01 9.358804612534521450e-01 -1.612431787578376130e-01 3.132545283760374555e-01
-2.218391345742713391e-02 7.315566832738189078e-03 -8.322382986841182495e-01 9.366881071725164931e-01 -1.628050188645936425e-01 3.100159926746807182e-01
-2.537118323838377220e-03 1.504867120905253874e-01 -8.165596943660702323e-01 9.363381176411076368e-01 -1.640194128033030940e-01 3.104328617849067551e-01
-3.601473567867129882e-02 -1.049634795150932859e-01 -8.491539418310533049e-01 9.499700913671768054e-01 -1.413547335201228994e-01 2.785240830149034452e-01
1.085565889999883828e-02 1.101212656333823425e-01 -8.607354336393117089e-01 -9.363035419075064203e-01 1.662799157541321182e-01 -3.093326155261635346e-01
1.993775376059471818e-02 1.594732749357208323e-01 -8.544325098467754342e-01 -9.408704807349644872e-01 2.394071521176775741e-01 -2.396809420802167301e-01
-3.203901325026238533e-02 1.761305902988347452e-02 -7.815893700120154497e-01 -9.297671330142462942e-01 1.731803321906466298e-01 -3.248717453223756713e-01
2.136653094785509813e-03 4.024968748975819854e-02 -8.807395731893541413e-01 -1.141511577471859690e-01 -4.649610806854194145e-01 8.779411749273546839e-01
-3.395892013622661687e-02 -7.671914308310448516e-02 -8.408904982553926377e-01 9.429133202159202254e-01 -1.565857884183992077e-01 2.939308786513900040e-01
1.812147039975300477e-03 -6.180672656625901124e-03 -8.955883517408961270e-01 -9.363035419075064203e-01 1.662799157541321182e-01 -3.093326155261635346e-01
-1.900221692308898692e-03 -1.553526409760570548e-01 -9.645380753122364537e-01 -9.363035419075064203e-01 1.662799157541321182e-01 -3.093326155261635346e-01
-1.359139822245518554e-02 4.509455920206100615e-02 -8.421094823915088456e-01 8.471093963107825253e-01 3.936677766734891781e-01 3.569752824649536360e-01
6.871621871298605813e-03 1.518432798851560295e-01 -8.265277983303388476e-01 -9.364039646918338455e-01 1.640816595507263165e-01 -3.102012635507704341e-01
-3.152205046299779573e-02 -1.601724888812510600e-02 -8.161544297794663949e-01 9.383136086354195715e-01 -1.636661095438786406e-01 3.045996986806585594e-01
-2.385039375611450185e-03 -5.080933987414810310e-02 -9.228886753870929605e-01 9.363035419075064203e-01 -1.662799157541321182e-01 3.093326155261635346e-01
1.359210574816417660e-02 -8.228069645026468704e-02 -9.721516412828357101e-01 -9.363035419075064203e-01 1.662799157541321182e-01 -3.093326155261635346e-01
3.085722224039062767e-02 5.812726741695661142e-02 -9.493070766889045720e-01 -9.382942305358386026e-01 1.636583069714245831e-01 -3.046635775776383448e-01
-3.235260734549749023e-02 -2.395165695135305015e-02 -8.026809656179757502e-01 -9.297711642669704846e-01 1.745311168559590953e-01 -3.241365011020101994e-01
-4.763630531427876999e-03 1.158940456618508530e-01 -8.104488861502036068e-01 -9.363425532142578556e-01 1.640566550130932444e-01 -3.103998018461351927e-01
-2.086190509311071535e-03 -1.589245181873089052e-01 -9.824500628311032546e-01 9.364861688268559803e-01 -1.690068375639161846e-01 3.072952073375723181e-01
-1.235467694268363968e-02 1.697205138106576416e-01 -7.596004144598766938e-01 -9.346183978884070598e-01 1.615431719421452361e-01 -3.168473669251145042e-01
1.443955642099905082e-02 8.897980541089722806e-02 -8.828378040593677367e-01 -9.361124641427940318e-01 1.640352820296471226e-01 -3.111042923618388412e-01
-8.988910716336064380e-03 2.513105424016772588e-02 -8.626625643105186869e-01 9.363035419075064203e-01 -1.662799157541321182e-01 3.093326155261635346e-01
-3.642459422504495947e-02 7.232763105178698082e-02 -7.527839723795124449e-01 9.805104190016561416e-01 -1.200245066546926503e-01 1.555423930364152330e-01
-5.367245789159708590e-03 8.391725479998217441e-02 -8.257169394263318418e-01 -9.363035419075064203e-01 1.662799157541321182e-01 -3.093326155261635346e-01
-5.294389629709726243e-03 -1.315835422438938473e-01 -9.414874985593627565e-01 -9.363035419075064203e-01 1.662799157541321182e-01 -3.093326155261635346e-01
7.460512185271987728e-03 2.035659400061016200e-01 -8.015845022235610351e-01 -9.373559552472627843e-01 1.591990487777727170e-01 -3.098700954121647588e-01
-1.428025125785942510e-03 -1.162174470105045987e-01 -9.612362979158751708e-01 9.363035419075064203e-01 -1.662799157541321182e-01 3.093326155261635346e-01
1.721090743231811979e-02 1.609702452044841636e-01 -8.529101003481541765e-01 -9.364336779376899456e-01 1.637670106858513663e-01 -3.102778320072372975e-01
-2.033642222883627268e-02 -4.793274746888821769e-02 -8.748792610801474634e-01 9.464463538841442203e-01 -7.353278123124420973e-02 3.143759362670872082e-01
1.268466521869522634e-02 -2.710684118551003746e-03 -9.266325656272202949e-01 -9.363035419075064203e-01 1.662799157541321182e-01 -3.093326155261635346e-01
-2.778609369140752627e-02 -1.575148823624510433e-02 -8.116075310935406684e-01 -9.342822964614240222e-01 1.687226314817281414e-01 -3.140848040651584849e-01
2.712380331728780208e-02 9.724788424893228422e-02 -9.168966825289499578e-01 -9.363035419075064203e-01 1.662799157541321182e-01 -3.093326155261635346e-01
2.163702778894827788e-02 8.236974005605242344e-02 -9.247115060117847563e-01 9.346012474145295457e-01 -1.686103620599187503e-01 3.131949139708828378e-01
-2.238705393414072709e-03 -6.925067408638002631e-02 -9.332446364602169364e-01 9.363035419075064203e-01 -1.662799157541321182e-01 3.093326155261635346e-01
5.099125562314074135e-03 2.119374498989883282e-01 -7.819548162669021085e-01 -9.532068345660785758e-01 1.265877093775601425e-01 -2.745401288902212245e-01
1.390373728662086875e-02 6.695243573886099087e-02 -9.096105183441361985e-01 9.359447218928665935e-01 -1.640240583723787671e-01 3.116144827121157812e-01
-3.303342588502554411e-02 -4.029588629792518750e-02 -8.095278789998294755e-01 -9.296466064208720459e-01 1.750920512557589681e-01 -3.241912410248106169e-01
-4.407944987713630948e-03 1.351329456212519431e-01 -8.013534355521791941e-01 -9.363425532142578556e-01 1.640566550130932444e-01 -3.103998018461351927e-01
7.458209958835331811e-03 -1.279780176475860953e-01 -9.944554269793570711e-01 9.363035419075064203e-01 -1.662799157541321182e-01 3.093326155261635346e-01
-5.476816988807575552e-03 -2.316559702164235623e-01 -1.015442471574307115e+00 9.817589730313059926e-01 8.575240016335879123e-02 -1.696933844872529906e-01
2.323439473042919132e-02 2.479769103043758319e-02 -9.598565932599661954e-01 9.346033435045043580e-01 -1.682894472074026038e-01 3.133612169187955376e-01
4.921138888117500797e-03 -3.683403686130481969e-01 -1.098945345241872040e+00 -9.833451568519140373e-01 -8.214321433523852356e-02 1.621258610911897879e-01
5.380869554763203187e-03 -8.755787084576140133e-02 -9.501341718160851713e-01 -9.363035419075064203e-01 1.662799157541321182e-01 -3.093326155261635346e-01
4.658283098965157291e-03 -2.100232041750356438e-01 -1.006517951467343686e+00 -9.616190281135654772e-01 1.299154346795865222e-01 -2.416833146949455835e-01
1.468750335186113677e-02 1.223368210976482351e-01 -8.657674539330061370e-01 -9.363035419075064203e-01 1.662799157541321182e-01 -3.093326155261635346e-01
3.971860786765366025e-02 8.319980876303546824e-02 -9.651147735474092659e-01 -9.917597001206709395e-01 5.317414875651722134e-02 -1.165555966934970905e-01
6.325609502069546794e-03 -4.385546294689057767e-02 -9.227381732496083844e-01 -9.534654751282054530e-01 1.890948849337755200e-01 -2.348333712027060871e-01
-2.686363787845120685e-02 -1.161897400001097452e-01 -8.684830724898034982e-01 -9.339713541860592549e-01 1.700574575403576982e-01 -3.142896286783387616e-01
3.747814840046648222e-02 1.423895861187196854e-01 -9.283296285943568593e-01 -7.888759155629926356e-01 -4.373537227228120883e-01 4.317366223348996779e-01
1.150491750676141921e-02 -1.059346403705228173e-01 -9.948335620856585404e-01 9.368719910219250879e-01 -1.686300544002687640e-01 3.063246271385577923e-01
5.349350179726295590e-03 2.085525061338436570e-01 -7.926508966436477399e-01 -9.380506462270269408e-01 1.543320478841345988e-01 -3.102299213630860253e-01
2.418289911142871770e-03 1.319680270107978226e-01 -8.343440964939194959e-01 8.975251329922458166e-02 6.501081569647687575e-01 7.545222797269434123e-01
-1.203982639212526629e-02 -8.749737871271267425e-03 -8.550414866193761787e-01 -9.363035419075064203e-01 1.662799157541321182e-01 -3.093326155261635346e-01
-2.562027387996492975e-02 9.860913014162385470e-02 -7.574195390500165770e-01 -9.277382801976242765e-01 1.721009372233548163e-01 -3.311841645713115012e-01
3.832362418692324135e-02 3.438163517495826382e-02 -9.858026182963706141e-01 -9.539739511021966267e-01 1.438629760664826007e-01 -2.631295208367139815e-01
-1.871159852533264140e-02 4.359805068790534310e-02 -7.991836443600084383e-01 -9.424564217831289392e-01 1.040398005004227466e-01 -3.177288355682776899e-01
6.874136532523208998e-03 2.313624360473628128e-01 -7.873487437594197669e-01 -9.552595306605586867e-01 -3.818744273597365901e-03 -2.957442244141756382e-01
1.582493090375385048e-03 1.566429792617484440e-01 -8.081181046759133846e-01 -9.362166344804823126e-01 1.619474248048293208e-01 -3.118837041608992222e-01
-7.894954691615435963e-03 -1.786232674753861493e-01 -9.754759750228720883e-01 9.388536082540340777e-01 -1.661413795324540033e-01 3.015807425473884251e-01
7.165122849518544166e-04 -1.069535235837438258e-01 -9.627144306007491270e-01 9.366879596693505894e-01 -1.688227305211404683e-01 3.067809509566326587e-01
-2.852156133501785457e-02 3.964695645795967421e-02 -7.799857411711818012e-01 -9.341868689176509033e-01 1.683599852510596906e-01 -3.145628860944961747e-01
-6.688599648229141305e-03 -1.537314563619139041e-01 -9.491729135329105560e-01 -9.363035419075064203e-01 1.662799157541321182e-01 -3.093326155261635346e-01
2.935318652109067741e-02 -7.779987748008609406e-03 -9.801388720777259866e-01 -9.384181543050422736e-01 1.638741672480196199e-01 -3.041654565848759262e-01
-6.625221593908199244e-03 -3.437500071700342885e-01 -1.080113341277665784e+00 9.597478920659062718e-01 -1.368739945940664338e-01 2.452539363168574071e-01
-6.641899138480070013e-03 -3.212119610851220108e-01 -1.066087463460489104e+00 9.839026934889745224e-01 7.738564493287748702e-02 -1.610805751897599059e-01
-1.518794829307208542e-02 -2.028631405036893653e-01 -9.656037797281146196e-01 9.488645884273604336e-01 -1.178723728857786202e-01 2.928516630290017853e-01
2.114439218896786710e-02 -5.152761249469629129e-02 -9.784801441191208760e-01 -9.363035419075064203e-01 1.662799157541321182e-01 -3.093326155261635346e-01
1.653642576970210457e-02 9.518019838495853091e-02 -9.026623193088901820e-01 9.361051401359327118e-01 -1.639057562418690939e-01 3.111945849173265444e-01
2.529539111980497819e-04 9.303347377325396628e-03 -8.989416785936027443e-01 9.359495151269953128e-01 -1.638876432601502620e-01 3.116718555150211345e-01
2.236282241109066940e-02 -8.861660999987215626e-02 -1.017961546224395608e+00 9.334474278791455859e-01 -1.679735450771792926e-01 3.169554977280127361e-01
-1.257029990194867552e-02 -9.433523159694141846e-02 -8.994417980349139752e-01 -9.363035419075064203e-01 1.662799157541321182e-01 -3.093326155261635346e-01
2.954338027287970250e-02 -5.942232062216010191e-02 -1.023141399296112031e+00 9.089472011787984584e-01 -1.858898359882375784e-01 3.731755007305481153e-01
-4.452167229966855384e-03 -1.813601701526757204e-01 -9.958450977300786766e-01 9.157556842033519606e-01 -1.944957915776008572e-01 3.515151688161598509e-01
2.236450059221069264e-02 -4.615345751708577887e-02 -9.952990876168544832e-01 9.363035419075064203e-01 -1.662799157541321182e-01 3.093326155261635346e-01
-4.033425444306339321e-03 1.450686756143289846e-01 -7.972924926241741206e-01 -9.360644565017960383e-01 1.618003858558021701e-01 -3.124163382585987692e-01
2.493900055271124766e-02 8.351887684751700680e-02 -9.176635581034812139e-01 -9.363035419075064203e-01 1.662799157541321182e-01 -3.093326155261635346e-01
-1.055580476572735849e-02 -7.680886319738372547e-02 -9.121328809443820518e-01 9.363035419075064203e-01 -1.662799157541321182e-01 3.093326155261635346e-01
3.313727786169821336e-03 -2.139455405050579573e-01 -1.005359695904210593e+00 -9.039173092988005420e-01 2.024372276187996755e-01 -3.767660637902928156e-01
-2.685341947157440963e-03 -1.766306647010694175e-01 -9.901964983772306717e-01 9.363035419075064203e-01 -1.662799157541321182e-01 3.093326155261635346e-01
-6.283174575957121283e-03 7.135933134904083597e-02 -8.296886314831929399e-01 -9.364869291276531893e-01 1.635625892670299342e-01 -3.102249360791662913e-01
2.533208350829784655e-02 1.581213184540505162e-02 -9.550755899570753105e-01 -9.379820569057839563e-01 1.642665335040318642e-01 -3.052968504478283385e-01
-2.274234459498168312e-02 -7.597731927845900735e-02 -8.590300757500483053e-01 -9.345619766689196029e-01 1.686960224075949311e-01 -3.132659633419149769e-01
3.026215519939914889e-02 1.848738047159708409e-01 -8.808708482152788344e-01 -9.444339772515506493e-01 1.439556892215532735e-01 -2.955016449253120014e-01
1.731992875635973705e-02 -1.162649069683004549e-01 -1.017794476530379022e+00 9.336957937971196442e-01 -1.679716909622910315e-01 3.162240909241982312e-01
2.869760888809639796e-02 1.538647015599308998e-01 -8.918137233991373369e-01 -9.407653419051339450e-01 1.580101206356489540e-01 -2.999889552080611810e-01
-1.329624300948624091e-02 1.587496759008869551e-01 -7.624976288871562202e-01 -9.333811736649494373e-01 1.654055210611311000e-01 -3.184974069758457760e-01
-2.828812840126707431e-02 7.880171245452347040e-02 -7.761263178125907825e-01 9.386125007447959634e-01 -1.613059963797913443e-01 3.049376148944625275e-01
-3.282933581760558595e-03 1.057812145750575139e-01 -8.446318491294658726e-01 6.380930432822079501e-01 -3.617726919864542312e-01 6.796747659342110559e-01
-6.716554694474636232e-03 8.393363009037436984e-02 -8.216239808260011879e-01 -9.363035419075064203e-01 1.662799157541321182e-01 -3.093326155261635346e-01
9.083746481018062369e-03 2.049310472336374755e-01 -8.229240133934707657e-01 9.346773593363756349e-01 -1.652920151791184011e-01 3.147328766779950993e-01
5.384210481481008226e-03 -2.128622097531319701e-01 -1.010942779966702121e+00 -9.622260131186283205e-01 1.288332768953900920e-01 -2.398397098943903238e-01
-7.762769889046162303e-03 -1.859487444563826530e-01 -9.636214358037702432e-01 -9.337312221732596562e-01 1.790536233045698644e-01 -3.099771035420779142e-01
-1.106285127247134958e-02 -6.405118720996731685e-02 -9.037403138555011317e-01 9.363035419075064203e-01 -1.662799157541321182e-01 3.093326155261635346e-01
1.339435195567913531e-02 1.944030641493499911e-01 -8.239114002668068704e-01 -9.379121450400036419e-01 1.573854255482174669e-01 -3.091126590928717222e-01
3.417688048827594027e-02 1.698461378298198599e-01 -9.016776905379340068e-01 -9.550648349350361332e-01 1.213051970764263410e-01 -2.704370725931670161e-01
1.963804596127589897e-02 -1.182767546429598984e-02 -9.525801934153818040e-01 -9.363035419075064203e-01 1.662799157541321182e-01 -3.093326155261635346e-01
8.561630364364761214e-03 -7.189493606170906798e-03 -9.165603135695515880e-01 -9.363035419075064203e-01 1.662799157541321182e-01 -3.093326155261635346e-01
2.468560560722214692e-02 7.924388386768993486e-02 -9.191503832474572366e-01 -9.375978143438877810e-01 1.617016778769281016e-01 -3.078358424702213880e-01
1.056036436718600646e-02 -3.284010567441764811e-02 -9.363985169529366326e-01 -9.363035419075064203e-01 1.662799157541321182e-01 -3.093326155261635346e-01
2.765294980277077652e-02 1.345195731723820842e-01 -8.987988609606866186e-01 -9.407888886749989910e-01 1.591638192834199106e-01 -2.993044362798105706e-01
1.878685711738761754e-02 -1.266018896434122354e-01 -1.011799176145601331e+00 -9.402865200337741092e-01 1.663350708917628873e-01 -2.969745855022065673e-01
-1.108940089960989278e-02 -5.271205491168629714e-02 -8.800296589513079137e-01 -7.603912188881012391e-02 9.962635847348659812e-01 4.095023410938215119e-02
-2.492876564987177475e-04 9.378236339247451175e-03 -8.809850979679437755e-01 -9.363035419075064203e-01 1.662799157541321182e-01 -3.093326155261635346e-01
-2.076214585380583427e-02 1.230831339621800413e-01 -7.839778326105120154e-01 9.414534643324867780e-01 -9.920272282759198812e-02 3.222176194436786045e-01
-1.964058026354948902e-02 -2.481743259781655705e-02 -8.407556697795688372e-01 -9.346165531055523612e-01 1.684235683478865209e-01 -3.132497410790010539e-01
-2.393677207593797383e-04 -9.426491743595021011e-02 -9.528132481234068418e-01 9.366711380707813950e-01 -1.688536792371330419e-01 3.068152768577062095e-01
1.486759578622378827e-02 7.801440250183827585e-02 -8.899074781130086320e-01 -9.361124641427940318e-01 1.640352820296471226e-01 -3.111042923618388412e-01
-3.944541795109857488e-03 1.776705333767403250e-01 -7.979536154541609916e-01 9.362274493320763558e-01 -1.641699574486562008e-01 3.106869617291029284e-01
-1.727786063854431023e-02 1.738116991813751511e-01 -7.596727998797977444e-01 9.402351001076691972e-01 -1.681380886658550011e-01 2.961208193716117210e-01
6.351697529200494088e-03 2.079948707056210044e-01 -7.959591320066943254e-01 -9.380506462270269408e-01 1.543320478841345988e-01 -3.102299213630860253e-01
1.139633684800119310e-03 1.742849977155289665e-01 -8.150852198291145267e-01 9.365693451827760141e-01 -1.636761675362877477e-01 3.099160754858314992e-01
1.914748555451392317e-02 1.867468104538134999e-01 -8.623224431863604211e-01 9.336178595173734163e-01 -1.676172837394511173e-01 3.166419722367936895e-01
-3.944070806774442649e-04 -1.766738317499601807e-01 -9.807200636795058157e-01 -9.357581709166579165e-01 1.703260514032308437e-01 -3.087809608380919224e-01
4.073793646708581684e-03 -5.016677015360283126e-02 -9.420931869652990898e-01 9.363035419075064203e-01 -1.662799157541321182e-01 3.093326155261635346e-01
2.524611234920855207e-02 -9.481313178635691896e-02 -1.029605909970373823e+00 9.306912822681236985e-01 -1.678294036153411273e-01 3.250338880674364939e-01
-1.295546770299476659e-02 3.278623013327978258e-02 -8.299638168995965293e-01 -9.349101835251751869e-01 1.650871557836033621e-01 -3.141483403365418758e-01
3.234764484829698306e-02 4.009992439744299031e-02 -9.635921742403003032e-01 -9.383227300345812205e-01 1.637444944906378264e-01 -3.045294646244536829e-01
-1.191589737521754622e-02 -9.214534545165850576e-02 -9.162601193458226323e-01 9.363035419075064203e-01 -1.662799157541321182e-01 3.093326155261635346e-01
-1.792046754556303771e-03 -9.133403573986485086e-03 -9.025720654659030728e-01 9.363035419075064203e-01 -1.662799157541321182e-01 3.093326155261635346e-01
-2.206264637712049281e-03 -8.872700868687635745e-02 -9.438122181084550588e-01 9.363035419075064203e-01 -1.662799157541321182e-01 3.093326155261635346e-01
2.963852137390344393e-02 7.364331384313277384e-03 -9.882583344469448861e-01 9.341840227001658725e-01 -1.685909576058172987e-01 3.144476120839362343e-01
-1.825147244037993166e-02 -1.692060700414634578e-01 -9.387721131292979804e-01 9.391053160835816094e-01 -1.616119288092232320e-01 3.032536723110189070e-01
4.188686832996686878e-03 -1.753987030829250171e-01 -1.010200026641227211e+00 9.349269612293518161e-01 -1.634387312618869603e-01 3.149592962431099763e-01
-8.557829778092891637e-03 -2.082740275484727399e-01 -9.746995830400662086e-01 -9.163197090107645382e-01 2.334419652493261166e-01 -3.253660088868544076e-01
3.824709302492582119e-02 1.245043696771537013e-02 -9.976721730962849755e-01 -9.545193372611338045e-01 1.448366505277983440e-01 -2.606054094957634404e-01
-1.454592455494632501e-02 1.473519013227857499e-01 -7.647530290832936783e-01 -9.345977110918916031e-01 1.586602125593866708e-01 -3.183615167893374398e-01
2.172599354045623085e-02 -5.292057286183300679e-02 -9.809932852510768742e-01 -9.382368761164887605e-01 1.642455334327164729e-01 -3.045241682405112060e-01
2.562713671386404688e-03 2.020809170566590096e-01 -7.875680925729573456e-01 -9.365566108733427431e-01 1.603591106355871376e-01 -3.116836060263705743e-01
-3.461833477959209288e-02 -2.078493794790861604e-02 -8.091650923179187771e-01 9.425559295337856414e-01 -1.579919807080220617e-01 2.943244022038565832e-01
8.964754463879023860e-03 4.714050631708346928e-02 -8.885757401574242431e-01 -9.363035419075064203e-01 1.662799157541321182e-01 -3.093326155261635346e-01
9.784272671379722758e-03 1.803742820484141862e-01 -8.204585751710908870e-01 -9.343890705874979830e-01 1.640257160488196031e-01 -3.162477339702278734e-01
-2.597055424391649450e-02 -1.503873637282892584e-01 -8.899512557591110484e-01 -9.269948764281739084e-01 1.843958526858071045e-01 -3.266170059690540195e-01
-3.308204582664960036e-02 -9.614179887452681261e-02 -8.540012048578079495e-01 9.431476673191151461e-01 -1.554765213904957533e-01 2.937678146544008273e-01
-1.309371835583159581e-02 1.985863789609608188e-01 -7.587612745829748206e-01 9.455058211179627747e-01 -1.753784840303831138e-01 2.743376196792041699e-01
6.170886703062293706e-03 1.239609803185334341e-01 -8.391608957922550571e-01 -9.364039646918338455e-01 1.640816595507263165e-01 -3.102012635507704341e-01
-3.020633115489211942e-02 8.588648843236068586e-03 -8.072694852023944989e-01 9.386906676611516120e-01 -1.602448187133866386e-01 3.052563324836610748e-01
-1.847457164015602407e-02 1.438672845777882459e-01 -7.718077723269516355e-01 9.361322596528339757e-01 -1.635737664092263011e-01 3.112876730292722383e-01
8.723755845213039886e-03 -2.968392388259694786e-02 -9.380992312337124162e-01 7.552605836852512022e-02 5.825411233881853112e-01 8.092846557725812406e-01
-3.147603607282901950e-02 1.729812048979145409e-02 -7.986670542151773633e-01 9.382879832230005546e-01 -1.639862611641788870e-01 3.045064312764315662e-01
-3.320068626851167565e-03 -1.205665267514797884e-01 -9.660010317572770289e-01 9.363035419075064203e-01 -1.662799157541321182e-01 3.093326155261635346e-01
-1.878980329333969530e-03 1.634736468207213245e-01 -8.003112836062907798e-01 1.193606109838372537e-01 4.748214443610182522e-01 -8.719504805437527928e-01
1.429303751367451414e-02 2.899175718528144291e-02 -9.144594083081918345e-01 -9.363035419075064203e-01 1.662799157541321182e-01 -3.093326155261635346e-01
3.084329339400474282e-02 -3.948472338691119687e-02 -1.016416688895131148e+00 9.202934698927394130e-01 -1.787270702286506696e-01 3.480180507391316125e-01
-6.614259728144357246e-03 1.331542264157665467e-01 -8.220281725780447246e-01 9.231724074822109660e-01 -1.819965502003482727e-01 3.385704679659331529e-01
2.941397422819752236e-02 1.553278091486333112e-01 -8.932895973265904122e-01 -9.407653419051339450e-01 1.580101206356489540e-01 -2.999889552080611810e-01
1.632281939141356358e-02 1.418379955446038565e-01 -8.774291421572533167e-01 9.362507132810270472e-01 -1.635359505954816772e-01 3.109511131087979718e-01
1.857991065154225574e-02 -1.011772278390020291e-01 -9.974066989541801043e-01 -9.363035419075064203e-01 1.662799157541321182e-01 -3.093326155261635346e-01
-1.692639010221805729e-03 -8.051511126405393876e-03 -8.859855469276035622e-01 -9.363035419075064203e-01 1.662799157541321182e-01 -3.093326155261635346e-01
-3.610515285290660098e-02 -8.554157099586625138e-03 -7.980780366659117053e-01 9.398225111829866529e-01 -1.588397170843566519e-01 3.024956061668774288e-01
-2.420059706224386015e-02 -2.833671324141746189e-02 -8.449884557095258542e-01 9.379691969862019585e-01 -1.641324744641404765e-01 3.054084418141350121e-01
1.524686390792410508e-03 9.117010647541388957e-02 -8.596460409613523312e-01 9.359911085965075817e-01 -1.624983130877903359e-01 3.122738267481020014e-01
-1.593040474202440243e-02 8.259426792999417788e-02 -8.116014679924229425e-01 9.366303284301881193e-01 -1.612635731893891922e-01 3.109946749173506109e-01
3.035590050994070848e-03 -6.444247032098231187e-02 -9.362466018201632822e-01 -5.677590047513032534e-01 -3.897607149593957931e-01 7.250767529014776613e-01
-3.957701274008947750e-02 -3.134056629570327462e-02 -7.966089953445623095e-01 7.814995644963472765e-01 3.061469952962187491e-01 -5.436289616669778280e-01
-3.435392813597367562e-02 -4.847366701093465402e-02 -8.103913177866141071e-01 -9.162303917051993762e-01 1.917085633168341408e-01 -3.518091756431782624e-01
-2.584640907796423651e-02 1.239731514600786039e-01 -7.681379653405810970e-01 9.428223323443462034e-01 -1.640847322798012209e-01 2.901073081903197126e-01
-9.424754839181205893e-03 7.668354359299772716e-02 -8.342561784125271940e-01 9.365990200038799562e-01 -1.617309774160270996e-01 3.108462106441515771e-01
-9.597307203749457644e-03 -1.748969500570274893e-01 -9.519137745914850735e-01 -9.352697452771817632e-01 1.712957501760838663e-01 -3.097228915349465317e-01
8.334953324486273768e-03 2.247125320517860958e-01 -8.094568380985497358e-01 9.258737765475141268e-01 -2.001582181049569586e-01 3.204597285567921672e-01
3.439623580745529430e-02 4.541920247566124530e-02 -9.670439913066951609e-01 -9.383136086354195715e-01 1.637741891273384598e-01 -3.045416011405660539e-01
-1.440738019596190904e-02 1.631513110388635446e-01 -7.741464319211970313e-01 9.378990294169617936e-01 -1.612252527521699785e-01 3.071674274621584155e-01
-7.761417048384228103e-04 -9.328335120214570342e-02 -9.506342836288749210e-01 9.364668015211266017e-01 -1.691025810165568688e-01 3.073015566871242776e-01
-6.357994805235414430e-03 2.110589550195733285e-02 -8.727896533553725078e-01 9.363035419075064203e-01 -1.662799157541321182e-01 3.093326155261635346e-01
-8.748782094431362122e-03 1.696064728165552482e-01 -7.877559318901471430e-01 9.360246469508780587e-01 -1.643711911168341255e-01 3.111912142579181806e-01
8.164284847997436978e-03 1.153672440794316079e-01 -8.669714292641170772e-01 9.361992063546705767e-01 -1.617797304126296909e-01 3.120230197413359496e-01
1.096921197289961979e-02 8.600838473299114717e-02 -8.896996920875090975e-01 3.273218026688617943e-01 -7.115273792948944021e-01 -6.217629982648904541e-01
2.129196204539987938e-02 2.019925131573479526e-01 -8.443163889889639950e-01 -9.401745709384039529e-01 1.564861934022953871e-01 -3.026282330438581636e-01
7.832330113465305055e-03 -1.278978658673499413e-01 -9.792389015658314877e-01 -9.363035419075064203e-01 1.662799157541321182e-01 -3.093326155261635346e-01
-1.842963395506450747e-02 -5.144046326826179349e-02 -8.783284108635814880e-01 8.726598705192211147e-01 3.663746431399731995e-01 3.228534826348223308e-01
1.281933700108199049e-02 1.210440250805711743e-01 -8.779781279513713121e-01 9.359503307751433354e-01 -1.621197062482740148e-01 3.125926729273629801e-01
-2.385969315715394390e-02 4.688763130387935824e-02 -8.141865844236836347e-01 9.276378499389074106e-01 -2.263388261410288205e-01 2.970837510565372264e-01
-8.663694557097381677e-03 -1.625139835326796234e-01 -9.479155922509242549e-01 -9.363035419075064203e-01 1.662799157541321182e-01 -3.093326155261635346e-01
-1.990130022055900880e-02 -4.694852658295416842e-02 -8.518804726139156402e-01 -9.345850765745816746e-01 1.685096819860760209e-01 -3.132973375581654119e-01
5.598663600102192148e-03 -1.623062135727672828e-01 -1.007433803255130433e+00 9.343663895699999555e-01 -1.718923879729120918e-01 3.121096874480076555e-01
1.557073906092619735e-03 -2.992234420146691054e-01 -1.049360097458854391e+00 -6.184804682383717722e-01 3.705801701717159613e-01 -6.929301897616718664e-01
2.240264285929266866e-02 -1.322522310476281215e-01 -1.026425815553976717e+00 -9.394849786650050216e-01 1.694315545114078725e-01 -2.977598414807866023e-01
-3.927075763613975534e-02 1.009045262755842165e-02 -7.752926882835186051e-01 3.502078916786673379e-01 3.761862130847074548e-01 -8.578102154270312862e-01
