-1.550825208424259222e-02 -1.410434927804729566e-01 -9.673523205961150895e-01 -4.020056442386217843e-01 4.279789540893649824e-01 -8.094599908932275101e-01
7.752025895675535017e-02 -1.380904045419777647e-02 -9.464524450879232553e-01 -4.074805427956972870e-01 4.271876809196652469e-01 -8.071370964795274716e-01
6.353718067303788146e-04 1.851525983836493638e-01 -8.134418023191531955e-01 3.545767739016987830e-01 -4.289079551858199224e-01 8.308509357205913215e-01
-9.410420696955669462e-03 -6.003347565789635132e-02 -9.275489700586491137e-01 -4.020056442386217843e-01 4.279789540893649824e-01 -8.094599908932275101e-01
2.223029235734048231e-03 7.307151418950387500e-02 -8.630393153058856237e-01 -4.018988802503778435e-01 4.257088947429029657e-01 -8.107090890018863183e-01
-3.499475727440689438e-02 -9.075722608484917964e-02 -9.372071878249983445e-01 4.020056442386217843e-01 -4.279789540893649824e-01 8.094599908932275101e-01
4.545095629898698603e-04 1.317912689181050812e-01 -8.412432755934504680e-01 3.428738353640424785e-01 -3.699636896283102772e-01 8.634607121226528514e-01
-2.079678404158939037e-02 -3.463326067232853911e-02 -9.116533103589129494e-01 -4.430513429498515454e-01 -7.599783862199105400e-01 -4.755400719065777659e-01
6.074442804607670804e-02 1.073740901410396020e-01 -8.740810226007422745e-01 -4.061413946506756689e-01 4.242966449786855776e-01 -8.093340006517925067e-01
1.498164133830214712e-02 1.151164309882827530e-01 -8.538133099365003975e-01 4.017856745930422635e-01 -4.236568748022265241e-01 8.118393462530777427e-01
1.145870517299842208e-04 -3.666820518431788134e-01 -1.105461883232805587e+00 3.346142913381739414e-01 -4.442545068939540154e-01 8.310663085077274470e-01
1.289774607977244546e-02 1.950976660313098188e-01 -8.109161984640160803e-01 4.029459035759210273e-01 -4.247306279282213048e-01 8.107024685364437877e-01
-4.514754178279066152e-03 -1.466292435782606818e-01 -9.849858448710971937e-01 4.780287915840004676e-01 -4.145869544450747624e-01 7.743423865582315102e-01
1.563903133088880709e-02 -1.137035122167595058e-01 -9.775888904047915773e-01 4.177283332032949992e-01 -4.729474951729811250e-01 7.757729735230535217e-01
-7.813178948568821891e-02 1.039613186690585001e-01 -8.072661380827221844e-01 -3.833556400195606284e-01 4.268360911850507811e-01 -8.190539692395492066e-01
-2.602103456388096293e-03 -1.262503877387503581e-01 -9.659405237901365071e-01 -4.020056442386217843e-01 4.279789540893649824e-01 -8.094599908932275101e-01
-3.386692668895348313e-02 1.436620821141664506e-01 -8.146179660745646034e-01 4.015704658838992747e-01 -4.251398828903120708e-01 8.111702909413041063e-01
-2.260255036669390691e-02 9.444371056111312834e-02 -8.394331447209015806e-01 -4.020056442386217843e-01 4.279789540893649824e-01 -8.094599908932275101e-01
-9.213796865842728903e-03 -1.304400117700388051e-01 -9.720696595697096987e-01 4.266085447890284876e-01 8.538042383558417381e-01 2.983680145032110431e-01
3.836782292398282362e-02 1.365385275790913511e-01 -8.475107887861356160e-01 -4.023523050767993658e-01 4.255536083566713867e-01 -8.105656969142003287e-01
1.036025880596884788e-03 6.987855190740800693e-02 -8.641277675798774149e-01 -4.022717091614063101e-01 4.256503153890649482e-01 -8.105549216540176571e-01
-8.137189894207756680e-02 -3.367576987448502729e-02 -8.795364886658751935e-01 2.695050113755615429e-01 9.580861340182695862e-01 9.714941402491779343e-02
-1.791676786485938561e-02 -1.030172308629873634e-01 -9.460508641493393656e-01 -4.020056442386217843e-01 4.279789540893649824e-01 -8.094599908932275101e-01
-7.346421728771798665e-03 -3.525544965371780193e-01 -1.090319312879508784e+00 9.839079056114169441e-01 8.033341255883025278e-02 -1.595987973075236044e-01
5.819477061174287190e-04 2.145641429112968637e-02 -8.957607654509137651e-01 4.016690995680718412e-01 -4.252034205188798266e-01 8.110881491127945875e-01
8.662114822143665571e-02 7.214969232984107250e-02 -9.115162431327425985e-01 3.846943429757381239e-01 -4.293748188158099111e-01 8.170970122631435739e-01
4.749936592738446262e-02 1.466002906136284816e-03 -9.295274531715167488e-01 4.020056442386217843e-01 -4.279789540893649824e-01 8.094599908932275101e-01
-6.379796948238635260e-03 -2.293894276915975361e-01 -1.023707108120761156e+00 9.868402453592088897e-01 7.222457586823213815e-02 -1.446718382410010773e-01
-4.012300496644207598e-02 -6.390619084817170115e-02 -9.204636024143025841e-01 4.020056442386217843e-01 -4.279789540893649824e-01 8.094599908932275101e-01
-5.562198897157510924e-02 -1.731470552455010702e-03 -8.737980197076177236e-01 -3.976307273662685327e-01 4.289007507106992745e-01 -8.111312783353697986e-01
-4.322369710361633616e-03 6.814169636620510950e-02 -8.623804997639149539e-01 -4.025200899920162723e-01 4.255803082564225126e-01 -8.104683697573814571e-01
-1.021301871775282845e-02 1.133592039451993688e-01 -8.422557748485517415e-01 4.027995458452012789e-01 -4.236344801902183765e-01 8.113484781897745135e-01
-3.137858253114226420e-02 -3.866869897531226286e-02 -9.144174257803482364e-01 4.233698928486037683e-01 -3.730352682715138979e-01 8.255922858499595840e-01
-2.768491623035932575e-02 -1.071868520361385912e-01 -9.434042346776430055e-01 -4.020056442386217843e-01 4.279789540893649824e-01 -8.094599908932275101e-01
-6.350548577596147604e-02 -3.707530588526558590e-02 -8.946770949259618133e-01 4.031950633209375190e-01 -4.245536768574831865e-01 8.106712751667084493e-01
-4.777261459839105689e-02 7.770572844071070573e-02 -8.357825581091115064e-01 -4.020056442386217843e-01 4.279789540893649824e-01 -8.094599908932275101e-01
-7.934591344295585658e-02 1.276106659072111793e-01 -8.000538271614778818e-01 4.641973970048429154e-01 -4.329447254695806269e-01 7.727092864085415291e-01
-7.796800797249481274e-03 -1.296133936671045594e-01 -9.740278808234340557e-01 5.356135149575516063e-01 -2.568663980313116157e-01 8.044487654022699497e-01
4.659070068570634465e-02 -3.038144030256032316e-02 -9.458033494816756592e-01 4.020056442386217843e-01 -4.279789540893649824e-01 8.094599908932275101e-01
-1.744299170595598608e-02 1.308647306944529243e-01 -8.228089556103930224e-01 -4.021135580034395640e-01 4.257773785523149557e-01 -8.105666600489643825e-01
-2.250613139624913026e-03 -8.912337234632737581e-02 -9.558090754781988219e-01 4.535786438231504958e-01 -4.165643394601477589e-01 7.878709062769625460e-01
-1.173098111783046600e-03 5.860717087867511194e-02 -8.665194069515065323e-01 1.209519754232584177e-01 4.639795016478246437e-01 -8.775497944229989633e-01
-2.462269832503031358e-02 -7.110143267414309465e-02 -9.258458978673103079e-01 -4.020056442386217843e-01 4.279789540893649824e-01 -8.094599908932275101e-01
5.317084564331454877e-02 7.456938017268786856e-02 -8.938998896208778522e-01 3.975910750552919537e-01 -4.290769621554186841e-01 8.110575180490313674e-01
3.574150494800915068e-02 -1.919251008311047627e-02 -9.345447098743248082e-01 4.008047028521223298e-01 -4.250410079239575478e-01 8.116007218790580735e-01
-5.298996367166943812e-03 -6.114173279358836588e-02 -9.301768040963552808e-01 -4.020056442386217843e-01 4.279789540893649824e-01 -8.094599908932275101e-01
-1.853801343504194593e-02 3.100572579559840794e-02 -8.748815047140360290e-01 -4.020056442386217843e-01 4.279789540893649824e-01 -8.094599908932275101e-01
-1.791502231507650228e-02 -1.299884648148625088e-01 -9.637410365126406475e-01 4.144161952074787991e-01 7.747766284465010811e-01 4.774729240101781569e-01
-4.720611849194288751e-02 -9.979020636324228977e-02 -9.359185377457295285e-01 4.020056442386217843e-01 -4.279789540893649824e-01 8.094599908932275101e-01
-9.045195247393945925e-02 8.218152837566614424e-03 -8.516057154622792558e-01 -3.855167919494306705e-01 4.309467347769490031e-01 -8.158809440783045819e-01
2.806109749056405131e-02 9.481723261590649376e-02 -8.708707898817427129e-01 4.011478244440359053e-01 -4.237997700025257219e-01 8.120801548428722150e-01
-5.171570931141510584e-03 -3.719778957302983802e-01 -1.095348232388314802e+00 7.942112774296425926e-01 2.835248172251485510e-01 -5.374403453603211478e-01
-2.255017043414502334e-02 5.090433001907714028e-02 -8.603906344520720895e-01 -1.769568251068677212e-01 8.479189265153158628e-01 -4.997196975357405258e-01
-2.359060934122151482e-02 5.828719031401280448e-02 -8.562619825163829690e-01 -4.987067008830244896e-01 -1.697251155235732223e-01 -8.499911832806734679e-01
9.207693253464907523e-02 2.011723513511104282e-03 -9.455574522621065237e-01 -4.190083682952265298e-01 4.249895253306223419e-01 -8.023813872827710858e-01
1.740421640378919318e-02 -1.712653312571538189e-01 -9.997662355708288873e-01 -4.038573215874380340e-01 4.310828530283473126e-01 -8.068871281816069052e-01
-5.073984732313668866e-02 1.504836451275881892e-01 -8.026421910484078381e-01 4.069480296805659258e-01 -4.246054334333811964e-01 8.087666703307918592e-01
-5.071249122671408517e-03 -2.975080636484167193e-02 -9.136928514202010687e-01 -4.020056442386217843e-01 4.279789540893649824e-01 -8.094599908932275101e-01
4.977437771564634933e-02 1.531049475096263046e-01 -8.445040429454587771e-01 -4.081012085121812905e-01 4.223061211175001550e-01 -8.093892411427202616e-01
-1.696079948209247221e-02 -4.969868618723236736e-02 -9.244549353882146603e-01 4.020056442386217843e-01 -4.279789540893649824e-01 8.094599908932275101e-01
1.307858139222159780e-02 -5.093539513680381964e-02 -9.400273987656185826e-01 4.020056442386217843e-01 -4.279789540893649824e-01 8.094599908932275101e-01
-4.674247395605639691e-03 -2.858166082971925759e-01 -1.049609718233116329e+00 7.940354301894509970e-01 2.801842257425523064e-01 -5.394483619855562351e-01
-8.863319020826078420e-03 -3.403415333546622179e-02 -9.140742771330933047e-01 -4.020056442386217843e-01 4.279789540893649824e-01 -8.094599908932275101e-01
2.673797528842188770e-02 -9.110057272794674921e-02 -9.619273497685835173e-01 -4.020056442386217843e-01 4.279789540893649824e-01 -8.094599908932275101e-01
7.392543039276604222e-02 8.059612932723335399e-02 -9.009063433181078162e-01 4.011651056796950998e-01 -4.251580509009054154e-01 8.113613188580919289e-01
-5.515060146953772863e-02 -8.416019223036244612e-02 -9.237091089787352605e-01 4.020056442386217843e-01 -4.279789540893649824e-01 8.094599908932275101e-01
1.912308564004485539e-02 4.412175640854265612e-02 -8.866505722900263065e-01 -4.020056442386217843e-01 4.279789540893649824e-01 -8.094599908932275101e-01
-7.940061662504582785e-02 1.331365542771211219e-01 -7.948142669660029913e-01 8.454981381599191437e-01 -1.658236771068346826e-01 -5.075779806875774236e-01
-1.388516751305142981e-02 -2.145312943990423382e-01 -1.008992338550335655e+00 3.681949919352203171e-01 9.168667892789217344e-01 -1.542327417612228413e-01
-6.275324581747987462e-02 -6.877591679159897331e-02 -9.117993763678891028e-01 4.020056442386217843e-01 -4.279789540893649824e-01 8.094599908932275101e-01
3.715083567388742752e-04 1.897329996297807964e-01 -8.008790826350375980e-01 -4.012880524610859534e-01 4.225214350310823042e-01 -8.126767720879337631e-01
-8.178124750304638368e-02 3.928553759118365817e-03 -8.579982582143574898e-01 -3.967176413103557508e-01 4.291098737247157069e-01 -8.114677007405202147e-01
3.641813360502054592e-02 1.145450347239048289e-01 -8.581168407189725400e-01 -4.020056442386217843e-01 4.279789540893649824e-01 -8.094599908932275101e-01
-4.585401163227748739e-02 -3.358092395599276969e-02 -8.954637960477148662e-01 -4.020056442386217843e-01 4.279789540893649824e-01 -8.094599908932275101e-01
-9.664957471093702304e-03 1.003830852688852165e-01 -8.427181223867914461e-01 -4.020056442386217843e-01 4.279789540893649824e-01 -8.094599908932275101e-01
-6.583315840005196651e-03 -1.914994842556316246e-01 -9.986621518326763702e-01 -3.976713180934722258e-01 4.375222339515706382e-01 -8.064935322517022831e-01
4.991143286688887876e-03 -1.812811034907005625e-01 -9.965093297998853794e-01 -8.221245416028841735e-01 2.654850664122086479e-01 -5.036158432837006815e-01
-6.755693139593274554e-02 9.231673230915946049e-02 -8.247287210754820075e-01 4.080759810510568575e-01 -4.246872001772862282e-01 8.081551680802364634e-01
-6.750649959347397588e-02 8.415438315165608973e-02 -8.227364404085847349e-01 -3.900677736912615545e-01 4.290414475885656054e-01 -8.147211597710291020e-01
-4.781904549251685121e-02 -1.195328871169424600e-01 -9.489953156324055783e-01 4.245578484640514794e-01 -3.716056721089271986e-01 8.256269483029534673e-01
2.035153325843074305e-04 -2.294103703096111446e-01 -1.019284155579154305e+00 -3.267057088384374142e-01 4.417624060001614783e-01 -8.355293869501674298e-01
7.285626365893603518e-02 -2.025510496977695613e-02 -9.534526920913017900e-01 3.964398270892398046e-01 -4.288221757421115665e-01 8.117555081976686182e-01
4.830288404201674851e-02 1.300169218480164146e-01 -8.559489974875215124e-01 -4.068781847041181843e-01 4.265237705982680705e-01 -8.077918147186918807e-01
4.355096941691247690e-03 3.893670337507704193e-02 -8.820577310397411663e-01 -4.020056442386217843e-01 4.279789540893649824e-01 -8.094599908932275101e-01
-7.697232899117202598e-02 -2.379098999952427088e-02 -8.750086311688765051e-01 -3.966381127392528683e-01 4.292565125149393479e-01 -8.114290196845043157e-01
-2.147426547117944201e-02 -1.131522100162750122e-01 -9.558648372834456231e-01 4.065496930122083352e-01 -4.297123711847482541e-01 8.062658526580798179e-01
-6.245644664445206690e-02 -4.109891126666884859e-02 -8.973133473287226991e-01 4.020056442386217843e-01 -4.279789540893649824e-01 8.094599908932275101e-01
-6.694702852905529133e-02 -7.975171175370340815e-02 -9.155197392780979326e-01 4.020056442386217843e-01 -4.279789540893649824e-01 8.094599908932275101e-01
4.125716191635851043e-02 -4.125414639736339067e-02 -9.489031650646085891e-01 4.020056442386217843e-01 -4.279789540893649824e-01 8.094599908932275101e-01
-1.679683154939382722e-02 9.005914090185258847e-02 -8.511530039323588204e-01 4.027995458452012789e-01 -4.236344801902183765e-01 8.113484781897745135e-01
-8.694973090585610132e-02 5.106415364175246469e-02 -8.307633558264158058e-01 -3.853020342490039996e-01 4.301910278261893983e-01 -8.163810519490432016e-01
3.568967243134626294e-02 -1.357207883337372412e-01 -9.899647404222399194e-01 -4.020056442386217843e-01 4.279789540893649824e-01 -8.094599908932275101e-01
-8.855777641450175708e-02 3.680500049445159516e-02 -8.375133592406490690e-01 -3.785506829983935062e-01 4.282495536717043083e-01 -8.205496329786735599e-01
6.680599551701123240e-02 9.988535836969615611e-02 -8.810466902557343438e-01 -4.060760357552292144e-01 4.239664029533689038e-01 -8.095398337031350922e-01
2.050117111372764395e-02 -5.846256150611400804e-02 -9.415735181130691078e-01 -4.020056442386217843e-01 4.279789540893649824e-01 -8.094599908932275101e-01
-1.549839301705243505e-02 6.694418748298437694e-02 -8.574588144332023765e-01 -4.024610846407851161e-01 4.254940643892383689e-01 -8.105429516807171053e-01
-4.459898479007331747e-04 1.373468920981587293e-01 -8.345655449718384356e-01 4.020014734934893030e-01 -4.239475606401331143e-01 8.115807298946570159e-01
-8.476371557722554850e-02 1.174325146308716761e-01 -8.024016950309528218e-01 5.446985805230761812e-01 -4.310393322659366588e-01 7.193806714222180654e-01
1.023434295803108546e-02 1.353037921930070053e-01 -8.408955938674932407e-01 3.948873312151207626e-01 -4.253461606286056407e-01 8.143369322855890102e-01
-2.718743298074404943e-02 1.331468974728461652e-01 -8.136911827347916848e-01 -4.066486802581496529e-01 4.276046638054169513e-01 -8.073358051865168195e-01
5.936819965711604558e-02 -1.133588525667820340e-02 -9.330206959956802715e-01 -3.642812963637022672e-01 3.602046358947882942e-01 -8.588083356602237428e-01
1.810313314502607490e-02 1.476775548358289225e-01 -8.415578376552331763e-01 4.321035296542358184e-01 -5.160531145956931409e-01 7.395780706432794060e-01
-5.870575603424255801e-02 1.546926252030723925e-01 -7.964211127538416424e-01 4.084141511599890251e-01 -4.234059204831578382e-01 8.086564830829438000e-01
-5.397260091241561780e-02 1.523642503339243601e-02 -8.656362843954512609e-01 -3.976619088472815866e-01 4.288080102668882509e-01 -8.111650242601000649e-01
5.169057986847014341e-02 1.436762278146658800e-01 -8.569420146215086520e-01 3.973779805534924936e-01 -4.242443226374306708e-01 8.136998803497121902e-01
-9.862851880861336906e-02 1.530866077100292988e-02 -8.491269261945152413e-01 4.351898961515552333e-01 -4.184881188731733315e-01 7.971683941612283109e-01
5.856993995651339074e-02 1.614539233152206543e-01 -8.445826898918743497e-01 -4.081012085121812905e-01 4.223061211175001550e-01 -8.093892411427202616e-01
-4.662185645964494682e-03 -1.747107646971665651e-01 -9.905936338308690692e-01 -4.006010427808336383e-01 4.316443755685752115e-01 -8.082090927247254086e-01
4.347169303430874210e-02 7.610947030338270636e-02 -8.819172044127312482e-01 -4.056953700849085798e-01 4.246001685576192841e-01 -8.093985196134907412e-01
-7.743103587387593911e-02 3.728084051933290566e-02 -8.424992413797829371e-01 -3.921863652509172682e-01 4.263517118581390264e-01 -8.151159872723076072e-01
-4.298534750096080770e-02 1.325956322710170610e-01 -8.170043810805888151e-01 4.933478839482577927e-01 1.957730057156879810e-01 8.475144810779469129e-01
-5.555152444823639561e-04 1.512607564358093015e-01 -8.204757858911472246e-01 -4.018048378126582443e-01 4.235723212816639438e-01 -8.118739809566546395e-01
8.207872550741721063e-02 -4.247633938784474428e-02 -9.696323610881529831e-01 3.835845428797556855e-01 -4.297583195790802835e-01 8.174170815540214852e-01
-8.235453450403791521e-04 2.118392489968839720e-01 -7.857469542652147920e-01 -3.535682159903519306e-01 4.207909380968121171e-01 -8.354187591004914593e-01
2.896123838989943591e-02 9.972082249314391522e-02 -8.622513710458539204e-01 -4.020056442386217843e-01 4.279789540893649824e-01 -8.094599908932275101e-01
-5.426668392064070562e-02 -8.701883809032254224e-02 -9.256595205206492594e-01 4.020056442386217843e-01 -4.279789540893649824e-01 8.094599908932275101e-01
4.854703252224259330e-02 -1.616115619660496092e-02 -9.331363912705421537e-01 -4.020056442386217843e-01 4.279789540893649824e-01 -8.094599908932275101e-01
-4.076891340879541629e-03 -1.876792182621988270e-01 -1.007202511554218471e+00 4.513171004494402894e-01 -4.214089306770930632e-01 7.865922628576377251e-01
5.283208611058061097e-03 -1.127266552762292984e-01 -9.607940801775221029e-01 -8.057759571759294248e-01 2.768104094358600498e-01 -5.235466589189222697e-01
5.985568590480462581e-02 1.824656616248796492e-01 -8.406041379933886226e-01 3.955913005378208780e-01 -4.259904047843217079e-01 8.136582193835967258e-01
-1.677111850420609854e-02 1.858545765026481389e-01 -7.944551170924738503e-01 -4.056850828561056055e-01 4.212516915493964009e-01 -8.111514198439198076e-01
-3.996617528896249938e-02 1.953730411455707749e-01 -7.842571258807627954e-01 4.284659295420603642e-01 -4.477324781996319669e-01 7.848264618289028105e-01
2.283998860132654615e-02 2.608338533755150471e-02 -9.043395906649562832e-01 4.009481919876097811e-01 -4.252986829063947760e-01 8.113948346273549550e-01
-7.099889564584954682e-02 -2.937238683385638011e-02 -8.868671328891341021e-01 4.074085731296639423e-01 -4.267120588357737332e-01 8.074249645537265874e-01
2.345749844072999440e-02 -3.437446373186631154e-02 -9.303058350621891126e-01 -4.020056442386217843e-01 4.279789540893649824e-01 -8.094599908932275101e-01
4.490799094455368012e-02 1.607183824795357929e-01 -8.480286254047904038e-01 3.838473200294607590e-01 -4.367294682622449020e-01 8.135899498258184481e-01
-2.171501265564921429e-02 -1.261105575692234582e-01 -9.563744651427129595e-01 -4.020056442386217843e-01 4.279789540893649824e-01 -8.094599908932275101e-01
-5.094809992554261840e-02 -1.283419469829776005e-01 -9.430875348457935514e-01 -3.964083985504719410e-01 4.297321063475481595e-01 -8.112895280556441380e-01
-8.033516455078798524e-02 -4.484168156130390048e-02 -8.845022113302777322e-01 -3.965162748990831987e-01 4.294377059801137153e-01 -8.113926918716313219e-01
-3.658487784210932153e-02 -1.665466657389404470e-01 -9.704433470312902044e-01 -3.996596321701909038e-01 4.324515558027038353e-01 -8.082436701251726197e-01
-3.676440858821677232e-02 5.759615894366912348e-02 -8.490414362520555258e-01 -4.222519950438278769e-01 3.712021357376478203e-01 -8.269898591308820768e-01
-8.666383613664685459e-02 -6.273322776550172009e-02 -8.965050192200431090e-01 4.199555760549045780e-01 -4.222056481364194758e-01 8.033552793267119130e-01
6.173339859654751807e-03 -5.948250326297729179e-02 -9.356252375521113551e-01 -9.857922956839896278e-01 -7.851052028607903577e-02 1.484912387129254940e-01
-2.124696690363295747e-03 5.712632178338034050e-02 -8.756150707559324786e-01 4.025350784855339925e-01 -4.233188593665665467e-01 8.116444134553223444e-01
9.514719422337808430e-02 1.022177326240324563e-01 -8.945882899104035113e-01 -4.665601713541015494e-01 4.017097700495982360e-01 -7.880043573183657113e-01
-3.089680122286188584e-03 1.291096178942625350e-01 -8.308479856133881292e-01 -4.021384378126147130e-01 4.259145402736261854e-01 -8.104822522530247264e-01
-2.731108451602566947e-02 1.186561039058949517e-02 -8.869282087458427721e-01 4.030582540586255536e-01 -4.248656678994964797e-01 8.105758496744935870e-01
6.976213664814330528e-03 -9.965801881569712195e-02 -9.628123042859140224e-01 4.029774041094176251e-01 -4.308339849041495362e-01 8.074597756104302526e-01
-1.696107850273058035e-02 -2.077866235774688819e-01 -1.007917336283427723e+00 4.257358747533779852e-01 -3.944267601053035310e-01 8.143564918761375671e-01
2.766610436951059612e-02 -1.929635301833386996e-01 -1.020751558120665425e+00 -6.425148344655702282e-01 4.979894078147864556e-01 5.823926829862813292e-01
-3.025772657889062162e-02 -1.181618181398036080e-02 -8.917019585367750301e-01 -4.020056442386217843e-01 4.279789540893649824e-01 -8.094599908932275101e-01
-1.791147414368193802e-02 7.628940563357666793e-02 -8.513548737465427285e-01 -4.024610846407851161e-01 4.254940643892383689e-01 -8.105429516807171053e-01
-3.490250854208117948e-04 -2.490241427521249773e-01 -1.029438327686717169e+00 -3.267057088384374142e-01 4.417624060001614783e-01 -8.355293869501674298e-01
-5.851791552378092336e-03 -2.588822229694625610e-01 -1.037261841762889381e+00 7.829690485915419274e-01 2.875015447155421788e-01 -5.516360491608871541e-01
8.932254609084194774e-02 7.107388702930488023e-02 -9.076824154409611767e-01 -4.251899798650288220e-01 4.186785008899650551e-01 -8.024473776609328812e-01
-5.382453257846680356e-03 -1.925457578085864041e-01 -1.008648819301371180e+00 8.180028395146664577e-01 -2.729520973429752639e-01 5.063284577248389207e-01
3.417064570389675981e-02 2.115834445841912048e-01 -8.126024827815027107e-01 3.751635529375710876e-01 -4.583173390285492088e-01 8.057279474444513090e-01
-2.528408395031441977e-02 -5.393248973520690243e-02 -9.225598095786560204e-01 4.020056442386217843e-01 -4.279789540893649824e-01 8.094599908932275101e-01
1.840669151899312211e-02 1.461061291834734599e-01 -8.392490847127185294e-01 4.022894012392171925e-01 -4.257465985503726125e-01 8.104955715322446075e-01
-7.450244994820467981e-02 3.334170100660151931e-02 -8.460108059200854846e-01 -3.967855642020334805e-01 4.288078032898081648e-01 -8.115941620530813250e-01
-3.875482860869824617e-03 1.273818138925219001e-01 -8.380726436095400356e-01 4.020014352355720244e-01 -4.239290927054658598e-01 8.115903957209332775e-01
5.468835778253688940e-03 1.362044077957126342e-01 -8.313646116814289444e-01 -4.021527156184509511e-01 4.259122328389337020e-01 -8.104763804324338627e-01
-3.317459088555198363e-03 3.445649695946239460e-02 -8.900776268472279096e-01 4.528758322790378266e-01 -4.116106010251279201e-01 7.908730578678867529e-01
1.885151198640819996e-03 -9.216301615709182604e-02 -9.501463201450516260e-01 -4.020056442386217843e-01 4.279789540893649824e-01 -8.094599908932275101e-01
7.085594024273612901e-02 1.503139355336655658e-01 -8.628453084993767952e-01 3.959264765117314622e-01 -4.274080952733719796e-01 8.127512198033255419e-01
1.652705008186313579e-02 -5.331718889994208066e-02 -9.368793635966815581e-01 -4.020056442386217843e-01 4.279789540893649824e-01 -8.094599908932275101e-01
3.858194387547592835e-02 9.674988712286020087e-02 -8.750596484550372534e-01 4.011133515498229163e-01 -4.235509139280951851e-01 8.122270018407068415e-01
-7.330991529644018123e-02 -1.092826838927298955e-01 -9.220711482547876425e-01 -3.955112765156802435e-01 4.305904656322498969e-01 -8.112722607457620860e-01
-4.276242992687887684e-02 -6.570044059551577442e-02 -9.139814628886586689e-01 -4.020056442386217843e-01 4.279789540893649824e-01 -8.094599908932275101e-01
8.888411664018622260e-02 -3.358754667083059531e-02 -9.681403664419310218e-01 3.656120514120398957e-01 -4.310647685203750634e-01 8.249309020777165768e-01
7.190573892439740267e-02 1.281316779629645963e-01 -8.687968078806048711e-01 -4.138746425584742261e-01 4.241559365752329280e-01 -8.054809257301391856e-01
-5.926782088072909266e-02 -4.681199696290866581e-03 -8.735704933445778142e-01 -3.976307273662685327e-01 4.289007507106992745e-01 -8.111312783353697986e-01
6.339880892889010466e-02 1.616698578699007072e-01 -8.446722667813323371e-01 -5.828133902533034760e-01 3.170912463846971008e-01 -7.481856010427160308e-01
8.415287802990514821e-02 8.713357342008014317e-02 -9.024796101361087786e-01 3.843924023062015305e-01 -4.295790486736143499e-01 8.171317653781058343e-01
-1.869901680735711058e-02 -1.773911828692548986e-01 -9.850796715625351752e-01 -3.996441944170187610e-01 4.319673068510117564e-01 -8.085102124776507582e-01
6.815515976056184255e-02 6.144482351343041188e-02 -9.019537652129221428e-01 -4.020056442386217843e-01 4.279789540893649824e-01 -8.094599908932275101e-01
-2.988017728235997303e-02 -1.863689587983391183e-01 -9.904105084024384942e-01 4.020056442386217843e-01 -4.279789540893649824e-01 8.094599908932275101e-01
-6.026721087763442508e-02 -1.298966535836025560e-01 -9.393646441393249669e-01 -3.946885322406553098e-01 4.313201612316922007e-01 -8.112853265237726097e-01
6.283059417102429545e-02 3.285317207470513090e-02 -9.143727374701128285e-01 -4.063403495741270133e-01 4.270270697330429965e-01 -8.077966340751780994e-01
-6.530250028327799772e-02 1.806261578462277362e-02 -8.585881847172183168e-01 -3.976447090072798840e-01 4.287955909285131040e-01 -8.111800210796510369e-01
7.842633508445294444e-02 -8.697706928868516318e-02 -9.888980975471267643e-01 -3.508296862875947553e-01 5.903181914342315872e-01 7.269408257080942626e-01
1.339935090025583600e-02 2.294131969619839784e-01 -7.926909460936356622e-01 3.266216122661969035e-01 -5.404729041245890375e-01 7.753756265886636578e-01
-3.773796375726332780e-02 -1.385824274663871244e-02 -8.890666973900818171e-01 -4.020056442386217843e-01 4.279789540893649824e-01 -8.094599908932275101e-01
-2.654689648155434539e-02 1.970866655817697655e-01 -7.838601109262949285e-01 -3.887158062639601286e-01 4.141259556890006244e-01 -8.230429604736506644e-01
-4.757045695313045358e-02 4.770880640508737974e-02 -8.580656537514658178e-01 4.028082497173136600e-01 -4.250032749917184716e-01 8.106279850868632897e-01
-2.813727999781610173e-02 3.249355514354507202e-02 -8.693275316485816751e-01 -4.020056442386217843e-01 4.279789540893649824e-01 -8.094599908932275101e-01
4.875407733731815935e-02 -3.586348886105015371e-02 -9.497762339590701819e-01 4.020056442386217843e-01 -4.279789540893649824e-01 8.094599908932275101e-01
7.364346964809838358e-02 6.620215292352919778e-02 -9.083562610647567537e-01 3.967855642020334805e-01 -4.292759896649624984e-01 8.113466218195778401e-01
-9.013897671857842853e-02 8.298100910297094568e-02 -8.180133865116389069e-01 4.357057728648272010e-01 -4.244189201893789343e-01 7.937436989844677271e-01
2.021242546080616667e-02 1.160597150140163375e-01 -8.559079357944329169e-01 4.011478244440359053e-01 -4.237997700025257219e-01 8.120801548428722150e-01
-4.603013991879908312e-02 -5.312793144554592978e-02 -9.118312180385711452e-01 4.020056442386217843e-01 -4.279789540893649824e-01 8.094599908932275101e-01
-4.951527492255741042e-02 -5.057571129202585031e-02 -9.087509664110603458e-01 4.020056442386217843e-01 -4.279789540893649824e-01 8.094599908932275101e-01
-2.862303134071913710e-02 -1.792197364526724457e-01 -9.872549022370729066e-01 4.020056442386217843e-01 -4.279789540893649824e-01 8.094599908932275101e-01
5.581498827286589769e-03 -8.180418837819654343e-02 -9.449037951444898553e-01 -8.057759571759293138e-01 2.768104094358600498e-01 -5.235466589189222697e-01
-3.762159359483981808e-02 -7.742675418150882227e-02 -9.288545026693633133e-01 4.020056442386217843e-01 -4.279789540893649824e-01 8.094599908932275101e-01
4.396254475529206424e-02 -1.501995756338730600e-02 -9.302562007954859880e-01 -4.020056442386217843e-01 4.279789540893649824e-01 -8.094599908932275101e-01
2.160433704197632643e-02 7.168576386596808847e-02 -8.733646789150818490e-01 -4.013260442594531185e-01 4.257298111775150717e-01 -8.109818333808821444e-01
1.495243710489286811e-03 -1.861662021740605466e-01 -1.005996678075349537e+00 4.020056442386217843e-01 -4.279789540893649824e-01 8.094599908932275101e-01
4.480438401593696968e-02 -1.370873117943469388e-01 -1.001398312177286698e+00 3.952649232978352467e-01 -4.277804326261667178e-01 8.128773227692641656e-01
5.910715199192622532e-02 -4.098558160945155876e-02 -9.515508268849477425e-01 -4.066495727354001444e-01 4.273880956261140729e-01 -8.074500236616507509e-01
2.828027918918169306e-02 1.412433419278053826e-01 -8.467022865071787141e-01 4.018850925983249445e-01 -4.256879415920860055e-01 8.107269261165120922e-01
-3.408361829968413470e-02 -1.302703938236045023e-01 -9.586506054145462752e-01 4.005023941884939265e-01 -4.313726745734312029e-01 8.084030231763416063e-01
-8.425960187220493669e-02 -1.120318814832495886e-03 -8.653559976981702873e-01 4.072802712921730905e-01 -4.268337943731783657e-01 8.074253480026306606e-01
-1.422381282421467802e-02 -1.462573554659221675e-01 -9.707468989100659362e-01 -4.020056442386217843e-01 4.279789540893649824e-01 -8.094599908932275101e-01
1.968988657561045186e-02 1.696536881199969538e-01 -8.209209625149967993e-01 -3.970718532213310392e-01 4.243272674792240573e-01 -8.138060662424390079e-01
1.843530576582167943e-02 1.361217362469335779e-01 -8.422886275393594024e-01 -1.808564094858133575e-01 6.585166148842396261e-01 7.305113462974421878e-01
3.121254759439281296e-02 -8.946937192295267849e-02 -9.632871250762037318e-01 -4.020056442386217843e-01 4.279789540893649824e-01 -8.094599908932275101e-01
-8.493644526897231595e-02 -2.245722710060211319e-02 -8.762512195866135611e-01 4.117060039589895970e-01 -4.224634529357781942e-01 8.074792859496149333e-01
-2.120244987866751890e-02 6.235311303770367519e-02 -8.570359352954822763e-01 -4.026820938987395460e-01 4.254515303383038516e-01 -8.104555056177495942e-01
-1.301699236130630238e-02 -6.800917712129933568e-02 -9.299747480181618231e-01 -4.020056442386217843e-01 4.279789540893649824e-01 -8.094599908932275101e-01
-1.769504700132675662e-02 1.370192101605317847e-01 -8.294858047325366357e-01 4.020056442386217843e-01 -4.279789540893649824e-01 8.094599908932275101e-01
-6.542199468558659858e-02 1.005110906997692261e-01 -8.151208197497313845e-01 -3.900677736912615545e-01 4.290414475885656054e-01 -8.147211597710291020e-01
3.464378122459623593e-02 -2.702214058578128117e-02 -9.319739956410523218e-01 -4.020056442386217843e-01 4.279789540893649824e-01 -8.094599908932275101e-01
3.510157562995817361e-03 -2.730807451591790724e-01 -1.055044995823588572e+00 -1.290611978019027828e-01 -4.707893759710130022e-01 8.727545878967135629e-01
-5.613296300084707341e-03 3.848017990002473160e-02 -8.801820805514041224e-01 7.949830871013668920e-01 2.889683506132074142e-01 -5.333846487917165424e-01
6.287804613021338862e-02 -5.799884432705409987e-02 -9.624544758581708992e-01 -4.067559306224737270e-01 4.272760652757479627e-01 -8.074557430261550817e-01
4.654879100436572908e-02 2.526113153762083244e-02 -9.102431390311420678e-01 -4.020056442386217843e-01 4.279789540893649824e-01 -8.094599908932275101e-01
-5.564804706303000392e-02 -1.492368429968458643e-01 -9.518919438761076490e-01 -3.902349244282958818e-01 4.380706987712607581e-01 -8.098214412044804078e-01
-2.694255002998006965e-02 1.784411766990078307e-01 -7.932124693428997952e-01 -4.063371683496887488e-01 4.207648095882939865e-01 -8.110777278594719641e-01
1.029637572579652355e-02 -9.145850363553004181e-02 -9.539511322882132660e-01 -4.020056442386217843e-01 4.279789540893649824e-01 -8.094599908932275101e-01
2.193557104716332973e-02 1.311897350836719878e-01 -8.488359958094922053e-01 4.018850925983249445e-01 -4.256879415920860055e-01 8.107269261165120922e-01
-3.197794836846939298e-02 7.331582549990259268e-02 -8.459304704318018064e-01 -4.024921511088637160e-01 4.253876214319180504e-01 -8.105833947400198358e-01
-3.507512121136141438e-03 1.129311968451896936e-01 -8.458028445673132500e-01 4.020012969755767385e-01 -4.238630401133220982e-01 8.116249629329094217e-01
1.733093584492681472e-03 1.511840799113066923e-02 -9.020748589094507164e-01 -1.110159541710009634e-01 -4.589554172426165146e-01 8.814961048712340874e-01
-6.597160842152353932e-02 4.725483956894718091e-02 -8.428443541192613964e-01 -4.020056442386217843e-01 4.279789540893649824e-01 -8.094599908932275101e-01
-9.251208085766592093e-02 -1.404265353690353248e-02 -8.624128805890115546e-01 -3.530840599846952199e-01 4.379702849869103187e-01 -8.267488591181779700e-01
-1.364884454215901238e-02 1.260647458264473053e-01 -8.338807106673776781e-01 4.092457419951688324e-01 -4.223904484972750284e-01 8.087671059564023324e-01
4.495898187686751465e-03 2.004228980209747379e-01 -8.044525901361985198e-01 -7.973066581116668994e-01 -2.749294145881663876e-01 5.373229102923247069e-01
-4.657340780533504414e-03 1.739553704951763702e-01 -8.132891479003421242e-01 4.019065107231637457e-01 -4.257769695382667141e-01 8.106695558913886712e-01
1.988080210499488208e-03 -1.110635981952290130e-01 -9.686718806589517117e-01 -1.375116433539150251e-01 -4.629707306078260087e-01 8.756418506116308009e-01
-7.804611504662123389e-02 1.154917011014541250e-01 -8.072238878261406292e-01 4.114701131814902380e-01 -4.252539748156627941e-01 8.061336135293524219e-01
-4.064827899209475653e-02 8.258066249213106419e-03 -8.759279653181706315e-01 -4.020056442386217843e-01 4.279789540893649824e-01 -8.094599908932275101e-01
5.366474005905455535e-02 2.133465887289904411e-02 -9.220729940320455675e-01 3.976305103744689484e-01 -4.288413698302099841e-01 8.111627806682751851e-01
-3.365474647040121031e-02 -1.354952648042029861e-01 -9.554066801920186869e-01 -4.020056442386217843e-01 4.279789540893649824e-01 -8.094599908932275101e-01
1.146862158117741698e-02 -6.860928088888157417e-02 -9.424524330229214764e-01 -4.020056442386217843e-01 4.279789540893649824e-01 -8.094599908932275101e-01
1.945970015315602597e-02 1.330966118538907395e-01 -8.466055369552856202e-01 4.022894012392171925e-01 -4.257465985503726125e-01 8.104955715322446075e-01
-5.146611373017311031e-02 8.721116868859829507e-02 -8.289827247613634764e-01 -3.978575604118342879e-01 4.259966066003593177e-01 -8.125492309934965185e-01
3.805999586157430767e-03 2.089341526774500246e-01 -7.894357470572236357e-01 -4.701359871852831551e-01 4.014764509050713914e-01 -7.859954280541250338e-01
-4.403003173134638348e-02 1.435987453998845975e-01 -8.096199084426664028e-01 4.015704658838992747e-01 -4.251398828903120708e-01 8.111702909413041063e-01
7.940482975983124969e-02 1.118511462721386851e-01 -8.811183163474201052e-01 -4.068794183350269433e-01 4.232752888322242057e-01 -8.094980968472670346e-01
3.869196425642339870e-02 1.549492826199251605e-01 -8.446733390893124138e-01 4.024363302479161963e-01 -4.249621951015460919e-01 8.108342203132929971e-01
-9.381668915897789507e-02 -4.308196430136630034e-02 -8.824653172818756053e-01 4.371165162637992152e-01 -4.146618690192045431e-01 7.981132034936522235e-01
-4.528810647454001997e-02 -3.583212745092473339e-02 -8.969351038308250867e-01 -4.020056442386217843e-01 4.279789540893649824e-01 -8.094599908932275101e-01
-2.756929411871714836e-02 -1.104443051134063603e-01 -9.451839422835661697e-01 -4.020056442386217843e-01 4.279789540893649824e-01 -8.094599908932275101e-01
-4.605026138900035482e-03 -1.386349271060109967e-01 -9.725453430141373090e-01 7.908231764249236129e-01 2.860764610535423969e-01 -5.410720488625108127e-01
3.351984747756800442e-02 1.508896360417452120e-01 -8.375698794721877505e-01 -4.023523050767993658e-01 4.255536083566713867e-01 -8.105656969142003287e-01
-5.439482003266384600e-04 -6.691551307667124859e-02 -9.330920942435385612e-01 -3.223550784095037258e-01 4.424601144338226599e-01 -8.368490010502560583e-01
4.777475716222610164e-02 -7.312009856592197043e-02 -9.689882429421730059e-01 4.020056442386217843e-01 -4.279789540893649824e-01 8.094599908932275101e-01
3.351641662687494111e-02 1.140430299807065895e-01 -8.635402369444873383e-01 4.011133515498229163e-01 -4.235509139280951851e-01 8.122270018407068415e-01
-6.901668428508722988e-03 -3.548038195140308937e-01 -1.088844787109336076e+00 7.942112774296428146e-01 2.835248172251486620e-01 -5.374403453603212588e-01
8.743127734615387461e-03 1.216601691317106132e-01 -8.406311381538589256e-01 -4.018637875394005521e-01 4.259341149314091468e-01 -8.106081827875195600e-01
6.795643514865020926e-03 -3.157988943291900052e-01 -1.071078053974739097e+00 -9.848820568107725659e-01 -8.487516207635383003e-02 1.510084137877596711e-01
-2.180153423433222118e-02 1.390329104699156160e-01 -8.263467532156074657e-01 3.664620202240138069e-01 -5.295236939919947261e-01 7.650557138107048072e-01
7.257481258014883418e-02 -7.104509802285015330e-02 -9.801205593524368043e-01 3.957395563858109311e-01 -4.285057516654096621e-01 8.122641345653666134e-01
8.812006297418095713e-02 1.047206099237152771e-01 -8.950813059026722085e-01 3.841391590322136840e-01 -4.306078929887156570e-01 8.167092193638092468e-01
1.400239171679549047e-02 -8.135366630164911350e-02 -9.565689906832702816e-01 4.020056442386217843e-01 -4.279789540893649824e-01 8.094599908932275101e-01
6.403215421396619500e-05 1.663154411359580587e-01 -8.099934402036848002e-01 -3.306070652632248641e-01 4.413363889668434070e-01 -8.342188922409663476e-01
-1.848766638815781474e-03 -3.069990181735819390e-01 -1.072587478530960814e+00 3.336172107411705112e-01 -4.482570567580575482e-01 8.293160843513679437e-01
-1.663657539195701265e-02 8.122090977754606311e-02 -8.558473253712537421e-01 4.027995458452012789e-01 -4.236344801902183765e-01 8.113484781897745135e-01
-1.081106889751796800e-02 1.891665934120373704e-01 -7.956670270237388154e-01 -3.991555275362951294e-01 4.227930940319519770e-01 -8.135851918982491826e-01
-5.464781591981593238e-03 -2.985571969426680794e-01 -1.057390329558871134e+00 7.829690485915419274e-01 2.875015447155421788e-01 -5.516360491608871541e-01
-1.900378119891957956e-02 -1.055133415115321882e-01 -9.468307635095338792e-01 -4.020056442386217843e-01 4.279789540893649824e-01 -8.094599908932275101e-01
5.915198225033656276e-02 1.530156879330399899e-01 -8.557265250901460174e-01 3.956884019861800494e-01 -4.273853576956126443e-01 8.128791082079895869e-01
6.182098188115570450e-03 -2.831346094923402057e-01 -1.052098653663945615e+00 -8.185304996738507199e-01 2.670295115116784745e-01 -5.086286082059392477e-01
-7.814226002499552459e-02 5.459528492388873722e-02 -8.331006795867449410e-01 -3.921913994363839806e-01 4.263326701227114213e-01 -8.151235247458938904e-01
1.729931984705397260e-02 -1.611153952747204077e-01 -9.942910873753616485e-01 -4.038573215874380340e-01 4.310828530283473126e-01 -8.068871281816069052e-01
-9.747551269708538968e-02 1.373937420549915800e-02 -8.505974275499501580e-01 4.492341222148677482e-01 -4.185726302748677963e-01 7.892944042767666701e-01
-2.597307571534179793e-02 5.711642501472598971e-02 -8.638611228874467640e-01 4.026820938987395460e-01 -4.254515303383038516e-01 8.104555056177495942e-01
-8.093012114797600021e-02 5.799412424987882703e-02 -8.339967280498448154e-01 3.815910037151365453e-01 7.695422750634368647e-01 5.120478422704896060e-01
4.324301096904772240e-02 -4.423390646423291939e-02 -9.453449004094542918e-01 -4.020056442386217843e-01 4.279789540893649824e-01 -8.094599908932275101e-01
2.902979594244011613e-02 1.781322776023805676e-01 -8.210572583951449843e-01 -3.970718532213310392e-01 4.243272674792240573e-01 -8.138060662424390079e-01
9.430543942846122962e-02 -2.442180714711866471e-02 -9.656729677799735789e-01 2.618910646579342139e-01 -4.351184398787398822e-01 8.614435637520458933e-01
1.549151449746881360e-03 -1.386925693211065735e-01 -9.833686137469122013e-01 -1.357625831802510563e-01 -4.674057166783949224e-01 8.735561899640923444e-01
6.248731881420595269e-02 -8.919991380474380505e-02 -9.877061208639564827e-01 3.632413068729478112e-01 -3.824459296650289941e-01 8.495827586903377249e-01
-8.969811483105122329e-02 -1.444296103446146909e-02 -8.695784545496085816e-01 4.188215722384723283e-01 -4.238008002237546035e-01 8.031073230629884874e-01
1.866652696007746123e-02 1.538360652685347163e-01 -8.286632038643357845e-01 -4.026184111304202951e-01 4.230660631719687093e-01 -8.117348835740568758e-01
3.781907681935067073e-02 -1.122902396404762415e-01 -9.787551116789752204e-01 -4.125498905204139088e-01 8.293579508497015418e-01 3.767863813807214024e-01
-3.517806789604752821e-02 -1.177435878445043035e-02 -8.892362352398024417e-01 -4.020056442386217843e-01 4.279789540893649824e-01 -8.094599908932275101e-01
-1.323803732013521285e-02 -1.065225548262515032e-01 -9.564236815485943621e-01 4.007501792334323132e-01 -4.312936271947543365e-01 8.083223991611047099e-01
-7.819146978961936945e-02 -9.859196507120066011e-02 -9.140642919152955903e-01 -3.820200498878981721e-01 4.348171417118482096e-01 -8.154720931811133555e-01
-3.077124716940830146e-02 -1.409244918700893745e-01 -9.597092744579636125e-01 -4.020056442386217843e-01 4.279789540893649824e-01 -8.094599908932275101e-01
-4.298113201207258427e-02 3.493433932767950334e-02 -8.670446874082131661e-01 4.029263505724537398e-01 -4.250756636309884207e-01 8.105313295629226200e-01
5.771263621275806409e-03 -2.295857107191485724e-01 -1.028791672241788024e+00 -7.944282570016082401e-01 -2.876060053052522103e-01 5.349453525265378540e-01
2.702472004204440215e-03 1.297135708199584625e-01 -8.401129059908236663e-01 4.022958339215105261e-01 -4.238693037884626591e-01 8.114757392031387573e-01
-5.405078215360865218e-03 3.349188482894771557e-02 -8.888354041023016627e-01 8.377643220812228675e-01 -2.538569331645355587e-01 4.834331371886766426e-01
-5.617232249304391495e-02 3.977961845301675181e-02 -8.579479262990953314e-01 4.029345037423449072e-01 -4.249812145410921671e-01 8.105768026418525007e-01
5.835272744847687376e-02 -9.921343118030237496e-02 -9.852188377908849271e-01 -2.374365433075951992e-01 6.486267427891158066e-01 7.231232512102776511e-01
-3.480222052300822183e-02 3.366236855999110711e-02 -8.653995163187201412e-01 -4.020056442386217843e-01 4.279789540893649824e-01 -8.094599908932275101e-01
-6.807471576758754306e-03 -2.883435459933971767e-01 -1.055589495223215657e+00 9.868613869843950726e-01 7.050143559800478577e-02 -1.453758936614202024e-01
6.208919485410633807e-03 -3.460658196084307608e-02 -9.306747327644604439e-01 5.286718869863464842e-01 -7.577314115481813550e-01 3.825560663007401829e-01
8.504385424819380090e-02 1.148140271168066051e-01 -8.883156594570192910e-01 3.837780790149019072e-01 -4.288863270664655669e-01 8.177841429882756197e-01
-7.222143077013307155e-02 -1.316521347274575704e-01 -9.401837503056916789e-01 4.151884592994364298e-01 -4.218533730097026035e-01 8.060138180855815904e-01
-4.128151003916788464e-02 5.250207416862771176e-02 -8.539923149692251192e-01 1.961792592338672259e-01 9.707334962734884831e-01 1.385286160296850810e-01
5.961026285617551657e-03 6.791128124888226592e-02 -8.707340058725093757e-01 -9.877042881207670488e-01 -6.785381612958457653e-02 1.408406861120092557e-01
2.258188585697505635e-03 -2.576618576782086500e-01 -1.035083154023717977e+00 -4.746765924814009829e-01 4.113966579581804228e-01 -7.780969877663619361e-01
-4.845087368174515879e-02 4.116958087765183738e-02 -8.610566103779317970e-01 4.028082497173136600e-01 -4.250032749917184716e-01 8.106279850868632897e-01
5.781992876496808154e-02 -9.630471980473782889e-02 -9.772264556321900164e-01 -3.780197185117773473e-01 3.811871191900673694e-01 -8.436809068479943496e-01
8.140649389473357880e-03 5.155578259046173645e-02 -8.793812816222253970e-01 -4.328560121021842177e-01 8.205126691606693390e-01 3.733559059849296258e-01
-7.312612893888395527e-02 -5.904454445425349335e-02 -9.014700096253998041e-01 4.075566037647173623e-01 -4.265408536924234495e-01 8.074407190989983940e-01
-1.219456951063968390e-02 1.313885361050963207e-01 -8.221749024860743882e-01 -4.068273283457845002e-01 4.271849510698242924e-01 -8.074679823314997451e-01
-4.049801605750011357e-02 5.271129872430400931e-02 -8.560445029125649530e-01 3.772441939987570825e-01 7.785673965823368681e-01 5.015173247986854932e-01
3.242080906125695966e-02 -4.904500696267544146e-02 -9.425139556852426548e-01 -4.020056442386217843e-01 4.279789540893649824e-01 -8.094599908932275101e-01
7.417164035180726089e-02 2.639563731289271131e-02 -9.295371262524237954e-01 4.008404962792949111e-01 -4.250831406378808852e-01 8.115609774305343471e-01
-6.685866856218042331e-02 5.394012066460458082e-02 -8.451209737815960077e-01 4.071388443378878841e-01 -4.245294928570004789e-01 8.087104989585501835e-01
6.275598558370952540e-02 1.535258431614875407e-01 -8.572126371488110186e-01 3.956884019861800494e-01 -4.273853576956126443e-01 8.128791082079895869e-01
-2.086239766740338383e-02 1.955680734493297490e-01 -7.874049304232930702e-01 -4.001899049923414720e-01 4.124810717665816640e-01 -8.183565270568280425e-01
-4.387118404470176369e-02 -1.608431778510623633e-01 -9.638380029802604554e-01 -3.913814492955163815e-01 4.353318011293373369e-01 -8.107445862124694758e-01
-2.823433256234262473e-02 -7.786315489832817960e-02 -9.276273045745564438e-01 -4.020056442386217843e-01 4.279789540893649824e-01 -8.094599908932275101e-01
-2.508691321471489362e-04 7.396237274050090731e-03 -8.964463746609060424e-01 -4.020056442386217843e-01 4.279789540893649824e-01 -8.094599908932275101e-01
7.130329252244384242e-02 9.712385343691537498e-03 -9.308713160956013644e-01 -4.074085731296638868e-01 4.270104972920830688e-01 -8.072671737057189878e-01
5.094273028757661907e-03 -3.742408114594629742e-01 -1.107562684566413935e+00 -7.949986652131073583e-01 -2.048922467096567501e-01 5.709608476486343065e-01
4.887160142040869459e-02 5.000329087339647205e-03 -9.283402779932088400e-01 4.020056442386217843e-01 -4.279789540893649824e-01 8.094599908932275101e-01
-8.060573250429220460e-03 -4.884349315104320743e-02 -9.251586920896425204e-01 2.643026562487897912e-01 9.592754555605704780e-01 9.967299663847800639e-02
4.023520885851702283e-02 -1.771378369701365474e-01 -1.014862013375085192e+00 -4.595893499214261380e-01 4.665661082776551005e-01 -7.557074143115473097e-01
3.477854049953244724e-04 -2.129802910547023628e-02 -9.119149645322004449e-01 -4.020056442386217843e-01 4.279789540893649824e-01 -8.094599908932275101e-01
-6.513175150970156035e-02 -1.392823237294845418e-01 -9.478094386214581668e-01 4.092954055239630962e-01 -4.246086291235676158e-01 8.075795831314578344e-01
-6.231682950386495390e-02 1.175836943430184078e-01 -8.140924201685411088e-01 4.021289491036457719e-01 -4.251369628996021222e-01 8.108951048497580194e-01
-3.083214908410173566e-02 -1.310347030156691073e-01 -9.544500838229409423e-01 -4.020056442386217843e-01 4.279789540893649824e-01 -8.094599908932275101e-01
-8.388965362142732866e-04 1.195175368020106044e-01 -8.370049994530618376e-01 -4.020045882997381193e-01 4.259515940868903727e-01 -8.105291792901690995e-01
3.477464106424640183e-02 -1.244544660742568087e-01 -9.835535568558364528e-01 -4.020056442386217843e-01 4.279789540893649824e-01 -8.094599908932275101e-01
9.981748428084963667e-03 1.497615170676780683e-01 -8.264795716405134440e-01 -4.022731758931019641e-01 4.258473191201749275e-01 -8.104507096394187871e-01
1.586113877782105441e-02 2.163659478734713815e-01 -8.011907332858281272e-01 3.945899656914623188e-01 -4.296772073902050959e-01 8.122045656267669056e-01
