-1.882834452902546309e-03 -2.861250909191668801e-01 -9.068061929092160467e-01 4.422137167718336870e-01 3.955895061926829603e-01 -8.049571238824274610e-01
4.728768331738141678e-02 1.016099872174234392e-01 -6.408421538584744281e-01 -8.546128390379911233e-01 -2.379600974374438960e-01 4.615321087194120264e-01
3.329183627904724885e-02 1.309889236025857939e-01 -6.564700126896084731e-01 -8.487600505392383088e-01 -2.424346731138596611e-01 4.699274474648248434e-01
-1.325344006598915166e-02 -1.271857546973524933e-01 -8.627089800642492312e-01 -8.421268507528490987e-01 -2.423017257984295403e-01 4.817802828221506295e-01
4.304860719002342323e-02 -2.871405433703871218e-02 -7.145920349434545793e-01 -8.446912394297478865e-01 -2.404628600212725120e-01 4.781990411753525572e-01
2.951949225976503374e-02 -5.401009851751741031e-02 -7.511418933812916698e-01 -8.421268507528490987e-01 -2.423017257984295403e-01 4.817802828221506295e-01
-2.417635478524469972e-02 2.136045915019793018e-01 -7.090278761250394801e-01 -8.301206072130232760e-01 -2.703746520572726797e-01 4.876446708467040980e-01
-3.437012203270401606e-02 1.270258376971969694e-01 -7.606423949319701672e-01 8.423987667920077582e-01 2.446031817299866018e-01 -4.801391477424766796e-01
-1.860938548410938018e-02 -8.955315088614061725e-02 -8.428556734890063629e-01 8.447288314127786579e-01 2.375011566521770812e-01 -4.796106774967375252e-01
2.750950503099747202e-02 1.063429638328435706e-01 -6.626993903440789868e-01 8.393851678381464287e-01 2.489231580590481607e-01 -4.831871287557616412e-01
-4.738675930770101970e-03 -1.768753006365232361e-01 -8.726183115372260213e-01 -8.388261847466285115e-01 -2.354040789298820213e-01 4.908722353185083764e-01
-2.789124897926680414e-04 8.041875923324932895e-02 -7.221934922226221909e-01 4.484122170184428602e-01 4.060316325774576129e-01 -7.962818577457918545e-01
3.638152020549120097e-03 1.233091946858859977e-01 -6.956901677675669804e-01 8.378172928637003247e-01 2.494147487847991340e-01 -4.856485013537632511e-01
-1.512325570418407601e-02 -1.669809196196187229e-01 -8.855724427989414282e-01 -8.370875597617988273e-01 -2.357903700302969585e-01 4.936469575445722735e-01
3.561729506445361626e-02 2.264420901828875787e-02 -6.912143559566943374e-01 8.395197819448770860e-01 2.439211315681119874e-01 -4.854987304800683634e-01
-4.967158408658368940e-02 -2.352049351546904588e-03 -8.534710216140383165e-01 8.453404863543225733e-01 2.403770059604658227e-01 -4.770936565662129980e-01
3.512464289294894848e-02 -1.100236635032875165e-01 -7.694290084150119391e-01 -8.451048518376139684e-01 -2.397662840625604808e-01 4.778178716073271382e-01
1.132118093543940315e-02 -1.490280341357316518e-01 -8.202696007079235407e-01 8.421268507528490987e-01 2.423017257984295403e-01 -4.817802828221506295e-01
-3.329613966947309912e-03 6.929589291855833225e-04 -7.705553432302247874e-01 8.423194174388455302e-01 2.450341984612203483e-01 -4.800585803732198009e-01
2.827880698738934832e-03 2.083902355474477608e-01 -6.701403646108088363e-01 -7.988204850388745948e-01 -2.813640017703761820e-01 5.317143323157812462e-01
2.302927176846106261e-02 1.856739445031372615e-01 -6.406145110643765017e-01 -8.489396720263078233e-01 -2.565966627001211586e-01 4.620168676044470457e-01
-2.244807282080351143e-02 -7.768242249798858537e-03 -8.187220777634344193e-01 -8.421268507528490987e-01 -2.423017257984295403e-01 4.817802828221506295e-01
-7.050954830601961244e-03 2.143002216078794889e-02 -7.665060419434042149e-01 8.425920721426861659e-01 2.448678369245071151e-01 -4.796648229776782624e-01
2.470299101844364992e-02 5.415811430506171920e-02 -7.050526946559926289e-01 -8.442923978065958179e-01 -2.434147253332457073e-01 4.774092777658699438e-01
2.747286970631419509e-02 -1.411735005552179345e-01 -7.985563670745772225e-01 -8.421268507528490987e-01 -2.423017257984295403e-01 4.817802828221506295e-01
1.022054832710525205e-03 -6.201267227862469061e-02 -8.076636571096365014e-01 -4.599480703938889081e-01 -3.989597380940390625e-01 7.932710129084978856e-01
3.352915503922450358e-02 7.418164515699619821e-02 -6.685759157208271963e-01 8.418481438346935297e-01 2.449895135959115899e-01 -4.809073101441898035e-01
-5.580060101191372524e-03 8.224090231640393545e-02 -7.438250153635503903e-01 -8.423887388475300719e-01 -2.445296624691538079e-01 4.801941865907892182e-01
1.278706211422732733e-02 -8.882266726907954435e-02 -7.876151672333276954e-01 8.421268507528490987e-01 2.423017257984295403e-01 -4.817802828221506295e-01
-2.804338261118062038e-03 4.814257339223294851e-02 -7.520974840489171864e-01 3.311556722454830903e-01 -4.184437891156488343e-01 8.457190526943214604e-01
3.367443735898746626e-02 -7.974185214608069117e-02 -7.465381090453164781e-01 8.421268507528490987e-01 2.423017257984295403e-01 -4.817802828221506295e-01
4.715043551185302967e-02 -6.983348764806471265e-02 -7.279880480524533182e-01 -8.453849924436998009e-01 -2.397077409943832449e-01 4.773514569563345744e-01
-4.819492081326587352e-02 1.341292570505241977e-01 -7.814512245773662658e-01 8.456170934938570527e-01 2.418473621063618184e-01 -4.758587864410994683e-01
1.139988787937509275e-02 -1.248374304843584692e-01 -8.072911922214430769e-01 3.317712973586192660e-01 -9.112764651640599123e-01 -2.439323887618748410e-01
-3.127952275695120195e-03 1.163079401698372262e-01 -7.059114805634973955e-01 7.949087246445321053e-01 2.804130406230728179e-01 -5.380414910883049018e-01
-4.126938771510309939e-02 -6.589825620155076447e-02 -8.785194346431030032e-01 -3.855164858733073352e-01 -7.421943160647392901e-01 -5.482012735493141387e-01
-3.530499459537982804e-02 1.349450105597228486e-02 -8.352040561029300259e-01 -8.604046436040290180e-01 -3.000459926918340181e-01 4.119177727826223157e-01
1.946858754337511821e-02 -1.823462878334006308e-03 -7.319518712195590693e-01 8.414874782836091471e-01 2.457147261055153964e-01 -4.811684707737862166e-01
5.332293094132872086e-02 -7.955298968936817816e-02 -7.217726688111696376e-01 -8.525798643954834999e-01 -2.327934994490871989e-01 4.678832775828036250e-01
-5.130518037850211391e-03 -2.326644602828203401e-01 -8.850029922170642438e-01 8.696703149013267353e-01 2.174601478535676258e-01 -4.431530519751972763e-01
4.306190494112486708e-03 1.176966022549513768e-01 -7.053792459761797362e-01 -7.182271853453724431e-01 3.197368612587743186e-01 -6.179951858900289974e-01
-3.857243261267397777e-02 5.876596627336892059e-02 -8.028433003125238221e-01 8.427178477043090199e-01 2.449643120598679891e-01 -4.793945295658397221e-01
-1.019837551198127766e-02 2.280837873236574165e-01 -6.767882687978903355e-01 -8.232850484734738350e-01 -2.928757103608884971e-01 4.862361023624581224e-01
-5.908361934777145441e-02 5.431060310786738066e-02 -8.456389877093137830e-01 5.392244813208175724e-01 -3.655745938050011801e-01 7.586779126273569540e-01
-2.440951415268047611e-02 -1.493852324016719246e-01 -8.829046411236349812e-01 8.421268507528490987e-01 2.423017257984295403e-01 -4.817802828221506295e-01
-1.696592387531249690e-02 1.859858997743150666e-01 -6.997355769017411520e-01 8.411291586638971474e-01 2.478429763070260639e-01 -4.807032322968503024e-01
2.851116885274244429e-03 -2.421525559249083914e-02 -7.870611965201562699e-01 -7.930045542582796481e-01 -2.737245158757989349e-01 5.442597416070629190e-01
-2.409736519050030557e-02 1.587740801368814347e-01 -7.262714423277878417e-01 8.419201092601760195e-01 2.448060667582120375e-01 -4.808747438800536900e-01
6.931422208797913438e-03 6.760163153877361830e-02 -7.184856236504123528e-01 8.418545362093498019e-01 2.449043792211722248e-01 -4.809394815379921528e-01
-5.350828001547131528e-03 2.655802013991538993e-02 -7.558606833797222313e-01 8.711187499343649998e-01 2.257926790103701731e-01 -4.360846129114271941e-01
2.262178994996719844e-02 -1.769608709939920477e-01 -8.248881653544738457e-01 -8.436842462639394524e-01 -2.374161768585849042e-01 4.814877481015499283e-01
2.891199398159296444e-03 -1.000625194903886767e-01 -8.141647646353825651e-01 -3.249187548801195091e-01 4.242020824834051851e-01 -8.452694221039200873e-01
-4.544234984577565084e-02 1.612072113601740464e-01 -7.628053528486373747e-01 8.483037036757253846e-01 2.387632662808848172e-01 -4.726234537186349005e-01
3.669977260991741375e-02 -7.346649266579217963e-02 -7.482974445402404973e-01 -8.448115137438539923e-01 -2.402303902017545734e-01 4.781034049965875998e-01
-5.425079810495070549e-03 -2.860220908769097181e-01 -9.115709081376336398e-01 8.694525794585394873e-01 2.149186382474109758e-01 -4.448170309315627735e-01
-1.761189244859680302e-03 -1.807598571414275879e-01 -8.693826862982687587e-01 -8.412024234148514079e-01 -2.395595765311822334e-01 4.847573538722045328e-01
2.925965401756293674e-02 -1.098552462900800747e-01 -7.693998477995263041e-01 8.421268507528490987e-01 2.423017257984295403e-01 -4.817802828221506295e-01
2.352212680408882414e-02 6.544895381335945339e-02 -6.905440190294197533e-01 8.418249139114083457e-01 2.451655721916527753e-01 -4.808582499344163375e-01
-1.926428712364255946e-02 1.725560186517400563e-01 -7.106937727683381167e-01 8.417110893741921451e-01 2.478241709371704071e-01 -4.796932585765775747e-01
3.487730175228118991e-03 -1.287214245708345924e-02 -7.705502724827156813e-01 -7.447684082522003646e-01 3.022546882572497706e-01 -5.949471585746052282e-01
5.721547120068904910e-03 -2.673386172410750494e-01 -9.006411722445534229e-01 -7.237553105398775166e-01 3.060648756900189449e-01 -6.184678991945973259e-01
4.211747113804045067e-02 -1.315055183799509197e-01 -7.678000861255950271e-01 -8.461873373350377037e-01 -2.383160139914714815e-01 4.766261298009752401e-01
-4.600316791546896905e-02 -1.749362427240842149e-02 -8.643810549269637100e-01 -8.311546090823843658e-01 -2.479137206457284748e-01 4.977155843618928377e-01
1.735763249375059727e-02 1.389777621420587028e-01 -6.749626191356394855e-01 -8.423236729002351320e-01 -2.447826801345613090e-01 4.801794139464945488e-01
-4.814212415497171396e-03 2.002543951088089358e-01 -6.823133515968166085e-01 -8.404520495680860570e-01 -2.492545864451616855e-01 4.811574622853262984e-01
-2.976393077612085082e-03 -3.623933684127140370e-02 -7.835269551473869054e-01 8.099955648720029711e-01 2.634894490688203805e-01 -5.239088614607453342e-01
-3.263544049429205340e-02 2.065788015438214109e-01 -7.170385882407271927e-01 8.499121057437591942e-01 2.277222919321557626e-01 -4.751757256714352340e-01
-2.995022385975829732e-02 9.467707319632654231e-03 -8.231439600088907849e-01 -8.394950689834643764e-01 -2.440608538909272152e-01 4.854712439995598205e-01
5.156316995504314771e-02 2.355721875092751591e-02 -6.633423448441142511e-01 8.316407553783579099e-01 2.514440460722481285e-01 -4.951257877434093180e-01
6.511020876473162453e-03 -2.385650604961533916e-02 -7.761943591691226052e-01 -8.421268507528490987e-01 -2.423017257984295403e-01 4.817802828221506295e-01
3.501868897476594772e-03 4.396449370043129662e-02 -7.418004959169742785e-01 -7.226628734571656221e-01 3.160426190502533816e-01 -6.147157345232744374e-01
-4.490171174041777784e-03 -2.516249326695185751e-01 -9.019455661167549154e-01 7.317676940974554567e-01 -3.095915857501457813e-01 6.071812677512401502e-01
2.206262840126420668e-02 1.208214956099295662e-01 -6.647038530944031631e-01 8.423275094465353385e-01 2.445193339718017000e-01 -4.803068416581048328e-01
-4.008050354891289080e-03 -3.631558612378726347e-01 -9.467022046305427763e-01 7.998334484081465190e-01 2.657109010706062424e-01 -5.382045817900282803e-01
4.284312721444980682e-02 1.120534747622827509e-01 -6.436314687619079100e-01 -8.463161169922804872e-01 -2.432904237234974898e-01 4.738763550163161420e-01
3.563120937135411722e-03 -1.834560647637299702e-02 -7.785755384241774824e-01 -8.421268507528490987e-01 -2.423017257984295403e-01 4.817802828221506295e-01
4.088920340499507290e-03 1.472965944217217160e-01 -6.900730575755388285e-01 -7.275132397805256224e-01 3.067058389654339079e-01 -6.137230762229436420e-01
3.961152827693695255e-02 1.278532428630827777e-01 -6.391311838258624256e-01 -8.667953576899763979e-01 -5.635174787061749541e-02 -4.954697653732589302e-01
5.254932871133997235e-02 4.978174627238139693e-02 -6.631109773006340635e-01 -8.361760803731460578e-01 -2.992705513030909925e-01 4.596158175417228708e-01
2.013497156341452488e-02 1.848226754734486332e-01 -6.464054664309379916e-01 -8.489396720263078233e-01 -2.565966627001211586e-01 4.620168676044470457e-01
1.506472079338197489e-02 -1.666032849206518784e-01 -8.330134303270240181e-01 -8.433393980897009312e-01 -2.377121066228587709e-01 4.819456546070560177e-01
-5.265232667406880528e-03 -2.969512392982798232e-01 -9.165001819003015804e-01 8.794478469055571068e-01 2.061085598008917663e-01 -4.290579752783794665e-01
1.082540877340997919e-03 1.259344819604509280e-01 -6.988044941397434373e-01 8.419613059608554995e-01 2.464978188543526239e-01 -4.799374798499672079e-01
2.277860408789335431e-04 -2.886524438622191727e-02 -7.914686028789787997e-01 -4.345693442726869526e-01 -4.046625866094227253e-01 8.046102634300524858e-01
4.320098184152205284e-02 -1.064886551576755824e-01 -7.434996722819285919e-01 8.385588014687987979e-01 2.456624759355149901e-01 -4.862808698647769767e-01
1.693229269157509737e-02 1.269126413237331163e-01 -6.840182918250369282e-01 -7.857632541863470710e-01 3.534559186887815674e-01 5.075874524792269860e-01
-5.675806187940615061e-02 1.521529701672429125e-02 -8.574057745400168740e-01 8.620056593293887737e-01 2.335904622684791265e-01 -4.498685799445257261e-01
-1.894981669302523222e-02 -5.346647325175743481e-03 -8.009200581473684410e-01 8.421268507528490987e-01 2.423017257984295403e-01 -4.817802828221506295e-01
-2.337224565048507188e-02 1.559199258256314669e-01 -7.208137229703801552e-01 8.421268507528490987e-01 2.423017257984295403e-01 -4.817802828221506295e-01
1.023506383097684373e-02 -1.316327895742607224e-01 -8.238888451248717049e-01 -8.421268507528490987e-01 -2.423017257984295403e-01 4.817802828221506295e-01
-1.517557547399434915e-02 -1.662795894155231699e-02 -8.151846575490782065e-01 -8.559793224214574670e-01 -2.818156325297744846e-01 4.334505148788564410e-01
2.516593018200553519e-02 -5.426357641225738881e-02 -7.588791748482959232e-01 -8.421268507528490987e-01 -2.423017257984295403e-01 4.817802828221506295e-01
3.912010435692570010e-02 -6.284324902631860388e-02 -7.285304365494830181e-01 8.388375851121554483e-01 2.448867554352657516e-01 -4.861913026943156524e-01
-1.523308823158751532e-02 1.833656649359908797e-01 -6.980544320043077233e-01 8.411291586638971474e-01 2.478429763070260639e-01 -4.807032322968503024e-01
-4.915938108926659698e-04 -1.704630695730787737e-01 -8.620910365747941340e-01 -8.412024234148514079e-01 -2.395595765311822334e-01 4.847573538722045328e-01
9.668576447516817347e-04 -1.240976478214480122e-01 -8.409728307721838769e-01 -8.421268507528490987e-01 -2.423017257984295403e-01 4.817802828221506295e-01
-3.336320223726738782e-02 7.695201623261068227e-03 -8.246511141536517764e-01 -1.553814515737465471e-02 -6.041299459890856483e-01 -7.967343185807254091e-01
-8.044747189517977362e-03 2.221523086086838739e-01 -6.764908200615774581e-01 -8.392769242462503332e-01 -2.540214988610166036e-01 4.807154278199904929e-01
-9.780334918222752943e-03 -1.106557992460321244e-01 -8.378554062245153755e-01 8.421268507528490987e-01 2.423017257984295403e-01 -4.817802828221506295e-01
3.386621160275798265e-02 -5.319850556323468121e-02 -7.431206016550563342e-01 -8.447733972865373309e-01 -2.401972449462693171e-01 4.781874012949149377e-01
2.046642086848939057e-02 1.138371215146560950e-01 -6.823100858114239387e-01 -8.420528397113684616e-01 -2.447042655286513768e-01 4.806941205861618993e-01
2.268029341927357487e-03 1.932782247609697857e-01 -6.623256700210493619e-01 8.424978229038688760e-01 2.449410808142672147e-01 -4.797929609027002940e-01
3.543563522163064531e-03 1.210991161055943871e-01 -7.129821743014937985e-01 -7.970799523202480863e-01 -2.713243569223946494e-01 5.394873890553885110e-01
-4.067035895705681942e-02 1.387534875359244246e-01 -7.657271310634781170e-01 8.456871263478270562e-01 2.418380732165054947e-01 -4.757390363134844091e-01
-8.112002669712006439e-03 8.562086736686318200e-02 -7.465455360001265195e-01 -8.423887388475300719e-01 -2.445296624691538079e-01 4.801941865907892182e-01
-1.767766082007997007e-03 1.563307041118160504e-02 -7.601898324546574326e-01 8.419208861301237246e-01 2.453138161151182384e-01 -4.806145577496644394e-01
-1.582563023251094131e-03 1.403148412817208923e-01 -7.074735719613819418e-01 -8.420373575555362144e-01 -2.444189750966181685e-01 4.808663567911658498e-01
3.144947759131311998e-02 -1.638986252119600251e-01 -7.928028827486848229e-01 8.368933944543108794e-01 2.487708961165535915e-01 -4.875679312302115820e-01
-7.752992973868425355e-03 8.089406958696775118e-02 -7.374628022429594587e-01 8.388845864343327241e-01 2.492547882545718962e-01 -4.838850082148310472e-01
-3.173451252913053744e-02 1.581804749334003724e-02 -8.126226822745792333e-01 8.421268507528490987e-01 2.423017257984295403e-01 -4.817802828221506295e-01
5.692987940279273761e-03 -2.131176835062868757e-01 -8.625313533699963120e-01 8.298810745999870564e-01 2.772553923804373377e-01 -4.841764651619701043e-01
1.164191406639655986e-02 1.939952754481537867e-01 -6.455885886034095078e-01 8.403460190864217028e-01 2.380733175868173235e-01 -4.869698796217379333e-01
-2.073705409785659218e-02 1.535981073028327704e-01 -7.173752573723760628e-01 8.421268507528490987e-01 2.423017257984295403e-01 -4.817802828221506295e-01
6.206033357828551417e-04 -1.300435314631293582e-01 -8.398951360221805773e-01 -8.421268507528490987e-01 -2.423017257984295403e-01 4.817802828221506295e-01
1.227747197397369020e-03 -2.882080117590271051e-01 -9.073807508637830033e-01 -3.127185120529438200e-01 4.217397967334332587e-01 -8.510832368638423517e-01
-1.307695099942255204e-02 -1.152357723264367667e-01 -8.459211250566180951e-01 8.421268507528490987e-01 2.423017257984295403e-01 -4.817802828221506295e-01
1.014041671589266435e-03 -6.941544475813550552e-02 -7.984333208765639345e-01 8.421268507528490987e-01 2.423017257984295403e-01 -4.817802828221506295e-01
5.991555710101027429e-03 -5.776896641848423830e-02 -7.941579486862871962e-01 -8.421268507528490987e-01 -2.423017257984295403e-01 4.817802828221506295e-01
2.492547336059490904e-03 -2.678259036693938500e-01 -9.101312155223231226e-01 -7.958173279165364766e-01 -2.722802533443027806e-01 5.408680469639024491e-01
1.114800704766924500e-03 1.552466214923233223e-01 -6.837256548944947721e-01 8.422411297367503602e-01 2.445043403578452401e-01 -4.804659269146334122e-01
3.007560551300425544e-02 -1.850485938804275199e-01 -8.155764203507211985e-01 -8.496775498743224242e-01 -2.284386885159502001e-01 4.752513301703435999e-01
2.450540182799288910e-02 -8.161054876701397121e-02 -7.737873550200621287e-01 -8.421268507528490987e-01 -2.423017257984295403e-01 4.817802828221506295e-01
-1.427891101790965470e-02 -1.800496062012462706e-01 -8.902919021880211226e-01 -8.330504966719226578e-01 -2.325992612010503446e-01 5.019207643477091585e-01
-2.689952545526035055e-04 2.096773041631767864e-01 -6.719754262711808979e-01 -4.428100557105094093e-01 -4.154065887526080525e-01 7.945795243917234130e-01
-1.258487695358622045e-02 -8.781244018603544602e-03 -8.019911938219353997e-01 -8.421268507528490987e-01 -2.423017257984295403e-01 4.817802828221506295e-01
-6.292860109669696882e-03 -1.843788442181678866e-01 -8.686500762831359523e-01 8.421268507528490987e-01 2.423017257984295403e-01 -4.817802828221506295e-01
7.319969131220250766e-03 -1.288687529834524892e-01 -8.275941621473379417e-01 -8.421268507528490987e-01 -2.423017257984295403e-01 4.817802828221506295e-01
1.850550358290238909e-02 -8.866297011542793871e-02 -7.775393127946007565e-01 8.421268507528490987e-01 2.423017257984295403e-01 -4.817802828221506295e-01
2.957219824712132433e-03 -1.812138126117256512e-02 -7.838418091920237307e-01 -7.930045542582796481e-01 -2.737245158757989349e-01 5.442597416070629190e-01
-3.294393266822262523e-02 1.034632987655443627e-02 -8.175033943070503240e-01 8.428280947357932318e-01 2.450147904515233843e-01 -4.791748691073322020e-01
-3.315637017348877641e-02 3.072371220788736208e-04 -8.230102959855247757e-01 8.428229550676811233e-01 2.450182551810281550e-01 -4.791821376460378978e-01
-1.706978402903622585e-02 1.785186499814292171e-01 -7.037673060165152705e-01 8.411291586638971474e-01 2.478429763070260639e-01 -4.807032322968503024e-01
-2.195897727116605594e-02 1.288851517253719603e-03 -8.028427231734238667e-01 8.421268507528490987e-01 2.423017257984295403e-01 -4.817802828221506295e-01
-1.164925277865319804e-02 1.572982663858762675e-01 -7.164651741457525036e-01 -8.419553220447556496e-01 -2.446288875551904107e-01 4.809032574791130554e-01
-1.425466338169422212e-02 1.332751472678529447e-01 -7.220085402108884498e-01 8.419564171881050996e-01 2.446142561130299486e-01 -4.809087826834090862e-01
-7.356487331428617285e-03 5.312730391250958251e-02 -7.617165790561775118e-01 -8.421268507528490987e-01 -2.423017257984295403e-01 4.817802828221506295e-01
2.271722089571298966e-02 -1.879260343726810445e-01 -8.299997377661481046e-01 -8.465686164968156957e-01 -2.281599248223382115e-01 4.808998089703642731e-01
-2.032774007474296221e-02 -1.068124897242230670e-01 -8.648281633536402113e-01 -8.421268507528490987e-01 -2.423017257984295403e-01 4.817802828221506295e-01
4.183698932837567885e-02 -1.573527174933778139e-01 -7.811177537792687309e-01 -8.573272370358011596e-01 -2.244696133121342474e-01 4.632530640331051774e-01
1.124955454283383663e-03 3.452142770506845537e-02 -7.562489107396440646e-01 -8.421268507528490987e-01 -2.423017257984295403e-01 4.817802828221506295e-01
2.491810291445364922e-03 2.272947514723115403e-01 -6.550244631523847172e-01 -8.443073153630686889e-01 -2.669159157275047267e-01 4.646515373435837204e-01
-1.904388127852038939e-02 -9.463076667379449747e-02 -8.461353559920724576e-01 8.447288314127786579e-01 2.375011566521770812e-01 -4.796106774967375252e-01
2.986542655593081574e-02 6.303604642717405837e-02 -6.807019118100167132e-01 8.414893702661911945e-01 2.483542609184547501e-01 -4.798080874815023322e-01
2.765118617374298995e-02 1.515071557532742808e-01 -6.393370853973370238e-01 8.395154893024848741e-01 2.477420772438748697e-01 -4.835675820235466604e-01
2.026699686271072384e-03 -1.048199010786321633e-01 -8.247516340469237539e-01 -8.421268507528490987e-01 -2.423017257984295403e-01 4.817802828221506295e-01
1.102561429314881207e-02 6.738655477823748963e-03 -7.423466537404465049e-01 8.415004009846230870e-01 2.456610126813669470e-01 -4.811732972548288245e-01
-3.154086256833025181e-04 1.883298622556836277e-01 -6.827420879305043933e-01 -4.537648279440641419e-01 -3.999788801168727703e-01 7.963129889568211217e-01
3.738822425480643925e-03 9.146181051183919705e-03 -7.538622492898492400e-01 8.415060980842646865e-01 2.456227669852535656e-01 -4.811828584078027826e-01
1.256544810788819827e-02 -1.239079914464096405e-01 -8.190546022463254250e-01 -7.054103789691779092e-01 -6.039861617869697330e-01 3.709405796248308462e-01
-2.182669788734258823e-03 3.553159698903793351e-02 -7.615224230835615504e-01 -8.421268507528490987e-01 -2.423017257984295403e-01 4.817802828221506295e-01
-5.918558096902182958e-02 5.132104426236090006e-02 -8.436405158509546753e-01 8.694250086908490438e-01 2.226611045077247220e-01 -4.410466945826906904e-01
4.732364743863051205e-03 -3.883085208436950347e-02 -7.913723517145492270e-01 -8.715160399934510638e-01 -2.203250302400238392e-01 4.380829522862835779e-01
2.815189789018602770e-02 5.346012621393915476e-02 -7.040713729684000555e-01 -8.280765677346308973e-01 -3.026794371257991445e-01 4.718838377292052799e-01
2.892316740322782229e-02 -8.463065675967586243e-02 -7.675842335161865426e-01 -8.421268507528490987e-01 -2.423017257984295403e-01 4.817802828221506295e-01
2.047381282643823738e-03 -8.890205860153157016e-03 -7.764695684170944689e-01 -8.421268507528490987e-01 -2.423017257984295403e-01 4.817802828221506295e-01
1.936320146519949700e-02 1.117967218474797964e-01 -6.740323340757714554e-01 8.423275094465353385e-01 2.445193339718017000e-01 -4.803068416581048328e-01
-1.220649381677384356e-02 -5.671605224525320954e-02 -8.254376497324652506e-01 -8.421268507528490987e-01 -2.423017257984295403e-01 4.817802828221506295e-01
2.349118374566641979e-02 1.203458349019436990e-01 -6.624638878628168470e-01 8.391150769475288485e-01 2.490684255586718132e-01 -4.835812310554113425e-01
1.772390062350942888e-02 1.443132926953991368e-01 -6.603112265043913354e-01 8.398883119363024230e-01 2.488571866642586561e-01 -4.823460626130774420e-01
4.054187661620294036e-02 -2.566144996665560563e-02 -7.072784637661728713e-01 8.414363326471532289e-01 2.459446933932631640e-01 -4.811404222189229474e-01
2.600578730943225308e-02 1.350881522329658579e-01 -6.505649277360442406e-01 8.391963763224224992e-01 2.467175402496116499e-01 -4.846440934340337514e-01
-1.104819283089655997e-02 1.819439404779049363e-01 -6.914392280950507619e-01 8.417104944366731178e-01 2.448865300835069703e-01 -4.812006140258252573e-01
8.867549682189192900e-03 -7.226152494120730019e-03 -7.532420094294748347e-01 8.421268507528490987e-01 2.423017257984295403e-01 -4.817802828221506295e-01
7.284864741403144009e-03 1.023681881187612636e-01 -7.000318806378623693e-01 8.419878723494672590e-01 2.467960667894925075e-01 -4.797375576642442518e-01
-4.289097066828153476e-02 9.847074140418070332e-02 -7.903250878773058208e-01 8.430210145919501130e-01 2.472390836048755369e-01 -4.776906996107214698e-01
-1.387517136748565860e-02 2.148411359057461889e-01 -6.905964918173155276e-01 -8.409597880633029598e-01 -2.589410793840543623e-01 4.751169879807978780e-01
4.897486759426914610e-02 -8.608965337720912714e-02 -7.329123427091515097e-01 -8.454500188036463415e-01 -2.393611431041487159e-01 4.774102102770630407e-01
2.152718047988412195e-02 -1.025282489415952208e-01 -7.895132684434633674e-01 -8.421268507528490987e-01 -2.423017257984295403e-01 4.817802828221506295e-01
-6.813192833829179347e-03 -7.576085663188487918e-02 -8.153062168457503311e-01 8.421268507528490987e-01 2.423017257984295403e-01 -4.817802828221506295e-01
-7.102004079041127245e-03 -3.492934493384020067e-01 -9.468811375701995381e-01 9.995267184584364362e-01 9.379664073081607836e-03 -2.929779837437906931e-02
1.465724610429610872e-02 -1.695564898817156219e-01 -8.247627073747070270e-01 8.421268507528490987e-01 2.423017257984295403e-01 -4.817802828221506295e-01
2.006803698184855822e-02 -1.213759952474620374e-01 -7.912451743998406561e-01 8.429147897098017150e-01 2.385125973009833145e-01 -4.822928552417297676e-01
3.224391769483934272e-02 -1.839372035143151951e-01 -8.111631748409202647e-01 -8.421268507528490987e-01 -2.423017257984295403e-01 4.817802828221506295e-01
-3.183770935606105874e-03 -8.521270505798243800e-02 -8.137157938357281184e-01 8.421268507528490987e-01 2.423017257984295403e-01 -4.817802828221506295e-01
-3.456500826561265810e-02 1.176389626109706904e-01 -7.657663916867181175e-01 8.423987667920077582e-01 2.446031817299866018e-01 -4.801391477424766796e-01
-1.017034180592520619e-02 1.006338426049872281e-01 -7.315709465155291191e-01 8.425803395005966312e-01 2.461937705167125123e-01 -4.790062618023107066e-01
1.101633217632526709e-02 1.458033123221069705e-01 -6.713045433290761865e-01 8.425131158570347001e-01 2.472614476007712614e-01 -4.785743684520122332e-01
-4.131980133507844911e-03 -8.225671204748151444e-02 -8.084780772779969205e-01 8.850981899748985304e-01 2.091091458596970598e-01 -4.157818649496229368e-01
-5.389273052097352107e-02 6.942749382738179487e-02 -8.245983867934147948e-01 8.475645687482018520e-01 2.414014460497642678e-01 -4.726093986028603311e-01
-5.147940049067291184e-03 -2.591372093191641190e-01 -8.980276555919159964e-01 8.696703149013267353e-01 2.174601478535676258e-01 -4.431530519751972763e-01
4.719435063458909951e-02 -2.364358987529212655e-02 -6.946790569446412711e-01 8.390023239821107204e-01 2.445349279073996684e-01 -4.860841176030546440e-01
5.877293435191949765e-03 5.483435813957872329e-02 -7.268922675619468032e-01 8.453636403844638769e-01 2.447088758795473162e-01 -4.748451132545173370e-01
1.342841130384139466e-03 -1.403404797297028717e-01 -8.338313662475341781e-01 -3.189713893393776867e-01 4.258365857085051331e-01 -8.467115536326582648e-01
4.072684109445784406e-02 6.702028794055008010e-02 -6.703096177481230322e-01 -8.445533824399137357e-01 -2.434420355261527613e-01 4.769334959385684858e-01
9.242986958423501931e-03 -1.868302554393112269e-01 -8.427797559563259266e-01 8.376006735486863919e-01 2.461739206658656309e-01 -4.876715210618551288e-01
3.678187342021967815e-02 -9.890531884840815524e-02 -7.609236511795277602e-01 -8.449851356041928607e-01 -2.396962683251859516e-01 4.780646604372094655e-01
-7.512796332118641153e-03 1.214427123803906994e-01 -7.162016360977131457e-01 8.422824173094122235e-01 2.463459796394465717e-01 -4.794517575386438302e-01
-2.857064566563663130e-02 1.970477608114032386e-01 -7.254552741881933331e-01 -8.395498646729553371e-01 -2.538654905800665773e-01 4.803210774265113669e-01
2.621387323718988097e-02 -1.345118413310039673e-01 -7.823471102007748534e-01 8.267146669249824109e-01 3.027442024545147770e-01 -4.742244272191122323e-01
8.906193455322907598e-03 -1.323231819621983052e-01 -8.110080474094392144e-01 8.337559172622849291e-01 2.736371980710023966e-01 -4.795557884771872725e-01
4.895290840432261342e-02 1.041376144860503283e-01 -6.309962531830899390e-01 -5.151005988021177817e-01 9.690092115367088255e-02 -8.516346544107219474e-01
-4.841168171652277669e-02 1.371038722519932369e-02 -8.401695833533207036e-01 8.155689403942356641e-01 5.786597208386152769e-01 4.805654997482775004e-04
1.015084580480286316e-03 2.514529534008648481e-02 -7.611564969373293410e-01 -8.421268507528490987e-01 -2.423017257984295403e-01 4.817802828221506295e-01
3.589181246313173645e-02 1.212945661431888006e-01 -6.457494204175641128e-01 -6.732974720681682290e-02 9.976544156840957411e-01 -1.234390566601430150e-02
5.182735650936728944e-02 9.512165318849357884e-03 -6.700203890565533671e-01 8.323131328294040010e-01 2.487119712934369731e-01 -4.953758212256991755e-01
-1.455956761592983907e-02 1.136986550567172655e-01 -7.436571110565517451e-01 -8.421268507528490987e-01 -2.423017257984295403e-01 4.817802828221506295e-01
1.639882124862480223e-02 -1.188426494228431995e-01 -7.963870228344497315e-01 8.394957973857566369e-01 2.411727939736023063e-01 -4.869111722055872726e-01
1.861891901244903946e-02 5.560924704347011693e-02 -7.041393752339392131e-01 8.417042265232784759e-01 2.451036153812914398e-01 -4.811010421729197128e-01
-2.901658663298918930e-03 1.215882383921525756e-01 -7.028251995345338177e-01 7.949087246445321053e-01 2.804130406230728179e-01 -5.380414910883049018e-01
1.923378690675675920e-02 1.258207361950228476e-01 -6.671198087540182176e-01 8.423275094465353385e-01 2.445193339718017000e-01 -4.803068416581048328e-01
-4.471751746562222136e-03 -1.802448871383703910e-01 -8.579882399934605219e-01 8.702622910647501708e-01 2.169522558192041595e-01 -4.422389212243657552e-01
2.193068556405398592e-02 -7.452658199036531206e-02 -7.747250860554749652e-01 -8.421268507528490987e-01 -2.423017257984295403e-01 4.817802828221506295e-01
3.719482594784997292e-02 3.989251138070253055e-02 -6.903124446316049045e-01 -8.421268507528490987e-01 -2.423017257984295403e-01 4.817802828221506295e-01
-2.524750636491859129e-02 1.186886576070936006e-01 -7.598031612977154126e-01 -8.393086564793923454e-01 -2.471649962505695630e-01 4.842214821620509091e-01
3.406270135542260880e-02 -4.444859802232883905e-02 -7.232621750918303283e-01 8.509902231434363085e-01 1.851014057554455083e-01 -4.914805283036578487e-01
-3.422729682657383449e-02 -1.815097197183263315e-03 -8.362122367573038284e-01 -8.394950689834643764e-01 -2.440608538909272152e-01 4.854712439995598205e-01
1.019640600580745682e-02 1.271989450204017158e-01 -6.768992458365119536e-01 8.200788154472324898e-01 3.421213046357087784e-01 -4.587196849591529957e-01
-5.579128886554125116e-02 4.926250057813747613e-02 -8.383172284512455663e-01 8.476358461922099963e-01 2.416962187372959647e-01 -4.723308269614734378e-01
-4.534800022836373706e-02 -4.967446285274004086e-02 -8.792685961226754943e-01 -8.302100168200866603e-01 -2.475717932894562490e-01 4.994592427205990504e-01
-2.436566879294837021e-02 -1.530659168792634917e-01 -8.945559852307219950e-01 -8.288219009900630319e-01 -2.287230501254315373e-01 5.106270877857319590e-01
1.649161047125641266e-02 1.909562883666009181e-01 -6.388019095833589178e-01 8.355901631869599999e-01 2.408921189379393812e-01 -4.937206358040741039e-01
1.690177737465776292e-02 -6.364606055521697565e-03 -7.387599353970212279e-01 8.415004009846230870e-01 2.456610126813669470e-01 -4.811732972548288245e-01
3.001082164751085399e-02 -4.645118548990657958e-02 -7.464814715629004560e-01 -8.421268507528490987e-01 -2.423017257984295403e-01 4.817802828221506295e-01
2.075961758774160990e-02 6.561949573919607925e-02 -6.952933148452075107e-01 8.418249139114083457e-01 2.451655721916527753e-01 -4.808582499344163375e-01
-4.076357701549834095e-02 -1.010745455954653454e-01 -8.966198383325466592e-01 -7.891393730122492345e-01 -2.419890732242329090e-01 5.645355067680961625e-01
-3.498853224892631980e-02 1.268620837043657745e-01 -7.725574805158741398e-01 -8.421268507528490987e-01 -2.423017257984295403e-01 4.817802828221506295e-01
2.824993708481139329e-02 -4.574097559699354110e-02 -7.492022202845274315e-01 -8.421268507528490987e-01 -2.423017257984295403e-01 4.817802828221506295e-01
-3.555762942212128963e-02 1.798555210838933827e-01 -7.483808618689240522e-01 2.618404948705168114e-02 -5.490330835924378539e-01 8.353903690332075138e-01
3.007344890914265875e-03 3.494735884172281426e-02 -7.527443784915563985e-01 -8.421268507528490987e-01 -2.423017257984295403e-01 4.817802828221506295e-01
-4.662916945138785574e-02 1.578302899457902780e-02 -8.487805832493038327e-01 -8.389551674939921266e-01 -2.443259913106635983e-01 4.862705388003569218e-01
3.693669681619975859e-02 -5.064385408248490983e-02 -7.251379756837709190e-01 -1.795959675537345951e-02 9.998191965727771802e-01 6.247163272293841142e-03
-3.271184306182239876e-02 9.002474977202598594e-02 -7.765979303455498028e-01 8.451383857832409641e-01 2.425839369349003516e-01 -4.763340659840131774e-01
1.614707392475640477e-02 4.189978164357693186e-02 -7.262802347127802483e-01 -8.421268507528490987e-01 -2.423017257984295403e-01 4.817802828221506295e-01
5.061193752799413720e-02 -1.186938922713361710e-01 -7.374544590513820719e-01 8.191377974793024874e-01 2.642812188315304955e-01 -5.090861480276966944e-01
-9.756004887304979903e-03 4.613487377962443431e-02 -7.694275132389090111e-01 -8.421268507528490987e-01 -2.423017257984295403e-01 4.817802828221506295e-01
3.356310543939468316e-02 5.388967867656525162e-02 -6.789511741834148850e-01 8.414893702661911945e-01 2.483542609184547501e-01 -4.798080874815023322e-01
-2.898402043063766018e-02 8.876179097759848147e-02 -7.706932138871099847e-01 8.425423248502162954e-01 2.445155830695734389e-01 -4.799318289842206542e-01
4.042698846945945446e-02 -1.587533373357332966e-01 -7.843839690279247323e-01 -8.489296586616040807e-01 -2.296091523482428343e-01 4.760231841020077792e-01
-4.070367838366447527e-02 9.227939856930426898e-02 -8.000774699592545502e-01 -8.390425649565921296e-01 -2.446887743199640808e-01 4.859372160195765677e-01
5.660112986983321590e-03 -1.981462319367462421e-01 -8.694665259178997463e-01 -8.839885840631747094e-01 -2.101262678554495222e-01 4.176255916525274392e-01
-5.248904648719638494e-02 4.500563378678353738e-02 -8.439779896697170436e-01 -8.321142211263750088e-01 -2.490132957475181541e-01 4.955585752867218696e-01
-2.326508941743115916e-03 -7.263116020744202206e-02 -8.058897089831644767e-01 8.421268507528490987e-01 2.423017257984295403e-01 -4.817802828221506295e-01
-2.600525566742882023e-03 -1.116193758144554404e-01 -8.208567187030514356e-01 8.099955648720029711e-01 2.634894490688203805e-01 -5.239088614607454453e-01
5.696181517899751544e-03 -5.920574324256716592e-02 -7.983496636399157742e-01 -9.989282090993486518e-01 -2.079678662856088156e-02 4.135126033743215246e-02
-4.330080115801202001e-03 8.085226281056236489e-03 -7.685380411158496683e-01 8.426575790077189820e-01 2.447965788158047717e-01 -4.795861127481982344e-01
2.972808987497356850e-02 -1.218566991128937488e-01 -7.746169361846131363e-01 8.421268507528490987e-01 2.423017257984295403e-01 -4.817802828221506295e-01
-3.595989944964777824e-03 -4.845958897833398116e-02 -7.959520889612460293e-01 8.421268507528490987e-01 2.423017257984295403e-01 -4.817802828221506295e-01
3.938683750921070925e-02 -9.142752173566924545e-02 -7.424755971170968749e-01 8.386527303709272463e-01 2.451924809143395390e-01 -4.863560888325137999e-01
6.894179842258837607e-03 9.113203211967364770e-02 -7.175065076592472835e-01 -8.421268507528490987e-01 -2.423017257984295403e-01 4.817802828221506295e-01
2.829015560593351516e-03 -7.410640601119973525e-02 -8.121851518683860238e-01 -7.930045542582796481e-01 -2.737245158757989349e-01 5.442597416070629190e-01
-2.557025533989833871e-02 1.857305543764851685e-01 -7.150582089877539627e-01 8.443247104382075596e-01 2.457444902383996432e-01 -4.761569372180838311e-01
-1.096625268248871757e-02 3.383381041369371012e-03 -7.825746113273233107e-01 8.421268507528490987e-01 2.423017257984295403e-01 -4.817802828221506295e-01
7.055651418768025922e-03 -1.336905594969945432e-01 -8.153225835394354304e-01 6.836782695261188758e-01 6.214216421563207859e-01 -3.826475747179292619e-01
-3.703560894125853924e-03 8.768927889473968063e-02 -7.268525428098904229e-01 8.422287434057796895e-01 2.463567699035699443e-01 -4.795404943316059487e-01
-8.676496551788011671e-03 -1.884068857273145658e-01 -8.848202137737235518e-01 -8.347357101658584577e-01 -2.326728229386169911e-01 4.990788030358283001e-01
4.357171117534859583e-02 5.297623276486359417e-02 -6.674246101892119531e-01 -1.628010886947015359e-02 -9.963280582119951045e-01 -8.405568674821004005e-02
1.657328461585683968e-03 9.619129211574385316e-03 -7.678424617760982729e-01 -8.421268507528490987e-01 -2.423017257984295403e-01 4.817802828221506295e-01
-5.286010592402685948e-02 -2.325324356797612776e-02 -8.698734155276255375e-01 8.527573418448987086e-01 2.365914004503650858e-01 -4.656494659747367759e-01
-3.814608490099304777e-02 1.489779414107901268e-01 -7.667995593772332086e-01 -8.350752704296082740e-01 -2.497313288164527967e-01 4.901872663834561106e-01
2.472499049880231767e-02 -3.920166979234108312e-02 -7.478006833847165025e-01 1.572988363920332575e-02 -9.998294849004327745e-01 -9.673256144245067148e-03
-1.997632629678978283e-02 1.189052056807465702e-01 -7.505067930489545125e-01 -8.421268507528490987e-01 -2.423017257984295403e-01 4.817802828221506295e-01
5.112616109704368195e-02 -1.280170519044124544e-01 -7.438383266410087957e-01 -5.226210291255477536e-01 5.870184724044624769e-01 -6.182851874108619139e-01
-1.221832532301568748e-02 1.632896309526052359e-02 -7.887218058517847519e-01 -8.421268507528490987e-01 -2.423017257984295403e-01 4.817802828221506295e-01
-3.676168774132121397e-02 -6.982364221717449193e-02 -8.780807231182149453e-01 -8.103735192696630563e-01 -5.842863859331319798e-01 4.363689356153140769e-02
2.980813337108196778e-02 -1.159612880556370323e-01 -7.817944714066410450e-01 -8.421268507528490987e-01 -2.423017257984295403e-01 4.817802828221506295e-01
3.224932932925061654e-03 4.060271265710967831e-02 -7.539857663976033963e-01 -7.938994970782299321e-01 -2.675876590998771398e-01 5.460040597251835104e-01
2.794306966146507115e-02 -1.339762162485880204e-01 -7.837704982444730906e-01 8.397424581240243713e-01 2.413301179570393473e-01 -4.864076255474031329e-01
3.069320634365258274e-02 5.121994151084734853e-02 -6.814390387180679909e-01 7.990692843300470916e-01 -3.229413958759003722e-01 -5.071460673908367855e-01
3.771949027749917777e-02 -1.311934403581022368e-01 -7.754490277505258211e-01 -8.452053050182977145e-01 -2.392857562060379251e-01 4.778810722824572976e-01
2.464692333687542453e-02 8.370306202763740100e-02 -6.902118877546928877e-01 -8.421268507528490987e-01 -2.423017257984295403e-01 4.817802828221506295e-01
-5.299297926188591829e-02 4.403951929488678779e-02 -8.358769917055907106e-01 8.518270092539008687e-01 2.355304998494518742e-01 -4.678847400228201003e-01
2.111344494970194066e-02 1.342336458616658346e-01 -6.760058895714993188e-01 -7.966352502020226378e-01 -4.099517301298257199e-01 4.441979931282033500e-01
-1.972741859891624649e-02 -1.648389634004189530e-01 -8.923147402344595580e-01 -8.295739782487673297e-01 -2.322428656363256239e-01 5.078092811022080211e-01
3.678910427154745422e-02 -2.663398229130279141e-02 -7.246028667299422299e-01 -8.446913660212322927e-01 -2.404629795371857892e-01 4.781987574652233897e-01
2.928502272695818545e-03 -1.984719616397214448e-01 -8.634166899392990979e-01 -3.245778756236569751e-01 4.212099109323673152e-01 -8.468951609189776519e-01
-7.655750006447549320e-03 -4.118474461427575756e-02 -7.993727787528598361e-01 8.428260673006742199e-01 2.450067578618572439e-01 -4.791825423369476811e-01
2.644024796022644355e-02 -7.150838376861361201e-02 -7.550422377634143922e-01 8.421268507528490987e-01 2.423017257984295403e-01 -4.817802828221506295e-01
8.092922925980699025e-03 -4.903811131268754654e-03 -7.534195814700268556e-01 8.415060980842646865e-01 2.456227669852535656e-01 -4.811828584078027826e-01
3.596442673452765471e-02 6.679226626640456799e-02 -6.680772570163665547e-01 8.418481438346935297e-01 2.449895135959115899e-01 -4.809073101441898035e-01
3.485430311404306980e-02 7.661219070373702367e-02 -6.758126899877064941e-01 -8.445533824399137357e-01 -2.434420355261527613e-01 4.769334959385684858e-01
-3.455401376497044892e-04 -2.775602524301783447e-01 -9.017525413038003368e-01 4.422137167718336870e-01 3.955895061926829603e-01 -8.049571238824274610e-01
3.093819016171455577e-02 4.135644822457523739e-02 -6.898965133429457719e-01 8.390826325568787603e-01 2.468328161587768632e-01 -4.847823187870464734e-01
-1.448748118881013026e-03 -1.880391597621085542e-01 -8.713779259528242616e-01 3.246699332427845364e-01 -4.279122373746292451e-01 8.434930655038990199e-01
3.147969811758468545e-02 4.884901449778760590e-02 -6.957976970032510033e-01 -8.421268507528490987e-01 -2.423017257984295403e-01 4.817802828221506295e-01
-2.184656849054010877e-02 3.740268200295802925e-02 -7.949528695620696750e-01 -8.421268507528490987e-01 -2.423017257984295403e-01 4.817802828221506295e-01
2.603983729780487075e-02 -1.303275409170591703e-01 -7.803607358766784241e-01 8.505453958734822129e-01 1.844777107841411856e-01 -4.924840137326938483e-01
3.961338155628954527e-02 -1.775466405749985821e-01 -7.943699150510458162e-01 -8.984665758520873347e-01 -1.334113584849803968e-01 4.182812708020975379e-01
5.493101391229666085e-03 -3.124724401972423515e-01 -9.273615270486172957e-01 -8.829333711404261376e-01 -2.111572960036735280e-01 4.193343039521328364e-01
-5.969008753618909070e-03 -3.075247360490366288e-01 -9.288709812662577781e-01 7.200310509928711244e-01 -3.173635316558557906e-01 6.171188494779785705e-01
1.653990891976146304e-03 -2.463632859456625357e-01 -8.867653034959145364e-01 -3.128960128356001458e-01 4.233725484228185731e-01 -8.502068985803113987e-01
-3.909521515918779749e-02 9.653554322194486670e-02 -7.951440946585228708e-01 -8.363039577876238972e-01 -2.499795952770390572e-01 4.879609534930887116e-01
4.211102596191843017e-02 -4.254323875635468433e-02 -7.131486499909381882e-01 8.389258602606406434e-01 2.446838676286225145e-01 -4.861411378480977041e-01
2.833289297292444081e-02 1.423408393804250494e-01 -6.428432535754727839e-01 8.391963763224224992e-01 2.467175402496116499e-01 -4.846440934340337514e-01
-2.314550244468624885e-03 -2.831703063565242373e-01 -9.055928189807537221e-01 4.465141737119974197e-01 3.947711292036702457e-01 -8.029824706813663004e-01
-4.923613591975143505e-02 9.050034682247146134e-03 -8.565359980585600663e-01 -8.317757501182948543e-01 -2.481675584207505003e-01 4.965500623931401458e-01
-3.545390242184532498e-02 -4.428407571561564227e-02 -8.596595827949908841e-01 -8.392443429221217999e-01 -2.437241627660046706e-01 4.860735184694042754e-01
-4.014756763303047732e-02 1.777130840599840944e-01 -7.416474882652870360e-01 9.385883379682117278e-01 8.513820140476947851e-02 -3.343701818219303457e-01
-3.483050210442993622e-02 -6.159434227732606126e-02 -8.571542506172038500e-01 8.421268507528490987e-01 2.423017257984295403e-01 -4.817802828221506295e-01
2.340586534754769341e-02 -7.030630415863207971e-02 -7.700240445473447437e-01 -8.421268507528490987e-01 -2.423017257984295403e-01 4.817802828221506295e-01
3.300470248681352387e-02 1.148895541897721889e-01 -6.487281204350416886e-01 8.383904833871551610e-01 2.467981683561515927e-01 -4.859959479891793888e-01
-3.378473989694097401e-02 -1.282640923308258074e-01 -8.889121855269700445e-01 8.480173007779662209e-01 2.404907933310646839e-01 -4.722614063251912575e-01
-1.392135340877138569e-02 -1.742884629141667197e-01 -8.769896353087462959e-01 8.465939217166491559e-01 2.398640160400166421e-01 -4.751252314091298223e-01
-3.566039270471220435e-02 2.351247762100006425e-02 -8.156634718943700513e-01 8.446913660212322927e-01 2.405228227771206151e-01 -4.781686605085180841e-01
4.928968005416745068e-02 -1.380957441536265380e-02 -6.861564135543256615e-01 8.365167934507097280e-01 2.494976449871116331e-01 -4.878427814581536848e-01
-1.746888687350231506e-02 2.307681068893076004e-01 -6.819623329944746182e-01 3.603092374386025476e-01 -9.175148352300077637e-01 1.683561123014665206e-01
5.144243758539184669e-02 -6.438973329780833810e-02 -7.176261999457970164e-01 -8.523882712016410679e-01 -2.338324029829803585e-01 4.677142743524970725e-01
-3.196713640364338277e-03 1.189033397667602632e-01 -7.166124023080105987e-01 3.074959545390746340e-01 -4.252282418523479213e-01 8.512503628623393492e-01
3.162708702146584810e-02 9.666664530830094970e-02 -6.604400756117113636e-01 8.420487520458735942e-01 2.451961128736029616e-01 -4.804505858146731478e-01
-5.348164221552585001e-02 1.526298309474823089e-01 -7.868893988550950125e-01 5.267481104092958111e-01 -5.610524521601827352e-01 6.385581994660174399e-01
-5.983767985270757421e-03 7.913576358416382628e-02 -7.302302056988353440e-01 9.999516219417556862e-01 9.733887520341766297e-03 -1.416054304616331866e-03
-2.114870476428168042e-02 2.245385683891110706e-01 -6.880230267121391075e-01 8.565689826934616002e-01 2.096417337812708503e-01 -4.715293430367525906e-01
4.167146019217723985e-02 5.650969927780524066e-02 -6.634327963043655796e-01 8.385557022795427917e-01 2.471602700448213841e-01 -4.855266574410036506e-01
2.595104578636392781e-02 1.231308211029447930e-01 -6.528338073107294859e-01 5.660618196555142756e-01 7.752016041400824342e-01 -2.804219842789271167e-01
2.014297775782050021e-02 8.083625527874099825e-02 -6.995263530602323643e-01 -8.421268507528490987e-01 -2.423017257984295403e-01 4.817802828221506295e-01
5.088318691375012803e-02 9.596766979348096693e-02 -6.367832462258117276e-01 -8.720939072723890018e-01 -2.385944593389029977e-01 4.272293305370717387e-01
-2.747156447953203254e-02 1.998683953065142072e-01 -7.111889536618057894e-01 8.444723659797205295e-01 2.439382459700186467e-01 -4.768234004845858798e-01
-4.358978121235340675e-02 -3.685233385415958435e-02 -8.699488144164874148e-01 -8.385588014687987979e-01 -2.439109611132752042e-01 4.871617590985667379e-01
-5.792689433600200187e-03 8.452092469370960093e-02 -7.270005071076950376e-01 8.843599260194148215e-01 2.164329603394474777e-01 -4.135991959973305265e-01
-1.153916251876922414e-02 -6.164775641821863827e-02 -8.164690652423529649e-01 8.421268507528490987e-01 2.423017257984295403e-01 -4.817802828221506295e-01
-2.314218935962039907e-03 1.024919066101015602e-01 -7.168077784186355217e-01 8.422287434057796895e-01 2.463567699035699443e-01 -4.795404943316059487e-01
4.449347120829911378e-02 4.697437045706327058e-02 -6.789207991328325420e-01 -8.492386742445873216e-01 -1.846451856323367557e-01 4.946714359957481433e-01
-4.994679540381262439e-02 -3.161542793185806444e-02 -8.687876845588867747e-01 8.530207205366534540e-01 2.376119485224759409e-01 -4.646463302927087979e-01
