-4.406611832689569935e-02 -8.867512144716459266e-02 -9.138219539541831971e-01 2.838664873590809878e-01 4.662223115935686391e-01 -8.378881628993012365e-01
1.391255964793258922e-02 1.996747797047977169e-01 -7.344230186775269065e-01 2.788881396694109505e-01 4.573344533991878236e-01 -8.444327109283492616e-01
7.546098414184923553e-02 -1.094282035956912758e-01 -8.823595621744307893e-01 4.152028543898688695e-01 -6.944785017207895372e-02 -9.070741898064246245e-01
-7.605976533287232833e-02 -9.945892662429962894e-03 -8.788641486104810108e-01 4.327436079606046815e-01 7.913774316319012181e-01 -4.318040417515033869e-01
-7.984103007242747407e-02 1.654324698833085638e-01 -7.885122660700951691e-01 8.854135466917658626e-01 -4.628645292742988859e-01 4.241790747302388864e-02
5.839556580081092102e-02 1.411859348705723494e-01 -7.608579449540794348e-01 -2.960266800555551581e-01 -4.681303426295755910e-01 8.325996559000020669e-01
-5.832649954465447817e-02 1.626880672447761078e-01 -7.876781378782564680e-01 -3.892407526265718176e-01 -9.209777411446584683e-01 1.707737716343480164e-02
-2.943569920589973396e-02 -1.341199630344289406e-01 -9.341520101175341262e-01 2.838664873590809878e-01 4.662223115935686391e-01 -8.378881628993012365e-01
5.395519337197312443e-02 1.374166448735171867e-02 -8.296798110813605742e-01 -2.849308902368528074e-01 -4.631085810084234478e-01 8.392525424359457142e-01
-6.795240008941909327e-02 9.710515014985135474e-02 -8.187346218553741561e-01 2.881312795305071006e-01 4.624678109212846944e-01 -8.385129036680279979e-01
7.759034074422570260e-02 9.261229018748289021e-02 -7.780543362714699152e-01 -2.901010911064200171e-01 -4.633426583943464072e-01 8.373499494541840615e-01
4.087626354729422679e-02 -1.730446828296019479e-01 -9.321962994263505164e-01 2.721655326295628341e-01 4.790551689597465912e-01 -8.345250553107526059e-01
8.047579555038335275e-02 4.858445978469966980e-02 -7.954610243937862979e-01 2.735926317690196008e-01 4.641007558506753949e-01 -8.424711035166330131e-01
1.463456924413907316e-03 -1.451204266908835694e-01 -9.358606388960741818e-01 -2.833513559011714977e-01 -4.692353254009586361e-01 8.363792312730057299e-01
-5.063670544051820932e-02 1.464971235883913980e-01 -7.882052347270217529e-01 3.530655716145991718e-01 8.716607836612638716e-01 3.399296697369736941e-01
3.274224817675689802e-03 -2.652178536553819743e-01 -1.005829484911879401e+00 -3.341898670980555375e-01 -4.651172318373501535e-01 8.197457492277374635e-01
-2.423127301253448149e-02 -1.229438481843354997e-01 -9.261701378601028267e-01 2.838664873590809878e-01 4.662223115935686391e-01 -8.378881628993012365e-01
-1.018944826347110977e-01 7.772370395265562615e-02 -8.463150433793523719e-01 -1.475333496498437702e-01 -4.864759354634493049e-01 8.611475337920087014e-01
7.543770593556782533e-02 -2.471101061996127182e-02 -8.464943222364976760e-01 -3.069836476694059457e-01 -4.114520450792997219e-01 8.581772862664496238e-01
-6.401343291044440942e-02 -1.225801109745463524e-01 -9.396049942452192605e-01 2.923175099306411506e-01 4.665392153785092311e-01 -8.348003557150381893e-01
7.173895347988791527e-02 1.591217401592274344e-02 -8.224434565561736799e-01 -2.849252739459585126e-01 -4.630512979481070657e-01 8.392860559638731788e-01
-4.194449972722507844e-03 1.142632793551088821e-01 -7.875064466343519864e-01 2.838657417335753164e-01 4.642182428413785256e-01 -8.390003955203536590e-01
-8.427246160127030775e-03 -8.429291240530704943e-02 -8.993095576425738091e-01 2.838664873590809878e-01 4.662223115935686391e-01 -8.378881628993012365e-01
2.104696091265492730e-02 1.829979881994711344e-01 -7.475234452596462020e-01 -2.820836189384622883e-01 -4.634383839685720652e-01 8.400319614105041799e-01
4.394935188273299716e-03 -1.571355877142195101e-01 -9.348553402075194807e-01 -8.645096848037152615e-01 2.425158772611625824e-01 -4.402374974452197276e-01
9.799143349567332462e-02 -7.279779137619925289e-02 -8.620824126412033328e-01 -4.396444948154473731e-01 -4.099235786329661901e-01 7.991716823431695982e-01
-8.888515974113603280e-02 5.790907506571563862e-03 -8.822843121433641134e-01 -2.736629142367349998e-01 -4.642067374438453298e-01 8.423898825859663653e-01
-6.163162813481943940e-03 -1.404001294692096835e-01 -9.300148048605851869e-01 9.990865984742286487e-01 -2.215937122311163743e-02 3.653670779081940462e-02
-6.511375344515847076e-03 5.794682457377135776e-02 -8.180991481323790504e-01 6.042998342497896136e-01 3.676934562988622979e-01 -7.068403161398429946e-01
2.840828571346523321e-02 -6.215140619415198547e-02 -8.804223505526340698e-01 -2.838664873590809878e-01 -4.662223115935686391e-01 8.378881628993012365e-01
-5.130696783009734436e-04 -3.569404831614466644e-01 -1.059021899533567623e+00 -2.136551657125944637e-01 -4.787398566799863642e-01 8.515630451060858253e-01
1.877287014732119744e-02 -3.813009609852568288e-02 -8.622611092465969351e-01 4.414729720167709370e-01 -7.258176352693194999e-02 -8.943341112705026630e-01
8.161559306282790971e-02 -5.014362377819294586e-02 -8.499888068175506239e-01 2.781204363936307655e-01 4.673777945515423804e-01 -8.391704356210080151e-01
3.012688875771545385e-02 -1.150881357321671961e-01 -9.121556066587617195e-01 -2.659464134359812437e-01 -5.172433875773423395e-01 8.134689810853595882e-01
8.727697171307589874e-02 1.267310036606664192e-01 -7.544212440639153083e-01 -9.158726333997725400e-01 -1.268868964154394596e-01 -3.808897936508977011e-01
-9.757414688424388693e-02 -5.039394159632214903e-02 -9.137989579060971090e-01 9.427438299529085075e-01 2.385443661569132054e-02 3.326635491596120486e-01
6.904105338940187686e-02 1.143324280127231696e-01 -7.689975241083742974e-01 -2.904636538567287873e-01 -4.634044583084289681e-01 8.371900464100549000e-01
-1.149342980286967471e-02 1.383629804136190800e-01 -7.863468706746692405e-01 -2.838664873590809878e-01 -4.662223115935686391e-01 8.378881628993012365e-01
2.536347923400019203e-02 -1.365618194584507228e-01 -9.169454150304000573e-01 2.838664873590809878e-01 4.662223115935686391e-01 -8.378881628993012365e-01
4.578408978115275363e-02 1.556130343048935105e-01 -7.478583814768738902e-01 2.810743340048195704e-01 4.606373881610865695e-01 -8.419087927987681796e-01
-4.939467258209283285e-02 -1.187200341490251831e-01 -9.383322339500014264e-01 -2.772584280703145332e-01 -4.663173979620589549e-01 8.400451466569355263e-01
-4.364406126402235395e-03 -2.558890032867114708e-02 -8.628997059323137986e-01 7.237838064674743110e-01 3.307321779554387997e-01 -6.056015422373903778e-01
2.190160086219953769e-02 -1.664718299662082124e-01 -9.408054724603437391e-01 -2.890945057568157783e-01 -4.686297092770363437e-01 8.347517968379238873e-01
6.669167875620901631e-02 -1.079955323506165271e-01 -8.956976991506703234e-01 -2.657652682811342815e-01 -5.172445124962284924e-01 8.135274650975193866e-01
-4.076655630293503363e-02 1.967224807246569507e-01 -7.607509168027121182e-01 -2.728573582740667081e-01 -4.746543690476761057e-01 8.368106667458595771e-01
5.912731360415154208e-02 1.043059379199183651e-01 -7.779140207846304556e-01 -2.839913843367639079e-01 -4.635270075322924788e-01 8.393399829095755660e-01
-3.466767517768426163e-03 1.248988222555499350e-01 -7.786168481701570832e-01 3.383630957387170901e-01 4.906841668802036094e-01 -8.029567010836835550e-01
-2.246223183825425337e-02 -5.548749933086381120e-02 -8.880363775170720952e-01 2.838664873590809878e-01 4.662223115935686391e-01 -8.378881628993012365e-01
-3.280891252924007795e-02 2.042415754455551291e-01 -7.478085757247365795e-01 2.975888307253344300e-01 4.478575180599790317e-01 -8.431278262189451089e-01
2.271434822521252797e-02 8.227054163134871201e-03 -8.372786924359569838e-01 2.838664873590809878e-01 4.662223115935686391e-01 -8.378881628993012365e-01
8.438225618485858601e-03 1.292466017240583021e-01 -7.720898010624588359e-01 2.838664873590809878e-01 4.662223115935686391e-01 -8.378881628993012365e-01
-4.515288333385095859e-02 7.770822727682923092e-02 -8.217134713518183808e-01 2.877321190289444663e-01 4.630745101218941007e-01 -8.383151112526130433e-01
8.609239174882062692e-04 -5.992612535934088019e-02 -8.885168643011214229e-01 -2.838664873590809878e-01 -4.662223115935686391e-01 8.378881628993012365e-01
-6.058899507847401861e-02 1.540791071369732590e-01 -7.846903556325784956e-01 2.902545731946650220e-01 4.609318117304826434e-01 -8.386263456834859298e-01
-5.009240668741508223e-02 -5.351975286010567795e-02 -9.022145744380246635e-01 -2.838664873590809878e-01 -4.662223115935686391e-01 8.378881628993012365e-01
1.053384372001234422e-02 8.183983052804115477e-02 -8.067985801017207859e-01 -2.846867958714850988e-01 -4.619708750831713617e-01 8.399621055924584301e-01
-9.326015687331195431e-04 1.948933156144135037e-01 -7.419977661796480772e-01 2.846036310931167601e-01 4.605760781274444438e-01 -8.407558798042122916e-01
-4.584897571245918728e-03 9.770271365095439808e-02 -7.944311227945776155e-01 7.402748835283239348e-01 3.268902927950234627e-01 -5.874826238226201758e-01
-1.031740263296326149e-01 6.071651690764261200e-02 -8.515799840399002063e-01 4.558466740282879348e-01 4.256753644731628428e-01 -7.816676364401865529e-01
6.037071741182050387e-03 1.911205763220002185e-01 -7.505889582785183478e-01 -7.358137113011780084e-01 -3.211057412543038558e-01 5.962124497146218394e-01
-1.272366249351591580e-02 -1.251174645646206673e-01 -9.208454445209871553e-01 3.013195713330251713e-01 4.891727714857407316e-01 -8.184842793656096349e-01
4.769092027613845187e-03 1.732263821091324374e-01 -7.616150807769309639e-01 -3.325794894820801040e-01 -4.503309251660697066e-01 8.286090399065839662e-01
4.401845068804513539e-02 1.432535155422553497e-01 -7.622431761026118302e-01 2.588089050616939613e-01 -9.178603405528725778e-01 -3.009158452141260098e-01
6.814880235729162475e-03 -2.789773414256656037e-01 -1.008926707371852638e+00 -9.993253585702920327e-01 1.273198783860132223e-02 -3.444886361021104459e-02
7.877340275805069791e-02 -4.728251418397829559e-02 -8.493372077276334364e-01 2.780404455057414181e-01 4.673377524299459629e-01 -8.392192418055577363e-01
-9.910131248602677210e-05 -2.261222287799479758e-01 -9.849139074683074258e-01 -2.323388562367082188e-01 -4.771394221238624000e-01 8.475592178355001449e-01
-2.877426300357422209e-02 1.507660820191023265e-01 -7.756364152526817879e-01 2.842217592051838881e-01 4.636036279095446244e-01 -8.392196779052663036e-01
-5.767397231060779339e-02 -9.601812600988880730e-02 -9.312517989803049678e-01 -2.590902360520291325e-01 -4.194222885193136796e-01 8.700328691927249336e-01
-1.781968098256847544e-02 8.575005110607443470e-02 -8.142182791057651636e-01 -2.833868833762807626e-01 -4.639275190480565136e-01 8.393230197011118943e-01
-5.773318844112629994e-02 7.321144049921465835e-02 -8.315638681532385723e-01 2.340216731911817227e-01 6.595088986247535923e-01 7.143401634456543192e-01
-7.863303670265057999e-02 -6.364659198613090325e-03 -8.849782033315397589e-01 3.071303097943325899e-01 6.288686635349602927e-01 7.142794808962316111e-01
2.551842345793097974e-02 -6.141002380460058169e-02 -8.809888772766256704e-01 -2.838664873590809878e-01 -4.662223115935686391e-01 8.378881628993012365e-01
5.486160681960756264e-02 -1.589209020417110818e-01 -9.252870295883123264e-01 -2.963053398312030517e-01 -4.596804558329573021e-01 8.371959293455264461e-01
2.995064018802198746e-02 -2.785287245192345426e-02 -8.608869245994764663e-01 -2.851241946309353015e-01 -4.628935643498147678e-01 8.393055115508204489e-01
7.231713212443110703e-03 -6.079763255420565088e-02 -8.809311174659949506e-01 2.838664873590809878e-01 4.662223115935686391e-01 -8.378881628993012365e-01
-3.124459594625015116e-02 -3.628020906377648486e-02 -8.862366404107415718e-01 -2.838664873590809878e-01 -4.662223115935686391e-01 8.378881628993012365e-01
-4.400177079274344809e-03 -2.277668772031448408e-01 -9.754029857159269845e-01 3.624871828759201331e-01 4.530848712745041973e-01 -8.144428412558152308e-01
-1.456631491682040293e-02 -5.850230837306715816e-03 -8.577418950513089335e-01 2.838664873590809878e-01 4.662223115935686391e-01 -8.378881628993012365e-01
1.473601105921542274e-02 -9.422313980815248680e-02 -8.969875545705731090e-01 2.838664873590809878e-01 4.662223115935686391e-01 -8.378881628993012365e-01
-7.558900586936409538e-02 1.481999148851971537e-01 -7.991122966382367965e-01 -2.727639523250667275e-01 -4.669535471311185848e-01 8.411624166198077290e-01
-4.858007375045651083e-02 1.011076764239970810e-01 -8.161329980418268182e-01 -2.786784889434524848e-01 -4.648464228907548401e-01 8.403904467126358524e-01
-7.791350535332826344e-02 -1.180384244943164743e-03 -8.824762486772391723e-01 -2.781961767314605760e-01 -4.668821635015065752e-01 8.394211890678900945e-01
-5.548926762514508164e-03 2.300308229108980612e-02 -8.447531533811019067e-01 -2.830226401386526924e-01 -4.635137496574726068e-01 8.396744542067577921e-01
-2.926123542101546210e-02 -1.291586544349292154e-01 -9.373521183576929428e-01 -2.838664873590809878e-01 -4.662223115935686391e-01 8.378881628993012365e-01
8.482713370021953414e-02 1.287912136155099918e-01 -7.506545921498912755e-01 -5.190700267722071770e-02 3.581771931490699279e-01 -9.322096123624346031e-01
3.549356158903173991e-02 1.635682848559985025e-01 -7.533383114836026406e-01 -2.878036918655728638e-01 -4.607478502940224319e-01 8.395715892036743622e-01
-6.719684597877782772e-02 -7.774499721042592293e-02 -9.156803423259338715e-01 2.889661019295981514e-01 4.660561221513740415e-01 -8.362357819065364684e-01
-1.273790990516240201e-02 -1.893578911754516814e-01 -9.595014596710851329e-01 2.902099081594491370e-01 4.738818556701392404e-01 -8.313929252000579195e-01
5.630460589026922008e-02 1.497819721261802184e-01 -7.475399904413116969e-01 2.774587176696351465e-01 4.627736972967210760e-01 -8.419365564455818518e-01
-5.843542663030985157e-02 -1.238752447348147739e-01 -9.383778694272996157e-01 2.899793749306533996e-01 4.664552352501772359e-01 -8.356622975954636212e-01
-8.308269181286929983e-02 -1.515713472569833568e-02 -8.863134406048569502e-01 2.896023201341997866e-01 4.657250472308482880e-01 -8.362001414462403304e-01
-5.886506373838543832e-02 1.806733927084917812e-01 -7.756555781760350321e-01 -2.772030566515912842e-01 -4.639945388016906147e-01 8.413486395931361050e-01
-8.204660872899068036e-02 1.303375144371614336e-01 -8.111269717257222345e-01 -2.739171217342185605e-01 -4.668806289047702784e-01 8.408280970414389044e-01
-4.533445089181185883e-02 1.550609929259158248e-01 -7.885206044416662730e-01 -2.838664873590809878e-01 -4.662223115935686391e-01 8.378881628993012365e-01
-4.386419070911468793e-02 1.177307319194079577e-01 -7.990616827327122751e-01 2.888177002478779509e-01 4.626638805261211740e-01 -8.381685210505330774e-01
-1.563975716936487348e-02 1.365424233870062565e-01 -7.854957259802894942e-01 -2.837520647686764819e-01 -4.640980630541223229e-01 8.391053292697673305e-01
5.008232640226278724e-03 -3.510781399831348071e-01 -1.053758341321348491e+00 -3.541496006798013907e-01 -4.585843970420154236e-01 8.150327669044651335e-01
4.069535666654704176e-02 1.648154428614429234e-01 -7.508691051433845631e-01 -2.885248989393092156e-01 -4.623669402645193549e-01 8.384331787581450479e-01
-6.414580877219186461e-02 1.822883906860967851e-01 -7.764223984669508249e-01 -2.571587396429696470e-01 -4.783576036508795926e-01 8.396686165712204941e-01
7.338929755699621915e-02 -5.313374053051636570e-02 -8.601563744000325640e-01 -2.896820378638704785e-01 -4.650896397666003934e-01 8.365261166997768338e-01
5.054383440251852128e-02 -5.689824231746696409e-02 -8.640877688460057993e-01 2.838664873590809878e-01 4.662223115935686391e-01 -8.378881628993012365e-01
1.043684948597675037e-03 -2.116925031231531307e-01 -9.727800280795659837e-01 -2.923412920783631241e-01 -4.253913268995094810e-01 8.564921412042424409e-01
-1.246841231397120310e-02 -3.627283828365793911e-02 -8.739590642718775282e-01 2.838664873590809878e-01 4.662223115935686391e-01 -8.378881628993012365e-01
1.773975819851460536e-02 -8.861494677971142042e-02 -8.928493795485836770e-01 2.838664873590809878e-01 4.662223115935686391e-01 -8.378881628993012365e-01
-6.683880893169377724e-02 1.815639727302697792e-01 -7.776028197507647288e-01 -2.195610872191341711e-01 -5.022563503559976938e-01 8.363799899006580940e-01
2.821680959693353280e-02 1.706150210807469425e-01 -7.454317186754925162e-01 2.884075336575691040e-01 4.593163315458141382e-01 -8.401485595445926657e-01
5.464115750607142705e-03 -1.321904950898991904e-01 -9.212547651570170970e-01 2.838664873590809878e-01 4.662223115935686391e-01 -8.378881628993012365e-01
-5.610165466006279689e-02 4.308418320440503269e-02 -8.445870585889838633e-01 2.884073712722777794e-01 4.655070299458805017e-01 -8.367343624273951841e-01
5.489757035100507193e-02 -6.945943914485311690e-03 -8.408378571942798363e-01 -2.838664873590809878e-01 -4.662223115935686391e-01 8.378881628993012365e-01
-6.161306839630506516e-02 1.007356796001454141e-01 -8.207213175106506942e-01 -2.833758263017985835e-01 -4.638498891118050804e-01 8.393696572063699124e-01
7.779907566749248715e-02 6.321570550919997436e-03 -8.198205817488265490e-01 2.783311224525485406e-01 4.670642695783804310e-01 -8.392751362679096161e-01
3.940009527592693711e-02 1.006924172573923637e-01 -7.866585214701565798e-01 -2.847910155163750345e-01 -4.615312779282592648e-01 8.401684098887910457e-01
-6.186183928732647691e-02 1.594710024598313125e-01 -7.883552063756441575e-01 -2.766046666914700469e-01 -4.652569717243763003e-01 8.408482673029441523e-01
-9.288729720042410154e-02 -6.914319888881691190e-02 -9.202377744856031772e-01 3.452229168607238163e-01 4.659461078151903579e-01 -8.146872788291520395e-01
2.932060980914855466e-02 1.362567804349919531e-01 -7.612542687613609305e-01 3.344420012064996950e-01 3.082151187676196447e-01 -8.905908086164228132e-01
3.869070367282339152e-03 -3.397136456944337135e-02 -8.731195237235066520e-01 -2.842641595447210623e-01 -4.630301214270307608e-01 8.395218843184508728e-01
-4.985202298938277987e-02 -1.245275353729387163e-01 -9.417069848496184559e-01 -2.772584280703145332e-01 -4.663173979620589549e-01 8.400451466569355263e-01
-6.149089868656560515e-02 -4.784008922869936145e-04 -8.766281960643319549e-01 -2.792507264368903619e-01 -4.667607655882409223e-01 8.391384983969857325e-01
3.705564509914371918e-02 -1.900474233698459803e-01 -9.432866737395901868e-01 2.208526655430484709e-01 5.251054203234012396e-01 -8.218810118682110533e-01
-1.459876625276243338e-02 -2.404071156899904513e-02 -8.738685990580660201e-01 -2.826231194792089840e-01 -4.632578356487279669e-01 8.399502068848466729e-01
5.372838092448751351e-02 -5.280640380756837504e-02 -8.607339401429533465e-01 2.790707522072544688e-01 4.670796895696622819e-01 -8.390209048968834127e-01
3.014643632903334439e-02 4.584811304126908821e-02 -8.138274746618042732e-01 2.838664873590809878e-01 4.662223115935686391e-01 -8.378881628993012365e-01
8.063896329982817024e-02 6.321666360079816749e-02 -7.873471160830772808e-01 2.781283963742076648e-01 4.664761375969597168e-01 -8.396693445535176048e-01
-3.011950392161999099e-02 1.919133666476713629e-01 -7.534662220902469398e-01 2.793045987159075150e-01 4.606266436579395385e-01 -8.425034339921514404e-01
-4.380193629789267545e-02 -1.581480928626020355e-01 -9.583575853019427049e-01 -2.751347258234033699e-01 -4.661619104878139686e-01 8.408293262347785735e-01
-3.065851528959961589e-02 1.395017075625147596e-01 -7.882009334125072986e-01 2.272198667917212367e-01 6.649396814069332695e-01 7.114958553818838682e-01
-9.347364258353066738e-03 -5.586784857496383122e-02 -8.838048532572945204e-01 2.838664873590809878e-01 4.662223115935686391e-01 -8.378881628993012365e-01
2.819379299064265001e-03 -1.209635536163843755e-01 -9.219236270235493524e-01 -2.838664873590809878e-01 -4.662223115935686391e-01 8.378881628993012365e-01
8.017977634167065826e-02 7.559908846254240200e-02 -7.806201909810466244e-01 2.781283963742076648e-01 4.664761375969597168e-01 -8.396693445535176048e-01
9.122411797889243279e-02 -9.097347605942299187e-02 -8.747602986015938775e-01 -3.248696516740484097e-01 -4.534111733056152560e-01 8.299867573297827761e-01
-7.273702109259157222e-02 -7.597924979775576293e-02 -9.223276376839317781e-01 -2.773078316399525400e-01 -4.664160006794475510e-01 8.399740953275507405e-01
-6.485242703693429311e-02 6.893437201792791680e-02 -8.393342420560481187e-01 -2.792451030079679541e-01 -4.670773604468010931e-01 8.389641898222583993e-01
5.069045117711589582e-02 -6.777965677931023503e-02 -8.760051213724614483e-01 -2.838664873590809878e-01 -4.662223115935686391e-01 8.378881628993012365e-01
2.640172228657253553e-02 1.032139146377455408e-01 -7.832838306070004641e-01 2.838664873590809878e-01 4.662223115935686391e-01 -8.378881628993012365e-01
-7.228453530058477280e-03 2.167387959051124691e-01 -7.383895662467546694e-01 -2.838664873590809878e-01 -4.662223115935686391e-01 8.378881628993012365e-01
4.289880835575536622e-02 -1.148613166645593431e-01 -9.048901747426024711e-01 -2.824519217829294382e-01 -4.695813481576651682e-01 8.364892523777933686e-01
-5.016759592972618031e-03 -3.096054947247539602e-01 -1.021448819986091161e+00 7.364851140812073149e-01 3.276074111708637826e-01 -5.918302635745451568e-01
4.166243643023615634e-02 -1.657323581562690148e-02 -8.506786326407553833e-01 -2.838664873590809878e-01 -4.662223115935686391e-01 8.378881628993012365e-01
-5.781596310240467995e-02 -9.446085817298877085e-02 -9.208122242110154954e-01 -2.633931813245239395e-01 -6.268079705687384928e-01 -7.333047116057866965e-01
-1.287433862464942499e-02 8.325004668203730973e-02 -8.076984947837129170e-01 2.838664873590809878e-01 4.662223115935686391e-01 -8.378881628993012365e-01
-7.726181157440230318e-02 7.243923496601314960e-02 -8.415144712999894638e-01 -2.829871093667340465e-01 -4.633900405722150007e-01 8.397547059890412280e-01
5.361738694069691918e-02 -4.200374237718060982e-02 -8.547588069379279396e-01 2.838664873590809878e-01 4.662223115935686391e-01 -8.378881628993012365e-01
1.117116707612399867e-02 -4.654608572573696451e-02 -8.696175967113397576e-01 3.202856327166157813e-02 8.564320095822094414e-01 -5.152653530926870618e-01
-8.405695423098695496e-02 3.591083092676936039e-02 -8.639872155842215351e-01 -2.783311224525485406e-01 -4.669570457189744506e-01 8.393347983538582691e-01
-8.381263939450141198e-02 6.806792128168352718e-02 -8.461341811112434996e-01 -2.829871093667340465e-01 -4.633900405722150007e-01 8.397547059890412280e-01
7.298175127682474464e-03 1.353149349656410094e-01 -7.784801800618843526e-01 -2.835551841563077602e-01 -4.622637523024218931e-01 8.401837185076650449e-01
-3.708842068770021316e-02 1.817858387727673553e-02 -8.580385010297404413e-01 -2.827371963666968635e-01 -4.634770979127300627e-01 8.397908415201330579e-01
-9.009038884366267486e-02 7.745939472123127001e-02 -8.429820794991031985e-01 -2.654472152856884870e-01 -4.668820488851909700e-01 8.435395238670440055e-01
-1.605778906617796528e-02 6.897811314407219230e-02 -8.228939216633837095e-01 -2.833868833762807626e-01 -4.639275190480565136e-01 8.393230197011118943e-01
8.047272359011743703e-02 3.586228882359832754e-02 -8.025014058535534511e-01 2.784021983302174541e-01 4.667692342435607045e-01 -8.394156883979367878e-01
-4.595223763993272134e-03 -4.695653753460900248e-02 -8.840490239830879338e-01 8.588526879057883923e-01 -6.643421952812632314e-02 5.078962049008548529e-01
-6.141779702619682563e-02 -1.015381136052791178e-01 -9.284873538524360814e-01 3.937624417344439687e-01 8.453498336432342386e-01 3.610191106280733475e-01
-7.557676261389711936e-02 -2.386706469819044286e-04 -8.811780420173146444e-01 -2.781961767314605760e-01 -4.668821635015065752e-01 8.394211890678900945e-01
4.799871250520021393e-02 -1.350722600597254186e-01 -9.084692503873469382e-01 2.772584280703144777e-01 4.680050987516147787e-01 -8.391060669584441412e-01
6.896796820979973763e-02 -1.339169247944530516e-01 -9.065202976973463223e-01 -2.915663952605098697e-01 -4.632461119130237837e-01 8.368943045285098803e-01
2.259898650323551375e-02 1.604516201401148118e-02 -8.329675813024246533e-01 2.838664873590809878e-01 4.662223115935686391e-01 -8.378881628993012365e-01
-6.721384962236465199e-02 -1.113274312320695070e-01 -9.344351571518820787e-01 2.915050579000954545e-01 4.669410941186062924e-01 -8.348597581881526120e-01
7.274566422720801784e-02 -1.159518543143042424e-01 -8.872924520611750188e-01 3.321195610725394265e-02 8.685631921392430455e-01 -4.944643032944019412e-01
4.030034393660208297e-02 -9.215049036474486088e-02 -8.930857178637527927e-01 -2.838664873590809878e-01 -4.662223115935686391e-01 8.378881628993012365e-01
4.702759096554866985e-02 -5.344772020870718759e-02 -8.692714001129427936e-01 -2.838664873590809878e-01 -4.662223115935686391e-01 8.378881628993012365e-01
-1.022913810710603527e-01 7.026736891091923953e-02 -8.505952429685127436e-01 -1.475333496498437702e-01 -4.864759354634493049e-01 8.611475337920087014e-01
5.759935547550379918e-03 -1.678161442352948118e-01 -9.487897409734423748e-01 -7.432120860633094628e-01 -3.295893644217250396e-01 5.822427723806514743e-01
-4.977668257022025561e-02 -9.955844905126952360e-02 -9.218123854490501978e-01 2.838664873590809878e-01 4.662223115935686391e-01 -8.378881628993012365e-01
2.423337653956870660e-02 1.278757793470407800e-01 -7.726179780016627641e-01 -2.272198667917212367e-01 9.551375353786317746e-01 1.899563651104782813e-01
-2.281876742156793876e-03 -7.378252496041096120e-02 -8.887880534661047882e-01 3.647031633004567674e-01 4.527344772026583031e-01 -8.136480171613987844e-01
6.711782767687310414e-02 -1.805766136487286025e-02 -8.369363967239341617e-01 2.792507264368903064e-01 4.670009357176164166e-01 -8.390048616208011234e-01
4.809077090304555296e-02 -1.623980789787517198e-01 -9.237904333587975136e-01 2.727522893849030905e-01 4.729348171310902016e-01 -8.378179082476551187e-01
6.364065101455702866e-02 -1.118953579519164215e-01 -8.903590451595192468e-01 2.783712686726610430e-01 4.678095780968712925e-01 -8.388466101847227296e-01
7.007216583880514389e-03 2.093318318268541645e-01 -7.346790352415107916e-01 -8.616663532313735274e-01 2.399373624155033413e-01 -4.471701665205731757e-01
4.726818296132795361e-02 1.360293047400263355e-01 -7.549474227597413600e-01 2.880744648355330062e-01 4.664836040688964403e-01 -8.363050578853472583e-01
2.848646315451605973e-02 1.222115306749236574e-01 -7.784944445994576023e-01 -2.839903095663804389e-01 -4.639154621218362640e-01 8.391257045739179965e-01
2.641553629763749439e-02 4.037630318400127483e-02 -8.243242360158421489e-01 -2.847977799378476615e-01 -4.634774817529916380e-01 8.390940641253388232e-01
-5.678898826028727122e-03 -2.222383222138483716e-01 -9.800285048693404555e-01 8.581329156665647995e-01 -2.529298556385747299e-01 4.468046409520050055e-01
8.500034300423923994e-02 -1.119101540192088823e-01 -8.864303743277965886e-01 -8.151821092490630916e-01 5.257972188926977042e-01 2.429308818675655068e-01
-2.935594443773304266e-03 2.068287703448822706e-02 -8.471950869342549373e-01 2.349089042124112570e-01 -4.671150491659768478e-01 8.524208687992047562e-01
9.434665291741303056e-03 -9.320622009040029077e-02 -9.041455590014875199e-01 -2.828442358516494726e-01 -4.693886301590333154e-01 8.364648540870817106e-01
2.553025804521117328e-05 -3.288247867435454413e-02 -8.678397835463620424e-01 2.838664873590809878e-01 4.662223115935686391e-01 -8.378881628993012365e-01
1.372144039859362653e-02 -2.060917633212474009e-01 -9.653893103595111436e-01 -3.053763403036685031e-01 -4.349644915447234417e-01 8.470839284734295038e-01
1.582289301486510327e-02 -1.026821035227959283e-01 -9.013261147922907446e-01 2.838664873590809878e-01 4.662223115935686391e-01 -8.378881628993012365e-01
6.034907233520022535e-02 -4.721554164323948227e-02 -8.612904987039294857e-01 -2.838664873590809878e-01 -4.662223115935686391e-01 8.378881628993012365e-01
8.334002945666026466e-03 2.630916594228959945e-02 -8.382172116610331347e-01 -2.838664873590809878e-01 -4.662223115935686391e-01 8.378881628993012365e-01
3.143058018898241268e-02 1.713150571254967447e-01 -7.439670185199577235e-01 2.793584029135648406e-01 4.600955850212938847e-01 -8.427757325442490899e-01
2.448011711961534109e-02 3.491905825496351146e-02 -8.279954730724177203e-01 -2.847977799378476615e-01 -4.634774817529916380e-01 8.390940641253388232e-01
7.510985816894424905e-02 -1.252401566674951894e-01 -8.995621348840995291e-01 -2.976869557348836293e-01 -4.608518670446228316e-01 8.360610223104426586e-01
7.457912677911497645e-02 -6.549673378392705837e-03 -8.338697965988820515e-01 -2.850816517406867812e-01 -4.629486506421454095e-01 8.392895797693538107e-01
5.794098541071204117e-02 -1.104653353063729387e-01 -9.001267105178426542e-01 -2.657652682811342815e-01 -5.172445124962284924e-01 8.135274650975193866e-01
-6.113441530907490901e-02 -3.970350140758847901e-02 -8.923948149983184086e-01 2.886551209443414256e-01 4.657000779912245925e-01 -8.365414864258526872e-01
-7.587038204435427036e-02 5.060971243277914006e-02 -8.531762245019456348e-01 -2.772654706817899162e-01 -4.641990090086275944e-01 8.412152749463203127e-01
-1.641290727283261502e-02 -1.867080022230392378e-01 -9.592723288324606079e-01 2.896266651592115937e-01 4.743125258678683731e-01 -8.313507217977238462e-01
-6.587245273063402871e-03 1.390888943670074984e-01 -7.746253408787678874e-01 9.990864026086040406e-01 -2.228719819426686413e-02 3.646424165189621897e-02
8.804977440716463266e-02 7.621847746534719803e-02 -7.777413100516319400e-01 2.658143598289538501e-01 4.666793246120788385e-01 -8.435360893810870397e-01
-3.349805559625118612e-02 8.964276506103274755e-02 -8.111284921034624951e-01 2.838664873590809878e-01 4.662223115935686391e-01 -8.378881628993012365e-01
4.360244773828576836e-03 2.235352957620534084e-02 -8.445714576287820519e-01 -3.373576919201839441e-01 -4.526579633643496026e-01 8.254032686542531749e-01
-6.856912380251196926e-02 2.259991485876332654e-02 -8.602810141349757078e-01 2.884399119291972124e-01 4.655876903098924435e-01 -8.366782654271452957e-01
1.544802304027008931e-02 -1.538280022126038149e-01 -9.299119967741035220e-01 2.838664873590809878e-01 4.662223115935686391e-01 -8.378881628993012365e-01
1.247438173874454567e-03 -1.145647883794192745e-01 -9.104648771671718377e-01 2.009564294405302709e-01 4.763048234780847823e-01 -8.560083110566296671e-01
-3.756251567122224216e-02 -1.035408219532080037e-01 -9.198902654991824024e-01 2.838664873590809878e-01 4.662223115935686391e-01 -8.378881628993012365e-01
-1.128914859076877980e-04 1.990258733548379982e-02 -8.385157242190687255e-01 2.838664873590809878e-01 4.662223115935686391e-01 -8.378881628993012365e-01
-3.915341635855985880e-02 6.968747668745192692e-02 -8.302948427272954790e-01 -2.831201935165510997e-01 -4.638735655082232290e-01 8.394428338164776626e-01
6.124639241233015979e-02 -1.075061278509241297e-01 -8.927227081640838335e-01 2.701157765598472538e-01 -9.468529776729098790e-01 -1.746622624536126045e-01
-5.136315428674625289e-02 1.079237185616380157e-01 -8.070591010356686912e-01 2.888177002478779509e-01 4.626638805261211740e-01 -8.381685210505330774e-01
7.931925796928759875e-02 -4.508480736748984863e-02 -8.479323464544336053e-01 2.781204363936307655e-01 4.673777945515423804e-01 -8.391704356210080151e-01
6.215976924749779670e-02 -9.383200802845610700e-03 -8.337593214005534215e-01 2.792863684310442629e-01 4.669050819555775611e-01 -8.390463448777153443e-01
5.843164094351653744e-03 -3.642309788977354246e-01 -1.051306730032486758e+00 -8.642162773259489672e-01 2.441411302997537891e-01 -4.399151446595544468e-01
-2.487630419569006324e-02 -1.645756576052745668e-01 -9.555928359729610744e-01 -2.786262727705536846e-01 -4.701365477376379665e-01 8.374598656671997654e-01
-8.243890117181943214e-03 -1.309009212402423017e-01 -9.251813218490760882e-01 2.838664873590809878e-01 4.662223115935686391e-01 -8.378881628993012365e-01
4.044165395336726809e-02 9.707876669260806501e-02 -7.819410222491752771e-01 2.838664873590809878e-01 4.662223115935686391e-01 -8.378881628993012365e-01
-5.758849908005526236e-02 4.988173209200350705e-02 -8.413424054285254527e-01 2.874285227872383497e-01 4.627987615424618562e-01 -8.385714940320291300e-01
2.144609742165698094e-02 5.263108070094475038e-02 -8.130142353654092879e-01 2.845754090220219967e-01 4.637592253206089810e-01 -8.390138363042515257e-01
8.339760431076996550e-02 -2.513051667059814850e-02 -8.324444385676456060e-01 2.857810866385400717e-01 4.152766583497823905e-01 -8.636402419697296606e-01
-5.206325237699828933e-03 -2.895786474397942303e-02 -8.657457891032288577e-01 7.237838064674743110e-01 3.307321779554387997e-01 -6.056015422373903778e-01
1.115458520329576462e-03 -3.392774623516530696e-01 -1.048683248054094630e+00 -2.120163109858747008e-01 -4.790436195033144218e-01 8.518017929595501636e-01
-5.078204229572923223e-02 -1.435351558587750209e-01 -9.467719114673560643e-01 2.949328288320280933e-01 4.697420634008587781e-01 -8.320799362735776805e-01
-5.595168961771622429e-02 -1.048524068283975125e-01 -9.269018503941935938e-01 2.897146712965160131e-01 4.659779922539837305e-01 -8.360202868175494739e-01
-4.231820077950432246e-02 -1.557492659946280167e-01 -9.506678183099221968e-01 2.974690392710909737e-01 4.724493005558244585e-01 -8.296407831582570669e-01
-5.220720425901111822e-02 6.777548833590460106e-03 -8.694875728707989193e-01 -2.838664873590809878e-01 -4.662223115935686391e-01 8.378881628993012365e-01
1.638534276891893265e-02 -4.399195418382695344e-02 -8.752025577749149576e-01 -4.391238782419505937e-01 7.150839763129904769e-01 5.438980845509120421e-01
-6.746861641692687706e-02 1.914507050522141346e-02 -8.677309103957244751e-01 -2.826838889062202043e-01 -4.632940540332580182e-01 8.399097799468012715e-01
9.234654199158574828e-02 6.949227956244191651e-02 -7.868622804173255325e-01 -5.030400776554919684e-01 -5.241675892714127150e-01 6.871673876354669197e-01
-2.702689399417294250e-05 9.769515613797986886e-02 -7.926496594618797076e-01 2.054600441053430759e-01 4.758503620413426227e-01 -8.551915593721405306e-01
9.609394831126061298e-02 1.566733089935615914e-02 -8.086854183364764470e-01 2.590845769534812493e-01 4.660413037943599845e-01 -8.459791280773355515e-01
-2.113598194063750352e-02 1.239236983874997672e-01 -7.878929500399377561e-01 2.841659388602235103e-01 4.640165628594664082e-01 -8.390103387824098258e-01
-3.896054648987654773e-02 -1.303427689059374062e-01 -9.352771874442419309e-01 2.838664873590809878e-01 4.662223115935686391e-01 -8.378881628993012365e-01
-1.909769319828985915e-02 -6.994194420462739037e-02 -9.008516617184645359e-01 -2.838664873590809878e-01 -4.662223115935686391e-01 8.378881628993012365e-01
1.949037870182270329e-02 -5.520082566399368146e-02 -8.736638223451193008e-01 2.838664873590809878e-01 4.662223115935686391e-01 -8.378881628993012365e-01
-7.107858578017625661e-02 1.798637053235368211e-01 -7.782607987993331866e-01 8.378615547741872227e-01 -5.455276325798611436e-01 -1.968799439235625198e-02
-1.516935457331477707e-02 9.699136865894242288e-02 -8.008299972497107122e-01 2.838664873590809878e-01 4.662223115935686391e-01 -8.378881628993012365e-01
-2.907734999446288590e-02 3.909105178668061814e-02 -8.376515860329160068e-01 2.838664873590809878e-01 4.662223115935686391e-01 -8.378881628993012365e-01
-3.037238724641750862e-02 6.338411272438000676e-02 -8.308161212935284423e-01 -2.831553411751267513e-01 -4.639636354489634074e-01 8.393811993039747010e-01
-1.791368321733088301e-03 -1.637972133805609132e-01 -9.413052731541504681e-01 2.844420710070715286e-01 4.694452885322360491e-01 -8.358910391409239971e-01
-4.500321031486087010e-03 -2.167505929175149726e-01 -9.791855544050571680e-01 8.581329156665647995e-01 -2.529298556385747299e-01 4.468046409520050055e-01
-6.748006744490780973e-02 -1.381186533046637778e-02 -8.774980484587318053e-01 3.179539522907149918e-01 5.345504117772179598e-01 -7.830460660085842850e-01
1.027594266025219777e-01 4.495327321468003956e-02 -7.952946732407961683e-01 -4.148325647036515962e-01 -4.484301025987891265e-01 7.917224174826869021e-01
-3.163249852740066675e-02 -6.376719964667847129e-02 -8.957501902905696811e-01 2.838664873590809878e-01 4.662223115935686391e-01 -8.378881628993012365e-01
1.669074935348952710e-02 -1.426026055909354884e-01 -9.292646923499492395e-01 -2.838664873590809878e-01 -4.662223115935686391e-01 8.378881628993012365e-01
1.012850794685675460e-01 5.079543386064869215e-02 -7.926609354056812773e-01 -3.181263278006850603e-01 -4.602015358991792815e-01 8.288607759546153808e-01
9.378257775687658115e-02 -4.745301315411802612e-02 -8.498232359088314647e-01 -3.023392192241312060e-01 -4.623791175095379735e-01 8.335445688204341508e-01
-2.110146385161751695e-02 -1.992012888391070935e-01 -9.728713026295884303e-01 -1.132648159321818088e-01 -3.148207355802420948e-01 9.423688162925194511e-01
-3.131543377265601918e-02 1.550973347432619276e-01 -7.741043629382109437e-01 2.842217592051838881e-01 4.636036279095446244e-01 -8.392196779052663036e-01
6.500791392169695537e-02 2.407073816814545714e-03 -8.262503326683960925e-01 2.792865955131819122e-01 4.669052545287828426e-01 -8.390461732587000121e-01
3.316696728443011694e-02 -1.308232482322332635e-01 -9.171284123830704127e-01 -2.838664873590809878e-01 -4.662223115935686391e-01 8.378881628993012365e-01
-5.128922303299647545e-02 1.190427958525910879e-01 -8.008958870395014307e-01 2.881995871792872310e-01 4.627976682625118965e-01 -8.383074115146963434e-01
-7.539703825787576197e-02 1.505812178899882947e-01 -7.917907263274079899e-01 3.069238855992376669e-01 4.512515853696721924e-01 -8.379556880587560874e-01
2.045295282028629022e-02 1.139678922143151918e-01 -7.857704919918839792e-01 -2.839774041658954529e-01 -4.640655906858710544e-01 8.390470555723159585e-01
-2.891669133446251108e-02 1.408870856133245808e-01 -7.781829444368459914e-01 2.788073606817384475e-01 4.671437263711359922e-01 -8.390728183785791661e-01
1.744168802158671669e-03 5.359013921210945344e-03 -8.550795485188279477e-01 -3.647031633004567674e-01 -4.527344772026583031e-01 8.136480171613987844e-01
2.181111214967059245e-02 -9.212359271482682688e-02 -8.934223534784951903e-01 2.838664873590809878e-01 4.662223115935686391e-01 -8.378881628993012365e-01
6.539647964258345041e-03 -3.771408835472546128e-01 -1.062750235469307691e+00 -9.780758481033262619e-01 1.936609657854689859e-01 -7.657065814003730098e-02
6.702744860814635608e-02 6.806210112388183520e-02 -7.951988581630993203e-01 -2.849635054674407031e-01 -4.605547058929851945e-01 8.406456824557736462e-01
7.316172622038076556e-03 -3.649253940335382973e-01 -1.056484291932977770e+00 -9.988308169215901478e-01 2.074565795777945365e-02 -4.366482387056314085e-02
3.915346406059896228e-02 -1.136868178959369730e-01 -8.995452997104806947e-01 2.838664873590809878e-01 4.662223115935686391e-01 -8.378881628993012365e-01
-6.532056498741956041e-02 5.045244476207309814e-02 -8.497351083847308750e-01 -2.828039734741927269e-01 -4.633566462472463732e-01 8.398348236205213091e-01
7.952268612385987590e-02 1.221835706932616894e-01 -7.552020819557001552e-01 2.611450541866024988e-01 4.647841964152700789e-01 -8.460371808830200457e-01
4.699395097127088972e-02 9.976952937269224775e-02 -7.845602330037325656e-01 -2.890719522681007847e-01 -4.633521859973988577e-01 8.377005181706292936e-01
5.688527287049380265e-02 8.248105990427141709e-02 -7.845396629077577844e-01 2.795246785986701954e-01 4.640463685836292984e-01 -8.405515581204145992e-01
2.714517668560291822e-03 -3.110485063314822884e-01 -1.019770504435619785e+00 -2.495468439826502294e-01 4.695407135479541250e-01 -8.469107928106577310e-01
6.516901096680469477e-03 -1.251425902038461879e-01 -9.229962732467728026e-01 -2.838664873590809878e-01 -4.662223115935686391e-01 8.378881628993012365e-01
7.294407159543674080e-02 2.043015174754868671e-02 -8.135819022053243366e-01 2.783849357461250507e-01 4.669170266325766150e-01 -8.393392149722419537e-01
4.347356459923395339e-02 -4.593234453193182493e-02 -8.603813868990575209e-01 2.838664873590809878e-01 4.662223115935686391e-01 -8.378881628993012365e-01
-7.160819663502440702e-02 -1.326691444321221880e-01 -9.510696291234133071e-01 8.848994560458220970e-01 2.091635910450857228e-01 4.161772998025385362e-01
-5.582065728717149761e-03 -1.460466826402747054e-01 -9.387779009644413586e-01 -2.850580656435281468e-01 -4.690139804205302743e-01 8.359233130985521676e-01
-1.942086434118533989e-02 1.625871649329501123e-01 -7.659880328346375666e-01 2.844771831345046520e-01 4.614032350006235239e-01 -8.403450404487533554e-01
-6.083923618879254896e-03 -1.237650536436289694e-01 -9.177940561403614694e-01 2.904931235542062562e-01 4.650884112016732685e-01 -8.362454872426062780e-01
6.692328937592434412e-02 5.984118774103650007e-02 -7.908217191901943943e-01 2.680676777345417650e-01 5.176703654740347771e-01 -8.125005309930503072e-01
-6.100628782380069365e-02 -1.228025424510625629e-01 -9.386763073419482906e-01 2.923175099306411506e-01 4.665392153785092311e-01 -8.348003557150381893e-01
-8.183297680541598562e-02 -2.756968115392920485e-02 -8.984474888327163011e-01 -2.780404455057413626e-01 -4.667653761712922122e-01 8.395377265320723703e-01
8.649617113873030172e-02 9.138719188759637790e-02 -7.699108857308525344e-01 2.666618721995330787e-01 4.625327405956586868e-01 -8.455500634451569297e-01
-7.736311389179524600e-02 1.567865692823034729e-01 -7.891691806873245563e-01 3.069238855992376669e-01 4.512515853696721924e-01 -8.379556880587560874e-01
-1.586912543182174631e-02 -4.061313127075265317e-02 -8.817961864976342490e-01 3.076435946894149343e-01 6.238968236314800242e-01 7.184066899111706261e-01
2.973927489028801649e-02 -4.554866834227404987e-02 -8.707332411918685677e-01 -2.838664873590809878e-01 -4.662223115935686391e-01 8.378881628993012365e-01
4.618551739475848864e-03 -2.111613350713509307e-01 -9.747610719737808127e-01 -7.393144607231917353e-01 -3.314480207215238505e-01 5.861367909672284826e-01
8.903456211337325288e-02 6.232695820060425718e-02 -7.836461616084168247e-01 -1.303807257785014606e-01 7.945421188127272938e-01 -5.930461093187044952e-01
2.577053940652167599e-02 -6.759751153871144946e-02 -8.784340107333722392e-01 2.838664873590809878e-01 4.662223115935686391e-01 -8.378881628993012365e-01
8.504677563178798805e-02 -5.664240504062411502e-02 -8.524722824475687855e-01 2.646035603933961089e-01 4.707676258038939188e-01 -8.416429161598776298e-01
-2.816170215340800097e-03 -1.878521154709670016e-01 -9.552014401243787978e-01 2.855447477429230441e-01 4.744384290617235100e-01 -8.326898426580416901e-01
3.739446945642186521e-02 7.966093196891866788e-04 -8.424595446252873820e-01 -2.838664873590809878e-01 -4.662223115935686391e-01 8.378881628993012365e-01
-3.043284281742368244e-02 1.022541883102642130e-02 -8.541723840599368955e-01 2.838664873590809878e-01 4.662223115935686391e-01 -8.378881628993012365e-01
6.881478442784487448e-02 1.365379660067193857e-01 -7.521385211245579239e-01 -6.513956901791683185e-01 7.136512046393050923e-01 -2.576540566978783309e-01
4.042194429199284789e-02 1.203818075079544220e-01 -7.690373471895138868e-01 2.787538233049289271e-01 4.665082001976709747e-01 -8.394441048343921352e-01
-8.964207757309873570e-02 -8.319535770455904755e-02 -9.302736301296986587e-01 9.292443055365104954e-01 8.175447542922659183e-02 3.603071278440938552e-01
6.993370933092188380e-02 -5.014311615453126425e-02 -8.538604826350819632e-01 2.791391265685495560e-01 4.671288726337005093e-01 -8.389707768274856647e-01
-1.938449371251190281e-02 -9.848181141922039694e-02 -9.169081661977864783e-01 -2.851335834638303868e-01 -4.690811967238592284e-01 8.358598390048339599e-01
-6.292995717303494392e-03 -4.538503752945501762e-02 -8.743416248335138530e-01 3.379565151712195514e-01 5.052058847142865128e-01 -7.940733013414947861e-01
-3.070330194624248943e-02 1.255044812253664210e-01 -7.966956624654984997e-01 -2.837399208965536435e-01 -4.639512412198527058e-01 8.391906237918623779e-01
-6.673025530834694741e-03 1.780271919285058291e-01 -7.548063768690594921e-01 9.988042158873904341e-01 -1.906179380982758742e-02 4.501984387275283217e-02
1.979113815644393745e-02 6.548688671825220187e-02 -8.064694604245525866e-01 2.843367161194809700e-01 4.637907088591078364e-01 -8.390773565305857939e-01
-2.681329790601343077e-02 1.116793159492867477e-01 -8.029950217971009163e-01 -2.836113435168736707e-01 -4.616759012704839127e-01 8.404879344848681377e-01
-4.074189731389369490e-02 1.548468205184060364e-01 -7.868564915291864637e-01 -3.115685741735571002e-01 -5.561882071806605321e-01 7.704412383696883637e-01
-8.135764590451036171e-02 7.029828873970692116e-02 -8.381899288514130797e-01 2.941031404144226480e-01 4.611483928956327527e-01 -8.371651584533063017e-01
-9.130540950521559562e-02 5.709001210842110097e-02 -8.490091412022924278e-01 3.084554708687828883e-01 4.589346639360866731e-01 -8.332071751545280236e-01
-2.834804632595004301e-02 2.505955121026239713e-02 -8.452119909219713012e-01 2.838664873590809878e-01 4.662223115935686391e-01 -8.378881628993012365e-01
7.428105882014070238e-02 8.422812397969288434e-02 -7.838401706878345143e-01 -2.901010911064200171e-01 -4.633426583943464072e-01 8.373499494541840615e-01
2.174373537392013805e-02 -1.514024030668890443e-02 -8.566294951110861033e-01 -2.838664873590809878e-01 -4.662223115935686391e-01 8.378881628993012365e-01
-5.155350286745670127e-03 3.753001901408859614e-03 -8.552471454268100182e-01 -2.829521194565536857e-01 -4.635393010020554816e-01 8.396841159159615930e-01
5.525520651848921973e-04 -1.510161765674251644e-01 -9.309075684398978590e-01 2.009878730806386737e-01 4.761374120617681283e-01 -8.560940600831445924e-01
7.066400295164107156e-03 -2.696169994482603555e-02 -8.621599489313985787e-01 2.838664873590809878e-01 4.662223115935686391e-01 -8.378881628993012365e-01
1.743204262984983724e-02 -5.284267726709283158e-02 -8.730490281650155060e-01 2.838664873590809878e-01 4.662223115935686391e-01 -8.378881628993012365e-01
1.541671755960774375e-02 -1.933392179321918036e-01 -9.579430972439040293e-01 -2.992481568272862824e-01 -4.563799880365419503e-01 8.379545615098932254e-01
-2.808537966657926807e-02 4.162667304697705711e-02 -8.359046341094313881e-01 2.838664873590809878e-01 4.662223115935686391e-01 -8.378881628993012365e-01
1.070916511340164363e-02 1.436307215275692550e-01 -7.727446094282049982e-01 -2.912921685642648195e-01 -4.611070127122708917e-01 8.381701470230811246e-01
3.187222614243460234e-02 5.267741018746875670e-02 -8.094523089195053700e-01 2.845754090220219967e-01 4.637592253206089810e-01 -8.390138363042515257e-01
2.801368957876157126e-03 -9.736341761997900635e-02 -9.027781991058555500e-01 2.838664873590809878e-01 4.662223115935686391e-01 -8.378881628993012365e-01
-9.743052414803794747e-02 -3.223403889384841847e-02 -9.011152673503017851e-01 3.382052899699717896e-01 4.638026378481210910e-01 -8.188432664200467892e-01
9.962074092395896419e-02 1.298744455881594047e-02 -8.143188344040073190e-01 -3.340967702443618514e-01 -4.576244773325532367e-01 8.239897971810047350e-01
1.802496028685567422e-02 -4.854806810779047771e-02 -8.704585248516405471e-01 2.838664873590809878e-01 4.662223115935686391e-01 -8.378881628993012365e-01
-6.578869135311007400e-03 1.505999514601297773e-01 -7.680542647798648259e-01 9.990433084043931489e-01 -1.575975288192059051e-02 4.079335879166479106e-02
7.355276339527330731e-02 -1.212320223185554546e-01 -8.979015224013960905e-01 -2.915663952605098697e-01 -4.632461119130237837e-01 8.368943045285098803e-01
2.856775852560922146e-02 5.560890755985582051e-02 -8.089527477577541648e-01 2.845754090220219967e-01 4.637592253206089810e-01 -8.390138363042515257e-01
2.884089243159012120e-02 -1.195224661112423564e-01 -9.122885180306877784e-01 -2.886273787744893515e-01 -4.681721125110045456e-01 8.351701079952219553e-01
1.992694206130805196e-02 7.926208527831245243e-02 -8.050359539075258031e-01 -2.843367161194809700e-01 -4.637907088591078364e-01 8.390773565305857939e-01
6.150917931601816192e-03 -1.462498468154445619e-01 -9.329107683644179971e-01 -9.998577073738100784e-01 7.683157068770367359e-03 -1.501779286862715487e-02
-3.600782036524936142e-02 1.413485833096364552e-01 -7.832914390364508206e-01 2.842298722704217906e-01 4.638438469853058410e-01 -8.390841825007856469e-01
