-5.714569730195550798e-03 -1.589933378160230670e-01 -1.016871655467390667e+00 8.202945428747447920e-01 -2.556263416509240716e-01 5.116366253348936244e-01
-3.850496945561952822e-02 1.084397413910090230e-01 -8.293609189165874751e-01 -7.690560694639132500e-01 2.782333701312839636e-01 -5.754467427713052530e-01
2.683373115013916455e-02 -9.280682075410538745e-02 -1.027718019946281869e+00 7.793521088871830926e-01 -3.251169604983524808e-01 5.356391064601362384e-01
-5.757332652813988705e-02 -1.348941790050166845e-01 -9.242278395833208871e-01 -5.769850565153652466e-01 4.160320037291129758e-01 -7.028553310825065292e-01
-2.664090289447199403e-02 1.223617242107126989e-02 -9.008662250925649762e-01 7.697194095110083678e-01 -2.777552605941950303e-01 5.747904364499076824e-01
5.824746732103727037e-02 2.399900623992170731e-02 -1.012073054154715601e+00 3.680961670114278883e-01 -3.523571576941512129e-01 8.604357298794569342e-01
-6.564710351302961711e-02 -2.228920398671314917e-02 -8.650252122566001178e-01 7.755167860657691259e-01 -2.743095286718362780e-01 5.686193779762127587e-01
-2.274056678154229641e-02 6.189877726730647067e-02 -8.729835083034752641e-01 -7.663832180418816975e-01 2.798442162955348533e-01 -5.782248504774829545e-01
-1.959973959868447843e-02 1.785028524242650572e-01 -8.300936099373608101e-01 7.681512644656491862e-01 -2.781582024697780708e-01 5.766902542081029370e-01
-2.904915657613007119e-03 -2.232203193831291954e-01 -1.052837170181877724e+00 7.337873310728740828e-01 -3.031107388325747221e-01 6.080131846936537299e-01
-5.042247629634192402e-02 -1.324008234719628307e-01 -9.313581537311050873e-01 -7.532134345262296860e-01 2.937660256982514984e-01 -5.885329593103986179e-01
1.507383916911435827e-02 3.248401931560479733e-04 -9.536761019254911265e-01 -7.689724586846207188e-01 2.811399692138586981e-01 -5.741442984955610340e-01
-3.677141887380434154e-02 -9.138948446746263110e-02 -9.291989786135399498e-01 -7.656416813688438072e-01 2.831758947946527716e-01 -5.775848235176697099e-01
1.021834581905920782e-02 -1.229216808421825929e-01 -1.003655235550696467e+00 -7.618110627666736523e-01 2.598034998001109153e-01 -5.934189465613014525e-01
1.472644722832802677e-02 9.129970545353344180e-02 -9.088202255876888236e-01 -7.689724586846207188e-01 2.811399692138586981e-01 -5.741442984955610340e-01
5.426203513665838613e-02 -6.666129321595506974e-02 -1.049152478701205649e+00 5.717337369796957613e-01 -3.517357491129651237e-01 7.412169026642426717e-01
-4.065871623878736241e-02 1.531029052409691449e-01 -8.052732648230658263e-01 -7.383485199555394063e-01 2.744047189371139339e-01 -6.160710294312726765e-01
2.363090484105384234e-02 -5.708245002903535037e-02 -1.001875660306734916e+00 7.689724586846207188e-01 -2.811399692138586981e-01 5.741442984955610340e-01
-3.174582286154593869e-02 1.286794033576171281e-01 -8.284741436103993939e-01 -7.646802498346902954e-01 2.789123363109668463e-01 -5.809234236681405372e-01
-3.478350553791298427e-02 1.449131346619293159e-01 -8.166954925009178856e-01 -7.670949219510578843e-01 2.759754293455733420e-01 -5.791398303643314760e-01
-4.287339539278509776e-02 -5.756267328680099438e-03 -8.791468102716035737e-01 -7.659342542186914349e-01 2.826819186583664489e-01 -5.774388721571156458e-01
-2.049527883731177766e-02 6.850194575535270558e-02 -8.818648628795681121e-01 7.693101239134414460e-01 -2.784295093063829940e-01 5.750121229954131552e-01
5.159528925643083047e-03 -2.654020088310317105e-01 -1.066922376514108040e+00 -8.180952709262054867e-01 2.526969387079513463e-01 -5.165891838354809140e-01
4.353141965804076946e-03 -1.755071015589605710e-01 -1.029340510959577015e+00 -8.030961777393925694e-01 -2.649995835903642960e-01 5.336775711956721624e-01
-3.037194779700109169e-03 -2.191960736471740834e-01 -1.045287014086424549e+00 7.746604166273944880e-01 -2.372394701082486679e-01 5.861899630097986424e-01
-3.907840919362197407e-02 -3.536903719168429938e-02 -8.986840095939984119e-01 -7.658883825587673444e-01 2.828868739761744577e-01 -5.773993436032839321e-01
4.216601934352239185e-03 -7.450327243617559103e-02 -9.757755234528866506e-01 -7.689724586846207188e-01 2.811399692138586981e-01 -5.741442984955610340e-01
7.149219282030471086e-03 -5.439896475270742521e-03 -9.546703005133221343e-01 7.689724586846207188e-01 -2.811399692138586981e-01 5.741442984955610340e-01
-3.129308268442800717e-02 1.889003092151446961e-01 -8.088969283237177343e-01 7.917858711006460215e-01 -2.947892896413980002e-01 5.349527166377519016e-01
-5.276798411366474123e-02 2.810658924123932839e-02 -8.581124048751582745e-01 7.725999755029125948e-01 -2.794476871124141337e-01 5.700861935009663428e-01
4.977451578880785071e-02 -8.775348695540767519e-02 -1.051663868646439459e+00 7.607333278826774459e-01 -2.819455938648126603e-01 5.846293577547786446e-01
-5.246897258856284690e-02 -6.403332343801595994e-02 -8.949891502263286336e-01 -7.651310882774570166e-01 2.835065152234220176e-01 -5.780990171045318204e-01
-2.882611959575088340e-02 1.702226008447460248e-01 -8.216951288621694438e-01 7.720675729695993805e-01 -2.762263164496557288e-01 5.723728547629483021e-01
-3.575771389570860798e-02 8.268764618750736040e-02 -8.545870021167717434e-01 7.724145348265604172e-01 -2.771345827972107045e-01 5.714649677858516519e-01
1.375019331785352038e-02 -1.241931399668839697e-01 -1.021660864652165879e+00 7.689724586846207188e-01 -2.811399692138586981e-01 5.741442984955610340e-01
1.016876423396212252e-02 2.220547772978334888e-01 -8.397678909098077460e-01 -7.685021041516864049e-01 2.674959785618885588e-01 -5.812490149390777683e-01
-1.865139409554001856e-02 -2.119024012970990162e-02 -9.190419053032579111e-01 -7.689724586846207188e-01 2.811399692138586981e-01 -5.741442984955610340e-01
-9.408079595031194203e-03 5.614540374087812619e-02 -9.025911887142078482e-01 7.650785708964404908e-01 -2.784477662439341916e-01 5.806217545259769741e-01
-2.519919105886470403e-04 1.587104941299683492e-01 -8.655013720595819970e-01 7.690383542491565638e-01 -2.788468829305988383e-01 5.751733874003885916e-01
-1.625599337528263813e-02 -1.982647343064160295e-01 -1.017757190576392468e+00 7.714267990376527662e-01 -2.751871417068530445e-01 5.737357673753078480e-01
4.310433176950806411e-02 4.134085116041532476e-02 -9.711884073193405298e-01 -7.719933900989474074e-01 2.794766883347300501e-01 -5.708931479015899590e-01
-3.923090980406078454e-02 -1.501472216048761466e-01 -9.632881702619222608e-01 7.730356849478027259e-01 -2.778211899720202105e-01 5.702904665166795839e-01
3.194166259245527408e-03 1.349266761398863756e-01 -8.679335500460105823e-01 -7.689724586846207188e-01 2.811399692138586981e-01 -5.741442984955610340e-01
-2.245373104645477166e-02 1.512411823429921642e-01 -8.299905406207127578e-01 -7.641395888777740009e-01 2.806812053816798991e-01 -5.807828765168561169e-01
3.226732424978611541e-02 -3.497899424920116601e-02 -9.939911159119548811e-01 -7.689724586846207188e-01 2.811399692138586981e-01 -5.741442984955610340e-01
-3.845286670359927828e-02 7.604233186781553244e-02 -8.541883813118936741e-01 7.692957226402411530e-01 -2.784573786869517509e-01 5.750178948365177733e-01
8.801805897360895012e-03 6.717684440508917346e-03 -9.421453684527926198e-01 -7.689724586846207188e-01 2.811399692138586981e-01 -5.741442984955610340e-01
-1.337698890358967642e-02 9.090333925423257910e-02 -8.805868715683287107e-01 7.691156560833206646e-01 -2.766255035597641743e-01 5.761418560978107672e-01
-1.797333959326060521e-02 -4.018257718784545851e-02 -9.419523604916894000e-01 5.113758000402061077e-01 -7.554127786567346181e-01 4.096905234141379748e-01
1.790697497596754548e-02 5.362925532984597760e-02 -9.403832633651709738e-01 7.683468367778569785e-01 -2.787867967506559852e-01 5.761259067000628065e-01
2.268275289618774601e-02 2.155213695669869201e-01 -8.595821956920984830e-01 -7.779609528299606946e-01 2.594942031177295272e-01 -5.722233081762697626e-01
1.432985230964084478e-02 1.649277499300335903e-01 -8.724844704217182834e-01 -7.693930337391678975e-01 2.760516533908500270e-01 -5.760467379421723155e-01
4.256516511238100237e-02 -9.597820025162250718e-03 -1.003983313835590696e+00 7.689724586846207188e-01 -2.811399692138586981e-01 5.741442984955610340e-01
-1.727425301475711550e-02 3.000350882927602450e-02 -9.048152694256682560e-01 7.695905019106591416e-01 -2.781289086829702994e-01 5.747823670953376984e-01
-6.171660799312254225e-03 5.871759691827697220e-02 -9.099429869499439105e-01 9.450540999391608965e-01 -1.635302716092844888e-01 2.830734859635848921e-01
4.605260695558473227e-02 -8.824723665611698686e-02 -1.034611666321928247e+00 -7.792652759811595775e-01 3.251568892167173708e-01 -5.357411940899396985e-01
-3.546284794077829775e-03 -1.096904540799484296e-01 -9.913409548352875023e-01 7.686602861309808077e-01 -2.843975052567405126e-01 5.729567379207447519e-01
2.493935468026171713e-03 2.001460120681586852e-01 -8.353064150915499031e-01 -7.190151445058923230e-01 3.056409120964358461e-01 -6.241801461309303134e-01
6.394930135336669708e-02 4.401425471919510196e-02 -9.982147155494839330e-01 -7.805456619540016572e-01 2.750774393636939430e-01 -5.613206498587974824e-01
2.843564199131931938e-02 -1.039194699797115762e-01 -1.018601525420161025e+00 -7.540257402820766952e-01 2.383593145372357724e-01 -6.120702738782575203e-01
1.843310056588266105e-02 2.313336046019685011e-01 -8.476427262943332375e-01 -8.277715068444826407e-01 1.095121367288639375e-01 -5.502739539224923426e-01
4.324740280753372468e-02 -1.140274268945805445e-03 -9.921879243593215714e-01 -7.720713778467300781e-01 2.795704970093861319e-01 -5.707417320573086039e-01
1.716365070377838184e-02 2.247173615747333486e-01 -8.480343441351197997e-01 -7.885285993253694503e-01 2.267404409946267851e-01 -5.716742258170584012e-01
4.560426748020251012e-03 -1.513619955041581866e-01 -1.022742630947071962e+00 7.642656556423534919e-01 -2.865525281404662228e-01 5.777418595029021331e-01
3.460854872387482406e-02 1.327053023997868120e-01 -9.243933137305554437e-01 7.688846909598234802e-01 -2.784339169172056483e-01 5.755787399806908677e-01
-6.908420037634414000e-03 4.880490820146955733e-02 -9.077043569250633492e-01 3.747975942599095500e-01 8.705100276254352787e-01 3.189656018139700455e-01
2.790479667218253093e-02 1.107236911249385482e-02 -9.655983538869594707e-01 -7.689724586846207188e-01 2.811399692138586981e-01 -5.741442984955610340e-01
5.993121244959032784e-03 1.966574023463381893e-01 -8.425729993156213515e-01 -9.882612929890114417e-01 6.857338795902057083e-02 -1.365185234446555373e-01
-2.316255807994518565e-02 -1.858692605686434463e-01 -1.002423076206103270e+00 7.689724586846207188e-01 -2.811399692138586981e-01 5.741442984955610340e-01
-5.636783732014921666e-02 -7.512923598470418185e-02 -9.034487976488074779e-01 7.729163127012323997e-01 -2.784444238974839725e-01 5.701482933068634518e-01
2.207319993448164305e-02 1.131714760543708620e-01 -9.171750581407587255e-01 7.683426246441782403e-01 -2.767862399854768563e-01 5.770953027963383608e-01
1.080444153367630944e-02 1.475443269221247411e-01 -8.855470068148130203e-01 7.688956316596742280e-01 -2.789798872070135549e-01 5.752996872488569391e-01
-4.502543006464188730e-02 -1.136302769351314051e-01 -9.376113691905487713e-01 7.689724586846207188e-01 -2.811399692138586981e-01 5.741442984955610340e-01
-4.545925566784603244e-02 1.304987362712647647e-01 -8.224684687432652908e-01 9.053041618088749631e-01 -1.511684388291431036e-01 3.969539994930019189e-01
1.315513486388807628e-02 -8.424716494885665929e-02 -9.925184978411819570e-01 -7.689724586846207188e-01 2.811399692138586981e-01 -5.741442984955610340e-01
3.923980256238662756e-02 -1.098143253606217035e-01 -1.048563400585730720e+00 7.632854714660610718e-01 -2.824896957329156577e-01 5.810291394186334335e-01
3.910500156128322163e-02 1.695370468270167297e-01 -8.988796099849879484e-01 -7.773133670194415368e-01 2.731866342577049522e-01 -5.667036194659833548e-01
3.719752601942087535e-03 1.429356480131098173e-01 -8.689111703084924088e-01 -7.690327776695521367e-01 2.790477706979195838e-01 -5.750834100705516372e-01
-9.876957543911166551e-03 -2.040525803072782696e-01 -1.029176510642688447e+00 7.792912202115116482e-01 -2.677997367550573049e-01 5.665584657342745967e-01
3.272978452679508460e-02 -2.548598696919450110e-02 -9.985903524605487247e-01 7.689724586846207188e-01 -2.811399692138586981e-01 5.741442984955610340e-01
-5.269644647536024518e-02 3.498478166021999625e-02 -8.462650990335839341e-01 -7.620848120618298749e-01 2.810721188748988020e-01 -5.832882676823358814e-01
4.792674958711911487e-02 4.960747988918202955e-02 -9.736627359748434296e-01 -7.720053039201688616e-01 2.794541679385963429e-01 -5.708880614804224818e-01
-7.042983948612534066e-03 2.717890070192816726e-02 -9.109046633512832836e-01 -7.689724586846207188e-01 2.811399692138586981e-01 -5.741442984955610340e-01
-3.368272268239180106e-02 -1.913652503896728085e-01 -9.907958928463200809e-01 7.819423829253211444e-01 -2.617564015227725749e-01 5.657293487586794178e-01
-2.131751903774170218e-02 1.442291608222594501e-01 -8.348742369976240862e-01 -7.641395888777740009e-01 2.806812053816798991e-01 -5.807828765168561169e-01
-2.216858855607221901e-02 4.268072952807056702e-02 -8.921296225681826231e-01 7.695069641729479493e-01 -2.780961393773370705e-01 5.749100532716001632e-01
-1.446812108739931914e-02 2.265028033375707933e-02 -9.031774251249007346e-01 -7.689724586846207188e-01 2.811399692138586981e-01 -5.741442984955610340e-01
-5.237809718392413827e-02 3.028717528669207237e-02 -8.575719022317026541e-01 7.725999755029125948e-01 -2.794476871124141337e-01 5.700861935009663428e-01
-8.273363400364854708e-03 -1.047189528993896501e-01 -9.825385836577560372e-01 7.680925316556604932e-01 -2.847099512159277368e-01 5.735626439138293842e-01
4.539098691639927713e-02 1.731268630137210163e-01 -9.062320884273775690e-01 -8.871554250518333129e-01 1.485493226890318708e-01 -4.369077139737074233e-01
5.298659213064353668e-02 -9.836020766994291176e-02 -1.053392106993454203e+00 -7.850347451415153888e-01 2.793786806408513623e-01 -5.528725004229937401e-01
2.619301814586541891e-02 -1.365834728674322762e-01 -1.044393141965355598e+00 7.689724586846207188e-01 -2.811399692138586981e-01 5.741442984955610340e-01
-3.089274334225210888e-02 9.200493356269590084e-02 -8.566442260652902263e-01 7.724145348265604172e-01 -2.771345827972107045e-01 5.714649677858516519e-01
8.485385088048465890e-03 -7.510990836414944971e-02 -9.904181774084040990e-01 7.689724586846207188e-01 -2.811399692138586981e-01 5.741442984955610340e-01
-3.337273756394818283e-03 2.007147381607242709e-01 -8.460976698304514265e-01 7.365179272983245484e-01 -2.894137276871082132e-01 6.113763464466320796e-01
-8.747548714273531770e-03 -1.180691032049337695e-02 -9.277117733009399014e-01 -7.689724586846207188e-01 2.811399692138586981e-01 -5.741442984955610340e-01
-1.182352697320306241e-02 -1.637325509732760476e-01 -1.006808815073877650e+00 7.737346652469109243e-01 -2.815406523697338015e-01 5.675116993141861021e-01
2.329908500684474762e-02 1.539176742995246872e-01 -8.854197131720010772e-01 -7.656635367369669654e-01 2.833959839183188278e-01 -5.774478892596348611e-01
-5.485304063978577865e-02 7.259166380046729039e-02 -8.338054710452826868e-01 7.731153626729605488e-01 -2.769071696252959347e-01 5.706268968504414341e-01
5.675728084639064530e-02 -3.536432529084065912e-02 -1.027279235099302745e+00 -7.729163127012323997e-01 2.796363023637672418e-01 -5.695646688135164171e-01
-3.456486789833854503e-03 2.668147899841977547e-02 -9.293095662181332095e-01 7.112950972625923240e-01 -3.065920424804611244e-01 6.325034419652262319e-01
-2.317593166866634830e-02 1.103415499153661966e-01 -8.581600059585281493e-01 7.690535499193277280e-01 -2.787436180521425388e-01 5.752031230371416060e-01
-6.662351923807298404e-02 1.391150778291957123e-02 -8.388243504341078571e-01 -7.347250433561979266e-01 2.939658757441016568e-01 -6.113617378960157778e-01
9.815798270027435019e-03 1.565620972891391960e-01 -8.798667460468458934e-01 7.639827062550351711e-01 -2.796138988012916715e-01 5.815036475727161092e-01
1.200333998012080572e-02 -8.658958109847801621e-02 -1.000792971431056166e+00 7.658574687704983175e-01 -2.857521415588151759e-01 5.760278214834732013e-01
-5.176483310423462408e-02 9.711733371815617355e-02 -8.260879375068628239e-01 7.731915760013913230e-01 -2.770566914029275463e-01 5.704510290545087292e-01
-3.289663328508420082e-02 2.224923537475237065e-02 -8.876505372334881905e-01 7.696127346286180115e-01 -2.780428434947230798e-01 5.747942378615407133e-01
-2.884782564366216925e-02 1.726931913358956683e-01 -8.204735463906439596e-01 7.720675729695993805e-01 -2.762263164496557288e-01 5.723728547629483021e-01
-3.408181770201905436e-03 2.249528017978341399e-01 -8.291272324502496627e-01 7.689724586846207188e-01 -2.811399692138586981e-01 5.741442984955610340e-01
-6.659313016242260352e-02 2.953727455869365262e-02 -8.314744351087375307e-01 -6.317304958047883501e-01 3.285739031168616320e-01 -7.021080905820609175e-01
6.275321702138113300e-02 1.058837793836171076e-01 -9.744165408437617248e-01 7.455123921062730696e-01 -2.923229248169417205e-01 5.989645906415929089e-01
-4.850219066916912347e-02 1.003186022476787592e-01 -8.289553436397373298e-01 7.731915760013913230e-01 -2.770566914029275463e-01 5.704510290545087292e-01
-1.835124313657366876e-02 -7.025030757750343191e-02 -9.434670432163950737e-01 -7.689724586846207188e-01 2.811399692138586981e-01 -5.741442984955610340e-01
2.515559315138581400e-02 1.801233117305759551e-02 -9.585179691796381629e-01 -7.689724586846207188e-01 2.811399692138586981e-01 -5.741442984955610340e-01
-7.196771712029808622e-03 -3.630517255632168538e-01 -1.116234791437582530e+00 9.880964709454967965e-01 -7.191693406283512779e-02 1.359901419223345231e-01
4.179230113714733907e-02 3.796066084618592018e-02 -9.710689548770076174e-01 -7.719933900989474074e-01 2.794766883347300501e-01 -5.708931479015899590e-01
6.518224857413381377e-04 1.851722551718764653e-01 -8.445019971216192189e-01 -7.686176256087186021e-01 2.755955244090009804e-01 -5.772989282246618892e-01
1.610840862166290502e-03 2.085063054649799810e-02 -9.221305648562145851e-01 -7.132142530488924104e-01 3.084684119151292481e-01 -6.294224877603822321e-01
-6.596560696477524188e-02 -1.617608111376369132e-02 -8.616417668416936904e-01 7.755167860657691259e-01 -2.743095286718362780e-01 5.686193779762127587e-01
1.382546661639779545e-02 7.411461123022976272e-02 -9.159479349368430112e-01 -7.686553371915816335e-01 2.788775122671223183e-01 -5.756703099505801058e-01
-2.825018873105211367e-02 -4.102606414201914048e-02 -9.287097861486749428e-01 7.553165510602589672e-01 -3.369773680198678845e-01 5.620882147286472286e-01
-3.062780517833195090e-02 1.283970440002838720e-01 -8.257006173500730517e-01 -7.368818966329526710e-01 3.786833809065850986e-01 -5.600035423457432326e-01
5.323372887003593318e-02 3.655759013895220483e-02 -9.957176777137979329e-01 7.681555161755567740e-01 -2.783861204815693546e-01 5.765746013243083778e-01
3.293557518309393750e-02 1.269081917510570812e-01 -9.158470458530755254e-01 -7.722800676643325479e-01 2.764603985884206416e-01 -5.719730282982803393e-01
-5.980053877808334112e-02 7.531594493100098042e-02 -8.177189130003649220e-01 -7.298394332977771182e-01 2.871533050211905191e-01 -6.203848652401077191e-01
-3.063603444494373759e-02 -8.270974800752713130e-02 -9.331145595402865478e-01 -7.689724586846207188e-01 2.811399692138586981e-01 -5.741442984955610340e-01
6.853765807170233970e-05 1.938475565605389528e-02 -9.331590734223947914e-01 7.687349333720486788e-01 -2.783748673330291856e-01 5.758072902028855689e-01
1.439316641230580472e-02 -2.615720460678157971e-02 -9.657318563317421889e-01 -7.689724586846207188e-01 2.811399692138586981e-01 -5.741442984955610340e-01
-1.683801750305908510e-03 9.963009710569638300e-02 -8.961401486306863617e-01 3.497468640302966447e-01 -4.091640595896091082e-01 8.427703740884132655e-01
-3.476867701439347036e-02 1.062310828133516266e-01 -8.354221938174589690e-01 -7.690560694639132500e-01 2.782333701312839636e-01 -5.754467427713052530e-01
1.091088856792920289e-03 -2.740367244476251130e-01 -1.066183365839419750e+00 -3.308415825444973035e-01 4.136730474834353077e-01 -8.481853907284775396e-01
-1.074598068284584571e-04 -1.993828573411609295e-01 -1.042969211879998914e+00 3.213456785592972986e-01 -4.207678370700896897e-01 8.483462631252779440e-01
-1.854518612431210875e-03 9.983959687795519733e-02 -8.916871318197790997e-01 7.688326994405970671e-01 -2.770491394330493740e-01 5.763159329831958333e-01
-1.528713281419858197e-02 -5.765228190625627802e-02 -9.500303373373710780e-01 7.689724586846207188e-01 -2.811399692138586981e-01 5.741442984955610340e-01
-3.122894884125021128e-02 1.329618423690638040e-01 -8.410962931170473666e-01 7.797423213262250075e-01 -2.376501300403744410e-01 5.792446184683834876e-01
5.345825246236488026e-02 -3.528701727740726074e-02 -1.022763081727818602e+00 -7.730542593692477649e-01 2.794394458435254802e-01 -5.694740627787423515e-01
-3.540615007245871693e-02 -1.156341526721632075e-02 -8.918954588207946843e-01 -7.659122536048190710e-01 2.827810340689883017e-01 -5.774195238722543699e-01
2.385486386440583990e-03 1.131820524760828728e-01 -8.777846486671171400e-01 -7.148026983816962998e-01 3.075459160489535382e-01 -6.280705469195765334e-01
2.677024000352566310e-02 7.444565136386482873e-02 -9.291911784099309290e-01 -7.779510950615964315e-01 3.274266982065373588e-01 -5.362684504928737494e-01
-1.906936516382167466e-04 -9.039664829937875401e-02 -9.776551454935550334e-01 -7.689724586846207188e-01 2.811399692138586981e-01 -5.741442984955610340e-01
4.940002548687085632e-02 2.972198804641888042e-02 -9.853923405570247374e-01 -7.720149923650128088e-01 2.795529493491107909e-01 -5.708265936988766720e-01
2.996106704013228386e-02 6.300973805492256219e-02 -9.429203353834608725e-01 -7.689724586846207188e-01 2.811399692138586981e-01 -5.741442984955610340e-01
5.342102370451214111e-02 1.100301223706223915e-02 -1.000009065973728406e+00 -7.727361592607882024e-01 2.792885807967122602e-01 -5.699795757809610341e-01
-4.906697557428296719e-02 1.298131296357056264e-01 -8.054700795181655160e-01 -7.124573927863241396e-01 2.766367840630999386e-01 -6.448849146687640754e-01
-2.081350609321881359e-02 -1.586598897639388273e-01 -9.834605690156983382e-01 -7.689724586846207188e-01 2.811399692138586981e-01 -5.741442984955610340e-01
-2.833855684065178775e-03 1.189572363941788780e-01 -8.811897457622485108e-01 7.689644075354138408e-01 -2.770272695772130755e-01 5.761507023811602846e-01
-6.075919939025970634e-03 6.870597833911995522e-02 -9.019774223342801323e-01 7.992724812161641212e-01 2.642908368798612129e-01 -5.397349852584127916e-01
-3.253685302866190978e-03 1.142154764046696691e-01 -8.762436637953056051e-01 4.451290150657179479e-01 3.962190147243498939e-01 -8.030383878230786809e-01
-5.424046770735428680e-02 -9.787868164489274547e-02 -9.174430906702853994e-01 7.731630286919617401e-01 -2.780275686287333459e-01 5.700171946058009143e-01
3.198297372591306018e-03 1.223926880505229325e-01 -8.848788123466140298e-01 -4.282907578063588905e-01 -3.973983857403360354e-01 8.115673414995392410e-01
-3.685604595412357576e-02 -6.428637141222964813e-02 -9.157996978660828402e-01 -7.657678535746474946e-01 2.830047934726963033e-01 -5.775014123819559586e-01
-1.220044453585154669e-02 6.540456050414117373e-02 -8.853785180957095546e-01 -7.694428307543641488e-01 2.784638656599202622e-01 -5.748178891809516688e-01
-5.010496366960866949e-02 9.794700318368411429e-02 -8.192004220662788549e-01 -7.606333879018161159e-01 2.829221591924896417e-01 -5.842875157376415940e-01
6.091638867689432371e-04 -3.689819239806817475e-01 -1.112470254488649335e+00 -3.294064919300960237e-01 4.191860652158765910e-01 -8.460345180919854879e-01
-4.374076963992894369e-03 -7.024978442800820788e-02 -9.708151833966310873e-01 7.689724586846207188e-01 -2.811399692138586981e-01 5.741442984955610340e-01
1.619443610872187134e-02 1.101904708254195370e-01 -9.015361574756156626e-01 -7.689724586846207188e-01 2.811399692138586981e-01 -5.741442984955610340e-01
4.232892512723703156e-03 3.015325354131223948e-02 -9.288164188828827994e-01 -8.029251301303609312e-01 -2.627402521852090778e-01 5.350502736068785126e-01
1.513656636707998984e-03 1.177000904906538858e-01 -8.782062407937977211e-01 -7.689704388425333548e-01 2.790807506579679464e-01 -5.751507617994666699e-01
-4.144733824431798275e-03 8.327960255744124365e-03 -9.328749249937037247e-01 7.692020164451037756e-01 -2.781267335364921989e-01 5.753032052658038076e-01
5.680319440887938998e-02 -5.963449734295350052e-02 -1.047026026922697417e+00 7.216113018719469974e-01 -2.927667035929195638e-01 6.273474207151963355e-01
-1.016326311356925520e-02 -1.235325609182227335e-01 -9.840238505458215323e-01 -3.581663530360237324e-01 -8.853462231146909112e-01 -2.964438037291830530e-01
-4.723020276659379950e-03 1.975187215518720285e-01 -8.459330500259796271e-01 7.994984247683014633e-01 -2.560975908190989969e-01 5.433381017098452004e-01
-2.281080669320584633e-02 1.054348437669747479e-01 -8.516564209545366415e-01 -7.655735563609038508e-01 2.824755211947206912e-01 -5.780179147108578386e-01
1.468365347506823894e-04 1.718701448970085532e-01 -8.473879347947812501e-01 -3.400035270470282422e-01 4.164111548577433264e-01 -8.432077749319091264e-01
3.239572892558068018e-02 4.198803940479575031e-02 -9.653285729107251578e-01 7.682567332042999908e-01 -2.784747688770076168e-01 5.763969075083194005e-01
-6.182901257717627469e-02 5.941101926349179503e-03 -8.566049573362437553e-01 7.754316578280980865e-01 -2.747053822725004091e-01 5.685443667722746008e-01
3.573796621806397782e-03 -6.674094222554548261e-02 -9.797418941856081975e-01 7.689724586846207188e-01 -2.811399692138586981e-01 5.741442984955610340e-01
-1.425500028504268248e-02 -4.956956189193175571e-02 -9.388265960754386130e-01 -7.689724586846207188e-01 2.811399692138586981e-01 -5.741442984955610340e-01
3.107146329120262160e-02 1.535906862260271732e-01 -9.003246522614883895e-01 -7.692127272371235280e-01 2.786205882405242695e-01 -5.750498657202964825e-01
-4.515814126357477892e-02 1.133244101548799010e-01 -8.182149298309993046e-01 -7.639347734388854949e-01 2.797942804579225395e-01 -5.814798556733604684e-01
4.143085869543051275e-02 -1.068920875018621874e-01 -1.041623016593551831e+00 -7.730177217324064598e-01 2.801565531987778024e-01 -5.691712462760396551e-01
1.004019093313606413e-02 9.304149223925676018e-03 -9.425374743341288220e-01 -7.689724586846207188e-01 2.811399692138586981e-01 -5.741442984955610340e-01
-4.088758621019664835e-02 2.627754061022948701e-02 -8.750041891466077137e-01 7.696182629784720231e-01 -2.779456098392131813e-01 5.748338605728681161e-01
-5.681547537070558845e-02 -1.350131479144408009e-01 -9.319678217027134171e-01 7.821827340161257025e-01 -2.728395681924752347e-01 5.601327883953965969e-01
6.011129960531901018e-02 -5.385871225722346084e-02 -1.048192918427705900e+00 6.375585883909584695e-01 -2.973881528636085347e-01 7.106893364229545096e-01
-5.452731499796394099e-02 -2.339712146962766998e-02 -8.723485681198417385e-01 -7.652723437609486590e-01 2.831409545749449808e-01 -5.780912036322758407e-01
2.162453371694921314e-02 1.597769243185426929e-02 -9.547849891820782142e-01 -7.689724586846207188e-01 2.811399692138586981e-01 -5.741442984955610340e-01
1.392754907850161754e-02 1.571876031371918503e-01 -8.756563502290576340e-01 -7.693930337391678975e-01 2.760516533908500270e-01 -5.760467379421723155e-01
-8.469300364545944131e-04 -7.188317134839129763e-02 -9.677107707757125477e-01 -7.689724586846207188e-01 2.811399692138586981e-01 -5.741442984955610340e-01
1.591161927527700096e-02 -9.872744598785755665e-02 -1.003300885434136980e+00 -7.689724586846207188e-01 2.811399692138586981e-01 -5.741442984955610340e-01
2.427577187472456169e-02 -9.203553438672691656e-02 -1.011226487377081096e+00 -7.689724586846207188e-01 2.811399692138586981e-01 -5.741442984955610340e-01
1.273294119190673639e-02 1.776085965634169594e-01 -8.642746835111615455e-01 -7.693930337391678975e-01 2.760516533908500270e-01 -5.760467379421723155e-01
6.988611962946603140e-02 6.817579470725350366e-02 -9.989723134928139014e-01 -6.391352176813815955e-01 -3.573355708004782305e-01 6.810414549497477710e-01
-6.250827344617981840e-02 4.938998727885854367e-02 -8.266906636284983012e-01 -7.348371271258018478e-01 2.924498805572058324e-01 -6.119538086813205435e-01
2.671848409021564813e-02 7.679221054737205010e-02 -9.385995276834032675e-01 -2.784265359314463256e-02 6.595848754469709752e-01 7.511142248170353808e-01
2.707658206229923009e-02 1.154175036263028475e-01 -9.227593043025813513e-01 7.683426246441782403e-01 -2.767862399854768563e-01 5.770953027963383608e-01
3.853136935186618484e-02 1.378673181942118020e-01 -9.180604532087169867e-01 -7.688810415506265317e-01 2.783259583792183633e-01 -5.756358265746784886e-01
5.418846098818149576e-02 1.001953034037413592e-01 -9.545302278959051367e-01 -7.492446786011276449e-01 6.553876785079912892e-01 -9.539078806571783808e-02
5.466588345542646235e-03 -3.682137609750232854e-01 -1.123284408193540695e+00 -8.033772505109024742e-01 -2.623740379020039204e-01 5.345510804371647051e-01
-4.296141467443789774e-02 1.283337526327340550e-01 -8.260733461006783962e-01 7.423897333388390640e-01 3.500390849222174139e-01 5.712531162802564344e-01
-3.149549072541824035e-02 -1.222556850076324253e-01 -9.513349278811281673e-01 -7.650553427910369297e-01 2.838230306923010260e-01 -5.780439513700719179e-01
6.290240108523730000e-02 1.399072296522939352e-01 -9.576314983353929611e-01 6.641669252196409357e-01 -3.547593632529241203e-01 6.580486985236487785e-01
-6.101434336397613262e-02 -6.603208573261361292e-02 -8.926383381573633757e-01 7.811797099166601921e-01 -2.734341328061812293e-01 5.612415129256337343e-01
4.655806874597293726e-02 1.403882025145665458e-01 -9.275830873329851123e-01 -7.772173581218163596e-01 2.753545789656466902e-01 -5.657853250808080325e-01
3.935511503524538081e-03 -2.880986641350314348e-01 -1.076096665925385443e+00 -8.146238227717945701e-01 2.550647506046230806e-01 -5.208934635524519186e-01
4.080898884556353849e-03 1.543704617676496804e-01 -8.596647032774227259e-01 -8.168927594793629066e-01 2.536574283362332816e-01 -5.180194287476489468e-01
-9.999090977709516187e-03 -9.181101974802875765e-02 -9.738392388167924629e-01 7.689724586846207188e-01 -2.811399692138586981e-01 5.741442984955610340e-01
3.596539497209541494e-03 -1.022575632202306906e-01 -9.940553402092154878e-01 -4.393801678985784220e-01 -3.957794345510970979e-01 8.064141040705021801e-01
8.547897073978277110e-03 1.786179689220172562e-01 -8.581904311342168912e-01 -7.699413397406184023e-01 2.760019392989577769e-01 -5.753375208185503853e-01
3.085202945776148800e-02 -1.181428268467387271e-01 -1.032818209864824421e+00 -7.689724586846207188e-01 2.811399692138586981e-01 -5.741442984955610340e-01
-3.424286768856258517e-02 1.638673173764355617e-01 -8.085087368044823197e-01 -7.547617254986126456e-01 2.709064082724848554e-01 -5.974482870334961726e-01
2.705675281957309330e-02 1.524983976806397190e-01 -8.915162265528183694e-01 -7.820655618649972052e-01 3.581647292448661979e-01 -5.099916505882601259e-01
-4.394584887527298173e-02 -1.310186980501100718e-01 -9.475718414855210936e-01 7.689724586846207188e-01 -2.811399692138586981e-01 5.741442984955610340e-01
3.399614992264975849e-02 -3.808862622741403942e-02 -9.978292819839590377e-01 -7.689724586846207188e-01 2.811399692138586981e-01 -5.741442984955610340e-01
4.558385258655774509e-04 -2.186406332563676780e-01 -1.049469722825073559e+00 7.477022890698219459e-01 -1.803445454175308660e-01 6.390752161192708725e-01
1.655907893559409316e-02 1.948470364714921244e-01 -8.705047330839024156e-01 7.697813130615555055e-01 -2.772959209016051529e-01 5.749293020124808251e-01
1.618898396667783381e-03 -1.770262339425527076e-01 -1.019029359006292879e+00 -7.116010791239157918e-01 3.088096669298553976e-01 -6.310788332691489311e-01
-4.111529798113263898e-03 -1.993140989573152222e-01 -1.026100170826013125e+00 -7.646756501058591393e-01 2.922119555889565179e-01 -5.743547015094933039e-01
-5.063985884702022766e-02 9.279507333287119464e-03 -8.701614291309319738e-01 7.696745539028311267e-01 -2.776650121014105355e-01 5.748940964466424663e-01
-6.195120431628591690e-02 7.202361063738831060e-02 -8.243219517908433325e-01 7.814874594630539795e-01 -2.716073082112165915e-01 5.616999384264153017e-01
-1.884159024001410762e-02 1.678652159932728441e-02 -9.091097404994765707e-01 7.696603673058980410e-01 -2.777860135898492788e-01 5.748546334965130011e-01
7.277154288694233537e-03 -1.091214464010591655e-02 -9.487361062145907020e-01 -7.689724586846207188e-01 2.811399692138586981e-01 -5.741442984955610340e-01
-2.528835329131365328e-02 1.387010210553268619e-01 -8.322528915712156250e-01 -7.683507515841127011e-01 2.755094146120464216e-01 -5.776951488460471129e-01
2.559883042775050813e-02 1.507642032819156430e-01 -8.907829795101083192e-01 -7.406999847637364409e-01 6.621089042760319732e-01 -1.139093123910105282e-01
-5.513898182024524336e-02 -1.346665426866322790e-01 -9.341066150810551916e-01 7.766764540928052796e-01 -2.747606512128452083e-01 5.668159050370056296e-01
5.793353373033062123e-03 -8.746388360941007023e-02 -9.928668766833405046e-01 7.698173367800970057e-01 -2.838177894135320845e-01 5.716893653070823644e-01
-6.920598593401916521e-02 -6.470967251511790252e-02 -8.793045387473396035e-01 9.672782685467850028e-01 1.688294156626970466e-01 -1.893921318432370549e-01
4.044473962812567686e-02 4.958024321582864963e-02 -9.635584233634013618e-01 -7.719933900989474074e-01 2.794766883347300501e-01 -5.708931479015899590e-01
6.077585347333024773e-02 -6.630099131531137779e-02 -1.050820588693136104e+00 -6.200619535917328840e-01 -1.094404061177063348e-01 7.768822119322820186e-01
-1.318355299625634421e-03 4.754647592942434081e-02 -9.214479602785055068e-01 3.356330510736763584e-01 -4.142645466181419933e-01 8.460114304441993527e-01
-3.838995824853477790e-02 5.370737826697075112e-02 -8.560872327016523231e-01 -7.689724586846207188e-01 2.811399692138586981e-01 -5.741442984955610340e-01
1.675335853478189183e-02 1.974371387215351215e-01 -8.601341979790189107e-01 -7.663711807538051701e-01 2.764435763016170888e-01 -5.798742643294237942e-01
4.384308293292512454e-02 3.132857765534151438e-03 -9.882487566445327110e-01 -4.996669751621689026e-01 -1.517992690204952866e-01 -8.528129313378942644e-01
-1.347553416238523628e-02 2.321980670657076279e-02 -9.131709326739637644e-01 7.689724586846207188e-01 -2.811399692138586981e-01 5.741442984955610340e-01
2.119850482011635326e-02 1.074304357297109491e-01 -9.187637184925133704e-01 7.687953966039615672e-01 -2.765202119920149304e-01 5.766196411157433754e-01
-2.634805671285604407e-03 -3.704488764379680887e-01 -1.112674981053189294e+00 4.387279029390220852e-01 3.946888142376507314e-01 -8.073032683560774636e-01
4.755324527941315327e-02 -4.983301111687699764e-02 -1.030300883950941326e+00 7.647478378840374402e-01 -2.824791315726568608e-01 5.791081804616884376e-01
2.173118073175278261e-02 -7.662264752314647265e-02 -1.008899495627127996e+00 7.689724586846207188e-01 -2.811399692138586981e-01 5.741442984955610340e-01
3.529676423265161456e-02 1.036113701337453424e-01 -9.393718884236320621e-01 7.653681794324310728e-01 -2.806091317410697727e-01 5.791977771847963696e-01
4.215093653544907393e-02 -1.293772292134194035e-01 -1.061688440888937768e+00 7.189093471681531344e-01 -2.702571721719527753e-01 6.404142498757184887e-01
1.908435305759228042e-03 1.613912137283530362e-02 -9.282994508979495185e-01 -7.689724586846207188e-01 2.811399692138586981e-01 -5.741442984955610340e-01
-3.013986021880606797e-02 -4.008935511188924800e-02 -9.105614714799125098e-01 -7.812994309473983989e-01 -2.823489136468719796e-01 -5.566419766454041573e-01
-1.572909720462589700e-02 -1.276931249038062710e-01 -9.882553021646071079e-01 7.562085559299678295e-01 -3.365657729742428383e-01 5.611346544284745441e-01
3.098802981707362431e-02 7.948413958112868216e-02 -9.407436030641777025e-01 -3.705167953873020892e-01 7.884843085684466457e-01 4.909274890218132681e-01
-2.926054137250094431e-02 3.869993792958862505e-02 -8.755656583087881861e-01 -7.664485186745102485e-01 2.794746401678758208e-01 -5.783170356514542032e-01
2.685382891409453590e-02 -1.710100298166446486e-01 -1.053928657675157421e+00 -7.791749650037889108e-01 2.933537391859452614e-01 -5.539223389762943928e-01
-4.391922348166395901e-02 -3.199679468125232740e-02 -8.906107642412908199e-01 -7.658883825587673444e-01 2.828868739761744577e-01 -5.773993436032839321e-01
1.768330526717036902e-02 -1.257389096406064943e-01 -1.018900412968289926e+00 -7.689724586846207188e-01 2.811399692138586981e-01 -5.741442984955610340e-01
3.359124571282504166e-03 -3.761244329316886237e-01 -1.129739053847753860e+00 -4.385633487925635343e-01 -3.980097066358875280e-01 8.057607973334683926e-01
-4.410297181648936693e-02 -1.728923433711558044e-01 -9.676450090220962696e-01 7.822652149670584754e-01 -2.639412572859936024e-01 5.642660242782926439e-01
-6.801637394216804300e-02 -3.300590007339666149e-02 -8.668886071061598919e-01 7.912406512388262536e-01 -2.675535546171696200e-01 5.498666449593715422e-01
2.832736436474407940e-02 3.949204578680125949e-02 -9.522481140119707366e-01 -7.689724586846207188e-01 2.811399692138586981e-01 -5.741442984955610340e-01
-4.254379495639601383e-02 -4.581738030077543711e-02 -8.952472285949580888e-01 -7.419509684031444507e-01 3.699659429681942391e-01 -5.591368003711534307e-01
-1.961941489721099816e-02 -1.682495923856273667e-01 -9.985407535013868241e-01 7.689724586846207188e-01 -2.811399692138586981e-01 5.741442984955610340e-01
-2.254926636781707638e-03 -2.921033189979063693e-01 -1.088148885541879052e+00 7.340498595263676984e-01 -3.056842209598205073e-01 6.064057723880170725e-01
-4.011750436567168565e-02 -1.887776216105026550e-01 -9.801735166283898071e-01 8.926954601732793870e-01 -3.072987586800216692e-02 4.496114879706187839e-01
5.088417042745101843e-02 -1.075645381219995575e-02 -1.007235250008789107e+00 -7.728390183027017413e-01 2.793760183892710636e-01 -5.697972377415266854e-01
4.791846522287435822e-02 -1.215492296977415260e-01 -1.058159378674924156e+00 -8.134573322003543216e-01 2.848679115568839015e-01 -5.070872130656637333e-01
1.806122784239991980e-02 -1.801134388747558657e-01 -1.054684771099457352e+00 7.583201303455945341e-01 -2.780303751575023408e-01 5.896182581996755045e-01
-1.273076345955925608e-02 -1.007354550031437368e-01 -9.745916368444555999e-01 7.681210196661737433e-01 -2.847149726612608900e-01 5.735219991329845168e-01
4.386162616329924990e-02 5.396116983624019148e-02 -9.748254457375125082e-01 7.682602665030729971e-01 -2.784131578683363140e-01 5.764219604060970559e-01
-3.647439853149973994e-03 -8.798907829969353223e-02 -9.804747558650677153e-01 7.689724586846207188e-01 -2.811399692138586981e-01 5.741442984955610340e-01
-7.864938412169205154e-03 -2.035508902735219394e-01 -1.023260651878664440e+00 -7.618214759084935839e-01 2.993950954911108742e-01 -5.744480965591869381e-01
6.592492075833214504e-02 1.224311365052629941e-01 -9.630538749938898357e-01 -8.127449886214166419e-01 2.443055961262002584e-01 -5.289237744441021016e-01
2.112066229368062334e-02 6.400143467465915781e-02 -9.396526442741343077e-01 7.684301581404985315e-01 -2.786657604282740675e-01 5.760733338951736782e-01
-6.008832045004652844e-02 5.006130158983071454e-02 -8.375927750362766044e-01 7.809341907713864828e-01 -2.734971336331974423e-01 5.615524085770309259e-01
-6.537928064485794277e-02 -6.360007502665131207e-02 -8.854495000366507940e-01 7.758116908538733592e-01 -2.735425382682483697e-01 5.685865809990753306e-01
-1.844703577972102437e-02 1.556592482828245694e-01 -8.425994046566361861e-01 7.677935252407466216e-01 -2.768716729625915751e-01 5.777847170956347256e-01
-3.410320397213807003e-02 -4.453556799237817082e-02 -9.097781862534065622e-01 -7.689724586846207188e-01 2.811399692138586981e-01 -5.741442984955610340e-01
-6.990921051903860317e-02 3.077538969333601382e-02 -8.318772055926969555e-01 6.374908863455276409e-01 2.700466160351902567e-01 -7.215817313335586292e-01
2.405085442102894086e-02 1.692875336885991955e-01 -8.833523801289246968e-01 -7.737533168761290270e-01 2.755956266601448101e-01 -5.703971030685470733e-01
4.767652417227431078e-02 -3.895573783894560466e-02 -1.025154966091558206e+00 7.648588502399662481e-01 -2.828288635166306131e-01 5.787907853201257335e-01
3.214388381439806791e-02 1.669982655443315311e-01 -9.046173547791059866e-01 7.654707356134751173e-01 -2.805703088204501983e-01 5.790810433158404269e-01
-1.880277895985106584e-02 1.614541363694566578e-01 -8.393497900268701573e-01 7.677935252407466216e-01 -2.768716729625915751e-01 5.777847170956347256e-01
-1.545005584735358213e-02 4.110983560794277680e-02 -9.018694784806280396e-01 7.646890145275794248e-01 -2.806450728443884435e-01 5.800767657379560793e-01
4.467874167014034698e-02 -2.733340279672223302e-02 -1.015498647827321799e+00 7.689724586846207188e-01 -2.811399692138586981e-01 5.741442984955610340e-01
-1.910513970773183509e-02 8.794922126312243460e-02 -8.743522213845259516e-01 7.695582179219848662e-01 -2.764034582289224273e-01 5.756572569748698021e-01
-3.919121769965586838e-02 1.123584727810621464e-01 -8.356306090388477825e-01 7.721754189774840960e-01 -2.746822779230854716e-01 5.729701288216791921e-01
-2.904017823303415083e-02 -1.467010231352839089e-01 -9.665896723532684254e-01 -7.645528062576302242e-01 2.843285953675291355e-01 -5.784602460843009109e-01
-1.847403871447763843e-02 -1.689338359296313485e-01 -1.000409849739150259e+00 7.689724586846207188e-01 -2.811399692138586981e-01 5.741442984955610340e-01
2.987710242290607388e-02 2.099146000885844521e-01 -8.718700242058340377e-01 -7.823509612946349945e-01 2.535724994826552559e-01 -5.688830818959897950e-01
-3.096206577709632521e-02 2.497225212505286424e-02 -8.799494869318196244e-01 -7.689724586846207188e-01 2.811399692138586981e-01 -5.741442984955610340e-01
-8.203728032146695654e-04 6.293166691883851638e-02 -9.107884777390756748e-01 7.685887682179179947e-01 -2.767167958125324456e-01 5.768007630755257464e-01
5.294394850265555022e-03 2.119686063350438923e-02 -9.268173753073054577e-01 -8.194159115684861439e-01 2.522886557527544427e-01 -5.146921390956491482e-01
6.998510133738898749e-03 -1.609612987175229951e-02 -9.596864644850989778e-01 7.689724586846207188e-01 -2.811399692138586981e-01 5.741442984955610340e-01
-4.439157376224751178e-02 -1.748015080442808511e-01 -9.608846306533785908e-01 -6.853402574770334210e-01 3.805683143782652711e-01 -6.208675298101836715e-01
-1.188813347945242432e-02 2.046714815783864591e-02 -9.166410488311840243e-01 7.696499927553569487e-01 -2.778369735540737184e-01 5.748438960082918880e-01
-3.046080437995676675e-03 -3.154767089805154967e-01 -1.098978508430381362e+00 7.198863115071738594e-01 -3.129851466959431283e-01 6.195191655246150564e-01
3.576881917720883732e-03 -3.449237093490808426e-01 -1.103456984675712294e+00 -7.190151445058923230e-01 3.056409120964358461e-01 -6.241801461309304244e-01
-2.417733242800656698e-02 1.500008533954033940e-01 -8.283222148725086775e-01 -7.641395888777740009e-01 2.806812053816798991e-01 -5.807828765168561169e-01
-3.567938177858302057e-02 1.241491323409685266e-01 -8.254772258379088345e-01 -7.651411128761733682e-01 2.826442632063136950e-01 -5.785078200536021287e-01
-2.751383446878993486e-02 -1.836948366717642278e-01 -9.955305072457526494e-01 7.689724586846207188e-01 -2.811399692138586981e-01 5.741442984955610340e-01
-2.410049382315707089e-02 7.408752306684732170e-02 -8.652461346094773020e-01 -7.689724586846207188e-01 2.811399692138586981e-01 -5.741442984955610340e-01
-7.289732511979147601e-03 2.144922697662639821e-01 -8.314193350279212025e-01 9.884475776460743823e-01 -7.434398913029396927e-02 1.320770893296886461e-01
-3.583465268369129524e-03 -4.677081060607449908e-02 -9.649153118547334484e-01 7.504044492972142821e-01 -2.906817747464297552e-01 5.936305823533776227e-01
-2.435483025364866463e-03 -1.155247200050319167e-01 -9.999411894589705918e-01 7.312561849415064597e-01 -2.999715637957133807e-01 6.126021979219040681e-01
-2.713793180312704806e-02 1.403373521194061502e-01 -8.383375948620436224e-01 7.686658964207164768e-01 -2.783262155426982631e-01 5.759229613597774966e-01
9.839416174780657096e-03 -1.036787262885724772e-02 -9.606864507949163245e-01 7.689724586846207188e-01 -2.811399692138586981e-01 5.741442984955610340e-01
5.780321595960779407e-02 6.232054159266024740e-02 -9.891960043605753095e-01 7.624252241921425366e-01 -2.815856728479558257e-01 5.825953023860774849e-01
-8.765583950634207172e-03 -6.639489780882155967e-02 -9.630458636594538824e-01 7.689724586846207188e-01 -2.811399692138586981e-01 5.741442984955610340e-01
-9.911246743919749011e-04 1.830308544506444590e-01 -8.433369350185503377e-01 -7.675740651284328475e-01 2.761507465435863451e-01 -5.784209710285687089e-01
4.862381261913920755e-02 1.525113889457581536e-02 -9.962687390628409689e-01 4.171771906624078818e-01 -7.424409107858465084e-01 -5.241609348115364719e-01
-2.979655000102296100e-02 -1.712304519042303630e-01 -9.863697751111747403e-01 7.689724586846207188e-01 -2.811399692138586981e-01 5.741442984955610340e-01
2.545127416566612955e-02 -9.668995120615798272e-03 -9.794389830887604287e-01 4.100956552020771362e-01 -7.413318756496620754e-01 -5.312707442821721360e-01
-5.613394521980362428e-02 -5.582712346593698971e-02 -8.943292664614088672e-01 7.727861488008999080e-01 -2.787633031589813459e-01 5.701689127209297325e-01
4.804264701039662883e-02 -1.248037094556364718e-01 -1.061346483036924138e+00 -7.557542828471234264e-01 2.041023005360114440e-01 6.222360604096628389e-01
4.495624620696960123e-03 -6.110663742126664494e-02 -9.695893280942978754e-01 -7.689724586846207188e-01 2.811399692138586981e-01 -5.741442984955610340e-01
8.327892955579979661e-03 -1.832772197498192257e-01 -1.034730827319332969e+00 -7.727604789408756281e-01 2.882907570571605071e-01 -5.654464444865471284e-01
3.688564598709686421e-02 2.078387674555261799e-01 -8.824448352538128981e-01 -7.825297601468260700e-01 2.562173588038534899e-01 -5.674502969706938238e-01
-3.140144321442110698e-02 1.412954402369551166e-01 -8.321842078666562559e-01 7.686658964207164768e-01 -2.783262155426982631e-01 5.759229613597774966e-01
-4.101018265205519375e-02 -9.261489277433318512e-02 -9.241808963954745160e-01 -7.656416813688438072e-01 2.831758947946527716e-01 -5.775848235176697099e-01
8.588377254774456210e-03 -1.874945460486477089e-01 -1.037235152718432696e+00 -7.731381844268745418e-01 2.877350480839110936e-01 -5.652131366885111419e-01
3.254792032199883139e-02 1.859216975147529316e-01 -8.868193703333953071e-01 -7.708075843148587403e-01 2.740114631588015937e-01 -5.751290168477543041e-01
1.071206017115115643e-03 1.204703445155901470e-01 -8.729772316963529954e-01 -3.495407346160969708e-01 4.156587522484319064e-01 -8.396720053230999348e-01
2.659668290519111647e-02 2.394398490147995467e-02 -9.575435336293888211e-01 -7.689724586846207188e-01 2.811399692138586981e-01 -5.741442984955610340e-01
-3.394410121914716305e-02 -9.687610212196742787e-02 -9.356373927820214043e-01 -7.655587250186893788e-01 2.835270500921686088e-01 -5.775225107420417503e-01
-3.453972626779550775e-02 4.293211986800113747e-03 -8.852836552445479956e-01 -7.689724586846207188e-01 2.811399692138586981e-01 -5.741442984955610340e-01
-1.849163001512084056e-02 -6.068050850049080264e-02 -9.385929955799553470e-01 -7.689724586846207188e-01 2.811399692138586981e-01 -5.741442984955610340e-01
-5.920985522797887757e-02 -1.200032429291582742e-01 -9.213129578892120808e-01 7.821827340161257025e-01 -2.728395681924752347e-01 5.601327883953965969e-01
-5.293026950156051041e-02 -7.463237497700002387e-02 -9.078662520120376334e-01 7.729163127012323997e-01 -2.784444238974839725e-01 5.701482933068634518e-01
3.831941924708288233e-02 -1.273170728841498955e-01 -1.055837431774675927e+00 7.618760783470034381e-01 -2.824615540969079297e-01 5.828896222268415972e-01
9.420024584444556051e-03 1.714345022632100535e-01 -8.628036149724220838e-01 -7.699413397406184023e-01 2.760019392989577769e-01 -5.753375208185503853e-01
