6.483560293837681288e-02 6.404356044136563786e-02 -8.084614675714161258e-01 5.173484793213928290e-01 4.235367382456953766e-01 -7.436176317839964245e-01
7.035025118139619227e-02 2.731077359917493536e-02 -8.322828824395647196e-01 -5.278171408898542083e-01 -4.182977425729172971e-01 7.392131386422058359e-01
1.666039851265651434e-02 -7.865194223727245415e-02 -9.302042664872878230e-01 -5.229724409821500108e-01 -4.195397545585201615e-01 7.419475859642298277e-01
-4.075382844872218330e-02 1.658796640619209228e-01 -8.320531486830197165e-01 -5.204829873299833265e-01 -4.262255409141517126e-01 7.398846181483265116e-01
3.829767991269072882e-03 -1.517218659687835092e-01 -9.805660504433305613e-01 -5.229724409821500108e-01 -4.195397545585201615e-01 7.419475859642298277e-01
4.853392287062880187e-03 8.612994023560982537e-02 -8.402730964768492239e-01 -7.090899190977190125e-01 3.501346045493801684e-01 -6.120434995415270363e-01
5.270095541007098483e-02 -1.192114084872094720e-01 -9.210583650410893997e-01 5.229724409821500108e-01 4.195397545585201615e-01 -7.419475859642298277e-01
-5.479825088732786544e-03 -1.784265121484995831e-01 -9.985553471192541997e-01 7.043731455841284461e-01 -3.522584937981242947e-01 6.162567852178157946e-01
6.393395066023799256e-02 6.992288459572483517e-03 -8.416113565520065842e-01 5.220261783569991598e-01 4.228254217190379749e-01 -7.407478193407687206e-01
5.960932304514907076e-02 1.228814816492896089e-01 -7.855727931539912001e-01 -5.296264442373328496e-01 -4.213669854023081029e-01 7.361696089743792193e-01
-6.681555091725778495e-02 5.760460487447445488e-02 -9.118466640099390785e-01 -5.180953846539444463e-01 -4.210889499883408438e-01 7.444872521393485210e-01
-4.081870299844510969e-02 1.831356873688220477e-01 -8.221322334591987246e-01 -5.133595428297583751e-01 -4.271437727656562378e-01 7.443185992390239925e-01
1.996140194052169192e-02 5.243372227566094751e-02 -8.466862367940958256e-01 5.223392311782844022e-01 4.220787061270531715e-01 -7.409529630187002835e-01
-8.575559578531521954e-02 1.309770878030014074e-01 -8.815868360601641918e-01 8.325433209528603218e-01 -4.379964337306672117e-01 3.391618238776284433e-01
-2.632840569065189248e-02 3.949857745673879261e-02 -8.867567975818587689e-01 5.237989484001992491e-01 4.218855430383147698e-01 -7.400319251424977152e-01
-2.436877438963477513e-02 -1.828617591620865512e-01 -1.011323520685740940e+00 5.368944235199263337e-01 4.235851660575245536e-01 -7.296026213557799123e-01
1.351875545179065906e-02 8.740071746217466242e-02 -8.384016100161557628e-01 -5.229724409821500108e-01 -4.195397545585201615e-01 7.419475859642298277e-01
-2.466590583991548971e-02 1.522028372316607536e-01 -8.284758622552441665e-01 -3.166765560400514601e-01 -7.882615944163318122e-01 -5.275979696917288964e-01
6.152660724483317856e-02 6.000323039852370477e-02 -8.226513920075252395e-01 -2.700853966603812828e-01 -8.664546197333536925e-01 4.198931655237245208e-01
-3.713796103222497674e-02 -7.109021744074373039e-02 -9.638489817193026665e-01 -5.229724409821500108e-01 -4.195397545585201615e-01 7.419475859642298277e-01
-2.600099295949047373e-02 -1.423253357296269117e-01 -9.962550167302767212e-01 -5.204864706552680964e-01 -4.165980268945284615e-01 7.453455023359356613e-01
-5.671837860270415033e-02 -8.562745401757830555e-02 -9.857344000077896684e-01 -5.164622314823431593e-01 -4.204218508077561811e-01 7.459974737327595973e-01
7.065614062382005733e-02 5.543055812448380304e-02 -8.160510674908857398e-01 -5.320495252278200082e-01 -4.203317459497105668e-01 7.350132829083559916e-01
1.970348017669630580e-02 1.076450656288617524e-01 -8.153048693954949577e-01 5.228590043320670011e-01 4.218507778061946767e-01 -7.407161283873787694e-01
2.352601353357187952e-02 5.798140006743866121e-02 -8.509233746211927185e-01 -5.023576551775854604e-01 -4.754516935700608959e-01 7.222066694276916277e-01
-2.705302198421424831e-03 -2.776981313187765754e-01 -1.057520935686380170e+00 -5.190493118601030922e-03 -4.936653036262413363e-01 8.696364911713381218e-01
4.785409427239745161e-02 -4.033695418012933631e-02 -8.766705656213027442e-01 4.867809160135760926e-01 5.011411228915604310e-01 -7.154732103663765663e-01
3.568807432384887152e-02 -1.354350817550967756e-01 -9.489007817312133941e-01 -5.229724409821500108e-01 -4.195397545585201615e-01 7.419475859642298277e-01
-3.368397077596185091e-02 2.168329403746564465e-01 -7.923402262055511125e-01 5.694810160287822054e-01 -8.196573308722726603e-01 -6.207440962399501938e-02
4.119558765123954372e-03 -9.472203265047990373e-02 -9.481308095666591829e-01 -5.229724409821500108e-01 -4.195397545585201615e-01 7.419475859642298277e-01
-2.125243018215728849e-02 1.783940449902909064e-01 -8.111778625915027074e-01 -5.275398400239970087e-01 -4.227224145380147902e-01 7.368904107359562916e-01
-3.097524735514239902e-02 -3.177972201856162689e-03 -9.143053929143772907e-01 5.229724409821500108e-01 4.195397545585201615e-01 -7.419475859642298277e-01
7.258071957029015031e-02 6.553798252892535474e-03 -8.358475559500695429e-01 5.170579920543514341e-01 4.242252386501494388e-01 -7.434271852339985331e-01
3.882176724225937930e-02 7.831725074222185834e-02 -8.186168752151297134e-01 5.221401418637939829e-01 4.243141613940257795e-01 -7.398156288528524582e-01
1.004552559344879577e-04 -7.635894844020152394e-02 -9.307228740878529250e-01 4.482839629131488701e-01 4.399871848931099505e-01 -7.781084537034145265e-01
-8.894553512145628171e-02 8.819759223479925470e-03 -9.543324807463642312e-01 -4.752724892242668475e-01 -4.293019289034059605e-01 7.679947361970549391e-01
2.987197960781726776e-03 1.409919415391500952e-01 -8.154235437073724668e-01 -5.230545454462760535e-01 -4.215175005208924852e-01 7.407678038647527163e-01
-4.986224474682758590e-02 -1.158548352736411130e-01 -9.914186942681246784e-01 5.283765225562943035e-01 4.190304715445397621e-01 -7.383980730801498193e-01
7.190677592602280621e-02 6.439977624077261598e-02 -8.100527001153863260e-01 -5.280591044991549410e-01 -4.185539102317462068e-01 7.388952607679020179e-01
-7.364581744913682206e-03 1.426716006892052302e-01 -8.217743324589431575e-01 -5.227208899760316108e-01 -4.216575653112332178e-01 7.409235917410569305e-01
5.822463605861339341e-03 -5.673927316266948184e-02 -9.236780232439041338e-01 -9.537275765003652150e-01 1.479954926776975710e-01 -2.617270409602822090e-01
6.581388012385808173e-02 4.990951780436368723e-02 -8.195910832914705679e-01 -3.842417713766366760e-01 7.897298865933723988e-01 4.782101706891684900e-01
-5.547663581237694680e-03 -1.379869783330559263e-01 -9.753226939809473972e-01 9.612291569352294784e-01 -1.362405492968270238e-01 2.397436559846501669e-01
5.564111346497063043e-02 1.592036766650877511e-01 -7.673342684220307852e-01 -5.542278769894296575e-01 -4.350298737285963613e-01 7.096340390169225687e-01
-4.978089083436935958e-02 8.949231565487800188e-02 -8.850774175095668106e-01 -5.413272161869331356e-01 -4.637039164981957007e-01 7.013868567627565831e-01
4.670785334527662730e-02 9.092846775340018839e-02 -8.058891298267333303e-01 5.225351932025447121e-01 4.221010945936761183e-01 -7.408020233554979406e-01
3.982266376787050449e-02 1.187030237620249340e-01 -8.020794388322400881e-01 -5.274822315861020794e-01 -4.186083452475252153e-01 7.392763682480822940e-01
3.550189070026084359e-02 -1.110902992104555037e-01 -9.285892321358661938e-01 5.229724409821500108e-01 4.195397545585201615e-01 -7.419475859642298277e-01
6.731355960934864990e-02 5.527676399046064365e-02 -8.117514297958406955e-01 5.215203420621817854e-01 4.254052660282719445e-01 -7.396261842652407381e-01
-2.643158691626477583e-02 1.336304018610271760e-01 -8.403796104191411098e-01 -5.230822584260654828e-01 -4.217974882719867091e-01 7.405888399154622048e-01
-1.113326195639491572e-03 8.252885630717046728e-02 -8.537355919524525216e-01 -1.490778193205462461e-02 -4.905510966481934076e-01 8.712849015190846647e-01
1.237970004980599482e-02 -1.183259909465624871e-01 -9.521114899135113552e-01 1.729783092375899167e-01 -9.714674872668821459e-01 -1.622634454110811197e-01
-3.810567709755084513e-03 -3.000718070703538298e-02 -9.163700000477758012e-01 7.046229936295521634e-01 -3.492672590398661070e-01 6.176720963515405227e-01
-4.714997003951702098e-02 6.488093672714188506e-03 -9.270388601816302865e-01 -5.229724409821500108e-01 -4.195397545585201615e-01 7.419475859642298277e-01
-3.011749031425235354e-02 -3.268692194579771171e-02 -9.305082278138072649e-01 5.229724409821500108e-01 4.195397545585201615e-01 -7.419475859642298277e-01
-1.181296049238316111e-02 5.318539270926664342e-02 -8.664259322657276163e-01 5.935853056441233733e-01 7.417971704420445178e-01 -3.120792252738857075e-01
-8.182944361527449972e-02 -2.439111994890990828e-02 -9.684613394634163930e-01 -5.060869761604831485e-01 -4.225669249694602447e-01 7.518731053060702108e-01
-4.108251923499957325e-02 -1.299630755044130781e-01 -9.931294000733625893e-01 5.292216130022140419e-01 4.191791353742417847e-01 -7.377081650613865893e-01
3.416451663818764750e-02 -3.420919443615663691e-02 -8.946975755464915414e-01 -2.562619521327632044e-01 -8.412106021311420712e-01 4.761244950128764586e-01
-4.925928811502881810e-02 3.188484868157968888e-02 -9.141537502051262365e-01 -5.189272679940171162e-01 -4.208106762263945644e-01 7.440650948043121549e-01
7.668426701583254401e-02 -6.670955082734847386e-02 -8.746350267194245021e-01 5.060869761604831485e-01 4.264847935036468196e-01 -7.496577175424062878e-01
7.576197682763553820e-03 5.646577661524025682e-02 -8.525422445675412408e-01 3.771996843736191152e-01 -7.895996459582219629e-01 -4.839966913224642009e-01
6.008090674847254425e-02 1.434192430401005358e-01 -7.733996000440445107e-01 -5.340239230956190797e-01 -4.261379113260985174e-01 7.302225209428934161e-01
7.185594853765095436e-02 8.044437715464984595e-02 -7.942460629019226781e-01 5.140724484548421236e-01 4.236074727578765797e-01 -7.458459805907171614e-01
-3.411819821752531956e-02 -1.202888965523492421e-01 -9.827419861496339282e-01 5.229724409821500108e-01 4.195397545585201615e-01 -7.419475859642298277e-01
-4.052834006349075036e-02 -5.259072877294897197e-02 -9.491012200925986741e-01 5.229724409821500108e-01 4.195397545585201615e-01 -7.419475859642298277e-01
4.032586104623680362e-02 -1.169132262890281992e-01 -9.297101960767903961e-01 4.220550346355237403e-01 -7.769229150076546464e-01 -4.671834028246458770e-01
-8.622418204925655361e-02 9.835017958162133034e-02 -8.959533284242660045e-01 5.528479693368485437e-01 4.093375141358228664e-01 -7.258112167232108058e-01
8.454246571522439080e-03 -1.185621074472441999e-01 -9.517577596596180634e-01 5.229724409821500108e-01 4.195397545585201615e-01 -7.419475859642298277e-01
6.995243269352068027e-02 -1.920997980008066000e-02 -8.588762105915556111e-01 -5.279024210325704569e-01 -4.180055331962846954e-01 7.393175285932563900e-01
-6.966703531543782385e-03 -1.195709636025342193e-01 -9.729587295493237198e-01 -4.906988095059661714e-01 -3.621040413027858951e-01 7.925246630999051023e-01
1.049704869098120642e-02 -1.761227697204993670e-01 -9.895659606704393374e-01 -5.248905783881341325e-01 -4.156155213011041849e-01 7.428011976114344828e-01
-7.509440751285434076e-03 -3.306681238978581572e-02 -9.214642766653713402e-01 -5.229724409821500108e-01 -4.195397545585201615e-01 7.419475859642298277e-01
-2.521273777010616529e-03 1.671461171938707635e-01 -7.931942170451432572e-01 4.786195058058874685e-01 4.403121210481037440e-01 -7.596371533306202073e-01
6.080171394085866904e-03 2.154758956240793860e-02 -8.801188651277980224e-01 -9.611281261206769955e-01 1.382580073556625988e-01 -2.389925701393182944e-01
1.477771823091248490e-03 3.435286589144446318e-02 -8.676956699870806977e-01 -3.099050391992676234e-02 4.995887402673151456e-01 -8.657081952164400462e-01
-2.845583779425631728e-03 -8.655785187833373029e-02 -9.382648284376837733e-01 5.933671083163699622e-01 3.932163427090308305e-01 -7.023506122975925470e-01
2.211828829366752416e-02 1.055849002327169245e-01 -8.220577246967314400e-01 -5.229724409821500108e-01 -4.195397545585201615e-01 7.419475859642298277e-01
3.314808563955298944e-03 6.009561816596473149e-02 -8.611122812443441354e-01 -5.227217640010256572e-01 -4.218509866656368068e-01 7.408128660389780018e-01
-1.248886874229480567e-02 1.438244511566217632e-01 -8.232156499328050492e-01 -3.220514610333997663e-01 -7.953788739780677242e-01 -5.134737610390947005e-01
2.207015999260011907e-02 -1.279383136817534572e-01 -9.531150875169893677e-01 -3.977207109307198674e-01 8.224748656158031856e-01 4.066366086901535559e-01
7.749159935156792189e-02 5.839761278163051184e-02 -8.128280533950039688e-01 -5.150910543415605503e-01 -4.738020093381761222e-01 7.142778602787618336e-01
-3.937839052968934023e-02 6.712159289553895625e-02 -8.802419124367232284e-01 5.237187635061899549e-01 4.220763283510836628e-01 -7.399798847247236466e-01
-5.512119234602162743e-02 8.259898515410298014e-02 -8.793975058141551004e-01 5.410111685789493752e-01 4.629505816700004162e-01 -7.021279615598911006e-01
-8.997140095211091093e-02 8.404853592404235019e-02 -9.069147605511868049e-01 5.528059291723101953e-01 4.110617013627795302e-01 -7.248681827371620257e-01
1.918574106914169852e-02 -1.081689456444097780e-01 -9.383728755624040074e-01 5.188279194894359625e-01 4.178967941265427921e-01 -7.457746706727315100e-01
-3.018033279719277515e-03 -5.261449800942721855e-02 -9.300587018378415616e-01 7.000906495657516215e-01 -3.514684976285591955e-01 6.215649423554449049e-01
-3.892736071437664230e-02 1.631611680345962934e-01 -8.250716581572956621e-01 5.225665104194577859e-01 4.225397493816988592e-01 -7.405298119457999206e-01
-4.219109638761282116e-03 1.543105881517981837e-01 -8.055130196217475946e-01 5.228796892615888980e-01 4.217525757211822435e-01 -7.407574470973966596e-01
1.756211125680752841e-02 5.744379224302945813e-02 -8.554381636703909386e-01 -5.050970059365728071e-01 -4.744395437247570513e-01 7.209605633764956112e-01
-3.335356597972047570e-03 -2.299095037769303962e-01 -1.030355409518939558e+00 6.910317169846099672e-01 -3.580107759909682552e-01 6.279358648744680638e-01
6.501911315101366329e-02 -6.174599881286496617e-02 -8.799051620360546222e-01 5.177885766874156248e-01 4.213797315724021053e-01 -7.445361721716349246e-01
-2.125978855693844149e-02 2.058528173281617690e-01 -7.952938736171570877e-01 -5.212582071212754631e-01 -4.355101687790962073e-01 7.339078786869075444e-01
2.557381593616685905e-02 3.264632020011040692e-02 -8.540092135903092352e-01 5.222519417520603557e-01 4.224271661564816815e-01 -7.408159006320036433e-01
-3.766031705606771862e-02 1.831310667207133869e-01 -8.199555475314478370e-01 -5.159614046647971186e-01 -4.260778411705848923e-01 7.431295325579138078e-01
-1.841427992647735531e-02 -5.733390404856870959e-02 -9.361958699033737785e-01 5.229724409821500108e-01 4.195397545585201615e-01 -7.419475859642298277e-01
2.553440970401477453e-02 7.671432935216383753e-02 -8.359753838952566074e-01 -5.225158761588856171e-01 -4.221264633954155410e-01 7.408011933462248511e-01
3.717565527076212295e-02 1.314231439447165195e-01 -7.894198438643393878e-01 5.233725274158157470e-01 4.222963269433011035e-01 -7.400993242778820536e-01
-4.849433636694962246e-02 2.023251715287865127e-01 -8.098818070126734270e-01 5.579903436808214545e-01 3.785098384431769825e-01 -7.384964986786860530e-01
-5.135095201052219949e-02 5.586891389228540450e-02 -8.951341533699626041e-01 5.238362736623141114e-01 4.220369238158381275e-01 -7.399191802701465814e-01
-7.746291608579572441e-02 8.580775416059241434e-02 -8.966604705386388430e-01 5.237493743268533120e-01 4.222459402859919386e-01 -7.398614456803572770e-01
-3.065447640564389342e-02 -1.354353602590981920e-01 -9.888652119691668796e-01 5.229724409821500108e-01 4.195397545585201615e-01 -7.419475859642298277e-01
4.425715043652731634e-02 3.449543725478978334e-02 -8.467607565818680015e-01 -5.263170335728166727e-01 -4.214212918345783265e-01 7.385082768389165109e-01
6.930499904413911505e-02 7.235041199642561378e-03 -8.443853971266533920e-01 -5.278324297966143774e-01 -4.181482982624747380e-01 7.392867689301618750e-01
-2.585998604474596535e-02 -1.044428138339038581e-01 -9.747590111462713924e-01 -5.229724409821500108e-01 -4.195397545585201615e-01 7.419475859642298277e-01
3.302791567103832877e-03 -2.427982978502075950e-01 -1.024309716039763840e+00 -6.955007179931583794e-01 3.503812804662887470e-01 -6.273051168050558513e-01
6.920093288980080914e-02 7.309323944976996168e-02 -8.070549761868642813e-01 -5.275059340783357920e-01 -4.217924938105073740e-01 7.374473416300688644e-01
-6.614145857512353233e-02 1.614740526722032721e-01 -8.522117659095624909e-01 -5.021833690596412270e-01 -4.370160248619356369e-01 7.462096607882935384e-01
-2.890173820217907270e-03 -2.176435922433869741e-01 -1.023475047275380634e+00 1.092358455491533467e-03 -4.928211747093606543e-01 8.701299308213058525e-01
-5.241427528802703600e-02 6.140557310921761908e-02 -8.996297565531274909e-01 -5.197964467888865903e-01 -4.233850810949831844e-01 7.419950990483984432e-01
-5.566507953118761398e-02 1.343060782236004391e-01 -8.605193304064363558e-01 -5.230864681374597369e-01 -4.222732965336262190e-01 7.403146695062191585e-01
7.572989628248327776e-02 1.837356908616305864e-02 -8.269116251561435815e-01 5.170967420006554738e-01 4.242445015030809619e-01 -7.433892401405267636e-01
-2.881984516179588243e-02 9.029770474024059745e-02 -8.666244025388936123e-01 -5.234247102509451688e-01 -4.218519895173363232e-01 7.403157918341193300e-01
-8.765193659819622840e-02 -3.653094324739011162e-02 -9.744694521822572231e-01 9.844774111414815732e-01 1.094149905601593670e-01 1.372318723653009054e-01
8.179226286378428468e-02 1.022959722750832641e-03 -8.326189684431307692e-01 5.142718165297048838e-01 4.250210487904256818e-01 -7.449037567419861672e-01
-3.185727117650749996e-03 -2.203667981808870094e-02 -9.053813451878603979e-01 5.229724409821500108e-01 4.195397545585201615e-01 -7.419475859642298277e-01
2.894946941104948983e-03 -1.919960849651486945e-01 -9.955752286410534113e-01 2.564493387309288962e-04 4.880195327562327767e-01 -8.728326700359725354e-01
-4.095187199277804807e-02 -1.410076750514181743e-01 -9.993032065921454432e-01 5.298306548272678773e-01 4.185229287035882595e-01 -7.376435693169699492e-01
-4.726410932589900776e-02 7.363395591423725628e-02 -8.890443054859652472e-01 -5.197964467888865903e-01 -4.233850810949831844e-01 7.419950990483984432e-01
-8.770029517133887120e-02 -2.358922883012484414e-02 -9.665272929927278822e-01 5.549876938253084369e-01 4.134655274577438977e-01 -7.218274844494045883e-01
-2.233893389809056204e-02 1.986593859770471593e-01 -8.002788090661812070e-01 -5.263929761058733225e-01 -4.243539705733007095e-01 7.367727888332166186e-01
-1.166561517183316819e-02 -1.996078378010031906e-01 -1.017737331011140833e+00 -4.914708852575561115e-01 -3.863999152569645990e-01 7.804815657230889103e-01
7.265213703215009367e-02 1.240297982704771096e-01 -7.751341209366339191e-01 -5.985627867714043981e-01 -4.261257377938655888e-01 6.783357913910218473e-01
8.227526101502795342e-02 4.068525384309343990e-02 -8.097603939941192541e-01 5.065489609237342483e-01 4.262825254359061122e-01 -7.494607119089506941e-01
4.251735169525744373e-02 -1.566649869440319420e-01 -9.493505134183598537e-01 5.166933785314621330e-01 4.229627446498140375e-01 -7.443994016789908796e-01
-1.554417240575437474e-02 -1.132324349806043129e-01 -9.724579176819231341e-01 -5.229724409821500108e-01 -4.195397545585201615e-01 7.419475859642298277e-01
8.417782764939037154e-02 1.100642780356213095e-02 -8.315468486698448514e-01 -5.381771948165998687e-01 -4.151835476903188438e-01 7.334766040621992778e-01
3.730035135289710892e-03 3.738315491044974515e-02 -8.737055147259974452e-01 -5.229724409821500108e-01 -4.195397545585201615e-01 7.419475859642298277e-01
3.524076088250573807e-02 4.259307577079987639e-02 -8.485487375718480108e-01 -5.229724409821500108e-01 -4.195397545585201615e-01 7.419475859642298277e-01
1.633496396937171580e-02 -1.249753723223549357e-01 -9.465151732594561107e-01 5.373552076929566379e-01 3.659021480776736834e-01 -7.598453782167815529e-01
3.493456646180730790e-02 1.289012654908148481e-01 -7.924416219197432110e-01 5.232924691609527335e-01 4.217418703968296989e-01 -7.404720024913954424e-01
6.894861132555887839e-02 1.469164724254829607e-02 -8.404223150652136987e-01 -5.278324297966143774e-01 -4.181482982624747380e-01 7.392867689301618750e-01
2.235857969438158691e-02 -1.172703338342110380e-01 -9.468237255950479048e-01 1.968514637592864991e-01 -9.662725643211723670e-01 -1.660326252759139753e-01
4.561531858789538360e-03 -1.627158160674289922e-01 -9.890278059401906852e-01 -5.919380238635110203e-01 -3.967176336027598560e-01 7.015871258034797053e-01
-9.179382336701935249e-03 4.702668761806605424e-02 -8.773518965903426281e-01 -5.229724409821500108e-01 -4.195397545585201615e-01 7.419475859642298277e-01
-1.460245723830662888e-02 1.394356844291094744e-01 -8.214076729600784388e-01 5.295622362111971348e-01 4.215363913634543325e-01 -7.361188142788315236e-01
-3.440792832729901163e-02 -1.706903125790018294e-01 -1.011582630464132881e+00 5.367416710353177800e-01 4.324798359416204274e-01 -7.244788265216063339e-01
-5.744605037918306539e-02 1.366648575816512279e-01 -8.604305064270767467e-01 -5.162760771946000027e-01 -4.253988841261947540e-01 7.432999404686801981e-01
-7.411900687269068477e-02 -3.989725828907032812e-02 -9.719892129329810171e-01 -5.053517696806033577e-01 -4.216817418735797629e-01 7.528639302364977803e-01
-1.872102163758901372e-02 1.634328156069135007e-01 -8.106112620783623157e-01 5.214088310874775978e-01 4.247329482634389919e-01 -7.400910440773060817e-01
-3.930940841132332143e-03 -3.151923777843009811e-01 -1.078536845840080360e+00 7.038435931900279829e-01 -3.535145759735881521e-01 6.161425491715084579e-01
1.279568960701769724e-02 1.644866140338863691e-01 -7.876948779821595359e-01 5.236392956239439567e-01 4.215657593937157110e-01 -7.403270889176348790e-01
-6.065684561668556463e-02 6.485824243105539622e-02 -8.965950373352675751e-01 5.238362736623141114e-01 4.220369238158381275e-01 -7.399191802701465814e-01
6.345482680109870710e-02 -1.012344431538513417e-01 -9.033611292513976654e-01 5.171359308177158054e-01 4.220242618872827589e-01 -7.446247050936389833e-01
-2.277338351983175871e-02 1.912245877254454274e-01 -7.975511172368473511e-01 5.213855195383846342e-01 4.230394773516642504e-01 -7.410767440810158702e-01
8.674883052172255304e-02 7.886593267619754211e-02 -7.893066446732414088e-01 -8.325433209528603218e-01 6.487069233196959828e-02 -5.501485363182866406e-01
3.297348203557693130e-03 -7.013253135556952490e-03 -9.020482888522317610e-01 -5.938410893707283256e-01 -3.960279745928670936e-01 7.003674777678200458e-01
-7.443120911651406046e-02 1.148797977399431194e-02 -9.432187974156815979e-01 -5.179733533911309307e-01 -4.208576151788628317e-01 7.447029427380469357e-01
-4.029847587655115831e-02 -1.815418180314436886e-02 -9.294374146009181104e-01 5.240838000778196282e-01 4.223317291435348397e-01 -7.395756087477626251e-01
6.620101894489879846e-02 4.766929373633853328e-02 -8.169114289634341608e-01 5.215203420621817854e-01 4.254052660282719445e-01 -7.396261842652407381e-01
7.201934822595390528e-02 -4.783081181272724053e-02 -8.735748154091131923e-01 -5.280662447053416919e-01 -4.176547963287541299e-01 7.393987505442410901e-01
-9.053179145998904720e-02 -1.146179619014768038e-02 -9.619562466896672825e-01 6.433605085587905670e-01 3.923746323047227480e-01 -6.573655025560041221e-01
-7.353720436195787524e-02 -4.384855626790279404e-02 -9.738118239873971849e-01 -5.043323497409371026e-01 -4.222138405529269334e-01 7.532491977097172109e-01
-9.339084610482642490e-02 5.553669465038795633e-02 -9.259096393963892613e-01 6.388457768367404865e-01 3.804479275780457415e-01 -6.686818734042605517e-01
-8.264518637549415903e-02 1.058576249296927646e-01 -8.879621630458173209e-01 7.077706746974024021e-01 2.344626672282222046e-01 -6.663992269763010512e-01
6.323570995330568545e-02 3.407026625115421731e-02 -8.335139970487568384e-01 -5.229724409821500108e-01 -4.195397545585201615e-01 7.419475859642298277e-01
-3.648782099139664253e-02 1.287497433863949992e-01 -8.502029673930664444e-01 -5.184238351929648658e-01 -4.213462765829803502e-01 7.441129230926419869e-01
-3.886871187361172486e-02 -8.788966056618864597e-02 -9.678914495358440506e-01 5.229724409821500108e-01 4.195397545585201615e-01 -7.419475859642298277e-01
-3.518327160462467879e-02 4.320293759169977973e-03 -9.198297589613851910e-01 -5.229724409821500108e-01 -4.195397545585201615e-01 7.419475859642298277e-01
5.454417896650938513e-02 8.587766941932684084e-02 -8.032374259279871920e-01 5.228577787303310132e-01 4.222363295514923176e-01 -7.404972823907377544e-01
6.429935052122497108e-02 4.342037253778702893e-02 -8.206878936319279561e-01 5.221890860337947693e-01 4.227171576208818005e-01 -7.406947840238330416e-01
5.477670282285187348e-02 -1.104198208754030713e-01 -9.212231972329183449e-01 -5.278516892132180116e-01 -4.172360506283306902e-01 7.397882617687477902e-01
-5.839107242550749949e-02 3.849329713421052734e-02 -9.167850068460567936e-01 -5.189272679940171162e-01 -4.208106762263945644e-01 7.440650948043121549e-01
1.789581376666162307e-02 1.342840349180009218e-01 -8.119811261637525091e-01 -5.183330907149242828e-01 -4.209323429258670646e-01 7.444103503772999675e-01
-4.468598889237092309e-02 6.071767057376360049e-02 -8.946091672619179702e-01 -5.196139606860574744e-01 -4.234456639684482382e-01 7.420883380881742042e-01
2.010929380242298947e-02 -1.686014780527327339e-01 -9.718376642833679302e-01 5.229724409821500108e-01 4.195397545585201615e-01 -7.419475859642298277e-01
5.798061031235219459e-02 4.825614925484371202e-03 -8.538201077106993830e-01 -5.270058666965570238e-01 -4.183708862419466268e-01 7.397503754730637704e-01
8.193314528405735986e-03 9.748705328387738400e-02 -8.292545398793412792e-01 5.222230631642312826e-01 4.238709941670653625e-01 -7.400111165402791791e-01
-6.911465861364715635e-02 1.615104342977562168e-01 -8.476129966744082589e-01 5.328576456000342354e-01 4.163435306535023805e-01 -7.366958626248447661e-01
3.693012275677517303e-02 -8.205404146464462256e-02 -9.178406016345679319e-01 -5.229724409821500108e-01 -4.195397545585201615e-01 7.419475859642298277e-01
-5.685149336349747118e-03 -3.042470707263983734e-02 -9.136884223178153297e-01 9.537275765003651040e-01 -1.479954926776975432e-01 2.617270409602821535e-01
-6.136937136592810621e-02 2.069323035326661384e-02 -9.223076337319759954e-01 5.240182214540362038e-01 4.223028787576475485e-01 -7.396385483309751985e-01
-1.585736738565838091e-02 1.368753814891177367e-01 -8.310673100230927535e-01 -5.230708327672403124e-01 -4.216527744224960461e-01 7.406793109909289852e-01
-2.392960300439277155e-02 2.201158049979460296e-01 -7.824022900433005301e-01 5.984698312369691742e-01 2.894882422453725623e-01 -7.470143363422672156e-01
-6.091464519736573824e-02 -8.908778485029207606e-02 -9.905896602868183853e-01 -5.164622314823431593e-01 -4.204218508077561811e-01 7.459974737327595973e-01
5.451309782119389755e-03 -1.580422543677745817e-01 -9.760993584455548433e-01 5.241193017477446814e-01 4.162531600836887891e-01 -7.429887376372533714e-01
-5.057773581925927714e-02 1.016213341519606322e-01 -8.684977928301979011e-01 5.234054715318187112e-01 4.218382648097462884e-01 -7.403372141888160396e-01
-5.998251731201156844e-02 8.880079721029147943e-02 -8.825461049308991335e-01 5.277479547000794025e-01 4.204358423346908347e-01 -7.380486425637553527e-01
5.206556044425792893e-04 2.146720833364073322e-01 -7.782686600724629811e-01 -4.776544790905956073e-01 -4.484323829996357258e-01 7.554830219680386261e-01
-4.119202843648757384e-03 9.886215933671299583e-02 -8.371672397945902899e-01 5.229667855919861719e-01 4.235834103779367865e-01 -7.396504820658078572e-01
5.913253169040248031e-02 -1.174512256115882447e-01 -9.254117087120107277e-01 -5.004305712798196026e-01 -4.751336008759660667e-01 7.237522398218823039e-01
-5.357515001557103251e-02 8.130162231863569122e-02 -8.848101105395514976e-01 3.821814701246669110e-01 8.182931966668827162e-01 4.293408531482211798e-01
-5.236909799529854137e-02 3.036222539716894320e-02 -9.171833994852359728e-01 -5.188982179119324689e-01 -4.207342600309140757e-01 7.441285654267408844e-01
-5.465490393253730900e-02 1.146127250097142974e-01 -8.709555421888910409e-01 -5.191087852226889954e-01 -4.234801436335173808e-01 7.424221420814169914e-01
-2.401902768443497926e-02 -1.126337850146996583e-01 -9.712948008741792982e-01 5.229724409821500108e-01 4.195397545585201615e-01 -7.419475859642298277e-01
3.913510402257865811e-02 -9.472350024624798248e-02 -9.234504280852017244e-01 -5.229724409821500108e-01 -4.195397545585201615e-01 7.419475859642298277e-01
2.040002707639911733e-02 -3.172732676590006573e-02 -9.010344642729802844e-01 -5.229724409821500108e-01 -4.195397545585201615e-01 7.419475859642298277e-01
-1.631693921944413900e-02 -1.943999134903662274e-02 -9.199669819736371323e-01 -5.229724409821500108e-01 -4.195397545585201615e-01 7.419475859642298277e-01
-6.434821379463903646e-02 -5.385276580861621254e-02 -9.731086109996716083e-01 -5.173509079381434228e-01 -4.203714040898767768e-01 7.454099011142016895e-01
2.267883820329415906e-02 2.925714839557291835e-02 -8.649440885304745530e-01 -5.229724409821500108e-01 -4.195397545585201615e-01 7.419475859642298277e-01
-8.540322143891171391e-02 -1.317151700229266496e-02 -9.644282790710195785e-01 -4.734512931539837099e-01 -4.275056354140358561e-01 7.701186952022799348e-01
1.131240816115955134e-03 5.226164740291168453e-02 -8.700957171362049269e-01 -4.991077730064255036e-01 -4.265244549015169695e-01 7.542998875086288635e-01
-1.027801220401696304e-03 -3.419531904786183296e-01 -1.093883810987459571e+00 -8.780436439204017743e-03 -4.883531238355866000e-01 8.726019312240611558e-01
3.581891694176309732e-02 -1.898916017585402238e-01 -9.790322105393007845e-01 -5.419447747142277505e-01 -3.955370778341657512e-01 7.415162042857552649e-01
-4.151270445811746507e-02 1.610331387663747615e-01 -8.317458024090955693e-01 -3.122014887895327440e-01 -7.911083604103251732e-01 -5.260017038817327295e-01
-5.429325397564492561e-02 -8.712449172491372462e-02 -9.783309897847711767e-01 5.229724409821500108e-01 4.195397545585201615e-01 -7.419475859642298277e-01
1.841792990546942121e-02 -8.817588884108820343e-03 -8.826788635946888339e-01 5.229724409821500108e-01 4.195397545585201615e-01 -7.419475859642298277e-01
-8.173568162816131216e-03 1.256891549819127984e-01 -8.320097344556472985e-01 -5.227208899760316108e-01 -4.216575653112332178e-01 7.409235917410569305e-01
4.970241699829401269e-03 -1.868025294590337781e-01 -9.949247975256810816e-01 -7.043024708232685782e-01 3.457478930485509139e-01 -6.200132450558830666e-01
6.836997342628199636e-02 9.714663874284036604e-02 -7.939356028691397782e-01 -5.339549229987210488e-01 -4.186619367037416883e-01 7.345844559755548842e-01
-3.886107855954393925e-02 -5.679125265982792881e-02 -9.569780904438224267e-01 -5.229724409821500108e-01 -4.195397545585201615e-01 7.419475859642298277e-01
-5.905491808631717354e-02 -6.828247370490521384e-02 -9.710329587447897870e-01 5.229724409821500108e-01 4.195397545585201615e-01 -7.419475859642298277e-01
1.765430522163171983e-03 -1.221045143921002801e-01 -9.553040794552484227e-01 4.533701648298810172e-01 3.894937704366310816e-01 -8.017169677842569397e-01
-8.735951398726446437e-02 4.293555575199697188e-02 -9.341608385864682562e-01 -4.772245871531266004e-01 -4.318953690212198882e-01 7.653254756210275955e-01
6.439180217374625148e-02 8.591235367236768616e-02 -7.963241556301992041e-01 5.172995226989407502e-01 4.232409757030905495e-01 -7.438200590877770413e-01
4.472812701065771029e-02 3.171567270703928854e-02 -8.410391598546985703e-01 5.222204373812455724e-01 4.225288327033455138e-01 -7.407801295362129723e-01
6.578306396030886294e-02 1.210785471453960233e-01 -7.753812710840615186e-01 5.130163664256203182e-01 4.223357275667059541e-01 -7.472929418910327914e-01
2.612597707911242656e-02 -1.372909492329906223e-01 -9.566901776838215854e-01 -5.229724409821500108e-01 -4.195397545585201615e-01 7.419475859642298277e-01
5.832290915965621797e-02 -2.227227995582258674e-02 -8.688981929538692750e-01 -5.270664882289933795e-01 -4.181770153609632446e-01 7.398168021948089423e-01
7.829092612139260110e-02 -2.839463268157784229e-02 -8.517177124086082740e-01 5.138849388528375917e-01 4.256856287102599445e-01 -7.447912560776784874e-01
-3.946352697651595715e-02 1.147145566911455111e-01 -8.531218105317144307e-01 5.275948769247331693e-01 4.202372758149198195e-01 -7.382711411523755762e-01
5.546062421715479418e-02 -1.667532295139091958e-01 -9.522439766546629825e-01 -5.562698229767293334e-01 -3.946781737687220515e-01 7.312954417990203959e-01
-4.424989507135823619e-02 -1.416452317784427095e-01 -1.008483515920261642e+00 -5.107677855815679901e-01 -4.149141629920569674e-01 7.529691272294647408e-01
-5.720844577864157149e-02 6.969301310286589446e-02 -8.914039225898344743e-01 5.270714530217804894e-01 4.181001441037551225e-01 -7.398567110663579749e-01
4.269798783897440358e-02 -8.187646858069832015e-03 -8.720067392594187394e-01 -5.229724409821500108e-01 -4.195397545585201615e-01 7.419475859642298277e-01
-3.344350967705573500e-03 -3.737786650617240802e-01 -1.098809303952006600e+00 4.598468759268430350e-01 4.333478273458217234e-01 -7.750809707604607857e-01
1.802503581206644015e-02 -1.657685252005594578e-01 -9.784548660199274828e-01 -5.251606285648580119e-01 -4.154168382735163867e-01 7.427214583437038442e-01
-2.487505338025400997e-02 -5.425909002195106190e-02 -9.456880090718856602e-01 -5.229724409821500108e-01 -4.195397545585201615e-01 7.419475859642298277e-01
-4.438224481138092203e-02 -1.196626048050058178e-01 -9.963580723228946390e-01 -5.170918902197771949e-01 -4.204611606525412437e-01 7.455389925762805348e-01
-7.801961051635318556e-02 2.033599597945517836e-03 -9.510188252831420774e-01 -5.067574994874856076e-01 -4.231179486450593608e-01 7.511112023179975505e-01
-3.996810231696817928e-03 -1.165106339468445357e-01 -9.691776019184449309e-01 -5.170633494442522515e-01 -4.214777563832471374e-01 7.449845592598783872e-01
1.813977862451547282e-02 -2.090613436506699729e-01 -9.999027853749095085e-01 -5.604543846454829170e-01 8.250922248418782745e-01 7.151016177531692442e-02
2.502281553811286710e-02 9.412784076868151162e-02 -8.264889059213518241e-01 -5.229724409821500108e-01 -4.195397545585201615e-01 7.419475859642298277e-01
2.861259430071804019e-04 -1.961109140136394202e-01 -1.001244340586741721e+00 5.229724409821500108e-01 4.195397545585201615e-01 -7.419475859642298277e-01
-1.951057602432313548e-02 1.591691939341597362e-01 -8.209485191418357530e-01 -5.226532395350947935e-01 -4.221890843268087945e-01 7.406685954451974752e-01
-5.917992353578805514e-02 -1.105394220812364464e-01 -1.001442091335583262e+00 -5.119974080181255438e-01 -4.151659668232071665e-01 7.519945971710653154e-01
8.113779613843630223e-03 8.048330645576921849e-02 -8.390502441292947422e-01 5.222230631642312826e-01 4.238709941670653625e-01 -7.400111165402791791e-01
1.592141747029520576e-02 -9.687426966481904600e-02 -9.410290978472598544e-01 -5.229724409821500108e-01 -4.195397545585201615e-01 7.419475859642298277e-01
9.390360529364856490e-02 -4.791053934407962442e-03 -8.325950744335761655e-01 -6.729471333491431340e-01 -3.648187745223714362e-01 6.434667182327035162e-01
-7.466636904843101941e-02 2.420787584640434788e-03 -9.421393392570973635e-01 5.279993282099726404e-01 4.181584427753892719e-01 -7.391618402930979492e-01
1.988244886338465939e-02 -1.552713436772918017e-02 -8.922387680209478145e-01 -5.229724409821500108e-01 -4.195397545585201615e-01 7.419475859642298277e-01
5.182199636510648882e-02 1.540206580666213521e-01 -7.732417074550477221e-01 -5.326660607985284068e-01 -4.272815636184745802e-01 7.305459144127285365e-01
1.397981913744419415e-02 -1.497797409611379971e-01 -9.723134517572913360e-01 -5.229724409821500108e-01 -4.195397545585201615e-01 7.419475859642298277e-01
-3.088003236242363100e-03 -1.334833317786325232e-02 -8.970006305614129927e-01 5.710646461197652624e-01 4.065007675316363311e-01 -7.131916263868343098e-01
6.281315805306818614e-03 -2.092337128976695104e-01 -1.012437102895388685e+00 -8.920047828422784653e-01 -2.230999593465655406e-01 3.931334067795060894e-01
5.257742972932467895e-02 1.444533812195182843e-01 -7.782612840122241638e-01 -5.286415307334231262e-01 -4.221442784755474187e-01 7.364321694047475386e-01
2.861423588219901004e-02 1.115627589373984346e-01 -8.067834951342752747e-01 5.232924691609527335e-01 4.217418703968296989e-01 -7.404720024913954424e-01
6.916978014748637049e-02 2.307235073031208700e-02 -8.355240474018449381e-01 -5.278567343371540765e-01 -4.181603338936012992e-01 7.392626077199542234e-01
-5.519675921059864765e-02 1.257592968409464995e-01 -8.580060908779711948e-01 5.230821935453789928e-01 4.221685548001677390e-01 -7.403774241113059151e-01
4.551521112617681886e-03 1.938213713077081846e-01 -7.840280846525153891e-01 -5.234139388235486967e-01 -4.249367953952624122e-01 7.385570855150082048e-01
-6.331526818429791814e-02 -7.728548898559482738e-02 -9.856024584654882181e-01 -5.169230666427404586e-01 -4.200793207658293227e-01 7.458712405218373975e-01
5.402571113132276920e-02 1.662051961193112271e-01 -7.641820341332500321e-01 -5.879494974302236221e-01 -4.486336713686973066e-01 6.730848515497813711e-01
2.797654355410932048e-02 1.615330331098104866e-01 -7.786575631931899055e-01 5.188172138453028825e-01 4.239472784791023519e-01 -7.423593494312303864e-01
1.380318322386044246e-02 3.242846301409298745e-03 -8.790742418371276790e-01 5.219960761907317393e-01 4.226475282429373315e-01 -7.408705442326715129e-01
1.043005252358816847e-03 -2.184552437179717865e-01 -1.023110800817618404e+00 -4.523907368310586818e-01 -4.389676245453919545e-01 7.763053818120981830e-01
-5.282487114452983495e-02 -8.991491268173627815e-02 -9.854487649303280694e-01 -5.180831004681712981e-01 -4.202049599528577817e-01 7.449950957156051823e-01
7.848934808881641301e-02 5.336794877446434694e-03 -8.324379051052546163e-01 5.142718165297048838e-01 4.250210487904256818e-01 -7.449037567419861672e-01
-9.910992504520299215e-03 -4.008785214707072386e-02 -9.271271439063110131e-01 -5.229724409821500108e-01 -4.195397545585201615e-01 7.419475859642298277e-01
6.439266923639397344e-02 3.160626486236397387e-02 -8.340917854607698967e-01 -5.229724409821500108e-01 -4.195397545585201615e-01 7.419475859642298277e-01
7.119277507116085479e-02 -4.704765330107495147e-02 -8.672918927690368429e-01 5.178598120993216369e-01 4.214096108398189267e-01 -7.444697138932432345e-01
-1.027044490842057844e-02 1.351835159767263983e-01 -8.171324899693288568e-01 4.714697305492308588e-01 2.836247263537750585e-01 -8.350289263112875560e-01
-6.720468211792040777e-03 -7.340603984549665117e-02 -9.437182727741996180e-01 -5.229724409821500108e-01 -4.195397545585201615e-01 7.419475859642298277e-01
-1.121079581772690612e-02 1.361244021353466838e-01 -8.282138254082728190e-01 -5.227208899760316108e-01 -4.216575653112332178e-01 7.409235917410569305e-01
-4.675409836051391821e-02 2.052733718167839838e-01 -8.070805249939102533e-01 6.257969215416900877e-01 2.758244322918332880e-01 -7.295883055119727345e-01
3.933582684908439736e-02 4.854028261479954864e-02 -8.376643328002876254e-01 -1.498378688659132707e-01 9.780252557657027612e-01 1.449662448232443557e-01
4.760391410077532276e-02 1.324474808325490915e-01 -7.783018025204467838e-01 5.485420393245211690e-01 2.529354520356584257e-01 -7.969474814548400676e-01
-3.736121764049800398e-02 -1.048864770022531756e-01 -9.794394400471801987e-01 4.114900658335621797e-01 7.916768897874053579e-01 4.515790383718343293e-01
2.998900492997463169e-02 -4.032804167531563871e-02 -9.020109044185454783e-01 -5.386411047901659144e-01 -3.655423293170546595e-01 7.591077431484225535e-01
-4.140509687480101869e-02 6.140002892329780859e-02 -8.919225073618956001e-01 -5.196139606860574744e-01 -4.234456639684482382e-01 7.420883380881742042e-01
2.110969916886345707e-02 1.317635662983865641e-01 -7.971062474049679381e-01 5.499824667402347655e-01 3.112623694043237799e-01 -7.750064668576210902e-01
1.051950446773014178e-02 -1.661448639451385545e-01 -9.839672091480418104e-01 -5.248905783881341325e-01 -4.156155213011041849e-01 7.428011976114344828e-01
1.185216529107893137e-02 -8.924725159537522101e-02 -9.395846150239369754e-01 -5.229724409821500108e-01 -4.195397545585201615e-01 7.419475859642298277e-01
-4.179451621740017803e-02 1.382997740009416776e-01 -8.413077425815821409e-01 5.277037107341625566e-01 4.226494233725237026e-01 -7.368149418953637841e-01
-7.379862801349344574e-03 -1.429568617510458550e-01 -9.766734745353561342e-01 5.219030602080525494e-01 4.169037709400189029e-01 -7.441830698970933744e-01
4.832811265244942034e-02 -1.188273668487627860e-01 -9.239234670462231902e-01 5.229724409821500108e-01 4.195397545585201615e-01 -7.419475859642298277e-01
-2.857657839210694245e-02 1.483550565684568778e-01 -8.234314339826871443e-01 8.537587243041222518e-02 -3.673301983416102368e-01 -9.261638547217545536e-01
-3.746256751470793123e-02 -4.949692171898946447e-02 -9.451908500606884811e-01 5.229724409821500108e-01 4.195397545585201615e-01 -7.419475859642298277e-01
4.658657436682822790e-03 1.156851668071263994e-01 -8.315312139891748444e-01 -5.902197477403178238e-01 -3.967647693541067055e-01 7.030066622562962664e-01
4.547189545373966219e-02 7.104202733628937547e-03 -8.614046209836688783e-01 -5.229724409821500108e-01 -4.195397545585201615e-01 7.419475859642298277e-01
7.945344498879577944e-02 -4.917107536216343278e-02 -8.690041470858026473e-01 -5.393424234317590882e-01 -4.134027491637760621e-01 7.336265516395853448e-01
-5.288706792332432960e-02 7.347157192132997006e-02 -8.861900874862740363e-01 5.270714530217804894e-01 4.181001441037551225e-01 -7.398567110663579749e-01
8.155119651890702093e-02 1.284741137956887241e-02 -8.260502156402116380e-01 5.075917163300782686e-01 4.237594515735902956e-01 -7.501856948217124899e-01
5.564033986247684388e-02 4.942203517012784542e-02 -8.268659451703644914e-01 -3.811277340638453692e-01 7.896803159779635095e-01 4.807771301593933289e-01
-6.399477658952416881e-02 -1.811777170788243449e-02 -9.461488870757517322e-01 5.229724409821500108e-01 4.195397545585201615e-01 -7.419475859642298277e-01
9.100486936505876312e-02 4.564594585691358897e-02 -8.064006789902885552e-01 -6.769575430900730550e-01 -3.741222282451251435e-01 6.338462299220168905e-01
3.660129332604530189e-02 1.888840618180875897e-02 -8.609937275723518191e-01 -5.229724409821500108e-01 -4.195397545585201615e-01 7.419475859642298277e-01
5.385083915837135006e-03 -1.734391072763690530e-03 -8.909311305141370818e-01 -6.866142941627169094e-01 3.602160098369343588e-01 -6.315102828209463448e-01
-5.930973885680380572e-03 1.125054904257639238e-01 -8.338212627500948271e-01 9.553837016307578089e-01 -1.415315603332348016e-01 2.592504582212932784e-01
-2.390304436789909143e-02 1.447682138292082921e-01 -8.215780225256033020e-01 8.537587243041222518e-02 -3.673301983416102368e-01 -9.261638547217545536e-01
-5.609774439886579082e-03 1.200680920485109604e-01 -8.300692369227823386e-01 7.129515419500396245e-01 -3.451481185129567919e-01 6.103874794898946909e-01
-5.966096562824439731e-02 6.093237790582699959e-02 -8.981292342525183381e-01 5.238362736623141114e-01 4.220369238158381275e-01 -7.399191802701465814e-01
-8.990289203387900538e-03 9.231446343074999061e-02 -8.443656059423587656e-01 5.232306952507560505e-01 4.235691823334147288e-01 -7.394719652054516645e-01
-5.599440787928289948e-02 8.941589706784308644e-02 -8.773367659654981443e-01 2.776334868908320597e-01 -8.373256630429376512e-02 -9.570310884694056552e-01
-2.648470169809846730e-02 -1.436174827876042781e-01 -9.905527279661349160e-01 5.229724409821500108e-01 4.195397545585201615e-01 -7.419475859642298277e-01
3.735811505119193687e-02 6.940031599605195334e-02 -8.247515083620738929e-01 5.224989134399971036e-01 4.222678416697339676e-01 -7.407325801837035817e-01
5.191120420144916536e-02 -2.043623348722035590e-02 -8.724279462716822975e-01 -5.270349502593817403e-01 -4.182771165602963692e-01 7.397826809050715990e-01
6.237468499554863627e-02 8.062007893330629116e-02 -8.007383432252277444e-01 5.172995226989407502e-01 4.232409757030905495e-01 -7.438200590877770413e-01
3.157399620772357446e-02 3.648019558280311478e-03 -8.731550797751452819e-01 -5.229724409821500108e-01 -4.195397545585201615e-01 7.419475859642298277e-01
-5.847892387749224763e-02 -7.429104659481040873e-02 -9.740245529491330378e-01 5.229724409821500108e-01 4.195397545585201615e-01 -7.419475859642298277e-01
8.351243581814482564e-02 2.371781422002781133e-03 -8.369227008853115102e-01 -5.381771948165998687e-01 -4.151835476903188438e-01 7.334766040621992778e-01
-6.457974920717462347e-03 -7.234981742468472865e-02 -9.362591555035787438e-01 5.229724409821500108e-01 4.195397545585201615e-01 -7.419475859642298277e-01
6.578623960292065420e-02 -7.634447458589831408e-04 -8.514200191606046131e-01 -5.270347492714642090e-01 -4.182769740027208472e-01 7.397829046953519061e-01
1.252756650075920707e-02 -1.838621292685990449e-01 -9.924175479092485208e-01 -5.280736263908889505e-01 -4.090375886582754417e-01 7.441952003170937413e-01
8.099082198244886288e-02 -7.921804826311659720e-02 -8.788438709577715002e-01 5.060869761604831485e-01 4.264847935036468196e-01 -7.496577175424062878e-01
-3.916565333404209426e-02 -1.176346996759257552e-01 -9.847989223076842880e-01 5.229724409821500108e-01 4.195397545585201615e-01 -7.419475859642298277e-01
-8.123372881190470129e-02 9.207161531039445221e-03 -9.491446477386953351e-01 -5.069887497065107551e-01 -4.236868152468879489e-01 7.506343252589627868e-01
-1.321867145726691659e-02 5.743884693410929165e-02 -8.743111086615450445e-01 -5.235811261816557538e-01 -4.216289957545590328e-01 7.403322188351328936e-01
-8.721885995147412793e-03 2.223314709755776775e-01 -7.701453924566871168e-01 5.304952906488714648e-01 3.996469207996252715e-01 -7.475674453149677712e-01
2.321029823401610844e-03 -1.647680595558443928e-01 -9.803527377425407252e-01 4.435741833690890834e-04 4.879481803219610225e-01 -8.728724858548532195e-01
-7.568070378396442310e-02 -4.878054456420539281e-02 -9.780130450568721434e-01 -5.053517696806033577e-01 -4.216817418735797629e-01 7.528639302364977803e-01
-8.214427297997009547e-02 1.030672525068689060e-01 -8.943463810559284521e-01 5.812159806471975942e-01 3.248387106495210369e-02 8.131007206742300042e-01
-1.497664936676576866e-02 1.846175310933247382e-01 -7.958334481132089966e-01 5.220913485575485735e-01 4.228073232835252715e-01 -7.407122188402057716e-01
-5.728813161229635680e-03 7.359795928885411176e-02 -8.558870182367457335e-01 9.572835556449834638e-01 -1.392641645467629086e-01 2.534041960283807682e-01
6.203197647902949918e-02 1.387719691816390877e-01 -7.679442171626815750e-01 5.104355913626754671e-01 4.238586593814210324e-01 -7.481973963718531184e-01
2.338945087282517238e-02 1.128376110915131625e-01 -8.170422602294582504e-01 -5.228582749416528230e-01 -4.218653952552178787e-01 7.407083181733532529e-01
-1.060735220694974815e-03 -1.343972600260576189e-01 -9.742168653906959630e-01 -5.229724409821500108e-01 -4.195397545585201615e-01 7.419475859642298277e-01
3.541153268098790052e-02 6.076288119266013560e-02 -8.310474580569153780e-01 5.223078993477289211e-01 4.221825778340707602e-01 -7.409158719128247084e-01
-8.811648152146040608e-03 1.306295622487445296e-01 -8.278427342994933991e-01 1.543671332394391249e-01 6.357093279005372466e-01 7.563361941595050375e-01
-6.204386026834556034e-02 -5.572820776304385909e-02 -9.725677679068903680e-01 -5.171359308177158054e-01 -4.205532009585383202e-01 7.454565273849453888e-01
1.794453354677162313e-02 -1.700286634284906284e-01 -9.808945555605249611e-01 -5.251606285648580119e-01 -4.154168382735163867e-01 7.427214583437038442e-01
-7.863276232582970537e-02 -7.926803067472137920e-02 -9.931760078373303990e-01 8.086136119132438793e-01 3.104958929620262043e-02 5.875201695543351699e-01
5.489906775459182930e-02 -3.047218259857324696e-02 -8.692637548813717530e-01 5.188662824673363483e-01 4.208927778360906924e-01 -7.440611873253069053e-01
