-5.517934030707573323e-02 -5.967804750196813168e-02 -9.270419359648314206e-01 2.324277365308445031e-01 -4.677737303510656752e-01 8.527397519082811073e-01
2.113200742280814046e-03 -1.510243915620864685e-01 -9.869569635413003583e-01 -2.324277365308445031e-01 4.677737303510656752e-01 -8.527397519082811073e-01
4.037974757438844015e-02 1.093890169540505802e-01 -8.546419349320478753e-01 -2.324277365308445031e-01 4.677737303510656752e-01 -8.527397519082811073e-01
-6.843243772105374323e-02 -9.916865489500367725e-02 -9.450850488772865043e-01 2.393089847002761450e-01 -4.656884606855502540e-01 8.519773866870211654e-01
1.625363677672239660e-02 -1.947383007011700418e-01 -1.020638365085357879e+00 2.259181202180466086e-01 -4.613148702495789011e-01 8.579916045298801031e-01
-6.610716202449410522e-03 -2.559172032336623492e-01 -1.048326917824617066e+00 9.998405503476179845e-01 -1.308218914754934875e-02 1.215443160662853413e-02
6.396944716381800997e-03 1.564905038967107365e-01 -8.187197657970132214e-01 -6.924176888573039257e-01 3.483850588110695146e-01 -6.318113602608907975e-01
6.822481148451444745e-03 -3.297433041787073416e-01 -1.087871774052447060e+00 -9.999771700894876103e-01 -1.456011201283947953e-03 -6.598433996159316396e-03
-2.829429789665105846e-02 1.412412850568870726e-01 -8.248857428138497427e-01 2.321242991490909402e-01 -4.656524435560558395e-01 8.539825007310265503e-01
-2.884725770053266081e-02 -5.932212760337944590e-02 -9.340239212263246049e-01 2.324277365308445031e-01 -4.677737303510656752e-01 8.527397519082811073e-01
1.283680209615461511e-02 3.704735877734437188e-02 -8.927336068137814440e-01 2.324277365308445031e-01 -4.677737303510656752e-01 8.527397519082811073e-01
5.636932495158471917e-02 5.543738868680337523e-02 -8.885485180570523722e-01 -2.360415410175801254e-01 4.644380329238305127e-01 -8.535699763275937935e-01
5.451177011960751592e-03 -1.364889659637917307e-01 -9.798933172507177103e-01 -2.324277365308445031e-01 4.677737303510656752e-01 -8.527397519082811073e-01
-2.190743163644110966e-02 1.375700867140809414e-01 -8.318178175360401161e-01 2.324277365308445031e-01 -4.677737303510656752e-01 8.527397519082811073e-01
-1.332161145899817163e-02 6.567073009787777194e-02 -8.639405688019380358e-01 -2.331341025463287975e-01 4.653991791684655710e-01 -8.538454744619989878e-01
1.011261666885177463e-01 -9.508008935637425260e-03 -9.417142469530962456e-01 1.952712965804924983e-01 -4.659282672709090800e-01 8.630063559961198560e-01
-6.248083933429213893e-03 -3.381673092819622028e-01 -1.088978309898559260e+00 8.897702630667655432e-01 2.190178772435672772e-01 -4.004248349064036816e-01
-8.781092622218829302e-02 -5.593153944721360876e-02 -9.159676771264174677e-01 2.518613019418477483e-01 -4.635581611012913883e-01 8.495173428839144503e-01
-1.583004648755486840e-02 2.087642722267268325e-01 -7.915689176981138830e-01 2.324277365308445031e-01 -4.677737303510656752e-01 8.527397519082811073e-01
-1.009311993027841303e-01 4.915495330552133862e-02 -8.547156503243870107e-01 2.672940496206397953e-01 -4.625835185832188334e-01 8.453226480892179762e-01
-2.249057431267730001e-02 -1.428697381843130332e-01 -9.757775475998651249e-01 -2.324277365308445031e-01 4.677737303510656752e-01 -8.527397519082811073e-01
1.867193314175673302e-02 -2.205782123748258050e-02 -9.207251913347109795e-01 -2.324277365308445031e-01 4.677737303510656752e-01 -8.527397519082811073e-01
7.338347950087054095e-02 -4.641848083494549276e-02 -9.547919465206887724e-01 2.261886165285284800e-01 -4.680188867730242230e-01 8.542815878717329170e-01
6.496958205211678106e-02 -1.827073984175901084e-02 -9.370803866449404218e-01 2.311594858659215823e-01 -4.647646188795295230e-01 8.547275244965313323e-01
-3.609233269675295175e-02 -4.746378677622854758e-02 -9.197348644776615068e-01 -2.324277365308445031e-01 4.677737303510656752e-01 -8.527397519082811073e-01
1.672838806302644893e-02 -1.496406946963033391e-01 -9.960965021237481176e-01 2.324277365308445031e-01 -4.677737303510656752e-01 8.527397519082811073e-01
-4.251809282219702613e-02 1.333331557318745419e-01 -8.240683954075105344e-01 3.436195181906055995e-01 7.431182577943066248e-01 5.741958565256372049e-01
8.899059082585680791e-02 5.302585767977700815e-03 -9.250878393702519631e-01 -2.381179522613411925e-01 4.672945537094990720e-01 -8.514315244835052310e-01
7.237685102468760512e-02 1.203140360424751337e-01 -8.635392046393652876e-01 2.259633825211458391e-01 -4.664878228054375464e-01 8.551781457297918942e-01
-2.785661561571274245e-02 -2.148369701921151037e-02 -9.136375434906679471e-01 2.337038861865342598e-01 -4.644689508316054427e-01 8.541961644111376595e-01
3.672499815248423966e-03 -7.846717075973179412e-02 -9.452060592223310298e-01 -3.146263110223475046e-01 4.565205526916920054e-01 -8.322254919086179425e-01
-5.893123911682430181e-03 -1.046897807893329285e-01 -9.619291342692569691e-01 8.901404281247135009e-01 2.191600783693681553e-01 -3.995233137966844317e-01
-1.478123496946016045e-02 2.573538488853914508e-02 -8.914111006019368455e-01 2.324277365308445031e-01 -4.677737303510656752e-01 8.527397519082811073e-01
2.706971992330067453e-02 -1.890384692098256991e-01 -1.020398757870650819e+00 1.890739104186641983e-01 -4.371762785968682508e-01 8.792769517229417353e-01
-4.258445988690124501e-02 4.799876716377057123e-02 -8.716969818660265101e-01 2.334067490505697673e-01 -4.649693042159346312e-01 8.540051730725020107e-01
5.908826667482484918e-02 -9.981477362112987917e-02 -9.802045418466253102e-01 2.324277365308445031e-01 -4.677737303510656752e-01 8.527397519082811073e-01
4.420626179553062071e-03 -1.513858501074754059e-01 -9.877841684208245043e-01 -2.324277365308445031e-01 4.677737303510656752e-01 -8.527397519082811073e-01
7.152612532147195612e-02 -9.997031640006641406e-02 -9.836070932357776631e-01 2.250098055313853040e-01 -4.675370404164237992e-01 8.548565395745530981e-01
7.870971731595323428e-02 -1.075691799592735053e-02 -9.335983242126923987e-01 -4.238812385997661192e-01 8.480675911376391873e-01 3.179717855803091409e-01
-2.292829644483957655e-03 -2.945330115258492087e-01 -1.074495210879238494e+00 3.032640166987202179e-01 -4.658569589334857208e-01 8.312690478954470885e-01
7.525685915325285025e-02 8.899486912427817531e-02 -8.754435604343315802e-01 -2.428094543583220744e-01 4.629511785523861556e-01 -8.524786068583600773e-01
1.379519080204297081e-02 1.807856131116363230e-01 -8.148882358517223201e-01 2.334277673429616118e-01 -4.646286923414108538e-01 8.541847901282197952e-01
-8.605593132479323615e-02 -1.344963652343261935e-02 -8.932413933155662900e-01 2.336868786141474696e-01 -4.644538998795555429e-01 8.542090011526736193e-01
7.345431820335508732e-02 7.115551287510810119e-02 -8.905395646838907275e-01 2.268859928242630830e-01 -4.686347868893956936e-01 8.537588551677101067e-01
4.710254341712059173e-02 -2.499745995618725056e-02 -9.274609312199276756e-01 -2.512394561136638838e-01 5.138341536146152633e-01 -8.202762938613199495e-01
2.310444645849203671e-02 -6.921699108416458877e-03 -9.136303640319235475e-01 -2.324277365308445031e-01 4.677737303510656752e-01 -8.527397519082811073e-01
-9.322211970508252621e-02 4.419480126562766280e-03 -8.814449647682556233e-01 2.501365894743771134e-01 -4.654858955427564338e-01 8.489726542456388358e-01
7.885712574240649753e-02 -8.469453050888439694e-02 -9.716907397340296404e-01 -2.393089847002761450e-01 4.682513888592512163e-01 -8.505714824005714547e-01
-3.718381829797907934e-02 1.309820285007970153e-01 -8.280610084041457597e-01 2.320595976154433138e-01 -4.654968615913860908e-01 8.540848991775515930e-01
-3.532253897167529633e-02 2.810001033108848467e-02 -8.784938671387126918e-01 -2.324277365308445031e-01 4.677737303510656752e-01 -8.527397519082811073e-01
-7.848605630942298572e-02 -1.153431496955531627e-01 -9.510899110911388288e-01 2.442207892110728196e-01 -4.641827557109786118e-01 8.514050595443291014e-01
3.414047468086219700e-02 7.276867006359404033e-02 -8.766946084729136945e-01 3.496915486540648765e-01 -8.744476887359918793e-01 -3.362395878896529688e-01
-1.496986000474344498e-02 1.388243176016294711e-02 -8.918404208133070554e-01 -2.324277365308445031e-01 4.677737303510656752e-01 -8.527397519082811073e-01
-1.044393040285044594e-01 6.184225242075544471e-02 -8.455390473546964270e-01 9.698887793427669601e-01 4.588884173932410854e-02 -2.391860570953511789e-01
-2.577152748537744203e-02 -1.813248705056184351e-01 -1.001914680404673463e+00 2.405294340728865166e-01 -4.661129897060075633e-01 8.514013578635545310e-01
-3.364181145699641357e-02 -1.759401061309771863e-01 -9.967939509391200437e-01 2.324277365308445031e-01 -4.677737303510656752e-01 8.527397519082811073e-01
-7.152616976342625332e-02 1.320981102053531142e-01 -8.179493819284923140e-01 2.391209465042829219e-01 -4.651303674013728129e-01 8.523349777311498565e-01
7.605529325607510160e-02 -6.165090103157888635e-02 -9.582310657777334262e-01 -2.388240930821775299e-01 4.678870909709981762e-01 -8.509081752258418341e-01
7.126602766702659630e-02 -4.796711718248380940e-02 -9.550797293337781602e-01 2.261886165285284800e-01 -4.680188867730242230e-01 8.542815878717329170e-01
-7.079589629436955356e-02 6.878523437906580891e-03 -8.863611741579701109e-01 2.336236349231899934e-01 -4.645275567437498476e-01 8.541862479757903470e-01
-4.903862033847271318e-02 1.627549779703169053e-01 -8.075229150618553620e-01 2.371027545729170738e-01 -4.636694334975149934e-01 8.536937039793771609e-01
-7.384595163684863628e-02 -6.481574220447521018e-02 -9.190904237457249160e-01 -2.261886165285285077e-01 4.689422759205597591e-01 -8.537750591387380794e-01
2.601704858098750558e-02 1.081104984415397624e-01 -8.576894224794573418e-01 2.321712424661286911e-01 -4.632043104902598407e-01 8.553001116070177989e-01
-4.923116948217828165e-02 -1.840055356664495045e-01 -9.935635759271114198e-01 7.973699278542352165e-01 5.936876075517398821e-01 1.083338487880068368e-01
6.293182998363230918e-02 1.497098579152103814e-01 -8.393664711543462609e-01 -3.490885184187139112e-01 8.882994737400636831e-01 2.984313174942488933e-01
-3.688984390382728934e-03 -3.060176378821470311e-01 -1.068945973809499961e+00 3.007350076239562187e-01 4.573764842447041734e-01 -8.368782509119071511e-01
-2.634567976209111276e-02 -1.831011431894963848e-01 -9.970253969542710593e-01 -2.255046746186969153e-01 4.781242821311091906e-01 -8.488491105972409967e-01
-3.231818480502047369e-02 -1.306345543100010109e-01 -9.723021884905608259e-01 2.324277365308445031e-01 -4.677737303510656752e-01 8.527397519082811073e-01
2.063438614250045350e-02 -3.289692038175710299e-03 -9.168797281779608177e-01 2.324277365308445031e-01 -4.677737303510656752e-01 8.527397519082811073e-01
3.424255253392989584e-02 -9.549075273830152921e-02 -9.710604900286025076e-01 2.324277365308445031e-01 -4.677737303510656752e-01 8.527397519082811073e-01
-4.758051531084480333e-03 8.546400216270266803e-02 -8.641229388501631137e-01 7.162978041095722226e-01 -3.285120926497626104e-01 6.156275341557415626e-01
3.803604504381274259e-02 9.394262644992491806e-02 -8.624762996574411034e-01 -2.324277365308445031e-01 4.677737303510656752e-01 -8.527397519082811073e-01
-5.278772852214995426e-02 -5.242592531184835092e-02 -9.237156276396293331e-01 2.324277365308445031e-01 -4.677737303510656752e-01 8.527397519082811073e-01
-4.267348865422326137e-02 1.491150377679064387e-01 -8.104193365691264583e-01 -2.315028137192413626e-01 4.620662772757230252e-01 -8.560964914334299181e-01
7.587096954828576045e-02 8.946537788008045167e-02 -8.839628867901196951e-01 2.343882414928062652e-01 -5.208726215785127733e-01 8.208251119086436010e-01
1.466833604560343306e-02 -9.075127790724517307e-02 -9.631517839611064558e-01 2.337196683972267153e-01 -4.706769223035190408e-01 8.507869012950172172e-01
5.002907077980091322e-02 -2.293930607701346724e-03 -9.184305166505911666e-01 -2.324277365308445031e-01 4.677737303510656752e-01 -8.527397519082811073e-01
6.504766554828227132e-03 -3.150130558595078956e-01 -1.082585159056236312e+00 -8.841497619023155341e-01 -2.296140010801437092e-01 4.068864817563327962e-01
8.998324047860252473e-02 -3.325638140159919987e-02 -9.465723896871863774e-01 -2.515328395298805364e-01 4.674538762836817352e-01 -8.474774947958179094e-01
-1.239389419203844843e-03 1.443183910720951570e-02 -8.928817888919854395e-01 -1.508360777722080326e-01 4.756475610287309586e-01 -8.666071055153632408e-01
-4.970998652773567922e-02 -1.769311026666567088e-01 -9.875015353900085113e-01 -1.957889102793535230e-01 4.950310479206278536e-01 -8.465287734071583747e-01
5.018500754087372451e-02 2.467581035488146390e-02 -9.036786626645415543e-01 -2.324277365308445031e-01 4.677737303510656752e-01 -8.527397519082811073e-01
4.159094758118450641e-02 4.750248239945620288e-02 -8.948707129478172817e-01 2.314463010537265164e-01 -4.651946235045721356e-01 8.544159244717921542e-01
-2.728580873042200147e-04 -2.155597856931058820e-01 -1.027051364505408015e+00 2.031465611496255375e-01 -3.584517254146762366e-01 9.111771700609727631e-01
4.572471391028780363e-02 1.520754870037130391e-01 -8.316280206423899424e-01 1.091145752479364406e-01 -3.826198141315360068e-01 -9.174399638681602909e-01
2.763574496570204986e-02 5.396578367607361183e-03 -9.081082019181662135e-01 -2.324277365308445031e-01 4.677737303510656752e-01 -8.527397519082811073e-01
4.314949128852949706e-02 6.804321396947903000e-02 -8.850711359736087580e-01 2.204815446880670562e-02 4.029260491480411016e-02 9.989446355397777477e-01
-1.698245550891626376e-02 -1.361775894355035099e-01 -9.736078682879140134e-01 -2.324277365308445031e-01 4.677737303510656752e-01 -8.527397519082811073e-01
4.292321999520140596e-02 -2.251469990455864587e-02 -9.253004531341854078e-01 1.459921568426401570e-02 -1.938056993865124727e-02 -9.997055848649928356e-01
-1.316344639351480633e-02 1.075022525719046690e-01 -8.410828806703141147e-01 -2.324277365308445031e-01 4.677737303510656752e-01 -8.527397519082811073e-01
3.007242839297342638e-02 2.166826850294469309e-01 -7.994022763620826089e-01 2.051720866423261957e-01 -4.921084418342431266e-01 8.460104587641380514e-01
6.077923901315124972e-02 -9.651121872506064625e-02 -9.714358107692619981e-01 -6.320925142377320678e-03 -2.441712224266055081e-02 -9.996818744214238661e-01
-2.897153437224852038e-02 6.161837522968948572e-02 -8.618776486057541097e-01 -2.331470414414851533e-01 4.653221936580622664e-01 -8.538838991082635665e-01
-8.100774687092181583e-03 -1.078078018498673379e-01 -9.604663531033378332e-01 -2.324277365308445031e-01 4.677737303510656752e-01 -8.527397519082811073e-01
2.343142463033947437e-02 -6.898967365848066892e-03 -9.196219874702881159e-01 2.324277365308445031e-01 -4.677737303510656752e-01 8.527397519082811073e-01
-1.675704195575970085e-02 1.076138942434378826e-01 -8.400421477600568121e-01 -2.324277365308445031e-01 4.677737303510656752e-01 -8.527397519082811073e-01
-8.258351338482558535e-02 1.152020269188889362e-01 -8.183787117979625103e-01 -2.126601409873375703e-01 4.651191387945253219e-01 -8.593252301441434149e-01
-7.945034303575990164e-02 -6.180785384788791553e-02 -9.159523587054730909e-01 -2.264002969974591994e-01 4.690386567892808611e-01 -8.536660025775710814e-01
-5.123887626723287562e-03 1.394820670254888484e-01 -8.322219673116122429e-01 2.327078889133547823e-01 -4.637237251591657672e-01 8.548727069932671174e-01
6.434741763344233034e-02 -1.390439522746208800e-01 -1.003007024263543157e+00 2.130885807857851866e-01 -4.626890344838390234e-01 8.605301355020128495e-01
-3.507067628575495644e-02 -1.133973852255358294e-01 -9.620234005602482652e-01 2.308323943409222034e-01 -4.710169675275567291e-01 8.513867640643595358e-01
1.221556735647377594e-02 5.865352210022045654e-02 -8.836418556325489337e-01 2.033926041345966440e-01 -3.942544866166662887e-01 8.962113859832268048e-01
4.870088123220814367e-04 -6.879409738393418849e-03 -9.048693858730222361e-01 -1.485314925313906687e-01 4.756102538258298873e-01 -8.670255372145200257e-01
6.521523779117648079e-02 -4.113628935477990634e-02 -9.496862326086474848e-01 2.324277365308445031e-01 -4.677737303510656752e-01 8.527397519082811073e-01
-1.148018808632873290e-02 1.296082048154702793e-01 -8.373296228821525133e-01 3.781463712730563365e-01 1.194082963464083574e-01 9.180125166122018454e-01
-1.702954917582670535e-02 -3.110822310120027467e-02 -9.159588197942628574e-01 -2.324277365308445031e-01 4.677737303510656752e-01 -8.527397519082811073e-01
-7.004661872933327753e-03 1.393312827370582138e-02 -8.999654592614755311e-01 2.332807600482176835e-01 -4.648362968346697044e-01 8.541119974197510789e-01
-6.589904049475324432e-02 3.337528072705884391e-02 -8.673372035276206704e-01 -2.288081502338440987e-01 4.652693849762454814e-01 -8.550855102212836512e-01
-7.171201660578949144e-02 6.927267709504152104e-02 -8.550078984865636667e-01 2.128141821502476660e-01 -5.210429803611446031e-01 8.265738542272537126e-01
4.673654974559451197e-02 -1.022134968478842360e-01 -9.782013885770322048e-01 2.338586211423727135e-01 -4.707753334704306569e-01 8.506942639475084667e-01
-1.026358505496444140e-01 7.342047660746059412e-02 -8.393861569808453993e-01 9.633162337312225487e-01 -1.022143093721702631e-02 -2.681741154166230046e-01
-4.982654363655678043e-02 1.376467901714611142e-01 -8.209819339456494447e-01 2.373257741165931967e-01 -4.625654305266945210e-01 8.542304720750796276e-01
-1.878487211140464569e-03 2.119726362852691198e-02 -9.003503724316394008e-01 3.150041100179914455e-01 -4.539979913004300038e-01 8.334615975358118378e-01
-7.112197742060284711e-02 -1.491756477767775257e-01 -9.715076653159485653e-01 3.023835240478223718e-01 -4.334571379053058227e-01 8.489282148588068733e-01
-8.354106368664362958e-02 1.819776598126935513e-02 -8.709559446880063005e-01 -2.268684867147391648e-01 4.683182665035581227e-01 -8.539371704024052434e-01
7.402128311901412516e-02 8.605357339957704632e-02 -8.855071973328515478e-01 1.921582035094238916e-01 -3.952693591666259221e-01 8.982412585313790387e-01
5.665951252195637611e-02 5.545598097417991229e-02 -8.946236462602730199e-01 2.314374189931237280e-01 -4.651036373424035086e-01 8.544678622515111677e-01
-3.992613219605508496e-02 -1.217370385603165350e-01 -9.640867689283955100e-01 3.971003657038969514e-01 7.322943474401271136e-01 5.532235427610340261e-01
3.358256728724814651e-04 2.433729102748451861e-02 -8.991732286545048858e-01 1.773365934289143075e-01 -4.682441780934942233e-01 8.656206572815692279e-01
2.297367528299902942e-02 -2.007062472938071496e-01 -1.020919612625191597e+00 -3.804851313514241440e-01 5.960986900565554691e-01 -7.070342400006861538e-01
4.849680905079510607e-02 -1.666256769964623852e-01 -1.008571463271171087e+00 -2.553786960842165388e-01 4.868402001485118147e-01 -8.353252905938394202e-01
-3.153240752092540539e-02 1.743801843582883093e-01 -7.996783893062242576e-01 -2.278572762392038209e-01 4.615013578826534513e-01 -8.573783052639705193e-01
-5.731346815106860143e-02 1.011514080714383777e-02 -8.882881674105681524e-01 2.335702335199062729e-01 -4.646728406284164059e-01 8.541218280759336201e-01
7.614415227059762297e-04 1.901323442572458167e-01 -8.062434609658047924e-01 2.132892596696794596e-01 -4.643210083443479186e-01 8.596008916466104655e-01
-6.277402455918056068e-02 7.869800912451785369e-02 -8.494479731821402702e-01 2.335416215609812940e-01 -4.621179162443129762e-01 8.555146652656991924e-01
-6.577649357108480976e-02 7.737929710936752338e-04 -8.852421670057744052e-01 -2.277828025825611724e-01 4.683315216657320534e-01 -8.536864650806489374e-01
1.689991103339543235e-02 1.715561451174399399e-01 -8.144170388986647913e-01 -2.339152896989750985e-01 4.630898048190578153e-01 -8.548868170218156814e-01
-5.933030621842431962e-02 3.260943617187600507e-02 -8.754991688947477702e-01 2.334154749363115677e-01 -4.648762943275814297e-01 8.540534216502573273e-01
1.636673762753062047e-02 1.605625825335443013e-01 -8.202237105234632120e-01 -2.330815219360238832e-01 4.629510940435766497e-01 -8.551896214617212832e-01
4.359056837525103131e-03 1.600212610205972164e-01 -8.236323117021778772e-01 2.329798249629925211e-01 -4.655072520460593055e-01 8.538286710182201311e-01
-5.949992840257933846e-02 1.754374650464047558e-01 -7.975986587554420026e-01 2.530478596788620638e-01 -4.745872784972248737e-01 8.430502332604767890e-01
2.804757128848746339e-02 -5.185438881472560768e-02 -9.396256939607160463e-01 -2.324277365308445031e-01 4.677737303510656752e-01 -8.527397519082811073e-01
9.017982730747445969e-03 9.709607961462608794e-02 -8.590529918437461721e-01 2.315896681056577033e-01 -4.637230634597706014e-01 8.551766753380245500e-01
7.650152909223546793e-02 1.469976821383301990e-01 -8.500588976670199193e-01 2.211697277009312124e-01 -4.681988029745445257e-01 8.554962492272538688e-01
5.029684447456582832e-04 -2.849783811070258910e-01 -1.057416338247842758e+00 -1.590467012517434719e-01 4.748231306901496418e-01 -8.655906315242465343e-01
4.254906649619303455e-02 2.061691118011191592e-01 -8.085498264353200293e-01 1.985417399290617668e-01 -4.964733467337326123e-01 8.450416519254821957e-01
-7.956686297204985936e-02 -1.123614583516349824e-01 -9.491542811082576137e-01 2.442207892110728196e-01 -4.641827557109786118e-01 8.514050595443291014e-01
-6.331311264327402905e-03 -4.881773976029921136e-02 -9.319810858876862447e-01 9.902295236643400278e-01 1.389845111340238248e-01 1.134883819297541167e-02
1.005464864169144656e-01 6.794031142438211601e-02 -8.992971008972379110e-01 1.978650841243829173e-01 -4.705358811476005876e-01 8.599101075328176025e-01
4.372255872695076512e-02 1.151498990218201117e-02 -9.150516093410280272e-01 2.324277365308445031e-01 -4.677737303510656752e-01 8.527397519082811073e-01
1.758787735415029765e-02 -1.169119884522798192e-01 -9.704470183664228866e-01 -7.841487311257848425e-02 1.297525230269458985e-01 -9.884408886943518713e-01
9.540191937313501069e-02 7.164898092737183311e-02 -8.906951625974127706e-01 -2.500613419191760056e-01 4.645432872157936321e-01 -8.495109531844341477e-01
-8.847299820678847238e-03 -5.994995032896026366e-02 -9.398196213892534567e-01 2.324277365308445031e-01 -4.677737303510656752e-01 8.527397519082811073e-01
-1.465708528846379477e-03 1.792419401681344393e-02 -9.022892668154151030e-01 3.150041100179914455e-01 -4.539979913004300038e-01 8.334615975358118378e-01
8.126798493734367634e-02 -7.113269655930830326e-02 -9.649078450770265380e-01 -2.388240930821775299e-01 4.678870909709981762e-01 -8.509081752258418341e-01
-7.803570238410727222e-02 -6.373015655590141826e-02 -9.173837257039226811e-01 -2.264002969974591994e-01 4.690386567892808611e-01 -8.536660025775710814e-01
2.231891718065735948e-03 -2.440128633200079611e-01 -1.035465887705167232e+00 -3.102569984398063641e-01 4.572117212856318669e-01 -8.334854748813272929e-01
-4.541867597070965018e-02 -1.212472914296303939e-01 -9.608227132454447705e-01 3.936738744711499316e-01 7.330370843141015280e-01 5.546868608315451699e-01
-3.749218680384153179e-02 1.466466540251921968e-01 -8.131527233630122531e-01 -2.315028137192413626e-01 4.620662772757230252e-01 -8.560964914334299181e-01
3.068874830416247132e-03 1.342473288516553565e-01 -8.372889085704361412e-01 2.326146463936173692e-01 -4.637354290527589407e-01 8.548917347386308929e-01
8.622421907114442494e-03 1.234948020328058699e-01 -8.382790146656541319e-01 -2.322775897115669785e-01 4.657341702052498755e-01 -8.538962489793547883e-01
-2.587426297808532311e-02 -1.549468950070380380e-01 -9.873952112296011663e-01 2.324277365308445031e-01 -4.677737303510656752e-01 8.527397519082811073e-01
-5.006364847578131938e-02 5.738608326913588464e-02 -8.560296874724614424e-01 -1.521030415553563733e-02 8.828332494802110242e-01 -4.694401988109958013e-01
9.413096247606207376e-03 -1.006575409725771336e-01 -9.613177326409603207e-01 -2.324277365308445031e-01 4.677737303510656752e-01 -8.527397519082811073e-01
6.034118517951634481e-02 4.051086123264400346e-02 -9.037534932247703878e-01 2.313503509108216505e-01 -4.648689686750724359e-01 8.546191298446427220e-01
-1.208777941337592149e-03 -1.231665984199771940e-01 -9.766849740110032929e-01 2.324277365308445031e-01 -4.677737303510656752e-01 8.527397519082811073e-01
-2.148873087288741962e-02 -1.482699312047544848e-01 -9.849278828802303654e-01 2.324277365308445031e-01 -4.677737303510656752e-01 8.527397519082811073e-01
-1.927759229372080774e-02 1.941308038893166665e-01 -7.986374821751538455e-01 2.306197331350765545e-01 -4.649309313460030513e-01 8.547828775580640359e-01
-5.608975683350666402e-03 1.549362938244214227e-01 -8.236914079609948258e-01 2.319037096980495205e-01 -4.656308738813950132e-01 8.540541895668748440e-01
7.070669583188515794e-02 -8.817485346232398560e-03 -9.361187203580761951e-01 2.089525033341509408e-01 -4.203587833772499116e-01 8.829707495653464910e-01
-6.765185188582312215e-02 1.705481104207912657e-01 -7.961179407662849483e-01 7.804285499150226402e-01 -4.335323928128188564e-01 -4.505340640390319562e-01
1.569063022967230603e-02 -6.308196620707258451e-02 -9.424165453471470277e-01 -2.324277365308445031e-01 4.677737303510656752e-01 -8.527397519082811073e-01
4.877904618288980698e-02 1.743241367259041608e-01 -8.278336922758626759e-01 2.277435117772187989e-01 -4.647451151439080941e-01 8.556546445811273882e-01
-2.033882001108505699e-02 -3.812604086223842642e-02 -9.164621584479144545e-01 -2.550314830366517405e-01 4.156563515799877595e-01 -8.730342147083008930e-01
-2.272565950362733997e-02 2.017963406912518798e-01 -7.934728992139009618e-01 2.402832964583027919e-01 -4.670462508319747630e-01 8.509593039781204737e-01
6.187411388080705024e-03 -6.140900608085777613e-05 -9.084473502381599230e-01 -8.784363232494653007e-01 -2.274363205033728408e-01 4.202646143941315970e-01
1.551849168279748233e-02 1.562199966760359493e-01 -8.286951938661685224e-01 2.249463955838861551e-01 -4.640500057599362682e-01 8.567710961908208134e-01
-8.677946517803357407e-02 -7.562957400452816059e-02 -9.270165913510697298e-01 2.523545990026999086e-01 -4.622999082612265775e-01 8.500564399990439002e-01
-1.491672612789655093e-02 5.166165143639863538e-02 -8.711408623761829340e-01 -2.331341025463287975e-01 4.653991791684655710e-01 -8.538454744619989878e-01
5.710758779565378029e-02 1.256185073709798206e-01 -8.565379342313010902e-01 2.322934116396846160e-01 -4.649957662017005777e-01 8.542942750149327136e-01
-6.511159434372730537e-02 -1.266911010769367907e-01 -9.610648530772879505e-01 2.410021941667936651e-01 -4.652090918307896783e-01 8.517619639809956844e-01
1.286754009374153776e-03 -7.291917048280267821e-02 -9.438867774904519115e-01 -2.324277365308445031e-01 4.677737303510656752e-01 -8.527397519082811073e-01
1.199324907564085912e-02 -6.257112995103467946e-03 -9.161522396827068704e-01 2.324277365308445031e-01 -4.677737303510656752e-01 8.527397519082811073e-01
-5.687038784439919087e-02 6.743881470510011689e-02 -8.511468166957231185e-01 -2.324277365308445031e-01 4.677737303510656752e-01 -8.527397519082811073e-01
6.357412476761798228e-03 9.007720698350279998e-02 -8.555626274702199385e-01 -9.997420471449520729e-01 1.386442548995770602e-02 -1.798935452576747376e-02
3.275828930875822331e-02 -1.504549588525351533e-02 -9.207180124638181251e-01 -2.324277365308445031e-01 4.677737303510656752e-01 -8.527397519082811073e-01
-5.320132791613561146e-02 -2.718795559403888729e-02 -9.098051153776333111e-01 2.337018768501353538e-01 -4.644722594470280796e-01 8.541949150872397700e-01
-7.223250627598190587e-02 -1.055739671844253547e-01 -9.501903069272007452e-01 2.298505279974015769e-01 -5.149257063654117950e-01 8.258451741721311024e-01
3.903523016627477582e-02 4.502379245180426065e-02 -8.955279594698904999e-01 2.314463010537265164e-01 -4.651946235045721356e-01 8.544159244717921542e-01
-3.447491916969412651e-02 -1.151538904299714977e-01 -9.573073876154551964e-01 -2.324277365308445031e-01 4.677737303510656752e-01 -8.527397519082811073e-01
4.955997370611901071e-02 2.209857172435809869e-02 -9.108526062619189956e-01 2.312825968429732537e-01 -4.649879602572616344e-01 8.545727337174769955e-01
-4.662014325418319116e-02 3.874487169280903254e-02 -8.695752456216235826e-01 -2.324277365308445031e-01 4.677737303510656752e-01 -8.527397519082811073e-01
-4.064473939495942545e-02 -1.791336736364514681e-01 -9.910278436063650886e-01 -2.205676777949794054e-01 4.803248563289231887e-01 -8.489039591760243475e-01
-8.046068807336657913e-02 1.325773390039448052e-01 -8.095300453611490310e-01 -2.088430630671231358e-01 4.587991354027955437e-01 -8.636480350017528007e-01
-3.872426514837833122e-02 -4.801472495948546325e-03 -8.956149099983472528e-01 -2.324277365308445031e-01 4.677737303510656752e-01 -8.527397519082811073e-01
-5.417785134879158498e-02 1.816603067581750719e-01 -7.956874356120386960e-01 2.466725345098202682e-01 -4.748761107190555553e-01 8.447753193523379611e-01
-9.107233450100575903e-03 3.685239481865219824e-02 -8.808381094226641617e-01 -2.324277365308445031e-01 4.677737303510656752e-01 -8.527397519082811073e-01
5.560390594472143511e-02 -7.587586252647048057e-02 -9.603302182374370277e-01 -2.378186265506264108e-01 4.675715004884862247e-01 -8.513631380301351914e-01
8.812998807303502879e-02 -9.432570882420540648e-02 -9.841831397796855230e-01 -7.186674018050434043e-01 -6.151172932392923870e-02 6.926279468360829750e-01
1.488858164530879220e-02 1.727401400435782108e-01 -8.195720055365266488e-01 2.331723567734314828e-01 -4.654334240896019770e-01 8.538163618583052283e-01
4.849286847574205833e-02 5.261875242432073607e-02 -8.939549577765444344e-01 2.315716062769676009e-01 -4.650843965285548220e-01 8.544419788797685822e-01
-7.933553712907859138e-04 -5.676488895888141817e-02 -9.402676737278276020e-01 2.324277365308445031e-01 -4.677737303510656752e-01 8.527397519082811073e-01
5.623585052948040092e-02 8.588409633354689154e-02 -8.718574833891927778e-01 -2.324277365308445031e-01 4.677737303510656752e-01 -8.527397519082811073e-01
-8.351593778161937875e-02 2.379318994031825313e-02 -8.736226193845926247e-01 2.391081277382033354e-01 -4.640229530053620599e-01 8.529419689133103111e-01
-5.863791630160993668e-02 -3.479024687692847118e-02 -9.124515106860598967e-01 2.336925903918940228e-01 -4.644734827153692569e-01 8.541967905876152178e-01
8.415498328678779061e-03 7.779113567987970546e-02 -8.632548819925358607e-01 -2.319897946035188729e-01 4.655295013395496229e-01 -8.540860721159007074e-01
-5.219086639555487600e-02 5.906536408807741556e-02 -8.630479753066498949e-01 2.331825229332924188e-01 -4.652226736325361656e-01 8.539284366600395915e-01
-2.121060240362591248e-02 9.425798994509494710e-02 -8.523664594836160013e-01 2.326570326700840574e-01 -4.634163754805949442e-01 8.550531960559997202e-01
-2.062679492630158096e-02 -2.184615411311525979e-02 -9.098975892285632305e-01 -2.324277365308445031e-01 4.677737303510656752e-01 -8.527397519082811073e-01
-8.024294401154849488e-02 -5.919072617157764699e-02 -9.198844901667293517e-01 2.384461606556686764e-01 -4.664906599023454503e-01 8.517804251639300439e-01
-3.074983794062923284e-02 5.199894425134919673e-02 -8.727522063844282973e-01 2.332456933904686058e-01 -4.649851966763196565e-01 8.540405220987373758e-01
2.156161213460438056e-02 -1.646904217927304126e-01 -9.998175781753873004e-01 -2.349287489928974237e-01 4.709612736466666782e-01 -8.502963963358551869e-01
7.101138642139435964e-02 6.856992903367804815e-02 -8.853825441868866664e-01 -2.324277365308445031e-01 4.677737303510656752e-01 -8.527397519082811073e-01
-7.473509443322328208e-03 3.206351056202426386e-02 -8.839103680104586358e-01 -2.324277365308445031e-01 4.677737303510656752e-01 -8.527397519082811073e-01
-6.365112239865923505e-02 -1.617031011082665781e-01 -9.754633646127719437e-01 -1.593183007734753631e-01 5.086590757892459624e-01 -8.460990625546649380e-01
-3.114330339760857519e-02 -1.861364636551670892e-01 -9.974734384088790318e-01 -2.164411649596099385e-01 4.868617506485262703e-01 -8.462380621706749873e-01
-3.034065393314955977e-02 -1.529989506990206694e-01 -9.851092730975243850e-01 2.324277365308445031e-01 -4.677737303510656752e-01 8.527397519082811073e-01
-8.848066441303550911e-03 -8.103022025882937462e-02 -9.513830770578081131e-01 2.324277365308445031e-01 -4.677737303510656752e-01 8.527397519082811073e-01
9.835810177409169686e-02 2.035116383239637255e-02 -9.195728812617430803e-01 -2.500528555536723485e-01 4.658930868145333415e-01 -8.487739399203300117e-01
-3.798191822307762922e-02 -3.716742626607862088e-02 -9.135717191100668488e-01 -2.324277365308445031e-01 4.677737303510656752e-01 -8.527397519082811073e-01
-5.801262753111281062e-02 1.048829856954741103e-02 -8.819849021942137712e-01 -2.278158931998260361e-01 4.682420869635711136e-01 -8.537266932699041355e-01
4.209209699069334752e-03 6.980715296412123849e-02 -8.725404581938810411e-01 2.312958198946793442e-01 -4.633520479007382509e-01 8.554572598356039448e-01
5.094759292886183455e-02 -9.144448401603257059e-02 -9.733945929271573538e-01 2.281714072954297290e-01 -4.708425839409081659e-01 8.522001349687010618e-01
-5.367531489289403303e-03 -1.669779566132915949e-01 -9.948009299356455060e-01 8.900361864264760836e-01 2.173835456013135381e-01 -4.007243203914840901e-01
6.603371155342778465e-02 -6.603107941845030859e-02 -9.635654551872527840e-01 2.324277365308445031e-01 -4.677737303510656752e-01 8.527397519082811073e-01
8.022304829546537952e-02 -1.074901508428827701e-01 -9.847709898784734461e-01 -2.571996491169726839e-01 4.715651579052768105e-01 -8.434895626763129206e-01
-5.917059950305257783e-03 -7.309806728456254288e-02 -9.446061418886017025e-01 8.872209311888271666e-01 2.218814957181064473e-01 -4.044843892146227082e-01
7.397939110304418975e-02 1.663722353817958521e-01 -8.387783559378845233e-01 2.180808565951818934e-01 -4.695878131518199106e-01 8.555279222363249003e-01
-9.135230125822063618e-02 8.096867160187916357e-02 -8.346929086558163569e-01 -2.141266821054931546e-01 4.677310467468724919e-01 -8.575415044880148052e-01
1.165448826495781715e-02 -1.470723165380984909e-01 -9.933315097831878493e-01 2.252969153135643277e-01 -4.714521926803044161e-01 8.526277792607545036e-01
4.551026914583095051e-02 7.753316202198126672e-02 -8.772617640613747936e-01 3.461318820319460587e-01 -8.759817096503087486e-01 -3.359297018710087901e-01
6.285124617588730422e-02 1.867340377592206502e-01 -8.193048203816729602e-01 -2.975091189450421725e-01 4.141155956081188361e-01 -8.602305491080154409e-01
1.670923920074073032e-02 -1.290783044299969595e-01 -9.788967331512090642e-01 -2.324277365308445031e-01 4.677737303510656752e-01 -8.527397519082811073e-01
8.596995016469967388e-02 -1.203411719960061120e-03 -9.251735482699826596e-01 2.135223587797157804e-02 -3.497047147449390547e-02 -9.991602214599333287e-01
3.490190017957852525e-02 -3.083657249855628266e-02 -9.273817536054405064e-01 -2.512394561136641058e-01 5.138341536146155963e-01 -8.202762938613197274e-01
-8.765083729448100436e-02 -8.119012904725865509e-02 -9.297819951695622809e-01 2.523545990026999086e-01 -4.622999082612265775e-01 8.500564399990439002e-01
6.450135553880373060e-03 -2.468651225717769793e-01 -1.042336583994468491e+00 -9.997329242095879254e-01 8.802758892262219775e-03 -2.136800615945623483e-02
-2.414596953653171119e-02 -2.990529478049133282e-03 -8.985950556698912850e-01 -2.324277365308445031e-01 4.677737303510656752e-01 -8.527397519082811073e-01
-9.620440731078223895e-02 6.167454873602479237e-02 -8.440049884467734076e-01 -2.141266821054931546e-01 4.677310467468724919e-01 -8.575415044880148052e-01
6.912902174246556009e-02 -7.962891875689921684e-02 -9.661689362146541615e-01 -2.390681077883524130e-01 4.677396497970426337e-01 -8.509207130198657154e-01
4.475316077550933053e-02 1.030769089246068720e-01 -8.592965096034880235e-01 -2.324277365308445031e-01 4.677737303510656752e-01 -8.527397519082811073e-01
-8.945341061689816853e-02 -1.059790701338284152e-01 -9.426043797926216827e-01 2.755444469493383286e-01 -4.526297129926429852e-01 8.480575456132565249e-01
-5.889414233336968951e-02 1.433246897919762397e-01 -8.069763978113083658e-01 -3.645153689435938760e-01 -4.413979221963719168e-01 -8.199368390825243491e-01
1.562234853284118837e-04 -1.309616482896411305e-01 -9.727777488056844613e-01 -2.324277365308445031e-01 4.677737303510656752e-01 -8.527397519082811073e-01
2.643364289790640204e-04 -7.903303319179326436e-02 -9.527712421178884394e-01 2.324277365308445031e-01 -4.677737303510656752e-01 8.527397519082811073e-01
6.840738076434058068e-02 -1.645892323470950214e-02 -9.321657686456591430e-01 -4.246155403456961519e-01 8.455754381002925646e-01 3.235796986500091288e-01
3.964693699793155057e-02 -3.375842846153585819e-02 -9.386700324475365509e-01 2.324277365308445031e-01 -4.677737303510656752e-01 8.527397519082811073e-01
-5.226215243637757912e-02 -1.098511913796292455e-01 -9.553846343044996026e-01 2.367035369904107456e-01 -4.698592472601983983e-01 8.504138541559097542e-01
7.645546220204850474e-03 9.995453757404988704e-02 -8.571305308168064574e-01 2.321237432634877251e-01 -4.636595564403302450e-01 8.550663035899043196e-01
3.390669149311134611e-02 8.791517530955310356e-02 -8.707761882173765677e-01 2.319082479968266608e-01 -4.653625340414530576e-01 8.541992018385170526e-01
-5.594479574709808681e-03 -1.207117693540996767e-01 -9.682280054726822849e-01 -2.324277365308445031e-01 4.677737303510656752e-01 -8.527397519082811073e-01
-1.721597330806138183e-03 -5.314029449160816154e-02 -9.380263811783805528e-01 2.324277365308445031e-01 -4.677737303510656752e-01 8.527397519082811073e-01
6.707664330326794377e-02 2.295457714001875038e-02 -9.092861153410413122e-01 -2.370673751225476356e-01 4.672644220622833577e-01 -8.517411693274579143e-01
-5.547596199223597119e-02 5.964988360508534371e-02 -8.557995382227787662e-01 -2.324277365308445031e-01 4.677737303510656752e-01 -8.527397519082811073e-01
-4.481540183896589799e-03 -8.977237130340814941e-02 -9.598751807531000768e-01 6.866384979368795882e-01 -3.522545082428916174e-01 6.359593812292922976e-01
6.674310481613587864e-02 1.672703871437759837e-02 -9.126097025429095178e-01 -2.370673751225476356e-01 4.672644220622833577e-01 -8.517411693274579143e-01
-6.399548651410991683e-03 8.437635800870554870e-02 -8.619986093568524632e-01 9.999837584852635519e-01 2.079498259617125911e-03 5.306453869954310017e-03
-1.018379465066799189e-01 -6.573053928156199176e-03 -8.848853739155115861e-01 2.669021689455512991e-01 -4.621601568753196387e-01 8.456779656637273268e-01
2.385196004421387406e-02 -1.946034400023712030e-02 -9.207122334672764863e-01 -2.324277365308445031e-01 4.677737303510656752e-01 -8.527397519082811073e-01
-6.873598137362538218e-02 1.533111868868815009e-01 -8.071574189171945024e-01 2.392411128922410646e-01 -4.637599676197655674e-01 8.530477022625381212e-01
6.862411053814685032e-03 -3.373007191528676341e-01 -1.094023838779801361e+00 -9.999882839157304693e-01 1.823107380577442200e-03 -4.484229114494338655e-03
4.000088285301389018e-02 1.574220350961617609e-01 -8.346654502451582580e-01 2.328863096989532699e-01 -4.648168610948874568e-01 8.542302104214642977e-01
2.421924328329051745e-02 -2.378314565766181596e-02 -9.290572997570031299e-01 2.311426274117379664e-01 -4.647674197477807412e-01 8.547305606646977694e-01
6.218677462879098478e-03 -1.315629473425807272e-01 -9.751479560087230603e-01 -3.462160589033875246e-01 5.088518121855543086e-01 -7.881651310435418001e-01
3.466341008676859098e-03 1.375291502893283557e-01 -8.266228461239563119e-01 -3.082414639642325760e-01 4.575269477983051059e-01 -8.340601248900187947e-01
-1.858249061491705489e-02 -5.844966298410404770e-02 -9.305337949091549987e-01 -2.324277365308445031e-01 4.677737303510656752e-01 -8.527397519082811073e-01
-3.702397384015677917e-02 1.697130708892025663e-01 -8.070784039179700331e-01 2.371539715794466763e-01 -4.640353449994357726e-01 8.534806338490344979e-01
2.679207837895911451e-02 2.062409740860526308e-01 -7.984790562467078967e-01 -2.342500832191152516e-01 4.518265459291661568e-01 -8.608017605149032025e-01
-3.715662355846846565e-03 1.071439454276188474e-01 -8.530724212286692199e-01 3.108116399524261664e-01 -4.539440330934605417e-01 8.350634342904295071e-01
2.778797442343798607e-02 -1.439999682594289565e-01 -9.901017551788461324e-01 -2.324277365308445031e-01 4.677737303510656752e-01 -8.527397519082811073e-01
-1.326510522772765717e-02 -4.036954990607351246e-02 -9.220652157515487612e-01 -2.324277365308445031e-01 4.677737303510656752e-01 -8.527397519082811073e-01
5.767828824589842779e-02 8.334275257129904191e-02 -8.736447067265291633e-01 -2.324277365308445031e-01 4.677737303510656752e-01 -8.527397519082811073e-01
8.777363306238826490e-02 4.116680586039487416e-02 -9.050723064008295848e-01 -2.380071953686375974e-01 4.670183718334474654e-01 -8.516140060630701392e-01
6.660716925486882822e-02 -8.849888655629559175e-02 -9.760384177833033581e-01 2.250098055313853040e-01 -4.675370404164237992e-01 8.548565395745530981e-01
-1.380027012676636250e-03 1.315058253023460855e-01 -8.375663223219118603e-01 2.322368176019663222e-01 -4.637967847523535303e-01 8.549611704653551358e-01
1.826499817418410178e-03 1.692676511894969926e-01 -8.115400632222775634e-01 -2.328299640096223033e-01 4.633380657667088842e-01 -8.550485627558488400e-01
1.829873655873225091e-02 -1.019974797126105420e-01 -9.644746834011251879e-01 -2.324277365308445031e-01 4.677737303510656752e-01 -8.527397519082811073e-01
-6.548375538965870574e-03 -3.696612045227168353e-01 -1.106871597222486514e+00 8.897702630667653212e-01 2.190178772435672216e-01 -4.004248349064035706e-01
5.680685288268260552e-02 -6.656474241877020047e-03 -9.226725208616602947e-01 -2.371535645755977473e-01 4.673008408255339141e-01 -8.516971944140927508e-01
3.373964006389960912e-02 -1.394819178087270406e-01 -9.892455817235751292e-01 -2.324277365308445031e-01 4.677737303510656752e-01 -8.527397519082811073e-01
1.001705732354895156e-01 -2.450624002050972791e-02 -9.495958116332362531e-01 1.946246518100481493e-01 -4.660661638542500929e-01 8.630779662452292555e-01
5.489485330497984039e-02 1.199759655636167544e-01 -8.590081226181432994e-01 2.322986059597645925e-01 -4.651023774285187318e-01 8.542348249629547752e-01
-1.057727435877159512e-02 1.327916921924988669e-01 -8.279825485287698461e-01 -2.321555997937340965e-01 4.657407060153023748e-01 -8.539258587516711518e-01
-4.903158809323494849e-03 -1.184918966909894317e-01 -9.731136860040106029e-01 2.324277365308445031e-01 -4.677737303510656752e-01 8.527397519082811073e-01
8.583128272549021831e-02 -1.484554270130169660e-03 -9.361517923239991434e-01 1.765951175935923378e-01 -4.226720512382457495e-01 8.889108512917136551e-01
-6.058658995337583286e-02 -5.113971945355692827e-02 -9.208843710728901177e-01 2.324277365308445031e-01 -4.677737303510656752e-01 8.527397519082811073e-01
1.881349311538621852e-02 8.503694291285125370e-03 -9.099280277704754338e-01 2.313295463648318839e-01 -4.650544607934737895e-01 8.545238378621936581e-01
-1.260866404070432089e-03 -1.775344598709091559e-01 -9.981766009525741001e-01 -1.508834747723621916e-01 4.753685946926589634e-01 -8.667519115759390047e-01
-3.010282318324776496e-02 5.028778352379591199e-02 -8.677453935417137609e-01 -2.324277365308445031e-01 4.677737303510656752e-01 -8.527397519082811073e-01
-7.269834562095479902e-02 3.520316244616891743e-02 -8.704338310419432734e-01 2.334154749363115677e-01 -4.648762943275814297e-01 8.540534216502573273e-01
8.952559350923665685e-03 1.915893250712680518e-01 -8.076859017012761877e-01 2.339169878322532592e-01 -4.647536705011074409e-01 8.539829439510099318e-01
5.731403526686844330e-02 -9.712178730303555607e-02 -9.724803573033671267e-01 -2.379930038365168643e-01 4.679332609571321688e-01 -8.511156169492462009e-01
3.077533946276232724e-02 1.378133890636959180e-01 -8.365043570045814780e-01 -2.322995403989990826e-01 4.654773015761278221e-01 -8.540303304027442310e-01
4.717891893274475668e-02 -1.487069781775779073e-02 -9.324941706486554738e-01 3.927199674975621058e-01 -7.957394124852217310e-01 4.610529411536030686e-01
7.496131497587966985e-02 -1.585794365859731145e-02 -9.384628178498528595e-01 2.266002877918396052e-01 -4.680959671409126166e-01 8.541302448216366860e-01
2.492244572649153500e-02 -1.091411895691385414e-01 -9.786056351685835653e-01 3.788305587085405990e-01 -8.104710070934549870e-01 4.467931897975792599e-01
-7.781000273164580261e-02 5.840941103236681892e-02 -8.563035793313169552e-01 2.333165297777026470e-01 -4.647029396934094225e-01 8.541747916982764810e-01
6.090724282000505724e-02 1.220545614726442907e-01 -8.533959619862234725e-01 -2.322934116396846160e-01 4.649957662017005777e-01 -8.542942750149327136e-01
-3.362995161694208590e-02 -1.178063548502331775e-01 -9.589927166610419107e-01 -2.324277365308445031e-01 4.677737303510656752e-01 -8.527397519082811073e-01
3.512839614673278488e-02 -1.158681939580975678e-01 -9.742919669601046717e-01 -3.543772288595049003e-01 7.427009109929035846e-01 -5.681655889581568308e-01
5.616000117550903892e-02 1.424955527001812734e-03 -9.239725088331750547e-01 2.277825723063490182e-01 -4.682726127275603223e-01 8.537188412602869647e-01
-6.723921431776873694e-03 -2.685733547190669590e-01 -1.052636702972491678e+00 9.998405503476179845e-01 -1.308218914754934875e-02 1.215443160662853413e-02
-4.679072561107367606e-02 -1.315206372948474478e-01 -9.688435323746955596e-01 2.324277365308445031e-01 -4.677737303510656752e-01 8.527397519082811073e-01
5.984144011756227337e-03 4.779478509400819641e-02 -8.829751152594080832e-01 -8.903885706684365742e-01 -2.121961996893035052e-01 4.027169800994684357e-01
-3.900028942651725256e-02 1.151641460849962967e-01 -8.361714763508401038e-01 2.378087240210747799e-01 -4.625502112314684444e-01 8.541043922549468315e-01
-4.760525145107528944e-02 -6.389101124556588462e-02 -9.314174117027813615e-01 2.324277365308445031e-01 -4.677737303510656752e-01 8.527397519082811073e-01
-6.726979711375853654e-02 1.423393470065790339e-02 -8.833247141888789233e-01 2.335702335199062729e-01 -4.646728406284164059e-01 8.541218280759336201e-01
7.184489267098821859e-03 5.121359705982311133e-02 -8.822048317660783345e-01 -3.260176701777054431e-01 6.695685559867118331e-01 6.673757768796905188e-01
-3.989165142489583399e-02 1.584133891885821377e-01 -8.124041589622703619e-01 2.364227401984959065e-01 -4.623908156242753642e-01 8.545753457380758089e-01
-7.744526308654121893e-02 -9.168918490541085042e-02 -9.329064301667616688e-01 -2.260210878699424053e-01 4.693585730156574209e-01 -8.535906500043175527e-01
-6.846565643551929398e-03 1.613845774106633657e-01 -8.171529358551636868e-01 9.999225491929041310e-01 1.049851049308610229e-03 1.240134784361913815e-02
9.151891879873735869e-02 -7.998636291431548972e-02 -9.730500847270819875e-01 -2.969684537373800115e-01 4.736907636792536680e-01 -8.291120538804116480e-01
2.627235426132330798e-02 1.613842169507057334e-01 -8.288047751669180840e-01 2.331469105977269918e-01 -4.625347097468036073e-01 8.553970775950640038e-01
2.513687105519014919e-02 -1.009206406939868643e-03 -9.109410125470995823e-01 -2.324277365308445031e-01 4.677737303510656752e-01 -8.527397519082811073e-01
-1.822692102316825257e-03 9.576272141891097045e-02 -8.568334367251938533e-01 2.326253138987906255e-01 -4.636872019146968116e-01 8.549149911622841991e-01
-7.702815399667718721e-02 -1.173506331288358927e-02 -8.891063070760345521e-01 -2.267882301346569596e-01 4.684494890993833871e-01 -8.538865116834418734e-01
9.837077401512997477e-02 1.315061432170250115e-02 -9.235297873188388351e-01 -2.503796774833750294e-01 4.662628078697658163e-01 -8.484745200067723703e-01
-3.612880868550537652e-03 -4.538575310967070398e-02 -9.274477404136929337e-01 -2.324277365308445031e-01 4.677737303510656752e-01 -8.527397519082811073e-01
-5.737214663959232935e-02 -1.608349264952614321e-01 -9.818680373247598014e-01 2.450504542664610208e-01 -4.615571677912898574e-01 8.525932533889087894e-01
1.044377262059640182e-01 3.379014286643582110e-02 -9.141766298348926734e-01 -2.834557485019547074e-01 4.618813691255975740e-01 -8.404275337563971160e-01
4.591642650871174264e-02 1.863218998933024173e-01 -8.143774027034991203e-01 -2.433323720839163651e-01 4.617018149182214315e-01 -8.530069113420095661e-01
3.062931577829024199e-02 -9.566317114021495593e-02 -9.643608684514046736e-01 -2.324277365308445031e-01 4.677737303510656752e-01 -8.527397519082811073e-01
