1.252310610172739126e-02 -9.914950437052451587e-04 -7.406311270541270364e-01 8.653223166620858109e-01 2.379041861751805820e-01 -4.411563061851046519e-01
-9.347777706882512416e-03 -1.896529449689700886e-01 -8.964049226587780250e-01 -8.514029469581253506e-01 -2.203779338209287120e-01 4.759691042450530096e-01
3.256007009412029835e-02 1.385016246473384782e-01 -6.387619443543398612e-01 -8.680406392525037429e-01 -2.332979023392587059e-01 4.382665140872686327e-01
3.315350500209975071e-02 1.431461415922498093e-01 -6.241510512145393985e-01 8.160268896265755467e-01 2.258233715694540622e-01 -5.320751077238823346e-01
-2.048570533916857159e-02 3.180462842698968812e-02 -7.991510009323730124e-01 -8.647275590364559283e-01 -2.354599991356933486e-01 4.436269124499456762e-01
4.626468171831955162e-02 2.004746796370773798e-02 -6.746202947008090867e-01 -8.657757601020392713e-01 -2.345496138323699686e-01 4.420620000303375763e-01
-4.964905707718741262e-02 7.162113348656332090e-02 -8.239400579253839396e-01 8.741735408405060248e-01 2.301661454266598628e-01 -4.276028133604895531e-01
2.281460201275246208e-02 -5.564932983172944658e-02 -7.499200492847349908e-01 8.653223166620858109e-01 2.379041861751805820e-01 -4.411563061851046519e-01
3.664233277018955071e-02 -1.120198391914739577e-02 -7.102560385572158630e-01 -8.659333562677126173e-01 -2.342794347207128591e-01 4.418965591288053774e-01
1.392159157140962500e-02 -3.362838586600699897e-02 -7.668783108391216130e-01 -8.659773531759830112e-01 -2.341977850392044647e-01 4.418536197306175972e-01
-4.170845654942480739e-03 8.902006147733540486e-02 -7.369031995863093432e-01 -8.648752179328035306e-01 -2.341022472703791768e-01 4.440574233459492204e-01
5.504368469803988181e-03 1.079149484411195681e-01 -7.080688442104470237e-01 -8.654679244264038562e-01 -2.336145069029981758e-01 4.431585878142511037e-01
3.021761275776486261e-02 -1.916731980297050053e-01 -8.193486471177184871e-01 -8.986035678554562534e-01 -1.668943042531713383e-01 4.057806292139806148e-01
5.297403900382601817e-03 -1.834511038360446891e-02 -7.810350052276131549e-01 -8.926793787333120456e-01 -2.114507985252704059e-01 3.980101588996612372e-01
-2.084883660737837235e-02 6.734788695800225655e-02 -7.692360943657171601e-01 8.653223166620858109e-01 2.379041861751805820e-01 -4.411563061851046519e-01
-3.299910023276575455e-02 1.747108400253878091e-01 -7.358440287386206480e-01 8.686366299965592175e-01 2.307704202293043849e-01 -4.384237883320326046e-01
1.326403201710749970e-02 -1.338554546826435654e-01 -8.108279077102515942e-01 8.653223166620858109e-01 2.379041861751805820e-01 -4.411563061851046519e-01
3.383627115932201501e-02 9.134698085441660120e-02 -6.495488614506936820e-01 8.587611989139583013e-01 2.406802379013289750e-01 -4.523297760745146334e-01
-4.452816023633063280e-02 1.846956085086245980e-02 -8.367061989068214078e-01 8.514305965085992023e-01 1.972751922154364623e-01 -4.859510652991446134e-01
1.817277376135343139e-02 1.810858309962870283e-01 -6.328590153561595155e-01 8.578690938944723010e-01 2.273827952395745533e-01 -4.608228316497725574e-01
-2.477699251700256865e-03 -1.595766683836520872e-01 -8.633549947699687976e-01 2.761419616511072150e-01 -4.585423291173607585e-01 8.446801462228789026e-01
-3.504880258106732316e-03 -5.983703370324226084e-02 -7.989064364210349822e-01 8.185966564119119271e-01 2.792950897231347152e-01 -5.018901941339202200e-01
1.468466281584076064e-02 1.341663013012854566e-01 -6.639367554759632029e-01 8.615243297149293156e-01 2.380521849616325236e-01 -4.484495362292555964e-01
-6.890027187403233513e-03 6.369047630109386793e-02 -7.437107690819968475e-01 3.030839225245028287e-02 -6.412049663076713202e-01 -7.667708866026732295e-01
4.688123470536344900e-02 -5.230305929213678595e-02 -7.113289922846377511e-01 -3.849250175170080279e-01 8.961344826489322513e-01 2.208522580755324094e-01
1.992022556987025142e-02 1.553562791111457071e-02 -7.288367191260056721e-01 -8.658600529325660711e-01 -2.345315176164819437e-01 4.419064787713841147e-01
-1.865217327475923031e-02 -2.729371238976501315e-02 -8.159651347947337596e-01 8.653223166620858109e-01 2.379041861751805820e-01 -4.411563061851046519e-01
5.128928093012056350e-02 -7.417727904642386350e-02 -7.058955964009765438e-01 7.524513893062746428e-01 3.258689674486814902e-01 -5.723865152019106395e-01
-3.314555081706650058e-02 -4.518736161787125123e-03 -8.321597683904711218e-01 8.677488579984019568e-01 2.359809295170551824e-01 -4.374070419491847828e-01
-1.555190393181295552e-02 1.990592451737799584e-01 -7.009319795969501943e-01 -8.630091723469497378e-01 -2.367678271145485236e-01 4.462691614804769613e-01
-2.439277129467381372e-02 8.399752037953255035e-02 -7.790556949019401545e-01 -8.649291714866467196e-01 -2.357505175945091846e-01 4.430792499828261621e-01
-2.980093711396699513e-02 1.511909345731122893e-02 -8.149611597886347036e-01 8.653223166620858109e-01 2.379041861751805820e-01 -4.411563061851046519e-01
4.544408592767096473e-03 -9.653517298999443608e-02 -8.181714629568479502e-01 -6.960925542050160342e-01 3.407789546257576907e-01 -6.319215616391897772e-01
5.194787648775830990e-02 1.524138927828392991e-02 -6.564547516449076303e-01 7.591371192183099526e-01 2.968863866109803795e-01 -5.792834432900710873e-01
1.022236767588448857e-02 -1.447848772570313192e-01 -8.341214779779929644e-01 -8.653223166620858109e-01 -2.379041861751805820e-01 4.411563061851046519e-01
8.732804428124446312e-04 4.931503679464751405e-02 -7.314566026801238019e-01 8.540801028264247696e-01 2.956026798905059816e-01 -4.279792443536892810e-01
3.533851168762325995e-02 8.297185852670325990e-02 -6.511629129511844472e-01 8.587323043099140962e-01 2.418856274452908239e-01 -4.517412675082749240e-01
7.374104602839195478e-03 -2.401584513351831887e-02 -7.631472625747559579e-01 8.653223166620858109e-01 2.379041861751805820e-01 -4.411563061851046519e-01
-3.490265557194284496e-02 5.950868096092297443e-02 -8.011117528705509194e-01 8.676971854210812074e-01 2.358751495038621249e-01 -4.375665758017452389e-01
-1.033231920115208410e-02 2.276812709398629564e-01 -6.644459473691943785e-01 8.782879402443133365e-01 1.880972148994556059e-01 -4.395790392733363583e-01
-8.222048774862005319e-03 1.197727012320296130e-01 -7.164075830755888274e-01 8.652599437974737295e-01 2.357840690587681975e-01 -4.424150793516001268e-01
2.632333639863073879e-02 -1.995791765943000784e-01 -8.307322344235409384e-01 -9.352851040761008816e-01 1.238142512086124261e-02 3.536784901649144830e-01
-7.688828687960733068e-04 1.961452878020001067e-01 -6.614904365633699213e-01 8.649163959376366950e-01 2.326476488976257639e-01 -4.447411601152475580e-01
2.782463282592618353e-03 -1.277982574116802716e-01 -8.231038575992551953e-01 8.702924820577341292e-01 2.090885057537073821e-01 -4.459517826351523384e-01
-4.865057175938384409e-02 5.456855111710434691e-02 -8.415823983662671370e-01 -8.601032726493887948e-01 -2.388633640368681976e-01 4.507401176940006859e-01
3.462969181675049080e-02 -2.239354765259374616e-02 -7.201637011353239082e-01 -8.677048806861841213e-01 -2.359114899744836069e-01 4.375317233428838715e-01
-2.852728292462287582e-02 3.330493255060711782e-02 -8.140540767562688407e-01 -8.629200362255134982e-01 -2.398325030428777316e-01 4.448026321468279698e-01
-4.619308789884983557e-02 5.710600814638530642e-02 -8.248207854518604387e-01 8.681988896191470406e-01 2.355851810067654817e-01 -4.367268145581280070e-01
1.630440678855577322e-02 1.716595772616994475e-01 -6.532509855194758019e-01 -8.646763706586033660e-01 -2.350833791154391950e-01 4.439263214637449440e-01
7.137820953100575475e-03 -3.591668317622713213e-01 -9.640053920189629588e-01 -9.998879440543509967e-01 2.522022386746438759e-03 -1.475597295482958954e-02
-2.954968452842945612e-02 2.062304055074637710e-01 -7.128354461806234443e-01 8.758401420777944812e-01 2.117728611752668633e-01 -4.336545869638530615e-01
1.718934640037951328e-03 -3.789319203819253024e-01 -9.678946506735327526e-01 -2.882404501330759761e-01 5.643692030686286998e-01 -7.735663161841798141e-01
2.141909408455540398e-02 5.269033913529424379e-02 -7.114347433530153753e-01 -8.537910839286632081e-01 -2.971929611537001970e-01 4.274542418138032596e-01
-2.207234774961877241e-02 3.433735543019482417e-02 -8.008994465268547414e-01 -8.647275590364559283e-01 -2.354599991356933486e-01 4.436269124499456762e-01
-2.838316427866860881e-03 7.969569260772897679e-02 -7.343978858440942670e-01 2.885887694706399387e-01 -4.513530351760722814e-01 8.443914730578280237e-01
-1.780953686952452871e-03 -1.699935598946450688e-01 -8.562185125370826988e-01 4.746053433616699291e-01 4.167743170908901895e-01 -7.752734592812868808e-01
8.943323777567695546e-03 -5.513889276264923034e-02 -7.880823996036201429e-01 -8.653223166620858109e-01 -2.379041861751805820e-01 4.411563061851046519e-01
-1.274824034154435929e-03 -1.167967444420744544e-01 -8.471892403081033862e-01 -8.744917907998897011e-01 -2.773205324936134364e-01 3.979414907760442932e-01
-1.889857356170446950e-02 -1.074876539432444572e-01 -8.600957685760750593e-01 3.257103907328568471e-01 6.953276507180476962e-01 6.406498259701396414e-01
3.409375573325186537e-02 -7.244154650417368446e-02 -7.480810303825893293e-01 -8.653223166620858109e-01 -2.379041861751805820e-01 4.411563061851046519e-01
-5.139149406854611607e-02 7.635700740667754165e-03 -8.621108449073083824e-01 8.746464167543260837e-01 2.313215953047184914e-01 -4.260093487289893233e-01
-5.250038844954571515e-02 -1.792886763791326499e-02 -8.788686155806976208e-01 9.492648705998334435e-01 1.712005446016739707e-01 -2.637926818036687715e-01
-3.705034851425265119e-02 8.980184967274426611e-02 -8.005107333493163280e-01 -8.624543849375795324e-01 -2.404720406232714047e-01 4.453601144921049970e-01
1.262103339283469905e-03 -1.306369127221645478e-02 -7.843385000277542929e-01 -4.742730318436276238e-01 -4.178750202859863316e-01 7.748842227628846002e-01
-2.938205985730071162e-02 1.794836478186035908e-02 -8.126137846847261148e-01 8.653223166620858109e-01 2.379041861751805820e-01 -4.411563061851046519e-01
3.337490132885946592e-02 -1.129398468933911354e-01 -7.713307398627089473e-01 -8.653223166620858109e-01 -2.379041861751805820e-01 4.411563061851046519e-01
4.803856907888441607e-02 5.000862405353789786e-02 -6.448070655406105134e-01 8.270995904604498961e-01 2.550950736166119337e-01 -5.008320785220246041e-01
1.087425581996335523e-02 -9.145673206221886786e-02 -7.926508878825037074e-01 8.653223166620858109e-01 2.379041861751805820e-01 -4.411563061851046519e-01
3.670993403677354910e-02 7.941981267783450316e-02 -6.619981942321953028e-01 -8.653842372843479902e-01 -2.351546518775536609e-01 4.425069621600704606e-01
-6.735504944573591449e-04 1.341251900183178525e-01 -7.063019715726178704e-01 -8.651675875033368879e-01 -2.339927567103995132e-01 4.435453024672041944e-01
3.890231646371545421e-02 2.032520964383001741e-02 -6.890583071442742957e-01 -8.677262171820203651e-01 -2.361204086138844749e-01 4.373766850793415206e-01
2.734664336063208356e-02 -1.913455864182762589e-01 -8.156499120015202609e-01 8.029171284452999435e-01 3.478369870542205033e-01 -4.840800711516595189e-01
2.367709012565797494e-02 -2.417162341730898570e-02 -7.312531771950010473e-01 8.653223166620858109e-01 2.379041861751805820e-01 -4.411563061851046519e-01
2.242058200705986798e-02 4.190700740645666306e-02 -7.099254639061982619e-01 -8.657581546260763039e-01 -2.347459742651687165e-01 4.419922457065817989e-01
1.723407604538723648e-05 2.326982314615081981e-01 -6.444707816150155866e-01 -9.834435622876837313e-02 -7.824734371942339006e-01 -6.148688540521386470e-01
-1.053811487060783529e-02 -4.508888500422940371e-02 -8.208752771014617977e-01 -8.653223166620858109e-01 -2.379041861751805820e-01 4.411563061851046519e-01
-4.271057425958419557e-03 8.818261541520529267e-02 -7.256875127523115809e-01 8.653223166620858109e-01 2.379041861751805820e-01 -4.411563061851046519e-01
3.648209097747642099e-02 -3.299398101426345709e-02 -7.111086662855948815e-01 8.624036006164483847e-01 2.403161112936617605e-01 -4.455425864005346792e-01
2.529046668409880641e-02 -1.532331634485631089e-01 -8.091215413662227185e-01 -8.653223166620858109e-01 -2.379041861751805820e-01 4.411563061851046519e-01
6.139196209623566311e-03 1.036403736462731540e-01 -7.121183982658293443e-01 -9.992089874500779123e-01 2.560050532486870395e-02 -3.043047035622891208e-02
-3.872726371583040759e-03 1.579616247593293721e-01 -6.999247536905425227e-01 -8.613461212361411823e-01 -2.365441547987505166e-01 4.495883920454347149e-01
3.436658000982011768e-02 -6.429742371700029879e-02 -7.321050170490535081e-01 8.628425121224115868e-01 2.401587159964959362e-01 -4.447770120017444095e-01
2.477942390606711204e-02 -3.275789545777538052e-03 -7.178223811501840412e-01 8.653223166620858109e-01 2.379041861751805820e-01 -4.411563061851046519e-01
1.010648515195574151e-02 4.595731713432135712e-02 -7.152916606871639882e-01 8.558673951594708562e-01 2.938157925232719458e-01 -4.256328017985264722e-01
2.391805981865892730e-02 1.091490627282447751e-01 -6.713879563733796685e-01 -8.680882061066433897e-01 -2.310038211273329756e-01 4.393860501234885252e-01
4.682993256964105254e-03 -3.144457275441686073e-01 -9.344737463441099568e-01 -7.007940828433217861e-01 3.336402398299772587e-01 -6.305329839254902868e-01
-1.879005080602740713e-02 -1.654454212039331851e-01 -8.912640811669721996e-01 8.698340262379539167e-01 2.439211501393654946e-01 -4.288254182221006849e-01
-3.780767435101319972e-03 1.791423563542004216e-01 -6.806015843440168522e-01 6.919491537395605629e-01 -3.379287208435377554e-01 6.379737833705677597e-01
-1.673535051178598552e-03 2.339754773145397426e-01 -6.480622438366127058e-01 1.002715799789683088e-01 -9.445481470937453494e-01 -3.126889957614332194e-01
-1.708152764042266541e-02 6.646579778084489576e-02 -7.623222550478164772e-01 8.653223166620858109e-01 2.379041861751805820e-01 -4.411563061851046519e-01
-1.537540865605671776e-02 -1.102757266078582821e-01 -8.589464800914209386e-01 3.650775078196749068e-01 7.055376473498811141e-01 6.074002316892627151e-01
-5.408434092562627166e-02 1.733261723821263867e-02 -8.627142941760103101e-01 8.915837703487945465e-01 2.187451864923771749e-01 -3.965210257187417042e-01
3.839998497585805221e-02 3.651292844055132464e-02 -6.700418067683585610e-01 8.599077428966602765e-01 2.386681846694410636e-01 -4.512163243201253171e-01
2.074387290266644160e-02 1.686548860002053396e-01 -6.341405783155807940e-01 8.541235647864918734e-01 2.268681601933701386e-01 -4.679783904913673576e-01
3.647455496213665438e-02 -1.007952749297964384e-01 -7.587015562964093407e-01 -8.653223166620858109e-01 -2.379041861751805820e-01 4.411563061851046519e-01
-1.157572939668121206e-02 6.579501423345840427e-02 -7.476885276533535851e-01 6.441794831729632520e-01 -1.742342486718303496e-01 -7.447652113577651889e-01
2.998527008444410238e-02 1.351219375466216066e-01 -6.456605037127620683e-01 -8.680160490573585186e-01 -2.333398551551924827e-01 4.382928821861097890e-01
5.038263679529565026e-02 -1.095227411609651230e-01 -7.352508044950067934e-01 -8.848798391615986247e-01 -2.145854640552111448e-01 4.134498141994415454e-01
2.739764354422585119e-02 -1.451928711837721653e-01 -7.893588174085625075e-01 8.621198330115821262e-01 2.416561690873419710e-01 -4.453669155540311286e-01
2.474678453904378267e-02 1.569071267943514814e-01 -6.444498985501782018e-01 -8.677441405298086385e-01 -2.327036245701982475e-01 4.391686802221622665e-01
-2.745542235709821140e-03 -1.221012440602799037e-01 -8.311326437027446445e-01 8.370127044016839601e-01 2.597229212742805937e-01 -4.816157564230358901e-01
3.638501341176612197e-02 1.342967717039863507e-01 -6.333938429345540300e-01 -8.687994612369047687e-01 -2.317506215594987984e-01 4.375833012824525969e-01
-3.459152705985041321e-02 -6.809164953822499644e-02 -8.693793171406370979e-01 8.681820904482038248e-01 2.363742350160447925e-01 -4.363336783306629996e-01
5.844026238652020450e-03 -2.184383799150436678e-01 -8.887664731349266267e-01 -8.913480300743515938e-01 -2.194532447504624340e-01 3.966597567828960003e-01
-6.938862894256918150e-03 -2.001814961769195489e-01 -8.871184383635903892e-01 8.708275574652795115e-01 2.470875822390736776e-01 -4.249789310804762965e-01
-2.306548832242137637e-02 -2.250851239722834359e-03 -8.224390811679959112e-01 -8.646585042503951435e-01 -2.352775152223274824e-01 4.438582677592891601e-01
-1.977744247299378921e-02 1.700362366196892516e-01 -7.244735920339459012e-01 -8.655544669376459277e-01 -2.347959313648058377e-01 4.423644825015010107e-01
7.400638071795451059e-04 1.977969118895051559e-01 -6.697333514646984787e-01 -8.654508509040319542e-01 -2.349920248168821668e-01 4.424630752299549830e-01
-1.918327043963759942e-02 1.917643848238526072e-01 -6.996173059011606687e-01 8.676373414571653120e-01 2.291644909250576123e-01 -4.412358550800258850e-01
2.396615726438868291e-02 2.795909074663438521e-02 -7.143076765652152105e-01 -8.658229439912527026e-01 -2.347891797278653381e-01 4.418423596046855972e-01
2.230305968176724690e-02 -7.091424871404279628e-02 -7.591554088194941707e-01 8.653223166620858109e-01 2.379041861751805820e-01 -4.411563061851046519e-01
-3.845503459931609580e-02 2.488042967989513923e-02 -8.268298341101206761e-01 8.677048806861841213e-01 2.359704486486449704e-01 -4.374999284547735345e-01
-2.441889595453026682e-02 7.779829535413135266e-02 -7.657470562042670847e-01 8.717862667605495997e-01 2.807708327351393640e-01 -4.014429530741823737e-01
3.831021566253537541e-02 -1.206110221359235346e-01 -7.657340569815616060e-01 -8.688489328692042823e-01 -2.337030268342334960e-01 4.364452166086399965e-01
2.321152456125432154e-02 -1.423017275521192004e-01 -8.073043184556948360e-01 -8.653223166620858109e-01 -2.379041861751805820e-01 4.411563061851046519e-01
-2.474085146882243347e-02 1.836227489307508121e-01 -7.268802965153835505e-01 -8.625971830102449056e-01 -2.377804267894962631e-01 4.465272315308385087e-01
5.606226126895002930e-03 -8.450013330400259204e-02 -8.104618305845967541e-01 -8.653223166620858109e-01 -2.379041861751805820e-01 4.411563061851046519e-01
-2.741339555043655410e-02 -1.555778849975076039e-01 -9.038698936727067590e-01 9.082951441963346140e-01 2.563546518611358183e-01 -3.305786192398346146e-01
-3.701596692116313186e-04 -1.553877651869193799e-01 -8.491830142917087265e-01 8.653223166620858109e-01 2.379041861751805820e-01 -4.411563061851046519e-01
2.915969027582226286e-02 1.426131891223856030e-01 -6.316169103449480460e-01 8.583757506978451080e-01 2.321899626537414496e-01 -4.574700994128085285e-01
3.261271314643005015e-02 1.578833804625227044e-01 -6.281592504098229002e-01 -8.768897399021793326e-01 -2.391278341863445900e-01 4.169919219500973773e-01
2.495410558672441978e-02 -1.239185324808454308e-01 -7.825734425982747711e-01 8.622649920692295744e-01 2.409996538954049250e-01 -4.454416350927992152e-01
-1.214624787850908947e-03 -1.284976896575314997e-01 -8.469156109334653459e-01 2.764190188387359304e-01 -4.561603436967213709e-01 8.458783995721366189e-01
4.172396238973408167e-02 2.292438028614752002e-02 -6.820500812816564506e-01 -8.681621332743761910e-01 -2.357947400331185661e-01 4.366867881230185877e-01
-2.504764243252226557e-04 2.305447733394676291e-01 -6.537397824958675052e-01 -8.605925425476702584e-01 -2.592268810284008573e-01 4.383855607380602870e-01
6.442033863117532094e-03 1.433640705557736594e-01 -6.906131384070308687e-01 -9.997582833412296255e-01 1.355357966984475568e-02 -1.731113424160066541e-02
5.295233882189518369e-03 -7.367225518513498272e-02 -8.106599386739465896e-01 -9.049588469921310274e-01 -2.019649328431373236e-01 3.745125513949295049e-01
2.810288540516215142e-02 7.621240593162392774e-02 -6.688088183681298871e-01 8.630417753502900302e-01 2.369450829999652230e-01 -4.461120057142143325e-01
-3.009493853359794958e-03 1.532496087556032560e-01 -6.951362299443964998e-01 2.707501122996598397e-01 -4.553534306689103750e-01 8.481436375212485501e-01
1.789115996414249524e-02 -7.187498759896059075e-02 -7.795566792102720521e-01 -8.653223166620858109e-01 -2.379041861751805820e-01 4.411563061851046519e-01
6.557950873853688085e-03 8.302545571109501421e-02 -7.191324278804418491e-01 -8.657134251842970585e-01 -2.334782008496515959e-01 4.427507144925710847e-01
3.735219446245204543e-03 -2.854754312591042953e-01 -9.302278463426454369e-01 -8.375663352197831868e-01 -2.662079904779994233e-01 4.770911232795754242e-01
1.659143367029852073e-02 5.533603673250962751e-02 -7.023800977697803871e-01 8.632889910932314281e-01 2.369548023345002252e-01 -4.456282525916061554e-01
1.177082340191929789e-02 -5.313634858103589986e-02 -7.702270905925627797e-01 8.653223166620858109e-01 2.379041861751805820e-01 -4.411563061851046519e-01
1.297775880751526369e-02 -2.133246355689941698e-01 -8.643447216623635354e-01 -9.123239518859100894e-01 -7.187226449583317134e-02 4.031121238706625864e-01
3.511202259772083778e-03 -6.302587204281023814e-02 -7.989912110757467767e-01 -6.915070883071775532e-01 3.428757954146066100e-01 -6.358098267090011024e-01
3.665255071056789521e-02 6.606372378588881711e-02 -6.576858556831096658e-01 8.626295355840594148e-01 2.364134673130822428e-01 -4.471900678805781904e-01
-1.382966534303833005e-02 8.888711412022741107e-03 -7.869936032880640031e-01 8.653223166620858109e-01 2.379041861751805820e-01 -4.411563061851046519e-01
-4.046894770599017421e-02 1.053018995736158675e-01 -7.942529638731266051e-01 -5.002066948534081986e-02 6.245395876956170156e-01 7.793896560932964679e-01
1.034155059098333142e-02 -4.214339678994591387e-02 -7.671023759046067259e-01 8.653223166620858109e-01 2.379041861751805820e-01 -4.411563061851046519e-01
2.091092892542704279e-02 -1.193863514677370313e-01 -7.880258064323669709e-01 8.653223166620858109e-01 2.379041861751805820e-01 -4.411563061851046519e-01
3.054040683013944588e-02 -1.020137541401835574e-01 -7.598995518276481231e-01 8.626420749000878185e-01 2.406662645476125850e-01 -4.448914471202720100e-01
-2.200556356193795159e-03 2.187607923262494813e-01 -6.601263533604071476e-01 3.414851407074624423e-01 -6.589183721418374606e-01 6.702346436360594462e-01
2.937632509084092333e-02 -6.935246686299711971e-02 -7.445142885682035638e-01 8.628065294602352830e-01 2.401286019543260875e-01 -4.448630657227514162e-01
-2.611955781713947052e-03 -3.587742115649548147e-01 -9.589259309078285165e-01 8.248748791902922317e-01 2.738192399559529200e-01 -4.945750271806542142e-01
4.860744964472729635e-02 5.457809254247583675e-02 -6.415429007730102384e-01 8.272615801861735729e-01 2.532118704228529249e-01 -5.015197170848175734e-01
-2.337536918186313567e-02 5.602317481847818997e-02 -7.802989792826318105e-01 8.653223166620858109e-01 2.379041861751805820e-01 -4.411563061851046519e-01
-3.371509568715616665e-03 -6.756966777838119276e-02 -8.029174488302763812e-01 8.193654076480119119e-01 2.721057696029701156e-01 -5.045778224402878154e-01
1.312719778228549697e-03 1.246685465033174067e-01 -7.109296970409051397e-01 -5.002245074000977176e-01 -4.011987558616779692e-01 7.673428181011215932e-01
-4.213378990929475543e-02 7.747057148656701087e-02 -8.057772062408457003e-01 8.681621332743761910e-01 2.353286020028446390e-01 -4.369381643068854237e-01
1.553519919354914673e-02 6.611700212013656153e-02 -7.105276309662509338e-01 -8.655859783832241527e-01 -2.352057286326702246e-01 4.420850362144493895e-01
-2.376324277561019799e-02 -1.439402799797304955e-01 -9.001360279773072959e-01 -8.609184273406804699e-01 -2.396260807040827001e-01 4.487747797187917054e-01
2.871651590000364948e-02 4.016096565092773518e-02 -6.985203225911242875e-01 -8.657081147627260220e-01 -2.351122007609842413e-01 4.418955907081369983e-01
-1.700434827331156334e-02 -4.414156904291723083e-02 -8.218185609884747223e-01 8.653223166620858109e-01 2.379041861751805820e-01 -4.411563061851046519e-01
9.231563613145104055e-03 -7.829964424073281026e-02 -8.000070152003325719e-01 -8.653223166620858109e-01 -2.379041861751805820e-01 4.411563061851046519e-01
-2.675822380189216143e-02 1.582875872588727362e-01 -7.269194494188846445e-01 8.742467267420040988e-01 3.114711839937082116e-01 -3.723954381063885877e-01
2.779376019207838167e-02 2.360039416449580610e-02 -6.975386862700135859e-01 8.634477666929453177e-01 2.365029593983038469e-01 -4.455606629728541823e-01
1.368657934286793450e-02 -1.072423459950551938e-01 -8.069583732586589342e-01 -8.677392166977712096e-01 -2.388240809314479685e-01 4.358803851654574624e-01
-2.498164279583071218e-02 -1.565824860624114023e-01 -8.989158343813909990e-01 8.767046871726483781e-01 2.500968186937121973e-01 -4.109020233203935502e-01
3.701907020802170517e-02 -1.377282323287739030e-01 -7.710128729380936186e-01 1.722962111741387428e-02 9.977435832663414939e-01 6.489131072024757751e-02
-1.696759729066927430e-02 -7.842511839126698608e-03 -8.161845888669728710e-01 -8.338571791998468097e-01 -5.513066356871565432e-01 -2.726166070112713211e-02
3.625330372581299365e-02 -5.942506741670022102e-02 -7.258171428246296131e-01 8.622636884778214217e-01 2.406813890479822526e-01 -4.456162031373591681e-01
-2.700337938709325772e-02 2.132257823244657069e-01 -7.043931511105104848e-01 8.902308368393569982e-01 1.637745883922874512e-01 -4.250493398856589611e-01
2.840930452492154180e-03 1.369307791324990246e-02 -7.517035773761254758e-01 8.653223166620858109e-01 2.379041861751805820e-01 -4.411563061851046519e-01
2.869652281793594328e-02 -8.837655649218528753e-02 -7.561069092364184341e-01 8.627073365739243993e-01 2.403118794273404191e-01 -4.449564608224325646e-01
-5.198767652537552610e-03 -2.607633613798602812e-01 -9.107624936350410261e-01 9.029786171511180459e-01 2.037463459409273592e-01 -3.783081329862926223e-01
5.579149832005834281e-03 -9.153762174442300892e-02 -8.192756777383427558e-01 -9.999918750670193646e-01 -3.910679172673492930e-03 9.779511005601588484e-04
1.653291546682599672e-02 1.820147100237438920e-01 -6.354534454872770022e-01 8.578690938944723010e-01 2.273827952395745533e-01 -4.608228316497725574e-01
-1.198198231331062610e-02 1.897484685670035587e-01 -6.867428169879460365e-01 8.632747483388563126e-01 2.336225107017488034e-01 -4.474117023211344191e-01
-5.515958760468426571e-03 -1.177850499104862725e-01 -8.344537916508636410e-01 9.049588469921310274e-01 2.019649328431373236e-01 -3.745125513949294493e-01
4.028696601416192034e-03 -2.644982949334040087e-02 -7.798081678260634364e-01 -6.960925542050160342e-01 3.407789546257576907e-01 -6.319215616391897772e-01
-2.140313998368167242e-02 1.451498232576686580e-02 -7.988147722142983076e-01 8.653223166620858109e-01 2.379041861751805820e-01 -4.411563061851046519e-01
6.612019169305954035e-03 1.616197192077943323e-01 -6.775004683908910641e-01 -8.652290989224147300e-01 -2.357196716219250032e-01 4.425097092588566872e-01
-3.841853252766715826e-02 7.426949366415706855e-02 -8.115164304579790544e-01 -8.618507880386186981e-01 -2.377411252591208057e-01 4.479870271757194766e-01
-8.090918653949123046e-03 1.128233554187860199e-01 -7.319992674122984821e-01 -8.651921399185287243e-01 -2.336574627373649848e-01 4.436741497206412310e-01
-2.188261897099725781e-02 6.517602811000570984e-02 -7.841565616402784711e-01 -8.648126687266197710e-01 -2.356170650536812960e-01 4.433775441600883993e-01
6.161692315289643215e-03 -2.086262235692834185e-02 -7.752583724829897882e-01 -8.653223166620858109e-01 -2.379041861751805820e-01 4.411563061851046519e-01
-4.544397274615875199e-02 1.253586707616869411e-01 -7.867916040831850477e-01 8.683033935434798511e-01 2.348771227516703031e-01 -4.369003936468511817e-01
-4.876369008155559404e-02 1.483943975822955563e-01 -7.814687296231289659e-01 8.932833366268492226e-01 2.000912253663608142e-01 -4.025026484834495211e-01
-5.492291964188417315e-03 -7.546931433007793288e-02 -8.273613413545441997e-01 -8.653223166620858109e-01 -2.379041861751805820e-01 4.411563061851046519e-01
-4.817237925012709393e-02 3.672239208291698531e-02 -8.463242597923202881e-01 -2.627679381119372715e-01 -8.678582333382518499e-01 -4.216338429578556091e-01
-6.291883238970655615e-03 -1.275900695353953951e-01 -8.572412497666508369e-01 -8.653223166620858109e-01 -2.379041861751805820e-01 4.411563061851046519e-01
-3.696176664943686546e-02 6.404814505136613434e-02 -8.027479338656337005e-01 8.676971854210812074e-01 2.358751495038621249e-01 -4.375665758017452389e-01
2.136999769286143311e-02 -5.180514791368602545e-02 -7.529821157220248917e-01 9.838386105739363625e-04 9.994389633936958672e-01 3.347820951190663696e-02
-1.753649764285182891e-02 -1.616065259281074251e-01 -8.975968282442596813e-01 -8.568371280438333848e-01 -2.270616229189031388e-01 4.628964845438225395e-01
-1.373330167044950435e-03 2.237500684132791295e-01 -6.599608497157397613e-01 -8.609550710875116808e-01 -2.586876435551956344e-01 4.379920874177494761e-01
1.312512663007324096e-02 8.982050200246315119e-02 -6.906818556926243025e-01 8.653223166620858109e-01 2.379041861751805820e-01 -4.411563061851046519e-01
-1.804377318167308536e-02 1.251415521730502300e-01 -7.449061781296355544e-01 -8.648250730444745349e-01 -2.337167578910140098e-01 4.443580427026522783e-01
2.045735350003839367e-02 6.003808716388898264e-02 -6.923606747703722197e-01 8.653223166620858109e-01 2.379041861751805820e-01 -4.411563061851046519e-01
2.685431550077237162e-02 -3.238815632839538508e-03 -7.252120535368173915e-01 -8.659063168756456763e-01 -2.344940482192267306e-01 4.418357067334109378e-01
-7.940144354159220721e-03 -1.727887227921660928e-03 -7.926000726472935964e-01 -8.653223166620858109e-01 -2.379041861751805820e-01 4.411563061851046519e-01
2.191121211987802700e-02 -1.167987956620502171e-01 -7.958976473695510423e-01 -8.653223166620858109e-01 -2.379041861751805820e-01 4.411563061851046519e-01
3.695559709155667866e-02 7.836296564835966427e-02 -6.505567727794224764e-01 8.587323043099140962e-01 2.418856274452908239e-01 -4.517412675082749240e-01
7.798631680986435957e-03 -4.220782242772988524e-02 -7.834255540181347399e-01 -8.659715794295372859e-01 -2.342108875361921527e-01 4.418579905125870066e-01
2.350240812031337972e-02 -6.962642843675230508e-02 -7.561084143971307236e-01 8.653223166620858109e-01 2.379041861751805820e-01 -4.411563061851046519e-01
2.636299696699188899e-02 -1.318951318131428574e-01 -7.841617987548918922e-01 8.622649920692295744e-01 2.409996538954049250e-01 -4.454416350927992152e-01
-2.627000130689518403e-02 -2.466057120956981555e-02 -8.294874197706161301e-01 8.653223166620858109e-01 2.379041861751805820e-01 -4.411563061851046519e-01
2.203349219940438711e-02 -8.366926741583945171e-02 -7.777918988502758868e-01 -8.653223166620858109e-01 -2.379041861751805820e-01 4.411563061851046519e-01
-2.675340681213996333e-02 2.178786163528180497e-01 -7.021520700631194156e-01 9.203354616397900756e-01 3.909861340812254699e-02 -3.891708319977700836e-01
-1.587897381435523364e-02 1.716379258335936839e-02 -7.865507577593791044e-01 8.653223166620858109e-01 2.379041861751805820e-01 -4.411563061851046519e-01
2.789578883322041403e-02 1.339168836642672389e-01 -6.504401623469167060e-01 -8.680160490573585186e-01 -2.333398551551924827e-01 4.382928821861097890e-01
1.129896331350127223e-02 1.011303245227168773e-01 -7.003266668637398995e-01 -8.654294908502129235e-01 -2.334628965867614758e-01 4.433135146643515379e-01
4.643268917953328676e-03 -5.011714716206201042e-02 -7.908404485324890265e-01 -4.492530703927120617e-01 8.922895936927833782e-01 4.462017178685092483e-02
-2.012133247316873902e-02 -5.855790063734048027e-03 -8.072859542651428244e-01 8.653223166620858109e-01 2.379041861751805820e-01 -4.411563061851046519e-01
9.114350419940145387e-03 6.447025868859687647e-02 -7.121594845431790111e-01 8.656900739447290771e-01 2.352229464593738051e-01 -4.418719965471221700e-01
1.992382947329298173e-02 -1.047313152567701661e-01 -7.932881923237398158e-01 -8.653223166620858109e-01 -2.379041861751805820e-01 4.411563061851046519e-01
4.378563841241185639e-02 1.443202348797272168e-02 -6.714671205938496090e-01 8.522659801004217606e-01 2.439328929979284188e-01 -4.627520317374397285e-01
2.643012188954637146e-02 -3.053754674791755649e-02 -7.407195498318630555e-01 -8.653223166620858109e-01 -2.379041861751805820e-01 4.411563061851046519e-01
-5.044028774450416697e-02 2.964472631295623009e-02 -8.427331410239303766e-01 6.222745139220067223e-01 -1.713381190189935399e-01 -7.638178305683648306e-01
3.459919868556476409e-03 1.560599645376932187e-01 -6.924689181239152003e-01 -8.228224984943257603e-01 -2.643968954642234581e-01 5.030481265648800715e-01
-2.532795490568205340e-02 -1.258238583930759540e-02 -8.323554403496600251e-01 -8.653223166620858109e-01 -2.379041861751805820e-01 4.411563061851046519e-01
-2.875614633955111271e-02 -6.976752993631409050e-02 -8.586889769178779330e-01 8.653223166620858109e-01 2.379041861751805820e-01 -4.411563061851046519e-01
-2.444486914960616007e-03 1.272404378447932471e-01 -7.011216385951599683e-01 8.653200437400654366e-01 2.358861903471064225e-01 -4.422430633771655684e-01
-3.183163620738788807e-02 -7.228594019094626566e-02 -8.744573149919812050e-01 -3.626075737590901960e-01 -7.126972072647650425e-01 -6.004818383677813509e-01
-5.015910958463213470e-02 4.269210393294455702e-02 -8.506961657124991749e-01 -8.469311770132533779e-01 -2.510312058684532888e-01 4.687119745463897980e-01
-4.763950928346293370e-03 -5.418614086229315424e-02 -7.982591365177330589e-01 8.925026082959373053e-01 2.140890864702175156e-01 -3.969949083291826608e-01
1.326904726870995789e-02 -2.682895364097580629e-02 -7.531014464048454427e-01 8.653223166620858109e-01 2.379041861751805820e-01 -4.411563061851046519e-01
-2.017871032925418542e-02 1.158493314824428494e-01 -7.419702211531890024e-01 8.653223166620858109e-01 2.379041861751805820e-01 -4.411563061851046519e-01
-5.223290176881781148e-03 6.310413711872669973e-02 -7.361839172439715862e-01 9.039507708476540726e-01 2.029794734767163544e-01 -3.763938591834979919e-01
-4.577928783785498168e-02 1.085095283841622932e-01 -7.908991085661031262e-01 8.788698585555720921e-01 2.741619155064375923e-01 -3.904139031955056738e-01
4.350330409416243438e-02 2.876286508469824699e-02 -6.754042136586373424e-01 -8.657757601020392713e-01 -2.345496138323699686e-01 4.420620000303375763e-01
-4.079571789921392078e-02 3.480114985079110768e-02 -8.371369152884354792e-01 -8.646661718210553182e-01 -2.352510420765832888e-01 4.438573627982335679e-01
4.880401960718873389e-02 -8.493871412578330718e-04 -6.702974119438934730e-01 8.521247243849532360e-01 2.447955088357018083e-01 -4.625566051260510125e-01
-1.616519340569464933e-02 -5.850283559528120236e-02 -8.391465145739166465e-01 -8.653223166620858109e-01 -2.379041861751805820e-01 4.411563061851046519e-01
-3.867660438973567066e-02 -7.931354813812292737e-02 -8.785234318657444419e-01 8.247297177899877152e-01 5.645156299722647875e-01 3.380822549416145906e-02
4.504098391931482537e-02 -3.017137561681606725e-02 -7.038543302377713307e-01 -8.659524304858384758e-01 -2.342635209425128207e-01 4.418676169298741407e-01
3.886215758955329641e-02 -1.471506324360025431e-01 -7.684957289263479874e-01 8.522051595921013023e-01 2.551569055635828920e-01 -4.567727219392791471e-01
-2.714788094837696300e-02 9.325598003052092133e-02 -7.794833698185489324e-01 -8.624913633682848024e-01 -2.378299673225364730e-01 4.467052213243968839e-01
5.345408163706425429e-03 -3.124069338883515567e-01 -9.424781344717492182e-01 -8.997825842011325514e-01 -2.146789514308392044e-01 3.798739909244740476e-01
-2.929426008724476602e-02 -3.220488650315084245e-02 -8.507172031214551566e-01 -8.653223166620858109e-01 -2.379041861751805820e-01 4.411563061851046519e-01
-4.811736902036111568e-02 8.084944492232325197e-02 -8.265578090619914997e-01 -8.561879611132728884e-01 -2.455729334085464399e-01 4.545724470552724994e-01
5.036516803952365180e-03 1.617765064294398869e-01 -6.682263382051356615e-01 8.645415710695183442e-01 2.340069304317067556e-01 -4.447568193997470942e-01
-1.453932931231764238e-02 1.838795809090676761e-02 -7.946963323931205414e-01 -8.653223166620858109e-01 -2.379041861751805820e-01 4.411563061851046519e-01
-9.499760284051162254e-03 2.447001404369841815e-02 -7.816281934427503630e-01 -8.647395855699554490e-01 -2.354944715817970657e-01 4.435851699535408033e-01
4.075050815852956920e-02 1.058564574850744400e-01 -6.290097818817346198e-01 8.151029817032116043e-01 2.407532017842037020e-01 -5.269203213477233749e-01
-3.975872594603871435e-02 1.481521423486096001e-01 -7.747607622572894037e-01 -8.600578188028159543e-01 -2.407380911598465678e-01 4.498285448711052403e-01
2.574307087318530168e-02 -8.331472672906387045e-02 -7.590994421120548230e-01 8.627073365739243993e-01 2.403118794273404191e-01 -4.449564608224325646e-01
3.350685802210214004e-02 -1.448082750667882557e-01 -7.882708152180223360e-01 -8.684884026852354166e-01 -2.341421964161511382e-01 4.369271406752718301e-01
-4.302409404404936282e-04 5.465648690407113892e-04 -7.652095116928735452e-01 8.653223166620858109e-01 2.379041861751805820e-01 -4.411563061851046519e-01
-4.433505681752126365e-02 1.778848933845980085e-01 -7.639853763565225275e-01 4.628219990516097559e-01 -7.171139032354146847e-01 5.210983083644967762e-01
2.260934224812238130e-02 4.428319661220370823e-02 -6.912969284251834212e-01 8.556415617752080038e-01 2.953588447531525496e-01 -4.250184355871705066e-01
-4.820609522872460612e-02 2.883131344823452319e-02 -8.440845041392711634e-01 8.745172135979670802e-01 2.307905020443252464e-01 -4.265622900432899933e-01
-4.628319841167045402e-03 -8.164765298584762687e-02 -8.128209689169112462e-01 9.049588469921310274e-01 2.019649328431373236e-01 -3.745125513949295049e-01
2.169784494080947285e-02 -3.762831941596100904e-02 -7.537581434314455375e-01 -8.659717528135625342e-01 -2.341983159140156590e-01 4.418643141871097524e-01
-3.765048248966185868e-02 1.771116234194638206e-01 -7.438447982692120153e-01 8.693530668687632357e-01 2.287825347479052751e-01 -4.380454279183829125e-01
5.605906864682755862e-03 -1.371116442283113745e-01 -8.431367735383705764e-01 -9.996448633869887690e-01 1.264886281614888836e-02 -2.345534850448342465e-02
2.145070675285674217e-02 -3.229947528296861492e-02 -7.400033393195402098e-01 8.653223166620858109e-01 2.379041861751805820e-01 -4.411563061851046519e-01
2.514860530784693987e-02 1.359763064903141694e-01 -6.427094597518098196e-01 8.638430358997316594e-01 2.330741151069847528e-01 -4.466001188923159337e-01
-1.461523378748990840e-02 1.145593600047662558e-01 -7.437955406259900704e-01 -8.651790925795381781e-01 -2.333991777161017467e-01 4.438355118787749021e-01
-2.931411298703480005e-03 1.238272040951451380e-01 -6.988278313604406877e-01 8.201475579306208852e-01 3.013124525720264346e-01 -4.863833767158051158e-01
-1.255389846475354031e-02 -1.835511406029383466e-02 -7.991830937277533131e-01 8.653223166620858109e-01 2.379041861751805820e-01 -4.411563061851046519e-01
-3.889088275513836318e-02 1.097758436125296361e-01 -7.967254104484569055e-01 -6.108697541959670074e-01 2.063920917435509705e-01 7.643562310037644858e-01
-1.906145419234523894e-02 -1.347914315914970802e-02 -8.205907217023654665e-01 -8.646601978993311288e-01 -2.352730893995255701e-01 4.438573144300903550e-01
-4.215778059400577399e-02 3.603083615459783812e-02 -8.391385595691274180e-01 -8.646661718210553182e-01 -2.352510420765832888e-01 4.438573627982335679e-01
-1.138906710512708337e-02 1.392427385245027238e-01 -7.122250165188463988e-01 8.652599437974737295e-01 2.357840690587681975e-01 -4.424150793516001268e-01
3.031859823605244364e-02 4.958578329220481723e-02 -6.903687123911566026e-01 -8.681196865681478636e-01 -2.332177528605609007e-01 4.381525870555723623e-01
1.908851972402917513e-02 -1.338012686179138599e-01 -7.993740302144265453e-01 8.653223166620858109e-01 2.379041861751805820e-01 -4.411563061851046519e-01
4.684831341668441868e-02 -1.058026909741090343e-01 -7.309056921132113249e-01 8.332016389849633553e-01 2.721616411640608302e-01 -4.813554506512369713e-01
-2.908490613307832331e-02 2.016153442440419830e-01 -7.256465012714294893e-01 -8.539242540715392682e-01 -2.581946392991107952e-01 4.518283928059050880e-01
-4.072701963047644508e-02 -2.145954646645097802e-02 -8.671820474931166700e-01 -8.622017445169493088e-01 -2.398589819792449063e-01 4.461791350072408791e-01
-2.074238788625705054e-03 -1.572370995758944623e-01 -8.651604172786770963e-01 -8.653223166620858109e-01 -2.379041861751805820e-01 4.411563061851046519e-01
-1.133762254431102887e-02 1.279871647805262969e-01 -7.181230344231405160e-01 8.652599437974737295e-01 2.357840690587681975e-01 -4.424150793516001268e-01
-2.791718354118562923e-02 4.945459140688857058e-02 -7.927499558120513212e-01 8.653223166620858109e-01 2.379041861751805820e-01 -4.411563061851046519e-01
-1.898534397603157675e-02 1.627358678673446746e-01 -7.145801019088324768e-01 8.690617751002305269e-01 2.318755114875002687e-01 -4.369958560810919268e-01
-2.837527514185957112e-02 9.883813482582562426e-02 -7.737728659380347374e-01 -3.419622557794624318e-01 -7.405733983321893810e-01 -5.784573081091930469e-01
2.977119588755315280e-02 6.458471797050019392e-02 -6.834689723803554218e-01 -8.655954082389192283e-01 -2.350595163170316748e-01 4.421443350587020427e-01
1.191083321041886724e-02 -1.827507481706660830e-01 -8.400524191088052373e-01 8.640224470156108172e-01 2.424528932918796065e-01 -4.412276119958408183e-01
-2.559364002887516351e-02 7.596653373994534386e-02 -7.739722956124165387e-01 8.672816653075111626e-01 2.333543957756770981e-01 -4.397365563534590405e-01
-5.183154756914032033e-03 -4.898496010282963470e-02 -7.963967057624684598e-01 8.925026082959373053e-01 2.140890864702175156e-01 -3.969949083291826608e-01
-2.031226647357506354e-02 1.153484747467102139e-01 -7.544720141767943256e-01 -8.648250730444745349e-01 -2.337167578910140098e-01 4.443580427026522783e-01
2.002083520835266223e-02 -1.239545135988837504e-01 -7.983686745768427961e-01 -3.755348595687558327e-02 -9.973272288247333472e-01 -6.267483017340226559e-02
-3.323591432460713813e-02 -4.126258162720666117e-02 -8.521803108133341187e-01 8.679138670383795828e-01 2.360453093935760416e-01 -4.370447703791648375e-01
-1.783609121789330593e-02 -9.713948169884990824e-02 -8.633647309945335913e-01 -8.661371062281076894e-01 -2.403049609550097776e-01 4.382465504202066597e-01
6.884662773374719026e-03 -1.200570571591944198e-02 -7.576305387466494290e-01 8.653223166620858109e-01 2.379041861751805820e-01 -4.411563061851046519e-01
1.137381057494490748e-02 1.352895584643934723e-01 -6.698056987910375737e-01 8.651321711820844085e-01 2.354719266647779807e-01 -4.428310040394079494e-01
4.103191212107643732e-02 -1.459077501927543152e-01 -7.738243393794018710e-01 -8.716510217806960892e-01 -2.292118355677940089e-01 4.332279199962890126e-01
-3.016565644390584167e-02 -6.589460447058731463e-02 -8.593932120284142329e-01 8.680888423280802568e-01 2.360491190067853517e-01 -4.366950597861323780e-01
1.477500259515381227e-02 -8.749574340100631231e-02 -7.940928506765666528e-01 -8.653223166620858109e-01 -2.379041861751805820e-01 4.411563061851046519e-01
2.018732524849005047e-02 1.264502764704992510e-01 -6.694952643522794622e-01 -8.651298727170059211e-01 -2.357311688649907921e-01 4.426975483986806403e-01
2.512598850401108821e-02 1.131814888755556109e-01 -6.668814535077147720e-01 -8.680882061066433897e-01 -2.310038211273329756e-01 4.393860501234885252e-01
-1.748305789286213816e-02 5.017820316074633746e-02 -7.835452256264351378e-01 -8.648126687266197710e-01 -2.356170650536812960e-01 4.433775441600883993e-01
5.761131158315357416e-03 2.304249508811449104e-02 -7.571340856722538204e-01 -9.999802414205376522e-01 5.509286442869249477e-03 3.027297708069189627e-03
2.717020083630578356e-02 -2.844803240352236987e-02 -7.267213477948415434e-01 8.629200362255134982e-01 2.398914617170390950e-01 -4.447708372587176329e-01
-4.796743642255107964e-02 1.111362042181988363e-01 -7.939803598976012955e-01 8.788698585555720921e-01 2.741619155064375923e-01 -3.904139031955056738e-01
-1.212441200778452410e-02 -3.354098530925118254e-02 -8.014539997698258977e-01 8.756116393192651115e-01 2.765509587179068585e-01 -3.960098790697469950e-01
1.934984849518435815e-02 -9.327446761105399886e-02 -7.882356668711059111e-01 -8.653223166620858109e-01 -2.379041861751805820e-01 4.411563061851046519e-01
-2.426545813144313779e-02 -1.549729035473066396e-01 -8.964252650222533925e-01 8.712800249669138131e-01 2.441832382016111691e-01 -4.257295670669690169e-01
1.015255744327709167e-02 -4.561880367425929367e-02 -7.861801409335292812e-01 -8.857015263365265456e-01 -1.438211804436642927e-01 4.414162143611604638e-01
4.958606589864949371e-03 8.637425559070033287e-02 -7.085588493514225483e-01 8.653223166620858109e-01 2.379041861751805820e-01 -4.411563061851046519e-01
-2.112652836396315507e-03 1.286333538559983058e-01 -7.086487827947531848e-01 3.059067842382475755e-01 -3.230659001901173832e-01 8.955721430970053909e-01
2.915611872635017875e-03 -2.646854249974123774e-01 -9.199746822531222890e-01 -4.859431370269902684e-01 -4.219595568894962123e-01 7.653818654279622713e-01
-3.173262402701211571e-02 1.585545541009093784e-01 -7.419255640115826056e-01 8.682997893631199116e-01 2.349473218053288182e-01 -4.368698110060532103e-01
4.573708214277013434e-02 -1.007862050899035328e-01 -7.402832212481184060e-01 -8.754293284038088263e-01 -2.263280090604485040e-01 4.270821036817040173e-01
2.170586961544148166e-02 -5.658469775094142340e-02 -7.638285183333889394e-01 -8.653223166620858109e-01 -2.379041861751805820e-01 4.411563061851046519e-01
1.105444440811107583e-03 8.663986496663193815e-02 -7.278766720389779898e-01 -8.652099241156100407e-01 -2.339117708526171624e-01 4.435054347676622433e-01
2.208600686725136972e-02 3.463484399583857676e-02 -7.144445641253024393e-01 -8.658229439912527026e-01 -2.347891797278653381e-01 4.418423596046855972e-01
3.000290435874061745e-02 1.069610450201013419e-01 -6.486787643344642529e-01 8.653865379435864424e-01 2.350449679104216205e-01 -4.425607336920013291e-01
3.664957842970984186e-03 -1.814516726286252435e-01 -8.554904411307867607e-01 8.641860633538549497e-01 2.422022841374738833e-01 -4.410447839659338842e-01
-4.842234253724058551e-02 7.343861564832965261e-02 -8.204539156223759067e-01 8.741735408405060248e-01 2.301661454266598628e-01 -4.276028133604895531e-01
1.706334874826605577e-02 -1.042989410647768150e-01 -7.986658195824167805e-01 -8.653223166620858109e-01 -2.379041861751805820e-01 4.411563061851046519e-01
-1.329641096014486405e-03 -3.984096886649224345e-02 -7.887536257077460977e-01 8.653223166620858109e-01 2.379041861751805820e-01 -4.411563061851046519e-01
-2.145310610135468463e-02 -2.576289521353955503e-02 -8.318628829839864736e-01 -8.653223166620858109e-01 -2.379041861751805820e-01 4.411563061851046519e-01
1.251575737369888842e-02 1.091358928634545006e-01 -6.815050962857862604e-01 8.653849538342872627e-01 2.355311078553590787e-01 -4.423053005669904114e-01
-2.748282806192638844e-02 -1.169418849634412116e-01 -8.928544307874443087e-01 -8.597416737552637800e-01 -2.400760242327547034e-01 4.507857107286022957e-01
-1.662915961061581932e-02 8.828074242151151552e-02 -7.616214638127963843e-01 -8.649291714866467196e-01 -2.357505175945091846e-01 4.430792499828261621e-01
5.102377813045759491e-02 -7.706137950946871651e-02 -7.167934576134024072e-01 -8.706667116198527623e-01 -2.296061103848711649e-01 4.349948406027390191e-01
-1.763960767930224105e-02 1.710164963624013490e-01 -7.197702907138250339e-01 -8.655544669376459277e-01 -2.347959313648058377e-01 4.423644825015010107e-01
1.318349311035174956e-02 -2.053655189125387637e-01 -8.608131616796260710e-01 -8.686219043206963031e-01 -2.279399765010481915e-01 4.399310792010360793e-01
4.777950264137922204e-02 -8.805309075159663268e-02 -7.293052679480065414e-01 -8.751857140512099287e-01 -2.277402925370406450e-01 4.268305578046359128e-01
-2.609050609602357393e-02 -6.023769707311986410e-02 -8.595504513478047226e-01 -8.653223166620858109e-01 -2.379041861751805820e-01 4.411563061851046519e-01
5.059490584819735515e-02 -7.998593610647603686e-03 -6.709228798779390823e-01 8.386199932335157703e-01 2.544709626622536081e-01 -4.816233342673129081e-01
4.391672869048134781e-02 -9.689638231936253954e-02 -7.313744783731888077e-01 8.551077555474844161e-01 2.479715339150866948e-01 -4.553030252154517399e-01
