5.309076191230148282e-03 4.470042663352114670e-02 -9.240629864191078902e-01 -3.863479925347373251e-02 -4.680419535882903159e-01 8.828613039248578431e-01
6.618364119905754961e-02 1.093093917513632690e-01 -8.815359748886670843e-01 3.863479925347373251e-02 4.680419535882903159e-01 -8.828613039248578431e-01
-6.730085327221958791e-02 5.390373650896188029e-02 -9.166475916613515684e-01 3.863479925347373251e-02 4.680419535882903159e-01 -8.828613039248578431e-01
7.106073127221494701e-02 1.714934681382939696e-01 -8.542449306698853828e-01 -1.066331237947915067e-01 -4.930291223717702120e-01 8.634533348149664445e-01
1.059087079672827170e-01 1.681371260662785014e-02 -9.292696043166051023e-01 -1.417789804471227162e-02 4.690118273761691992e-01 -8.830780786478055200e-01
1.394913257793993196e-03 1.895588895603354807e-01 -8.514635205607498092e-01 -8.780835785747188871e-02 -4.586623262286627645e-01 8.842615918317868751e-01
-8.095936489070707301e-03 7.330808191178053712e-02 -9.096269884710972420e-01 -3.776326408684995556e-02 -4.634300160474802421e-01 8.853285018069501078e-01
-1.009525540937384197e-01 7.090706060529262944e-02 -9.145631674727738858e-01 -2.633506213873442695e-03 -4.675210368618362144e-01 8.839780227679050473e-01
7.407488151531028964e-02 -3.294086540466169971e-02 -9.564941253822283329e-01 3.371144121956546474e-02 4.683602417858512834e-01 -8.828942307237023224e-01
-6.950624061848482971e-02 1.305522327300557006e-01 -8.821544766049860264e-01 -3.175105710526957697e-02 -4.662788174066495595e-01 8.840678338286910298e-01
8.259297511949755671e-03 -1.208737379262177503e-01 -1.014411394977329017e+00 -5.245580557546008355e-02 -4.680862447359173117e-01 8.821245127250780804e-01
-3.306627330585267671e-02 1.963357713783760450e-01 -8.461420791569411737e-01 -2.718681802788891835e-02 -4.751767902459578252e-01 8.794702353900712977e-01
5.243814372537051322e-02 -1.136724012026413266e-01 -1.000158252221645672e+00 3.257098455844743140e-02 4.687530947622176036e-01 -8.827285353469302986e-01
4.777777691403124749e-02 -6.271743823301256793e-02 -9.789465874785538979e-01 -3.863479925347373251e-02 -4.680419535882903159e-01 8.828613039248578431e-01
1.387201862767858257e-02 -1.604992589604316566e-01 -1.032431797840861698e+00 -4.581013787211983546e-02 -4.710382470980949421e-01 8.809224716391852450e-01
1.229545197072020278e-02 -1.414022949013708230e-01 -1.016602328404462519e+00 3.863479925347373251e-02 4.680419535882903159e-01 -8.828613039248578431e-01
8.573195266929894975e-02 8.237691761030624393e-02 -8.975967464521761308e-01 3.131041125409981252e-01 -7.268939892591993468e-01 -6.112208627728288324e-01
-4.594257975957003284e-04 -5.252678000767892208e-02 -9.675110062988361292e-01 9.556882248448869688e-02 4.662477453365586055e-01 -8.794769127939081610e-01
9.041333003733985699e-03 3.943841314354726985e-02 -9.208734572070564894e-01 3.863479925347373251e-02 4.680419535882903159e-01 -8.828613039248578431e-01
-4.649065707430236755e-02 -1.112013499752340373e-01 -1.003164068409545084e+00 3.863479925347373251e-02 4.680419535882903159e-01 -8.828613039248578431e-01
-9.201402096032490138e-03 -2.402919500372199119e-02 -9.553186272241875887e-01 3.863479925347373251e-02 4.680419535882903159e-01 -8.828613039248578431e-01
-6.516954384743585404e-02 1.531803104713582442e-01 -8.642131992315689182e-01 4.939042486887990080e-02 4.627249084874250351e-01 -8.851249883471686841e-01
-2.166197125331578710e-02 7.231537998675337253e-02 -9.107642712165402443e-01 -3.813596475042736050e-02 -4.656611214467010207e-01 8.841410340921601607e-01
-1.982108414096022536e-02 2.082255861174219236e-01 -8.392735677319985710e-01 -3.055500365104126675e-02 -4.683659777412899072e-01 8.830060603678380193e-01
-1.623632068169675487e-03 2.073327239649210840e-01 -8.300053766743800132e-01 9.076240219023971878e-02 4.500435616897812685e-01 -8.883822256946798390e-01
-2.241139454804806728e-03 1.667489109746241593e-01 -8.541975744027673345e-01 3.905056243063536464e-02 4.636114658018543611e-01 -8.851776445160071116e-01
-1.496146364129228960e-02 -6.100949329135293281e-02 -9.751755059868809639e-01 3.863479925347373251e-02 4.680419535882903159e-01 -8.828613039248578431e-01
-1.835293750385003043e-03 -8.684594482993523122e-04 -9.403277904904295825e-01 1.238157677363575654e-01 4.647874866739715172e-01 -8.767224463256024780e-01
-3.916536342554640011e-03 -2.587818466188440691e-01 -1.077580369099601976e+00 5.511881443628462440e-01 3.893374290665085891e-01 -7.379756065356926076e-01
3.324129283498755694e-02 1.130762259465751818e-01 -8.869759864215144285e-01 -3.889450388918420237e-02 -4.634032451845589984e-01 8.852935388443956555e-01
-1.688399605856331226e-02 -9.910222298348402015e-02 -1.001120650946894619e+00 -3.995705494646427380e-02 -4.710933021147217792e-01 8.811779244072405204e-01
-6.175819590406125131e-02 -4.968564593963870762e-02 -9.712508119865784773e-01 4.362835834218818654e-02 4.681209844193098268e-01 -8.825867154533099113e-01
-3.950865246356357469e-02 6.006349961383784797e-02 -9.145300747512958850e-01 3.207709222597615595e-01 9.134649007097065398e-01 2.503754992087443565e-01
5.777830649898013649e-02 -1.720385216784049709e-01 -1.032495726184358587e+00 -7.788136350141606767e-01 6.272318489997135149e-01 -5.434106773924502788e-03
7.927074927810900951e-02 -8.508951794725989892e-02 -9.893589583363506801e-01 -4.546179342460570511e-02 -4.671606528505429790e-01 8.830029160579667691e-01
5.854036069974834916e-03 -9.557362212475993199e-03 -9.482955982737300005e-01 -9.618068997598177017e-01 1.276220713186452249e-01 -2.421571689765689983e-01
1.645043466849100203e-02 2.912869692557130269e-02 -9.318306602480441736e-01 -3.863479925347373251e-02 -4.680419535882903159e-01 8.828613039248578431e-01
6.419303933216069513e-02 -2.270610694942276284e-02 -9.593679412633239201e-01 -2.358462659339043144e-01 2.319090293188805912e-02 9.715136236132964065e-01
4.239545046695400443e-02 1.598791558834492810e-01 -8.619484582574956644e-01 -3.816211573176846866e-02 -4.651240889359598563e-01 8.844225431400808413e-01
-5.414876529929465998e-02 -1.736963427683049788e-02 -9.609830292975652943e-01 -2.303765568431500599e-01 -8.181492585835816733e-01 5.268381466221199183e-01
-6.411148669179744797e-02 -8.003603030917204320e-02 -9.874739858769303602e-01 4.395292038637870630e-02 4.685204400347748876e-01 -8.823586221367870630e-01
1.473370465258822849e-02 -1.058414352595814451e-03 -9.420934274744221515e-01 3.863479925347373251e-02 4.680419535882903159e-01 -8.828613039248578431e-01
3.763585494332260389e-02 1.373658021904181625e-01 -8.740015507714582466e-01 -3.825714787566160402e-02 -4.657109261681141033e-01 8.841095655426745026e-01
-2.710496110977136594e-02 -6.972541696351550189e-02 -9.803275944401339537e-01 3.863479925347373251e-02 4.680419535882903159e-01 -8.828613039248578431e-01
-6.293913089691165891e-03 -2.914900139022830183e-01 -1.097260130200587103e+00 9.798549985613007607e-01 8.958768064208577631e-02 -1.784887371001449285e-01
1.229420447972030817e-02 1.437199641282459750e-01 -8.656409333276163798e-01 3.834150068371122710e-02 4.659718670367646309e-01 -8.839684091954826961e-01
5.714596705284420708e-02 1.434954207066899828e-02 -9.320690224749921260e-01 3.863479925347373251e-02 4.680419535882903159e-01 -8.828613039248578431e-01
4.544765051218861707e-02 -3.552974780253188164e-02 -9.646352163484620545e-01 -3.863479925347373251e-02 -4.680419535882903159e-01 8.828613039248578431e-01
3.177960363544029415e-02 1.742196511656883273e-01 -8.487540877349113444e-01 3.394733609849354128e-02 4.612778925091928217e-01 -8.866060479458129917e-01
-7.672921823674322406e-02 -1.361177318842140826e-01 -1.022801217743171565e+00 2.378066755133051713e-01 -3.515391964887539800e-01 9.054657245933446230e-01
1.026341420694548562e-01 3.001691274719365046e-02 -9.272586518350052209e-01 -9.072143687275177615e-02 -4.674406165258643275e-01 8.793570895339747340e-01
2.211923468722457736e-02 -3.454025423161424801e-02 -9.680414055359506387e-01 -7.943621124912281228e-02 -3.919937958987110838e-01 9.165319156032178949e-01
-3.065870562257368322e-03 -2.216351184992638723e-01 -1.057526807412231484e+00 1.214549320159441920e-01 4.648532008323593145e-01 -8.770177883970839972e-01
-9.082984525991333324e-02 6.209994731835326298e-02 -9.189973829793056659e-01 -1.981463130749360271e-02 -4.662348431005209348e-01 8.844390603456976363e-01
-5.070988259863002529e-02 1.388653672106491821e-01 -8.709867937270802107e-01 4.460120701776147667e-02 4.674236768506301876e-01 -8.829076048217027184e-01
3.292638339769961286e-02 -4.465150897814969960e-02 -9.644078347235816029e-01 3.863479925347373251e-02 4.680419535882903159e-01 -8.828613039248578431e-01
-7.364611614252168301e-03 1.382142589601572380e-01 -8.786483340569878342e-01 -2.031534787879530832e-02 -4.212185993661360928e-01 9.067315910392633738e-01
2.783775702772230479e-02 1.808936202879209976e-01 -8.454688358081372535e-01 4.337656681323907165e-02 4.616360634680161668e-01 -8.860082495988681472e-01
8.368690164211875504e-02 4.965339976375836295e-02 -9.123461443916487390e-01 3.294451976853957076e-02 4.679034324239140785e-01 -8.831653506241849971e-01
-6.279241391084616590e-03 1.478268869702071275e-01 -8.697001078252810657e-01 9.583923269988712246e-01 -1.321243264986328714e-01 2.530361829797695417e-01
-1.748305340836887531e-02 1.514240284232321321e-01 -8.690271580207523661e-01 -3.078246934925593301e-02 -4.635695872401529027e-01 8.855256503155378711e-01
-6.478638483834366080e-02 9.807731426590758639e-02 -8.990564191477002920e-01 -3.812450738781922310e-02 -4.655812404103096824e-01 8.841835954791478214e-01
4.513468570356838488e-02 1.324940018533971586e-01 -8.701343236163144867e-01 3.331046106181288075e-02 4.676839684187761859e-01 -8.832678635996638050e-01
-8.223521232547567616e-02 1.340681675292292735e-02 -9.443334877895667168e-01 -3.736608177330634495e-02 -4.649321455006164006e-01 8.845574464177575758e-01
7.900363875080050613e-03 1.319160767087023678e-01 -8.805118943320419111e-01 -4.662378632666787648e-01 9.223412086155029221e-02 8.798381225006214335e-01
-5.106738093735607720e-02 -1.956521548993224099e-02 -9.565123265128834262e-01 -3.702538049147536259e-01 -6.812481559532157505e-01 -6.315164843109722925e-01
-2.098566717096046232e-03 -7.969270654373777907e-02 -9.901285253691778365e-01 -3.863479925347373251e-02 -4.680419535882903159e-01 8.828613039248578431e-01
8.801047756886265505e-02 -9.047699012330989721e-02 -9.916787011949312891e-01 -5.953938933542628903e-02 -4.664181442601768035e-01 8.825583129869986054e-01
9.074043203441878314e-03 -1.181610772570450274e-01 -1.007523808519432906e+00 3.120628353777083475e-01 -9.183257543121423616e-01 -2.435048166732231012e-01
2.062511958798623340e-02 1.571090035161459009e-01 -8.643684643080975505e-01 -3.681113755140254934e-02 -4.632659111276231090e-01 8.854544797668960632e-01
6.523876317149068793e-02 8.012662925583936835e-02 -8.969706422218606257e-01 3.418489986425074512e-02 4.649478344903849036e-01 -8.846778531329766437e-01
3.814254980950466684e-04 -2.030732453942316329e-01 -1.058771203296817731e+00 -9.185331297102466985e-02 -4.706800381139826239e-01 8.775096983038230825e-01
6.888789270752422589e-02 6.064577268613721706e-02 -9.071136132123944762e-01 3.863479925347373251e-02 4.680419535882903159e-01 -8.828613039248578431e-01
-9.967363881910196177e-02 4.104322505378943213e-03 -9.498110617265325128e-01 -2.020194634458797114e-02 -4.676559667533291553e-01 8.836796807236766416e-01
1.184077129422672278e-02 -1.052614289439081502e-01 -1.003145856424639160e+00 -3.726167718320054500e-02 -4.711223949993193494e-01 8.812804640655549360e-01
7.038410421377834514e-02 6.875656857428685820e-02 -9.084991583864170384e-01 -4.424452806658804582e-02 -4.655465190745425308e-01 8.839167722776513081e-01
-8.432881733046303230e-02 -9.034781245879505707e-02 -9.940240866458049940e-01 6.115143664636490950e-02 4.721488938208990294e-01 -8.793952034550716057e-01
-9.151330985941900920e-02 -4.459407043017007792e-03 -9.487480081755016448e-01 4.448430375514218771e-02 4.681126921746090463e-01 -8.825483862907800292e-01
2.533758990664425337e-02 -4.144972477775579756e-02 -9.616678801227617202e-01 -1.889257012888642395e-01 8.443246703130837805e-01 -5.014209115037115971e-01
-2.643020837682740973e-02 -1.195418274901679651e-01 -1.012421005988817235e+00 -3.863479925347373251e-02 -4.680419535882903159e-01 8.828613039248578431e-01
5.836825615845347287e-02 4.619716801437183384e-02 -9.209821927499173277e-01 -3.965070218418866727e-02 -4.652183099833488988e-01 8.843074950901057552e-01
6.059157970801274523e-02 -3.496373757195935655e-02 -9.580820556063850413e-01 3.371144121956546474e-02 4.683602417858512834e-01 -8.828942307237023224e-01
-3.292303705628945448e-02 -1.132148376905030979e-01 -1.012145420615326197e+00 -2.392815637890929187e-02 -4.424438616539621005e-01 8.964769225234052730e-01
5.791776248034805757e-02 6.097065024191508642e-02 -9.074214446373531917e-01 3.863479925347373251e-02 4.680419535882903159e-01 -8.828613039248578431e-01
-3.589689021614187944e-03 -3.244953888203339631e-01 -1.123971019346699407e+00 4.791363576810493408e-01 -4.182701045724327438e-01 7.716725149758175695e-01
-7.353367587187040200e-02 8.557878125999029972e-02 -9.002095718136209346e-01 4.931399159104600527e-02 4.641931141126966476e-01 -8.843601545997619162e-01
2.743687899983924487e-03 -1.044402688171650329e-01 -9.974251956720888712e-01 3.863479925347373251e-02 4.680419535882903159e-01 -8.828613039248578431e-01
-7.588832401019976470e-02 -1.061060665272295506e-01 -1.002874619903612263e+00 3.610702601952222035e-01 8.953918801268271332e-01 2.605794470128063312e-01
-7.404028233855558527e-02 4.713286158248239377e-02 -9.205320410101976991e-01 3.863479925347373251e-02 4.680419535882903159e-01 -8.828613039248578431e-01
-7.008437428239763789e-02 8.412279453726839024e-03 -9.408510555547092702e-01 4.340379688093178728e-02 4.679800471144707208e-01 -8.826725247332990465e-01
-2.009307822753552547e-02 1.246389179238447803e-01 -8.832277334907893129e-01 -3.851632938548132240e-02 -4.658797819637619519e-01 8.840093444800606326e-01
-3.673982438732555783e-02 -6.740846024248939306e-02 -9.795209083407891981e-01 3.863479925347373251e-02 4.680419535882903159e-01 -8.828613039248578431e-01
1.893494265149192612e-02 -1.580813946864680075e-01 -1.030876092667665667e+00 -4.408855898488414637e-02 -4.711390993116534309e-01 8.809563826129190867e-01
-6.417218902541735499e-03 -2.271392082855389627e-01 -1.065066135404259873e+00 9.800071127450499242e-01 9.026353415728342877e-02 -1.773092027237961055e-01
9.936299454648334084e-02 3.413789686452228800e-02 -9.252968149624433147e-01 -5.656140783584373555e-02 -4.679791051113963984e-01 8.819276412057646120e-01
-9.074376650637183683e-02 -9.793765430365142244e-02 -9.986993762612477177e-01 1.054195330608849318e-01 4.803406773075430403e-01 -8.707235817255414290e-01
1.415961741146344599e-02 5.407648679855087126e-02 -9.187482588551985074e-01 -3.267522735345754215e-02 -4.634823865720201774e-01 8.855034764781580803e-01
-4.419017243971703340e-02 1.934322109509320764e-01 -8.422468028904471771e-01 6.010882399226370049e-02 4.475960462802783812e-01 -8.922133761788879625e-01
-2.554326643238528580e-02 4.473440723765910454e-03 -9.409233143888116047e-01 3.863479925347373251e-02 4.680419535882903159e-01 -8.828613039248578431e-01
-5.512527255308763419e-02 -2.059372610875176771e-02 -9.540963649013809444e-01 -1.778760203079126911e-01 -4.288827210934629403e-02 -9.831178553535142584e-01
-3.604076843739782710e-02 1.992105061883273909e-01 -8.446808128738759747e-01 -2.718681802788891835e-02 -4.751767902459578252e-01 8.794702353900712977e-01
3.381981931972541724e-03 -9.456500675925869071e-02 -1.000443873309119436e+00 -5.319721137307331649e-01 -3.992447655996255174e-01 7.467324067925240616e-01
-3.042932343380952420e-02 -9.725907897454943996e-02 -1.000683639672826031e+00 -3.378587914672861320e-02 -4.710495786615429004e-01 8.814594765575245461e-01
3.290285062182923825e-02 1.731943070293240627e-01 -8.554364106766280118e-01 -4.274405978409118179e-02 -4.630064703374932589e-01 8.853236435218421185e-01
1.667797486396611949e-03 7.616467202272164672e-02 -9.105910640313531479e-01 -1.222936606700902457e-01 -4.582152567062044435e-01 8.803880048487573440e-01
-2.286715870645611957e-03 -2.090563101037754556e-01 -1.058826374015814809e+00 -3.704958320314233333e-02 -4.612078787412176029e-01 8.865182575511345586e-01
2.820052561596689267e-02 1.370825255185978975e-01 -8.656407576268354553e-01 4.370708152343380504e-02 4.685288264601666919e-01 -8.823663807062022135e-01
-2.658484208990856325e-03 1.620666076387824450e-01 -8.628389738037820500e-01 -3.874147684956921051e-02 -4.658191295519860109e-01 8.840314680569599792e-01
4.734335870119377176e-02 5.961303724060895010e-02 -9.085611479215078834e-01 3.460215173286716739e-02 4.654954411085064914e-01 -8.843736118873358754e-01
-6.909073008354790768e-02 1.777430281993662708e-01 -8.521060390113022187e-01 3.106594558638046122e-01 3.011542347757185101e-01 -9.015524551345063253e-01
-1.007645226067108157e-02 6.459342970982141774e-02 -9.084240721946548192e-01 3.819916286115514203e-02 4.657376054817849997e-01 -8.840980187721267924e-01
-1.863091333989954929e-03 1.850291118990745887e-01 -8.417597914184522523e-01 1.151479084203593795e-01 4.654801185831711208e-01 -8.775358786911298115e-01
-7.433862468226321019e-02 -7.899728986504786499e-02 -9.874375162549372531e-01 4.546179342460569123e-02 4.686537636629741765e-01 -8.822113551429426881e-01
2.985346631336274065e-02 1.913042779027068763e-01 -8.460603597584568369e-01 -3.736053517757154108e-02 -4.647060137670866453e-01 8.846765008634227545e-01
-7.338788266011342376e-02 -4.593058609762105948e-02 -9.698339956319312893e-01 4.355721684505292624e-02 4.681819373651386895e-01 -8.825578974694736623e-01
4.500173805833842036e-03 -1.665430285231028762e-01 -1.030283615352580950e+00 3.711982452079071182e-02 4.714447507485092781e-01 -8.811140480205849057e-01
-6.627121689941904703e-02 -1.614094045871141206e-02 -9.620213096019557542e-01 -5.767901460046345047e-02 -5.158897306703709162e-01 8.547110137722406797e-01
4.301600756509250251e-02 1.336895835422005629e-01 -8.757052150634384580e-01 -3.825714787566160402e-02 -4.657109261681141033e-01 8.841095655426745026e-01
-8.378193719553369070e-03 5.596531708230931962e-02 -9.128960219006660992e-01 3.807169510930695500e-02 4.657605694354221004e-01 -8.840914194757774069e-01
7.905612543081877441e-02 -1.179117390883269029e-01 -1.001529102162444618e+00 1.308540305768897925e-02 4.752049836041257191e-01 -8.797778104638808161e-01
-6.746273921844594262e-03 -3.778325266423318007e-01 -1.145917871002019695e+00 9.841565571028978443e-01 1.718363263936960039e-01 -4.368235390738018503e-02
-3.479144372526187662e-02 -7.223934708204729493e-02 -9.819967019999803481e-01 3.863479925347373251e-02 4.680419535882903159e-01 -8.828613039248578431e-01
1.389086567965349024e-02 -1.226271101141998277e-01 -1.006578995616175920e+00 3.863479925347373251e-02 4.680419535882903159e-01 -8.828613039248578431e-01
6.523760182153391651e-02 -7.168272415737940439e-03 -9.487942735251373438e-01 -4.344111401639012132e-02 -4.678280685808466899e-01 8.827512491415286933e-01
-4.173962942270056931e-03 -1.235456014214758452e-01 -1.005466353555285020e+00 1.918947520155264014e-02 3.999075998519982522e-01 -9.163545578116053525e-01
-3.611267319101301582e-02 -3.328329482259777261e-02 -9.670268401490943466e-01 -3.732166095265965905e-02 -4.648834559865455685e-01 8.845849116810325929e-01
1.085302960234799940e-01 -5.768521429967228033e-03 -9.450543420011824347e-01 -8.259926569910163163e-01 -2.331044331963797456e-01 5.132235904760378276e-01
2.816161382596847618e-02 -1.808196022858319651e-01 -1.037016033118752567e+00 3.153914932602599336e-02 4.778016184355721729e-01 -8.779014155815778597e-01
8.239806221581345846e-02 -1.225604005053424761e-01 -1.004078250533377847e+00 -4.742469564537801774e-02 4.908072122464428588e-01 -8.699765391375897661e-01
1.156903010523191618e-02 1.835526754278147266e-01 -8.509043239425797545e-01 -3.760557732340735065e-02 -4.650072842504144877e-01 8.845077988057693519e-01
1.848034330638541334e-02 1.243136348774099564e-01 -8.755998606651568261e-01 3.875189629384000189e-02 4.658617720459951594e-01 -8.840085406147366598e-01
-6.925147586947327100e-03 -3.952584312172053443e-02 -9.720001599773381296e-01 -6.394831963780145401e-02 -5.156955595955650118e-01 8.543820587002739497e-01
-5.588847909229063132e-02 -1.188665663577122972e-01 -1.013304660378716804e+00 -3.225733606654090230e-02 -4.670114802643509089e-01 8.836626854016127464e-01
-9.751898235616637475e-03 1.050799257815780013e-02 -9.370330999645178904e-01 3.863479925347373251e-02 4.680419535882903159e-01 -8.828613039248578431e-01
2.819548777866053013e-02 -2.932462210271079284e-02 -9.644494448210257920e-01 1.788454771114245667e-01 -8.376046074358599602e-01 5.161713057881130995e-01
5.672069086532075671e-02 -1.535894649387940444e-02 -9.535218520304361567e-01 -3.994530329681376252e-02 -4.648390435003381671e-01 8.844936610186734383e-01
2.714241425658240475e-02 -1.057358355240977377e-01 -9.970443200794946170e-01 3.863479925347373251e-02 4.680419535882903159e-01 -8.828613039248578431e-01
4.526535014960236802e-02 6.019688778731911022e-02 -9.083351391420833032e-01 3.460215173286716739e-02 4.654954411085064914e-01 -8.843736118873358754e-01
6.603097723265771539e-03 -3.573598443667185265e-01 -1.139081774643210032e+00 -9.798791016122068154e-01 -9.621712276294216992e-02 1.748691268088088946e-01
-3.452924370988535302e-02 7.891911086888171722e-03 -9.395042736932261995e-01 3.863479925347373251e-02 4.680419535882903159e-01 -8.828613039248578431e-01
-2.356001886850848329e-03 8.139446035326368400e-02 -9.051481558743058597e-01 -3.840420484534347312e-02 -4.634620565430583317e-01 8.852841573162119060e-01
7.821538911097696001e-02 6.232726428994461026e-02 -9.058469613579452906e-01 2.794503801661084655e-02 4.645980973327334396e-01 -8.850806080832717138e-01
5.946185201994260566e-02 -9.991982383983055716e-02 -9.925930753660899830e-01 3.291243446453721161e-02 4.689514133514767202e-01 -8.826105276809639300e-01
-4.362664294260977516e-02 -1.016332535128834126e-02 -9.551873875261165381e-01 -3.863479925347373251e-02 -4.680419535882903159e-01 8.828613039248578431e-01
1.607992515633074188e-02 4.393611043645765518e-02 -9.240110788559480204e-01 -3.206916543684688869e-02 -4.654515766676973754e-01 8.844921697820384843e-01
-2.885623579011785747e-02 -1.550584032926851513e-02 -9.516601510802376040e-01 3.863479925347373251e-02 4.680419535882903159e-01 -8.828613039248578431e-01
9.722176426076816966e-03 -1.338943761039305402e-01 -1.012734673335580204e+00 3.863479925347373251e-02 4.680419535882903159e-01 -8.828613039248578431e-01
-9.859907906448779971e-03 1.081678859507257673e-01 -8.914381803308358831e-01 -3.776289184267447169e-02 -4.638791233095986843e-01 8.850932848899014660e-01
-9.376968556694442736e-02 1.274879191677703305e-01 -8.797261759080837740e-01 2.747145915334934241e-01 3.831486989842511348e-01 -8.818894305213444973e-01
8.885702429514359679e-02 8.783831618275102227e-02 -8.975988080019654536e-01 -5.754146070324824003e-02 -4.664431834867382998e-01 8.826775950928477110e-01
6.210790958886684004e-02 2.467999569889915441e-03 -9.438400614125355137e-01 -4.340403315338914325e-02 -4.679206523695467745e-01 8.827040007794667575e-01
-1.617448732818147590e-03 -1.865741873947044938e-01 -1.046973863340211697e+00 -3.863479925347373251e-02 -4.680419535882903159e-01 8.828613039248578431e-01
-1.258730808844259587e-03 -8.761164596361245560e-02 -9.886787834792506446e-01 3.863479925347373251e-02 4.680419535882903159e-01 -8.828613039248578431e-01
2.222524667815590702e-02 5.562710172359963678e-02 -9.176356836494387048e-01 -3.937459008186183079e-02 -4.656415146630881186e-01 8.840970656427664665e-01
6.188884121500324090e-03 -8.119717563917189240e-02 -9.874882227668685397e-01 -9.600594472456102091e-01 1.310541587713140721e-01 -2.472057143821655423e-01
8.428018473915518949e-02 7.589750885086857246e-02 -9.064680423698534550e-01 -2.226202172098028509e-01 1.022578065066988839e-01 9.695275034251987778e-01
7.756301851389287363e-04 -1.715910837547803824e-01 -1.030651599727375078e+00 -4.446759981587682098e-02 4.679283356444879916e-01 -8.826469879105656169e-01
9.021248522399369363e-02 8.848179145838235005e-03 -9.391623942932957325e-01 -4.439776245481911326e-02 -4.678755834219670007e-01 8.826784675784037359e-01
9.646258315137830330e-02 9.378495836142718145e-02 -8.887602934224271278e-01 -2.037802056848215387e-02 4.550469313229837942e-01 -8.902342537620342444e-01
-9.081481872304276309e-03 4.056392457194996776e-02 -9.268856640206419861e-01 -3.863479925347373251e-02 -4.680419535882903159e-01 8.828613039248578431e-01
4.435824173184406416e-02 -9.162460593003290965e-02 -9.944211362397084031e-01 -3.863479925347373251e-02 -4.680419535882903159e-01 8.828613039248578431e-01
6.528546061802997791e-02 3.463734743971447205e-02 -9.267517192683768501e-01 -3.973987290611016160e-02 -4.649701601999242095e-01 8.844339956294436922e-01
7.206537626787082318e-02 -7.398175878351188894e-02 -9.783474345586155030e-01 3.180597361535347084e-02 4.689010669870659620e-01 -8.826778401097256088e-01
-3.519219156824078543e-02 -1.493766219210729274e-01 -1.028621119039899279e+00 -3.863479925347373251e-02 -4.680419535882903159e-01 8.828613039248578431e-01
5.281018882592963815e-02 -1.540635799502327319e-01 -1.021698422072583101e+00 2.707412480530377655e-02 4.734243792859160749e-01 -8.804182806278909590e-01
-5.516965015303645220e-02 -1.342163185570226791e-01 -1.015805528469716279e+00 4.551312355614842153e-02 4.687592668329902401e-01 -8.821526542171482799e-01
4.395535744912862364e-02 -1.210468801458800397e-01 -1.010128563503351007e+00 -3.699725151457568945e-02 -4.711553379163036515e-01 8.812739931107353986e-01
-9.338212600547780851e-02 -2.020291277190019302e-02 -9.624394532699973581e-01 -2.786050340831298239e-02 -4.643362533795740155e-01 8.852206708766211518e-01
3.718670129854684953e-02 1.992759231872476000e-01 -8.414173501586008630e-01 -5.059715897859652645e-02 -4.736340328720725079e-01 8.792671553109616678e-01
-3.794330781342971498e-02 -8.708122581379476590e-02 -9.900029352796868576e-01 3.863479925347373251e-02 4.680419535882903159e-01 -8.828613039248578431e-01
1.829412335495868291e-02 1.889818509922823742e-01 -8.417106059950770769e-01 3.657589402892760799e-02 4.619666583780026037e-01 -8.861427709590855573e-01
1.120105515467417160e-03 7.215625671513445361e-02 -9.014469383911626332e-01 -4.450087936363868180e-02 4.681934917921562467e-01 -8.825046889276740858e-01
-6.473547194092720003e-02 -1.599470456301217702e-01 -1.032806241159135219e+00 8.786939523247364603e-01 4.047977665231790589e-01 2.530527738748961086e-01
-6.482737149634798524e-02 -3.386579465881467757e-03 -9.524825905123155412e-01 -3.386468505771565024e-02 -4.680934074678624879e-01 8.830298664207609782e-01
9.259317965457954103e-02 8.498465132592171456e-02 -8.988631008602171457e-01 -5.804247586634576905e-02 -4.666614199152090969e-01 8.825294273609380902e-01
6.121828338520554635e-02 1.436443076248517248e-01 -8.695965625894823692e-01 -4.408537275615292961e-02 -4.655643865172979790e-01 8.839153137692109530e-01
8.088339456255981552e-02 7.776895111703353847e-02 -8.959133286851057587e-01 2.028862991751326506e-01 -1.067984128776758301e-01 -9.733608008409975199e-01
3.053007151863272248e-02 1.140278473927791303e-01 -8.804921000637564443e-01 3.863479925347373251e-02 4.680419535882903159e-01 -8.828613039248578431e-01
8.018625676706109262e-03 -5.906806379976323532e-03 -9.506707844961836962e-01 -3.863479925347373251e-02 -4.680419535882903159e-01 8.828613039248578431e-01
6.164108264703162254e-02 -5.600494543066859843e-02 -9.692030464930977418e-01 3.356059122087570734e-02 4.684963135070895346e-01 -8.828277810236672130e-01
-3.516977415107019195e-02 6.306965978200458622e-02 -9.162128435396152959e-01 -3.789470566330638973e-02 -4.656683149827388069e-01 8.841476187288115351e-01
-1.050643026744226272e-01 2.241569247116619729e-02 -9.402190322845095372e-01 1.417789804471227162e-02 -4.676770598940553914e-01 8.837856950957542201e-01
-6.268169674785618872e-02 -3.745004541750502486e-02 -9.703850837958363229e-01 -3.863479925347373251e-02 -4.680419535882903159e-01 8.828613039248578431e-01
-4.585977045112309830e-02 1.720448660233638294e-01 -8.534020251453789951e-01 4.682379562055515726e-02 4.633574739407540499e-01 -8.849335475090363001e-01
5.333210661361385135e-02 -4.002322601399473795e-02 -9.610612143572382360e-01 3.863479925347373251e-02 4.680419535882903159e-01 -8.828613039248578431e-01
5.093886889114261629e-02 -3.465984940225070449e-02 -9.639337459547935305e-01 -3.863479925347373251e-02 -4.680419535882903159e-01 8.828613039248578431e-01
-5.037776046067481139e-02 6.172139129139792013e-02 -9.117339912320638895e-01 4.266647958869189405e-02 4.653493982408377083e-01 -8.840981331709719671e-01
-1.034709018307885219e-02 -1.342006753412486042e-01 -1.013775304492412932e+00 3.863479925347373251e-02 4.680419535882903159e-01 -8.828613039248578431e-01
1.614993602812763232e-02 -7.552389361604910922e-02 -9.871198913116546736e-01 -3.863479925347373251e-02 -4.680419535882903159e-01 8.828613039248578431e-01
-2.634391670890038131e-02 -1.059305110887505397e-01 -9.994881354122775452e-01 3.863479925347373251e-02 4.680419535882903159e-01 -8.828613039248578431e-01
3.563564452779504482e-02 -1.800579664776010697e-02 -9.501632609067819368e-01 3.863479925347373251e-02 4.680419535882903159e-01 -8.828613039248578431e-01
4.623122106362143741e-02 1.492440852413270125e-01 -8.638991488013129105e-01 3.057428415528454790e-01 -7.935377696443332018e-01 -5.261360308770809402e-01
5.968269250340287047e-02 1.413441174148686308e-01 -8.657160299542401294e-01 -2.914632123534652286e-01 9.337089110703460371e-01 2.079347619625624144e-01
6.595023236556402102e-02 9.676840578660556025e-02 -8.940324062844778874e-01 -3.914477956957182481e-02 -4.655627635480231175e-01 8.841487428198814280e-01
-6.313655133610590608e-02 3.715866348285189191e-02 -9.310382452378772600e-01 -3.752921830808942510e-02 -4.650101945763399636e-01 8.845095119405206319e-01
3.027099397743713421e-02 1.827096130780441266e-02 -9.369319175944510469e-01 -3.978594328574296124e-02 -4.651257821073699894e-01 8.843500921783582491e-01
-1.013812650045103347e-01 -1.192699582077216477e-02 -9.533576237719746382e-01 9.278465224592641336e-02 4.682527384821019711e-01 -8.787094976222884490e-01
3.499429668417550904e-02 1.307691179364066647e-01 -8.775907059420268164e-01 -3.825714787566160402e-02 -4.657109261681141033e-01 8.841095655426745026e-01
-3.114921094997206378e-03 -3.019667429620144228e-01 -1.111963214661330968e+00 1.428706426589337539e-02 -4.752699955811823807e-01 8.797239971121197932e-01
8.806840497148780977e-02 -6.401703640670375339e-02 -9.724873933662699921e-01 1.861265882714515513e-02 4.702056515449684060e-01 -8.823605919274475351e-01
-1.253935222822121116e-02 -1.163980662580439140e-01 -1.012130945531779069e+00 -1.552851117887601162e-01 -7.378896561608698779e-01 6.568145776302056760e-01
-2.633766623455288322e-02 2.654842543854977338e-02 -9.292551990816170226e-01 3.863479925347373251e-02 4.680419535882903159e-01 -8.828613039248578431e-01
-3.659786489506810375e-02 -1.459774245096338297e-01 -1.021167412482561820e+00 3.863479925347373251e-02 4.680419535882903159e-01 -8.828613039248578431e-01
-8.703525660356666027e-02 1.333426556419980702e-01 -8.759018201804346093e-01 5.888262895347256415e-02 4.627172180708029048e-01 -8.845482531260489001e-01
-1.070208516803295394e-02 -1.971118460310891940e-01 -1.052911775069617528e+00 -2.229354134272459528e-02 -4.606197752810804458e-01 8.873175421653777262e-01
-2.095868789806280483e-02 6.214316183048796544e-02 -9.160914599153859861e-01 -3.813596475042736050e-02 -4.656611214467010207e-01 8.841410340921601607e-01
-4.300983088806302132e-03 1.540109454907965525e-01 -8.609591623434410534e-01 3.884790819303752391e-02 4.635933889474970204e-01 -8.851960289976451568e-01
5.174266425199652852e-02 3.047920820947894877e-02 -9.237544606081558030e-01 3.863479925347373251e-02 4.680419535882903159e-01 -8.828613039248578431e-01
2.308207494431866250e-02 1.310220486109601457e-01 -8.779776226152797847e-01 -3.832366489522220226e-02 -4.658748675101795911e-01 8.840203077595960579e-01
-5.704465804048181737e-02 -1.613089070525323410e-01 -1.035704515915164325e+00 -1.113969388132279859e-02 -4.554064791819171787e-01 8.902139326809933584e-01
-5.332462634536930257e-02 9.070207638711645648e-02 -9.024460450630881203e-01 -3.766710413563741089e-02 -4.634538491900371260e-01 8.853201222930454639e-01
-7.591183995167123666e-02 3.933987282044328765e-02 -9.304335734103132971e-01 -3.752921830808942510e-02 -4.650101945763399636e-01 8.845095119405206319e-01
-1.559416808404574806e-02 -4.465501247940345531e-02 -9.677926148716069488e-01 3.910228042728370323e-01 8.898887783046561806e-01 2.349449484156940215e-01
9.104759483881352811e-02 -3.052623671317433729e-02 -9.545931922680874759e-01 1.932126213496544384e-02 4.694050383139101723e-01 -8.827715439653842644e-01
-7.033002771355642557e-02 1.432910098937045795e-01 -8.754653226580947356e-01 -3.175105710526957697e-02 -4.662788174066495595e-01 8.840678338286910298e-01
5.486492870364013952e-02 -9.366762459697974830e-02 -9.950444444577425385e-01 -3.863479925347373251e-02 -4.680419535882903159e-01 8.828613039248578431e-01
4.283817835641699767e-02 -1.036249417054035532e-01 -1.000859695483611311e+00 -3.716260879084434809e-02 -4.712593462714492754e-01 8.812114213170780808e-01
7.103951061291090968e-03 1.308917235389247258e-01 -8.699247572275933260e-01 3.863479925347373251e-02 4.680419535882903159e-01 -8.828613039248578431e-01
-1.274182045243543726e-02 1.659875971616593948e-01 -8.550654997311114558e-01 4.020220343618083336e-02 4.634811124538784632e-01 -8.851943522398856290e-01
-4.304259676382867633e-02 1.221678604512655697e-01 -8.794460742731677882e-01 4.393000003803319842e-02 4.674940795582007147e-01 -8.829039815714325723e-01
2.891408419533299246e-02 -6.867139915467343481e-02 -9.773173717559064944e-01 3.863479925347373251e-02 4.680419535882903159e-01 -8.828613039248578431e-01
-2.722386400535619679e-03 8.823321072656839514e-02 -8.956220804064920493e-01 3.863479925347373251e-02 4.680419535882903159e-01 -8.828613039248578431e-01
1.011753404548714208e-01 1.875107388268761402e-02 -9.332936341021534910e-01 -4.893395868397872051e-02 -4.645540839936745936e-01 8.841917047407266139e-01
-1.465051360051011428e-02 1.094286794314852096e-01 -8.909834456284742021e-01 -3.839583932913208375e-02 -4.636821966886695567e-01 8.851692380534816884e-01
-6.384789080741771865e-03 -3.635018485370640207e-01 -1.142591869273371197e+00 9.615448596640198131e-01 -1.313758027837312603e-01 2.411884767078032454e-01
5.389530892165275006e-02 -1.581791569265073583e-01 -1.029289310032555527e+00 -4.734374799738004513e-02 -4.660094900551747799e-01 8.835121531162298814e-01
-5.771002077873413350e-02 1.490460999600868863e-01 -8.630441728281743607e-01 5.178183081917207831e-02 4.643398842803735382e-01 -8.841420213198236677e-01
5.371828402469160796e-02 4.321161441455462215e-02 -9.227607883971228331e-01 -3.951287191388263426e-02 -4.652169547908965863e-01 8.843143773162356336e-01
-1.074157115261993589e-01 2.885866317397592362e-02 -9.367552236874641114e-01 1.037896560093010956e-01 -4.640643596503934432e-01 8.796999360053070482e-01
-5.534366624457932871e-02 -1.033481214313884400e-01 -1.005010594819422121e+00 -3.423799553900951781e-02 -4.707188376098192517e-01 8.816187019231903621e-01
2.833316918253526648e-02 -4.031464690740084456e-02 -9.648940627664386316e-01 -3.705821905874987499e-01 9.100055218911066168e-01 1.858999466031802938e-01
7.398705692601774409e-02 4.352777888003581119e-02 -9.159654385691472500e-01 3.863479925347373251e-02 4.680419535882903159e-01 -8.828613039248578431e-01
5.903000903316760195e-03 -7.743788509345277127e-02 -9.843849953742915826e-01 -9.600594472456100981e-01 1.310541587713140443e-01 -2.472057143821655145e-01
-2.619300521174931524e-03 1.370160488167665967e-02 -9.434590995001154168e-01 1.764490929792844956e-02 -4.632019056410487390e-01 8.860771139050870326e-01
-2.034264830638198018e-03 -1.959857136299414659e-01 -1.054949592585751272e+00 1.589527386371963197e-02 -4.726388943937407383e-01 8.811128280617980257e-01
-3.482056081583839724e-02 1.416707925828294967e-01 -8.659286630585332212e-01 3.407565223320198344e-02 4.687912960580278843e-01 -8.826514434730824421e-01
5.052734374438825476e-02 -5.881964483665349380e-02 -9.711487264013555221e-01 3.863479925347373251e-02 4.680419535882903159e-01 -8.828613039248578431e-01
5.109225119633170609e-02 -1.754842066889512608e-01 -1.033464033266879634e+00 9.706240161988869894e-03 4.909838634286808889e-01 -8.711145933541487585e-01
2.007459274225304249e-02 -1.777557679178457251e-01 -1.041327125024644085e+00 -4.696542523614530285e-02 -4.671568998973376075e-01 8.829262028678822594e-01
-3.909966125283082655e-02 1.336998542141863422e-01 -8.792866629664179978e-01 -3.901203252808286420e-02 -4.656981389348489597e-01 8.840833132180732079e-01
-3.624122989160491470e-02 -1.876884769422814681e-01 -1.043753067287054304e+00 5.498607775786996249e-02 4.833793046577995467e-01 -8.736824246151156936e-01
7.745987176018784282e-02 -1.257766848330600373e-01 -1.010905356675108946e+00 -5.306611841102534810e-02 -4.643669602609712954e-01 8.840516462824852262e-01
-8.523533661748791679e-02 -7.241539926117397663e-02 -9.897999460737352262e-01 -1.692060145098225540e-02 -4.654638614310294686e-01 8.849051287840138391e-01
-5.312133363136111591e-03 7.425492729828571392e-02 -9.102338628230488560e-01 4.772912329400103570e-01 -4.072035834701422941e-01 7.787029732623855782e-01
9.233610551530536947e-02 -9.958985121303528046e-03 -9.515872412207811992e-01 -9.510875014105253655e-02 -4.151887409277630892e-01 9.047500400958408129e-01
3.816637673632111791e-03 -1.204111558659975156e-01 -1.005845082173754124e+00 3.863479925347373251e-02 4.680419535882903159e-01 -8.828613039248578431e-01
1.930077430797089155e-02 -3.892481855951100689e-02 -9.699845608671611163e-01 -2.449702394398707295e-01 5.052419301302430582e-02 9.682132449564790910e-01
2.385740455379247935e-02 1.278410884464597774e-01 -8.735068502293446002e-01 3.832169494763246198e-02 4.658611427141413075e-01 -8.840276259288591953e-01
-5.464608449773800114e-02 -1.632792694020833713e-01 -1.031435505093909244e+00 5.494586817032986320e-02 4.764584735234695390e-01 -8.774783613165020313e-01
6.570854658759529843e-02 7.286863385747588406e-02 -8.986639022962414902e-01 2.136287606033292208e-01 -9.327406347872738146e-02 -9.724519020112262213e-01
7.758609505975541665e-02 1.023639976580203864e-01 -8.905296248568779216e-01 -4.513812116801483448e-02 -4.659210301135995325e-01 8.836742294054431568e-01
7.532109490528765550e-02 5.992865115445808466e-02 -9.072143557564826821e-01 3.294451976853957076e-02 4.679034324239140785e-01 -8.831653506241849971e-01
3.712742764888022056e-03 1.013303336709229924e-01 -8.864297670050577116e-01 -4.855661197809185703e-01 4.094679597749459887e-01 -7.723739594514082984e-01
-2.244695476599415859e-02 -3.238324860875648609e-02 -9.603271000368812649e-01 3.863479925347373251e-02 4.680419535882903159e-01 -8.828613039248578431e-01
-8.294231979753786954e-02 -6.411872192785954619e-03 -9.567811245872999137e-01 -2.480365295631806466e-01 -8.373982103132089350e-01 4.870750633798527351e-01
3.022279790177489350e-02 -1.196441991061466953e-01 -1.011994124566043096e+00 -2.508710922653475395e-01 6.896944527418180648e-02 9.655604127573597095e-01
-8.828026140460490390e-02 1.413004883841703641e-01 -8.769129187823392346e-01 3.064106716563706756e-02 -4.814698193553381689e-01 8.759269022315095965e-01
1.052556051573967089e-01 -1.978949760537579428e-02 -9.487473077595439674e-01 -1.641051987848323249e-02 4.721437542903260676e-01 -8.813688048268748521e-01
6.176692537838174291e-03 2.056256547294937620e-01 -8.326396680642279557e-01 -9.616886265010121670e-01 1.202570387351596243e-01 -2.463599608159715015e-01
7.640289677414419112e-02 1.663512091272653648e-01 -8.536569392648692967e-01 -8.731542387413825379e-01 -4.138202857250461997e-01 -2.575935684181535623e-01
-4.064332756214496939e-02 1.076975863263658628e-01 -8.869626495334468341e-01 3.863479925347373251e-02 4.680419535882903159e-01 -8.828613039248578431e-01
-3.581549735348273783e-02 1.410738490498240072e-01 -8.691446176600626794e-01 3.901441918614190207e-02 4.656832941456569563e-01 -8.840910273547725184e-01
4.860721104587115843e-02 1.470462211508642703e-01 -8.684293572284865759e-01 -3.816211573176846866e-02 -4.651240889359598563e-01 8.844225431400808413e-01
-9.674347985690846460e-03 2.320253148117660397e-02 -9.302997966698982601e-01 3.863479925347373251e-02 4.680419535882903159e-01 -8.828613039248578431e-01
-7.617752180437883935e-02 -9.724817810532743190e-02 -9.959042650267643237e-01 -1.503255277744326157e-01 -4.504001261349528662e-02 -9.876100611896955206e-01
9.098155728723456015e-02 -1.083658795941040143e-01 -9.973203230908819217e-01 -9.479794524009406143e-01 2.965497264105351194e-01 1.157290697769983168e-01
-4.469106829240911821e-02 -2.075965220940375472e-02 -9.551383644048569987e-01 3.863479925347373251e-02 4.680419535882903159e-01 -8.828613039248578431e-01
5.322911083212356065e-02 1.445522426982852604e-01 -8.604981559764184329e-01 2.541844000208637669e-02 4.655830857747149665e-01 -8.846390750743234888e-01
1.336474707019246790e-02 1.368959009313940323e-01 -8.783965563389143361e-01 -5.946379028268695272e-02 -4.097310825019314651e-01 9.102661685886230813e-01
-4.645090892990789283e-02 1.222598238033926615e-01 -8.855758677282188351e-01 -3.309836775603314935e-02 -4.635024472844193610e-01 8.854772608109369170e-01
2.139217503704788845e-02 -1.945274719690127108e-01 -1.044735019289271039e+00 2.560746832071844614e-02 4.835567803356256023e-01 -8.749383394032099748e-01
6.635714455153031432e-02 -4.935816583649658279e-02 -9.654973083338594941e-01 3.364027362728168324e-02 4.683018660204007477e-01 -8.829279100085647425e-01
-3.565008344670507479e-02 1.738938833860795841e-01 -8.518936493855689962e-01 4.682379562055515726e-02 4.633574739407540499e-01 -8.849335475090363001e-01
-6.179457517144853335e-02 1.262458017183569481e-01 -8.841024127785528375e-01 -3.849781120005049684e-02 -4.652296115696469836e-01 8.843524902727195602e-01
-4.857346970378679379e-02 7.856588642035519654e-02 -9.086289041948977241e-01 -3.808228466845317572e-02 -4.654233104579499902e-01 8.842685574398726489e-01
-4.959494968090091827e-02 -1.446158052780081305e-01 -1.026688153205275178e+00 -3.128994737830712025e-02 -4.665952658636776662e-01 8.839173021650083006e-01
3.270710403876857242e-02 1.551264002016750909e-01 -8.648919026185744041e-01 -3.789106852773325290e-02 -4.628597589547371882e-01 8.856213132407040334e-01
2.348957516713848226e-02 3.303652657041098589e-02 -9.236350988737074275e-01 3.863479925347373251e-02 4.680419535882903159e-01 -8.828613039248578431e-01
8.654447440439793152e-03 -2.110164336754465908e-01 -1.054270003450610949e+00 6.322132367597823981e-03 5.079065195764554952e-01 -8.613889934367967571e-01
-3.852818657737414054e-02 -1.096180953792074420e-01 -1.010347056273829702e+00 -5.672096544455366984e-02 -5.167703764432456381e-01 8.542430041327491175e-01
-3.212458655205465557e-02 2.829726267931835862e-02 -9.343823770503286719e-01 -3.755195373306095818e-02 -4.651213423287633431e-01 8.844501046871549033e-01
1.006432087653551105e-01 5.219665185843857386e-02 -9.156436094924251812e-01 -5.776778453542451286e-02 -4.656899473457010719e-01 8.830604486732641645e-01
-3.244341948152134475e-02 1.192027552948269481e-02 -9.372773905405971107e-01 3.863479925347373251e-02 4.680419535882903159e-01 -8.828613039248578431e-01
-1.401990711950494919e-02 -4.652793443864020203e-04 -9.487504277580628420e-01 -3.863479925347373251e-02 -4.680419535882903159e-01 8.828613039248578431e-01
3.559171360346210372e-02 2.085010538514915912e-01 -8.312773292460282626e-01 -2.774989296538073885e-03 4.252074480305174098e-01 -9.050916669452762076e-01
4.339219985633416959e-02 -3.374414381162262749e-02 -9.581673876743651563e-01 3.863479925347373251e-02 4.680419535882903159e-01 -8.828613039248578431e-01
-5.574183214543203257e-02 1.464732415436213464e-01 -8.672310347602399938e-01 4.530088315787520609e-02 4.635033301987555587e-01 -8.849364343724240856e-01
8.389934029373077862e-02 1.475859599775596054e-01 -8.661754878900496113e-01 -1.075958555403714323e-01 -4.831990836880261098e-01 8.688738558580222371e-01
7.719165789707677083e-02 -8.815817134252906806e-02 -9.910895000124791965e-01 -4.546179342460570511e-02 -4.671606528505429790e-01 8.830029160579667691e-01
8.192819079775789937e-02 3.660124427092961708e-02 -9.193277478491073129e-01 3.289794678352262608e-02 4.680313556907905181e-01 -8.830993008646699227e-01
-7.552677423451238659e-02 -1.346761375857146170e-01 -1.017342574062339855e+00 1.301249777535420371e-01 4.993141882301323498e-01 -8.565937377758044979e-01
8.927246087875521929e-02 1.189466586558732969e-01 -8.757947805851943324e-01 1.836992491493537327e-02 4.634508925419532077e-01 -8.859321735103011797e-01
1.724925706202250220e-02 -1.704711319449771223e-01 -1.031854462501738290e+00 3.660932854154030219e-02 4.715608858721407337e-01 -8.810732591443340977e-01
3.836302315195500023e-02 -8.083498950027076524e-02 -9.833523091855654874e-01 3.863479925347373251e-02 4.680419535882903159e-01 -8.828613039248578431e-01
7.008059682773636057e-02 5.834545785934764500e-02 -9.140237971479180379e-01 -4.344695966541689547e-02 -4.681472505661899430e-01 8.825817318997422056e-01
-1.168153219567221292e-03 -1.285926441245923563e-02 -9.490454345171857042e-01 3.863479925347373251e-02 4.680419535882903159e-01 -8.828613039248578431e-01
-1.056079317262556549e-01 1.857769565526759536e-02 -9.375646197335976151e-01 9.133969894627902431e-02 4.671009313003166574e-01 -8.794735808282018175e-01
5.072943081767888364e-03 -1.986666816149740833e-01 -1.047552854191954541e+00 3.393732294242897407e-02 4.767781191908631033e-01 -8.783683072449302021e-01
-7.223806004981053915e-03 2.281774294659334734e-01 -8.227575541355568456e-01 9.819052785500714808e-02 3.438191006006078299e-01 -9.338881337193144505e-01
-8.130456935471876145e-02 -3.555114216822100742e-02 -9.647265809893754707e-01 4.470006700452459902e-02 4.682128116877500856e-01 -8.824843720889578025e-01
9.877337611888357613e-03 -1.602530378777826114e-01 -1.032507874162077899e+00 -4.581013787211983546e-02 -4.710382470980949421e-01 8.809224716391852450e-01
-6.334661976017809393e-02 -3.505361388218603685e-02 -9.691437321526517046e-01 -3.863479925347373251e-02 -4.680419535882903159e-01 8.828613039248578431e-01
-1.828256612555938156e-03 -8.282525749575693486e-02 -9.945420321396383212e-01 4.624406925664846513e-02 -4.709126138645627901e-01 8.809669665554045181e-01
-3.021779383579968961e-02 -3.752778741831094139e-02 -9.633944955498441320e-01 3.863479925347373251e-02 4.680419535882903159e-01 -8.828613039248578431e-01
-7.344888630828438902e-02 -1.866798745916390528e-02 -9.525959609947097784e-01 7.538489411133460216e-02 5.416176475586589323e-01 -8.372379838450039191e-01
-9.113539470924948704e-02 -1.825625871898016797e-02 -9.613488367637204046e-01 -1.932126213496546813e-02 -4.672026737882624126e-01 8.839391101397257033e-01
7.303865813145588026e-02 -7.219218714561162487e-02 -9.828563711618389931e-01 -4.546179342460570511e-02 -4.671606528505429790e-01 8.830029160579667691e-01
-6.498973819949267761e-02 7.985372210964998552e-02 -9.098990907132779027e-01 -2.090309938005628643e-01 -8.612382065903321227e-01 4.632221876592456655e-01
-1.382407356006901816e-02 1.356092719816678616e-01 -8.710583800752881301e-01 3.891361101569732611e-02 4.659567452779033725e-01 -8.839513801152989458e-01
-6.796732786121796599e-02 -7.503323804467673663e-02 -9.850096421297632743e-01 4.395292038637870630e-02 4.685204400347748876e-01 -8.823586221367870630e-01
4.017875212712240796e-03 -2.119448960331664356e-01 -1.059938953560530583e+00 -4.890210220243793732e-02 -4.272350532958252289e-01 9.028171429672209314e-01
1.192589007911965676e-02 -1.152528844136746639e-01 -1.008468759531949255e+00 -3.863479925347373251e-02 -4.680419535882903159e-01 8.828613039248578431e-01
