4.209766398904732365e-02 8.551939814197229150e-02 -6.581769105360472105e-01 8.479898233265490415e-01 2.186133540961268940e-01 -4.828265329758191782e-01
-9.361092215788277549e-03 -9.975609338617688615e-02 -8.669978595092378004e-01 -8.754324012974513680e-01 -2.197702326222622515e-01 4.304871143387857813e-01
1.938289157935094847e-02 1.621851431883287453e-01 -6.658051538550773252e-01 8.738040670748680183e-01 2.135526632909372780e-01 -4.368772280226647653e-01
-3.140887795665497223e-02 -1.146223794958698278e-01 -9.192057985795878405e-01 -8.685182282701147116e-01 -2.167262411364573038e-01 4.457643139209365168e-01
-6.107769481519034586e-03 7.283620571083687656e-02 -7.621002814404685965e-01 8.775601029625458294e-01 2.127352700482856573e-01 -4.296882248396492465e-01
4.191228016372246928e-02 1.099465916155158290e-01 -6.573776754091478214e-01 -8.832885843883627741e-01 -2.104806184079008047e-01 4.189262297395923151e-01
-4.534701422654090035e-03 -1.544514547351951705e-01 -8.847018225648739520e-01 -8.741545923559885800e-01 -2.207720663610781564e-01 4.325661144583508588e-01
8.631319557390144601e-03 -4.257610186308408845e-02 -8.013244021814950324e-01 -8.783922010304177075e-01 -2.111821891944630214e-01 4.287531039374202768e-01
-6.820310294974666872e-04 1.873457101278686587e-01 -6.943109164644825082e-01 8.774999171464130665e-01 2.094159112023065705e-01 -4.314381433570122493e-01
2.018537567816481790e-02 -1.738621327539077721e-01 -8.320645045805955542e-01 8.721569430156508318e-01 2.247106144628697733e-01 -4.345657677467408830e-01
-3.220278529345687452e-02 3.156262791364460724e-02 -8.362315523169204790e-01 8.800487391613794896e-01 2.130498001747032910e-01 -4.244101781837769094e-01
-5.611671019410541250e-03 -7.987375551859320078e-02 -8.491672735614832490e-01 -8.777719829332711887e-01 -2.149017521613881543e-01 4.281747107143981101e-01
-1.564336344174776031e-02 -1.115052353752826880e-01 -8.687986053200432712e-01 8.705966081438036852e-01 1.959175229127244622e-01 -4.513068469503276892e-01
-1.823851242664761840e-02 8.867175551239872555e-02 -7.902917458922825711e-01 -3.276494480794323594e-01 -7.510852870131744519e-01 -5.731637905569235691e-01
-2.176831434636997131e-02 -2.014293252607612245e-02 -8.523098933796225962e-01 -8.777719829332711887e-01 -2.149017521613881543e-01 4.281747107143981101e-01
1.077802707835325696e-02 -2.173565057279135126e-01 -8.810456349476892823e-01 -3.150136148925647417e-01 9.322687043402733131e-01 -1.778805367094076773e-01
-2.718726149772948686e-03 -8.225894042214258739e-02 -8.444337722849712957e-01 -8.777719829332711887e-01 -2.149017521613881543e-01 4.281747107143981101e-01
3.181018055797439625e-02 1.096008477449534335e-01 -6.664592136691090962e-01 8.739845246486436237e-01 2.140132883502577910e-01 -4.362904572463096597e-01
-1.497413164184049211e-02 2.013887049087038916e-01 -7.166016213096857435e-01 8.754657017017721810e-01 2.103871091200160415e-01 -4.350828305736120782e-01
3.897818782607919818e-03 -3.406533504527023415e-01 -9.565414504307444554e-01 -2.395924121047456612e-01 4.322174497899989309e-01 -8.693581265271862479e-01
-7.047352630518177383e-03 1.934505631886279664e-01 -7.043395157219848324e-01 8.792349086261096458e-01 2.078543671164669315e-01 -4.286520004897325098e-01
-3.954937392871785140e-02 -7.896890387573486658e-02 -9.071325695272856038e-01 8.811415148051965351e-01 2.134142323053027646e-01 -4.219525996321654149e-01
2.294359925196832670e-02 -6.529621115988556990e-02 -7.717418086644842745e-01 8.777719829332711887e-01 2.149017521613881543e-01 -4.281747107143981101e-01
-4.711890599856342898e-02 9.736712534307244427e-02 -8.344528270627681321e-01 8.896778096715080020e-01 2.003825776072738485e-01 -4.102684701138668566e-01
-4.164047400310526628e-03 1.762302663605738451e-01 -7.097095214895720039e-01 6.733921234036134296e-01 -3.268051262909535404e-01 6.631300457436133389e-01
1.215348689146084592e-02 -1.153026474390681927e-01 -8.307071564509171946e-01 -8.800812612866427687e-01 -2.159494307604891694e-01 4.228744694189197073e-01
1.660843568086434185e-02 1.273712295630043401e-01 -6.824308755927117609e-01 8.798669583232289204e-01 2.140624609909434484e-01 -4.242775016961542467e-01
-2.176575078998399873e-02 1.086049352592279582e-01 -7.763264179945528198e-01 8.777719829332711887e-01 2.149017521613881543e-01 -4.281747107143981101e-01
9.095179629521886770e-04 2.123266095384163943e-01 -6.912512188411773506e-01 -8.675004697222346017e-01 -2.275923887066204354e-01 4.423173517221737350e-01
-3.352532171170980596e-02 1.116727449332710759e-01 -8.163027114543651708e-01 -8.772714399072859548e-01 -2.688406933792932829e-01 3.976424302138016897e-01
3.392224582335436056e-02 -1.287884065327613847e-01 -7.981031616310552135e-01 -8.674311766543143509e-01 -2.721845042669907011e-01 4.165078023339352509e-01
-3.842959835349085695e-02 1.086083375964614489e-01 -8.106302109713142690e-01 8.828356524681693074e-01 2.070119836563727722e-01 -4.216008175439835970e-01
-1.579927879668436425e-02 -1.852263612715155661e-01 -9.186151698088905748e-01 3.361758768035518763e-01 3.604618643183838955e-01 8.700879405137610378e-01
-5.936056748538963770e-03 -1.249426097622531595e-01 -8.608826839396245267e-01 8.777719829332711887e-01 2.149017521613881543e-01 -4.281747107143981101e-01
-8.432081221182840397e-03 5.895364058232124838e-02 -7.772315079055888143e-01 3.494537688383744234e-01 7.488756606802888793e-01 5.630873007672230202e-01
1.596273182234212579e-03 1.753713941393865439e-01 -6.955087953183143323e-01 8.772157124491182234e-01 2.108584537576116691e-01 -4.313134664154776310e-01
3.384503152303187771e-05 -1.784308957478638810e-02 -8.083544697167448501e-01 2.519771100216694482e-01 -4.334868614138978060e-01 8.652148155265578788e-01
3.285258793517974868e-02 -1.300518330751507523e-01 -7.842357143108117379e-01 8.743565601531122500e-01 2.189906461846200247e-01 -4.330631623687935527e-01
1.966704336287871877e-02 7.910830996115825187e-02 -7.061922679124109647e-01 8.777719829332711887e-01 2.149017521613881543e-01 -4.281747107143981101e-01
1.563561506922290720e-02 6.644946222654764083e-03 -7.506160000159527446e-01 8.777719829332711887e-01 2.149017521613881543e-01 -4.281747107143981101e-01
3.626435421279077670e-02 -1.108297014066489533e-01 -7.676421423989827630e-01 8.745993715300954818e-01 2.183646438104385745e-01 -4.328889253061369846e-01
4.825364971277741610e-02 6.419899132724134379e-03 -6.954446484006865381e-01 -8.862282132825790582e-01 -2.081421162924378121e-01 4.138555465464650029e-01
-3.608852597547781288e-02 9.125483978177376110e-03 -8.636689608849610345e-01 -7.064388420378379246e-03 6.031200413644225433e-01 7.976191510494361481e-01
-2.215756631352833531e-02 1.119741913384600385e-01 -7.754386160381326887e-01 8.777719829332711887e-01 2.149017521613881543e-01 -4.281747107143981101e-01
-1.203354285453437679e-02 -1.052445336397191261e-01 -8.807593614920655734e-01 -8.618576815645123679e-01 -1.742522193032559619e-01 4.762746064993741979e-01
1.231436783541003162e-03 1.673510825708916794e-01 -7.160382057449499182e-01 -4.929044410864971137e-01 -3.825857928565344346e-01 7.814558996268085034e-01
2.397883868690204798e-02 -1.608940936386484347e-02 -7.449225411821152054e-01 8.777719829332711887e-01 2.149017521613881543e-01 -4.281747107143981101e-01
-2.644703563184293456e-03 6.515156422001824876e-02 -7.661508185621741518e-01 2.639210709826543266e-01 -4.326685377282067368e-01 8.620577734418407578e-01
-1.841865973003278811e-02 -6.402533311082260481e-02 -8.674676587440398601e-01 -8.777719829332711887e-01 -2.149017521613881543e-01 4.281747107143981101e-01
2.873553927070993802e-02 -4.915829242555846967e-02 -7.465495030454541991e-01 8.562350203435142859e-01 3.056602721120844079e-01 -4.164533443132713564e-01
2.311327355968906868e-03 3.377240805521871531e-02 -7.763076326426746609e-01 -8.777719829332711887e-01 -2.149017521613881543e-01 4.281747107143981101e-01
9.728733351201349078e-03 -1.978338623310249220e-02 -7.877698062355760200e-01 -8.777719829332711887e-01 -2.149017521613881543e-01 4.281747107143981101e-01
-1.170612537588076874e-02 -1.275033412941070921e-01 -8.857768217926258458e-01 -8.777719829332711887e-01 -2.149017521613881543e-01 4.281747107143981101e-01
-4.999096340761601670e-02 6.240657863604297945e-02 -8.579121351501581838e-01 8.863276500303919336e-01 2.079465926246774621e-01 -4.137408747119255548e-01
-4.051900502863845649e-02 5.934347311855272915e-03 -8.663583184744958476e-01 8.806245404428110213e-01 2.128856329679653103e-01 -4.232967352174083486e-01
3.365539547998708941e-02 -9.733735794629603741e-03 -7.336685293186817614e-01 -8.783556785884963913e-01 -2.112499986931963281e-01 4.287945194886085831e-01
3.847828434425978449e-03 -2.538167578255413059e-01 -9.243696636744564987e-01 -8.509718786319997452e-01 -2.399090563946938703e-01 4.672156958379424241e-01
2.303636640403423919e-02 -2.558032124983046149e-02 -7.633982221612576335e-01 -8.777719829332711887e-01 -2.149017521613881543e-01 4.281747107143981101e-01
-3.777959814352643136e-02 1.032828027000408100e-01 -8.182176345811519314e-01 -5.989762810213006272e-02 6.478089472420398565e-01 7.594444298438820518e-01
2.591288404069864298e-02 -2.963108891404538786e-02 -7.477704165355368859e-01 8.754752266264171912e-01 2.168086755224347406e-01 -4.318994394319481955e-01
3.034344170317717498e-02 6.416538086527392992e-02 -6.919588994314740393e-01 8.756245003445446429e-01 2.134477257649076698e-01 -4.332687419629478454e-01
-7.058620593454384418e-03 -6.353199776811101207e-02 -8.439316056879130334e-01 -8.777719829332711887e-01 -2.149017521613881543e-01 4.281747107143981101e-01
2.176904094344758386e-02 -1.908137726642454290e-01 -8.489154267982723656e-01 -8.820913658406109858e-01 -2.099867087165609991e-01 4.216875673669211455e-01
-7.720142161705106920e-03 -6.079010336079412186e-02 -8.439115839223979565e-01 -8.777719829332711887e-01 -2.149017521613881543e-01 4.281747107143981101e-01
2.810466859303366316e-02 -1.431503896210780530e-02 -7.356391058864524268e-01 8.754753409087768778e-01 2.168087920018363923e-01 -4.318991493061373754e-01
-1.696297308310778032e-02 6.812176682046917724e-03 -8.173602250470768382e-01 8.777719829332711887e-01 2.149017521613881543e-01 -4.281747107143981101e-01
-1.046794976690128449e-02 -2.862029003077349882e-03 -8.089007208953297168e-01 8.777719829332711887e-01 2.149017521613881543e-01 -4.281747107143981101e-01
-2.894713903605825034e-02 7.171314812793710969e-02 -8.213933004827262963e-01 -8.772799490308079706e-01 -2.124658686870397051e-01 4.303930130375780982e-01
1.858008804135540329e-02 1.706014431789506236e-01 -6.758070092642862736e-01 -8.799550170761225587e-01 -2.100293186387023892e-01 4.261066219090282048e-01
9.957251197678604684e-03 2.022239864094610706e-01 -6.777697320642471768e-01 -8.777719829332711887e-01 -2.149017521613881543e-01 4.281747107143981101e-01
-1.515586623672736388e-02 -1.445066910943176020e-01 -9.013829175603101929e-01 -8.777719829332711887e-01 -2.149017521613881543e-01 4.281747107143981101e-01
-1.220145240015607820e-02 1.092204478241686622e-01 -7.564103704599847156e-01 8.777719829332711887e-01 2.149017521613881543e-01 -4.281747107143981101e-01
1.982858790618335920e-02 -4.748306236894239002e-02 -7.808012037746165923e-01 -8.783949745949805044e-01 -2.111672303569899767e-01 4.287547893955724887e-01
-5.554915395187104941e-03 1.820154122812229491e-01 -7.013047484888977889e-01 9.119250314563326354e-01 1.842813876358383451e-01 -3.666512064270031623e-01
1.255355524269299861e-02 -7.864415065791906245e-02 -8.113108319970139259e-01 -8.777719829332711887e-01 -2.149017521613881543e-01 4.281747107143981101e-01
-1.694930522467807954e-02 9.237753840307923181e-02 -7.745624183703938570e-01 8.775129646486046209e-01 2.125940588616260229e-01 -4.298543509263996754e-01
3.268160547526341442e-02 -1.328687919511468696e-01 -7.972631360671195155e-01 -8.777719829332711887e-01 -2.149017521613881543e-01 4.281747107143981101e-01
3.100252317081570938e-02 -7.599442138272136105e-02 -7.607439473801055341e-01 8.753666765557620577e-01 2.170442668754244131e-01 -4.320011201284432723e-01
-1.533665483309175348e-02 2.015424048713373648e-02 -8.191098858675179839e-01 -8.777719829332711887e-01 -2.149017521613881543e-01 4.281747107143981101e-01
1.817390340162209489e-02 3.438329209852671042e-02 -7.436109072271356313e-01 -8.781710138343766792e-01 -2.118248500226316833e-01 4.288891504503149488e-01
-1.776864216774603003e-02 -4.118133315428344071e-02 -8.430999122131516144e-01 8.777719829332711887e-01 2.149017521613881543e-01 -4.281747107143981101e-01
1.914092540659831365e-02 -5.268647409800688436e-02 -7.847783001552908200e-01 -8.777719829332711887e-01 -2.149017521613881543e-01 4.281747107143981101e-01
-9.555080899670906000e-03 -2.167394710365838292e-02 -8.339106227432088181e-01 -8.847776108444290744e-01 -2.571155428706665136e-01 3.886646072936749130e-01
-4.364036345306103459e-02 -6.566661241190803466e-02 -9.091945616078136450e-01 8.883370557235157339e-01 2.106616675520466275e-01 -4.080183050460682859e-01
-3.338307135500862000e-02 2.056257900842876074e-01 -7.531022712719392942e-01 9.114296972970287181e-01 1.297178891302223913e-01 -3.904730158726031908e-01
3.387389677872346128e-02 -1.327945350798389323e-01 -7.947816307216647447e-01 -8.777719829332711887e-01 -2.149017521613881543e-01 4.281747107143981101e-01
4.323487966913931030e-02 -3.689971338398515682e-02 -7.164320436988759200e-01 8.687593792830111683e-01 2.227979948844997504e-01 -4.422874567328848872e-01
1.771310423747930393e-02 -7.459055121040999992e-02 -7.871293403840462499e-01 8.777719829332711887e-01 2.149017521613881543e-01 -4.281747107143981101e-01
3.182968545752685313e-02 1.021713270490520048e-01 -6.821565154862387903e-01 -8.778331105735056594e-01 -2.120017671807890025e-01 4.294930508088181664e-01
-1.476390139564648721e-02 3.080265828297851921e-02 -8.126743463876721085e-01 -8.772475742295215984e-01 -2.123556781230157564e-01 4.305133673619604417e-01
1.148783333791049931e-03 1.429403915743423029e-02 -7.883892357719093358e-01 -8.775923362728719201e-01 -2.121703248938822950e-01 4.299016684656472576e-01
-1.510124333418338353e-03 5.329979223686888423e-02 -7.743408984390524052e-01 -8.777719829332711887e-01 -2.149017521613881543e-01 4.281747107143981101e-01
-3.347662829825003017e-02 1.148934031219082524e-01 -8.092483048266083667e-01 -8.769435725825377448e-01 -2.099785037647575459e-01 4.322950363616138714e-01
-3.033350871589499814e-02 -6.033371146239287219e-02 -8.785285534156337395e-01 8.804155343340329676e-01 2.131478217586958157e-01 -4.235994487518162099e-01
3.837235704699128863e-02 1.215617035267083784e-01 -6.485603075364075876e-01 7.359276030838849403e-01 2.155393635267327246e-01 -6.418359181205887110e-01
-2.809949666946282010e-03 -7.443186445420930941e-02 -8.406923582029091069e-01 -8.777719829332711887e-01 -2.149017521613881543e-01 4.281747107143981101e-01
-1.984677793811849902e-02 -1.888021873989261315e-02 -8.361671832766690571e-01 8.777719829332711887e-01 2.149017521613881543e-01 -4.281747107143981101e-01
-3.065369754697649246e-02 1.679776725688415517e-01 -7.772815055034725251e-01 -8.744493459520134016e-01 -2.157109071552995305e-01 4.345194424859880611e-01
-3.967915266128935192e-02 -7.703840783599294473e-02 -9.168843763795502255e-01 -8.396124839439910170e-01 -2.254597514077618936e-01 4.941849626410658725e-01
-2.102789647082302718e-02 1.694722539599026467e-01 -7.571246263831297174e-01 -8.751662907502276711e-01 -2.146505163814479145e-01 4.336001837541883508e-01
-4.139110824167737540e-02 -8.294575456669876778e-02 -9.132396272374503354e-01 8.897015054491483887e-01 2.117101111650138978e-01 -4.044874040461787223e-01
-2.360717147360788873e-02 1.566435661398491996e-01 -7.528760661727874615e-01 8.003538757596314612e-01 5.986198899901251647e-01 3.298334223129723713e-02
5.921434382829825725e-03 -1.984203955806846942e-01 -8.854435025755001964e-01 -8.777719829332711887e-01 -2.149017521613881543e-01 4.281747107143981101e-01
-1.769823588610874030e-03 -2.937408837859649749e-02 -8.043757375144027222e-01 8.777719829332711887e-01 2.149017521613881543e-01 -4.281747107143981101e-01
1.696716844479178449e-02 -4.911738427042135202e-02 -7.708174950217611121e-01 8.667549278938581070e-01 2.723509399765621786e-01 -4.178048114438081551e-01
-1.577009174526810414e-02 7.069859555503232862e-02 -7.828811467545283564e-01 8.774137882305791392e-01 2.127796666940482140e-01 -4.299649493440532710e-01
-1.418067908159328580e-02 1.888833102043714907e-01 -7.336893222268895398e-01 -8.757802052052854336e-01 -2.115091092800252537e-01 4.339042853696636892e-01
-1.074608359041671034e-02 -9.404032087624135394e-02 -8.668963690631780183e-01 -8.754324012974513680e-01 -2.197702326222622515e-01 4.304871143387857813e-01
-4.073821108764474203e-02 1.056515238847511307e-01 -8.169163029116840447e-01 8.828356524681693074e-01 2.070119836563727722e-01 -4.216008175439835970e-01
-3.958649753860054438e-02 6.151066177225036902e-02 -8.479627399511387997e-01 -8.744304000131398746e-01 -2.146261263611980719e-01 4.350943592096401802e-01
-3.519596820810063850e-03 1.159635025644850798e-01 -7.477750385906217767e-01 -8.776469377689111173e-01 -2.105842966958563767e-01 4.305695142598521263e-01
1.212313130297768861e-02 -1.130933807002837826e-01 -8.296421252357244480e-01 -8.800812612866427687e-01 -2.159494307604891694e-01 4.228744694189197073e-01
-1.707709598772965418e-03 -6.150308258471297480e-03 -7.925923396784221309e-01 8.777719829332711887e-01 2.149017521613881543e-01 -4.281747107143981101e-01
3.393943541206703024e-02 -2.356484063184693598e-02 -7.399348013808346725e-01 -8.800487391613794896e-01 -2.129899322531181860e-01 4.244402260145454520e-01
-2.611913238093587289e-02 -1.014640476507936151e-01 -9.021079020047101382e-01 -8.746961878991118544e-01 -2.162606621167294796e-01 4.337486655836480520e-01
1.464241232509103791e-02 8.081079257165592333e-02 -7.279120979017655868e-01 -8.782071727786711079e-01 -2.101357735364883794e-01 4.296453402055178117e-01
-1.842022924103067782e-02 -3.098797947993253005e-02 -8.508893617740266313e-01 -8.777719829332711887e-01 -2.149017521613881543e-01 4.281747107143981101e-01
3.319646852755980815e-02 2.900657943027009147e-02 -7.036026692051593479e-01 8.777719829332711887e-01 2.149017521613881543e-01 -4.281747107143981101e-01
-1.116665886620694589e-02 -1.164644465989122663e-01 -8.746899504513118151e-01 -2.419096625578083873e-02 6.241013345002837109e-01 7.809688351186472310e-01
3.067359982499538035e-02 -1.418238461889085623e-03 -7.239599811211071545e-01 8.754917625367601985e-01 2.167080731857599918e-01 -4.319164094433001755e-01
-4.337952381935122198e-02 9.742407902153760180e-02 -8.377586433925277021e-01 -8.685942608337096082e-01 -2.201887568671762330e-01 4.439154439710669142e-01
2.444545656337349712e-03 2.599905640161713841e-02 -7.679442512669343301e-01 8.777719829332711887e-01 2.149017521613881543e-01 -4.281747107143981101e-01
3.909428352872402340e-02 1.650847472197052024e-02 -7.095512113348406702e-01 -8.804855504133385358e-01 -2.128929795165826200e-01 4.235820756192031356e-01
-3.023987193020635789e-02 -2.341450029190412369e-02 -8.713188664469684319e-01 -8.777719829332711887e-01 -2.149017521613881543e-01 4.281747107143981101e-01
4.586627231609760602e-02 -4.069320164167650883e-02 -7.239051754119473214e-01 -8.783865612751023955e-01 -2.111567894200303830e-01 4.287771673645016657e-01
-4.023250043785830260e-02 1.175240312531113541e-03 -8.792831583530417161e-01 -8.748878287344826754e-01 -2.169101356512181944e-01 4.330372734350158570e-01
1.508730454708291820e-02 4.508211530726136812e-02 -7.324630965622968004e-01 8.781232989718454895e-01 2.121965344922866759e-01 -4.288031046439226279e-01
-2.606943065799405962e-02 1.662224288944248451e-01 -7.650056943842281632e-01 -7.397760708828000908e-02 6.513128780361344683e-01 7.551945766183570941e-01
-1.686366497764878528e-02 2.383774085012803617e-03 -8.193792644323926178e-01 8.777719829332711887e-01 2.149017521613881543e-01 -4.281747107143981101e-01
-1.016617266117113630e-03 -1.705205824396814340e-01 -8.737110640858948285e-01 8.774769053389629425e-01 2.185223564696862353e-01 -4.269452661872391031e-01
-3.603841142932687897e-02 2.600827737719152433e-02 -8.583662574145427548e-01 -8.771444439313085262e-01 -2.121776599712499045e-01 4.308111710361748892e-01
4.416958455590316857e-02 -9.487793988398267320e-02 -7.438951775188895610e-01 8.681665363000309332e-01 2.246236846682961585e-01 -4.425280392640052463e-01
1.883149176196819699e-03 -1.014749129549003259e-01 -8.330745748788507266e-01 8.777719829332711887e-01 2.149017521613881543e-01 -4.281747107143981101e-01
1.831280982227721441e-02 -4.973079847819601891e-03 -7.627514636984391583e-01 -8.783187083851248245e-01 -2.115207933214455771e-01 4.287367496417263668e-01
2.364753051023064934e-02 8.397323815678940651e-02 -7.079686809436975814e-01 -8.782235810841623191e-01 -2.098629185865300839e-01 4.297451535853002436e-01
-1.754560046168476481e-02 4.990953374326122238e-02 -8.089176512693527776e-01 -8.772845804888241839e-01 -2.125559979262271748e-01 4.303390669950077352e-01
3.279910039908660868e-02 5.611768703033716971e-02 -6.909607360976881552e-01 8.756245003445446429e-01 2.134477257649076698e-01 -4.332687419629478454e-01
-3.073475474093855745e-03 -5.840913775680556946e-02 -8.216210159049097683e-01 8.777719829332711887e-01 2.149017521613881543e-01 -4.281747107143981101e-01
-4.818855256783825813e-02 9.217524188476972080e-02 -8.496683219217385785e-01 -8.596790429904124231e-01 -2.267795220356279839e-01 4.577368145871391070e-01
1.339237623703859285e-02 1.732354135510950077e-01 -6.850946399490065453e-01 -8.771541598447080146e-01 -2.120079287270745794e-01 4.308749447623758111e-01
-1.161412721221652834e-03 -8.441503795484304670e-03 -8.044024436276554502e-01 -8.777719829332711887e-01 -2.149017521613881543e-01 4.281747107143981101e-01
1.647537857746862386e-02 2.005141655358408034e-02 -7.421657231693652435e-01 8.777719829332711887e-01 2.149017521613881543e-01 -4.281747107143981101e-01
3.963279213782528593e-02 7.150044850521472539e-02 -6.812541398755039834e-01 -8.808695267270112428e-01 -2.103186466955686562e-01 4.240695034258841756e-01
1.902784175836186656e-02 -1.277189532849456188e-01 -8.227484901586133992e-01 -8.769804836790880964e-01 -2.186682449288100127e-01 4.278895066553358717e-01
2.297818438416321992e-03 -7.342374339114829396e-02 -8.181455508378905339e-01 8.777719829332711887e-01 2.149017521613881543e-01 -4.281747107143981101e-01
4.034237466189494192e-02 -1.773811072881498196e-02 -7.239138555267309316e-01 -8.783739078922468968e-01 -2.112347301471727556e-01 4.287646985395998644e-01
-3.542644978274300804e-02 1.438545189019533373e-03 -8.549147522465462279e-01 8.456407455788418348e-01 5.336650046952083892e-01 9.663962982337237495e-03
5.932783118451677787e-03 -3.619407965614223066e-01 -9.766262056814770665e-01 -9.101634357046969326e-01 -1.896445821400556397e-01 3.682899031620954777e-01
4.589447852023236657e-03 4.724169594484140672e-02 -7.580079968290140968e-01 4.942451150802412013e-02 9.961872735877775886e-01 7.188973225672565248e-02
-4.532847994144886816e-02 -3.317919199104252259e-02 -8.961856761300326379e-01 8.874215977489056106e-01 2.099034816460958741e-01 -4.103942448934036480e-01
2.252956482411112502e-02 -8.656736755309926701e-02 -7.832666289695183748e-01 8.777719829332711887e-01 2.149017521613881543e-01 -4.281747107143981101e-01
-4.648923081570689037e-02 4.551875220496834351e-02 -8.696586629602830465e-01 -8.688839384018325340e-01 -2.218772700039596812e-01 4.425055690529900443e-01
3.553129624559619765e-04 -3.245940445283750364e-01 -9.475238095172753283e-01 -2.570265244104594227e-01 4.295211094596446122e-01 -8.657072151010615224e-01
-1.274990147705665558e-02 -3.154382011159066052e-02 -8.228605578285346223e-01 8.648326721894120661e-01 1.742704316501786921e-01 -4.708442054078837979e-01
-2.232356066506218165e-02 -3.350570224297789741e-03 -8.334503058856931323e-01 8.777719829332711887e-01 2.149017521613881543e-01 -4.281747107143981101e-01
1.219344641919192264e-02 6.319709937642105368e-02 -7.294265316870995886e-01 8.780237914357986728e-01 2.121742208918672712e-01 -4.290178570428441196e-01
5.064221016941964498e-02 -4.576332502637531219e-02 -7.078017101497425800e-01 3.445897631847664316e-02 4.809436580631524238e-01 -8.760740703387562833e-01
2.064024078240094331e-03 1.724150978681784907e-01 -7.130338055173481848e-01 -4.929044410864971137e-01 -3.825857928565344346e-01 7.814558996268085034e-01
5.032137021930800647e-02 -5.476626805145264065e-02 -7.214636282107955711e-01 -8.945359738253312321e-01 -1.992386145734805214e-01 4.001366841408152686e-01
-4.358477459774477009e-02 3.953294133166287277e-02 -8.669551921842023612e-01 -8.687882734675361762e-01 -2.214784427970144520e-01 4.428930291407929820e-01
2.765990310022933829e-02 -8.585433657298784105e-02 -7.839611379721304063e-01 -8.777719829332711887e-01 -2.149017521613881543e-01 4.281747107143981101e-01
-2.502629913504843262e-02 3.250553110383738037e-02 -8.327748318614095480e-01 -8.777719829332711887e-01 -2.149017521613881543e-01 4.281747107143981101e-01
-5.215031831645016054e-03 -1.339823541400583518e-01 -8.589255238493033184e-01 9.043589987700406674e-01 2.175892030522330323e-01 -3.671372223825087877e-01
2.897756590859529996e-02 -5.170040409508461915e-02 -7.542591945700840572e-01 7.459011811401892490e-03 9.999453555701437457e-01 7.324548893682785063e-03
6.342251448008955593e-03 -1.342256427041146616e-01 -8.554757565767667771e-01 -4.215187632381819371e-01 8.927181655249150083e-01 1.592991185788042163e-01
3.872139164795008939e-03 1.945289109631530011e-01 -6.939921092643267508e-01 -8.776404266547961353e-01 -2.121598861989430485e-01 4.298086367085229842e-01
-2.533502027226414675e-03 1.416373837773171329e-01 -7.154620578179611279e-01 8.373517273539664574e-01 2.452189477833053577e-01 -4.885793204233856435e-01
8.759454071235697747e-03 -6.381413606941469148e-03 -7.830303829267973859e-01 -8.777719829332711887e-01 -2.149017521613881543e-01 4.281747107143981101e-01
-2.402020854125271748e-03 1.550897874278484301e-01 -7.263218348133839708e-01 -8.739380556925657739e-01 -2.138873214364495623e-01 4.364452869960205317e-01
-3.437303784112040461e-02 1.942879154147182930e-01 -7.714716280507605273e-01 -8.495694290436253127e-01 -2.582143267264705444e-01 4.599534179758684727e-01
-6.983959688653645914e-03 -7.383471303868423263e-02 -8.489495020265985792e-01 -8.777719829332711887e-01 -2.149017521613881543e-01 4.281747107143981101e-01
-4.932364869301478737e-04 -3.690287423653377252e-01 -9.703914541079735612e-01 5.052150574046513354e-01 3.910518112142100100e-01 -7.693089280111734540e-01
5.234397238195459545e-02 -2.064481552751394958e-02 -6.950715249931335160e-01 -4.790297757401296708e-01 4.064697214134426195e-01 -7.780185341805421206e-01
-1.387383719719663226e-02 1.106519190107659728e-01 -7.714618271626452195e-01 -8.776343880887941262e-01 -2.103215252833546545e-01 4.307235039401623444e-01
-2.040350413043553676e-02 3.059250988493742059e-03 -8.380453203230575632e-01 -8.771371181745244439e-01 -2.122041804841630352e-01 4.308130240667467081e-01
-1.569487892687802810e-02 -1.169274596077258671e-01 -8.886458389907375688e-01 -8.777719829332711887e-01 -2.149017521613881543e-01 4.281747107143981101e-01
-5.361475805164508945e-02 5.165971103666387731e-02 -8.721674322771995058e-01 9.517969603621329044e-01 1.368383980730238925e-01 -2.745137502170214017e-01
1.877530742697193326e-03 -3.453263569248491982e-01 -9.582626229634434445e-01 -2.572963342668936892e-01 4.329716947065326282e-01 -8.639063073943680227e-01
-4.433674413267690156e-02 -7.546790970236141871e-02 -9.164100800184149520e-01 9.702892912504095246e-01 1.781352690315028131e-01 -1.637269593312360716e-01
-3.509744690288607496e-03 1.350788896713344678e-01 -7.359070124225907117e-01 -3.213319758382485181e-02 6.588043822227865887e-01 7.516277293827648975e-01
1.894241124646641947e-02 -1.307084294718373063e-01 -8.074862265915251358e-01 8.880369453723747641e-01 1.553337695517547079e-01 -4.327375690768532901e-01
5.211299677648967288e-02 1.122550395163212852e-02 -6.796358974340360737e-01 -4.776062204507294795e-01 3.225169406488989088e-01 -8.172362701087390047e-01
5.600835070520694507e-03 1.364574755726646604e-01 -7.253879073664922794e-01 -8.777719829332711887e-01 -2.149017521613881543e-01 4.281747107143981101e-01
-3.297420453916626720e-02 4.854680978744017883e-02 -8.293073344857389007e-01 8.800324863677697618e-01 2.129761461955612112e-01 -4.244808406619177132e-01
-5.733320370353021771e-03 -2.770340375651743070e-01 -9.321737358462722778e-01 9.135995701971482141e-01 1.821877110093715058e-01 -3.635154237343333206e-01
-2.711887760134032779e-02 -1.487345737105827126e-01 -9.168803895582856578e-01 8.777719829332711887e-01 2.149017521613881543e-01 -4.281747107143981101e-01
2.053032933518978906e-02 7.585936119021080559e-02 -7.183013198184277082e-01 -8.782235810841623191e-01 -2.098629185865300839e-01 4.297451535853002436e-01
4.334586627382098351e-02 -7.004783548514936786e-02 -7.437100129087271805e-01 -8.806245404428110213e-01 -2.121952509640910589e-01 4.236432393396292184e-01
-5.154330895717161576e-02 5.884438223796965850e-02 -8.631325360067331198e-01 9.018496493752343746e-01 1.944775372603604890e-01 -3.858052584179123556e-01
6.058388513898740890e-03 -2.572959230795653918e-01 -9.214706264178890160e-01 -9.020548045127804171e-01 -1.979250562820011050e-01 3.835659027483756534e-01
3.641119534031132809e-02 -4.293410408625024377e-02 -7.498926171209688851e-01 -8.670978315383609525e-01 -2.716290684245120102e-01 4.175631685485494682e-01
8.450546859605554892e-03 7.739694163938218296e-02 -7.300453871476519918e-01 8.777719829332711887e-01 2.149017521613881543e-01 -4.281747107143981101e-01
-2.013994288010017078e-02 4.346966078496171219e-03 -8.251104098981117962e-01 8.777719829332711887e-01 2.149017521613881543e-01 -4.281747107143981101e-01
3.680395547781183802e-02 -1.412474609224849964e-01 -7.820382476453586751e-01 8.658694692747372912e-01 2.288756307023449565e-01 -4.448438016298401632e-01
-1.649615370716826096e-02 1.757414203788259244e-01 -7.321622568295044209e-01 8.779462657661616376e-01 2.121306335759010064e-01 -4.291980297321263960e-01
-1.625114430023824694e-03 2.188669359281316396e-01 -6.931608256213499519e-01 -8.777719829332711887e-01 -2.149017521613881543e-01 4.281747107143981101e-01
4.543435345385042623e-02 9.794477527591718968e-02 -6.555909115788972619e-01 -9.044416397976844380e-01 -2.037381346645684432e-01 3.748014043243141913e-01
-3.700911732690038720e-04 -3.790320331085725303e-01 -9.904863794857057258e-01 2.640532151967853736e-01 -3.129320010867302493e-01 9.123318816308541024e-01
2.639083498524719823e-02 -4.825921014717210467e-02 -7.721290456793938883e-01 -8.484694492933680943e-01 3.208617091392814702e-01 4.208887706081357871e-01
-1.309201734454019592e-02 1.462470233966176314e-01 -7.397902589448414057e-01 8.779193116817823883e-01 2.125674438284304857e-01 -4.290370193822817257e-01
-4.407391657253181133e-02 1.120448846888265522e-02 -8.819025149384579487e-01 -8.725482268531288277e-01 -2.152177995612019334e-01 4.385668598600391821e-01
4.145673015488560154e-02 6.337759357705786099e-03 -7.096877649441728497e-01 -8.810401152571087913e-01 -2.091622404233324517e-01 4.242870166394826503e-01
1.354721113773338977e-03 2.445058409938713484e-02 -7.829473486006843785e-01 -8.777719829332711887e-01 -2.149017521613881543e-01 4.281747107143981101e-01
-1.406959191649395993e-02 1.243663191535029633e-01 -7.651639760858730543e-01 -8.776343880887941262e-01 -2.103215252833546545e-01 4.307235039401623444e-01
-2.623262506269440422e-02 -9.794837335811232282e-02 -8.889428425937918599e-01 8.777719829332711887e-01 2.149017521613881543e-01 -4.281747107143981101e-01
1.521968094108223576e-02 -1.261501437958954808e-01 -8.170269453804336335e-01 3.271187444762194696e-01 -9.177367853578367596e-01 -2.252831991369216580e-01
3.475432623779398100e-02 -7.200389424994681209e-02 -7.624657764798477011e-01 -8.777719829332711887e-01 -2.149017521613881543e-01 4.281747107143981101e-01
7.949211650328471060e-03 9.526406960734859486e-02 -7.345147973738023195e-01 -8.781733536448601551e-01 -2.103395165429793878e-01 4.296147678195028075e-01
-4.289395100969964347e-02 1.459113586964074782e-01 -8.015449255233184633e-01 8.872529450587396394e-01 2.010099257630553471e-01 -4.151833585650134273e-01
1.793711130952931792e-03 1.092739678113421736e-01 -7.443206852217479907e-01 -5.237601422363263870e-01 -3.793012075361374968e-01 7.627620253828917285e-01
8.708489858481308424e-03 -1.238174568617669280e-01 -8.359840858885589920e-01 3.271187444762194696e-01 -9.177367853578367596e-01 -2.252831991369216580e-01
1.097686652009486306e-02 1.993009461489921030e-01 -6.650841969899971007e-01 8.740932979987285911e-01 2.080001693541951024e-01 -4.389724774314810452e-01
-3.952896184102436261e-02 6.351319985629461096e-02 -8.353912373917624645e-01 8.804941015895897394e-01 2.125612131872617883e-01 -4.237308906774449047e-01
2.369691037951590293e-02 -2.002901414242150013e-01 -8.406721084077937167e-01 -8.531340017299753054e-02 8.597263171578132246e-01 -5.035794707265029979e-01
-1.722638471066123902e-02 1.161788458971351884e-01 -7.755866166126355044e-01 -8.772959908530549855e-01 -2.106275509980296834e-01 4.312630046662116468e-01
-4.186706011052088172e-02 -7.181570349277179022e-02 -9.179543017260105575e-01 -7.595559673914142884e-01 -2.301126532566445948e-01 6.083772671716788372e-01
-3.473810036099048842e-02 1.865505036561727614e-01 -7.762000317951580630e-01 -8.721364313353033859e-01 -2.196463423159077111e-01 4.371882082638606226e-01
-3.361150585535949836e-02 1.403122150188838568e-01 -7.849083165619019642e-01 8.777719829332711887e-01 2.149017521613881543e-01 -4.281747107143981101e-01
-2.206497637113394653e-02 1.525051033601196870e-01 -7.550463459085977602e-01 8.779508849002922721e-01 2.123740455236836633e-01 -4.290681862952532288e-01
-2.858766321216716505e-02 -1.492711160258701486e-01 -9.206238699059248187e-01 9.216292059275872361e-01 2.397691129367174323e-01 -3.051399339038153302e-01
-4.456488269883282505e-02 1.494482616921955498e-01 -8.034033488864985584e-01 8.872529450587396394e-01 2.010099257630553471e-01 -4.151833585650134273e-01
-3.312189784433600126e-02 1.128212422530770059e-01 -7.975745519217770640e-01 8.798907842973584525e-01 2.099413552337102140e-01 -4.262825765512974208e-01
-1.515274495747640296e-02 1.197651543791684453e-01 -7.696167764297768832e-01 -8.772959908530549855e-01 -2.106275509980296834e-01 4.312630046662116468e-01
-4.032154760459270154e-02 1.147354955508147895e-01 -8.231519164775996655e-01 -8.745962220253920005e-01 -2.151133491638408668e-01 4.345200748301814575e-01
1.038578734039063110e-03 -1.830719034625465369e-01 -8.877500751293651016e-01 -8.777719829332711887e-01 -2.149017521613881543e-01 4.281747107143981101e-01
-1.520973591998330161e-02 -2.831959287035385256e-02 -8.313987383494712002e-01 8.777719829332711887e-01 2.149017521613881543e-01 -4.281747107143981101e-01
4.601000861739631964e-02 2.599519474018368095e-02 -6.905066112675753986e-01 -8.866337477728516436e-01 -2.053624757051801808e-01 4.143752537043046691e-01
4.497279938476575825e-03 1.237226631473128391e-01 -7.338361036919758273e-01 -8.367479817427233568e-01 -2.384234744463117339e-01 4.929574645772473729e-01
-2.969998902460038379e-02 1.789818140861829110e-01 -7.727195064283735038e-01 -7.336983248008296377e-01 -2.808590368431326256e-01 6.187123480325927849e-01
6.426691547489189402e-03 6.834007058654207158e-04 -7.843095017547206949e-01 -8.781845397101358808e-01 -2.116589855755097449e-01 4.289433389612701819e-01
-1.162038097184928120e-02 -6.436505727235315721e-02 -8.537014760129185698e-01 -8.777719829332711887e-01 -2.149017521613881543e-01 4.281747107143981101e-01
-5.199991719818372604e-03 -1.362162154426227179e-01 -8.768120468454350114e-01 -8.777719829332711887e-01 -2.149017521613881543e-01 4.281747107143981101e-01
9.250921266617279527e-04 6.682009105863302711e-02 -7.658624302283488783e-01 -5.109043681419832561e-01 -3.856102117145225328e-01 7.682977881231481954e-01
1.967183100249579944e-02 -4.344021819385548294e-02 -7.791312009000245231e-01 -8.783949745949805044e-01 -2.111672303569899767e-01 4.287547893955724887e-01
3.456723673254988999e-02 -8.638465248557113813e-03 -7.196911129993608380e-01 8.750212176711157364e-01 2.170592632712805281e-01 -4.326928990097791972e-01
2.202927383827636698e-02 -1.782579386212534422e-01 -8.420919989870042643e-01 -8.777719829332711887e-01 -2.149017521613881543e-01 4.281747107143981101e-01
-9.687341905559546107e-03 2.247142858197109239e-01 -7.065665900244496589e-01 -8.654727193947672204e-01 -2.462432273701025409e-01 4.362582319656359009e-01
-9.068506800940220880e-03 -1.517145283416044266e-01 -8.925212622264123707e-01 -8.777719829332711887e-01 -2.149017521613881543e-01 4.281747107143981101e-01
1.011803357277941788e-02 -1.083718823688667732e-01 -8.196543988372476663e-01 8.777719829332711887e-01 2.149017521613881543e-01 -4.281747107143981101e-01
-1.902410566783678883e-02 2.114891893883984447e-03 -8.239431901237866951e-01 8.777719829332711887e-01 2.149017521613881543e-01 -4.281747107143981101e-01
-3.996855484371591299e-02 1.117268803944302252e-01 -8.255960693976267528e-01 -6.385750405938410701e-01 2.154956989426021763e-01 7.387716299830507927e-01
1.032488251358318343e-02 8.482576525713210469e-02 -7.347692975670038207e-01 -8.781733536448601551e-01 -2.103395165429793878e-01 4.296147678195028075e-01
-3.181782199092327013e-03 1.668193341564232213e-01 -7.039310792992881094e-01 8.384495770844395679e-01 2.446737878802254518e-01 -4.869671900767721384e-01
2.453227177149992083e-02 1.739839189254027696e-01 -6.617661026224674892e-01 -8.847420833560428743e-01 -2.163780414361743121e-01 4.128098704283294507e-01
5.320185106414988645e-03 9.079285295050970594e-02 -7.480191126963479098e-01 -9.025519112008523193e-01 -1.898954093272860466e-01 3.864450557376965523e-01
-2.014280043553235214e-02 1.073489969977008129e-01 -7.736296753123563796e-01 8.777719829332711887e-01 2.149017521613881543e-01 -4.281747107143981101e-01
4.173068844105152359e-02 -2.612682588297091102e-02 -7.139834642064206705e-01 8.749940963552199635e-01 2.172240961558039307e-01 -4.326650244621191299e-01
1.056971591391466913e-03 -1.371352038369098303e-01 -8.644463121484019519e-01 -8.777719829332711887e-01 -2.149017521613881543e-01 4.281747107143981101e-01
3.311177974498991095e-02 2.481286394823732297e-02 -7.058811182152283648e-01 8.777719829332711887e-01 2.149017521613881543e-01 -4.281747107143981101e-01
3.379768116625170987e-02 1.056348210846350805e-01 -6.764245516136850878e-01 -8.778331105735056594e-01 -2.120017671807890025e-01 4.294930508088181664e-01
-3.679625305123444823e-02 -4.549813235287723107e-02 -8.956941776234171870e-01 -8.745993715300954818e-01 -2.166124065962223288e-01 4.337683767032295412e-01
-1.334833427881468478e-02 1.061778052982130655e-01 -7.725773463314031808e-01 -8.773147902465642245e-01 -2.108692042803729516e-01 4.311066428400164852e-01
-3.808463086170725542e-02 1.015792629722172234e-02 -8.537181650313919734e-01 8.552133977780890239e-01 1.553212888453837648e-01 -4.944545899193019123e-01
-2.706280783157105716e-03 1.858205516729571072e-01 -7.117467767043559324e-01 -8.781447061622943417e-01 -2.123029813979080138e-01 4.287065652969377361e-01
1.489682392301418072e-02 9.252160530056962456e-03 -7.508219795945062502e-01 8.777719829332711887e-01 2.149017521613881543e-01 -4.281747107143981101e-01
-1.342845447930055870e-02 -1.949918626092587148e-01 -9.130124312906995332e-01 8.957156761013980173e-01 2.412219001562780629e-01 -3.735042469252660702e-01
5.886766613683928201e-03 8.952743687536014738e-02 -7.436423776257021778e-01 -6.912145356506084193e-01 3.281245381873339473e-01 -6.438608181467967428e-01
-3.919709749514499464e-02 -7.853437248621285283e-02 -9.005675058063407068e-01 8.926709766349569808e-01 2.539891439330330125e-01 -3.723278692735171869e-01
-1.499417785255597810e-04 -3.499118635596751292e-01 -9.604485983071122668e-01 5.052150574046513354e-01 3.910518112142100100e-01 -7.693089280111734540e-01
4.175013089442304245e-03 -5.800191257561088803e-02 -8.065569931514745550e-01 8.777719829332711887e-01 2.149017521613881543e-01 -4.281747107143981101e-01
-2.505803396441303853e-03 -1.991750001397713243e-01 -8.916293801078419845e-01 8.785746751049013925e-01 2.228721223641201288e-01 -4.224151480915779300e-01
-3.119328128208115336e-02 -7.055924310345013106e-02 -8.969180592923542417e-01 -8.741168626039790279e-01 -2.167655557727943272e-01 4.346635530406112169e-01
9.127308391993542436e-03 1.558626399339952673e-01 -6.896665075508578990e-01 8.803226607247583990e-01 2.080781368438450185e-01 -4.263044709853233138e-01
3.243968831827840488e-02 -1.962201300231996084e-02 -7.295159073452883725e-01 8.754753409087768778e-01 2.168087920018363923e-01 -4.318991493061373754e-01
2.534293587003995027e-02 -1.873345320493296773e-01 -8.287412887462834998e-01 8.632576303003954843e-01 2.491613792258867144e-01 -4.389816292630021044e-01
3.256539723925602065e-02 -1.849502741138590173e-02 -7.402396767890752072e-01 -8.800487391613794896e-01 -2.129899322531181860e-01 4.244402260145454520e-01
1.332421338151610311e-02 7.313837883136910245e-02 -7.343739247718520380e-01 -8.781232989718454895e-01 -2.121965344922866759e-01 4.288031046439226279e-01
-5.577017365095535487e-03 1.327230763595349701e-02 -7.861222208372722342e-01 9.145324489491483133e-01 1.816624762891904943e-01 -3.614265409838529619e-01
2.234070528247556267e-02 7.288645381749373180e-07 -7.520468458676168311e-01 -8.783298746998436934e-01 -2.114666094549877140e-01 4.287406025738274562e-01
1.577614599170242471e-03 2.053025043329898824e-01 -6.934123884306783170e-01 -8.681826720918911500e-01 -2.169291703067347532e-01 4.463189251526485379e-01
2.327002851796949184e-02 -1.710443278167588510e-01 -8.244053813349697668e-01 8.727790139080150444e-01 2.250696144723718650e-01 -4.331286893326403153e-01
6.476951577115627745e-03 1.567778159090298107e-01 -7.120713366680750944e-01 -9.994328595337362842e-01 2.299341523378676047e-02 -2.460207593081500943e-02
-2.292859775671713188e-02 2.160154560551041658e-01 -7.375349076712085505e-01 -8.575705203386350117e-01 -2.607404614393177833e-01 4.433815675177920634e-01
-1.138432343453558114e-02 1.946899533330185283e-01 -7.126096732368630837e-01 8.758132874482360553e-01 2.104608492993981506e-01 -4.343470000371703055e-01
3.531595950830618974e-02 -1.665439387592951292e-01 -8.085102074083817536e-01 -8.866760728467032449e-01 -2.018026842805143162e-01 4.160303095428589115e-01
-3.138911777290208371e-02 1.526647127802313320e-01 -7.863634010343532044e-01 -8.744493459520134016e-01 -2.157109071552995305e-01 4.345194424859880611e-01
9.167702623306362916e-03 -5.676674114809308197e-02 -7.957018833563433979e-01 8.777719829332711887e-01 2.149017521613881543e-01 -4.281747107143981101e-01
3.693974642617502829e-02 -7.159352125948556522e-02 -7.465176168691810554e-01 8.748475086701246184e-01 2.175807237944139827e-01 -4.327822376285506145e-01
-4.023294890662168499e-02 2.242971946884267723e-02 -8.574766102079615093e-01 8.805872377862900002e-01 2.127224533252423666e-01 -4.234563430853319210e-01
2.661089728718738293e-02 5.418831522654655314e-02 -7.200923644432063453e-01 -6.542568774187290659e-01 -7.093633589079927360e-01 2.622051932915600014e-01
4.480909521097359988e-02 9.352409847563288026e-02 -6.524308338599029700e-01 -4.575988903978919775e-01 1.114744660617698058e-01 -8.821432417260031134e-01
6.898383124875552726e-03 -2.131654163662322909e-01 -8.904237678642612508e-01 -8.829897746863999419e-01 -1.963526040649040405e-01 4.263504575770876159e-01
2.695676319607503285e-02 9.407976915638652238e-02 -6.961325046903186209e-01 -8.803597825415963030e-01 -2.105983491257015505e-01 4.249882217530772666e-01
2.547623937073632480e-02 -8.563474403250094513e-02 -7.767887699267407298e-01 8.752718125522841452e-01 2.172258249366758320e-01 -4.321020656419267691e-01
4.226170246631224398e-02 -1.083926371845608805e-01 -7.651423622708024563e-01 -8.809057258022527925e-01 -2.114293444691457691e-01 4.234415361607237194e-01
-3.706005149997769910e-03 -2.157263021107742040e-01 -9.033848581202570394e-01 8.875305921804151899e-01 2.463237653642509351e-01 -3.893764894811435617e-01
-3.691946633099280756e-02 -1.184624658510497475e-01 -9.226019598915908837e-01 9.100562449858499159e-01 2.124239103330977929e-01 -3.559125079019436200e-01
3.218564649206023115e-02 -4.860226626848668935e-02 -7.560367043317738345e-01 -8.783894323265382109e-01 -2.111750940230567863e-01 4.287622707764937036e-01
4.132488434052966619e-02 -5.474253852576498047e-02 -7.402445375517208159e-01 -8.805872377862900002e-01 -2.124207382411807121e-01 4.236077744954452884e-01
-3.891073375240809012e-03 -3.614813008187529042e-01 -9.705432262611263239e-01 8.400345351367514146e-01 2.490981041134114615e-01 -4.819669224175928135e-01
-3.660888709275805092e-02 -5.679148157119132123e-02 -8.897881579387132422e-01 8.810247275717713045e-01 2.129613910974875735e-01 -4.224249937076512418e-01
1.580686280710703537e-02 -1.030034799495972431e-01 -8.052977031941617181e-01 8.777719829332711887e-01 2.149017521613881543e-01 -4.281747107143981101e-01
3.748344039084253176e-02 -7.061840779126145329e-02 -7.561756258895749871e-01 -8.777719829332711887e-01 -2.149017521613881543e-01 4.281747107143981101e-01
4.457737624489292727e-02 8.570118109223461011e-02 -6.638889449657271458e-01 -8.826879078732973172e-01 -2.100474197222888528e-01 4.204071107418025366e-01
-1.729587557822757048e-03 -3.747099481975463831e-01 -9.883153249899954140e-01 2.571203831169415199e-01 -4.362624201978920202e-01 8.623016927438302837e-01
4.351642012393706904e-03 -1.296568585220157499e-01 -8.598294376564566965e-01 -8.777719829332711887e-01 -2.149017521613881543e-01 4.281747107143981101e-01
-1.678555786865142466e-02 1.374878378617018851e-02 -8.135150210120695169e-01 8.777719829332711887e-01 2.149017521613881543e-01 -4.281747107143981101e-01
1.424499087743880468e-02 -1.290509348993403582e-01 -8.164919782269308701e-01 8.864343395461837805e-01 1.569016378149850899e-01 -4.354492366789683433e-01
-3.642875343480563716e-02 1.692554607801294853e-01 -7.882465491210101094e-01 -8.721753056350617372e-01 -2.185867907092494677e-01 4.376414641779474701e-01
-2.777511509086421151e-02 -4.545729668390078443e-02 -8.657596195517716087e-01 8.777719829332711887e-01 2.149017521613881543e-01 -4.281747107143981101e-01
-8.377160018153776908e-03 1.394055455202468097e-01 -7.279517838442879363e-01 8.777719829332711887e-01 2.149017521613881543e-01 -4.281747107143981101e-01
1.811851393279324211e-03 1.370858303880946594e-01 -7.327726128323351906e-01 -8.718854288811611619e-01 -1.903803860404376103e-01 4.511885498500684544e-01
-1.435446477753104817e-03 -3.020862837006601381e-02 -8.158112255646587929e-01 -8.772332436053552618e-01 -2.121313601185892961e-01 4.306531346314163566e-01
1.080000777714786205e-02 -5.124371132419427294e-02 -7.909686789156408215e-01 3.497588311879107348e-02 9.993771228258060413e-01 -4.696165720503592093e-03
1.693506072874063342e-03 -1.644000141491045175e-01 -8.650455847537223963e-01 8.777719829332711887e-01 2.149017521613881543e-01 -4.281747107143981101e-01
2.970530513825531127e-02 -1.684051554584436450e-01 -8.211994274723692921e-01 -8.829965344589968401e-01 -2.081710905896119734e-01 4.206921881567723953e-01
2.598100576873047657e-02 -4.789860401615157748e-02 -7.684014813991957293e-01 -8.783923641684857619e-01 -2.111694351806538694e-01 4.287590514682831921e-01
1.051705961992546734e-02 -6.150599413949852518e-02 -8.068840384098107110e-01 -8.777719829332711887e-01 -2.149017521613881543e-01 4.281747107143981101e-01
-1.191010727784653882e-02 2.083225891273036978e-01 -7.070642277037958445e-01 8.758132874482360553e-01 2.104608492993981506e-01 -4.343470000371703055e-01
2.755318665650355672e-02 2.635473240986161217e-02 -7.283671169057572836e-01 -8.781882960629880941e-01 -2.117154751591907302e-01 4.289077689155367801e-01
-3.247524194338209484e-03 -6.900070500614033375e-02 -8.329388215632761439e-01 6.776351133718909736e-01 -3.298798321167143999e-01 6.572594232782921209e-01
3.531685041489576043e-02 3.827797052952482126e-02 -7.064497241811115158e-01 -8.800691216083290636e-01 -2.132030808627885521e-01 4.242909231908686962e-01
