2.106635450611360830e-02 -1.821763659657310575e-01 -9.940470191221385532e-01 -8.543895028727791496e-01 -2.385807549590035492e-01 4.616251734296963893e-01
2.651343755224071924e-02 -1.838024243390430357e-01 -9.743969439847054437e-01 8.495097170510610418e-01 2.495303659100854554e-01 -4.648309769417323101e-01
-2.059849597522249443e-02 1.361384804245551472e-01 -9.075381039463972233e-01 -8.514862028112972769e-01 -2.360953000600158891e-01 4.682203068124763390e-01
9.391760655021796217e-03 2.035736535941875258e-01 -8.180454162378162364e-01 -8.543895028727791496e-01 -2.385807549590035492e-01 4.616251734296963893e-01
2.221008827012502934e-02 -7.046006847203911683e-02 -9.339969735118250904e-01 -8.543895028727791496e-01 -2.385807549590035492e-01 4.616251734296963893e-01
-4.172192173456749226e-02 -2.942680194813241876e-02 -1.030965886609154003e+00 -8.510410592708493871e-01 -2.406224570600739576e-01 4.667225606219646550e-01
-3.764520540501607726e-02 2.482039258694308803e-02 -9.955377799741874645e-01 -8.518799906614964446e-01 -2.403429083229915719e-01 4.653340390831245954e-01
-4.771104018577551620e-02 1.859790919495766734e-02 -1.017101150576819490e+00 -8.487301633599091399e-01 -2.389029469203750589e-01 4.717864895859380514e-01
-2.101061867727547008e-02 5.662856772304791092e-02 -9.375768163097984997e-01 8.543895028727791496e-01 2.385807549590035492e-01 -4.616251734296963893e-01
1.999987687529955135e-02 1.246569961047909736e-01 -8.215048018980422029e-01 8.361871260323343602e-01 3.343244899257754033e-01 -4.347622634195097424e-01
4.327103538960594409e-02 -1.628362205312588740e-01 -9.416963931038351276e-01 -9.669116666213248834e-01 1.476248912434617241e-02 2.546839175653327070e-01
-2.164914672887209568e-02 -3.096271265406138305e-03 -9.846250664683532383e-01 -8.353617711354541786e-01 -5.490921141107284464e-01 2.585655713446403936e-02
-3.726241035083169284e-02 2.229069272093911827e-02 -9.961435812956452862e-01 -8.518799906614964446e-01 -2.403429083229915719e-01 4.653340390831245954e-01
-2.434731980331994276e-03 1.995863655999301489e-01 -8.381608380855327667e-01 2.969270513236301756e-01 -4.324143186125476990e-01 8.513825128877740012e-01
-3.355943079350618211e-04 1.836348351408357005e-01 -8.345034508612011459e-01 8.540964001624358204e-01 2.331278980738932527e-01 -4.649416332930582096e-01
-4.507910236329322820e-03 1.865161570727617568e-01 -8.523963446216559214e-01 -8.549336003451585286e-01 -2.350965642637738717e-01 4.624047409707582323e-01
1.291454134700646163e-02 5.735282568131545855e-02 -8.877292180236836527e-01 -6.220404347992189997e-01 -7.360941601951175306e-01 2.668915225357363918e-01
3.879467105676307620e-02 -1.703605079976516223e-01 -9.465456457719985117e-01 -2.070313529357206972e-01 7.440723547263947690e-01 -6.352120510770583595e-01
2.930793699239846693e-03 -1.773535507592499116e-01 -1.025315378648272935e+00 -8.543895028727791496e-01 -2.385807549590035492e-01 4.616251734296963893e-01
7.018207443381896567e-03 2.056492055278651143e-01 -8.272244355583481257e-01 -9.999509545944803568e-01 -9.901010738474741446e-03 2.416442509081391066e-04
3.703885920742749048e-03 -1.973634259697476523e-01 -1.034226177912078271e+00 -8.543895028727791496e-01 -2.385807549590035492e-01 4.616251734296963893e-01
2.129086927946296712e-02 -7.325056195404545945e-02 -9.264091271301646557e-01 8.543895028727791496e-01 2.385807549590035492e-01 -4.616251734296963893e-01
4.621830111652901196e-02 -5.127229637324746264e-02 -8.663810788307895194e-01 5.885008387971077948e-01 7.396861732639870013e-01 -3.263910657741409538e-01
5.217700574620844078e-02 1.218040634411743893e-02 -8.263337504762237051e-01 8.265382212511869220e-01 2.552156830249658337e-01 -5.016966453436023654e-01
3.694528727084983241e-03 1.804719760637054360e-01 -8.403245030869038734e-01 -8.542785846781382197e-01 -2.364410431907121579e-01 4.629295117566007978e-01
-1.787715225672666802e-02 -2.408586210353263687e-02 -9.842241397796250846e-01 -8.543895028727791496e-01 -2.385807549590035492e-01 4.616251734296963893e-01
2.398400345479127088e-02 -8.178298020130889134e-02 -9.365657552511910122e-01 -8.543895028727791496e-01 -2.385807549590035492e-01 4.616251734296963893e-01
-9.390059313253771092e-03 1.841504195713231928e-01 -8.509361177005995147e-01 8.551926138779474273e-01 2.334112401560988204e-01 -4.627794141244787052e-01
-1.591802546887490302e-02 1.484039600661573588e-01 -8.810543940022008691e-01 8.545496066700590809e-01 2.362601343056907610e-01 -4.625214791530271041e-01
4.386258930789515426e-02 4.838235121824310814e-02 -8.223525387522805374e-01 8.512672158743747053e-01 2.403495064559970362e-01 -4.664506854147065784e-01
2.669114742048828495e-02 5.173619359523899675e-02 -8.631999245591360781e-01 -8.547896586250037787e-01 -2.357800889534154842e-01 4.623228192084715138e-01
-5.760248118201184014e-03 1.865925971831663144e-01 -8.378599442078165094e-01 8.917212876665047139e-01 2.080018683584266836e-01 -4.019556790017957404e-01
2.225785370407414466e-03 -3.634436596584105228e-01 -1.129447027125736414e+00 -4.663676275319358355e-01 -4.103891529481544231e-01 7.836338297526019847e-01
-3.410659957596462455e-02 1.300633272532072393e-01 -9.354501712483627163e-01 -8.543170853417340060e-01 -2.359118426456090489e-01 4.631284057286467193e-01
2.669794021308540509e-03 1.588766696925230648e-01 -8.447946470631106930e-01 -2.971430499207483589e-01 4.410862975239259187e-01 -8.468464359141097964e-01
2.611607759983296598e-02 -1.297369431602870271e-01 -9.418113646172655562e-01 8.658713990536459626e-01 1.772163639816437541e-01 -4.678259084723797590e-01
1.264211424202031902e-03 -1.751461960021152564e-01 -1.031009792031122974e+00 -4.567076103456070291e-01 -4.127230260288003993e-01 7.880849335179778148e-01
2.417473934358554608e-02 1.275303625989200607e-01 -8.177485245105179379e-01 8.528570438701209566e-01 2.336410739126081881e-01 -4.669547208264218097e-01
-4.619866393927222689e-03 -1.810244800424219702e-01 -1.030237528255439461e+00 8.552698163441633250e-01 2.412731633412559251e-01 -4.585856538335285060e-01
-5.024167309978885138e-02 1.187365966068808926e-01 -9.603234328923004881e-01 8.635992275752797376e-01 2.297611454912302231e-01 -4.487830100994664728e-01
2.805406951437983826e-03 1.851628423047157468e-01 -8.279793961661379154e-01 8.527746094863060122e-01 2.340103731975819723e-01 -4.669203472235997077e-01
1.520372142708680679e-02 8.609651956387273652e-02 -8.555154808014553414e-01 8.543895028727791496e-01 2.385807549590035492e-01 -4.616251734296963893e-01
-1.475420939518814860e-02 -1.720646938647782120e-01 -1.044556721327575266e+00 8.580049742543859326e-01 2.455002968941458752e-01 -4.511729916336046364e-01
-5.257256787108926382e-02 6.644643864369875752e-02 -9.915010931076981837e-01 8.635728453131348292e-01 2.311704626967533982e-01 -4.481095379640400167e-01
-1.428046636498431568e-02 1.510472889770803351e-01 -8.766786215832774731e-01 8.545496066700590809e-01 2.362601343056907610e-01 -4.625214791530271041e-01
4.232134109442637487e-02 5.106486008153382494e-02 -8.383598478216470751e-01 -6.084891699956253008e-01 -7.485183523146180518e-01 2.635549397113331471e-01
4.586685874279265718e-02 8.486931981420213489e-02 -8.004974376086902987e-01 8.222761365941653189e-01 2.422744144032115965e-01 -5.149418057541594873e-01
-1.038036789797327185e-02 -9.907626319510752511e-02 -1.009259196721314478e+00 -8.518535595826416396e-01 -2.434238877221779340e-01 4.637783133271793368e-01
2.124846064070775101e-02 1.611112728417345430e-01 -8.062321144702370157e-01 8.500902560580732015e-01 2.372460241897653976e-01 -4.701711183827319007e-01
-3.427560806210967759e-02 -1.138166673750822533e-01 -1.060684075941911830e+00 -8.443718658285006562e-01 -2.404064076752761292e-01 4.787910936368443560e-01
-6.366298786715966947e-03 7.233892173407797943e-02 -9.024747909030343962e-01 8.541600303883575274e-01 2.364276169371813396e-01 -4.631550760127385868e-01
4.520230633006040721e-02 1.092761900031961886e-01 -7.993911001316906795e-01 -8.603797089781428653e-01 -2.341740228455126693e-01 4.526690660991045667e-01
-5.151546383546865178e-03 -1.534498897197231759e-01 -1.027819236408636039e+00 -8.504691608764144428e-01 -2.444216713763343041e-01 4.657899236348578276e-01
9.138870115227178820e-03 -4.227533473661539143e-02 -9.436929311344082194e-01 -8.550629339217831193e-01 -2.348822136894458679e-01 4.622745123034772141e-01
-5.149840805738354873e-04 1.861582528882796406e-01 -8.335677142327005962e-01 8.540964001624358204e-01 2.331278980738932527e-01 -4.649416332930582096e-01
2.215059477869848331e-02 -1.729237827245364567e-01 -9.764976575476098652e-01 8.483073787479447070e-01 2.483389284154468302e-01 -4.676562496056892448e-01
-3.466695182536852493e-02 3.136202639855874968e-02 -9.759586019256791811e-01 8.568601016390324787e-01 2.367353522560903534e-01 -4.579815926555692029e-01
-6.306646141401882344e-03 -7.932253236312272748e-02 -9.913569559985335733e-01 -8.543895028727791496e-01 -2.385807549590035492e-01 4.616251734296963893e-01
-1.648442506379849820e-02 -1.109363869965177135e-01 -1.010941428644499318e+00 8.466529794197462655e-01 2.197116963358763664e-01 -4.846705096587560768e-01
-1.999535064402605325e-02 8.823054421116792445e-02 -9.299408337627699250e-01 -3.354965861992887932e-01 -7.513686218537882766e-01 -5.682316734767274280e-01
-2.383096511420997737e-02 -1.992071552974808077e-02 -9.930909686031136330e-01 -8.543895028727791496e-01 -2.385807549590035492e-01 4.616251734296963893e-01
1.161790016799452846e-02 -2.160489840079841961e-01 -1.025576055836656675e+00 -3.416798252235411226e-01 9.272521181930991618e-01 -1.531613735300819401e-01
-3.168810661572839249e-03 -8.169881734266584705e-02 -9.867774877351708218e-01 -8.543895028727791496e-01 -2.385807549590035492e-01 4.616251734296963893e-01
3.473868043297156927e-02 1.088170218362981972e-01 -8.080483508567133377e-01 8.502853888340995425e-01 2.377037006427567267e-01 -4.695867419721120317e-01
-1.601858318757801505e-02 2.001441337476640714e-01 -8.550707120734734046e-01 8.518915789106392689e-01 2.340966524762747580e-01 -4.684863872948075714e-01
4.175844737860615226e-03 -3.385964457077342837e-01 -1.102229841018186329e+00 -2.847660865304942335e-01 4.368530452247312845e-01 -8.532688280020463978e-01
-7.420956791228968882e-03 1.922388636803361583e-01 -8.432472321112249869e-01 8.559788081510226743e-01 2.315723310550667491e-01 -4.622494299467305168e-01
-4.265067286181047079e-02 -7.848630660520382329e-02 -1.047845666551059374e+00 8.580468224966731894e-01 2.370951381288509685e-01 -4.555672792014633932e-01
2.514978305428968927e-02 -6.501846485587199631e-02 -9.150123583552002282e-01 8.543895028727791496e-01 2.385807549590035492e-01 -4.616251734296963893e-01
-5.087376732524289541e-02 9.680626706446598950e-02 -9.727528418949720201e-01 8.673360502769590363e-01 2.241175485981400095e-01 -4.444091586593650334e-01
-4.403915419003191084e-03 1.751468405989887733e-01 -8.489436557423920560e-01 7.072516560879849035e-01 -3.197995119890412186e-01 6.304945416832518079e-01
1.295493809457062481e-02 -1.145696830193790178e-01 -9.740881145381918849e-01 -8.568959501127695333e-01 -2.396173148685897814e-01 4.564130509697341687e-01
1.851249108087643994e-02 1.264375968374892856e-01 -8.231546282805948245e-01 8.566628105968737694e-01 2.377422948043630690e-01 -4.578290403648725970e-01
-2.335305482601075094e-02 1.079228147378563651e-01 -9.155970632434012879e-01 8.543895028727791496e-01 2.385807549590035492e-01 -4.616251734296963893e-01
6.783736993829313612e-04 2.111310747605376348e-01 -8.302701123697064922e-01 -8.432712849074797123e-01 -2.512081719714017725e-01 4.751715420616800523e-01
-3.683623146260137787e-02 1.111928107730301152e-01 -9.550091689592944411e-01 -8.540342387531895119e-01 -2.921448784266312826e-01 4.304380199823768516e-01
3.634667912435921022e-02 -1.279554233717238865e-01 -9.425855202196833371e-01 -8.433454789826351217e-01 -2.954913462558933501e-01 4.488354568964328384e-01
-4.143353959437524880e-02 1.079592577699988454e-01 -9.491757586057074647e-01 8.598882206048537036e-01 2.307271754859056556e-01 -4.553649289935648992e-01
-1.717621518810017595e-02 -1.840710846472424778e-01 -1.061610514253365167e+00 3.646334932849895072e-01 3.576587178429865288e-01 8.597224302795040130e-01
-6.174564047770256074e-03 -1.242514524949871607e-01 -1.003601643800632992e+00 8.543895028727791496e-01 2.385807549590035492e-01 -4.616251734296963893e-01
-9.029520034772874765e-03 5.858303432060996824e-02 -9.176657378123374009e-01 3.569019334604311977e-01 7.497430477816248162e-01 5.572309863919326922e-01
1.962097543178508569e-03 1.742500916397307920e-01 -8.350063210342614228e-01 8.537874383611483431e-01 2.345624855604736270e-01 -4.647875326043084954e-01
-2.624520797802370911e-04 -1.765422606554975168e-02 -9.500550426879280641e-01 2.969905610926296124e-01 -4.378087296091714986e-01 8.485989175693593456e-01
3.588475002140204678e-02 -1.293995647018941486e-01 -9.287021637405096230e-01 8.506875148030534906e-01 2.426507849436613518e-01 -4.663167900949203304e-01
2.158706583988877908e-02 7.852558552144428550e-02 -8.476138681731141267e-01 8.543895028727791496e-01 2.385807549590035492e-01 -4.616251734296963893e-01
1.722317086913557546e-02 6.503519329003189416e-03 -8.927186115428383806e-01 8.543895028727791496e-01 2.385807549590035492e-01 -4.616251734296963893e-01
3.958330599722851423e-02 -1.102989966393167764e-01 -9.120298481488520181e-01 8.509504896424007203e-01 2.420281986467772706e-01 -4.661605037292996245e-01
5.211784183425823697e-02 6.350395055730088945e-03 -8.389579999349993100e-01 -8.635773006212431602e-01 -2.318415656971294647e-01 4.477541002233602629e-01
-3.922503500212384114e-02 9.160844961063363892e-03 -1.003484357466473353e+00 1.364403065968351585e-02 5.936960294718195419e-01 8.045737163347769227e-01
-2.377803791650402038e-02 1.112725329062710239e-01 -9.146524067922280343e-01 8.543895028727791496e-01 2.385807549590035492e-01 -4.616251734296963893e-01
-1.351027342571819306e-02 -1.044636064135718023e-01 -1.022964091105820650e+00 -8.373341226973507467e-01 -1.981496883933975828e-01 5.095176816914772644e-01
9.073482600694088122e-04 1.664583723798972736e-01 -8.555998105550909338e-01 -4.516467731798290974e-01 -4.019732375375435485e-01 7.965128426961071151e-01
2.627265651902318741e-02 -1.610974832026810730e-02 -8.876567232137250185e-01 8.543895028727791496e-01 2.385807549590035492e-01 -4.616251734296963893e-01
-2.915125066567520341e-03 6.477714653622290708e-02 -9.067599218440816067e-01 3.087722063423384844e-01 -4.366980112307555784e-01 8.449583253495921431e-01
-2.019775896132771503e-02 -6.354534126190802823e-02 -1.008912945747303391e+00 -8.543895028727791496e-01 -2.385807549590035492e-01 4.616251734296963893e-01
3.165031099542449378e-02 -4.904808904244669504e-02 -8.898862467275816535e-01 8.314611096542602331e-01 3.287160134481482698e-01 -4.479042371258201705e-01
2.269390772423761273e-03 3.362956577965309224e-02 -9.174988028323662892e-01 -8.543895028727791496e-01 -2.385807549590035492e-01 4.616251734296963893e-01
1.032354078231790054e-02 -1.962032052561353199e-02 -9.299166413366791728e-01 -8.543895028727791496e-01 -2.385807549590035492e-01 4.616251734296963893e-01
-1.292579968208878646e-02 -1.266515879241650600e-01 -1.028263949141339006e+00 -8.543895028727791496e-01 -2.385807549590035492e-01 4.616251734296963893e-01
-5.398998152557420160e-02 6.206181480057929717e-02 -9.965002611588522630e-01 8.636855294318811493e-01 2.316469291166948219e-01 -4.476460727860524513e-01
-4.369615560542208094e-02 5.906115389632201479e-03 -1.006026198939823590e+00 8.574852903516453351e-01 2.365709115041779165e-01 -4.568951528093034842e-01
3.627590714437513991e-02 -9.676341127380706439e-03 -8.767375030159416660e-01 -8.550232956815132512e-01 -2.349496905412365166e-01 4.623135372844934809e-01
3.648593169828409470e-03 -2.521534159315673151e-01 -1.069019228405299948e+00 -8.254608170223298735e-01 -2.634499105305459499e-01 4.992079568699550607e-01
2.475767797725053967e-02 -2.540745941777788550e-02 -9.061924686381582772e-01 -8.543895028727791496e-01 -2.385807549590035492e-01 4.616251734296963893e-01
-4.098981145856232799e-02 1.027357705790814535e-01 -9.568485094910731403e-01 -4.166620963906431802e-02 6.376717060582890451e-01 7.691805524498294133e-01
2.836974584600591986e-02 -2.957339471675692055e-02 -8.907487213644224022e-01 8.518994367987634542e-01 2.404802292155190369e-01 -4.652274808503910619e-01
3.316080264960116070e-02 6.365420785954765959e-02 -8.340213653683974382e-01 8.520618297428522725e-01 2.371390930046351209e-01 -4.666429993733985371e-01
-7.876081410843192854e-03 -6.307639346179894080e-02 -9.858652557826140805e-01 -8.543895028727791496e-01 -2.385807549590035492e-01 4.616251734296963893e-01
2.338356809942992998e-02 -1.896442586290104648e-01 -9.936068694881604602e-01 -8.590786724561448873e-01 -2.336860167287262702e-01 4.553841017387949552e-01
-8.593601426283091482e-03 -6.034975290295892941e-02 -9.857840591843904932e-01 -8.543895028727791496e-01 -2.385807549590035492e-01 4.616251734296963893e-01
3.074501444864814401e-02 -1.435309183846881012e-02 -8.785317461627952795e-01 8.518995606457350211e-01 2.404803448083075723e-01 -4.652271943174440816e-01
-1.813491962552846518e-02 6.731205794856466758e-03 -9.580427348511657559e-01 8.543895028727791496e-01 2.385807549590035492e-01 -4.616251734296963893e-01
-1.109008623868859914e-02 -2.897025098095386102e-03 -9.499800872442529798e-01 8.543895028727791496e-01 2.385807549590035492e-01 -4.616251734296963893e-01
-3.163711528712612880e-02 7.140144859760337581e-02 -9.607763101340960343e-01 -8.538563598096459151e-01 -2.361603109324185712e-01 4.638508643442675883e-01
1.985150541773240615e-02 1.696218649846437665e-01 -8.160877751868778063e-01 -8.567589342328283397e-01 -2.337330919929693218e-01 4.597096587191032424e-01
1.049216819923000019e-02 2.010721476338783453e-01 -8.173015974561033126e-01 -8.543895028727791496e-01 -2.385807549590035492e-01 4.616251734296963893e-01
-1.666756447788203185e-02 -1.435461049450638682e-01 -1.043920875161122419e+00 -8.543895028727791496e-01 -2.385807549590035492e-01 4.616251734296963893e-01
-1.297912923128142354e-02 1.085165902277989980e-01 -8.960898156869417930e-01 8.543895028727791496e-01 2.385807549590035492e-01 -4.616251734296963893e-01
2.128530526996703920e-02 -4.717423244595278509e-02 -9.237148514720838754e-01 -8.550659479813363939e-01 -2.348673380905394181e-01 4.622764952937180594e-01
-5.563160941500294547e-03 1.808045648949121731e-01 -8.404178747280142137e-01 8.917212876665047139e-01 2.080018683584266836e-01 -4.019556790017957404e-01
1.339628427479109402e-02 -7.813457673542392734e-02 -9.542762219762388476e-01 -8.543895028727791496e-01 -2.385807549590035492e-01 4.616251734296963893e-01
-1.812744129352301253e-02 9.178359998505131179e-02 -9.142343594397625006e-01 8.541089596234453518e-01 2.362873286856222999e-01 -4.633208212389861580e-01
3.522819362861643461e-02 -1.320708366557213631e-01 -9.417448417545971617e-01 -8.543895028727791496e-01 -2.385807549590035492e-01 4.616251734296963893e-01
3.388447229096580582e-02 -7.566573350670949272e-02 -9.044913420664671966e-01 8.517818068880286253e-01 2.407145776916379820e-01 -4.653216581476750657e-01
-1.686365700559466427e-02 2.012421508049297772e-02 -9.596944261788487029e-01 -8.543895028727791496e-01 -2.385807549590035492e-01 4.616251734296963893e-01
1.946936743448965390e-02 3.420833263078202485e-02 -8.854848030389308455e-01 -8.548228072536726563e-01 -2.355214827401151678e-01 4.623933383677235609e-01
-1.900878938547865063e-02 -4.097195338035431594e-02 -9.843144409403867812e-01 8.543895028727791496e-01 2.385807549590035492e-01 -4.616251734296963893e-01
2.054128176022854829e-02 -5.234553712726382896e-02 -9.277235552359806015e-01 -8.543895028727791496e-01 -2.385807549590035492e-01 4.616251734296963893e-01
-1.082938696736203410e-02 -2.139862072590692499e-02 -9.752355772958664071e-01 -8.621538471463071618e-01 -2.804821269284528129e-01 4.219247804105765720e-01
-4.710268247913252521e-02 -6.525234622914398430e-02 -1.049572185577655636e+00 8.658750935717310915e-01 2.343391335293709410e-01 -4.419790637901863661e-01
-3.602301383696108333e-02 2.044005563356888211e-01 -8.907196253943775455e-01 8.913755559549108032e-01 1.537154667619211046e-01 -4.264049407830995397e-01
3.652141355601765810e-02 -1.319992746568356690e-01 -9.393143268884729391e-01 -8.543895028727791496e-01 -2.385807549590035492e-01 4.616251734296963893e-01
4.713614212305966555e-02 -3.682495924555759248e-02 -8.602492913870681823e-01 8.446307144476951079e-01 2.464419064296354545e-01 -4.752529252586488173e-01
1.947652152560077829e-02 -7.424700853054021221e-02 -9.302821668924328158e-01 8.543895028727791496e-01 2.385807549590035492e-01 -4.616251734296963893e-01
3.425756137993875294e-02 1.015690855709482920e-01 -8.238229946530160053e-01 -8.544563008692517281e-01 -2.356979720841846371e-01 4.629804486803281161e-01
-1.624589466565651286e-02 3.070841660129129680e-02 -9.531579084277744807e-01 -8.538212996585058390e-01 -2.360508295023437675e-01 4.639711134765995282e-01
1.011693846956770049e-03 1.426972436964248254e-02 -9.297600522269801049e-01 -8.541951605984474671e-01 -2.358659650476931935e-01 4.633766007712443735e-01
-1.875550536780747372e-03 5.304663653095722381e-02 -9.151350992972586695e-01 -8.543895028727791496e-01 -2.385807549590035492e-01 4.616251734296963893e-01
-3.656013824802946399e-02 1.143331340708785004e-01 -9.479238457339117518e-01 -8.534930133975634492e-01 -2.336881394036927628e-01 4.657676776930606000e-01
-3.263969514388351256e-02 -5.998472262561652807e-02 -1.019422717706925052e+00 8.572583475128997543e-01 2.368319830254198288e-01 -4.571856706368864209e-01
4.179122924126202343e-02 1.207112739233231341e-01 -7.902921295624967257e-01 7.037503517308869583e-01 2.386063106453362725e-01 -6.691804472329375697e-01
-3.267756338618220402e-03 -7.391867381233346856e-02 -9.829396243098053043e-01 -8.543895028727791496e-01 -2.385807549590035492e-01 4.616251734296963893e-01
-2.126284137956094625e-02 -1.880113199487474726e-02 -9.770278085486898689e-01 8.543895028727791496e-01 2.385807549590035492e-01 -4.616251734296963893e-01
-3.351762635795604156e-02 1.670978958533507475e-01 -9.154521981757043347e-01 -8.507881388503260034e-01 -2.393906133042227602e-01 4.678158580610821127e-01
-4.322872512451373522e-02 -7.644798872201989670e-02 -1.057559188577154918e+00 -8.132891605964572834e-01 -2.490682788600741548e-01 5.258571419330445584e-01
-2.309064654173768535e-02 1.685690558349054735e-01 -8.956961009906542204e-01 -8.515650087531629886e-01 -2.383354608741745373e-01 4.669403002066969677e-01
-4.466234279444083327e-02 -8.243192704005052052e-02 -1.053919277012663747e+00 8.673637251966409556e-01 2.353763289333648534e-01 -4.384953272166745020e-01
-2.522007764526575796e-02 1.556403039218615669e-01 -8.915019322134619673e-01 7.882896618672223799e-01 6.152641283326967248e-01 7.032878519294005586e-03
6.185152568333434318e-03 -1.971726910127903354e-01 -1.029535199186916605e+00 -8.543895028727791496e-01 -2.385807549590035492e-01 4.616251734296963893e-01
-1.655655179624212874e-03 -2.926593093345901050e-02 -9.461467490671982006e-01 8.543895028727791496e-01 2.385807549590035492e-01 -4.616251734296963893e-01
1.887891896305646938e-02 -4.898338041649250019e-02 -9.136416464986835129e-01 8.426122272095494248e-01 2.956579893604697196e-01 -4.501010862953867542e-01
-1.684236010294097238e-02 7.023125266129896793e-02 -9.228606703858083238e-01 8.540013693997525746e-01 2.364720115169009207e-01 -4.634249117521608285e-01
-1.567820072514116911e-02 1.878543075005923435e-01 -8.723289940536811393e-01 -8.522314786038882595e-01 -2.352116417178793661e-01 4.673082392565000576e-01
-1.187958819610667772e-02 -9.339309868546709359e-02 -1.009029988392931676e+00 -8.518535595826416396e-01 -2.434238877221779340e-01 4.637783133271793368e-01
-4.394047853919660906e-02 1.050253817538509132e-01 -9.553962907866103693e-01 8.598882206048537036e-01 2.307271754859056556e-01 -4.553649289935648992e-01
-4.316195457847212674e-02 6.127629209525635445e-02 -9.870037971650881259e-01 -8.507679394928022720e-01 -2.383123010890501603e-01 4.684027756971702039e-01
-4.087153737163515613e-03 1.153457464866882581e-01 -8.877406985701898900e-01 -8.542550638585895140e-01 -2.342891935709486562e-01 4.640655768830866390e-01
1.292278356797952818e-02 -1.123738647961383397e-01 -9.729956764891060095e-01 -8.568959501127695333e-01 -2.396173148685897814e-01 4.564130509697341687e-01
-1.588283179848856523e-03 -6.182031868450436722e-03 -9.340916526035945022e-01 8.543895028727791496e-01 2.385807549590035492e-01 -4.616251734296963893e-01
3.658789364018618512e-02 -2.342580767142725742e-02 -8.831796408162845280e-01 -8.568601016390324787e-01 -2.366758446279958739e-01 4.580123478562250217e-01
-2.855273845540557895e-02 -1.007435021783234796e-01 -1.043660495599072036e+00 -8.510554085759554077e-01 -2.399367218267837165e-01 4.670493132985318319e-01
1.562372488933674169e-02 8.036722950644341334e-02 -8.690834580856254821e-01 -8.548627563055983813e-01 -2.338423044073320578e-01 4.631710748212413686e-01
-2.019946133296526142e-02 -3.070680806746017497e-02 -9.919442273937895127e-01 -8.543895028727791496e-01 -2.385807549590035492e-01 4.616251734296963893e-01
3.626177006567215394e-02 2.869986537141537911e-02 -8.462048130436689020e-01 8.543895028727791496e-01 2.385807549590035492e-01 -4.616251734296963893e-01
-1.215493388744818930e-02 -1.157307707373856076e-01 -1.017074290779927281e+00 -4.600675484286567696e-03 6.144929437634384373e-01 7.889089021237066790e-01
3.352889034231770760e-02 -1.538063306294539098e-03 -8.668119379378413925e-01 8.519173567361271182e-01 2.403802054345688388e-01 -4.652463585316545802e-01
-4.727795037603292616e-02 9.698124301050850549e-02 -9.762103161603694623e-01 -8.444524589793861447e-01 -2.438484534096752865e-01 4.769045777651728102e-01
2.915464540177351190e-03 2.576602464218780489e-02 -9.092443373409976326e-01 8.543895028727791496e-01 2.385807549590035492e-01 -4.616251734296963893e-01
4.216668654816865119e-02 1.640000668934448250e-02 -8.525465347572098729e-01 -8.573343634573530325e-01 -2.365785225681843462e-01 4.571743561209774542e-01
-3.301964832589756454e-02 -2.315662199896953086e-02 -1.011770061481929606e+00 -8.543895028727791496e-01 -2.385807549590035492e-01 4.616251734296963893e-01
4.953170983154976670e-02 -4.047558147847112736e-02 -8.678714099043320918e-01 -8.550568270639943291e-01 -2.348569745979424417e-01 4.622986307290514185e-01
-4.385066391208409381e-02 1.301930563087275129e-03 -1.019009275596140185e+00 -8.512629603913102194e-01 -2.405820103498196860e-01 4.663385771752768805e-01
1.662782900177622175e-02 4.471056997520375664e-02 -8.740876865941216156e-01 8.547709409185987317e-01 2.358910509516627951e-01 -4.623008226707512880e-01
-2.838807431508208468e-02 1.653017167089557704e-01 -9.034000880607885309e-01 -5.598207791655198523e-02 6.409205130824910945e-01 7.655631279406170941e-01
-1.802720499189883543e-02 2.329266702762474057e-03 -9.601184182296900183e-01 8.543895028727791496e-01 2.385807549590035492e-01 -4.616251734296963893e-01
-8.402666434158215930e-04 -1.695639758781600781e-01 -1.017182524156270418e+00 8.540701650297479741e-01 2.421799305061966279e-01 -4.603401291068085488e-01
-3.930760058049370675e-02 2.597926294616295997e-02 -9.979812776087513271e-01 -8.537095632732552009e-01 -2.358740433358373079e-01 4.642665368688459471e-01
4.813826247951642767e-02 -9.445283562032695535e-02 -8.884378663750276406e-01 8.439901314030635593e-01 2.482570603573459322e-01 -4.754462010332700106e-01
2.306545299398080236e-03 -1.009397301370420913e-01 -9.758564083678850087e-01 8.543895028727791496e-01 2.385807549590035492e-01 -4.616251734296963893e-01
1.963374010508048967e-02 -4.915185504748943897e-03 -9.050967259463857939e-01 -8.549830975199312899e-01 -2.352189520146782953e-01 4.622509573471319522e-01
2.538675986117221173e-02 8.349485711844879809e-02 -8.494943236169980594e-01 -8.548806997970395116e-01 -2.335710207468954802e-01 4.632748292123989309e-01
-1.926852617327991929e-02 4.970703690569514693e-02 -9.490543218186028307e-01 -8.538613505058494368e-01 -2.362498979748120509e-01 4.637960541220871868e-01
3.582446648611924134e-02 5.565028041831772410e-02 -8.332251202967382309e-01 8.520618297428522725e-01 2.371390930046351209e-01 -4.666429993733985371e-01
-3.069662471137854336e-03 -5.812378539342203526e-02 -9.636783789613863060e-01 8.543895028727791496e-01 2.385807549590035492e-01 -4.616251734296963893e-01
-5.246966675796350260e-02 9.176640992363106764e-02 -9.879733552382115036e-01 -8.348305429679745426e-01 -2.504032841449015945e-01 4.902613178879654532e-01
1.422570909486023036e-02 1.722494758044312568e-01 -8.251186286645416645e-01 -8.537201642545174662e-01 -2.357052981741127040e-01 4.643327401313551150e-01
-1.488466796952466831e-03 -8.326162485863704971e-03 -9.459415181363390879e-01 -8.543895028727791496e-01 -2.385807549590035492e-01 4.616251734296963893e-01
1.813402117896853113e-02 1.982772433717840468e-02 -8.841464624026845742e-01 8.543895028727791496e-01 2.385807549590035492e-01 -4.616251734296963893e-01
4.273373713943440927e-02 7.106466142786738160e-02 -8.236227486769104322e-01 -8.577515745086625731e-01 -2.340187592879980627e-01 4.577089214000709672e-01
2.041530390515946050e-02 -1.269253418053756799e-01 -9.665752979702907366e-01 -8.535317299200886332e-01 -2.423258744692377842e-01 4.612610503633924330e-01
2.756316719877941086e-03 -7.305815824945281756e-02 -9.606139847399487453e-01 8.543895028727791496e-01 2.385807549590035492e-01 -4.616251734296963893e-01
4.353160427617886602e-02 -1.764587714755015344e-02 -8.673683662249448423e-01 -8.550430728652602674e-01 -2.349344782181471969e-01 4.622846898714041419e-01
-3.803614975478250559e-02 1.390598952011284310e-03 -9.948603577827069833e-01 8.339151324928180120e-01 5.515674203818757837e-01 -1.894551590136788269e-02
5.815382937140742628e-03 -3.596048783597236009e-01 -1.122641884207479679e+00 -8.897804905340263026e-01 -2.133443070952742715e-01 4.034536965936296737e-01
5.027672364948780788e-03 4.693518225972197200e-02 -8.991455831447379143e-01 3.146427803164945219e-02 9.961348867708429422e-01 8.200784453933045171e-02
-4.892683683671292943e-02 -3.295912746238465613e-02 -1.036106161412505555e+00 8.648771768900722634e-01 2.335885896849978494e-01 -4.443240255305045405e-01
2.470070020752121107e-02 -8.616082783345195562e-02 -9.267704965665127803e-01 8.543895028727791496e-01 2.385807549590035492e-01 -4.616251734296963893e-01
-5.062888069594875806e-02 4.538815162366539868e-02 -1.008588837823674922e+00 -8.447653429290532534e-01 -2.455266171417528620e-01 4.754873243955997641e-01
6.772674034563119306e-04 -3.227208215920213674e-01 -1.092876070790465448e+00 -3.019717851833120803e-01 4.337412669162644119e-01 -8.489296521662308415e-01
-1.335131727070702247e-02 -3.146020454743225780e-02 -9.641843508987464340e-01 8.405326086157706156e-01 1.981699070194899437e-01 -5.042158484274911201e-01
-2.394928618464478923e-02 -3.360273261525363424e-03 -9.740196938005486471e-01 8.543895028727791496e-01 2.385807549590035492e-01 -4.616251734296963893e-01
1.348386327116150862e-02 6.272339268674667623e-02 -8.707110778843660803e-01 8.546630283973537523e-01 2.358690542300483084e-01 -4.625115102862702443e-01
5.508241151393516305e-02 -4.562518060954399990e-02 -8.520439443274206992e-01 -1.231879649208967795e-02 4.915300182300561538e-01 -8.707735000743574982e-01
1.758379174501348502e-03 1.715045257493810760e-01 -8.525706265368461212e-01 -4.516467731798290974e-01 -4.019732375375435485e-01 7.965128426961071151e-01
5.437948543893024456e-02 -5.447659240518210044e-02 -8.657903013230184852e-01 -8.726366887107684933e-01 -2.229627988399812133e-01 4.345029342240941395e-01
-4.748886842248306595e-02 3.943569804988923677e-02 -1.006082212334159953e+00 -8.446619491256885937e-01 -2.451302698496327370e-01 4.758753434489318423e-01
2.978139924034382130e-02 -8.532985273971188667e-02 -9.276688865108970727e-01 -8.543895028727791496e-01 -2.385807549590035492e-01 4.616251734296963893e-01
-2.737353916640216864e-02 3.241944307580876122e-02 -9.727919099494755084e-01 -8.543895028727791496e-01 -2.385807549590035492e-01 4.616251734296963893e-01
-5.182695231816856693e-03 -1.332953431159332736e-01 -1.001787375448295991e+00 8.834439838598513450e-01 2.411427962350005949e-01 -4.017174121267332865e-01
3.162296593303647041e-02 -5.149634882812791081e-02 -8.976299879621605360e-01 -1.323470082923871444e-02 9.997262494835544855e-01 1.929426825527253558e-02
6.511325449202674288e-03 -1.333295566215892403e-01 -9.988243381359841466e-01 -4.331347790277653154e-01 8.815805483590791747e-01 1.876432784606852644e-01
3.896733541917208471e-03 1.934335501682560021e-01 -8.333502848490985659e-01 -8.542473086660276049e-01 -2.358555021044780597e-01 4.632857841159094825e-01
-2.289557778510416513e-03 1.406648150063537495e-01 -8.551836301525204131e-01 8.108505424524035110e-01 2.687091406002493077e-01 -5.199199895777413261e-01
9.272211064126460039e-03 -6.297175327152885853e-03 -9.249767006751816734e-01 -8.543895028727791496e-01 -2.385807549590035492e-01 4.616251734296963893e-01
-2.894859446278946584e-03 1.542398771817495573e-01 -8.658733684323457469e-01 -8.502351391616159715e-01 -2.375785377450833624e-01 4.697410419983925056e-01
-3.754221393769737597e-02 1.932541962118560219e-01 -9.091698663461339480e-01 -8.239793798562196070e-01 -2.816368315672290734e-01 4.916692757093246158e-01
-7.795100387492669147e-03 -7.331724632495664751e-02 -9.910081318818423357e-01 -8.543895028727791496e-01 -2.385807549590035492e-01 4.616251734296963893e-01
-1.940171619884084413e-04 -3.668998876965864908e-01 -1.116232923285850775e+00 4.642742444268883051e-01 4.105627830573544412e-01 -7.847850834018456068e-01
5.678746028282069536e-02 -2.062267569668875533e-02 -8.390878382390807300e-01 -5.195801143629326102e-01 4.049267081049101602e-01 -7.523768110607361725e-01
-1.530928966771170734e-02 1.100833065494396246e-01 -9.110400023696390015e-01 -8.542416033779777207e-01 -2.340279859078530089e-01 4.642221288027268411e-01
-2.235809078661652252e-02 3.141296482000633002e-03 -9.786114549911011373e-01 -8.537016112901590903e-01 -2.359004197178758699e-01 4.642677577190948979e-01
-1.725220511897545758e-02 -1.161318328430423485e-01 -1.030834485475814466e+00 -8.543895028727791496e-01 -2.385807549590035492e-01 4.616251734296963893e-01
-5.798045220053626297e-02 5.140278819076659483e-02 -1.010723546381489202e+00 9.363993343314268580e-01 1.603791836633495227e-01 -3.121454854889593733e-01
2.183879529237929204e-03 -3.432918566281062400e-01 -1.103922820355550005e+00 -3.022384111709195964e-01 4.371645013155427972e-01 -8.470768215471434770e-01
-4.789434441722368457e-02 -7.498344166442194592e-02 -1.056872400202295781e+00 9.586383338048758418e-01 2.007980899730945346e-01 -2.017242474839565369e-01
-3.982198881738932897e-03 1.343203803389606543e-01 -8.756493619573596510e-01 -1.448997746509696552e-02 6.493495883407590652e-01 7.603519926157539244e-01
2.103109977069456127e-02 -1.300897762004909197e-01 -9.513605647867405812e-01 8.657028810144401509e-01 1.793029854377031773e-01 -4.673424453400576994e-01
5.653330836281211802e-02 1.105726707473008406e-02 -8.232655171584836173e-01 -5.180360537271908594e-01 3.214764828513335670e-01 -7.926484201790192641e-01
5.529440168421832953e-03 1.357743899990171144e-01 -8.655019823776567423e-01 -8.543895028727791496e-01 -2.385807549590035492e-01 4.616251734296963893e-01
-3.550445642706893251e-02 4.824566325017387580e-02 -9.688001309399600913e-01 8.568424572766126790e-01 2.366621764745768797e-01 -4.580524179987400246e-01
-5.761076858707558576e-03 -2.754807233148433010e-01 -1.076702904191721100e+00 8.935691046213732891e-01 2.059090409969126234e-01 -3.989181897355510431e-01
-2.917692438792647558e-02 -1.478531001598402672e-01 -1.058958360905610130e+00 8.543895028727791496e-01 2.385807549590035492e-01 -4.616251734296963893e-01
2.201112606073094696e-02 7.543420462932154402e-02 -8.597873477889741434e-01 -8.548806997970395116e-01 -2.335710207468954802e-01 4.632748292123989309e-01
4.680193198408200139e-02 -6.964988868019357515e-02 -8.879135324261401285e-01 -8.574852903516453351e-01 -2.358846843153605544e-01 4.572498141453936737e-01
-5.568419845018499070e-02 5.852683524612243421e-02 -1.001694984784699427e+00 8.806417405831717948e-01 2.181968866195783952e-01 -4.205475519036634968e-01
6.051027427314416111e-03 -2.556171051765981916e-01 -1.066257571258395709e+00 -8.808679624969942834e-01 -2.216222625928289669e-01 4.182764700166973215e-01
3.904705972547088677e-02 -4.262269827639043190e-02 -8.934688561162714704e-01 -8.429800166146307339e-01 -2.949409444577690831e-01 4.498827968157443347e-01
9.421081946888225367e-03 7.684566439450798980e-02 -8.709992604835686825e-01 8.543895028727791496e-01 2.385807549590035492e-01 -4.616251734296963893e-01
-2.158082302036121516e-02 4.286821132731340363e-03 -9.656838407301024940e-01 8.543895028727791496e-01 2.385807549590035492e-01 -4.616251734296963893e-01
4.015873183908646310e-02 -1.405320294547821314e-01 -9.268086072859617053e-01 8.415094585925460002e-01 2.524847929345748754e-01 -4.776120396682489999e-01
-1.765137736903057628e-02 1.746491427246187056e-01 -8.708685773913054096e-01 8.545789666222830538e-01 2.358258681696984715e-01 -4.626888260038263812e-01
-2.070655997108916506e-03 2.176367753275756101e-01 -8.319921822191196359e-01 -8.543895028727791496e-01 -2.385807549590035492e-01 4.616251734296963893e-01
4.904721016677014711e-02 9.733323342055390237e-02 -7.978999183026843633e-01 -8.834967408578631165e-01 -2.273849822931486853e-01 4.095480176012066820e-01
-7.015174314500071491e-04 -3.766684676245369290e-01 -1.136436989858358615e+00 3.084933851939098415e-01 -3.175672455270359684e-01 8.966509219646033868e-01
2.821938605539799083e-02 -4.790801830037427766e-02 -9.153332108146804424e-01 -8.366711345902796415e-01 2.977368795292253956e-01 4.597109560491391966e-01
-1.395084992358987773e-02 1.453235861943405482e-01 -8.789933447606549377e-01 8.545496066700590809e-01 2.362601343056907610e-01 -4.625214791530271041e-01
-4.800797531328687695e-02 1.127553331969615054e-02 -1.021343228335542808e+00 -8.487301633599091399e-01 -2.389029469203750589e-01 4.717864895859380514e-01
4.473434735218514979e-02 6.284620081507796482e-03 -8.529061508582002071e-01 -8.579371546969789541e-01 -2.328688405590085830e-01 4.579475315875771724e-01
1.231806877033712585e-03 2.436564547480848941e-02 -9.242070459417569550e-01 -8.543895028727791496e-01 -2.385807549590035492e-01 4.616251734296963893e-01
-1.552931684240092119e-02 1.237176399011049310e-01 -9.045714197220647845e-01 -8.542416033779777207e-01 -2.340279859078530089e-01 4.642221288027268411e-01
-2.818925670346209347e-02 -9.738140336506705130e-02 -1.030459896817200516e+00 8.543895028727791496e-01 2.385807549590035492e-01 -4.616251734296963893e-01
1.681769659978421885e-02 -1.255040555320539875e-01 -9.606815306116744946e-01 3.366034963204335706e-01 -9.078678697846511714e-01 -2.499480291531412934e-01
3.747637222915143479e-02 -7.157614036039364191e-02 -9.063185014002925755e-01 -8.543895028727791496e-01 -2.385807549590035492e-01 4.616251734296963893e-01
8.358268550745007186e-03 9.474768971666185091e-02 -8.752240851705004321e-01 -8.548259757911166323e-01 -2.340449118884746493e-01 4.631366216699793759e-01
-4.629609471844361307e-02 1.450517321199103205e-01 -9.394550516478706870e-01 8.646950976536402766e-01 2.247486427328026781e-01 -4.492109033444365851e-01
1.505251354062687140e-03 1.087329759628216791e-01 -8.845926920430151608e-01 -4.833195276052997813e-01 -3.991394971551980309e-01 7.791597371823608675e-01
9.471749506547324712e-03 -1.230958335812958326e-01 -9.793214807787443688e-01 3.366034963204335706e-01 -9.078678697846511714e-01 -2.499480291531412934e-01
1.210262760744921888e-02 1.980272515355863128e-01 -8.047062964221802783e-01 8.504080958817875624e-01 2.317252761640503922e-01 -4.723446483717235189e-01
-4.262069319473883039e-02 6.313614456968801025e-02 -9.744219002245320116e-01 8.573436455654964705e-01 2.362487348060147985e-01 -4.573274633247185750e-01
2.585305624968128185e-02 -1.991703819850532964e-01 -9.855678928365286806e-01 -1.243314137393717739e-01 8.633801598963798396e-01 -4.889952955344973318e-01
-1.894671836886779176e-02 1.155835883038703049e-01 -9.149536192019235292e-01 -8.538745868202395339e-01 -2.343328007638788846e-01 4.647432930863246159e-01
-4.556862753134933303e-02 -7.126164348423658090e-02 -1.058472971763206205e+00 -7.284463632182303083e-01 -2.533015305584577770e-01 6.365565415034841745e-01
-3.794221947578994142e-02 1.855651388246084277e-01 -9.139737195287188642e-01 -8.482835152712927540e-01 -2.433056127771381638e-01 4.703375984440534840e-01
-3.621041798220444446e-02 1.394640232692232196e-01 -9.232888031568942111e-01 8.543895028727791496e-01 2.385807549590035492e-01 -4.616251734296963893e-01
-2.368346964004719446e-02 1.515609468537087168e-01 -8.937851395614221373e-01 8.545839016959737577e-01 2.360678269851405608e-01 -4.625563057883872453e-01
-3.078941550107888378e-02 -1.483783639782548791e-01 -1.062643849241081462e+00 9.028228039920965786e-01 2.629803934440801405e-01 -3.402238928350643787e-01
-4.811717820242286670e-02 1.485728729802379688e-01 -9.411987990189903952e-01 8.646950976536402766e-01 2.247486427328026781e-01 -4.492109033444365851e-01
-3.567401754896935145e-02 1.121361145093994621e-01 -9.363012777561593447e-01 8.566892588012711141e-01 2.336457805111985253e-01 -4.598838582771106465e-01
-1.670093781920414799e-02 1.191453295336867557e-01 -9.090315375326334379e-01 -8.538745868202395339e-01 -2.343328007638788846e-01 4.647432930863246159e-01
-4.397578882015575757e-02 1.141867115960851359e-01 -9.615317463473029846e-01 -8.509473721073586017e-01 -2.387963952963972902e-01 4.678299386497482559e-01
8.889584173612234035e-04 -1.819073619654812957e-01 -1.031448004228292525e+00 -8.543895028727791496e-01 -2.385807549590035492e-01 4.616251734296963893e-01
-1.623326922328763647e-02 -2.819244148469258679e-02 -9.725726183543449421e-01 8.543895028727791496e-01 2.385807549590035492e-01 -4.616251734296963893e-01
4.967225715831381089e-02 2.581538966094283627e-02 -8.336907962343516054e-01 -8.640190061160568646e-01 -2.290773866460275865e-01 4.483243334882102138e-01
4.341074145468690366e-03 1.231159522820847729e-01 -8.740528328239166589e-01 -8.102069914919866056e-01 -2.619526209252885929e-01 5.243524152017191575e-01
-3.260515862860554476e-02 1.780672620040281984e-01 -9.107989267527374366e-01 -7.011194461914453946e-01 -3.035951207008822372e-01 6.451833265505375614e-01
6.740190859137832995e-03 7.300073266006211871e-04 -9.260708235544329314e-01 -8.548375337675432339e-01 -2.353565758146398124e-01 4.624500763142245785e-01
-1.282399926300716725e-02 -6.389583860872485865e-02 -9.954465203460390876e-01 -8.543895028727791496e-01 -2.385807549590035492e-01 4.616251734296963893e-01
-5.868915454267206039e-03 -1.353242936553822051e-01 -1.019685155448340153e+00 -8.543895028727791496e-01 -2.385807549590035492e-01 4.616251734296963893e-01
6.277941350484651274e-04 6.651859684504826675e-02 -9.065997180294576019e-01 -4.701138500823712207e-01 -4.052335132077399815e-01 7.840782918395600154e-01
2.111369968580601927e-02 -4.315499269937784349e-02 -9.219902255024687854e-01 -8.550659479813363939e-01 -2.348673380905394181e-01 4.622764952937180594e-01
3.774838947226747538e-02 -8.721160066907485131e-03 -8.627976800637537913e-01 8.514074766752384171e-01 2.407300337488393338e-01 -4.659982398172615170e-01
2.366533404167353929e-02 -1.771643428180720847e-01 -9.866463978032834481e-01 -8.543895028727791496e-01 -2.385807549590035492e-01 4.616251734296963893e-01
-1.080752615323276287e-02 2.234620007959236265e-01 -8.449783048109942296e-01 -8.411076531305409221e-01 -2.697408404571664531e-01 4.688046446385691346e-01
-1.006490411730681309e-02 -1.507220417264141799e-01 -1.035409200507237060e+00 -8.543895028727791496e-01 -2.385807549590035492e-01 4.616251734296963893e-01
1.123852070725469762e-02 -1.078107189433653162e-01 -9.628759630270382619e-01 8.543895028727791496e-01 2.385807549590035492e-01 -4.616251734296963893e-01
-2.037052909768713796e-02 2.066076046214411661e-03 -9.645915359498745678e-01 8.543895028727791496e-01 2.385807549590035492e-01 -4.616251734296963893e-01
-4.366225438351026972e-02 1.112144376102231630e-01 -9.640252451050611571e-01 -6.114986706253734416e-01 1.932878765160997159e-01 7.672738576383910658e-01
1.093982326060179144e-02 8.436642217642563446e-02 -8.757053747347547379e-01 -8.548259757911166323e-01 -2.340449118884746493e-01 4.631366216699793759e-01
-2.983467467399245239e-03 1.656939183751756639e-01 -8.433271200601034634e-01 8.120260643951314750e-01 2.681693516718083869e-01 -5.183617169186742757e-01
2.631344769944125514e-02 1.729711537664278542e-01 -8.022659714239427364e-01 -8.619636393414934483e-01 -2.400311991819487623e-01 4.465464229757566961e-01
5.261142255187091846e-03 9.037526995634931337e-02 -8.886613410451470463e-01 -8.814126649866768082e-01 -2.136384985773321366e-01 4.212722468033084366e-01
-2.159272013811276009e-02 1.066713749251139015e-01 -9.129857627923946284e-01 8.543895028727791496e-01 2.385807549590035492e-01 -4.616251734296963893e-01
4.550985997743074024e-02 -2.611549683491052112e-02 -8.576081062082547835e-01 8.513780906395612691e-01 2.408939172971987785e-01 -4.659672385352273127e-01
9.177059155215970066e-04 -1.362495485286328856e-01 -1.007602473711791680e+00 -8.543895028727791496e-01 -2.385807549590035492e-01 4.616251734296963893e-01
3.616991229490006815e-02 2.453154792820553057e-02 -8.485291287425790197e-01 8.543895028727791496e-01 2.385807549590035492e-01 -4.616251734296963893e-01
3.639044223948685597e-02 1.050084907521355998e-01 -8.181356825357734008e-01 -8.544563008692517281e-01 -2.356979720841846371e-01 4.629804486803281161e-01
-4.012478868888309791e-02 -4.509669227998977514e-02 -1.036121222231337180e+00 -8.509504896424007203e-01 -2.402865066401707050e-01 4.670606586986549291e-01
-1.473709605722731131e-02 1.056345264712695436e-01 -9.122312958406807448e-01 -8.538948327201151267e-01 -2.345730037894670772e-01 4.645848905712209320e-01
-4.082441502575062664e-02 1.003664062977401190e-02 -9.934472425690000774e-01 8.303341230714972321e-01 1.792888643291470629e-01 -5.276369463851564579e-01
-3.234287680911326207e-03 1.847888386868688226e-01 -8.509217630500903740e-01 -8.547941279581339202e-01 -2.359968256848700152e-01 4.622039561437769062e-01
1.642184033045587452e-02 9.096435998066355194e-03 -8.928616461690435102e-01 8.543895028727791496e-01 2.385807549590035492e-01 -4.616251734296963893e-01
-1.436863523652140255e-02 -1.938466315432814113e-01 -1.056231603497141291e+00 8.740476958231514493e-01 2.646553706997374356e-01 -4.074287179201098730e-01
6.036733555387713973e-03 8.907250284856083056e-02 -8.843278253449142756e-01 -7.242762649567613398e-01 3.205158877008999485e-01 -6.104862469798867375e-01
-4.203330770346205142e-02 -7.811918349550671381e-02 -1.041296081926231798e+00 8.707875133823296254e-01 2.773400025244639466e-01 -4.059699860053075926e-01
1.634595203066002624e-04 -3.478946486976253194e-01 -1.106078791662816307e+00 4.642742444268883051e-01 4.105627830573544412e-01 -7.847850834018456068e-01
4.792417732502021917e-03 -5.773267748268757354e-02 -9.489248732832900046e-01 8.543895028727791496e-01 2.385807549590035492e-01 -4.616251734296963893e-01
-2.475746647779635511e-03 -1.980376245151791725e-01 -1.035374168297888087e+00 8.552648983141970529e-01 2.465003489429790917e-01 -4.558064629671192969e-01
-3.405303822833569138e-02 -7.001604161681333760e-02 -1.037884833870037493e+00 -8.504278518025717437e-01 -2.404394487321414309e-01 4.679330511642100232e-01
1.013879455512839249e-02 1.548423224352729055e-01 -8.297223425316514467e-01 8.571588608803829556e-01 2.317926428864633404e-01 -4.599465815917680445e-01
3.544280881972301789e-02 -1.963515932131822128e-02 -8.726597430114011456e-01 8.518995606457350211e-01 2.404803448083075723e-01 -4.652271943174440816e-01
2.772433069464178002e-02 -1.863192622995942793e-01 -9.735575336925564871e-01 8.387198186941778877e-01 2.726415824904128149e-01 -4.713975320541347602e-01
3.509617813804729453e-02 -1.838354293452840876e-02 -8.833648088182668445e-01 -8.568601016390324787e-01 -2.366758446279958739e-01 4.580123478562250217e-01
