-2.759427755282792966e-02 7.420387609247039440e-02 -8.314045256723262556e-01 7.501079338192117030e-01 3.448299439115819487e-01 -5.642963737287419734e-01
3.925043424174250867e-02 1.371427357209392128e-01 -7.222419954895269445e-01 7.360361448270887896e-01 2.962768722245219810e-01 -6.086631321945917827e-01
2.506750803574044756e-02 -5.103450494776039931e-02 -8.324701369236106041e-01 7.405457163817307231e-01 2.985552397604738784e-01 -6.020438611598287748e-01
-4.870373817202339195e-02 2.293063944824935349e-02 -8.947735349501988456e-01 -7.373296353607552422e-01 -3.000922551435856178e-01 6.052186771916516772e-01
-3.473823186747589803e-02 1.368103666380856287e-01 -8.131535480678852013e-01 7.440966559219822640e-01 2.963558039514939679e-01 -5.987431871094539559e-01
6.380846143610456600e-02 1.047230852181757210e-01 -7.155405433411567984e-01 -8.388460112524137591e-01 -2.821844323756630968e-01 4.655204781003090542e-01
-4.016085933778191369e-02 4.669424998293218720e-02 -8.726815670079696163e-01 -7.397505520413106828e-01 -2.959091355296090131e-01 6.043235096078056756e-01
3.121157821447930608e-02 -6.446564005386877516e-02 -8.315731439883884413e-01 7.405457163817307231e-01 2.985552397604738784e-01 -6.020438611598287748e-01
-2.054611068343312891e-02 -8.049900198298241827e-02 -9.031888215156342881e-01 7.405457163817307231e-01 2.985552397604738784e-01 -6.020438611598287748e-01
1.116340297232314323e-02 -1.991614386291147010e-01 -9.234331456999170795e-01 7.352907946189195521e-01 3.103298255855279075e-01 -6.025303699405812896e-01
-2.333836604512026965e-03 -2.163880597674696649e-01 -9.446814234984431957e-01 6.822026492769086570e-01 3.247653482226157129e-01 -6.550778685877048924e-01
6.770132160177796954e-02 4.145603512239794119e-02 -7.424440777513809930e-01 -7.532800224140701051e-01 -2.902525641656770183e-01 5.901886620624862134e-01
3.555015931281337721e-02 -5.905242180930505430e-02 -8.235520301959075029e-01 7.405457163817307231e-01 2.985552397604738784e-01 -6.020438611598287748e-01
-4.786550543437671779e-02 -9.038504297735937276e-02 -9.498137558484515131e-01 -7.351603741438187400e-01 -2.992874570078562502e-01 6.082485037930558391e-01
-8.151534676246220690e-03 1.976519925074865514e-01 -7.596511430013527244e-01 -7.412517367961880543e-01 -2.951116094585306548e-01 6.028722921642943877e-01
1.207777018000873170e-02 1.876349748245945970e-01 -7.397332364341496769e-01 -7.398489189932199173e-01 -2.957991212127120129e-01 6.042569461366176231e-01
-2.356848929789842964e-02 -5.872088017842648500e-02 -9.043350954067166381e-01 -7.405457163817307231e-01 -2.985552397604738784e-01 6.020438611598287748e-01
-5.754695662822664065e-02 -3.463083550680223777e-02 -9.262077518286259137e-01 7.448378615796940050e-01 2.969119596344501621e-01 -5.975448503530250699e-01
1.094646496653490370e-03 1.282949693928309709e-01 -7.697979564974002376e-01 5.618737347705209384e-01 6.620545093764196309e-01 -4.959654552379377801e-01
6.753989765122683786e-02 -4.054628133830897457e-02 -7.812390181206508855e-01 -8.121582950780243948e-01 3.130992954515422477e-01 -4.923085769349390683e-01
1.557175227301211239e-02 -1.976789095709429733e-01 -9.172899007632772106e-01 7.352907946189195521e-01 3.103298255855279075e-01 -6.025303699405812896e-01
-5.315147203647534180e-02 1.900255272313915444e-01 -8.164098434069929633e-01 5.872032804853484222e-01 -7.231352970408100322e-01 3.636861965499165184e-01
2.400374492079690100e-02 -1.336758367329897168e-01 -8.808357292797214244e-01 -3.963701379081712162e-01 8.691532912483973528e-01 2.957418977533211590e-01
4.047195884870458116e-02 -6.766008829429533133e-02 -8.218221608980225135e-01 7.371779193266786434e-01 3.003735821577734888e-01 -6.052639311894409957e-01
-1.200256049903761224e-02 1.206268970027424281e-01 -7.930904968557412893e-01 7.405457163817307231e-01 2.985552397604738784e-01 -6.020438611598287748e-01
-3.693624937448496820e-02 8.532146398074572091e-02 -8.373866967824847851e-01 7.238076724633880632e-01 2.531225486426453841e-01 -6.418967429826890614e-01
-1.621996797447625149e-02 1.475192570589791419e-01 -7.850535293294215178e-01 7.407538998486401516e-01 2.962356455865873817e-01 -6.029329167850502325e-01
4.562276562970468685e-02 -1.569878323732094849e-02 -7.897669244803772193e-01 7.373297951151281948e-01 3.001523990969438560e-01 -6.051886569920422732e-01
-1.462201233600683020e-02 -8.459989843035665980e-02 -8.979355140133552515e-01 7.405457163817307231e-01 2.985552397604738784e-01 -6.020438611598287748e-01
-9.621446714448068926e-03 2.033284476051278739e-02 -8.397481127082113694e-01 7.405457163817307231e-01 2.985552397604738784e-01 -6.020438611598287748e-01
9.140879401183592615e-03 2.230499260618178659e-01 -7.257575955909504328e-01 -7.482707829007475553e-01 -3.126097823406921439e-01 5.851204657521452690e-01
-7.450466679375684388e-03 -2.153179506343008698e-01 -9.560215606117886677e-01 6.525942471547971913e-01 5.861779275805183431e-01 4.801210116188126542e-01
1.511493032372434632e-02 -4.105182317284655075e-02 -8.520341898300786143e-01 -7.138573210348047038e-01 -3.832824769026923484e-01 5.860906654301437646e-01
-3.138712114750074472e-02 -1.556009890124420425e-01 -9.620111508709753290e-01 -7.264357876292032445e-01 -2.929793299097344095e-01 6.216543723783997111e-01
-4.996639659086644925e-02 -4.239984752895690351e-02 -9.286668074448610755e-01 -7.362229392668894201e-01 -3.001861704540647602e-01 6.065179690374763455e-01
-4.249010465862896983e-03 -1.889196851667386268e-01 -9.371059669903679668e-01 7.418496179756919329e-01 3.066229812945129862e-01 -5.963568492533516396e-01
-3.056841570559568413e-02 -7.463687507022233325e-02 -9.208381607614789521e-01 -7.405457163817307231e-01 -2.985552397604738784e-01 6.020438611598287748e-01
4.789813977245346854e-02 -6.558104506838526027e-02 -8.198293456914701460e-01 -7.405457163817307231e-01 -2.985552397604738784e-01 6.020438611598287748e-01
-9.161557456253044754e-03 -1.253006766051604770e-01 -9.197805073173024315e-01 -7.405457163817307231e-01 -2.985552397604738784e-01 6.020438611598287748e-01
7.330475364817660815e-03 -3.284229655751393362e-01 -1.003379097187130364e+00 -8.255475239295470002e-01 2.451039351263236410e-01 -5.083260240430197419e-01
-2.897962137320416950e-02 -1.388371521144879939e-01 -9.508518604137990993e-01 -7.351002047059348454e-01 -3.000943035183008534e-01 6.079235955588155882e-01
2.376263162474248625e-02 1.535881281719418956e-01 -7.330704404005815578e-01 7.354677503218632895e-01 2.980343324081956569e-01 -6.084921732795733895e-01
1.600196682364385045e-02 1.971797620631963455e-01 -7.215515150508201581e-01 7.391412394204707192e-01 2.831364157937846793e-01 -6.111497347127129443e-01
1.760918513106437405e-02 -1.248618907741541467e-01 -8.782554753898720312e-01 7.405457163817307231e-01 2.985552397604738784e-01 -6.020438611598287748e-01
1.746414705331572961e-02 -3.865000850806683125e-02 -8.379881298672322565e-01 4.377841207136869417e-01 -8.495745006294239676e-01 -2.942247976143567700e-01
2.229058091046989126e-02 1.872811960979068463e-02 -8.012904225791888102e-01 7.405457163817307231e-01 2.985552397604738784e-01 -6.020438611598287748e-01
6.701112714234793225e-03 -2.966173064221985234e-01 -9.897573184953722958e-01 -9.803152196572780808e-01 -9.490467892732447341e-02 1.731333937344382290e-01
-6.220431109684308735e-02 1.156873754409401267e-01 -8.664058494546766909e-01 3.329231977501132533e-01 -6.315048471022877141e-01 7.002597892826313286e-01
2.710953683137388645e-02 1.507805955001189635e-01 -7.304002339646572528e-01 7.354677503218632895e-01 2.980343324081956569e-01 -6.084921732795733895e-01
1.073349365955258289e-02 -7.133947949004944278e-02 -8.601710247883506133e-01 7.405457163817307231e-01 2.985552397604738784e-01 -6.020438611598287748e-01
-4.931838060719242328e-02 -3.396537651047155243e-02 -9.237057082843325162e-01 -7.362229392668894201e-01 -3.001861704540647602e-01 6.065179690374763455e-01
1.619806815840571165e-02 -5.379807708807142486e-02 -8.529788995692835218e-01 -7.405457163817307231e-01 -2.985552397604738784e-01 6.020438611598287748e-01
6.407862006742329197e-02 -1.012385167285345111e-01 -8.172083377160875850e-01 -7.541878223414503202e-01 -2.885893245853127786e-01 5.898448358401165992e-01
-3.513513107206839292e-02 -1.581242678816386033e-04 -8.924490400944881108e-01 -7.672779628791666084e-01 -6.174175921475452133e-01 1.734359956488962240e-01
6.402666889744024203e-02 8.290041768230288488e-02 -7.194826667043827673e-01 5.927397292730802736e-01 3.197225525176802252e-01 -7.392138410181825492e-01
7.324007001364844782e-02 -1.038506204311543399e-03 -7.561086014106144226e-01 -7.642171385112085380e-01 -2.840386806079937543e-01 5.790459335184130474e-01
-5.524418311333961079e-02 1.007816099394491516e-01 -8.645252925321827986e-01 -7.393939818665019592e-01 -2.935073793366433370e-01 6.059290039720286458e-01
-7.137072155555615471e-02 7.871856286769435274e-02 -8.942081709142934987e-01 -6.380990695528149237e-01 -3.420702363698106541e-01 6.897952818233346051e-01
-4.927202160906176721e-03 -1.406179188094083821e-01 -9.137898794087297993e-01 7.405457163817307231e-01 2.985552397604738784e-01 -6.020438611598287748e-01
2.874884257284301275e-02 -1.091713263642290904e-01 -8.567721140365407440e-01 7.405457163817307231e-01 2.985552397604738784e-01 -6.020438611598287748e-01
4.698490490021201005e-02 -3.803504567540027387e-02 -8.073616264840690615e-01 -7.437697277772304938e-01 -2.968460328365420953e-01 5.989065242852100734e-01
1.631858731462958179e-02 -2.086157082717406686e-01 -9.296081827508829720e-01 -7.449930756100883178e-01 -2.890048073217114655e-01 6.012167152017326988e-01
-4.923338011579868334e-02 1.080286744930794157e-01 -8.556800538349820240e-01 -7.194963659417137336e-01 -6.800564245362684668e-01 1.408837777872740116e-01
-2.733254892487599341e-02 1.097560802123413864e-01 -8.173380600583016742e-01 7.405457163817307231e-01 2.985552397604738784e-01 -6.020438611598287748e-01
4.281737886163754225e-03 -2.824931491045687762e-02 -8.551067745614646665e-01 -7.408208941535923131e-01 -2.952055207636686829e-01 6.033557021327660141e-01
-1.480254586289784374e-02 -1.221158021254128284e-01 -9.167618216692052791e-01 7.405457163817307231e-01 2.985552397604738784e-01 -6.020438611598287748e-01
3.217248214440519838e-02 -4.389468174175205351e-02 -8.162846110056941606e-01 7.638561777929705476e-01 2.100068747684864234e-01 -6.102629369357825961e-01
7.087388964413830067e-03 2.822181668637028379e-02 -8.238117479157656131e-01 -7.405457163817307231e-01 -2.985552397604738784e-01 6.020438611598287748e-01
2.451202284261664796e-02 8.898013826678341509e-02 -7.726683972602518269e-01 -7.407105443033296099e-01 -2.937731037334058715e-01 6.041897492350452037e-01
3.190030877399199771e-02 -5.932800899439145959e-02 -8.364066238216391058e-01 -7.405457163817307231e-01 -2.985552397604738784e-01 6.020438611598287748e-01
5.209364297511601821e-02 -5.386373242391931252e-04 -7.743716905374874448e-01 7.366952116278875362e-01 3.003413922833179650e-01 -6.058673231375497625e-01
8.491044047588301030e-03 4.044999301750527160e-02 -8.160211911505791393e-01 -7.405457163817307231e-01 -2.985552397604738784e-01 6.020438611598287748e-01
-6.326308425794961721e-02 7.567004187912582114e-02 -8.865259992576615122e-01 -7.283664246802870057e-01 -3.047535932476838072e-01 6.136836308726844047e-01
-1.773281151320225263e-02 -3.101078642412224279e-02 -8.751869701581087568e-01 7.405457163817307231e-01 2.985552397604738784e-01 -6.020438611598287748e-01
6.006443665248743097e-02 -1.123159865861955570e-01 -8.203885237389384466e-01 7.265820338217410246e-01 3.083915094905649856e-01 -6.139814533042453615e-01
9.361131898012423069e-03 -1.345221475708062442e-01 -8.908782574619453776e-01 5.790423886071066617e-01 6.595180529768509547e-01 -4.793181093947944116e-01
3.854299856073892944e-02 1.686541380899186926e-01 -7.163698696278130162e-01 -7.502959836468835464e-01 -3.026873079487139573e-01 5.877383180720103795e-01
1.496957257220776077e-02 2.108862089072158774e-01 -7.166078954436707615e-01 7.175194608481259007e-01 2.701749738136961509e-01 -6.420056906515574369e-01
-1.638403426753151995e-02 -1.664412536701016243e-01 -9.490937313234970585e-01 -7.349164030036599016e-01 -3.005602930316590427e-01 6.079156116179987857e-01
2.255798489205065524e-02 7.629801897810853384e-02 -7.812389395161265515e-01 -7.409009446918516373e-01 -2.958558410067693711e-01 6.029387294716593848e-01
4.041677914726943266e-02 7.798888269660392281e-02 -7.584641900383327640e-01 -7.408858011583641101e-01 -2.958834544403635136e-01 6.029437876206755753e-01
1.859298462197297649e-02 -7.264248566649862682e-02 -8.593780210314108103e-01 -7.405457163817307231e-01 -2.985552397604738784e-01 6.020438611598287748e-01
1.118444318067119032e-02 1.955418277165614505e-01 -7.281528238655450291e-01 7.432324022858093349e-01 2.911831931238917370e-01 -6.023437093841349510e-01
-6.280660480001401536e-02 1.894802873479674646e-02 -9.061459058122224297e-01 7.444672936466024682e-01 2.968112412285092705e-01 -5.980564653700309874e-01
3.590208894982209464e-02 -1.323328569046734460e-01 -8.689528001823617620e-01 -3.911731893268394766e-01 8.710519914524795793e-01 2.970723213941988683e-01
-5.040295899739662827e-02 -8.539092382807403347e-02 -9.443677248372137623e-01 3.878614309726243214e-01 7.623815425883264663e-01 5.180134109118332830e-01
2.159448924158444486e-02 -2.108158723279771884e-01 -9.192825316258599333e-01 -4.715555663825684585e-01 8.691533837049761901e-01 -1.490226271671715730e-01
-4.144416148544285278e-02 6.349492368387055219e-03 -8.976815993386308978e-01 -7.621715535237907346e-01 -6.345034178278020631e-01 1.284520757479964970e-01
-1.311536998900857294e-02 1.025264877662767082e-01 -8.122037017611829501e-01 -7.399105601680295852e-01 -2.944507994098002346e-01 6.048397223056388716e-01
3.446511799266460067e-03 1.961876008717539088e-01 -7.509450841203690885e-01 -7.065148836652318520e-01 -3.063753433390971614e-01 6.379426840660172848e-01
2.031642848386091410e-02 -8.242870508606560398e-02 -8.538826873894161951e-01 7.405457163817307231e-01 2.985552397604738784e-01 -6.020438611598287748e-01
1.045888960952816304e-02 2.272276672107132467e-01 -7.191216744286537121e-01 -3.765228857902808146e-01 -5.577180004754208609e-01 -7.397169380390431481e-01
5.987394015126649288e-02 -3.074205765462465281e-02 -7.798914788692740130e-01 7.365987238660897107e-01 3.006635943757916540e-01 -6.058248286558398643e-01
6.027254202253767845e-02 -2.276942162697172950e-02 -7.754587293267399817e-01 7.281205492764665221e-01 3.047020996714593921e-01 -6.140008926517458443e-01
5.870844188301277411e-03 -1.850889096574413473e-01 -9.349836773777199239e-01 -9.814850041982443596e-01 -8.922529564723465090e-02 1.694875604598639063e-01
8.343807795468697816e-03 -8.992660135341075389e-02 -8.805562907901910430e-01 -7.405457163817307231e-01 -2.985552397604738784e-01 6.020438611598287748e-01
5.950525153138706835e-02 8.579520193273060258e-02 -7.230850832155407693e-01 7.268014451987974134e-01 2.992326631748610244e-01 -6.182390092401315318e-01
-4.372364089793074780e-04 1.270503906938033056e-01 -7.757318041312861734e-01 7.405437533643671744e-01 2.964916544711863611e-01 -6.030652105551719266e-01
-7.368961348289369828e-03 1.771432690503402796e-01 -7.597421492112989005e-01 7.408276780617075730e-01 2.938245826094070257e-01 -6.040210808176372792e-01
5.644329257333822666e-03 -3.378421219363219596e-01 -1.005182425174134364e+00 -8.255475239295470002e-01 2.451039351263236410e-01 -5.083260240430197419e-01
-2.538382673629206027e-02 6.786185317281519247e-02 -8.355669032326998868e-01 7.405457163817307231e-01 2.985552397604738784e-01 -6.020438611598287748e-01
-2.335863131236494850e-03 1.486503237489835427e-01 -7.636529091111831091e-01 6.853696268393348889e-01 3.235187543436779389e-01 -6.523833920280509568e-01
5.557422727096559535e-06 2.970952058878775087e-02 -8.317850178496316582e-01 -7.405457163817307231e-01 -2.985552397604738784e-01 6.020438611598287748e-01
-3.786585313464059261e-03 4.119637628716135008e-02 -8.185021403354714176e-01 7.766755903436191044e-01 2.798489763860939061e-01 -5.643222286779479013e-01
7.856682117067708207e-03 -4.333505214076877748e-02 -8.623690994687505107e-01 -7.220953896067554556e-01 -3.560280417163397826e-01 5.931460880932252211e-01
1.491371635782071971e-02 2.139826326511977961e-01 -7.232043537117724963e-01 -7.566754348520445816e-01 -3.098187959828646587e-01 5.757209392988912322e-01
-1.191752747666610483e-02 -1.589660093483465375e-01 -9.315035219576996983e-01 7.419009886860985503e-01 3.014209279810873832e-01 -5.989393518225443191e-01
1.045543727811842558e-02 -1.808097129123816260e-01 -9.149087547670892162e-01 7.388076107399740300e-01 3.029553020281245401e-01 -6.019812283499700323e-01
-6.628899500424986768e-02 -4.286981853432824015e-03 -9.293551931882381156e-01 -7.139802710210997327e-01 -3.052569465335766563e-01 6.301193293223388281e-01
4.582307767020772638e-02 5.873951082303538636e-03 -7.788258712287620122e-01 7.373400876525739722e-01 3.000437082903158470e-01 -6.052300126859956331e-01
1.943657459606130608e-03 7.682605879655422798e-02 -8.103384427148342395e-01 -6.815627123399987664e-01 -3.183447816587990364e-01 6.588845643497467375e-01
4.284048228945122605e-02 8.003155052890277565e-02 -7.459125438142796272e-01 7.405457163817307231e-01 2.985552397604738784e-01 -6.020438611598287748e-01
2.350126387999569664e-03 1.516876385698887608e-01 -7.735693563477022971e-01 -7.042085111315077306e-01 -3.154320069971390250e-01 6.360762704359453901e-01
-3.553015981589845163e-02 1.049604005943940571e-01 -8.384494592872526741e-01 -7.367582538535298875e-01 -2.979785695598302642e-01 6.069563801969422023e-01
3.858883082452459895e-02 1.184253624205628269e-01 -7.409312233611301535e-01 -7.439144403044954945e-01 -2.921550324673048427e-01 6.010297351300327717e-01
-1.867444357907114411e-02 -1.251331884440652908e-01 -9.230207905033633864e-01 7.405457163817307231e-01 2.985552397604738784e-01 -6.020438611598287748e-01
3.966961800123076920e-02 -4.696344723878526084e-02 -8.099732309984807310e-01 4.954213757367012527e-01 7.524553641172052609e-01 -4.340144991522730256e-01
9.196765847925976803e-03 1.195531238135205399e-01 -7.765602819264391110e-01 -7.457278592353574487e-01 -2.918638283386665866e-01 5.989202498394492480e-01
-4.257198120067227920e-02 -9.238342839549018581e-02 -9.443967748280288621e-01 -7.354331219012022469e-01 -2.999234782239031949e-01 6.076051599688133686e-01
-4.459606849244682897e-03 2.131777623114531617e-01 -7.429753447461543425e-01 8.281759670354396086e-01 -2.559070151589787900e-01 4.986343020865457998e-01
-4.635749772740456465e-02 -6.753003544024757665e-02 -9.367121651173228036e-01 -7.359363391679060173e-01 -3.000392555686281493e-01 6.069383410281181668e-01
-3.232768345298194998e-03 -1.994994577195599306e-01 -9.372455579730379904e-01 6.838247316861639780e-01 3.241633766230530012e-01 -6.536832884437895341e-01
6.697547724428434823e-02 6.747859579861215096e-02 -7.237883604283479322e-01 5.927397292730802736e-01 3.197225525176802252e-01 -7.392138410181825492e-01
-2.283150809091074153e-04 -1.798837556013578587e-01 -9.360096402633486523e-01 -7.405457163817307231e-01 -2.985552397604738784e-01 6.020438611598287748e-01
6.687825327410128196e-02 -8.690802896572570602e-02 -8.065937375263002584e-01 -7.664410855024343938e-01 -2.813226457827253668e-01 5.774301961481206336e-01
5.795997823200016441e-02 -1.111870021546561837e-01 -8.223081612448047695e-01 7.257704151466801701e-01 3.085279074539163391e-01 -6.148722101542101193e-01
-1.226986223921244616e-02 5.716266985282818930e-02 -8.333786665540318106e-01 -7.450067701004944309e-01 -2.936178544751845143e-01 5.989603225905857364e-01
5.934434223026505834e-02 -7.218366842648683834e-02 -8.011402628446290253e-01 7.274232692752474749e-01 3.059725053082687496e-01 -6.141955822963010014e-01
-7.110765624784963490e-02 -1.003218094102577805e-02 -9.339230943509596594e-01 6.668178297575593216e-01 -2.153564605556183287e-01 7.134252426248842704e-01
-4.155454372949100167e-02 -8.185461830645923698e-02 -9.419142320463795848e-01 -7.515761458857527222e-01 -3.425447121170898113e-01 5.637343497926465830e-01
2.209460408354991384e-02 5.959673231997369980e-02 -7.900039857460302573e-01 -7.410404318511427668e-01 -2.958918440642671621e-01 6.027496121758347813e-01
2.404265244830369568e-03 -1.443671136287769663e-01 -9.150278650775217626e-01 -7.402319138392460252e-01 -3.017312833101985503e-01 6.008451933783509613e-01
-5.328327480146318601e-02 1.254703650693239914e-01 -8.500617536698071852e-01 -7.361539930687882594e-01 -2.986697688217347935e-01 6.073497078955830686e-01
-6.214125502706326076e-02 1.235770131276967831e-01 -8.536759021123226931e-01 7.530291290024875295e-01 2.902227037136119181e-01 -5.905234230095500747e-01
6.628009334775565586e-02 -1.896960528672692395e-02 -7.739807678374437394e-01 -7.526846873218462353e-01 -2.923281793527655603e-01 5.899237213636282506e-01
1.573437440093829664e-03 6.832330142389314576e-02 -8.149071604757659459e-01 -7.021362844953498161e-01 -3.163424863238186724e-01 6.379122740169919092e-01
1.389861681468372752e-02 5.509628566538431887e-02 -8.022692645545177470e-01 -7.365152447563393379e-01 -2.957897880926840251e-01 6.083203888590242858e-01
-4.147608097570240626e-02 -3.933967350681462360e-02 -9.167511833120395304e-01 -7.405457163817307231e-01 -2.985552397604738784e-01 6.020438611598287748e-01
5.989656700565726410e-03 -2.778343439415917882e-01 -9.767807099606341525e-01 -8.351539255068851642e-01 2.393068605863385989e-01 -4.952273691818243062e-01
4.174125037398981886e-02 -1.496448189901824488e-01 -8.691129398577290832e-01 -7.447994773014771086e-01 -2.952906779812031757e-01 5.983954830284464732e-01
-3.910537110232462088e-02 -6.895350946094309930e-02 -9.285206694062052568e-01 -7.405457163817307231e-01 -2.985552397604738784e-01 6.020438611598287748e-01
-3.439877536633439981e-02 -1.317906994711489921e-01 -9.539309566136786600e-01 -7.355858237525786381e-01 -2.993764133883203837e-01 6.076901011214400627e-01
5.235798213901581705e-02 1.077981391971859389e-02 -7.767238796069365625e-01 -7.412841960676196384e-01 -2.950979623861698653e-01 6.028390608246230187e-01
5.100479753968380908e-02 1.173127675717638985e-01 -7.261012465703499119e-01 -7.451551779294925959e-01 -2.943794496724580489e-01 5.984016213342063795e-01
4.217939270972112520e-02 -6.069817928020267150e-02 -8.244422794882166894e-01 -7.405457163817307231e-01 -2.985552397604738784e-01 6.020438611598287748e-01
2.274693004103758159e-02 -4.331139064952223977e-02 -8.314946562561892351e-01 7.405457163817307231e-01 2.985552397604738784e-01 -6.020438611598287748e-01
-4.918177096328060771e-02 1.185628768122619497e-01 -8.399969781147409442e-01 7.405457163817307231e-01 2.985552397604738784e-01 -6.020438611598287748e-01
-3.097003322213901302e-02 -1.274154913326403437e-03 -8.850608896145116811e-01 -7.396587805928348525e-01 -2.957644251106568700e-01 6.045066526771093463e-01
-5.901416757513438735e-03 -8.339488491754609711e-02 -8.845507228655268284e-01 9.772665042072283814e-01 9.419270607441512788e-02 -1.899418697311419102e-01
4.593001801557977659e-02 4.458883361372108223e-02 -7.679932310362493908e-01 -7.443044381350171212e-01 -2.942840523123940177e-01 5.995062968202358178e-01
-6.196040700730863840e-03 8.253232417754620409e-02 -8.036128222612366478e-01 9.797681921031929919e-01 9.056735271981775082e-02 -1.784708501805406522e-01
-4.011923039690310638e-02 1.061142377167844653e-01 -8.348756668186655405e-01 7.435257865143514167e-01 2.938740461610914734e-01 -6.006724979397041198e-01
-4.673716431778884850e-02 1.192066406329982398e-01 -8.366577035462329226e-01 7.435741992879527640e-01 2.941987486220951076e-01 -6.004535839367379779e-01
3.831131580491595884e-02 6.398164790412575256e-03 -7.877177079866547471e-01 7.373527512272949336e-01 3.000536841390564757e-01 -6.052096387964407409e-01
-3.254064097888717533e-02 -3.580116158263633996e-02 -9.040053626424908728e-01 -7.405457163817307231e-01 -2.985552397604738784e-01 6.020438611598287748e-01
-4.131983310183127978e-02 2.054878763468314107e-01 -7.880925796933104799e-01 7.648169383084980621e-01 2.595956568991862889e-01 -5.896313643247746983e-01
-4.821151978823135648e-02 1.410396039054903072e-01 -8.362595508192743887e-01 -7.360649922402149326e-01 -2.986719345264925995e-01 6.074565027428835418e-01
6.090627865954786890e-02 8.122038954554520324e-03 -7.674006403386590680e-01 -7.451443531305129708e-01 -2.932511253279704855e-01 5.989688393327220473e-01
8.441671457335230000e-03 -1.012644277075640392e-01 -8.778299528006371366e-01 7.405457163817307231e-01 2.985552397604738784e-01 -6.020438611598287748e-01
2.892765453952086604e-02 -1.088755379477483881e-01 -8.646339039953648831e-01 -7.405457163817307231e-01 -2.985552397604738784e-01 6.020438611598287748e-01
-2.930123731773387474e-02 -9.393951843562078907e-02 -9.249977962139622756e-01 -4.098445030332104611e-01 -7.724938350910550700e-01 -4.850574791504348449e-01
6.631209524088059470e-02 4.006901684015190535e-02 -7.448993300637137827e-01 -7.532800224140701051e-01 -2.902525641656770183e-01 5.901886620624862134e-01
-2.947816343219007013e-02 -1.587207439148363708e-01 -9.612507419979903212e-01 -7.264357876292032445e-01 -2.929793299097344095e-01 6.216543723783997111e-01
-6.281265786373810105e-03 -3.056938120738851294e-01 -9.970032427611654757e-01 8.285749796073702544e-01 -2.527185619858283161e-01 4.995966689205011413e-01
3.198382893025788348e-03 1.295911892658673792e-01 -7.700186379198271647e-01 7.406469699556402775e-01 2.964035189904248302e-01 -6.029817740409918470e-01
8.643086583764572617e-03 1.341129531480383941e-01 -7.701544316013041458e-01 -7.457278592353574487e-01 -2.918638283386665866e-01 5.989202498394492480e-01
4.346190848847206190e-02 8.371360091589445662e-02 -7.433222176828472305e-01 7.405457163817307231e-01 2.985552397604738784e-01 -6.020438611598287748e-01
2.524941718937170204e-02 -6.966204505458260809e-02 -8.414838284639472032e-01 7.405457163817307231e-01 2.985552397604738784e-01 -6.020438611598287748e-01
2.634725756874264566e-02 -1.119078939485454310e-01 -8.693116822733558680e-01 -7.405457163817307231e-01 -2.985552397604738784e-01 6.020438611598287748e-01
5.950961731318246684e-02 -9.997331206507744858e-03 -7.700443019861592520e-01 7.366573247795095147e-01 3.005029140647509922e-01 -6.058332976052811514e-01
-7.604050868354269785e-03 2.278594632873880421e-01 -7.440078075447098538e-01 -7.323947202285727709e-01 -3.203825311474232662e-01 6.007936480330670070e-01
3.862978255825456897e-02 1.723630432041460547e-01 -7.143489835417402567e-01 -7.502959836468835464e-01 -3.026873079487139573e-01 5.877383180720103795e-01
-5.135764792917933697e-02 8.957377917567685421e-02 -8.652418160943883274e-01 -7.399260917219427913e-01 -2.958241972777663209e-01 6.041501660134310780e-01
1.689683688415224115e-03 -3.323443130642132481e-01 -9.999092245912770682e-01 2.847423003459623736e-01 4.243832947573803471e-01 -8.595467651760199113e-01
6.053332543561657647e-02 -1.280231096687824976e-01 -8.280420282889053851e-01 6.938085730233881643e-01 3.346923358474795940e-01 -6.376603361698197636e-01
4.622134975854508276e-03 1.473239489974225713e-01 -7.731387512999956524e-01 -7.915542190566493552e-01 -2.652775217921052309e-01 5.505177151785918266e-01
5.073796791832674291e-02 1.123636663577086137e-01 -7.204607749944372808e-01 7.317857305066256535e-01 3.002236086448806240e-01 -6.118459196882247708e-01
1.037097105573145210e-02 -6.949644244462281628e-02 -8.679313998968446464e-01 -7.405457163817307231e-01 -2.985552397604738784e-01 6.020438611598287748e-01
-2.280080081692217528e-02 -1.644172026455380520e-01 -9.559554913360024386e-01 -7.405457163817307231e-01 -2.985552397604738784e-01 6.020438611598287748e-01
4.090643294136384056e-02 1.073432528926589746e-01 -7.348078046512209749e-01 7.406339511851653956e-01 2.956568663531402019e-01 -6.033642081944301516e-01
-3.947894183690273118e-02 -3.117240997320831417e-02 -9.102444278919734622e-01 -7.405457163817307231e-01 -2.985552397604738784e-01 6.020438611598287748e-01
-6.875001308338005157e-02 8.445015689280144233e-02 -8.813625765900957587e-01 7.574112484598511941e-01 2.856460954561427790e-01 -5.871409616583990188e-01
-6.281073002747837586e-02 -5.105973817417405053e-02 -9.411083414360192911e-01 7.541878223414503202e-01 2.948760614163173921e-01 -5.867272254084185956e-01
-8.952862122394017463e-03 1.026791097090010152e-01 -7.982395650043661028e-01 7.405457163817307231e-01 2.985552397604738784e-01 -6.020438611598287748e-01
2.873954192119776083e-02 1.571608150455927888e-01 -7.341623341463711094e-01 -7.432919687135302045e-01 -2.921756984451919226e-01 6.017893406201448858e-01
5.571074394471794977e-02 -1.364985515964758367e-01 -8.451834454356659254e-01 -7.490683849838842834e-01 -2.908408563861559770e-01 5.952378943533440658e-01
-4.885875828510110805e-03 1.911299810027219104e-01 -7.530922907179301573e-01 8.285346771371895347e-01 -2.440226696716643884e-01 5.039674845339596754e-01
2.304603346722193524e-02 1.245128758307110228e-01 -7.571090046325134049e-01 -7.406306354354763588e-01 -2.961663766337744863e-01 6.031183459372327915e-01
4.272130918810065209e-02 1.393610031188992349e-01 -7.169991454829819366e-01 7.332553347511261421e-01 2.969166913756416948e-01 -6.117001654745206629e-01
-2.062634679798572984e-02 -4.362269521095273744e-02 -8.850004521868984897e-01 7.405457163817307231e-01 2.985552397604738784e-01 -6.020438611598287748e-01
-2.772414099232059503e-02 7.474738494712787618e-02 -8.399843194712749428e-01 4.447999302702037444e-02 6.565049877884023832e-01 7.530091176269154696e-01
-6.369064409769585253e-03 -3.781914299984340255e-01 -1.033206027947104477e+00 9.809684028924648969e-01 9.019215603479084631e-02 -1.719487351404570263e-01
4.130411173045198114e-02 4.474598602654079188e-02 -7.651500338935174339e-01 7.405457163817307231e-01 2.985552397604738784e-01 -6.020438611598287748e-01
-4.568793544929052042e-02 -1.081720725804275474e-01 -9.480307983672328076e-01 7.464465449039664469e-01 2.972326248872402266e-01 -5.953741028156767090e-01
1.948242947015723509e-02 -1.818138750077565730e-02 -8.230481251486918559e-01 7.405457163817307231e-01 2.985552397604738784e-01 -6.020438611598287748e-01
2.594241494149631538e-02 -1.297656820508082398e-01 -8.704369668673617166e-01 7.405457163817307231e-01 2.985552397604738784e-01 -6.020438611598287748e-01
-9.514675421896306301e-03 2.025623381356287667e-01 -7.500624341045488697e-01 7.426105361785384495e-01 2.916924871760476767e-01 -6.028640679968203520e-01
-6.487274943821981499e-02 1.223164753918328934e-01 -8.577785870063383555e-01 7.530291290024875295e-01 2.902227037136119181e-01 -5.905234230095500747e-01
-4.845697342186421064e-02 -1.056488401191346960e-01 -9.580135073369143717e-01 -7.307549986999797298e-01 -2.998664785958430334e-01 6.132513570221606036e-01
7.116492248529927844e-03 1.206092092934489546e-01 -7.696234819415351813e-01 7.406222917228534319e-01 2.963086295186183605e-01 -6.030587177680021282e-01
4.460006665440882645e-02 9.163078299386967496e-02 -7.379960702794187144e-01 7.405457163817307231e-01 2.985552397604738784e-01 -6.020438611598287748e-01
-1.657206321660830914e-02 1.020556765357489848e-01 -8.166615349128882873e-01 -7.399105601680295852e-01 -2.944507994098002346e-01 6.048397223056388716e-01
-2.678519196749843539e-02 2.207018879709528036e-01 -7.630265393650224048e-01 7.682123480255046433e-01 2.323403725246263318e-01 -5.965465108742644684e-01
-5.557827437325176673e-02 -7.509727090317034996e-03 -9.102801622770455570e-01 7.446114532661972651e-01 2.968459006463543548e-01 -5.978597619293810617e-01
3.895737362609022481e-02 -7.728336812226666019e-02 -8.284441988852168093e-01 7.371239971782838074e-01 3.005956012377062336e-01 -6.052193794818963024e-01
6.694075135793513265e-02 7.408712846907654359e-02 -7.272070529034631026e-01 -7.645272444958267632e-01 -2.901186785203468399e-01 5.756120610248068870e-01
2.105968218375471254e-02 -1.829811941269020303e-01 -9.112163145349415627e-01 -7.461230531804146082e-01 -2.950736575587383226e-01 5.968516784994785107e-01
3.535416215907735693e-02 -1.427702296629260459e-01 -8.736721742183470862e-01 -7.451541783142033859e-01 -2.954178694721781850e-01 5.978909038757849181e-01
-3.713532184825473620e-02 2.140802290773160532e-01 -7.861603018235835405e-01 -5.971330968590832233e-01 -4.661817365231866184e-01 6.527684529507433719e-01
3.652739433038879047e-02 3.612991167864423869e-02 -7.837712833974384008e-01 -7.411323461702594706e-01 -2.954185981904783875e-01 6.028687231092181298e-01
-1.625904860462522999e-02 -1.971033046701418101e-01 -9.566149850107026342e-01 7.671037294697558018e-01 3.297506767891712487e-01 -5.502875242913249920e-01
3.643729884319373696e-02 -3.702233652543192310e-02 -8.198490673818190633e-01 -7.414218101047526099e-01 -2.949012679577764917e-01 6.027660754039563251e-01
-1.220310077788448050e-02 -7.577218427018987679e-02 -8.905824369439022670e-01 7.405457163817307231e-01 2.985552397604738784e-01 -6.020438611598287748e-01
4.926841261885301151e-03 -2.755940144512838419e-01 -9.739057866601306124e-01 -8.351539255068851642e-01 2.393068605863385989e-01 -4.952273691818243062e-01
-5.737314896119457414e-02 2.622204814769387229e-02 -8.957725095901964973e-01 7.444270809032068614e-01 2.966805545237927721e-01 -5.981713548686407034e-01
5.019606735440557133e-02 1.056485123573801775e-02 -7.711747821289008931e-01 7.366952116278875362e-01 3.003413922833179650e-01 -6.058673231375497625e-01
-1.671273073842723458e-02 5.587246031118080214e-02 -8.394688343426260912e-01 -7.398884036914413764e-01 -2.961996819090682576e-01 6.040123330859208384e-01
-1.233828725871270043e-02 1.676799575815391546e-02 -8.448577885544696908e-01 7.405457163817307231e-01 2.985552397604738784e-01 -6.020438611598287748e-01
6.025541404916123778e-02 9.059074657214578842e-04 -7.637375206176907350e-01 7.283724820323950189e-01 3.040704127280220437e-01 -6.140152372061941088e-01
3.217032844456203192e-03 7.121095744104472512e-03 -8.330502005309035063e-01 -4.495860502625946831e-01 3.992722397066298390e-01 -7.990332045722073895e-01
-5.506295720967112339e-02 1.514807182375657313e-01 -8.394080566236934438e-01 -7.335435813577674269e-01 -3.011824004390843967e-01 6.092642906937607572e-01
-8.637368448689487777e-03 -8.619174509901479653e-02 -8.913634874779839956e-01 7.405457163817307231e-01 2.985552397604738784e-01 -6.020438611598287748e-01
5.398821534815616274e-02 -1.212435442998504032e-01 -8.320578106183471601e-01 7.240008450613034663e-01 3.109421960514082706e-01 -6.157416073851482707e-01
5.973887888209986757e-02 -9.446719927081783860e-03 -7.774836567046311542e-01 -7.444094679151748162e-01 -2.965976316715853156e-01 5.982343929974712760e-01
1.110430990983582965e-02 1.289154986501296341e-01 -7.567925459514636133e-01 7.280739922214481963e-01 3.622456250442633863e-01 -5.819676700530824753e-01
1.562478782115514324e-02 -5.042635879829655832e-02 -8.520120200744069061e-01 -7.405457163817307231e-01 -2.985552397604738784e-01 6.020438611598287748e-01
2.293248326458041317e-02 -3.217031954590202775e-02 -8.340865724586615793e-01 -7.414231895325189559e-01 -2.948974453570116783e-01 6.027662488438905175e-01
2.591631100921583733e-02 1.773252811870873191e-01 -7.189234004613521689e-01 7.373641524886819232e-01 2.931604605269323427e-01 -6.085647467675767697e-01
-2.877436261847154605e-02 7.049784477273093874e-02 -8.384414198701949372e-01 7.431782883378724724e-01 2.942736359468464125e-01 -6.009068637732580820e-01
-4.391703218234353084e-02 7.372586042449236210e-02 -8.555864627953204682e-01 7.430353815645123206e-01 2.943502862605967829e-01 -6.010460304515655716e-01
6.425142474197259590e-02 -9.103243195553975542e-02 -8.048372887385122354e-01 6.994699957662974255e-01 3.235504518792669537e-01 -6.372258862533898283e-01
-8.991539644835223194e-03 -3.292233810668077076e-02 -8.736528705071464618e-01 -7.396650560638601268e-01 -2.957667108222467589e-01 6.044978557509003148e-01
-4.938587088749498560e-02 1.593045569540004203e-01 -8.202111108246490367e-01 7.457785453749989912e-01 2.919936510186028067e-01 -5.987938451781020799e-01
-2.736322472313988067e-03 -1.828650650064668204e-01 -9.321631982620063317e-01 7.410012136489441126e-01 3.017076633415093356e-01 -5.999080656665637390e-01
2.592783465656204808e-02 1.740073182857092005e-01 -7.205077814378081369e-01 7.373641524886819232e-01 2.931604605269323427e-01 -6.085647467675767697e-01
-4.796862163440504014e-03 -1.597248850248462748e-01 -9.196217555693666501e-01 7.952015147609876600e-01 2.692154093758078459e-01 -5.433025071508936765e-01
2.159559787809075398e-02 -1.661128404072784170e-01 -8.938321660169041838e-01 7.388179157584318091e-01 3.034438767571536189e-01 -6.017224451630138748e-01
-2.889072864500329477e-02 -1.448206439156194125e-01 -9.536980515381625612e-01 -7.351002047059348454e-01 -3.000943035183008534e-01 6.079235955588155882e-01
5.160591163488342098e-02 -1.539818734916138243e-01 -8.514750141700161423e-01 7.231085888293151687e-01 3.138200866867354444e-01 -6.153299293494558508e-01
4.310298534277526988e-02 -1.766670341908274100e-01 -8.733124063387952551e-01 7.113195201578504934e-01 3.319867429354657062e-01 -6.195234803923950206e-01
-1.858888585539993088e-02 -1.580928473131763823e-01 -9.393329868278289529e-01 7.420601777830166945e-01 3.015462749723565872e-01 -5.986789929494216178e-01
-6.340878110000687518e-02 -9.644303914454172011e-03 -9.286274906439421217e-01 -7.271684838292985509e-01 -3.029585882425860910e-01 6.159887092597219338e-01
-3.862756393834870100e-02 1.400697301962841590e-01 -8.163751043146643127e-01 7.404499638025038299e-01 2.957469442697663875e-01 -6.035458524917278744e-01
-2.911208623052314107e-02 1.356778120996597337e-01 -8.155679473639730892e-01 -7.368016625313826840e-01 -2.956781550594727026e-01 6.080277450179529808e-01
-6.801339078795044790e-02 -1.741197461705642352e-02 -9.375397778001181015e-01 -6.273817350022867778e-01 -3.285083505572503060e-01 7.060272106651944712e-01
4.485079933813550246e-03 2.286684529948339040e-01 -7.209806213242360151e-01 6.924291399195613428e-01 1.952482894973661121e-01 -6.945646058061187844e-01
-6.069289174313370616e-02 7.452180868195439067e-02 -8.759543790233035310e-01 7.443911604855302233e-01 2.965534018441185471e-01 -5.982790987872518285e-01
7.226180023372572557e-03 -6.756420318985419116e-02 -8.626130355174047581e-01 7.405457163817307231e-01 2.985552397604738784e-01 -6.020438611598287748e-01
4.183617092377960901e-03 -2.583876675000042894e-02 -8.581436062609515414e-01 -7.776709418018248332e-01 -2.793028443193147914e-01 5.632209401577710217e-01
-7.445595464195113589e-02 4.735045313044326798e-02 -9.077255291535836212e-01 8.530137911003444762e-01 2.311083421938452676e-01 -4.679277790012367766e-01
-7.754194720595547485e-03 1.134841229882150720e-01 -7.914069044536308217e-01 7.405457163817307231e-01 2.985552397604738784e-01 -6.020438611598287748e-01
-4.921677821528303888e-03 2.031341521758794899e-01 -7.472209732611461153e-01 8.285346771371895347e-01 -2.440226696716643884e-01 5.039674845339596754e-01
2.355403274107854741e-03 -3.775120708168558936e-01 -1.022394969728197101e+00 -4.772588697482063047e-01 3.899118189848475580e-01 -7.875231708734617975e-01
-6.135734047841952948e-03 -2.504063423773197905e-01 -9.683968548925215858e-01 9.817363929099633957e-01 8.407182862025272541e-02 -1.706621881629933057e-01
-5.821560783493104352e-02 -7.083056692073051719e-02 -9.526405232863143224e-01 3.461443805898710147e-01 -1.870843172450713243e-01 9.193386351214659635e-01
-8.250361457828626899e-03 -1.015877713392566578e-01 -8.985223810641075337e-01 7.405457163817307231e-01 2.985552397604738784e-01 -6.020438611598287748e-01
-2.996590808099928310e-02 -1.763759672539461087e-01 -9.640871286078451785e-01 8.624577529838092227e-01 3.881467978894599935e-01 -3.248210085666833891e-01
6.235982333752745910e-02 8.121579226010451624e-02 -7.220540435992846007e-01 6.995351235708047177e-01 3.040285970410659400e-01 -6.466971648863323319e-01
3.372769163439869045e-02 9.520506979041064299e-02 -7.582835720361823517e-01 -7.441843138223699361e-01 -2.945969683591954102e-01 5.995017375240040414e-01
-4.756283461022813713e-02 2.695810867699705710e-02 -8.832132822800440319e-01 7.437447659371910769e-01 2.970117097816757923e-01 -5.988553810341846750e-01
4.436444910809930059e-02 -9.739378151141285522e-02 -8.318470572173141120e-01 7.369582127262600535e-01 3.008918078510836036e-01 -6.052740806142478114e-01
9.899926901414233052e-03 1.274900658184426883e-01 -7.692477434615326848e-01 -3.583264681914652972e-01 8.700967047245923291e-01 3.384285251287727503e-01
2.171021952194925747e-02 -1.415670078174718349e-01 -8.814951011032430284e-01 7.405457163817307231e-01 2.985552397604738784e-01 -6.020438611598287748e-01
-1.297657763460575986e-02 1.444811123618008897e-01 -7.915249606933871807e-01 -7.407526049072211682e-01 -2.962502399369676409e-01 6.029273369656210635e-01
-2.187730456523239581e-02 1.902576122144166437e-01 -7.710899052662251174e-01 7.373286989739643582e-01 2.937149286986410757e-01 -6.083403079929139423e-01
-1.450098720232043809e-02 -6.539029771049635620e-02 -8.882605518241792897e-01 7.405457163817307231e-01 2.985552397604738784e-01 -6.020438611598287748e-01
-6.204999566144757395e-02 2.662814528028912414e-02 -9.013924822694719952e-01 7.444672936466024682e-01 2.968112412285092705e-01 -5.980564653700309874e-01
8.968381594368822485e-03 -1.445837952258824943e-01 -8.986642674231370975e-01 7.405457163817307231e-01 2.985552397604738784e-01 -6.020438611598287748e-01
2.179610593386778136e-02 7.263965822027837471e-02 -7.753050458554002766e-01 7.409009446918516373e-01 2.958558410067693711e-01 -6.029387294716593848e-01
-6.481410641931337029e-03 -7.373270201996050266e-02 -8.907614916176664899e-01 -7.405457163817307231e-01 -2.985552397604738784e-01 6.020438611598287748e-01
9.188665128945408545e-03 -2.999225330795797853e-02 -8.499260119295277693e-01 -7.414192703565579690e-01 -2.949120576431663032e-01 6.027639204536240358e-01
5.976758727252144687e-02 6.519014855062829628e-02 -7.408304477027194412e-01 -7.449506885830278202e-01 -2.940013614654729546e-01 5.988419416140795537e-01
2.347299194894433144e-02 -6.189106838989904408e-02 -8.398152761144695999e-01 7.405457163817307231e-01 2.985552397604738784e-01 -6.020438611598287748e-01
-2.350629043209780805e-02 -1.108567268211318041e-01 -9.302358037521153422e-01 -7.416412720263457770e-01 -3.011443880022842690e-01 5.993999342691600507e-01
1.325672585399789889e-02 -1.729653368394273305e-01 -9.159213606246505712e-01 -7.453482441118296498e-01 -2.993680214164847198e-01 5.956801010211700831e-01
5.201035258603880183e-03 -1.322946698025534440e-01 -9.097520424119049931e-01 -7.743099386856614474e-01 -2.414942468046976931e-01 5.849142224402126278e-01
-3.350211400028155206e-02 -2.103112029512827982e-02 -8.978635202801581450e-01 -7.405457163817307231e-01 -2.985552397604738784e-01 6.020438611598287748e-01
-3.960028765735281592e-02 -9.919104565645955884e-02 -9.441530734221688093e-01 -7.362416806438797368e-01 -2.994964931346464909e-01 6.068360884808383648e-01
2.922797438422949229e-02 -9.027227668795455295e-02 -8.468106648718634055e-01 7.405457163817307231e-01 2.985552397604738784e-01 -6.020438611598287748e-01
-5.455472625805009995e-02 1.179587964296182623e-01 -8.552929711736090290e-01 -7.361034252111354759e-01 -2.983328707290692772e-01 6.075765347962233109e-01
3.051513691385062885e-02 -1.269052891057776689e-01 -8.758197087640186007e-01 -7.272438288543489060e-01 -3.536640351459952036e-01 5.882500859647358249e-01
3.061573289073539830e-02 9.367382566201401528e-02 -7.628956251565780500e-01 -7.411860600145372402e-01 -2.935667543045962224e-01 6.037067046233556278e-01
-5.918443591502045575e-02 7.711445333623684339e-02 -8.809394399439615109e-01 -7.359035823109554286e-01 -2.977752909060913389e-01 6.080919286322549189e-01
-3.772747287906106500e-02 4.981983662699852183e-02 -8.681724116057486507e-01 -7.397505520413106828e-01 -2.959091355296090131e-01 6.043235096078056756e-01
-6.923040188957783891e-02 5.987854783940643050e-02 -9.012781709169849220e-01 -7.040318743937129531e-01 -3.148329176017118924e-01 6.365684203854827805e-01
2.977626135977547855e-02 3.936791957541791657e-04 -8.011747410786502765e-01 7.405457163817307231e-01 2.985552397604738784e-01 -6.020438611598287748e-01
6.461008592003320353e-03 1.735674337702591830e-01 -7.532907056244201316e-01 -8.315235236339814096e-01 2.502107867076337477e-01 -4.959467631293448808e-01
4.730381123105137364e-02 4.897987259819359257e-02 -7.516376265339940188e-01 7.185110400168054356e-01 3.581650064405003664e-01 -5.962044226064118213e-01
-5.798365561640242763e-03 1.678892677822151347e-01 -7.713580890000782952e-01 -7.410702976183860535e-01 -2.960014691004961840e-01 6.026590613922142570e-01
-3.074431325597626227e-05 9.849894377908696708e-02 -7.893378453309162213e-01 7.405457163817307231e-01 2.985552397604738784e-01 -6.020438611598287748e-01
4.446985695942221734e-02 1.301065420111593707e-01 -7.319188272297600939e-01 -7.704183896935122844e-01 -1.974648413439100969e-01 6.061873813063745065e-01
5.105388047295217335e-02 -9.991346015921978574e-02 -8.329507011883315881e-01 -7.451199883262362711e-01 -2.955430560399350259e-01 5.978716459435799990e-01
4.929053761079840029e-02 -9.955003904398576631e-02 -8.269310454720195658e-01 7.361063431897385545e-01 3.015922845547229225e-01 -6.059616699205435664e-01
6.267401956896699600e-02 -9.168486209534017217e-02 -8.069452706248619878e-01 7.271684838292985509e-01 3.069908561795548496e-01 -6.139890962774038341e-01
6.188182625450511926e-02 -1.171328082401529441e-01 -8.208587339983770548e-01 6.938085730233881643e-01 3.346923358474795940e-01 -6.376603361698197636e-01
2.417977097619856616e-02 1.391709707594180334e-01 -7.485217543057052225e-01 -7.400330373345634927e-01 -2.935345818797477357e-01 6.051351525849928414e-01
-2.330667851292596987e-02 1.781566229316538519e-01 -7.787242065776970312e-01 7.407923322603815475e-01 2.958015300866626007e-01 -6.030988105299278645e-01
-3.715464330305812829e-02 1.638697471276281958e-01 -7.984073285921711172e-01 7.376167233744419516e-01 3.011279435104090574e-01 -6.043538127914341862e-01
-5.239089927686626375e-02 -9.937279203502886668e-03 -9.075160455942538063e-01 7.438473850870154225e-01 2.971688579847816536e-01 -5.986499290430341569e-01
3.076395911942155902e-03 -1.080130278321443371e-01 -8.901325794968358851e-01 -4.779717948884062428e-01 3.902398490103599071e-01 -7.869280929891414589e-01
-1.376154904562149452e-03 -2.367318607850507073e-01 -9.537698523925715044e-01 6.822026492769086570e-01 3.247653482226157129e-01 -6.550778685877048924e-01
-1.126209499348309120e-02 1.862081114020774086e-01 -7.690741631130828537e-01 -7.417595492183191030e-01 -2.930815118510984307e-01 6.032379286438398491e-01
6.399154103368599744e-02 -5.412533404424560435e-02 -7.941426773614220780e-01 -7.477396294769765861e-01 -2.910651789094527153e-01 5.967968734301831724e-01
-4.821865540969628300e-02 1.582437826943183523e-01 -8.278028838587014882e-01 -7.360733658012842406e-01 -2.988986204656555179e-01 6.073348457331398942e-01
5.713785415727474018e-03 -3.849456993000741067e-01 -1.035154829653767594e+00 -7.711852450354067523e-01 -7.909444979624739858e-02 6.316782296795643292e-01
-5.565382442237105931e-02 3.826685750970971328e-02 -8.957685891570400516e-01 -7.396874354268735408e-01 -2.957974834502284378e-01 6.044554132904482735e-01
1.007723914732882968e-02 -1.722154583487128798e-01 -9.195228493939530123e-01 -7.453482441118296498e-01 -2.993680214164847198e-01 5.956801010211700831e-01
-2.993810644062913293e-02 2.176901831935098078e-02 -8.724044845418782446e-01 -7.405457163817307231e-01 -2.985552397604738784e-01 6.020438611598287748e-01
4.021070774536087897e-03 3.677035328893183026e-03 -8.352235794880921160e-01 -4.495860502625947386e-01 3.992722397066298945e-01 -7.990332045722075005e-01
3.850452331400240884e-03 4.624887935493176422e-02 -8.231749560617153127e-01 -7.766755903436188824e-01 -2.798489763860940172e-01 5.643222286779481234e-01
-5.062060900440550765e-02 1.376685092175504999e-01 -8.323533607809411317e-01 7.492184692548478075e-01 2.928909249200770670e-01 -5.940425838497473965e-01
3.120804906498413425e-02 1.760038259459588139e-01 -7.133409846061250503e-01 7.257337867457536174e-01 2.853793432421800058e-01 -6.259944897731377633e-01
