3.915022230421752458e-02 -4.328340638923190709e-02 -7.446238448449488123e-01 7.041857092159594655e-01 -3.391487129871639250e-01 6.237793178802631955e-01
-7.023014376202553477e-02 -7.178388655389168760e-02 -6.348412545887598402e-01 7.213784829001339549e-01 -3.299766494425807051e-01 6.088747779563129514e-01
-7.403438039068314935e-02 -5.713239647348208883e-02 -6.159746155310530380e-01 -5.573368020040149196e-01 4.132772995850150788e-01 -7.201232969288350327e-01
-3.070274816623131883e-02 1.139175720869472219e-01 -5.791816456291644100e-01 7.081299850132272145e-01 -3.398800267153574417e-01 6.188969960866950171e-01
-3.291044700559590114e-02 -1.176063002921737682e-01 -6.948864163594189458e-01 -7.088990522147631257e-01 3.339961625281646085e-01 -6.212154997949347335e-01
-2.662721390673071509e-02 -1.022895034459352509e-01 -7.017127303381570647e-01 7.078639977810068373e-01 -3.376727315098211335e-01 6.204076780957719084e-01
-5.049414962955938585e-02 -2.000673237143828567e-02 -6.216503776431412387e-01 -7.069893282288989278e-01 3.411978546425551984e-01 -6.194756764859843390e-01
4.697244551900725540e-02 1.033778366250547448e-01 -6.652619031358861790e-01 -7.086619113767568257e-01 3.428042324189132239e-01 -6.166713497475954098e-01
-2.200544664120322041e-02 -1.247756347359716828e-01 -7.078885014776495899e-01 -7.323387228563367213e-01 -2.121999102627833422e-01 -6.470326058937185820e-01
4.042384748645881654e-02 -3.116481636109054779e-02 -7.394735848147800938e-01 7.042683273812627709e-01 -3.390201744214106916e-01 6.237559173129141321e-01
-2.959084886708176348e-02 3.174996922883224076e-02 -6.170205800264882967e-01 -7.071484325329007170e-01 3.407061905527765111e-01 -6.195646746589711373e-01
4.088891294796528214e-02 1.103979511425185779e-02 -7.170401197376282676e-01 7.044580140104783617e-01 -3.391759282594829505e-01 6.234569722007532455e-01
-2.759479756715285323e-02 1.786270756244013325e-01 -5.469886794154772414e-01 7.111474058888996863e-01 -3.428617227712823512e-01 6.137712979243953315e-01
-4.131161620065595952e-02 -1.133627265095294850e-01 -6.909562966290507813e-01 7.117707106743523804e-01 -3.353648278120021087e-01 6.171814058222698796e-01
2.543345185656320506e-02 7.571579049130426620e-02 -6.641991006945251463e-01 7.050048954709348115e-01 -3.416323178128000126e-01 6.214945348012885784e-01
-6.381925083913547736e-02 -1.093212891947823867e-01 -6.555320239435126206e-01 -6.932020161916968570e-01 3.476317934417054167e-01 -6.313660593793982700e-01
-6.200472653345181356e-02 -1.425528810173624372e-01 -6.823344560647329748e-01 7.595211266886795487e-01 -2.891390382771431011e-01 5.826888317599090428e-01
6.921814934580018501e-03 -1.493415703839437725e-01 -7.573857571108379982e-01 -7.069802252747543481e-01 3.351099368082662289e-01 -6.228003623335628403e-01
3.823147115387559580e-02 -9.156783521158561034e-02 -7.582894115003552260e-01 -4.622163378864497241e-01 -9.179372859447140764e-02 -8.820033834297712483e-01
4.292606307409561894e-02 1.608596084246603775e-01 -6.289246451516563585e-01 -7.114067607955404382e-01 3.405979316101719889e-01 -6.147304040612187048e-01
-7.053893930977814253e-02 -1.097406642402395244e-01 -6.544166465327846405e-01 8.532267887172534371e-01 -2.109315367060674296e-01 4.769821106059013438e-01
-2.106169775630504885e-03 2.126809361561095568e-01 -5.614720820516462263e-01 6.698870992218624032e-01 -3.710657150590606634e-01 6.430874819212598625e-01
2.726765632734907963e-02 -6.618871803540071763e-02 -7.355713014458417076e-01 -7.078639977810068373e-01 3.376727315098211335e-01 -6.204076780957719084e-01
-3.840938605924171245e-02 4.942105251559811979e-02 -5.932878056952649581e-01 -7.203285238402765689e-01 2.788465192811281912e-01 -6.351152938064765774e-01
1.467603173685500277e-03 2.100266199188456639e-01 -5.542576879590670469e-01 -7.072899967622781059e-01 3.335480088773651874e-01 -6.232869212922421687e-01
9.697676610195563041e-03 -5.077508458603855607e-02 -7.071352900686108667e-01 -7.078639977810068373e-01 3.376727315098211335e-01 -6.204076780957719084e-01
-3.209557414594942093e-02 1.222819811794840089e-01 -5.674888401112549996e-01 6.065708672051284278e-02 9.903969627213874416e-01 1.242359612303589600e-01
-1.382102352216960312e-03 -5.204327627298875950e-03 -6.776754538103149095e-01 7.078639977810068373e-01 -3.376727315098211335e-01 6.204076780957719084e-01
4.470183903647823032e-02 -8.809464029426410103e-02 -7.752207174779482957e-01 7.024922032861045107e-01 -3.391328230324150983e-01 6.256945202447429244e-01
-6.555706615440511087e-02 3.378904224835471010e-02 -5.828402122642982741e-01 7.153721642324866181e-01 -3.376169156221141554e-01 6.117658742747412726e-01
6.790362761579923911e-02 1.012192431164277290e-01 -6.906349541332754693e-01 -7.212621941546117910e-01 3.330353098367680453e-01 -6.073453133804549431e-01
-1.069366123476965524e-02 -7.840979107225963529e-02 -7.068952267866365213e-01 7.078639977810068373e-01 -3.376727315098211335e-01 6.204076780957719084e-01
-6.020713883599405208e-02 6.223509420082979499e-02 -5.654444680495495090e-01 -6.940059714773526567e-01 3.451184748203668939e-01 -6.318614958133149662e-01
-3.396948229657054986e-03 7.390353808104052624e-02 -6.237836504338414301e-01 -7.072191251780468590e-01 3.425660044395941184e-01 -6.184574695035141012e-01
-6.123882687065949904e-02 -7.845562563054285510e-02 -6.414100960460201728e-01 -7.034761890604813717e-01 3.403445300722497402e-01 -6.239285634388294088e-01
-5.253004094985824074e-02 -4.997872393600815560e-02 -6.435730184901182760e-01 7.113352561724293199e-01 -3.357680331502974069e-01 6.174641538101501848e-01
-5.300329392220599900e-02 4.877980141646093976e-02 -5.810155741271236796e-01 -7.066548816443696257e-01 3.437259763663903511e-01 -6.184588356706963719e-01
-4.154437995452446575e-02 4.589703161108655421e-02 -6.023008300438258411e-01 3.775253392121677987e-01 8.403833324259851745e-01 3.888836237659460404e-01
1.450604370482101724e-02 -7.972734493509095466e-02 -7.283794803892432723e-01 -7.078639977810068373e-01 3.376727315098211335e-01 -6.204076780957719084e-01
-4.451785849876883916e-02 -5.904295278930200147e-02 -6.497772124037247687e-01 -7.078639977810068373e-01 3.376727315098211335e-01 -6.204076780957719084e-01
5.151185260859653288e-03 7.117502985895127199e-02 -6.350831432536464538e-01 -7.086499279732620948e-01 3.418395989773415078e-01 -6.172203562379490194e-01
2.211404991975432065e-03 -1.102750391321484641e-01 -7.389629426224194608e-01 7.078639977810068373e-01 -3.376727315098211335e-01 6.204076780957719084e-01
6.962220406655143801e-02 -1.694029088509926145e-02 -7.574875008670030052e-01 -7.216329723888508241e-01 3.329199942252353828e-01 -6.069679815330468742e-01
3.088698702073064406e-02 1.180944529920341796e-01 -6.472308116067791994e-01 7.041995967145875390e-01 -3.422665450700995149e-01 6.220583092546788651e-01
1.061009417684451173e-02 -1.644558585722954436e-01 -7.779263062286487784e-01 7.064248345938525242e-01 -3.348891252511047578e-01 6.235488969259731507e-01
-1.502653244283453163e-02 -1.150842671876607937e-01 -7.138208024310845889e-01 -7.044246626983019510e-01 3.363980603665379099e-01 -6.249977916473101747e-01
2.601637974025551581e-02 -2.399347218591390066e-02 -7.191626593071108742e-01 7.078639977810068373e-01 -3.376727315098211335e-01 6.204076780957719084e-01
2.247728260051715110e-02 2.169696941673946444e-01 -5.746956180487594601e-01 -7.247977812833995559e-01 3.077360680439832907e-01 -6.164143806494865041e-01
5.142212941411114166e-03 -2.341705687577811668e-01 -7.969008129056528444e-01 -7.445070654320713466e-01 3.148984535845292254e-01 -5.886834407827329363e-01
-1.641024842267414709e-03 -3.868174292117771557e-02 -6.991310720137881018e-01 7.108688567170183825e-01 -3.597086046206568466e-01 6.043800032361253960e-01
8.980603212274243519e-03 -7.449668022486234664e-02 -7.272130808387232692e-01 7.078639977810068373e-01 -3.376727315098211335e-01 6.204076780957719084e-01
7.057860249193166624e-02 4.933098411552759577e-02 -7.295030414128014229e-01 6.695692234679460064e-01 -3.544138758108720810e-01 6.527387376410622721e-01
6.561714731674061357e-03 -2.633994253294690280e-01 -8.155298055203368257e-01 -9.710203624437692138e-01 1.069286825239444683e-01 -2.137421637704280397e-01
2.867463364253705627e-02 1.201294492687665222e-01 -6.349678714595689000e-01 -7.085377341886524016e-01 3.419125130078383701e-01 -6.173087660802130117e-01
-5.345466061509469152e-02 -2.203309465413318818e-02 -6.273034235652841240e-01 7.112273377084147308e-01 -3.360240917611373446e-01 6.174491751167079379e-01
-1.494305356789508987e-02 8.778418575210845606e-03 -6.545924041462479748e-01 7.078639977810068373e-01 -3.376727315098211335e-01 6.204076780957719084e-01
-1.852900934163471264e-02 -1.015793539039710862e-02 -6.526775203312895623e-01 -7.078639977810068373e-01 3.376727315098211335e-01 -6.204076780957719084e-01
1.933658887345606620e-02 1.769070671618961921e-01 -6.017966422892213618e-01 7.075982713216436570e-01 -3.403755960455633889e-01 6.192327026564804493e-01
-2.580897707186769266e-02 1.782666284118996636e-01 -5.492591752329980537e-01 7.111474058888996863e-01 -3.428617227712823512e-01 6.137712979243953315e-01
2.419130899634704124e-02 -4.532316615768503670e-02 -7.207046843117604906e-01 -7.078639977810068373e-01 3.376727315098211335e-01 -6.204076780957719084e-01
-2.803229280839403953e-02 -1.465192399645712518e-01 -7.160527223946464570e-01 -7.078639977810068373e-01 3.376727315098211335e-01 -6.204076780957719084e-01
-1.168701644551013025e-02 1.021766396788722914e-01 -6.073279004672168524e-01 7.078639977810068373e-01 -3.376727315098211335e-01 6.204076780957719084e-01
-1.202673043910581357e-02 1.198751907668292732e-01 -5.885379234541254778e-01 -7.077795366832325685e-01 3.398614015768656182e-01 -6.193079647240757879e-01
-1.108313202695297706e-02 -7.829814491451705938e-02 -6.984052251296805069e-01 -7.078639977810068373e-01 3.376727315098211335e-01 -6.204076780957719084e-01
-1.109149833938750246e-02 9.279420146536707104e-02 -6.131139980508982790e-01 7.078639977810068373e-01 -3.376727315098211335e-01 6.204076780957719084e-01
4.177550778786805197e-02 1.383753525655884720e-01 -6.484772071978598396e-01 7.079570997958375411e-01 -3.404206143131158768e-01 6.187976649918350835e-01
-3.509020996272663867e-02 -1.888804004057819952e-01 -7.385862972729987375e-01 7.242101521803369080e-01 -3.073987175188826471e-01 6.172727792043638528e-01
-2.655884539002701522e-02 -1.789519753012803471e-01 -7.353862205685930409e-01 -7.078639977810068373e-01 3.376727315098211335e-01 -6.204076780957719084e-01
-5.190438855197626166e-04 3.793375062363268935e-02 -6.444135771490937525e-01 -2.036948003037354626e-01 4.757097608583268356e-01 -8.556919140399391610e-01
-2.473521524013240144e-02 2.593037965239542234e-02 -6.257631029173434944e-01 -7.072655232892772759e-01 3.406528861345887171e-01 -6.194603221631872492e-01
-1.823509874922413232e-02 3.558427020233036198e-02 -6.278757202493959744e-01 -7.072655232892772759e-01 3.406528861345887171e-01 -6.194603221631872492e-01
-3.874189168152430279e-02 1.231291603793216033e-01 -5.562704968944596207e-01 -7.039975301224773441e-01 3.418688423655117381e-01 -6.225055599760666025e-01
-3.642045622431132335e-02 -7.077938815018107455e-02 -6.733887895155633574e-01 7.078639977810068373e-01 -3.376727315098211335e-01 6.204076780957719084e-01
-5.115282114783830519e-02 5.179144421664987757e-02 -5.937434989235743643e-01 6.904092341831460367e-01 -3.960060195500222924e-01 6.054042631455357482e-01
1.447785261502087173e-04 2.139862041443042762e-01 -5.484625958821977010e-01 -2.569851381623446396e-01 1.169509543622469783e-01 -9.593128337708405340e-01
-4.913899735075943909e-03 2.230398849580393639e-01 -5.404905059207302243e-01 -6.527969666887978306e-01 2.643381136207584303e-01 -7.099165316918064628e-01
2.401320082629051361e-02 -2.020959674110765075e-02 -7.167155082624659945e-01 4.480826821446138308e-01 8.316363264218493145e-02 8.901155656249610804e-01
-2.574611304458661060e-03 -1.631351499417829989e-02 -6.858225101666334256e-01 6.449666892265559781e-01 -3.653338497885367242e-01 6.712295791953912794e-01
5.294575077714049754e-02 1.596030245276671145e-01 -6.494160927465392197e-01 6.986625264149499692e-01 -3.445336831506420894e-01 6.270304740266873234e-01
2.209988681989051573e-02 -5.601568015892731400e-02 -7.321229794050372330e-01 7.078639977810068373e-01 -3.376727315098211335e-01 6.204076780957719084e-01
-6.895388395732945930e-02 -4.990088794365721801e-03 -5.925679258237135372e-01 -7.006380110331001942e-01 3.440085723445515664e-01 -6.251115737602725986e-01
2.399658559067359420e-02 -1.117494814870501063e-01 -7.539907224122925911e-01 -7.410330474507791365e-01 6.595516039610340719e-01 -1.259432582484615315e-01
-7.107923421020614918e-02 -7.469417406676279181e-02 -6.354072111219460917e-01 7.216329723888508241e-01 -3.289667615950636614e-01 6.091196294053315974e-01
-7.195120064008631022e-02 -1.039356844868860180e-01 -6.487580181761090081e-01 9.419635235589484124e-01 2.829848294624155436e-01 -1.806219991544162629e-01
1.300608185664360594e-02 -1.451535702427390606e-01 -7.702628324802363036e-01 7.078639977810068373e-01 -3.376727315098211335e-01 6.204076780957719084e-01
-6.583798349447730902e-02 2.161200664996142627e-03 -5.921248264057940025e-01 -7.006380110331001942e-01 3.440085723445515664e-01 -6.251115737602725986e-01
-1.977978700779491061e-02 -1.178437313550275006e-01 -7.179911968374456110e-01 7.078639977810068373e-01 -3.376727315098211335e-01 6.204076780957719084e-01
-1.756296093471913658e-04 2.119140891545003014e-01 -5.598550409346287893e-01 7.064724840445627541e-01 -3.515572268338825190e-01 6.142508816019518481e-01
2.080448223960958219e-03 3.705548243792026325e-02 -6.503490179794878534e-01 -7.078639977810068373e-01 3.376727315098211335e-01 -6.204076780957719084e-01
-5.239778850147666645e-02 -3.581530710335468354e-02 -6.369027104935678363e-01 -1.090182498934150895e-01 -9.925626848734646623e-01 -5.416952821426587045e-02
6.060972734970354603e-02 -8.616968612899363056e-02 -7.901382685260773808e-01 -6.708459444209508016e-01 -4.642951108049944015e-02 7.401418913659654208e-01
-2.536965840469018393e-02 -1.729597642762326914e-01 -7.415035435252593787e-01 7.099090878201959054e-01 -3.329658929453543914e-01 6.206148573514816968e-01
-2.365428476184842921e-02 -2.869947225145293504e-02 -6.650514862260128446e-01 7.078639977810068373e-01 -3.376727315098211335e-01 6.204076780957719084e-01
4.499505776872914087e-03 -5.842457391612970036e-02 -7.013226549296639467e-01 -7.664035786870686540e-01 3.137392626456062539e-01 -5.605294190765059970e-01
-5.238350418968390487e-03 2.007989486046179994e-01 -5.644617242877154606e-01 7.587015905755442047e-01 -3.114225926914021558e-01 5.721781761125673826e-01
-2.316452496228842139e-02 -1.169165095982598220e-02 -6.563533441277898950e-01 7.078639977810068373e-01 -3.376727315098211335e-01 6.204076780957719084e-01
-3.161502321910514973e-02 -7.882728991187857789e-03 -6.365084856593088425e-01 -7.078639977810068373e-01 3.376727315098211335e-01 -6.204076780957719084e-01
2.504801299334461981e-02 -1.779647897578112425e-01 -7.939395864326204144e-01 -7.193497982259176027e-01 3.405939169596954308e-01 -6.054185754685627030e-01
-1.717002008062505983e-03 5.825315161822629262e-02 -6.427159925198459023e-01 7.080679169828895114e-01 -3.398304278283286739e-01 6.189952384804967567e-01
-1.228933510094891868e-03 -1.237148049732339494e-01 -7.305960942930779245e-01 -6.493764094972122036e-01 3.138699802819046591e-01 -6.926730211769083212e-01
2.654157318038937591e-02 1.126918251736387516e-01 -6.366405014458103029e-01 -7.080393444100282485e-01 3.421791345021092390e-01 -6.177327307815287938e-01
1.634168687477988505e-02 1.680801970041344851e-01 -6.032262562458584609e-01 7.075982713216436570e-01 -3.403755960455633889e-01 6.192327026564804493e-01
-2.653383863730023051e-02 -9.309090529560111460e-02 -6.968126962487944942e-01 7.078639977810068373e-01 -3.376727315098211335e-01 6.204076780957719084e-01
2.431734030358039672e-02 1.117735532004793947e-01 -6.431842779564814760e-01 7.078639977810068373e-01 -3.376727315098211335e-01 6.204076780957719084e-01
-5.591269166184285357e-03 -6.343747681798858618e-02 -6.965829549866079384e-01 -7.078639977810068373e-01 3.376727315098211335e-01 -6.204076780957719084e-01
2.235481606941030347e-02 -1.812709515258838222e-01 -7.925995349211572005e-01 -7.193497982259176027e-01 3.405939169596954308e-01 -6.054185754685627030e-01
-4.028507548577303990e-03 1.783137000267058792e-01 -5.783018692929072779e-01 7.599453651845858859e-01 -3.105258879580280462e-01 5.710137606418471679e-01
4.031299139403970305e-02 1.086773024999268672e-01 -6.630888381410900978e-01 7.047073498767245647e-01 -3.423224013003690613e-01 6.214522705708562800e-01
6.384293196331924936e-02 9.190924351164039829e-02 -6.910018306890199913e-01 -7.085061633706708495e-01 3.403318751514378682e-01 -6.182177862385378475e-01
-4.404590681088176723e-02 -1.627909695148135882e-01 -7.145126678695449263e-01 7.182804747333096929e-01 -3.255798360316575213e-01 6.148747270676282461e-01
6.490181605865993908e-03 1.536866290620129416e-01 -5.998758063789144668e-01 7.074005414237256595e-01 -3.426326985142884585e-01 6.182129955785762299e-01
-3.264189410939610098e-02 -2.807899096957477188e-03 -6.325528868860194054e-01 -7.070290033714509148e-01 3.409881147242736499e-01 -6.195458772426447602e-01
-2.106367474715167137e-02 9.045771304876829011e-02 -5.944195014418769407e-01 -7.076703097272468712e-01 3.423565916043503354e-01 -6.180571955050718769e-01
3.975623041833396126e-02 -5.477336894725127331e-02 -7.515538066041654863e-01 7.040941695904413544e-01 -3.388909233171213398e-01 6.240227098768247327e-01
3.569149966633154702e-02 8.597108948078685531e-02 -6.731315177186240062e-01 4.607109244891039457e-01 1.299932649982303012e-01 8.779790402461183918e-01
6.167830857921484389e-02 1.732948091055509510e-01 -6.504224549504542541e-01 5.180160110703734277e-01 -4.955744415710581774e-01 6.971838962112311133e-01
2.873170551050430177e-02 9.171128408317370806e-02 -6.591479016862820117e-01 7.050048954709348115e-01 -3.416323178128000126e-01 6.214945348012885784e-01
-1.879314603696092016e-03 1.762630480271526745e-01 -5.690497932137179582e-01 -7.082631589139797290e-01 3.396846123329725908e-01 -6.188518900911499365e-01
-1.152627194997463134e-02 1.340556111918480287e-01 -5.813279995755926688e-01 -7.077795366832325685e-01 3.398614015768656182e-01 -6.193079647240757879e-01
1.534215810194929086e-02 -6.161309397438698154e-02 -7.274591769475543535e-01 7.078639977810068373e-01 -3.376727315098211335e-01 6.204076780957719084e-01
-1.940954496152490216e-02 -1.467686492447132784e-01 -7.341567560360514610e-01 7.078639977810068373e-01 -3.376727315098211335e-01 6.204076780957719084e-01
-4.586062155785108896e-02 1.214894221162301918e-01 -5.491315665968138360e-01 -7.029760952530298423e-01 3.418243070635885172e-01 -6.236832149443342077e-01
4.846492075749851691e-02 -1.455146749924616720e-02 -7.395201436888994007e-01 7.043755086732457205e-01 -3.391023044463418734e-01 6.235902259500919476e-01
3.156948395517725908e-02 8.919341344231626612e-02 -6.653966348930472341e-01 7.111986312872335958e-01 -6.888275674218177214e-01 1.404033091308984627e-01
3.190203400525350175e-02 -4.846580214251611923e-02 -7.312128184595250158e-01 -7.078639977810068373e-01 3.376727315098211335e-01 -6.204076780957719084e-01
6.497056185901647907e-02 2.661411610654634483e-02 -7.392524665916270221e-01 3.343181104112631918e-01 -4.951051751049805327e-01 8.019365727009269973e-01
4.266720635338388558e-03 -6.517880428787478642e-02 -7.127765504436663901e-01 -5.136121960906019357e-01 -4.101809208649930261e-01 7.536273111991999007e-01
2.591765693340349064e-02 -4.383791547713959680e-02 -7.298508652800966834e-01 7.078639977810068373e-01 -3.376727315098211335e-01 6.204076780957719084e-01
-4.249799346693943695e-04 -1.380906414763113377e-01 -7.537170341332869450e-01 2.330658524927920472e-01 -4.658992859824480637e-01 8.535913329707920383e-01
1.375154810283830964e-02 -1.193442794364970444e-01 -7.570660180359621849e-01 7.078639977810068373e-01 -3.376727315098211335e-01 6.204076780957719084e-01
1.743432099156982246e-02 1.461133033801718419e-02 -6.801982331936556880e-01 -7.086134523571345767e-01 3.401854235582626451e-01 -6.181754223009745530e-01
2.477069349919908126e-02 -9.580115148030191041e-02 -7.488065534481016527e-01 -7.113626741932242981e-01 3.333278425127771949e-01 -6.187533395226580968e-01
3.987025008588519076e-02 -1.380749671486695695e-01 -7.966257336099662467e-01 7.078639977810068373e-01 -3.376727315098211335e-01 6.204076780957719084e-01
-4.655462957959758362e-03 -1.613636826299185978e-01 -7.550504716031831709e-01 8.699816014272770959e-01 2.362370187804426203e-01 -4.328095240816208222e-01
6.353257530351305582e-02 -7.145394253686514208e-02 -7.800416945427811610e-01 -7.283767240414436017e-01 2.302632767984247597e-01 6.453264067374795410e-01
-1.513750547094637943e-03 -2.536622350693745753e-01 -8.024256670296685545e-01 5.081058792007995262e-01 4.084283633776193967e-01 -7.582972290007803373e-01
-2.537989091149871201e-02 -3.841705018659320736e-02 -6.683716685674916391e-01 7.078639977810068373e-01 -3.376727315098211335e-01 6.204076780957719084e-01
-2.686289275689025813e-02 1.531839772231738950e-01 -5.619658824250269857e-01 7.131512090415751404e-01 -3.380430055235255637e-01 6.141191085279477102e-01
1.609869641258888928e-02 -4.975578135270401769e-02 -7.218687159801284725e-01 7.078639977810068373e-01 -3.376727315098211335e-01 6.204076780957719084e-01
1.777444272124444752e-02 9.794064239225828972e-02 -6.432479701689328699e-01 7.078639977810068373e-01 -3.376727315098211335e-01 6.204076780957719084e-01
-6.958586531844138112e-02 2.787174720983591741e-03 -5.951022816307478536e-01 7.204201169186196241e-01 -3.318800641379093253e-01 6.089749405080471245e-01
-1.416280952145429787e-03 -1.359328246693441988e-01 -7.390592887232902974e-01 -2.326626978187160411e-01 4.649348391636616840e-01 -8.542269396217710975e-01
4.452033059755135941e-02 1.489487170324008958e-01 -6.373585519343067940e-01 -7.079570997958375411e-01 3.404206143131158768e-01 -6.187976649918350835e-01
-6.740309609674234592e-02 6.696491476554307376e-02 -5.550390536461102808e-01 -6.816574430253037331e-01 3.460970416545682271e-01 -6.446394093802836345e-01
2.407990729477439695e-02 -5.560340764449746287e-02 -7.341577253753647225e-01 7.078639977810068373e-01 -3.376727315098211335e-01 6.204076780957719084e-01
-1.083443132964324179e-02 -1.574209952988797345e-01 -7.416084546033195890e-01 -7.078639977810068373e-01 3.376727315098211335e-01 -6.204076780957719084e-01
-5.383823643951793358e-02 -9.216934271806071985e-03 -6.198868645199426819e-01 7.112273377084147308e-01 -3.360240917611373446e-01 6.174491751167079379e-01
6.293414840778040198e-02 1.338707274037199448e-02 -7.406369962087605563e-01 6.945704112851711631e-01 -3.433387757734694956e-01 6.322107471543990664e-01
5.752447152106884322e-03 -1.435417268140684877e-01 -7.498033881771641873e-01 -9.726339199376371480e-01 1.067478662173952930e-01 -2.063689677368646946e-01
3.174248070639156677e-02 -1.396390717528582792e-01 -7.884564083091402109e-01 6.996346619519422383e-01 -3.363762317354397346e-01 6.303668539183014952e-01
1.194162804267751184e-02 1.995908633925007614e-01 -5.720077699029468832e-01 -7.067640755046983303e-01 3.410554749310573674e-01 -6.198110232930196251e-01
3.488229973762731195e-02 -1.415373379322748537e-01 -7.929264101058968173e-01 6.977098558153724817e-01 -3.341371403292129338e-01 6.336823561933122573e-01
4.153119759721639326e-02 1.760901607885815845e-01 -6.274452191388154576e-01 7.031264104663036418e-01 -3.442947388995669100e-01 6.221530227129417057e-01
2.431590434033985976e-02 -1.430672876589862696e-01 -7.739014164282530528e-01 -7.078639977810068373e-01 3.376727315098211335e-01 -6.204076780957719084e-01
-1.238849088828757050e-02 -3.507827617856169866e-02 -6.813771997736527419e-01 7.078639977810068373e-01 -3.376727315098211335e-01 6.204076780957719084e-01
1.720922291614703642e-02 -2.366439337512283095e-02 -7.123857694345424596e-01 6.898580741606730182e-01 -2.963691992784269202e-01 6.605006701241046274e-01
8.368660620664653774e-04 -1.808362745699101937e-01 -7.638471340905008677e-01 -2.341932721869147693e-01 4.605253320342979073e-01 -8.561950302454958139e-01
4.213039875509549254e-02 -1.129762372807580767e-01 -7.779575862858267854e-01 -7.123564997796733023e-01 3.366354885238357908e-01 -6.158122807219507111e-01
4.893014015511304438e-02 5.321106661424829243e-02 -7.031758286933950108e-01 7.044953443352250932e-01 -3.393509633380702439e-01 6.233195276032320598e-01
-6.989799103969821133e-03 1.549919628228029200e-01 -5.837162905009891656e-01 7.081093082004030759e-01 -3.420523084419989646e-01 6.177227743328278509e-01
-1.292026537942229762e-02 -1.758164730450705038e-01 -7.572682000197503704e-01 7.092885204074177441e-01 -3.335172313009384659e-01 6.210282209719716340e-01
-2.357360476025338603e-02 1.598092324746087922e-01 -5.621241730401436154e-01 7.081235257198854605e-01 -3.401239575107768420e-01 6.187703660076540046e-01
5.850445310086174744e-03 -2.940171375080112906e-03 -6.846952190870682076e-01 7.078639977810068373e-01 -3.376727315098211335e-01 6.204076780957719084e-01
5.199076926660260202e-03 1.537984203585975040e-01 -5.851542768080949530e-01 -7.616493435473203899e-01 3.150821406484483611e-01 -5.662274473374874217e-01
3.875808803720615092e-02 3.189358302391877287e-02 -6.951351234464304696e-01 -7.086901922502780726e-01 3.401922734388490022e-01 -6.180836743522443166e-01
6.812556133229896727e-02 1.817177326263342760e-02 -7.437420187019936346e-01 6.945704112851711631e-01 -3.433387757734694956e-01 6.322107471543990664e-01
-3.182380678376227345e-02 -8.888368371471290497e-02 -6.884871351928318894e-01 7.078639977810068373e-01 -3.376727315098211335e-01 6.204076780957719084e-01
1.075516553567777657e-03 1.678921050597846354e-01 -5.770244536941563362e-01 -7.080088906837246343e-01 3.397967633728340986e-01 -6.190812307881314869e-01
-3.338267088307196595e-02 1.400529513747256760e-01 -5.530376390102513806e-01 -7.040328295573816675e-01 3.418307176673555658e-01 -6.224865744451419936e-01
-3.757562304278137116e-02 5.255097171629873054e-02 -6.048002763411766125e-01 7.107053793903411743e-01 -3.389013336918575980e-01 6.164768849904360692e-01
3.627888253237151420e-03 -1.496006220333503112e-01 -7.496154963346668421e-01 -7.456630507618480230e-01 3.166094128948343522e-01 -5.862977864489359314e-01
-6.044765965690328258e-02 7.925893733540992359e-02 -5.558544724330494180e-01 -7.004732776977429243e-01 3.426005693753529924e-01 -6.260687159530210488e-01
-7.282840823084718584e-02 3.088167062859060313e-02 -5.688408063838942264e-01 -6.820342974265265479e-01 3.503759294329079066e-01 -6.419236132188393951e-01
-5.823501779022366431e-02 2.333004451492494413e-02 -5.970955539496018982e-01 7.118743794388436852e-01 -3.359730269220903009e-01 6.167308919450763538e-01
-2.520441395617969635e-02 1.119490996959967288e-01 -5.865521186651695418e-01 7.077690221441159668e-01 -3.400294828950559123e-01 6.192277142177042837e-01
3.354818204684436450e-02 7.694412414926338206e-02 -6.604446493999965861e-01 -7.226586806348501701e-01 3.802317616157482316e-01 -5.772245999276905959e-01
-4.998266667672217334e-02 -9.368852065216484726e-02 -6.624049267410863084e-01 -7.033217644053397777e-01 3.402973507230555028e-01 -6.241283592376084544e-01
-2.404918747948458016e-02 -3.851224763856585936e-02 -6.623981046123823546e-01 -4.434919959603910167e-01 -8.278159777380675877e-01 -3.435630313648951328e-01
-4.787337288743768494e-03 2.268522130356676325e-01 -5.457543455799775955e-01 7.168595334189166168e-01 -3.590773151575303856e-01 5.976419422076003629e-01
-9.205406821710879206e-03 -1.465958509202469062e-01 -7.457052796734869871e-01 7.078639977810068373e-01 -3.376727315098211335e-01 6.204076780957719084e-01
-3.232213088325462669e-02 -1.547529974185510859e-01 -7.237696214750470869e-01 7.078639977810068373e-01 -3.376727315098211335e-01 6.204076780957719084e-01
-5.853473470430871350e-02 1.104689219379025450e-01 -5.410217009070701355e-01 -6.572125733957243643e-01 3.426687767656473871e-01 -6.713045082527783203e-01
3.430345982234585256e-02 -3.253567554391176980e-02 -7.252823849518686972e-01 -7.078639977810068373e-01 3.376727315098211335e-01 -6.204076780957719084e-01
4.658066514595902985e-03 8.306692929409120740e-02 -6.320183110654737924e-01 -5.244543193118400559e-01 -4.039334535987589292e-01 7.495234699587023375e-01
-3.096133885817052914e-02 1.229691010477433621e-01 -5.707298037318042638e-01 3.679137597925413727e-01 8.413475309390781032e-01 3.959467104776011048e-01
-2.162562593800781974e-02 4.946498600389419298e-02 -6.270647459087997921e-01 7.171016807192005516e-01 2.292695337487684337e-01 6.581798085662610154e-01
-2.378371154326879011e-02 -3.954465422570653532e-02 -6.708065820897682885e-01 7.078639977810068373e-01 -3.376727315098211335e-01 6.204076780957719084e-01
-3.886785917467176776e-02 -1.088240704746636783e-01 -6.913031767091928348e-01 7.078639977810068373e-01 -3.376727315098211335e-01 6.204076780957719084e-01
3.246274818821475588e-02 9.623881106748567726e-02 -6.609330908530606230e-01 7.078639977810068373e-01 -3.376727315098211335e-01 6.204076780957719084e-01
5.112577540276723627e-03 -3.041553489105174313e-01 -8.430248417708343656e-01 -5.026536929094603812e-01 -4.164984111245669252e-01 7.575409814229149275e-01
3.581793348938550059e-02 -9.594428509341934586e-02 -7.575811714349099946e-01 -6.936420248165503510e-01 2.936944416437873850e-01 -6.577266273733638480e-01
4.412044094231541008e-02 5.965330023041359037e-02 -6.860022676871831981e-01 -7.085783398173769454e-01 3.401129304794721087e-01 -6.182555546554480141e-01
3.885242777955232735e-02 6.554376276438257654e-02 -6.850244741425107753e-01 7.052286127730592602e-01 -3.418463264748054509e-01 6.211229288972249796e-01
1.672720403066304011e-03 -1.639970122607291581e-01 -7.553913235914327950e-01 -6.455568424815414375e-01 3.610703890416473438e-01 -6.729669659668116033e-01
5.371740112920694171e-02 6.467852629651414664e-02 -6.942373724424676373e-01 -7.086406803925375808e-01 3.403269888128913623e-01 -6.180662802469905071e-01
-7.219478656672378980e-02 3.332988266386173459e-02 -5.681777323794220402e-01 -6.820342974265265479e-01 3.503759294329079066e-01 -6.419236132188393951e-01
-4.032218470331712986e-04 -2.056023796843256257e-01 -7.796527151613660278e-01 -7.067221475857179414e-01 3.450064704903197388e-01 -6.176684721042858817e-01
-4.225903927558779388e-03 -8.641997795396541560e-02 -7.138888266553335971e-01 5.189919068921597933e-01 4.079168279629390437e-01 -7.511666007252277844e-01
1.246706907171125922e-02 -1.351764164835433935e-01 -7.642175164086009165e-01 7.078639977810068373e-01 -3.376727315098211335e-01 6.204076780957719084e-01
1.957008567058561577e-02 3.406539323616063208e-02 -6.719409191579693852e-01 -7.086249414244167877e-01 3.402241412571233026e-01 -6.181409435534058749e-01
4.174995355810170311e-03 5.451426310434038386e-02 -6.388815589177204712e-01 -7.078639977810068373e-01 3.376727315098211335e-01 -6.204076780957719084e-01
5.419623826900897730e-03 1.177939014717858390e-01 -6.121761096532386537e-01 -8.468536050158079753e-01 -2.456417966889203330e-01 4.716980807584116864e-01
-1.972598266157408065e-03 -1.213860255824989326e-01 -7.402365759111838583e-01 7.078639977810068373e-01 -3.376727315098211335e-01 6.204076780957719084e-01
-1.292223650896372547e-02 2.037000913851718664e-01 -5.497732853572446787e-01 7.114640881400439154e-01 -3.455149067292301313e-01 6.119136381181148332e-01
-2.228018964172592126e-02 1.311839602349965939e-01 -5.706044268023312549e-01 -7.081283281312147349e-01 3.398661520786841472e-01 -6.189065111705638333e-01
-1.180255704196411098e-02 -3.837470964059674916e-02 -6.757755599136167080e-01 -7.069459133368586334e-01 3.412635276343246593e-01 -6.194890477828410846e-01
-3.303631591594214517e-02 1.590138395568121421e-01 -5.429945188364939668e-01 -7.047621863643168671e-01 3.423879905603839369e-01 -6.213539446973924685e-01
-4.941487769052299583e-02 1.262127385876909424e-01 -5.507878245942611217e-01 7.135723316439840369e-01 -3.406559092412966838e-01 6.121830437141765335e-01
-1.685451484092292951e-02 1.783012951193732321e-01 -5.507517717368236587e-01 -7.091702331069574816e-01 3.400939365365123201e-01 -6.175869937151545752e-01
-3.456812058763878391e-03 1.473183811721462122e-01 -5.831339966289759147e-01 -7.079889945570260190e-01 3.398636581139658497e-01 -6.190672640994067111e-01
-6.653722219938079663e-02 -7.086905989419241270e-02 -6.314341296322635300e-01 -6.940841494750487062e-01 3.452422272378490864e-01 -6.317080005662011333e-01
4.678862313179868102e-03 -1.326692366806309087e-02 -6.768973743771379281e-01 -7.472641610539145773e-01 3.201397791511857438e-01 -5.823287691754712725e-01
3.257679330615775512e-03 -3.095908656004593418e-01 -8.472780341469763332e-01 -5.181296226034378671e-01 -4.127835284362259549e-01 7.491004290697997892e-01
4.674628022865885690e-02 -8.624200115745984940e-02 -7.765119438366882010e-01 7.024922032861045107e-01 -3.391328230324150983e-01 6.256945202447429244e-01
-9.295165454007703592e-04 1.797225133090983029e-01 -5.769741864182649227e-01 7.075608533062757166e-01 -3.422005561887044855e-01 6.182688882780986717e-01
-1.806426353478905733e-02 -4.433484546037189111e-02 -6.679503044686628810e-01 -7.202661128534784130e-01 2.818603671178202541e-01 -6.338544471115966639e-01
6.868468547767173082e-02 -2.554630653611227042e-02 -7.678154036655028269e-01 6.639258734682139673e-01 -3.514139490472978355e-01 6.600838363075195447e-01
-5.561510883988714932e-02 -4.259440628559229810e-04 -6.050648310083286407e-01 -7.029545339179206209e-01 3.429474239664292989e-01 -6.230906736896558717e-01
1.343700929940537178e-02 2.185557925513585409e-01 -5.633589843815398623e-01 -7.078639977810068373e-01 3.376727315098211335e-01 -6.204076780957719084e-01
1.960749541341559165e-03 -2.076647448783525141e-01 -7.835115459789878667e-01 -7.089615422032568004e-01 3.439336227764260290e-01 -6.156973240161620620e-01
1.299070158275318632e-02 -3.473064044242778203e-02 -7.101447830330891442e-01 7.078639977810068373e-01 -3.376727315098211335e-01 6.204076780957719084e-01
-3.366669066366847346e-02 -5.988355046083223936e-03 -6.331338556324053179e-01 -7.070290033714509148e-01 3.409881147242736499e-01 -6.195458772426447602e-01
-8.699488029478567169e-03 -3.219747394421110243e-02 -6.759137975672251386e-01 -7.069459133368586334e-01 3.412635276343246593e-01 -6.194890477828410846e-01
5.215488796919228636e-04 -3.158748389645999605e-02 -6.960920139652401195e-01 2.326626978187160411e-01 -4.649348391636616840e-01 8.542269396217710975e-01
-3.013738981063288774e-02 1.634568952124350605e-01 -5.524872294578708765e-01 7.136208597108403273e-01 -3.393709584562364934e-01 6.128398005531761061e-01
1.524515353498303791e-02 1.515419220872261385e-01 -6.023192323877879506e-01 -7.134324853007886214e-01 3.390314161367704027e-01 -6.132469223647485368e-01
1.131664823842810919e-02 -1.239248430353399461e-01 -7.567809691299188790e-01 7.078639977810068373e-01 -3.376727315098211335e-01 6.204076780957719084e-01
7.212246403833484643e-02 3.115049539530592368e-02 -7.409292989121681883e-01 6.691681193140573969e-01 -3.532373253453536255e-01 6.537869837160635855e-01
2.000261243742385703e-02 -1.597440411167307950e-01 -7.859909738079743358e-01 7.013047465974764361e-01 -3.309521443745238600e-01 6.313812877602199558e-01
2.453201187272113434e-02 2.339305551307368017e-02 -6.835030339041007208e-01 -7.086736155881419030e-01 3.401562929778680910e-01 -6.181224821318062057e-01
-1.683270363773166356e-02 -2.037650380665035621e-01 -7.601165656187134356e-01 -7.032201740143155799e-01 3.475085054815627017e-01 -6.202573864753619937e-01
-1.237804351728115371e-02 -8.070476031325406197e-02 -7.062224997094450618e-01 7.078639977810068373e-01 -3.376727315098211335e-01 6.204076780957719084e-01
1.792662185881371481e-02 6.770688362107590841e-02 -6.600104289434698401e-01 7.083842719567989832e-01 -3.397920195705432800e-01 6.186542707202524749e-01
1.171388232318664596e-02 1.119763186977078967e-01 -6.286938020185228737e-01 7.078639977810068373e-01 -3.376727315098211335e-01 6.204076780957719084e-01
3.229524641145518210e-02 3.114590929734611588e-02 -6.881363952338842571e-01 -7.086901922502780726e-01 3.401922734388490022e-01 -6.180836743522443166e-01
-9.376357420219188750e-04 7.096588969823926923e-03 -6.632874095787352209e-01 -7.076022958340479896e-01 3.406181362947414692e-01 -6.190947230896747255e-01
-6.394171090514937095e-02 4.789042558692087684e-03 -5.928040659767583875e-01 -7.006380110331001942e-01 3.440085723445515664e-01 -6.251115737602725986e-01
-6.790715189758129468e-03 1.869754676768848600e-01 -5.575251389362461119e-01 -7.089420755745425851e-01 3.400027252245869103e-01 -6.178990858707542611e-01
-2.976887690328870739e-02 -9.165548269716902730e-02 -6.843555000172101277e-01 -7.078639977810068373e-01 3.376727315098211335e-01 -6.204076780957719084e-01
8.323225863562957322e-03 1.908051250628214901e-02 -6.672945687174210994e-01 -7.084804663105020994e-01 3.402153165900088094e-01 -6.183113837008128444e-01
-2.067527451027732777e-02 -7.353801573111909406e-02 -6.848700958176084930e-01 -7.078639977810068373e-01 3.376727315098211335e-01 -6.204076780957719084e-01
1.200116208913720034e-02 -1.396408639352116621e-01 -7.579857969278577245e-01 -7.078639977810068373e-01 3.376727315098211335e-01 -6.204076780957719084e-01
-6.553044418441053565e-03 -1.614323179823720089e-01 -7.568066610011736639e-01 7.078639977810068373e-01 -3.376727315098211335e-01 6.204076780957719084e-01
-6.124008384276289491e-02 -3.465474484481555900e-02 -6.251896739631557232e-01 7.119871969223174890e-01 -3.355021483069097754e-01 6.168569849650318293e-01
-2.586816733532304458e-02 -3.185287957133613179e-02 -6.561320300151468610e-01 -7.069346424181272015e-01 3.412731201707742135e-01 -6.194966253322602423e-01
6.443013216851309344e-02 -4.525768443975819455e-02 -7.668675371902726745e-01 -7.230359558062562364e-01 3.330824351956231388e-01 -6.052066572465035765e-01
4.170965730691619799e-02 -7.663762270260897347e-02 -7.656332180851039837e-01 7.038012527501488202e-01 -3.387798875334205873e-01 6.244133121820547583e-01
-5.961319868701781682e-02 2.788159479356618758e-02 -5.930252376613324161e-01 7.118743794388436852e-01 -3.359730269220903009e-01 6.167308919450763538e-01
-4.390261013934858812e-03 -1.261246909576461683e-01 -7.280055866019677913e-01 -6.980238362652232409e-01 3.419846356208660065e-01 -6.291337163154144818e-01
-4.598067417051104194e-02 6.585744772943694092e-02 -5.879258693759076282e-01 7.109975162089225975e-01 -3.393089125134191031e-01 6.159155736249114499e-01
4.920175902277452995e-03 -2.164518209566867468e-01 -7.871420530458022036e-01 -7.453081033061539351e-01 3.144329510446731146e-01 -5.879181494421834575e-01
-2.376609583120726718e-02 4.186292420307033413e-02 -6.181079838255949532e-01 -7.072655232892772759e-01 3.406528861345887171e-01 -6.194603221631872492e-01
-1.015061102100108664e-02 7.139863626827430872e-03 -6.527471256975356795e-01 -7.071057745018026752e-01 3.409077189863224389e-01 -6.195025026597944517e-01
-7.640873571425304926e-03 6.965768510121668478e-02 -6.296868401422328620e-01 7.075440500600825855e-01 -3.401205825677756089e-01 6.194347476032744382e-01
-1.164746635847779474e-02 6.204323895795125360e-02 -6.292929887215822360e-01 7.073553844423270398e-01 -3.402096377400486982e-01 6.196012931629764076e-01
-2.513002075916892508e-02 6.654873848028135253e-02 -6.114212625167468884e-01 7.074845117296068020e-01 -3.403250761923093948e-01 6.193904327461141612e-01
4.087905774076052573e-02 -1.479867480923709733e-01 -7.958001956615070593e-01 -7.299665406788413691e-01 3.415477366448638197e-01 -5.920253314530855571e-01
-4.505096850487778221e-02 -1.493148794298902460e-01 -6.983555713284665956e-01 -7.015861728513194118e-01 3.422473841042214526e-01 -6.250148559335658716e-01
1.184884116609564997e-02 2.954386121790787342e-03 -6.883309206096880351e-01 7.078639977810068373e-01 -3.376727315098211335e-01 6.204076780957719084e-01
3.625517274967189618e-02 5.646561029499012896e-02 -6.870528613349975444e-01 7.078639977810068373e-01 -3.376727315098211335e-01 6.204076780957719084e-01
-1.812070993375585609e-02 9.893143507069382392e-02 -5.930953751723846423e-01 -7.076703097272468712e-01 3.423565916043503354e-01 -6.180571955050718769e-01
5.252944640841271384e-02 -1.535803291934016886e-02 -7.445456451853309510e-01 7.035630169350520768e-01 -3.394330751904370835e-01 6.243270526478974514e-01
-1.854704750377044603e-02 5.284985427365807703e-02 -6.264631468202499498e-01 7.073381764257917759e-01 -3.402931823357681074e-01 6.195750593967054298e-01
-1.192655246580547057e-02 2.353944778897559473e-02 -6.500000616823101707e-01 7.078639977810068373e-01 -3.376727315098211335e-01 6.204076780957719084e-01
4.520857697471034747e-02 -4.551899766862612350e-03 -7.256554450068875006e-01 -4.297659510427269125e-01 7.325456605162998791e-01 5.278996898872725385e-01
4.340588116837794906e-03 -1.624429511603528720e-01 -7.574569658846682652e-01 -7.456630507618480230e-01 3.166094128948343522e-01 -5.862977864489359314e-01
5.866921030920756175e-02 1.554310249734861850e-02 -7.250154345190583660e-01 -4.360797464215495634e-01 -9.547230778304363619e-02 -8.948293095375770001e-01
-2.251405396042142903e-02 -8.220538796245241420e-02 -6.874895499944783106e-01 -7.078639977810068373e-01 3.376727315098211335e-01 -6.204076780957719084e-01
1.618831589736928131e-02 7.327402295697205137e-02 -6.514004453833974750e-01 3.797145053683944615e-01 -7.806820387980730747e-01 -4.963390461276644405e-01
-2.478987089470197427e-02 -3.451152236668288131e-02 -6.588271256635851447e-01 -7.069307788704343176e-01 3.412750176863826312e-01 -6.194999888529462151e-01
3.559285152716295392e-02 1.186721835978198913e-01 -6.437428470467363439e-01 -7.116696670651938561e-01 3.379623003253824920e-01 -6.158796705023572571e-01
6.659152516327168647e-02 1.300223042040140331e-01 -6.733147988849488286e-01 -7.217204664316110296e-01 3.336110788307352637e-01 -6.064843084657101091e-01
-2.254253606110613942e-02 6.197189714936484489e-02 -6.084564454591633309e-01 -7.074845117296068020e-01 3.403250761923093948e-01 -6.193904327461141612e-01
9.230111102624032147e-04 -2.214340623525336282e-01 -7.995435546158246032e-01 2.328844166611059863e-01 -4.655208211995191525e-01 8.538473010475245983e-01
-5.616867437495421528e-02 -4.607289910355497758e-02 -6.372547001677472123e-01 7.120250236629611651e-01 -3.355191915009633763e-01 6.168040513909580635e-01
-2.947033885550330579e-02 3.654532840727109377e-02 -6.229044169996166280e-01 7.078639977810068373e-01 -3.376727315098211335e-01 6.204076780957719084e-01
3.783368236115365602e-02 3.812980411406190207e-02 -6.988336179885921151e-01 7.078639977810068373e-01 -3.376727315098211335e-01 6.204076780957719084e-01
-2.445807948723259517e-02 -7.115916072118767810e-02 -6.872441542458309627e-01 7.078639977810068373e-01 -3.376727315098211335e-01 6.204076780957719084e-01
-2.038152938604148937e-03 7.767201566957082637e-02 -6.351931081870251239e-01 6.467454501079257234e-01 -3.643501543017949040e-01 6.700517053369500209e-01
6.491277469260774147e-02 -1.579166846374957522e-02 -7.586099127400297570e-01 6.938169751737071067e-01 -3.422928314124219495e-01 6.336036793804742384e-01
5.856717142160615744e-03 -7.902386379167992969e-02 -7.174910602407689186e-01 -8.536205143973149001e-01 -2.490160444538567219e-01 4.575183351567652656e-01
7.811648255954870002e-02 5.067439233982799079e-02 -7.309627162005560841e-01 -8.010994027746073387e-01 2.879123526980268966e-01 -5.247344319158543380e-01
-6.393643806895749071e-03 5.335788377232413698e-02 -6.436547763825469781e-01 7.138068324224267069e-01 -3.094437002941065051e-01 6.282709625116800201e-01
-2.753078350482691949e-02 9.344583203089359968e-02 -5.853760849757643214e-01 -7.040131661431880961e-01 3.416283455070250885e-01 -6.226198964401769009e-01
6.012075345167662566e-02 1.111908366827401851e-01 -6.880963591278159708e-01 6.846247122675699348e-01 -2.967064212513240706e-01 6.657734621782239737e-01
3.136004128881408198e-02 -1.299156258834547606e-01 -7.747804084279984460e-01 -7.078639977810068373e-01 3.376727315098211335e-01 -6.204076780957719084e-01
2.595545079640660877e-02 1.954194344541307360e-01 -5.990572871223286411e-01 7.045227232488627811e-01 -3.460354714129780795e-01 6.196024410458729204e-01
-2.548847162486134188e-02 1.360831029408580140e-01 -5.642366704679944167e-01 -7.081940189354934967e-01 3.404174729840716007e-01 -6.185282334955556349e-01
5.214128105550814782e-03 -1.776611407460475800e-01 -7.727335332422526903e-01 -8.538434892028167189e-01 -2.525360392732853287e-01 4.551668318475338704e-01
3.477466972795264372e-02 -1.712308603243078986e-02 -7.148022647818632613e-01 -7.490764600286513586e-01 6.381917361489439777e-01 -1.777519759162773383e-01
2.486253832702008115e-02 -8.966195185536679491e-02 -7.456030511456704923e-01 -7.078639977810068373e-01 3.376727315098211335e-01 -6.204076780957719084e-01
5.370526289344930426e-03 -3.613476790165114361e-01 -8.646770382973303359e-01 -7.571675428985165102e-01 3.085005970458685742e-01 -5.757818107611297753e-01
4.317726579100176348e-02 -7.745391347044471020e-02 -7.675759241922798237e-01 3.955920851580552733e-01 -7.568316418586336081e-01 -5.203006515870101101e-01
-5.285482074193383062e-02 -1.309850868498771137e-01 -6.763674260104136637e-01 -4.329297290711068280e-01 8.080966248165961652e-01 -3.994392252226158235e-01
-6.424292059042785441e-02 -1.262400578273555340e-01 -6.645614952622458382e-01 -6.756259991409925281e-01 3.620873249584137810e-01 -6.422011198909542973e-01
5.179847017727913505e-02 1.910561766964633257e-01 -6.301546514796115828e-01 6.485134547660775794e-01 -4.058552548956577133e-01 6.439812194939751322e-01
-3.486579648347339078e-02 1.116947259365072137e-01 -5.669946946109412078e-01 -7.042834777213965447e-01 3.440105494228876681e-01 -6.210004226201606414e-01
5.753089362842066928e-02 1.163989927323280105e-01 -6.702095822765616884e-01 -7.124958625235497944e-01 3.377705871071607358e-01 -6.150290044966223446e-01
2.058086442134152150e-02 1.530902056070100048e-01 -6.075818042036006394e-01 -7.076419761512302564e-01 3.399355478127747965e-01 -6.194244561865559495e-01
-3.550157000101154814e-02 8.594163994026488007e-02 -5.889750932572296316e-01 7.115212690382901606e-01 -3.387606223428424879e-01 6.156124791263015705e-01
1.068510282627687866e-02 2.123358705824254788e-01 -5.720541454662114722e-01 7.041288723163792174e-01 -3.490299359793420653e-01 6.183693353981261076e-01
-2.558129164103253254e-03 -4.547809692450692151e-03 -6.794345616691895851e-01 6.449666892265559781e-01 -3.653338497885367242e-01 6.712295791953912794e-01
-8.981633244341799549e-03 -1.353062763362518524e-02 -6.735364498251694698e-01 7.078639977810068373e-01 -3.376727315098211335e-01 6.204076780957719084e-01
5.085048673067650571e-02 -1.041881523879439608e-01 -7.906849345809674467e-01 6.833833101701867196e-01 -3.335686910139648020e-01 6.493990912805994720e-01
3.280818901703452806e-02 1.642377644504955936e-01 -6.283786193825990907e-01 6.984590942229284005e-01 -3.447557212876106170e-01 6.271350622766564964e-01
-1.328679765193256299e-02 1.729390330477638665e-03 -6.521447979184711308e-01 -7.071057745018026752e-01 3.409077189863224389e-01 -6.195025026597944517e-01
-4.622433238381939286e-02 -4.053996390699688562e-02 -6.341490890948211501e-01 -7.425006477244100456e-01 -2.423288119740913960e-01 -6.244754078553108601e-01
3.985327180114580509e-02 -1.083088415335596300e-01 -7.727720170240088837e-01 -7.123564997796733023e-01 3.366354885238357908e-01 -6.158122807219507111e-01
-2.337265447216006764e-02 -9.404680712340173290e-03 -6.548711334625597624e-01 7.078639977810068373e-01 -3.376727315098211335e-01 6.204076780957719084e-01
6.086973965080081511e-02 1.363222257155828621e-01 -6.631478709637929070e-01 -7.124448963247012045e-01 3.374423858696636302e-01 -6.152681577324433659e-01
6.076069997401401662e-02 1.495026869179228168e-01 -6.636038356240345770e-01 6.933891130701497207e-01 -3.492841926911816608e-01 6.302476422898072306e-01
-3.348063166386960887e-02 1.595346132774790038e-01 -5.507662274195332941e-01 7.136208597108403273e-01 -3.393709584562364934e-01 6.128398005531761061e-01
