-3.050822818609727483e-02 -9.790581212793525445e-02 -8.446325714938325291e-01 -1.057801462927621672e-01 -6.314045117487536718e-01 -7.682049877432455265e-01
4.885276865350778736e-02 -8.393738179446670611e-02 -7.666797375933477321e-01 -6.493845085746945411e-01 -3.385836375640915441e-01 6.809264867789109887e-01
2.872820145229676089e-02 -1.280382616050946831e-01 -8.003633829277914113e-01 6.466727309337106933e-01 3.367625187349930216e-01 -6.844014794270977253e-01
-1.231124575202068028e-02 2.342259461144623970e-03 -7.815145526993373393e-01 -6.454260266250922973e-01 -3.403644210346959409e-01 6.837962452724217766e-01
-1.902974152146800699e-02 1.581467409346312969e-01 -7.100367576960271432e-01 -6.451392041472757688e-01 -3.430979979466885488e-01 6.826999129025826951e-01
-6.109330485786347575e-02 -9.450118490862459419e-02 -8.686907497029758840e-01 6.551306721399474675e-01 3.401384482269263487e-01 -6.746181426994380947e-01
4.415955160878751173e-02 -1.046316856824202196e-01 -7.814414609721922478e-01 -6.496524804826016020e-01 -3.383299906148405367e-01 6.807969389277283012e-01
-2.100034171634734825e-02 -7.225255643625920488e-02 -8.196015123578442862e-01 6.454260266250922973e-01 3.403644210346959409e-01 -6.837962452724217766e-01
-2.883430204415342660e-02 1.518629154594204611e-01 -7.145413605601247387e-01 6.451351553367055125e-01 3.428390157393590987e-01 -6.828338309102386372e-01
-3.638494353935878278e-02 1.453826063484217335e-01 -7.249469615979849957e-01 6.496607352101815280e-01 3.434378279164054804e-01 -6.782266490504688106e-01
2.828452773195641937e-02 2.204411658450155728e-02 -7.258727039624828237e-01 6.446528630785451908e-01 3.433985113601098482e-01 -6.830081613863009382e-01
-5.787246088252060404e-03 2.354371157238965145e-02 -7.543516915594146166e-01 9.413062832627622223e-01 1.560174828007030168e-01 -2.993343050012419182e-01
-4.322111650709045683e-02 1.415561822996691706e-02 -8.048009369442944427e-01 -6.417727658425528281e-01 -3.417033718750230320e-01 6.865613757502234682e-01
6.984408966764991955e-02 5.423661941628494382e-02 -6.812575403108960259e-01 -6.674427707135198728e-01 -2.807551263657575014e-01 6.897076966669339892e-01
1.514977238092163163e-02 -4.228187841473338843e-02 -7.810812754377752798e-01 -6.623308999985776380e-01 -2.833023068088021401e-01 6.935831470443075686e-01
-2.797213202656706477e-02 -7.169195309429475527e-02 -8.259030466471323217e-01 6.454260266250922973e-01 3.403644210346959409e-01 -6.837962452724217766e-01
3.533658925470332945e-02 -1.873811827295455701e-01 -8.305922974779176293e-01 -6.546105514585477403e-01 -3.253120432687363617e-01 6.823907241628184295e-01
-1.229164630238771885e-02 -4.061437878386156553e-02 -7.920181769076221068e-01 6.796023264267360142e-01 3.990363986026961851e-01 -6.155571707855885810e-01
-9.315416855120680836e-03 9.953248819510740475e-02 -7.301780001555975286e-01 -6.454260266250922973e-01 -3.403644210346959409e-01 6.837962452724217766e-01
4.136596176216816509e-03 1.254088096978722700e-01 -6.987884873370764360e-01 -6.057113937432139217e-01 4.749607790334796076e-01 -6.383776044548895579e-01
-8.286145841341157302e-04 -2.747743242894585269e-01 -8.968096654488991737e-01 1.625185838562439034e-01 4.324113571770754616e-01 -8.869093122104654281e-01
4.669554776551825687e-02 1.210560023355895104e-01 -6.663885831201182830e-01 -6.499756291482475801e-01 -3.391492832456282636e-01 6.800804696411421046e-01
-6.825749553227340727e-02 -4.200278051553099634e-02 -8.493080003866827488e-01 6.609746873229250808e-01 3.375241855338715902e-01 -6.702162985917742288e-01
-3.156256667197704369e-02 -3.105892605439196721e-02 -8.090666325312679819e-01 6.454260266250922973e-01 3.403644210346959409e-01 -6.837962452724217766e-01
9.202373228261578062e-05 8.492747262280286868e-02 -7.208887987904352146e-01 6.452619748646898357e-01 3.445639775941947147e-01 -6.818450330817025229e-01
-3.197731879769501878e-02 6.181605522153697796e-02 -7.628715021848863076e-01 6.461924618878898130e-01 3.428187984391362630e-01 -6.818435111050153985e-01
-4.737868326044052114e-02 1.554415934435427193e-01 -7.380530895050461115e-01 -6.455273134235912647e-01 -3.431730344885559614e-01 6.822952117844864883e-01
-7.355106003479798191e-03 -1.746657572404553549e-01 -8.648359869141453160e-01 -6.437011025598028402e-01 -3.375740469913222630e-01 6.867988449038006094e-01
7.209726041421099518e-02 1.108326750150785689e-02 -6.972223677880503567e-01 -6.590231301077759118e-01 -3.354887600926217406e-01 6.731536272163025636e-01
-2.448764377751405652e-02 -8.612280629301387325e-02 -8.297971446434584397e-01 6.454260266250922973e-01 3.403644210346959409e-01 -6.837962452724217766e-01
2.068598570503921554e-04 -3.752915360339943718e-02 -7.895451602046843487e-01 -6.454260266250922973e-01 -3.403644210346959409e-01 6.837962452724217766e-01
3.420911947363924899e-02 -6.044750000365169823e-02 -7.616139983285231674e-01 6.454260266250922973e-01 3.403644210346959409e-01 -6.837962452724217766e-01
-2.081891414451942160e-02 1.332835232307106876e-01 -7.242076234186789474e-01 -6.455238234261373442e-01 -3.426836843938022570e-01 6.825444204149574423e-01
4.339622866242991844e-02 -1.616669797065146685e-01 -8.033290864337989667e-01 6.369647488173614258e-01 3.458933352199166089e-01 -6.889366512346966065e-01
2.707200579064651322e-02 6.176280782005412473e-02 -7.070541139639621164e-01 6.448297552312712844e-01 3.431005623002632565e-01 -6.829909156918722024e-01
-7.641086948554676184e-02 -1.017342007021226034e-02 -8.413707586917882342e-01 6.536161387700964998e-01 3.411614268068117739e-01 -6.755699993327194397e-01
2.884475988267258886e-02 1.438691916655825132e-01 -6.640059345603335217e-01 6.457835715555836353e-01 3.431890837754125734e-01 -6.820445964057683108e-01
-1.856474025497596020e-02 -1.944057562590240928e-01 -8.780829658324738052e-01 6.504919935220937477e-01 3.457550600274337249e-01 -6.762496616110635905e-01
-7.140124813904780154e-02 -2.609406142572480783e-02 -8.444244957666369178e-01 6.605938650151660374e-01 3.364561648984003006e-01 -6.711281506584154677e-01
4.127623846604716595e-02 -1.020382534253559265e-01 -7.756455322015939347e-01 6.454260266250922973e-01 3.403644210346959409e-01 -6.837962452724217766e-01
-7.856947627177082727e-02 6.698605830456133559e-02 -8.111099334716888043e-01 -6.056169786595690940e-01 -3.587297394791614802e-01 7.103105301010735895e-01
-6.856693401702072810e-02 -3.236382944964406178e-02 -8.515000263132358471e-01 -6.299962624720218951e-01 -3.441345510233018712e-01 6.961868427823622030e-01
3.632818964635723541e-02 -1.921415895531902451e-01 -8.252667540714598848e-01 6.294485836020992098e-01 3.584728397264111965e-01 -6.894140292884921584e-01
-1.116953879855210260e-02 2.049497863591670868e-02 -7.639297674137197625e-01 6.462835903233403734e-01 3.429405644453693003e-01 -6.816958927092523490e-01
-3.329190082450248639e-02 1.542523129752659296e-02 -7.874294034065227876e-01 6.454260266250922973e-01 3.403644210346959409e-01 -6.837962452724217766e-01
-7.135914736257779889e-02 1.306498102802441386e-01 -7.726960980263751777e-01 -6.316437584951336559e-01 -3.516678600056309945e-01 6.909094575942649197e-01
-7.668013758039850247e-02 1.341907778259081585e-01 -7.749332624857842022e-01 -4.661631579706602690e-01 -4.355888437900470866e-01 7.700352390095347443e-01
4.985328457062995072e-02 1.373961303808418355e-01 -6.475592470276900769e-01 6.396282338001636480e-01 3.445729298450347367e-01 -6.871282402460926475e-01
3.653262528046725272e-02 1.643467541729311809e-01 -6.542023226478932418e-01 -6.539536939683417982e-01 -3.419888231804447121e-01 6.748245779199324446e-01
-4.762290756756530630e-02 -1.108835475699341128e-01 -8.639398865203373745e-01 6.502651112963571123e-01 3.396972734892792500e-01 -6.795300195095770324e-01
-6.868940081889575444e-02 -6.808196172262111212e-02 -8.668029907622447627e-01 3.740912389514572389e-01 -8.315932497731971518e-01 4.104977611040242502e-01
4.222933239978211850e-02 -6.517786245714936311e-02 -7.636430573146667511e-01 -6.454260266250922973e-01 -3.403644210346959409e-01 6.837962452724217766e-01
4.492589232497003378e-03 -1.916455382927423623e-01 -8.547043696516637423e-01 6.454260266250922973e-01 3.403644210346959409e-01 -6.837962452724217766e-01
-6.050099495244589450e-04 -3.859184726967475054e-01 -9.636650391700878338e-01 8.140618890965255205e-03 7.964929159614260179e-01 6.045930574753042297e-01
4.956746333716818831e-02 1.585063204267288597e-02 -7.089014264247587294e-01 6.445768842721468772e-01 3.437694260941539515e-01 -6.828932727336736175e-01
-9.468630396016457923e-04 1.413527605597896530e-01 -6.933604519750399264e-01 6.455673555163746746e-01 3.443830623634531185e-01 -6.816473397943872969e-01
-2.376397141666537066e-02 2.279036785475413163e-01 -6.778653054344671025e-01 -5.289919113385176397e-01 -5.122114167701671272e-01 6.766143822508653427e-01
-1.653975812401670131e-02 -5.260724340601524024e-02 -8.056126342290962361e-01 6.454260266250922973e-01 3.403644210346959409e-01 -6.837962452724217766e-01
3.623580091327434360e-02 -1.080081878693867486e-01 -7.906193682435225245e-01 -6.454260266250922973e-01 -3.403644210346959409e-01 6.837962452724217766e-01
-1.019150752811592668e-02 2.127965584963592560e-01 -6.739146540604589175e-01 -6.414295804570028237e-01 -3.516279885100230262e-01 6.818547140052260147e-01
-5.809468349783537128e-02 -7.379955889690269222e-02 -8.657115126684109541e-01 -6.852700661781585545e-01 -6.843946961633491366e-01 2.490157349720277802e-01
6.242078191813481280e-02 -4.009011649418697809e-02 -7.345353650101702492e-01 -7.026358410177809821e-01 1.977076274247372978e-01 6.835309568522242030e-01
6.334178788623326395e-02 1.331774406717424475e-01 -6.401275471527232419e-01 -7.053129217583036237e-01 -7.805172844562638379e-02 -7.045861268059536719e-01
-4.877437599564164727e-02 1.656829092139266157e-01 -7.228038598813291138e-01 6.550751051476854103e-01 3.328842442482324859e-01 -6.782806841913102680e-01
4.447226846387738325e-02 1.360899330960745612e-01 -6.504503938609148550e-01 5.424344890657030183e-01 -5.939722247989875914e-01 -5.941059006939508613e-01
2.458133312775885593e-02 -1.480198425359497139e-01 -8.215359470586605095e-01 -6.454260266250922973e-01 -3.403644210346959409e-01 6.837962452724217766e-01
-4.397394128946000708e-02 3.597879935639364257e-02 -7.872399361954276475e-01 6.462712605102008956e-01 3.430721632685245770e-01 -6.816413636427963718e-01
5.519554964184396340e-02 7.148066876242417655e-02 -6.831449863196258354e-01 -6.488164735713686238e-01 -3.422872834354002691e-01 6.796150375181729819e-01
-6.289546337402567022e-02 1.271433498113866967e-01 -7.593941792237225430e-01 6.503825106955585245e-01 3.405027153552717678e-01 -6.790143522908985707e-01
-3.150110653360629204e-02 -1.566025624470188116e-01 -8.784905570757992610e-01 -6.360395447204912900e-01 -3.323046782955986767e-01 6.964390126454782504e-01
-6.304599386575136799e-02 8.816964840173535656e-02 -7.864274259729500116e-01 -6.372144843878355669e-01 -3.470726498245524372e-01 6.881121105096965618e-01
-2.160292131243423969e-03 -1.502601252253364661e-01 -8.404714711999158316e-01 6.450132410373262681e-01 3.375026237179853950e-01 -6.856018508361833019e-01
4.041130235703654233e-02 1.275963579023113303e-01 -6.657122795780596736e-01 -3.742448946412161304e-01 8.413768215586748811e-01 3.899048640101926977e-01
-4.922685461787069082e-03 -2.754626668067205464e-01 -9.007956207694611805e-01 6.849130152441313957e-01 3.176285445226650350e-01 -6.557486326738362070e-01
2.043553136288502048e-02 -1.342415700978329685e-01 -8.185908806373353164e-01 -6.454260266250922973e-01 -3.403644210346959409e-01 6.837962452724217766e-01
8.037257468916522707e-02 3.224441925207763293e-02 -6.724202854018884734e-01 5.327280741519884177e-01 3.713803669569743504e-01 -7.604455418037617820e-01
-6.203407500327749041e-02 4.061116655759536113e-03 -8.168697768227493050e-01 6.630137156527073916e-01 3.842683230013681506e-01 -6.424567446872256893e-01
5.206961567440961808e-02 -1.517942917184026963e-01 -7.972734091533270062e-01 -6.521410463821555314e-01 -3.362203639799429267e-01 6.794614944710126725e-01
-5.813903295831084062e-02 4.616206425860822776e-02 -7.955459193369978088e-01 6.462666942363818334e-01 3.431331534078468914e-01 -6.816149931986282828e-01
4.434797685260195681e-03 1.176487725251185584e-01 -7.081755433310391590e-01 -6.454243312995469051e-01 -3.424154078277830693e-01 6.827731109590254865e-01
7.846177612350360708e-03 -8.757339924781186447e-02 -8.072443889934108885e-01 -6.454260266250922973e-01 -3.403644210346959409e-01 6.837962452724217766e-01
-1.806631768537481780e-02 1.939641036976875732e-01 -6.830777454708302221e-01 6.440025539966323098e-01 3.440068516793772235e-01 -6.833154443179649817e-01
-2.142404459664477585e-03 -1.559545793354921162e-01 -8.514960418083303839e-01 5.894836370679765736e-01 -3.618624159598726187e-01 7.221943184107684210e-01
-7.876081238477250501e-02 -3.231891395881991702e-02 -8.550889775191532483e-01 7.634511746890579875e-01 3.146724397101276494e-01 -5.640244316984622808e-01
6.988599093129829742e-02 -3.590727537404384689e-02 -7.158107919995060353e-01 6.372710191515651434e-01 3.469338639989575368e-01 -6.881297422436255529e-01
5.953810079344707372e-03 -1.442415141500848208e-01 -8.369277477204561944e-01 -8.976123225115920645e-01 1.949846188732944630e-01 -3.953139472345765237e-01
6.817322540149636616e-03 6.012687881968265674e-02 -7.364311609516230872e-01 -8.735184427154559783e-01 -2.367225459736047866e-01 4.253562817964949283e-01
-2.357385428656932902e-02 -5.309054421666328100e-02 -8.124925888504070937e-01 6.454260266250922973e-01 3.403644210346959409e-01 -6.837962452724217766e-01
-2.212297658662098175e-03 -3.718163419758419574e-01 -9.451289086663881012e-01 5.883907305086731876e-01 3.564621838407601162e-01 -7.257623989591538427e-01
-1.306683263991341611e-02 -2.641049328600508783e-02 -7.991707032454025139e-01 -7.042348570726413293e-01 -6.714303898091880107e-01 2.307260230761980502e-01
-6.394660847789196412e-02 -1.244914750121997073e-02 -8.373868164989765051e-01 -6.408412244944043934e-01 -3.417344960883390015e-01 6.874154923856177213e-01
-2.594772769282038122e-02 -1.088191253976749234e-01 -8.389678686091602833e-01 6.304129583456486996e-01 2.944483554424694449e-01 -7.182476369102182012e-01
-7.013153809804192895e-02 1.675136231970708323e-01 -7.478044973801066808e-01 7.295763718945511567e-01 -5.397666760635639882e-01 4.199645853931914807e-01
7.775325191312107420e-02 -9.522392872685141174e-02 -7.412086167785165713e-01 -7.509817391637192419e-01 4.462341358521913492e-01 -4.867253059405104998e-01
-5.613169956305457536e-02 1.454653536414909631e-01 -7.437277749540943672e-01 6.506703821198310811e-01 3.402750618675110528e-01 -6.788526615570529277e-01
6.814073723744029469e-03 1.313310930716065916e-01 -6.871387074455602706e-01 6.454260266250922973e-01 3.403644210346959409e-01 -6.837962452724217766e-01
-1.907122764433837048e-02 -1.260036302370194095e-01 -8.517802832064899077e-01 -6.454260266250922973e-01 -3.403644210346959409e-01 6.837962452724217766e-01
-3.548031383498210373e-02 1.821406477819307868e-01 -7.133916375839198798e-01 -6.431902581166675237e-01 -3.473092682686869104e-01 6.824093815580818401e-01
3.837699167199092737e-02 -1.459135545979316495e-01 -8.001294981320001831e-01 6.401519706523086661e-01 3.432007017579174479e-01 -6.873272384991289119e-01
5.442047960404800162e-03 -2.373853886343342892e-02 -7.806422130500765277e-01 -9.401266260904835859e-01 -1.567359631731135849e-01 3.026479221206063164e-01
-1.843712778992060569e-02 -1.629809466820346109e-01 -8.621808436190516733e-01 6.495816142173428398e-01 3.355386985189149351e-01 -6.822444637129888578e-01
-5.503147406408696873e-02 -8.509537682733540886e-02 -8.547625215236743790e-01 6.302678657000740925e-01 2.945264602579645841e-01 -7.183429415493600700e-01
3.120105181132077840e-02 1.804298673531952724e-01 -6.434067313861608906e-01 6.366156885244833585e-01 3.365601311446306254e-01 -6.938643550784312497e-01
-4.822706649248198474e-02 1.307745957517761903e-01 -7.436050486983522001e-01 6.455235502928361457e-01 3.430653992483649328e-01 -6.823528983274655957e-01
4.812561379083119852e-03 1.310281118453394678e-01 -7.044986112752342766e-01 -6.878336590433035136e-01 -2.886586043626119258e-01 6.660038045045459931e-01
1.902632816737905019e-02 -6.434216040487376886e-02 -7.851280825453214041e-01 -6.454260266250922973e-01 -3.403644210346959409e-01 6.837962452724217766e-01
2.699200406507572259e-02 1.964938129495631680e-01 -6.468124092006759529e-01 -6.562411877076808064e-01 -3.527779923161426523e-01 6.670046414331793905e-01
-1.696095235104765064e-02 2.114493019370560292e-02 -7.765441854209127470e-01 -6.454260266250922973e-01 -3.403644210346959409e-01 6.837962452724217766e-01
-4.644659334939183794e-03 1.408678260536951055e-01 -7.086187317214480696e-01 -6.454260266250922973e-01 -3.403644210346959409e-01 6.837962452724217766e-01
3.706522830970598176e-02 6.188081138756376665e-02 -7.051464933663631474e-01 -6.485001076344976134e-01 -3.418479300089439232e-01 6.801379295015426152e-01
-1.629859519774234716e-03 -6.313582299356985950e-02 -7.967800576251149458e-01 6.454260266250922973e-01 3.403644210346959409e-01 -6.837962452724217766e-01
4.927647705139542866e-02 1.330235742772917784e-01 -6.579120924857571051e-01 -6.505001840699394799e-01 -3.428935752867460218e-01 6.776972086057663214e-01
3.895913148509466684e-02 -7.936977233474672155e-02 -7.665492212271431960e-01 6.454260266250922973e-01 3.403644210346959409e-01 -6.837962452724217766e-01
-9.490151187613331610e-03 8.607968406618356216e-02 -7.293858600524721902e-01 6.460746452314012345e-01 3.443420404995860551e-01 -6.811872811009470619e-01
1.674475143919518585e-03 2.013472842765633986e-01 -6.685545621597360766e-01 -6.460047073921536542e-01 -3.457998807399530472e-01 6.805147761124751282e-01
5.596852108569268409e-03 1.024260747991579540e-01 -7.176240897353338699e-01 -9.481094324814256513e-01 -1.416780049424201937e-01 2.846328283162091743e-01
8.301911884964878474e-02 1.791584693152062716e-02 -6.827299441096992272e-01 -7.752157943837070242e-01 -2.887123538907926945e-01 5.618591005304406361e-01
-6.987869249124738051e-03 1.935904534462291049e-01 -6.697436183320949477e-01 9.459609243524743638e-01 1.527672207698118345e-01 -2.860421400012238546e-01
1.219459112218075104e-02 -1.292329299040455015e-01 -8.271057203034717364e-01 -6.590757804685606347e-01 -3.084726090632034512e-01 6.859036120749752996e-01
-6.202572493624504933e-03 1.741842668351087919e-01 -6.778780246811795251e-01 6.836619045702957420e-01 3.335688257755038966e-01 -6.491057222903429125e-01
-3.650130160294639409e-02 1.632175692182153415e-01 -7.153079318006032583e-01 -1.632596594703521198e-01 -7.278396213448050656e-01 -6.660298560802478951e-01
-6.562902874584033465e-03 -2.853149132718924008e-01 -9.113642279570145499e-01 9.004073837187817064e-01 -1.988788689686787348e-01 3.869285965426150775e-01
-6.167463720126439841e-02 -1.077180055618287904e-02 -8.344349985918535495e-01 -6.407773026899649116e-01 -3.418108528501939691e-01 6.874371165649961757e-01
-2.128501756157341693e-03 -2.366779123559990539e-01 -8.792261063336755944e-01 6.037783159036426150e-01 3.508790930184644274e-01 -7.157762271318467429e-01
2.397491856427007295e-02 1.439579319386092571e-01 -6.764969817641194316e-01 -6.457071973301673484e-01 -3.428841286028383450e-01 6.822702467998240650e-01
4.400727239492314979e-02 -1.285348403156784669e-01 -7.827992867833390989e-01 6.248849660517554749e-01 3.975823068891052303e-01 -6.718981235657930373e-01
1.309967629797928294e-02 7.740813737113441673e-02 -7.123926822029321704e-01 6.450423942724058390e-01 3.429264094316364364e-01 -6.828775785641578722e-01
4.600232313750086954e-02 4.920164281617031565e-02 -6.992403520339794953e-01 -9.223286495116690686e-02 9.926357920343109598e-01 7.853205075200692109e-02
6.192879575833259292e-02 -4.330122393641053918e-02 -7.277327653298978349e-01 -1.532039100553819200e-01 9.877948271744785291e-01 2.810589530836029096e-02
-2.127181452385551452e-02 -5.362397154242328629e-02 -8.105852418836723139e-01 6.454260266250922973e-01 3.403644210346959409e-01 -6.837962452724217766e-01
-4.463992887767943840e-02 -1.403792822302366572e-01 -8.758475386683129971e-01 6.552932002429052716e-01 3.414075868954898341e-01 -6.738187303167004760e-01
-2.482766491260781153e-02 -1.731895161029389438e-02 -7.957826438271207170e-01 6.464248297375969621e-01 3.432050211854608679e-01 -6.814288318906138731e-01
-4.627616614119576567e-03 -5.649685324679711018e-02 -8.035496639048613776e-01 -6.454260266250922973e-01 -3.403644210346959409e-01 6.837962452724217766e-01
2.394512530428977160e-02 -5.327539192948590324e-02 -7.677320760317692949e-01 6.454260266250922973e-01 3.403644210346959409e-01 -6.837962452724217766e-01
5.472585415076502112e-03 -2.308779459825671676e-01 -8.837256193795330894e-01 -7.066072880010604296e-01 -3.153856837091295606e-01 6.334335095770601276e-01
1.273650771610458643e-02 -9.956862316939164501e-03 -7.639942919251482278e-01 -6.454260266250922973e-01 -3.403644210346959409e-01 6.837962452724217766e-01
-1.060547663199222501e-02 -8.738321580013107270e-02 -8.245659906933543448e-01 -6.454260266250922973e-01 -3.403644210346959409e-01 6.837962452724217766e-01
5.909323159006256432e-02 1.154839165003897494e-01 -6.499403083048116425e-01 6.365536388755839159e-01 3.445191365963633512e-01 -6.900043690826525022e-01
3.758949888302488135e-02 7.934842435369826585e-02 -6.882636862971172054e-01 6.412859586936967560e-01 3.440786026369334616e-01 -6.858295957376888685e-01
6.113552515904527307e-02 -3.816414264536173440e-02 -7.251568525177969349e-01 6.409017805134756829e-01 3.422088748671104907e-01 -6.871229829490811403e-01
3.402875371925642711e-03 1.879073825678859860e-02 -7.509945555315442611e-01 6.447514687810985690e-01 3.435115355907539803e-01 -6.828582344972480289e-01
2.232743493838176482e-02 -1.476255554350000554e-01 -8.160907478874285248e-01 6.454260266250922973e-01 3.403644210346959409e-01 -6.837962452724217766e-01
-6.696784391849987250e-02 1.712601478852938952e-01 -7.471812559440962342e-01 -3.500023809957411025e-01 -5.382928345788865476e-01 7.666414791402429429e-01
-2.953852894419274275e-02 1.806030356314724528e-01 -7.006817376681577780e-01 6.485522431411108180e-01 3.441885363510767126e-01 -6.789066499609037741e-01
5.462508379274547826e-02 -1.072416086410708930e-01 -7.727532434163012498e-01 -6.494823059513215036e-01 -3.382394554213377091e-01 6.810042621396954488e-01
1.118492183099722634e-02 -1.973537051419195498e-01 -8.584052517748597122e-01 -6.504495610893159530e-01 -3.296125484288382479e-01 6.843032488575244709e-01
-4.386131831292254535e-02 1.808728187500133755e-01 -7.219318537212490172e-01 -6.403071140853238141e-01 -3.467316234448795664e-01 6.854078938522684128e-01
4.764660309424916668e-02 -1.505795318436105035e-01 -8.009146560550489680e-01 -6.502866168561129978e-01 -3.373707875621675401e-01 6.806675162203010832e-01
6.725268665726118200e-02 -5.028959321058881077e-02 -7.323920351926951344e-01 -6.499875956998238946e-01 -3.382905667116597459e-01 6.804965965456890586e-01
4.567333388086605023e-02 1.560146654209721429e-01 -6.420917810055828401e-01 6.401051344677268773e-01 3.455990587833994709e-01 -6.861681334746475569e-01
6.427671440552731874e-02 9.438379103752557453e-02 -6.556878828601921949e-01 6.374777901960707593e-01 3.440903975624807765e-01 -6.893648274404695631e-01
3.377154410434511644e-02 1.332970257137323367e-01 -6.607153589026810714e-01 6.454260266250922973e-01 3.403644210346959409e-01 -6.837962452724217766e-01
3.601957354686716878e-02 1.034167540016897174e-01 -6.853920707864966655e-01 -6.493623101876158099e-01 -3.417771356307169328e-01 6.793504100741127871e-01
1.126544647722378147e-02 1.301991710240191502e-01 -6.875060477453250884e-01 6.453336191874669003e-01 3.425890344599251680e-01 -6.827717579207723819e-01
-6.564478878133761346e-03 -3.632363999150616252e-01 -9.451267285690149178e-01 7.002556008630742568e-01 3.141353548588380340e-01 -6.410624558399958817e-01
-3.367768513232290151e-02 1.842183320451772077e-01 -7.028049599742052234e-01 6.491291497114607401e-01 3.422125351682297478e-01 -6.793540518526471894e-01
4.992335702846224105e-02 1.554044045573833577e-01 -6.385354648130083799e-01 6.239697782388249347e-01 3.394732827432287992e-01 -7.038605019093823190e-01
-5.940208350239964408e-02 -2.371965899838559752e-02 -8.317021854796828872e-01 6.500508964255818922e-01 3.389054097780375141e-01 -6.801301017301600860e-01
-3.912968500720291620e-02 -3.312359469022400915e-02 -8.244814946891769747e-01 -6.454260266250922973e-01 -3.403644210346959409e-01 6.837962452724217766e-01
-1.732725308462018362e-03 -2.184399256496575292e-01 -8.743298655417857113e-01 6.517398426409189982e-01 3.774181391435669219e-01 -6.578683194681118618e-01
1.106533629580210010e-02 -4.018569393657288324e-02 -7.806183029240071347e-01 -6.454260266250922973e-01 -3.403644210346959409e-01 6.837962452724217766e-01
-1.299823612721122401e-02 -8.029379951602265419e-02 -8.232956768807949688e-01 -6.454260266250922973e-01 -3.403644210346959409e-01 6.837962452724217766e-01
5.211601410866426726e-02 1.535642774091468266e-01 -6.375472276714042597e-01 5.930612504658072659e-01 3.296507142831252568e-01 -7.345806693403785781e-01
-2.147556072157091184e-02 1.896744658736722877e-01 -6.964604206212116067e-01 -6.490279924342987616e-01 -3.453730689153379219e-01 6.778496207159117048e-01
-3.219563467701955662e-03 -1.304285104157878739e-01 -8.390206272343351257e-01 -6.454260266250922973e-01 -3.403644210346959409e-01 6.837962452724217766e-01
4.582256014795917098e-02 2.159073788033853691e-02 -7.170595169303529692e-01 -6.490385469677216745e-01 -3.390549520882435441e-01 6.810218087656720876e-01
-4.471275595607424741e-02 1.523308008513604185e-02 -7.983050387084171806e-01 6.454260266250922973e-01 3.403644210346959409e-01 -6.837962452724217766e-01
4.798344922018771275e-02 7.316318526336676453e-02 -6.815734979284917561e-01 6.450334795771227592e-01 3.430106465686302841e-01 -6.828436911659944153e-01
-6.089145643879868147e-02 4.372464138275836132e-02 -8.065943293001995862e-01 -6.410096262279988411e-01 -3.419627205345128207e-01 6.871449314720120549e-01
-3.253027374778619946e-02 1.182064067983228661e-01 -7.349830831018383526e-01 6.461566151136054481e-01 3.447434035204782754e-01 -6.809064652902369064e-01
4.810030774091462319e-02 1.330419978621179555e-01 -6.513745023451761318e-01 6.396282338001636480e-01 3.445729298450347367e-01 -6.871282402460926475e-01
7.486500409698577940e-02 -1.104302620258345580e-01 -7.544519177294214396e-01 -6.933999197397685554e-01 -3.111625674171027978e-01 6.499033835450308549e-01
-2.132850905007420417e-02 1.572819803919185133e-01 -7.160248124216277432e-01 -6.793612895596091716e-01 -4.652943836381715492e-01 5.674234528133985656e-01
-4.048493617376443601e-03 -3.525013213929464873e-02 -7.851046516677624432e-01 6.457400798428140076e-01 3.434506929364032346e-01 -6.819540826229437691e-01
3.874540099904893314e-02 -1.520586552218494147e-01 -8.028547864442587834e-01 6.401519706523086661e-01 3.432007017579174479e-01 -6.873272384991289119e-01
4.801605886407851742e-02 -3.018148216804521222e-02 -7.334364204751879779e-01 6.417442954342041928e-01 3.418669918341776248e-01 -6.865065325049043432e-01
-2.857541191355899429e-02 -1.759964274007027596e-01 -8.849716855856707420e-01 -5.936166619415110812e-01 -3.045973046267983486e-01 7.448756545085276626e-01
1.065648294269701951e-02 -3.335338949176221146e-02 -7.702585746103890463e-01 6.444325123373534359e-01 3.439508845196266318e-01 -6.829381568493103627e-01
-4.166712147718459186e-02 -2.750824000426711768e-02 -8.240791840842941474e-01 -6.416005398006192628e-01 -3.416199039750051347e-01 6.867638520886656384e-01
-2.288129070012405453e-02 6.301229655257960249e-02 -7.612925347630326023e-01 -6.454260266250922973e-01 -3.403644210346959409e-01 6.837962452724217766e-01
-6.320516780326536355e-02 1.031673026277829253e-01 -7.790106509542216173e-01 -6.408475304914025283e-01 -3.426545888283817898e-01 6.869514359966967243e-01
2.495186023464702335e-02 1.852974140098635480e-01 -6.546676671311570939e-01 -6.417766716652997250e-01 -3.481034453734116463e-01 6.833349800978804067e-01
3.392842551106834553e-02 -1.837899043143526590e-01 -8.232045409511551393e-01 6.384525806134646597e-01 3.442928883839583287e-01 -6.883608859575321981e-01
2.348796031051009897e-02 1.270943713795908425e-01 -6.784170994937427368e-01 -8.806594666923645010e-02 9.923360838631448688e-01 8.668036513772128804e-02
8.579135885518077154e-03 -5.886406228687983411e-02 -7.922622839149472407e-01 -6.454260266250922973e-01 -3.403644210346959409e-01 6.837962452724217766e-01
-3.227710659473891682e-03 -1.248765319420091502e-01 -8.288884166860730485e-01 6.454260266250922973e-01 3.403644210346959409e-01 -6.837962452724217766e-01
-6.284198472233656907e-02 1.156415839096019554e-01 -7.724496126218080017e-01 -6.408475304914025283e-01 -3.426545888283817898e-01 6.869514359966967243e-01
-7.346551216154580122e-02 -5.418259044721649570e-02 -8.606405819168866378e-01 6.776888253569868237e-01 3.342424303142098041e-01 -6.549960715637294095e-01
5.701720722128276325e-02 -1.124665456028931393e-01 -7.660468495238164088e-01 6.401915187232737336e-01 3.430780174534250881e-01 -6.873516518457024604e-01
5.062698920692036697e-02 3.927613930849251089e-02 -6.961658720076082663e-01 6.417397974898441104e-01 3.415451202131689623e-01 -6.866709278659364202e-01
-4.132363831120944297e-02 -4.888726812767615199e-02 -8.271541594766186334e-01 6.454260266250922973e-01 3.403644210346959409e-01 -6.837962452724217766e-01
-1.993604544743201451e-02 1.200220748259130665e-01 -7.300038310532348529e-01 -6.454260266250922973e-01 -3.403644210346959409e-01 6.837962452724217766e-01
4.436209012991949516e-03 2.158319276655898677e-01 -6.508783125650080548e-01 6.454260266250922973e-01 3.403644210346959409e-01 -6.837962452724217766e-01
-3.513371148521853699e-02 -1.006456641600556867e-01 -8.470159808846884353e-01 6.442960003906693656e-01 3.375488367042634996e-01 -6.862531943242125010e-01
5.858403555322798904e-03 -3.152335545444490128e-01 -9.249826284082675043e-01 -9.463070856971377287e-01 -1.453807484685667728e-01 2.887340255912168585e-01
-3.416976052710372219e-02 -5.514902059669039803e-04 -7.962105295180900155e-01 6.454260266250922973e-01 3.403644210346959409e-01 -6.837962452724217766e-01
4.750055838115332940e-02 -1.193848284363460688e-01 -7.867368242740645501e-01 1.060705452040409946e-01 -9.938201474381650469e-01 -3.271932129646994841e-02
1.135093155891223927e-02 8.199680855483948427e-02 -7.193998220879874728e-01 -6.454260266250922973e-01 -3.403644210346959409e-01 6.837962452724217766e-01
6.053810188577279927e-02 3.737307378207449515e-02 -6.878485121194587437e-01 6.447229472699467223e-01 3.436536791115296086e-01 -6.828136422895074720e-01
-4.157805089112241725e-02 -1.648927814223736729e-02 -8.185126253290436749e-01 -6.454260266250922973e-01 -3.403644210346959409e-01 6.837962452724217766e-01
-7.045898462163232255e-03 -3.851143097067279836e-02 -7.993905613493772488e-01 -3.777739303933915771e-01 9.781659205362185083e-02 9.207164448591893535e-01
6.600540621351970449e-02 -2.967412728792177216e-03 -7.029573251931733324e-01 6.410096262279988411e-01 3.420725696119090720e-01 -6.870902533162197567e-01
6.576765804284742667e-02 2.998910313928643614e-02 -6.866269691844634204e-01 6.447229472699467223e-01 3.436536791115296086e-01 -6.828136422895074720e-01
-7.032202976493471570e-03 1.391469117676305822e-01 -7.002342569860533494e-01 6.451736347906290581e-01 3.445492409440750747e-01 -6.819360685107583864e-01
2.855659592164348087e-02 -1.962813418719188492e-04 -7.368065551997964313e-01 6.445238366939081143e-01 3.436762324558358395e-01 -6.829902423741694983e-01
7.078717626177752353e-02 3.684394962024309383e-02 -6.785423434876375337e-01 6.306754757441057624e-01 3.477539466939389423e-01 -6.937691524230051865e-01
1.171717148951457316e-02 6.106119298950547780e-02 -7.219076719429348143e-01 6.450423942724058390e-01 3.429264094316364364e-01 -6.828775785641578722e-01
-6.302963450998497197e-02 7.516597446387886239e-02 -7.929331781192320294e-01 -6.410664086031797604e-01 -3.422335485859382964e-01 6.869571005404174757e-01
2.400165039701869507e-03 -5.300270389486956557e-02 -7.868291706116578021e-01 -5.949553856904391536e-01 5.172358897908235775e-01 -6.152195732827717700e-01
4.948549203676150254e-02 -1.302397786098691279e-01 -7.871823152327213080e-01 -3.989548941956596040e-01 8.500038156680419510e-01 3.439891070180848831e-01
5.926796602193418195e-02 -3.616769887876664091e-02 -7.259044933533311816e-01 6.409017805134756829e-01 3.422088748671104907e-01 -6.871229829490811403e-01
-3.710971428148489987e-02 -1.143671026623653691e-01 -8.629884126376625719e-01 -6.401519706523086661e-01 -3.414716801047076866e-01 6.881878712651318120e-01
-5.585065196084535583e-02 -1.083925129939949800e-01 -8.705992229861638787e-01 6.515452139757555994e-01 3.399357850990564756e-01 -6.781832319914544716e-01
-1.686905618174837362e-02 2.910283856852851139e-02 -7.724963406496184737e-01 -6.454260266250922973e-01 -3.403644210346959409e-01 6.837962452724217766e-01
5.461651880790079072e-02 -1.417036974025049634e-01 -7.898379619664449569e-01 -6.514965834464769845e-01 -3.361782988513052906e-01 6.801002522709502784e-01
-5.606625722796157452e-02 -8.200110065506190093e-02 -8.674099187532174904e-01 -3.739209887231461638e-01 1.215824877323168074e-01 9.194567922796188508e-01
-3.304696700595316505e-02 -7.850345260847339801e-02 -8.340835868354105065e-01 6.454260266250922973e-01 3.403644210346959409e-01 -6.837962452724217766e-01
-3.840583493281579663e-02 -3.584324578739905148e-02 -8.179073298888328569e-01 6.454260266250922973e-01 3.403644210346959409e-01 -6.837962452724217766e-01
8.068985065368197707e-02 2.443045117465108065e-02 -6.760141423820352768e-01 5.327280741519884177e-01 3.713803669569743504e-01 -7.604455418037617820e-01
-6.199838628085948752e-03 -1.729798091817347783e-01 -8.534412448665223971e-01 9.494855181380245090e-01 1.354268284887834572e-01 -2.830844838058714785e-01
4.078478795599228823e-02 -1.217129572409450938e-01 -7.931472868630893291e-01 -6.454260266250922973e-01 -3.403644210346959409e-01 6.837962452724217766e-01
-1.902455013560654454e-02 1.424789983625057432e-01 -7.151200994114366161e-01 8.806594666923642234e-02 6.674063331747114303e-01 7.394681706980613667e-01
3.861214404115041309e-03 -7.200436220685019206e-02 -8.064313616219278558e-01 -7.082885364241092718e-01 -3.145639206908557584e-01 6.319627275162597035e-01
-5.235894319007682041e-02 1.402350686249179655e-02 -8.134079887848422175e-01 -6.417442954342041928e-01 -3.416209414935519328e-01 6.866290058035096067e-01
-3.723489945173976551e-02 -1.424376288806454283e-01 -8.768980276032427579e-01 -6.365372062623972926e-01 -3.383805457115402482e-01 6.930504969535933313e-01
-4.959992328139044282e-02 -8.369189805110076319e-02 -8.594044112097575239e-01 -6.410415303448643298e-01 -3.411810309685852638e-01 6.875036439760356943e-01
-5.846634622274141796e-03 2.169954559779121439e-01 -6.636921640324425775e-01 5.849486687413524288e-01 -3.683479664578521717e-01 7.226028165901960953e-01
-3.550137657827284743e-02 1.653584152388745399e-01 -7.258148308038260277e-01 -6.487738137582985676e-01 -3.382044450923904488e-01 6.816966274680115179e-01
-2.387602020070280634e-02 1.352805666709669674e-01 -7.181780624325581064e-01 6.455232223847182649e-01 3.426691053302397538e-01 -6.825523083355755638e-01
-2.208334093347883928e-02 5.083744653167612121e-02 -7.590168765680475049e-01 6.461658201673754487e-01 3.427551249589064764e-01 -6.819007678261019834e-01
3.937573871216149338e-03 -2.315414468211902943e-01 -8.765982788368585910e-01 -5.793019466323179323e-01 3.598391804771595703e-01 -7.313856840419651340e-01
-6.777407720011643932e-02 -7.676303791349864403e-02 -8.690668199080961998e-01 7.289559859836535205e-01 3.533226652961527492e-01 5.863328957909681449e-01
6.057179116685073705e-04 1.597061889370653132e-02 -7.525433404228222267e-01 1.757067863106255290e-01 4.442925308068517709e-01 -8.784823688120524388e-01
-8.465068950932132588e-03 -9.340699008201576448e-02 -8.182804343574821004e-01 6.446089640858919667e-01 3.375717601572462701e-01 -6.859479500402725360e-01
1.112767608915890116e-03 -3.112237652015307707e-02 -7.855010674906167667e-01 -6.454260266250922973e-01 -3.403644210346959409e-01 6.837962452724217766e-01
-1.183900725828202806e-02 -2.070462987332675753e-01 -8.781723658784083009e-01 6.622410259399198473e-01 3.620435280775504139e-01 -6.560192888469078554e-01
-1.147127757959447159e-02 -9.556299985899811833e-02 -8.294547539089413002e-01 -6.454260266250922973e-01 -3.403644210346959409e-01 6.837962452724217766e-01
-4.901761400722004502e-02 -2.349828021850049534e-02 -8.217788506278942418e-01 6.454260266250922973e-01 3.403644210346959409e-01 -6.837962452724217766e-01
-7.658614279070639214e-03 2.838361008984593634e-02 -7.566518267160100564e-01 6.454260266250922973e-01 3.403644210346959409e-01 -6.837962452724217766e-01
-2.404040283615542159e-02 1.918187509841896565e-01 -6.977973367442193986e-01 -6.418177863188455623e-01 -3.486194999726081045e-01 6.830332154468226058e-01
-2.053422110225680899e-02 4.439729351937607427e-02 -7.607860594479146643e-01 6.461658201673754487e-01 3.427551249589064764e-01 -6.819007678261019834e-01
-6.072587765554007116e-02 -9.671623992585440255e-02 -8.694494539663668586e-01 6.563885036405054940e-01 3.395774426005714886e-01 -6.736774397034784867e-01
-6.036291975794531861e-02 2.450793212752421998e-02 -8.085580409418217096e-01 6.463910481530962260e-01 3.431678631988332451e-01 -6.814795892285320233e-01
-4.809240749186394215e-02 -9.161217932439713607e-02 -8.513461868389168297e-01 6.302678657000740925e-01 2.945264602579645841e-01 -7.183429415493600700e-01
4.981842532975082338e-02 -6.550532816545838466e-02 -7.565945560330848974e-01 -6.492353666478269947e-01 -3.387451240350242698e-01 6.809883843621401533e-01
5.943439091430043758e-02 1.564220114843636530e-02 -6.997233432585294732e-01 6.401553985338717112e-01 3.453628871991542004e-01 -6.862401488352340984e-01
1.411229178335204199e-02 -1.962834078306087138e-01 -8.551090438200789068e-01 -6.499848972942449121e-01 -3.294321549979061237e-01 6.848314307498054587e-01
6.298069577178939948e-03 1.419151581782486238e-01 -6.941887545378518931e-01 -8.976126139365471213e-01 1.948525661651385466e-01 -3.953783918739863790e-01
-6.915754203985469140e-02 1.196927376030212653e-01 -7.762325159003574671e-01 -6.309708028463721918e-01 -3.478038214626264502e-01 6.934755566935276727e-01
2.777960958073231318e-02 7.931872821250533778e-02 -7.052260485697340320e-01 -6.454260266250922973e-01 -3.403644210346959409e-01 6.837962452724217766e-01
-5.479315199192447486e-03 2.033063015199755921e-02 -7.551637324553397423e-01 6.873655399350808715e-01 3.288156571118174831e-01 -6.476178488490558216e-01
5.572868943639328054e-02 -5.030297949416658553e-03 -7.208716463910960215e-01 -6.490644014284352448e-01 -3.389576064256780707e-01 6.810456253765401202e-01
-1.117265933725002103e-02 -1.481288520389150987e-01 -8.553379171759867283e-01 -6.454260266250922973e-01 -3.403644210346959409e-01 6.837962452724217766e-01
9.864747423887711055e-04 -1.123487612560650634e-01 -8.290056633022910848e-01 -5.778492770309728854e-01 -3.636788742836135069e-01 7.306352642971633005e-01
3.105508619734621834e-02 -1.203280580307479058e-01 -8.016416773611620972e-01 -6.454260266250922973e-01 -3.403644210346959409e-01 6.837962452724217766e-01
1.223033196140157607e-03 2.289312228700470311e-02 -7.585103924381655371e-01 -6.454260266250922973e-01 -3.403644210346959409e-01 6.837962452724217766e-01
3.012510328826879802e-02 5.147752291541519282e-02 -7.093384180246251614e-01 6.448297552312712844e-01 3.431005623002632565e-01 -6.829909156918722024e-01
-4.909615629783576490e-02 -8.342954639369301595e-02 -8.539033105592441775e-01 -1.235884606492235888e-01 -6.427738504611321124e-01 -7.560209451845402162e-01
4.199318884172568989e-02 9.001450825112294885e-02 -6.864247345270393375e-01 -6.493623101876158099e-01 -3.417771356307169328e-01 6.793504100741127871e-01
-6.211048951191478623e-02 -8.278381928140354090e-03 -8.336016891244634186e-01 -6.408412244944043934e-01 -3.417344960883390015e-01 6.874154923856177213e-01
-4.839881552973796658e-02 2.071589569996400843e-02 -8.063757958407032911e-01 -6.417727658425528281e-01 -3.417033718750230320e-01 6.865613757502234682e-01
-3.896427736945178542e-03 -3.688255503150899561e-01 -9.570156974423891239e-01 5.890105232603399799e-01 -3.606056222070530004e-01 7.232082609603158740e-01
1.882763515196819032e-02 -1.819631446650561979e-01 -8.364622201430605974e-01 6.412427086056383674e-01 3.386785887945784057e-01 -6.885525413156334817e-01
7.700117743654157597e-03 -1.352405005686791728e-01 -8.311088900008417601e-01 -6.454260266250922973e-01 -3.403644210346959409e-01 6.837962452724217766e-01
-3.112013593508441284e-02 1.200183620029692116e-01 -7.405621908681770948e-01 -6.454260266250922973e-01 -3.403644210346959409e-01 6.837962452724217766e-01
4.699503989002721399e-02 2.786259871334783797e-02 -7.127893642063827251e-01 -6.482582986339228137e-01 -3.422663375347881898e-01 6.801580202002872610e-01
-1.595538436664038426e-02 6.605807723729947845e-02 -7.532227796856456603e-01 -6.459891046844473683e-01 -3.425669289373555193e-01 6.821627194646560088e-01
-6.430418285395791966e-02 1.636707927857575240e-02 -8.270847214065673025e-01 -6.462672394203144988e-01 -3.901593414673199534e-01 6.558310327499250469e-01
5.871607305043588521e-03 -2.811007109387157407e-02 -7.815717953030382192e-01 -9.401266260904835859e-01 -1.567359631731135849e-01 3.026479221206063164e-01
-3.524054257217208892e-03 -3.530248893260982679e-01 -9.369629595743635964e-01 5.870334277805545620e-01 3.567674719261306748e-01 -7.267108955036040152e-01
4.153324416772857797e-02 -1.673342880925461629e-01 -8.149663934785612573e-01 -6.542060358642026729e-01 -3.317276120014866492e-01 6.796846725317827742e-01
4.568556380591739380e-02 -1.299402859126917165e-01 -7.925533058816357501e-01 -6.500767260732759345e-01 -3.379803328468057866e-01 6.805656065557628143e-01
3.480257382190233423e-02 -1.760345715291725677e-01 -8.256903076225037275e-01 -6.562005231337829647e-01 -3.277611296696411602e-01 6.796863359790530357e-01
4.060599910105069238e-02 -1.862747501439999259e-02 -7.346281508316699904e-01 6.454260266250922973e-01 3.403644210346959409e-01 -6.837962452724217766e-01
-1.428153227659108813e-02 -4.050814612881072085e-02 -7.964645165699635321e-01 4.533654507137367951e-01 7.695295895854027401e-01 4.497599124551364125e-01
5.277907570749497401e-02 -1.274932227839578776e-02 -7.202679390383425195e-01 6.444810310108798346e-01 3.438868388701626366e-01 -6.829246244784561437e-01
-7.498129089378169354e-02 1.093130282124976094e-01 -7.785219770968182518e-01 8.044803656108285850e-01 1.479214396619091820e-01 -5.752656682220971263e-01
2.050942196634820015e-03 1.046488171321811739e-01 -7.201605820475106556e-01 -5.815970743172282909e-01 -3.624906680762784994e-01 7.282481436318625212e-01
-7.555744484694899843e-02 6.127622244952755232e-02 -8.113784960855939810e-01 -6.255424804136094918e-01 -3.513164724443891829e-01 6.966156338952063098e-01
1.792247252015717954e-02 1.199482617938129325e-01 -6.942728974377193607e-01 -6.456632643266696503e-01 -3.424872595689913424e-01 6.825111179548296603e-01
3.216874569024365249e-02 -1.484117079946206397e-01 -8.145693447768536100e-01 -6.454260266250922973e-01 -3.403644210346959409e-01 6.837962452724217766e-01
1.426900559786703493e-02 -8.232660519343935890e-02 -7.913256815681359857e-01 6.454260266250922973e-01 3.403644210346959409e-01 -6.837962452724217766e-01
-1.439276557245365573e-02 -4.527833292217230132e-02 -8.071827580225879872e-01 -6.454260266250922973e-01 -3.403644210346959409e-01 6.837962452724217766e-01
5.609924003518364233e-02 1.512909108250743984e-01 -6.370321849543334469e-01 -6.674334083036824738e-01 -1.840140858132081614e-01 -7.215756798163717178e-01
1.317912179869704971e-02 9.504774700893667272e-02 -7.111780210586069462e-01 -6.454260266250922973e-01 -3.403644210346959409e-01 6.837962452724217766e-01
2.429587518522714762e-02 2.959231843747910443e-02 -7.333976766754782828e-01 -6.454260266250922973e-01 -3.403644210346959409e-01 6.837962452724217766e-01
2.313413290034606676e-02 4.895741660560961467e-02 -7.172051834390330560e-01 6.448578906817578060e-01 3.429928706630603341e-01 -6.830184415517543961e-01
2.558107268646173018e-03 -1.660597457805683408e-01 -8.512959336832309765e-01 -6.458814482722056161e-01 -3.367980614797888017e-01 6.851308054388263180e-01
2.081818484590785071e-03 -2.274585535115551393e-01 -8.731196385708913654e-01 -5.793019466323179323e-01 3.598391804771595703e-01 -7.313856840419651340e-01
5.580076178729803660e-02 -3.972865381152057562e-02 -7.413520994438790312e-01 -6.707268523468760124e-01 -2.509360932962576562e-01 6.979660211085235710e-01
-8.268096777310020296e-02 9.017338460637054631e-02 -7.973921987640383291e-01 7.456433592663368470e-01 2.907353003955389648e-01 -5.995739869990427406e-01
2.633128483535775166e-02 -7.692747168106743583e-02 -7.844974605233371312e-01 -6.454260266250922973e-01 -3.403644210346959409e-01 6.837962452724217766e-01
-1.427752639634930452e-02 -1.408391556320431892e-01 -8.472636972222190588e-01 6.454260266250922973e-01 3.403644210346959409e-01 -6.837962452724217766e-01
-8.154779553400257064e-02 9.540590407943660978e-02 -7.935741133656554203e-01 6.724463658901748131e-01 3.305940864524961054e-01 -6.622110199956934284e-01
-7.555471507463397407e-02 -8.567198458215382131e-03 -8.397287491768309353e-01 6.600626547464745197e-01 3.358596417984903715e-01 -6.719490998729191755e-01
1.606980635574431493e-02 -2.151860336211427471e-01 -8.564712980256379282e-01 4.963300494369409788e-01 5.420611539071201745e-01 -6.781048498947677139e-01
2.599320396621867049e-02 1.472447772944893429e-01 -6.729350082977300085e-01 -6.457071973301673484e-01 -3.428841286028383450e-01 6.822702467998240650e-01
-5.067336328173854126e-02 3.405619785569566349e-02 -8.018624615533401778e-01 -6.417729472042706940e-01 -3.417030945364636918e-01 6.865613442518802012e-01
-2.740234185892967758e-02 -1.213997272573973385e-01 -8.499759199392072917e-01 6.454260266250922973e-01 3.403644210346959409e-01 -6.837962452724217766e-01
4.191716134385509163e-02 1.014002803228756244e-01 -6.807693860369208316e-01 -6.488713051849400726e-01 -3.419197311045234500e-01 6.797476934782514801e-01
6.102421267629361962e-02 1.227060459758134159e-01 -6.517909852797947323e-01 -6.636349070051609234e-01 -3.450284038913727924e-01 6.637349702346736491e-01
-1.746514770859964455e-02 1.232665968437205023e-01 -7.181468871820829714e-01 6.455131226901064112e-01 3.425214822477855581e-01 -6.826359517588036496e-01
2.514188162720612518e-02 1.361476994301300814e-01 -6.829574873228080323e-01 -6.413901310563446811e-01 -3.416708069299960737e-01 6.869350474938155093e-01
-3.453556032554338118e-03 1.618427849370199581e-03 -7.623628417596350904e-01 7.082885364241093828e-01 3.145639206908557584e-01 -6.319627275162597035e-01
-1.624144215396709778e-02 -8.206677359057244769e-02 -8.272394055754369591e-01 -6.454260266250922973e-01 -3.403644210346959409e-01 6.837962452724217766e-01
-6.030829558194713245e-03 -3.852999500533416111e-01 -9.617213351943854072e-01 8.307831584257374669e-01 -1.227798740845947589e-01 5.428852974578765034e-01
-5.444798431614400469e-02 9.734086723158044685e-02 -7.663707997434699992e-01 6.462913211485623588e-01 3.456606306015471697e-01 -6.803133518167833182e-01
-6.928406322170660610e-03 -3.730667658791514407e-01 -9.555062902293474103e-01 8.951501890034319064e-01 -2.014083761090664226e-01 3.976692157562976004e-01
-3.005621259898692832e-02 -9.639875226180670553e-02 -8.474128243608639588e-01 -6.454260266250922973e-01 -3.403644210346959409e-01 6.837962452724217766e-01
5.101450092447636087e-02 2.016515670704882926e-02 -7.053636427861497138e-01 6.445768842721468772e-01 3.437694260941539515e-01 -6.828932727336736175e-01
-6.241694795037224658e-02 1.628508664660129335e-01 -7.482064898251391538e-01 -6.272037351925311421e-01 -3.517273155797964734e-01 6.949124909192291311e-01
-3.856573815124554605e-02 1.206894708524301613e-01 -7.394918238568095603e-01 6.495652405582925670e-01 3.409591134751439045e-01 -6.795674221125463932e-01
