-2.894813495808366572e-03 5.866603046805880968e-03 -7.524652312587186698e-01 -9.885705411939080811e-01 6.580144053861457232e-02 -1.356409064649269636e-01
-9.885177005475443215e-03 -1.812796509060739525e-01 -8.290735150360756256e-01 9.897537490618109057e-01 -6.120894769256612911e-02 1.289999261257871732e-01
-4.345961719853359828e-03 1.687183171210330790e-01 -6.660508110263931858e-01 -9.872886657868382709e-01 6.473808889246843168e-02 -1.451553314742383971e-01
2.472867545069697831e-03 -3.611089605173290612e-02 -8.342278340830336925e-01 1.639387204348808080e-01 6.265463521592881113e-01 7.619473502402008824e-01
2.882109502409347952e-03 -1.375721093253189642e-01 -9.013384607596940379e-01 9.885705411939080811e-01 -6.580144053861457232e-02 1.356409064649269636e-01
-4.998256848053991147e-03 -7.509301203644929172e-04 -7.958238762703369051e-01 9.978329271470487427e-01 -2.871894001291842510e-02 5.920027014876860089e-02
5.654575781598449383e-03 -1.053229678085385174e-01 -8.896896128228755085e-01 1.559786450944793679e-01 6.511864988844516811e-01 7.427158312201915802e-01
-5.405885562784101470e-03 2.018743406809896113e-01 -6.822436173406923876e-01 9.885705411939080811e-01 -6.580144053861457232e-02 1.356409064649269636e-01
5.104903475426529787e-03 2.164936416986436851e-01 -7.499618724227956612e-01 9.861957561370263692e-01 -7.957117395648993785e-02 1.452114281057272915e-01
8.878869543987238239e-03 -2.192098387477468477e-02 -8.517537115116178281e-01 -9.885705411939080811e-01 6.580144053861457232e-02 -1.356409064649269636e-01
-1.754629977415064638e-03 2.182375236493937776e-01 -7.009164702798058588e-01 9.885705411939080811e-01 -6.580144053861457232e-02 1.356409064649269636e-01
-1.214970799281891480e-02 -1.856715676789018332e-02 -6.987735542215760542e-01 -9.856695646968464120e-01 7.385916022253900814e-02 -1.516586089925342773e-01
1.343576540443735525e-03 7.490805884719571595e-02 -7.504441482512289596e-01 -9.886327714368541297e-01 6.326020581718372338e-02 -1.363942432841383501e-01
2.937339359694147805e-04 -2.555483099649305881e-02 -8.278180411591551380e-01 9.883684849813945128e-01 -6.312587974543271141e-02 1.383577291008649124e-01
-3.240703961808643740e-03 3.668793656760009625e-02 -7.728465070986717533e-01 9.885705411939080811e-01 -6.580144053861457232e-02 1.356409064649269636e-01
1.597125757372128358e-03 2.096969835267877835e-01 -6.904833448283695940e-01 -9.881761355381067924e-01 5.297314042710082188e-02 -1.438811021165190551e-01
4.618312819508390253e-03 -2.290341658563658719e-02 -8.053281856170412256e-01 -9.720875623403989474e-01 1.024033224391458219e-01 -2.110908114924133494e-01
5.871579005938626361e-03 -1.793132271677658485e-01 -9.078388621196694652e-01 -9.896533152731384897e-01 7.175792892024139558e-02 -1.242461878930854330e-01
9.562006360121772311e-03 2.171880090169676369e-01 -7.458687619496547905e-01 -9.913353893534224692e-01 3.629500751536806485e-02 -1.262411115483302593e-01
9.384698737359550499e-03 6.704630727937797852e-02 -8.497709167003910657e-01 9.874979356722334289e-01 -6.577136174379487332e-02 1.432548603623789440e-01
1.528275758596082164e-03 -3.178515500561789886e-01 -9.579210722995193938e-01 -3.811038714608701583e-01 -4.075275331300070025e-01 8.298681515147499077e-01
1.255710475424009131e-03 -6.509519738658163523e-02 -8.171394851312285823e-01 -9.885705411939080811e-01 6.580144053861457232e-02 -1.356409064649269636e-01
-7.381922920079994795e-03 1.804384610598427086e-01 -6.780323867263156057e-01 9.883704057257601816e-01 -6.293423510738416216e-02 1.384312939220938843e-01
4.972290020876284078e-03 -8.720397155772462161e-02 -8.390706909835148331e-01 -9.978329271470486317e-01 2.871894001291841816e-02 -5.920027014876858701e-02
1.456277898905889573e-02 2.283606191801536636e-02 -9.029803291753927263e-01 9.559947090906124600e-01 -1.176544512329302516e-01 2.687592720183504813e-01
3.416897245369466835e-03 -1.583628051561003225e-01 -9.153219499104244816e-01 9.885705411939080811e-01 -6.580144053861457232e-02 1.356409064649269636e-01
2.009054015060355875e-03 -3.769699422232533070e-01 -9.719253107310026341e-01 -7.693952349104101751e-01 2.827647398337477802e-01 -5.727783815786940957e-01
-1.012162145550037778e-02 -1.389676501039199263e-01 -8.069896998252756859e-01 9.892199520166693461e-01 -6.655377703293363645e-02 1.304395695132012090e-01
-6.509327886493861473e-03 -6.269821031857476801e-02 -7.595263862893157913e-01 -9.878047160066566468e-01 6.813559292873040685e-02 -1.399978000229255282e-01
8.471273624540719138e-03 8.246686092178488747e-02 -7.983414656329232972e-01 -9.891665065427966974e-01 6.139792654170955072e-02 -1.333413549889845007e-01
-3.493948684471709538e-03 5.888700750949889956e-02 -7.606794527645440729e-01 9.887265023854536761e-01 -6.065055198652263835e-02 1.368992842361043405e-01
1.212952416245590900e-02 1.914491178379788827e-01 -7.970279839667179234e-01 -1.392106836392161540e-01 -7.437778001714823173e-01 6.537698138739449494e-01
1.803457380115527919e-02 1.240894773364674825e-01 -8.365790663201917443e-01 -9.880521312320986738e-01 -1.514882068645906077e-01 2.836034464985892276e-02
-1.085454695602932132e-02 -3.764243349130884809e-03 -7.365001214052866452e-01 9.887319045852536181e-01 -6.227633911123346688e-02 1.361281691719968268e-01
-5.525224595173956581e-03 -1.207428680394391496e-01 -7.947836947840897226e-01 -9.877190514960403345e-01 6.862972848519964530e-02 -1.403603778842528182e-01
1.995880296786073805e-03 1.367550088497254124e-01 -7.652291204603062225e-01 9.885475248122210790e-01 -6.350233121837782491e-02 1.368986673326758330e-01
7.188522710898604881e-03 1.330969674555337878e-01 -7.649426734885678147e-01 -9.885473575170060645e-01 6.348777855519154023e-02 -1.369066248224384830e-01
2.704579132952108882e-03 -4.269336941803474061e-02 -8.047161686674155767e-01 -8.631224301886705197e-01 -4.844939914307608286e-01 -1.424262713571255168e-01
2.703757618733490867e-03 4.322939131173839100e-02 -8.129270126060044177e-01 9.884011625819032476e-01 -6.327729960012852539e-02 1.380547904350223898e-01
-1.474085059817320130e-03 -3.547317248476638540e-01 -9.763218306190029061e-01 8.266953411297517373e-02 -4.381920827120289741e-01 8.950717551001361461e-01
-5.806539096470024128e-03 7.428499967528924552e-02 -7.372069016638299610e-01 9.886420448913899595e-01 -6.315397750138285193e-02 1.363762523268832738e-01
3.456571949854876039e-03 -2.551349669986033297e-01 -9.262572165192746176e-01 -3.975798889009780623e-01 -4.027894003673393453e-01 8.244337031521729031e-01
7.883168127411728163e-03 1.278837965642689312e-01 -7.724883061046462496e-01 -9.885705411939080811e-01 6.580144053861457232e-02 -1.356409064649269636e-01
-3.188345753291048010e-03 -2.204265845124934453e-01 -9.095481841211180418e-01 7.639215410535865614e-01 -2.859798531629224594e-01 5.784802526441391590e-01
-1.092859922774226493e-02 -1.307958133948018409e-01 -7.736579849304364709e-01 -2.888083446275804822e-01 -9.496545249157871682e-01 -1.214332054277048739e-01
-8.701629067123252056e-03 -9.154581502838517182e-02 -7.939224934542010725e-01 9.885705411939080811e-01 -6.580144053861457232e-02 1.356409064649269636e-01
-1.598409829153466313e-02 -1.064281064798957149e-01 -7.353267066830462273e-01 1.482245370592744915e-01 5.885084560579773028e-01 -7.947875714691440274e-01
-3.963527428841148899e-03 1.887106693396028989e-01 -6.986663221429928461e-01 9.884600690008753521e-01 -6.317675525820830307e-02 1.376785734449246235e-01
4.243660702701650134e-03 5.264649926222884219e-02 -8.196349445274044854e-01 9.883966330369818865e-01 -6.323590123688264952e-02 1.381061787028989296e-01
5.946573354165186247e-04 2.165979028094082992e-01 -6.811871392187462959e-01 -9.876490109305342546e-01 5.416722723919111665e-02 -1.470215722305928674e-01
-2.131484744226340173e-03 -7.723257371872938037e-02 -7.983411400680904269e-01 -9.885705411939080811e-01 6.580144053861457232e-02 -1.356409064649269636e-01
1.086545527279931048e-02 1.384168623749903182e-01 -8.269062254721299965e-01 9.853838211363061816e-01 -7.156061678454961328e-02 1.545891431124032378e-01
1.449675510607193255e-02 6.969049378601649414e-02 -8.814617354991498566e-01 9.570903630142917340e-01 -1.246505403376703819e-01 2.616109321467632309e-01
4.179243503626292600e-03 1.486264871740429483e-01 -7.199943087212498094e-01 -9.736420120683608737e-01 9.955025694730208763e-02 -2.052095969422488286e-01
1.345768475301148273e-03 2.194325587784249632e-01 -6.851726455680801076e-01 -9.881761355381067924e-01 5.297314042710082188e-02 -1.438811021165190551e-01
-6.098268110574016528e-03 -3.506384363350124600e-01 -9.623107239606331076e-01 9.257130194246994126e-01 1.607661421692606063e-01 -3.423589537307582531e-01
-4.625377415072173641e-03 -2.157472326165466581e-01 -9.049152459157546735e-01 9.788705068284266897e-01 -9.361502509863250943e-02 1.817931735166134211e-01
-1.315652081676192860e-02 1.310289495013294281e-01 -6.758700987946499872e-01 9.670557673944097932e-01 -2.367108398846505257e-01 9.365426327889592173e-02
-2.415553984136198720e-03 4.012969360787301681e-02 -7.704151418924061190e-01 3.796462496691164756e-01 4.093141866535108253e-01 -8.296569301321780054e-01
-8.300138499028218361e-03 -5.982796399789464675e-02 -7.814618089567368919e-01 9.885705411939080811e-01 -6.580144053861457232e-02 1.356409064649269636e-01
2.834506340921607009e-03 -2.315192726650676033e-02 -8.082986675426085954e-01 -9.885705411939080811e-01 6.580144053861457232e-02 -1.356409064649269636e-01
5.006091375153836655e-03 2.019292379401325943e-01 -6.991215168282575165e-01 -9.970762199732459141e-01 3.335198870029624368e-02 -6.875068300459784287e-02
9.272704050290209599e-04 1.155978731039737917e-01 -7.278216932560689356e-01 -9.885855035631774257e-01 6.353330609461184386e-02 -1.366097403607357541e-01
-1.763544773850781594e-02 -6.222659161835381730e-02 -7.123556247740899794e-01 9.935669157618965963e-01 -4.344729343775111802e-02 1.045806702805371080e-01
-1.235661745704654500e-02 1.344664125478334249e-01 -6.620257209646377428e-01 9.896800431316695734e-01 -6.048172882010025009e-02 1.299052451051476709e-01
3.293911215502395504e-03 1.381839388675596414e-01 -7.738107331160039015e-01 9.877021328150172863e-01 -6.349386711666739347e-02 1.428741602643284481e-01
6.823511693652974455e-03 -1.212598931801579447e-02 -8.685442143547567051e-01 9.885705411939080811e-01 -6.580144053861457232e-02 1.356409064649269636e-01
1.173598519213376289e-02 4.805022048381548533e-02 -8.750960854548290868e-01 9.856549875474607258e-01 -7.348917357916634474e-02 1.519328367716019923e-01
-2.436014681591983175e-03 2.265084281410294498e-01 -6.919381000549559291e-01 9.885705411939080811e-01 -6.580144053861457232e-02 1.356409064649269636e-01
-1.193946498473215032e-02 -4.633692345557817449e-02 -7.487071851126442246e-01 9.887596381799420575e-01 -6.200526262206734751e-02 1.360504513533080939e-01
2.396850024925969123e-03 -1.265248464004422313e-01 -8.438586678840448441e-01 -9.313271337735277156e-01 -3.245991164478539970e-01 -1.651217232784902567e-01
-7.120539028136499589e-03 5.240824429475310353e-02 -7.377969607920281669e-01 9.886783040427298275e-01 -6.305273795098792489e-02 1.361600651882765856e-01
7.148678799496970687e-03 3.045867711416892082e-02 -8.137336710750725510e-01 -9.885705411939080811e-01 6.580144053861457232e-02 -1.356409064649269636e-01
-1.118655874299650382e-02 -1.441044483266953891e-01 -7.685010408946405525e-01 -9.748031257470903821e-01 1.123627556735149469e-01 -1.927004856536606858e-01
1.574633175496771911e-02 1.583192225345666504e-01 -8.180524464307870058e-01 -9.913931961253872327e-01 5.114155511433999407e-02 -1.205158579473107755e-01
8.544693007247935665e-03 -1.100962861307826224e-01 -8.755531459427661201e-01 -9.859830438557635190e-01 4.723254835763963932e-02 -1.600203849656874899e-01
4.843458410791045415e-03 -2.010319659273559351e-02 -8.214612157098659662e-01 -9.885705411939080811e-01 6.580144053861457232e-02 -1.356409064649269636e-01
-7.019301944183385482e-03 7.271990126921752673e-02 -6.911754130061603663e-01 -9.878734128785660040e-01 6.487635939224091486e-02 -1.410573575523924039e-01
4.846138946264624651e-03 6.475934847724846080e-03 -8.588898765958919990e-01 8.545876451523424233e-01 -4.206383499213710575e-01 -3.045379045839782250e-01
1.163065188639953070e-02 -1.336007365732778951e-01 -9.330376356089347123e-01 -9.583005731439760977e-01 8.263661732182391029e-02 2.735529217345947783e-01
4.136539639068052658e-03 1.693689629783375894e-01 -7.200299379763613894e-01 -9.290610306083397774e-01 -1.600376341359909527e-01 3.335169516908012000e-01
-2.317455323931693050e-03 -1.253790186665812434e-01 -8.575282290295765941e-01 9.885705411939080811e-01 -6.580144053861457232e-02 1.356409064649269636e-01
9.720186610192355428e-03 5.317346029563407850e-02 -8.585109198112044204e-01 9.876845300524421667e-01 -6.823387917965507976e-02 1.407956207670643112e-01
-1.397581905066811077e-02 -7.259058709335515329e-03 -6.826627998276724174e-01 -9.793952755187126380e-01 8.375836577453969756e-02 -1.837646060981380225e-01
2.382240328418690125e-03 -5.413192810089889617e-02 -8.565532980713370659e-01 9.885705411939080811e-01 -6.580144053861457232e-02 1.356409064649269636e-01
-1.951765032453116637e-03 1.262717278086424866e-01 -6.833351438776350539e-01 -9.790286314726671657e-01 1.674456168598978945e-01 -1.160383736147878736e-01
1.158767280587372044e-02 6.343059480661691896e-02 -8.301545426981483677e-01 -9.892766246103963379e-01 6.367402449977088708e-02 -1.314434426035158976e-01
-7.870710558735189571e-03 -1.986808931865743644e-01 -8.525969067237724186e-01 9.907092823357266376e-01 -4.085110653205548809e-02 1.297162479758662834e-01
7.335498302900532973e-03 7.458847039917911037e-02 -7.844667966449238028e-01 -7.784441536056189159e-01 -3.583173444164979293e-01 -5.153963333276055936e-01
5.917694964470140290e-03 -1.033573732747546242e-01 -8.696782583279432099e-01 -9.885705411939080811e-01 6.580144053861457232e-02 -1.356409064649269636e-01
-8.321357505558335359e-04 -6.352755636053607213e-03 -8.106120253511223117e-01 9.885705411939080811e-01 -6.580144053861457232e-02 1.356409064649269636e-01
2.815233444262025056e-04 -1.934153551065397048e-01 -9.092023834844927821e-01 9.875083373580195722e-01 -6.131235641993021401e-02 1.451484708794243961e-01
-6.702524568526298590e-03 7.595230586721386790e-02 -7.299734620362219317e-01 9.886985609507362716e-01 -6.097280026860809471e-02 1.369579249307903146e-01
1.553597145496912052e-02 -1.239363267167963890e-02 -9.159954545838474571e-01 -1.495951101097041103e-01 -3.165637699867153154e-01 9.367009568496572625e-01
-1.786455376677451110e-03 -2.105889943010995683e-04 -8.030924761813260648e-01 9.340952056563371630e-02 -4.339430989549256101e-01 8.960848443853371981e-01
1.214388740907859469e-02 3.303858481431606181e-02 -8.848668553404863690e-01 9.869056464694379027e-01 -6.682651417355868484e-02 1.468041619646804352e-01
1.385867333842798720e-03 2.302371297336506251e-01 -6.820274970949189441e-01 -9.873319334480290532e-01 4.160753061739443093e-02 -1.531158600201151798e-01
1.266244119709901243e-02 9.369311741421543216e-02 -8.595496775412886370e-01 9.855542402685169012e-01 -7.181176015764587084e-02 1.533815849175109158e-01
3.344201080365421987e-03 1.227076334784592271e-01 -7.811831963540583068e-01 9.884106847853780797e-01 -6.153268941186845059e-02 1.387733632072185863e-01
-1.159248011121202966e-02 -1.034955127537803415e-01 -7.442779161340751237e-01 -9.853503600849962130e-01 7.636127363725141171e-02 -1.524913891630114982e-01
-1.387308305864896419e-03 -6.807951514023062589e-02 -7.993245194046895152e-01 -9.885705411939080811e-01 6.580144053861457232e-02 -1.356409064649269636e-01
-6.933739743975785887e-03 -3.476746278737914697e-02 -7.429507647538990955e-01 -9.878338900442511505e-01 6.799988781318919151e-02 -1.398578597628181708e-01
3.252449005695862323e-03 1.325599964618413285e-01 -7.192075268314177539e-01 -9.885705411939080811e-01 6.580144053861457232e-02 -1.356409064649269636e-01
9.801401615906727913e-03 -4.177172695437807864e-02 -9.042418494544638419e-01 9.875563951496068027e-01 -6.775789762729518551e-02 1.419198143609362028e-01
-5.221714051234092185e-03 5.242771692818856688e-02 -7.705482130962360010e-01 9.923562996330271835e-01 -2.672340541261125288e-02 1.204775256294676328e-01
-3.478195414031457888e-03 3.794299415385798263e-02 -7.326553438200105184e-01 -9.879646134731633333e-01 6.450048623254289737e-02 -1.405902194343145728e-01
-1.316665671248668694e-03 -1.752945857935319929e-01 -8.521183647814205564e-01 -9.882177578358489756e-01 7.053440233767606371e-02 -1.358328428059814019e-01
-3.408964051592776063e-03 -1.006327995301945638e-02 -7.564458531071339698e-01 -9.885705411939080811e-01 6.580144053861457232e-02 -1.356409064649269636e-01
5.434812318658326091e-03 -1.434893323921911656e-01 -9.222748103382074625e-01 9.872166325369501338e-01 -6.767007215148526655e-02 1.443055154088629666e-01
2.377989160218161712e-03 -1.838507418376292279e-01 -9.191125571074676426e-01 9.801740565030165886e-01 -4.911788582490780875e-02 1.919537763382445916e-01
6.191414595559841146e-03 6.198295538386992820e-02 -7.755184633166392061e-01 -9.836506434452210179e-01 2.149656109750012339e-02 -1.787996350968995285e-01
-1.249085313011588273e-05 -1.143259347385304492e-01 -8.317792204041442039e-01 -9.885705411939080811e-01 6.580144053861457232e-02 -1.356409064649269636e-01
4.399543988118094842e-03 -3.723385975239075496e-02 -8.630581921623966535e-01 9.885705411939080811e-01 -6.580144053861457232e-02 1.356409064649269636e-01
-4.582450210539134802e-03 -9.580678403184630931e-02 -8.448108710343265049e-01 9.783618499791519874e-01 -9.030566506598303178e-02 1.861531019412835664e-01
1.465526523503148972e-02 5.019438358617310959e-04 -8.838641682894756713e-01 -9.894674578268455312e-01 6.347559073729983070e-02 -1.300961155539648584e-01
1.076366375024597963e-02 5.082033926574914574e-03 -8.523907948263333978e-01 -9.885705411939080811e-01 6.580144053861457232e-02 -1.356409064649269636e-01
-1.586356504167803216e-02 -4.743231717948629550e-02 -7.376350101343394083e-01 9.832477324656733186e-01 -1.256792920103101674e-01 1.320174691504841791e-01
1.298754694973516810e-02 1.509206560933718314e-02 -8.986751581183336501e-01 9.868784812918256488e-01 -6.650818562450298843e-02 1.471309770513219151e-01
1.314240757428471358e-02 6.311656587221485537e-02 -8.420079925094144935e-01 -9.892766246103963379e-01 6.367402449977088708e-02 -1.314434426035158976e-01
-1.057297097651428187e-02 -1.288165830074576301e-01 -8.069127927085556484e-01 8.101357506795826557e-01 -5.825848191203751858e-01 6.538343827995682367e-02
-1.335864985164533260e-02 4.680012018731075779e-02 -6.616004813730125278e-01 -9.748486432339501517e-01 8.483487600679202878e-02 -2.060901904454434108e-01
5.791816122972613841e-03 2.535225909265047262e-02 -8.435077657534724160e-01 9.885705411939080811e-01 -6.580144053861457232e-02 1.356409064649269636e-01
7.405565658814707020e-03 1.498791766833871830e-01 -7.587274304234620237e-01 -9.885473575170060645e-01 6.348777855519154023e-02 -1.369066248224384830e-01
4.142874940177858692e-03 -2.760987454245471609e-02 -8.565188112832555767e-01 9.885705411939080811e-01 -6.580144053861457232e-02 1.356409064649269636e-01
8.282564480748948535e-03 1.374093360133378239e-01 -7.708858926737164330e-01 -9.893595921890785405e-01 6.304577715317877251e-02 -1.311214220736343083e-01
4.857662943975134609e-03 1.515099049135167908e-01 -7.786989774198751491e-01 9.877021328150172863e-01 -6.349386711666739347e-02 1.428741602643284481e-01
-1.503096786915896627e-02 -1.461774847707512093e-01 -7.725928720831113372e-01 9.968318462576347683e-01 -1.542924984936232258e-02 7.802697312904800786e-02
-3.825441783401365217e-03 1.626575703608067192e-01 -6.722942234239204229e-01 -9.872886657868382709e-01 6.473808889246843168e-02 -1.451553314742383971e-01
-8.111375483254225360e-03 -3.342288670837858383e-02 -7.706438739704882801e-01 9.887613620158131056e-01 -6.199694275843700697e-02 1.360417144600933048e-01
-1.814912112689929993e-03 -4.165821090211473815e-02 -7.851268197174913199e-01 -2.922764099858703446e-01 -9.525496960667777513e-01 -8.499162716915278915e-02
-2.779661026900222178e-03 7.603589121562399911e-02 -7.199282627321167416e-01 -9.885705411939080811e-01 6.580144053861457232e-02 -1.356409064649269636e-01
6.014747283063851847e-03 9.011589607214229303e-02 -7.770949289092987655e-01 -9.884550314075651878e-01 6.369175419171081709e-02 -1.374773120665815918e-01
-3.200152559993722778e-03 1.895027742745828969e-01 -6.658548459272702891e-01 -9.861273299902891809e-01 5.526279783158425524e-02 -1.565212836072111535e-01
1.049983030842357090e-03 -1.116038589116278984e-01 -8.382021638547824116e-01 -9.885705411939080811e-01 6.580144053861457232e-02 -1.356409064649269636e-01
6.337138141376067943e-03 -7.160590056101431844e-02 -9.106375816734274542e-01 9.874570623767403577e-01 -1.135458205253826874e-01 1.097082339823047814e-01
-1.437873263582949493e-02 4.364892552996167685e-02 -7.058946800946541700e-01 9.900420448866239509e-01 -3.759789774933866135e-03 1.407217585789782288e-01
-4.358739510434398237e-03 3.397737801760342645e-03 -7.979936648277992095e-01 9.720875623403989474e-01 -1.024033224391458219e-01 2.110908114924133494e-01
-1.323330646967194740e-02 2.379252724723864010e-02 -7.064138794218133288e-01 9.892851374036794043e-01 -6.392410440196730215e-02 1.312578599116636102e-01
-5.887986243232912545e-03 1.654534146811294931e-02 -7.632820935851583055e-01 9.887382973223876048e-01 -6.235834381602688853e-02 1.360441706378784921e-01
-4.534867507496318558e-04 6.282593350586010428e-02 -7.588084530777701175e-01 -8.727532877536235689e-02 4.330577104181378978e-01 -8.971310029391208474e-01
7.933445290708349661e-04 3.315651596961404629e-02 -7.734112456173701800e-01 -8.663917860106189195e-02 4.403511755215862022e-01 -8.936355492862234629e-01
1.041594288371705881e-02 7.407438828208381953e-02 -8.536538311714562122e-01 9.875049628695173887e-01 -6.571991901421564419e-02 1.432300267152044893e-01
1.505854150018793615e-02 1.819227290920192031e-01 -8.062384250010544706e-01 -9.916133358804267717e-01 -1.238344471656789153e-01 3.698677870892246727e-02
-4.967935833216004585e-03 -2.150064764653451255e-01 -9.026864076081255739e-01 9.791155010841209316e-01 -9.306319081867617249e-02 1.807541923481656432e-01
7.345490830481329197e-03 4.580501739431765140e-02 -8.077233255038661630e-01 -9.885705411939080811e-01 6.580144053861457232e-02 -1.356409064649269636e-01
4.075055841430870462e-03 -3.417472708288448180e-01 -9.573749912064541956e-01 -7.703706850951411722e-01 2.769512563613157341e-01 -5.743056757040905236e-01
-9.106655702694338439e-03 1.157732480888691712e-01 -6.567320219080418076e-01 -9.834153252012489688e-01 6.705540414919827774e-02 -1.685166785030778325e-01
1.147147541037241321e-02 1.857264126849792196e-01 -8.035548848694611390e-01 2.120361947237328071e-01 -7.196341679331137442e-01 6.611862948294484621e-01
1.748939458197366556e-02 4.179399111887601576e-02 -8.861021196181551041e-01 -9.911899234233039202e-01 5.846227434628581410e-02 -1.188473734769285028e-01
-1.135123724642850100e-02 -1.505238897523597519e-01 -8.033560733922843200e-01 9.895116503248141404e-01 -6.188973738939429481e-02 1.305233859403540086e-01
1.289952098602508345e-03 -4.320085945157120522e-03 -7.879061238604607720e-01 -9.885705411939080811e-01 6.580144053861457232e-02 -1.356409064649269636e-01
-1.182591105480700934e-02 -1.145107718651742872e-02 -7.329588260455918158e-01 9.887492137950035787e-01 -6.208311721892195711e-02 1.360907005498322997e-01
-5.728048694692284074e-03 -5.360127809904069451e-02 -7.552319585565199223e-01 -1.580483490090481002e-01 9.872119250042566962e-01 2.081668813485068950e-02
5.738262360656927116e-03 1.352270950269519323e-01 -7.922843633301933641e-01 9.884895902117405431e-01 -6.350813728064280683e-02 1.373136793701503489e-01
-6.545741062405198082e-03 -7.446848120132781856e-02 -8.013504459167489768e-01 9.885705411939080811e-01 -6.580144053861457232e-02 1.356409064649269636e-01
9.459327612589546810e-03 -5.608534045155184368e-03 -8.844822443089448427e-01 9.876370882364100545e-01 -6.812485840140000692e-02 1.411806842584879540e-01
3.210649454527017901e-03 9.318908313549313649e-02 -8.111232075850529633e-01 9.833283460284474309e-01 -2.367764364067118446e-02 1.802906905211237587e-01
3.608506418674207756e-03 -1.372454185082037370e-01 -9.064740639078250339e-01 9.885705411939080811e-01 -6.580144053861457232e-02 1.356409064649269636e-01
-9.478860437153418042e-03 1.742144504115843706e-01 -6.653344669638560083e-01 9.902015282409479813e-01 -6.795413734524595462e-02 1.219965929317489289e-01
2.563063194475012022e-03 2.306142812528725050e-01 -6.899033998263910394e-01 -9.900477358209317513e-01 3.333617260927030507e-02 -1.367266630603253819e-01
5.613608971917560288e-03 4.862317184497774725e-02 -8.312815703846663240e-01 9.883966330369818865e-01 -6.323590123688264952e-02 1.381061787028989296e-01
-3.830410708658410620e-04 4.926335193138289131e-02 -7.875730446631875603e-01 9.885705411939080811e-01 -6.580144053861457232e-02 1.356409064649269636e-01
6.208575222649778853e-03 1.518474290381476854e-01 -7.880241722605201282e-01 9.885448853429018579e-01 -6.299616488887586907e-02 1.371513502364553883e-01
-4.618066207871210360e-03 1.075394780243990878e-01 -6.917534892045862360e-01 -9.877575541968925954e-01 6.763371781343449629e-02 -1.405727368365055630e-01
-4.095841358708240433e-03 -1.094693153850847533e-01 -8.365550291306264041e-01 9.883574388668668886e-01 -6.950614410017311173e-02 1.353457386431272391e-01
1.075017424740882870e-04 4.094203405072657093e-02 -7.573309205966434199e-01 -9.885705411939080811e-01 6.580144053861457232e-02 -1.356409064649269636e-01
-1.473953409431267431e-02 -3.124056805322544816e-02 -7.208162547900688333e-01 9.887549156401777006e-01 -6.206641513715584202e-02 1.360568885040649711e-01
8.693669226292560434e-03 1.275485176089188877e-01 -8.170091336180336228e-01 9.875657808492602774e-01 -6.657986736173708564e-02 1.424111995514555362e-01
-1.251619757913198863e-02 1.203548550637889222e-02 -6.821596414550153975e-01 -9.843982300033439214e-01 7.231989968207552799e-02 -1.604056011374237756e-01
-7.578521367977787519e-03 -1.602555217828814105e-01 -8.361039342784285511e-01 9.885705411939080811e-01 -6.580144053861457232e-02 1.356409064649269636e-01
-9.736534879239248930e-03 1.001924055984201693e-02 -7.383148030651305316e-01 9.887319045852536181e-01 -6.227633911123346688e-02 1.361281691719968268e-01
-8.732329268515203607e-03 -2.007629806811174200e-01 -8.464930681674138757e-01 9.915067869104879916e-01 -3.743503967653766945e-02 1.245508302455518440e-01
-1.215952150645877895e-02 1.449761558324735300e-01 -6.586966751014206034e-01 9.895865227876268211e-01 -5.953953649967069772e-02 1.310479206645346062e-01
-6.055171599864444176e-04 -1.058516227150586575e-01 -8.233461429082701288e-01 -9.885705411939080811e-01 6.580144053861457232e-02 -1.356409064649269636e-01
7.929192203018047957e-04 8.605997427137256073e-02 -7.794326679613852171e-01 9.884550314075651878e-01 -6.369175419171081709e-02 1.374773120665815918e-01
7.143184232976287906e-03 8.327879934882891078e-02 -7.883758875005046907e-01 -9.884550314075651878e-01 6.369175419171081709e-02 -1.374773120665815918e-01
8.551464672522107388e-03 1.076750408980820528e-01 -8.247892694885325948e-01 9.883769165935986090e-01 -6.063412955327620452e-02 1.394079376443359553e-01
7.587765339648878254e-03 1.590304036192178583e-01 -7.946265929546190154e-01 9.875064526663688280e-01 -6.686169572895753199e-02 1.426902925448439163e-01
-1.768124310549401210e-02 4.096439093946913079e-02 -6.625337679385968626e-01 9.998398626103743858e-01 -1.788642404744072642e-02 -5.700614553728312016e-04
-1.102777818092879995e-02 -1.108137299136660592e-01 -7.863163371729293694e-01 9.885705411939080811e-01 -6.580144053861457232e-02 1.356409064649269636e-01
5.769087449956130514e-03 -1.013096850599450177e-01 -8.676018209706786166e-01 -9.885705411939080811e-01 6.580144053861457232e-02 -1.356409064649269636e-01
-5.845856983412414838e-04 1.293349183686715032e-01 -7.500294122720609913e-01 9.885499989978937530e-01 -6.364893544436357742e-02 1.368126912901860004e-01
2.097036817305889401e-04 1.771018043566550959e-01 -7.339769109122085133e-01 9.888293416597435659e-01 -6.012377570760626261e-02 1.363879198001780868e-01
1.128471058910555588e-02 -3.272695464402199366e-03 -8.602412642198766779e-01 -9.885705411939080811e-01 6.580144053861457232e-02 -1.356409064649269636e-01
-1.552636687434259290e-02 -3.008165977807361700e-03 -7.017351355003400570e-01 9.895780539995983061e-01 -5.978663973149784400e-02 1.309993616472394096e-01
3.826532245496824802e-03 -1.744459722865030760e-01 -8.893380364833989304e-01 -9.887906918239093290e-01 6.858814375172327116e-02 -1.326221485992744864e-01
1.119715371268406763e-02 1.731234881813905058e-01 -7.758398305233580317e-01 -9.895421918041396037e-01 5.843780289018479790e-02 -1.318759789833899021e-01
-2.154315886307846088e-03 -1.861996882132535835e-01 -8.516964600185400469e-01 -9.881190170750483448e-01 7.086423346433404213e-02 -1.363784019196324082e-01
-1.533826128728221945e-02 -2.932746517971460479e-02 -7.155924553916117592e-01 9.887549156401777006e-01 -6.206641513715584202e-02 1.360568885040649711e-01
2.071318486198655065e-03 1.270856532164509056e-01 -7.307424025991173799e-01 -9.885531486950102087e-01 6.377212264541627651e-02 -1.367325439625806105e-01
7.551509119448066541e-03 -9.661886117902818150e-02 -9.147415066792127236e-01 9.871964835184328102e-01 -6.798247286511122089e-02 1.442965221756411509e-01
-8.051277822068421061e-03 4.014121352193190245e-02 -6.824521016559644826e-01 -9.819523734937092296e-01 1.292297112482013177e-01 -1.380913390505635330e-01
-1.297360859758931589e-03 1.945172384776777119e-01 -7.152779108075223435e-01 9.887952447756163110e-01 -6.221941507158921386e-02 1.356934349822376540e-01
5.899794710209808370e-03 -8.651207296507439082e-02 -8.980815296652588930e-01 9.878975406025902739e-01 -7.034162410973564261e-02 1.382407508260812268e-01
1.688285022504431090e-02 1.474368899471450445e-01 -8.334998578661522162e-01 -9.966925924309597562e-01 2.118877111478526670e-02 -7.845324831960959200e-02
-4.944349017670098684e-03 1.730784821994282574e-01 -6.605850089127210945e-01 -9.848501109739515869e-01 5.485616350761279153e-02 -1.645024627165853071e-01
-1.143606219521425653e-02 6.097109500846620983e-02 -6.662481732511210675e-01 -9.856916815252996233e-01 6.725512430381927476e-02 -1.545595588331742098e-01
-5.685749716858932816e-03 -1.256999096959065254e-01 -8.468995222591297889e-01 9.958438346235528593e-01 -8.149489904236638382e-02 4.066495385872766904e-02
4.923734962074528473e-03 1.144878475996778527e-01 -7.403793205042314973e-01 -9.975197268874652634e-01 3.072184958056616358e-02 -6.332900148199201162e-02
1.334979359944884689e-02 -3.898929085305050113e-02 -9.235775605950033995e-01 3.489727829335780296e-01 -2.592994484117604470e-01 9.005452752776789138e-01
3.810964487400603267e-05 -1.198539650290777470e-01 -8.348297346548928521e-01 -9.885705411939080811e-01 6.580144053861457232e-02 -1.356409064649269636e-01
-7.527266422569670566e-03 -1.599402609352975069e-01 -8.001248870890430576e-01 -9.871999415133755340e-01 7.120678553435245972e-02 -1.427090367490891354e-01
3.616875553773223322e-03 1.339157603890985260e-01 -7.387405870877669090e-01 -9.885446388921075300e-01 6.375828263647122240e-02 -1.368005055287468685e-01
-5.700736349851142281e-04 -1.302595807592122068e-01 -8.354451274061959198e-01 -9.885705411939080811e-01 6.580144053861457232e-02 -1.356409064649269636e-01
-1.748968499194063567e-02 -5.069402781307350003e-02 -7.083842320514310842e-01 9.933784461273319488e-01 -4.886188325915245129e-02 1.039797053949309963e-01
-1.595662466462273443e-02 1.708351946049963335e-02 -6.892467564243358602e-01 9.887024595589531950e-01 -6.236281288513712689e-02 1.363023331830020279e-01
5.608857733297792358e-03 1.745124427002881784e-01 -7.736115733234855130e-01 9.877298285409013001e-01 -6.574044508114350316e-02 1.416614968546320852e-01
8.391917267503276948e-03 -9.629410192683611480e-02 -9.203435782673340393e-01 9.873241950488521601e-01 -6.736333425847509937e-02 1.437119169335559499e-01
-4.552777434205510995e-03 1.598870810793618924e-01 -6.685827919703712929e-01 -9.872886657868382709e-01 6.473808889246843168e-02 -1.451553314742383971e-01
5.771601902075692257e-03 1.058837650418028992e-01 -7.677714517518670068e-01 -9.885705411939080811e-01 6.580144053861457232e-02 -1.356409064649269636e-01
1.515013404163115078e-02 3.225868622811872005e-02 -8.721507443689074934e-01 -9.894362020507806443e-01 6.346230236980145156e-02 -1.303400868852363781e-01
6.188505967017487314e-03 6.114590574071946533e-02 -7.918489572098172946e-01 -9.885705411939080811e-01 6.580144053861457232e-02 -1.356409064649269636e-01
1.518984698705180131e-02 1.798660892096295150e-01 -8.084326316833061465e-01 -9.931406752037040819e-01 -1.073020782393658418e-01 4.645280681986992816e-02
1.920542270350119153e-03 4.458860978089632804e-02 -8.066898669610023109e-01 9.884190256900304838e-01 -6.353527597147219652e-02 1.378081941003505284e-01
1.634287247185728029e-02 -4.845402664148178856e-02 -9.238441124240679425e-01 -9.920685544677926293e-01 9.793603375345750692e-03 1.253158751679569749e-01
-1.565989302472067107e-02 -1.203995898182986385e-01 -7.555281112107781194e-01 9.916067840788350685e-01 -5.350268060808287263e-02 1.177006751747000229e-01
4.664053595904817280e-03 8.598160396645072867e-02 -7.526949880368650758e-01 -9.731564232432179384e-01 1.004507113143620345e-01 -2.070657637005834939e-01
-7.270945140983595470e-03 1.409710994688979924e-01 -6.963876990720752058e-01 9.884411225774577536e-01 -6.083857574854904804e-02 1.388625755871738532e-01
7.471662764260695103e-03 -8.940926463688068926e-02 -9.107879974574156767e-01 9.875919599123781367e-01 -6.736823318229709368e-02 1.418578227463100916e-01
4.040427376811183899e-03 -9.560505478496843235e-02 -8.890499969906470179e-01 9.887850751718456621e-01 -6.841824229671887581e-02 1.327517202842787847e-01
-1.485591983103098229e-02 -4.485458892809739140e-02 -7.380105313475239237e-01 7.895342714704729481e-01 -6.082543413336304328e-01 8.162285477965658398e-02
2.066494956746201027e-04 1.776445944102649499e-01 -7.179028128988497182e-01 9.346808671891203291e-02 -4.311123662618494556e-01 8.974440620012007486e-01
8.081961920259839172e-03 9.033286183705774297e-02 -7.918702603369748294e-01 -9.884861064152350441e-01 6.349765529325314406e-02 -1.373436026770378515e-01
-1.057778958485676261e-02 -4.823193631217057020e-02 -7.594670910104633910e-01 9.887610651437590548e-01 -6.200098728097552803e-02 1.360420289174030795e-01
8.182744156610752620e-03 1.891648061106088741e-01 -7.846192831157100533e-01 9.875055807675617858e-01 -6.690240659454234351e-02 1.426772439626557698e-01
1.800654863432605418e-02 7.920269018543486805e-02 -8.732159347938758254e-01 -9.949630981617805237e-01 3.954340985664579755e-02 -9.211271374365583020e-02
-6.025162040294264158e-03 -1.295571122873777070e-01 -8.325327822680504974e-01 9.885705411939080811e-01 -6.580144053861457232e-02 1.356409064649269636e-01
5.910581693647704200e-03 1.763495192922186483e-01 -7.748628062043813047e-01 9.877298285409013001e-01 -6.574044508114350316e-02 1.416614968546320852e-01
1.516348737179306488e-02 9.775204978460029157e-03 -8.709215826825750240e-01 -8.737878815073665262e-01 4.037613564365784558e-01 2.710562767754382540e-01
-4.514535614869461845e-03 -1.095231099613938885e-01 -8.518218043530804140e-01 9.783618499791520984e-01 -9.030566506598304566e-02 1.861531019412835941e-01
3.157820263589813589e-03 1.625805872710655575e-01 -7.689146884219940636e-01 7.629989278672471009e-01 3.781195131627483885e-01 5.242692722628303770e-01
-1.107175370166965135e-02 -9.390415685172970317e-02 -7.428397352725579772e-01 -9.853503600849962130e-01 7.636127363725141171e-02 -1.524913891630114982e-01
1.011864819333947556e-02 9.255692803915702149e-02 -8.012020496618120768e-01 -1.747723444578389851e-01 -6.807569702573628145e-01 -7.113540433980301003e-01
1.561828451818995239e-02 1.162378382664235044e-01 -8.357642524705803933e-01 -9.894540408229492989e-01 6.264083188173666383e-02 -1.306017889628685591e-01
-3.396894646050825379e-03 2.002393185032426762e-02 -7.419380584383423738e-01 -9.885705411939080811e-01 6.580144053861457232e-02 -1.356409064649269636e-01
-1.065989194554235915e-02 -1.326242646768244493e-01 -7.635382473105936096e-01 -2.866304950795436901e-01 -9.255182736060615367e-01 -2.475053221886568677e-01
2.220187273380819053e-03 5.006973991822799563e-02 -8.063120208227348984e-01 9.884190256900304838e-01 -6.353527597147219652e-02 1.378081941003505284e-01
-8.313880962162172473e-04 1.209984482354418411e-01 -7.520875418440750027e-01 9.885230748720604810e-01 -6.146364090248881973e-02 1.380012727930322036e-01
-1.341810883865358428e-03 1.259354911283356096e-02 -7.605203963226323527e-01 -9.885705411939080811e-01 6.580144053861457232e-02 -1.356409064649269636e-01
2.669894190944392589e-03 -6.208849671125341724e-02 -8.625096119291193464e-01 9.885705411939080811e-01 -6.580144053861457232e-02 1.356409064649269636e-01
-6.343579741256411247e-05 1.467381671037136237e-01 -7.062373295189429134e-01 -9.884592152098338191e-01 6.121357883652336906e-02 -1.385686747890175485e-01
2.735059167238647598e-03 -1.364048937699319786e-01 -8.625145968411228603e-01 -9.885705411939080811e-01 6.580144053861457232e-02 -1.356409064649269636e-01
-1.147360849648081972e-02 -1.409851916404041561e-01 -7.871381354084523441e-01 2.592468669189210151e-01 9.596820177059257606e-01 1.086346486375608933e-01
1.129543477729963788e-02 1.665309073113467320e-01 -7.796595160190313845e-01 -9.894530223864207441e-01 6.271265941024110890e-02 -1.305750314572902138e-01
-1.250514771024254825e-02 -1.829269366473717795e-01 -8.078569823239717396e-01 9.802801044538610453e-01 1.906338458970404659e-01 -5.205433325315913379e-02
-8.838343127691040274e-03 2.674726236497309076e-02 -7.371565557731367679e-01 9.887173271480367287e-01 -6.260645870424073889e-02 1.360826158102374783e-01
-9.082134932612345377e-03 7.616355026606225209e-02 -7.127161814140929863e-01 9.887026010116628516e-01 -6.069951898784061578e-02 1.370501191076371195e-01
-1.220157638404920867e-03 -1.110854550990453826e-01 -8.769999424739626237e-01 9.858323795059228400e-01 -4.602181685075238532e-02 1.612963480412556994e-01
1.155409426651690837e-02 1.035655482623283477e-04 -8.606290207153445282e-01 -9.892918025778667523e-01 6.378103365891127363e-02 -1.312772223107884217e-01
7.817217420013743839e-03 4.396803802032807351e-02 -8.120524833830174982e-01 -9.885705411939080811e-01 6.580144053861457232e-02 -1.356409064649269636e-01
-1.047561647824840798e-02 8.042654985908624654e-02 -7.005856409564193976e-01 9.893681161571390437e-01 -6.129158524970311495e-02 1.318865888149837184e-01
-1.773066507955675317e-02 -2.045938386574923731e-03 -6.832167602550622831e-01 9.934152247376000222e-01 -4.761278791675401661e-02 1.042075510044167402e-01
-2.047976823575435677e-03 -6.593314693511359570e-02 -8.299901832850004046e-01 9.885705411939080811e-01 -6.580144053861457232e-02 1.356409064649269636e-01
-6.721447271405815542e-03 6.478607729264061754e-02 -6.969103873586843800e-01 -9.878734128785660040e-01 6.487635939224091486e-02 -1.410573575523924039e-01
1.061404180123280694e-02 1.688440034488115638e-01 -7.602639671190751791e-01 -5.221658473659801514e-01 -5.582623759170602940e-01 -6.447371150166606446e-01
-5.596258214010755953e-03 1.949784952201411570e-01 -6.841132842102968237e-01 9.883303327378442082e-01 -6.354024877280770034e-02 1.384405655008395242e-01
4.394225755060234689e-03 -9.628509608532669073e-03 -8.131057152057280524e-01 -9.885705411939080811e-01 6.580144053861457232e-02 -1.356409064649269636e-01
-5.644109535964505001e-03 -2.713950378386076889e-01 -9.274473212186552518e-01 9.951315623907376340e-01 -4.994724734479247252e-02 8.496143840853845330e-02
1.057978491926999526e-02 2.616072394123638428e-02 -8.770457076663235041e-01 9.883678048061127486e-01 -6.310575746179257484e-02 1.383717666213720165e-01
1.781768656649912594e-03 1.912965300611075836e-01 -6.996898948119932848e-01 -9.884703875900531234e-01 6.030062665409566952e-02 -1.388889026621406009e-01
-6.051234350526326668e-03 1.316485549660723064e-01 -7.094200034319050330e-01 9.885205846068002566e-01 -6.372444367396273845e-02 1.369899598039001631e-01
1.919155804265619460e-03 -3.785516331282855196e-02 -8.452821680791537950e-01 9.885705411939080811e-01 -6.580144053861457232e-02 1.356409064649269636e-01
-4.791746133250192503e-03 4.594521610016545632e-02 -7.488231279518267058e-01 2.690970856425326518e-01 9.506649651874630180e-01 1.543466308793780828e-01
1.758000941671812589e-03 -1.723897286262212614e-01 -9.101028154489372302e-01 9.872787888434938486e-01 -6.866599525228191114e-02 1.434070228257242341e-01
1.669076882735004083e-02 1.559269401252383379e-03 -8.993347327813213665e-01 -9.912980171920515726e-01 5.857399235653116404e-02 -1.178869311269247488e-01
-1.410796393559502447e-02 3.528932028494317225e-02 -6.633737648679191024e-01 -9.423360200765221739e-01 1.188523262799357910e-01 -3.128529204022050814e-01
1.242037714927228011e-02 1.369047259215760981e-01 -8.018481145527889264e-01 -9.885705411939080811e-01 6.580144053861457232e-02 -1.356409064649269636e-01
1.107334729074311089e-02 -4.736245317638612673e-02 -8.801197706894491324e-01 -9.893401852424522636e-01 6.384328502866988553e-02 -1.308817512916850279e-01
9.199937884088075363e-03 1.540020321779586032e-01 -7.698297170590665539e-01 -9.893595921890785405e-01 6.304577715317877251e-02 -1.311214220736343083e-01
6.442149839897845162e-03 9.332699460647903011e-02 -7.786839754735778163e-01 -9.884861064152350441e-01 6.349765529325314406e-02 -1.373436026770378515e-01
5.511239597755614346e-03 3.075476481417247984e-02 -8.388420468131616570e-01 9.885705411939080811e-01 -6.580144053861457232e-02 1.356409064649269636e-01
7.940091728896600878e-03 2.297834579932894750e-02 -8.730893117025878558e-01 8.546506247342571250e-01 -4.225118907818404823e-01 -3.017548869352383312e-01
5.823667463902968186e-05 -6.072884464770759300e-02 -8.428158866486084033e-01 9.885705411939080811e-01 -6.580144053861457232e-02 1.356409064649269636e-01
-8.202532061102002156e-03 7.338786600629501611e-02 -6.823583524995654459e-01 -9.885705411939080811e-01 6.580144053861457232e-02 -1.356409064649269636e-01
5.070333601253860720e-03 -2.240712019086645301e-01 -9.069496303498227885e-01 -9.976735798502921471e-01 2.968264739225910318e-02 -6.137074639019581695e-02
-3.788798778976368992e-03 1.817465363661098232e-01 -7.031193704791438570e-01 9.884861743044066618e-01 -6.377422905253750385e-02 1.372149077826204933e-01
-4.978732412534676161e-03 -1.158760222041496507e-01 -7.963365044626613543e-01 -9.885705411939080811e-01 6.580144053861457232e-02 -1.356409064649269636e-01
-7.380588127541764035e-03 -4.596891718347411587e-02 -8.005862792072997447e-01 9.842208016263404025e-01 -1.232311446584304498e-01 1.269783392243608866e-01
8.436635913026464817e-03 1.519125718542333192e-01 -7.472901396853101064e-01 -9.877793344344436566e-01 6.854271259151197004e-02 -1.399781519196667268e-01
2.421929718737991614e-03 8.249249386266316320e-02 -8.045330895727998977e-01 7.860350923799573897e-01 3.512768732795617521e-01 5.086780827263611693e-01
9.758495008738922623e-04 9.004486433904659859e-02 -7.598906931752263949e-01 -3.970942909688440770e-01 -3.974250173800246144e-01 8.272662688883419824e-01
-1.167624068809187780e-02 -1.232669747824114009e-01 -7.876315047336793773e-01 9.885705411939080811e-01 -6.580144053861457232e-02 1.356409064649269636e-01
8.556532992398592496e-03 1.566858206147579702e-01 -8.024359990700082879e-01 9.875474205622321033e-01 -6.682186381579346968e-02 1.424251756434426475e-01
-1.494271874881335053e-02 -5.266424619553132513e-02 -7.409692641761536080e-01 8.596246026407714513e-01 4.901433578745386654e-01 1.442394927409544614e-01
-1.228092819154445953e-03 -1.628972205818009222e-01 -8.843322626216418847e-01 9.885705411939080811e-01 -6.580144053861457232e-02 1.356409064649269636e-01
4.618772470533576667e-03 9.460499657416793218e-02 -7.648409640934498155e-01 -9.885705411939080811e-01 6.580144053861457232e-02 -1.356409064649269636e-01
-2.416523212039471766e-03 -6.631796635127014394e-02 -8.274908455881067049e-01 9.885705411939080811e-01 -6.580144053861457232e-02 1.356409064649269636e-01
-4.518987422573177322e-03 9.698547586058765824e-02 -7.363408248455988181e-01 9.886906163688299332e-01 -6.117465574057112665e-02 1.369252591717317613e-01
-9.910619364826869088e-03 3.156495730252614068e-02 -6.900970863752403650e-01 -9.868933617364921140e-01 6.673903275897652421e-02 -1.469264920524614437e-01
-5.750457668431878909e-03 1.558446131304156435e-01 -6.623907014131203974e-01 -9.868004367378696573e-01 6.573664026011105666e-02 -1.479986222275822827e-01
-7.678903741810802399e-04 7.021048966502912991e-02 -7.373096377033653281e-01 -9.886783040427298275e-01 6.305273795098792489e-02 -1.361600651882765856e-01
-4.739224763346042840e-03 -1.011985834980964477e-01 -7.909618249290536474e-01 -9.885705411939080811e-01 6.580144053861457232e-02 -1.356409064649269636e-01
1.236748223653004637e-02 8.326158384510815025e-02 -8.626979838629569297e-01 9.857057066751605534e-01 -7.387776791725908510e-02 1.514144485694361442e-01
2.337847412066963986e-03 -3.793001567774752225e-02 -8.118480180470193375e-01 -9.885705411939080811e-01 6.580144053861457232e-02 -1.356409064649269636e-01
7.330196280218739466e-03 -1.637332542375410371e-01 -9.104197684920326550e-01 -9.898516385723876709e-01 7.186376897056570567e-02 -1.225941773695006093e-01
7.318312057043122390e-03 1.388304134874773429e-02 -8.599738280560734749e-01 9.878338900442511505e-01 -6.775260313027907377e-02 1.399778212757768481e-01
1.334288239032080207e-02 8.353092486823508744e-02 -8.337957372476380025e-01 -9.885705411939080811e-01 6.580144053861457232e-02 -1.356409064649269636e-01
-9.029031883877550874e-03 -1.909341054998882070e-01 -8.401925160696553929e-01 9.898995493163783577e-01 -6.054072059646622983e-02 1.281940069304789154e-01
5.452949973834468264e-03 4.102273213723133666e-02 -8.336124454798323757e-01 9.883871190793209749e-01 -6.331774744136270394e-02 1.381367644656268656e-01
-1.752792602122622357e-03 -3.937280791605516500e-02 -7.827347622608721300e-01 -9.885705411939080811e-01 6.580144053861457232e-02 -1.356409064649269636e-01
1.645465959405379569e-02 3.323506633529099696e-02 -8.816785616602864639e-01 -9.912094710332244318e-01 5.834382747503123745e-02 -1.187425043091121790e-01
-1.160423426265815450e-03 6.928486738253619714e-02 -7.348886970251535811e-01 -9.886468561209913464e-01 6.303758246527774167e-02 -1.363952238130547168e-01
-8.351893699848440475e-03 -7.078236629629058863e-02 -7.863987546174669996e-01 9.885705411939080811e-01 -6.580144053861457232e-02 1.356409064649269636e-01
-2.100939146761897792e-03 -1.856733483876489565e-01 -8.890198739744809009e-01 9.885705411939080811e-01 -6.580144053861457232e-02 1.356409064649269636e-01
5.171369777178328082e-03 1.371230632537876193e-01 -7.309792866861895000e-01 -9.885705411939080811e-01 6.580144053861457232e-02 -1.356409064649269636e-01
-1.620893214747041663e-02 8.688721943686543436e-02 -6.541043015569923957e-01 9.956507293023901806e-01 -5.276794567673156328e-02 7.678000487546439434e-02
-3.481258776979180526e-04 -2.143882831736322325e-01 -8.932485182033916837e-01 -8.746825508197485222e-02 4.318229631859966111e-01 -8.977072088482861423e-01
1.028378682595895363e-02 5.727824462821826113e-02 -8.235722168069891103e-01 -9.885705411939080811e-01 6.580144053861457232e-02 -1.356409064649269636e-01
-5.503349951844345792e-03 1.115004226221613520e-01 -6.836376130156641695e-01 -9.876524888296067672e-01 6.786586676107526916e-02 -1.411976821249253944e-01
1.018915963970207055e-03 1.357346601300572775e-01 -7.586477477688476911e-01 9.885475248122210790e-01 -6.350233121837782491e-02 1.368986673326758330e-01
-7.325213045042866696e-03 -1.407255146727352801e-01 -7.882964399326012339e-01 -1.473632819935484228e-01 9.874604985046006034e-01 5.662002307607557489e-02
-1.072535020966016231e-02 1.568471357128118360e-01 -6.640342829452335893e-01 9.892139120455658574e-01 -6.059343867401975614e-02 1.333576822127827688e-01
