-6.174148086878242236e-02 -2.295570692746955535e-02 -7.248040960817461187e-01 -1.861271261570140610e-03 -5.654455582721246154e-01 8.247835208705470711e-01
-9.375563587961708786e-03 -6.861039199850196835e-02 -7.499091434474598472e-01 -8.180109630744697435e-02 -3.410107398153261471e-01 9.364935963334206637e-01
-1.222080250355259412e-01 -5.426369976467378120e-02 -7.333696812366110596e-01 1.105364773563586589e-01 -5.789253456438236967e-01 8.078534095644001045e-01
-6.099473707197633487e-02 1.274552225668615923e-01 -6.004959800688253191e-01 1.903650328073143438e-01 -6.893781311731366213e-01 6.989413040767470386e-01
-1.682943820497788123e-01 -9.980104806732804923e-02 -7.400585518526037188e-01 4.288935706292125172e-01 -3.980886610734460374e-01 8.109104284677043362e-01
5.356968552053594651e-02 5.023210374077605872e-03 -6.867959072208299487e-01 -3.520696827226012515e-01 -4.633913840148028984e-01 8.132129879241061232e-01
-4.226838107290523810e-02 -6.629471894075596172e-03 -7.036544088218227300e-01 3.136195514799139383e-01 -5.354472165561502406e-01 7.841804991274704539e-01
1.883325025851174672e-01 1.983371701356014677e-02 -6.029637463361459115e-01 -7.769012084350819247e-01 -2.798456459358838466e-01 5.640132328082713142e-01
-1.952074798219730414e-02 1.416427714431118257e-01 -5.980676120907394422e-01 1.932027648964379229e-01 -6.798061991116982616e-01 7.074858467034359499e-01
-3.541951284085648882e-03 6.889612971571724975e-02 -6.673028270363002834e-01 3.145337264028112423e-01 -5.392295368716021331e-01 7.812170258771879983e-01
-1.079747232059179857e-01 -6.364407148646327762e-03 -7.096491050638014109e-01 3.785516904638421831e-01 -4.633835773364575195e-01 8.012329735487890847e-01
-2.130009340359522441e-01 2.621586083791115768e-02 -6.230982447629289656e-01 5.999372311635668975e-01 -2.114224792032174949e-01 7.716060224955204605e-01
1.794106519797108723e-01 8.158064266244079155e-02 -5.450252888026166920e-01 -6.285136478125488146e-01 -7.050153993985265322e-01 3.285177029085332712e-01
-1.244335767496693446e-01 4.587161487589837272e-02 -6.549426547270480459e-01 5.288550684967589788e-02 -5.929125288528905857e-01 8.035283792714000839e-01
-6.635015566592286640e-02 1.391001360468856196e-01 -5.877224274165492313e-01 1.932027648964379229e-01 -6.798061991116982616e-01 7.074858467034359499e-01
-4.177631622212360507e-02 1.008286707485558792e-01 -6.307560941461559656e-01 2.375780393394140155e-01 -6.461107207527162499e-01 7.253258659058322566e-01
-2.104900564239073346e-01 -7.356759257631230453e-02 -6.862469152286888585e-01 6.298951242164667619e-01 -5.998095267112971696e-01 4.934173326451875563e-01
1.090938646429657696e-02 8.796231415544231158e-02 -6.480648369800213748e-01 -4.863880358807095017e-01 -5.482492454890959266e-01 6.803303928039247106e-01
1.405898194934195045e-01 2.120775122832128587e-02 -6.473721076447991329e-01 -1.555300537286766760e-01 -7.266994343664378020e-01 6.691175789640071425e-01
-2.946819360652230824e-02 1.610425185637643641e-01 -5.767103758682750048e-01 1.932027648964379229e-01 -6.798061991116982616e-01 7.074858467034359499e-01
-1.038249553514893897e-01 -6.695675847092129318e-02 -7.449811110499969802e-01 1.105364773563586589e-01 -5.789253456438236967e-01 8.078534095644001045e-01
1.077513491170174337e-01 6.431661651397654889e-02 -6.103290941739274444e-01 -1.006089864022619990e-01 -6.577944892430046542e-01 7.464477488589833509e-01
-8.647686367151630193e-02 6.905708130289858748e-03 -6.943347850234005136e-01 -4.614609024154540939e-02 -8.256498996121747203e-01 5.622924342598116798e-01
2.098978040299882275e-01 -1.089361135506782402e-01 -7.035334578211031031e-01 -4.834184226309490989e-02 -5.968747871186906861e-01 8.008767413208024433e-01
8.084984164206030638e-03 -8.989997191920636940e-03 -7.169010970896947388e-01 -5.296545807541781503e-01 -4.771508847313736812e-01 7.012795863891826409e-01
1.114953052510409340e-02 6.054021864685775467e-02 -6.695491754773835735e-01 -3.665013902964713299e-01 -5.344205850514256451e-01 7.616241653099286024e-01
2.573323992561225501e-02 9.257234665356023351e-02 -6.337518033260735040e-01 -4.863880358807095017e-01 -5.482492454890959266e-01 6.803303928039247106e-01
-2.061558735001517706e-01 2.172691752789754002e-02 -6.296503841205896013e-01 5.999372311635668975e-01 -2.114224792032174949e-01 7.716060224955204605e-01
-1.694498214085581045e-01 -6.792590913832427524e-02 -7.111428940257701337e-01 3.783637294948967167e-01 -7.625097668327697198e-01 5.248044813903057770e-01
3.195736597740197332e-02 -7.498614947376446016e-02 -7.455634131157589106e-01 -1.915613311198484103e-01 -3.382906240063242032e-01 9.213379999375926888e-01
-4.747370585329859644e-02 -2.015026448813813514e-02 -7.190374033282396216e-01 -1.381499515281117696e-01 -7.481420624520810359e-01 6.489977236344720568e-01
-1.021867573349164171e-01 5.746102019988067605e-02 -6.478552021305822306e-01 5.288550684967589788e-02 -5.929125288528905857e-01 8.035283792714000839e-01
-1.518113354478678179e-01 7.705006276564371585e-03 -6.777654006087092675e-01 7.056862503215904914e-01 -1.825626775534354984e-01 6.846004563769833018e-01
-2.145875972246470420e-01 -9.600493924439484905e-02 -7.076834164432685981e-01 6.434199200690150500e-01 -4.610494609413300360e-01 6.111008108520977755e-01
5.223363558599522505e-02 1.598804542485291391e-03 -6.893256538737169148e-01 -3.520696827226012515e-01 -4.633913840148028984e-01 8.132129879241061232e-01
-4.254328619354709462e-02 -7.326791823737313636e-02 -7.558952582709084211e-01 -1.336493895411609012e-01 -3.794313207450653591e-01 9.155160913457121019e-01
1.019063066017023150e-01 -8.461599444381648349e-02 -7.283978095559663357e-01 -3.635705994734777513e-01 -4.035132469204270045e-01 8.396388978353909183e-01
1.479737760593221874e-01 4.092815234062344154e-02 -6.255184563993694269e-01 -1.006089864022619990e-01 -6.577944892430046542e-01 7.464477488589833509e-01
-1.922842986575507562e-01 8.462045498625131446e-02 -6.076373481113777064e-01 2.901815467018515893e-01 -7.943029429859942425e-01 5.337391729276664831e-01
-1.884379436052170953e-01 -1.098643818513599935e-01 -7.343447950602094432e-01 4.288935706292125172e-01 -3.980886610734460374e-01 8.109104284677043362e-01
5.041362870824323689e-02 5.073835749403712847e-02 -6.531876476894679096e-01 -4.787505335219610081e-01 -5.986256832694063501e-01 6.422189797745578854e-01
2.634137145349411957e-02 1.196099638118651443e-01 -6.086246175844969297e-01 -3.739178307827435987e-01 -6.633146071995154047e-01 6.482277282703046151e-01
-1.577513780350482953e-01 4.321332161058302063e-02 -6.541392690229281826e-01 8.784200735328377696e-02 -6.255977554526641615e-01 7.751846425960295939e-01
-9.403004456438716213e-03 1.612070413237200739e-01 -5.835584534448048366e-01 3.908357924027420216e-01 -5.921097331017101117e-01 7.047364382115786086e-01
6.764899414194162908e-02 7.024531708075508474e-02 -6.221564760244192582e-01 -4.787505335219610081e-01 -5.986256832694063501e-01 6.422189797745578854e-01
2.017764481204298577e-01 4.765584708024194621e-02 -5.380152003508453795e-01 -9.671339504440199519e-01 -1.619982897253373355e-01 1.959808052453344551e-01
1.949086531498483432e-01 -5.721626203712670833e-02 -6.458906855196501207e-01 3.833907420902382679e-02 -8.020026214776583284e-01 5.960888444953140741e-01
-9.374874723977331958e-02 -1.220672755029048560e-02 -7.167958707098970317e-01 1.840369207667329754e-01 -3.806172928104248898e-01 9.062344554299193167e-01
8.540983132677273937e-02 5.243903785636219728e-02 -6.269848688809351867e-01 -1.592597531060274962e-01 -7.208825824407472105e-01 6.745106621649258338e-01
-1.617785569442512228e-01 -3.789801357351195443e-02 -6.801239834552804675e-01 5.717042357825229404e-01 -5.893429393778899517e-01 5.708144765103194684e-01
-7.544846682086162049e-02 -5.093717052627103406e-03 -7.076356305474477137e-01 -1.381499515281117696e-01 -7.481420624520810359e-01 6.489977236344720568e-01
5.524726695806880805e-02 -7.853382132414411798e-02 -7.428250206246622689e-01 -1.620661596787502101e-01 -3.625148638382928445e-01 9.177785862523083482e-01
-6.329606125771687977e-03 -4.584434839944544204e-02 -7.413531553857514167e-01 -8.180109630744697435e-02 -3.410107398153261471e-01 9.364935963334206637e-01
-8.435356160397283753e-02 6.542552445268951140e-03 -6.946937750324476690e-01 -4.614609024154540939e-02 -8.256498996121747203e-01 5.622924342598116798e-01
-1.647679844513880720e-01 7.177838058399842180e-02 -6.304538857466341906e-01 7.804298828151730316e-02 -6.247983126285204802e-01 7.768760264782562652e-01
3.683132126833012221e-02 1.533925944702228816e-01 -5.670024446680608232e-01 -3.676295278298160607e-01 -6.781584012902910352e-01 6.363565926640682990e-01
-2.712034531809958196e-02 4.209040252515688224e-02 -6.763121541339237597e-01 3.145337264028112423e-01 -5.392295368716021331e-01 7.812170258771879983e-01
-2.098670742050358640e-01 -1.037161000209428224e-01 -7.160767083007649747e-01 5.762132393389918228e-01 -3.145679346013726674e-01 7.543376679784007388e-01
1.767920679033871123e-01 -6.160694944267293416e-02 -6.598660199159488426e-01 -2.615519308215930039e-01 -7.964370282038248927e-01 5.452326545515743250e-01
6.048382706841618633e-02 -3.788878083499419049e-03 -6.888238953000243026e-01 -3.520696827226012515e-01 -4.633913840148028984e-01 8.132129879241061232e-01
-1.688300720136589883e-01 6.833158464981856084e-02 -6.328178856243947825e-01 7.804298828151730316e-02 -6.247983126285204802e-01 7.768760264782562652e-01
2.039772287636358872e-01 3.605144695431869439e-02 -5.556782171337146803e-01 -9.043027492539564838e-01 -3.998526783619013591e-01 1.495137896601832772e-01
1.421277387238377432e-01 6.209729277446548318e-02 -6.076514589451118553e-01 -1.006089864022619990e-01 -6.577944892430046542e-01 7.464477488589833509e-01
9.318884062694794690e-02 -1.446497798200365170e-01 -7.746130740061391018e-01 -3.510376988727183512e-01 -6.714702471081953616e-01 6.526103287710098844e-01
1.188294403908375235e-01 1.714669995836665128e-02 -6.568406327455735827e-01 -1.555300537286766760e-01 -7.266994343664378020e-01 6.691175789640071425e-01
-1.712415035581289213e-01 -1.009279156537196132e-01 -7.390530052108352788e-01 4.288935706292125172e-01 -3.980886610734460374e-01 8.109104284677043362e-01
4.843633318549757372e-02 6.874971542024631288e-02 -6.378728867302164707e-01 -4.787505335219610081e-01 -5.986256832694063501e-01 6.422189797745578854e-01
1.592502620539740787e-01 -2.663799346026370779e-02 -6.546217551459028172e-01 -7.600786203725113932e-01 -1.835739228271584256e-01 6.233627400723178447e-01
2.404465153898988905e-01 -9.547017351186261325e-02 -6.896111507660216411e-01 -1.127140723789368387e-01 -7.664170270096339888e-01 6.323768485622079938e-01
2.811063407820051790e-02 7.790071044158504432e-02 -6.444951118255795031e-01 -4.787505335219610081e-01 -5.986256832694063501e-01 6.422189797745578854e-01
1.051447037979968135e-01 1.238300992650409951e-02 -6.651951564420726104e-01 -1.555300537286766760e-01 -7.266994343664378020e-01 6.691175789640071425e-01
3.391182283425236282e-02 8.913448892711024057e-03 -6.930897497241725880e-01 -3.520696827226012515e-01 -4.633913840148028984e-01 8.132129879241061232e-01
1.118171400103036423e-01 -1.033542619361593057e-01 -7.338479313174338658e-01 -3.581579766785379371e-01 -4.320590348474753761e-01 8.276761771056383443e-01
-1.055982651100723091e-01 -1.111424391611173373e-01 -7.686059473032160749e-01 1.354008520074096722e-01 -4.402624642254824305e-01 8.876010206561129046e-01
-1.756433530420008771e-01 -7.156103189093614148e-02 -7.119592149416922311e-01 3.783637294948967167e-01 -7.625097668327697198e-01 5.248044813903057770e-01
-2.005064104717328988e-01 -7.066616878205080055e-02 -6.917781735341307359e-01 4.552922038004029170e-01 -7.389116596516138724e-01 4.967077293433935226e-01
8.704393736926718805e-02 -1.041530816702044004e-01 -7.453482571694083347e-01 -4.633799345075443332e-01 -5.395873429426834011e-01 7.029399232024302613e-01
-2.920698609517839023e-02 6.943249582903102124e-02 -6.581929210616680459e-01 2.391160921166458064e-01 -5.006641765960901935e-01 8.319608625195193952e-01
8.398089383785391215e-02 4.569420819357303612e-03 -6.786004824516324030e-01 -1.555300537286766760e-01 -7.266994343664378020e-01 6.691175789640071425e-01
6.980579998737615477e-02 6.528846033696185380e-02 -6.251690462953818361e-01 -4.787505335219610081e-01 -5.986256832694063501e-01 6.422189797745578854e-01
-1.293425498678563990e-01 -5.263684287533276773e-02 -7.278277974644170589e-01 5.717042357825229404e-01 -5.893429393778899517e-01 5.708144765103194684e-01
1.370372232879144003e-01 7.377229447400247830e-02 -5.980491790902376925e-01 -1.006089864022619990e-01 -6.577944892430046542e-01 7.464477488589833509e-01
2.119305123787860179e-01 2.766202990017414560e-03 -5.789269825683454052e-01 -7.769012084350819247e-01 -2.798456459358838466e-01 5.640132328082713142e-01
-8.412759570276752419e-02 -5.513024689862054900e-04 -7.042467894149098129e-01 -1.381499515281117696e-01 -7.481420624520810359e-01 6.489977236344720568e-01
-7.532780948707562541e-02 7.283523630907473567e-02 -6.428894832572424889e-01 2.391160921166458064e-01 -5.006641765960901935e-01 8.319608625195193952e-01
-1.625102755925324216e-01 3.589311863338080777e-02 -6.595412158878810605e-01 7.804298828151730316e-02 -6.247983126285204802e-01 7.768760264782562652e-01
-6.581310377601669315e-02 -1.781087971211004622e-02 -7.202444873507913847e-01 -1.381499515281117696e-01 -7.481420624520810359e-01 6.489977236344720568e-01
-1.038609116284762990e-01 -1.283175370710475660e-01 -7.790610758002686209e-01 9.578000250383573999e-02 -5.931555375528403395e-01 7.993701892057059055e-01
1.042577086589437929e-01 3.695872236581652925e-02 -6.390792388811727953e-01 -1.592597531060274962e-01 -7.208825824407472105e-01 6.745106621649258338e-01
-1.004587591075772751e-01 -1.436752685299797216e-01 -7.908645953253846672e-01 9.578000250383573999e-02 -5.931555375528403395e-01 7.993701892057059055e-01
8.852723173808399459e-02 6.375263016166805852e-02 -6.141574244194966115e-01 -1.592597531060274962e-01 -7.208825824407472105e-01 6.745106621649258338e-01
-6.510373153284582104e-02 6.893045833189943850e-02 -6.481778618515433577e-01 2.391160921166458064e-01 -5.006641765960901935e-01 8.319608625195193952e-01
1.702863526684042506e-02 6.426742197828813272e-03 -7.018160945471939582e-01 -3.520696827226012515e-01 -4.633913840148028984e-01 8.132129879241061232e-01
-2.273836778852059426e-01 -1.013594356445481209e-01 -6.982503320576127770e-01 6.434199200690150500e-01 -4.610494609413300360e-01 6.111008108520977755e-01
-1.441535127283235240e-01 -1.023914979199105624e-01 -7.516989084202653215e-01 3.433065572456345249e-01 -3.121962991223377060e-01 8.858183101327639086e-01
-1.094942345868846617e-01 -4.700944826875003667e-03 -7.079691508334993166e-01 3.785516904638421831e-01 -4.633835773364575195e-01 8.012329735487890847e-01
-1.782790652028101719e-01 -4.363047887038329353e-02 -6.695162943282279011e-01 5.717042357825229404e-01 -5.893429393778899517e-01 5.708144765103194684e-01
2.359022814449404648e-01 -7.924308507527476342e-02 -6.695237304339264339e-01 -1.518386606739330902e-01 -7.428646417269582081e-01 6.519947432277535260e-01
-1.441772890151492847e-01 3.654143112897581536e-02 -6.605278048294817017e-01 5.288550684967589788e-02 -5.929125288528905857e-01 8.035283792714000839e-01
1.451016965285626681e-01 -7.846512919913657333e-03 -6.661186726095195132e-01 -4.491889616408424879e-01 -4.542232330137747631e-01 7.693572195869325947e-01
-1.707988200100749032e-01 -2.845244443022323932e-02 -6.678352205951247900e-01 7.056862503215904914e-01 -1.825626775534354984e-01 6.846004563769833018e-01
-1.250574438368475816e-01 4.262787313966232006e-03 -6.954320664049425949e-01 3.785516904638421831e-01 -4.633835773364575195e-01 8.012329735487890847e-01
4.324648664588795835e-03 6.760893120984040605e-02 -6.678733662382398961e-01 -3.665013902964713299e-01 -5.344205850514256451e-01 7.616241653099286024e-01
1.037825785970026699e-01 -1.701654774028970186e-03 -6.808085099172411780e-01 -1.555300537286766760e-01 -7.266994343664378020e-01 6.691175789640071425e-01
2.320003494776076008e-02 9.904334064186104403e-02 -6.303481673831805576e-01 -4.863880358807095017e-01 -5.482492454890959266e-01 6.803303928039247106e-01
-1.028520314576331779e-01 -1.460642400697307886e-01 -7.923505202225328281e-01 9.578000250383573999e-02 -5.931555375528403395e-01 7.993701892057059055e-01
1.738827796946818688e-02 1.765749317409886499e-01 -5.535297156148624165e-01 -3.676295278298160607e-01 -6.781584012902910352e-01 6.363565926640682990e-01
6.083526097076841915e-02 2.998213549788398408e-02 -6.647660123950631661e-01 -4.787505335219610081e-01 -5.986256832694063501e-01 6.422189797745578854e-01
-7.754798746522868769e-02 9.399711666330307080e-02 -6.251246622946996512e-01 2.375780393394140155e-01 -6.461107207527162499e-01 7.253258659058322566e-01
1.667941060446504198e-01 -2.450910908338478633e-02 -6.447964611471993512e-01 -7.600786203725113932e-01 -1.835739228271584256e-01 6.233627400723178447e-01
1.817317280351040953e-01 -7.308398874803777312e-02 -6.742612718627447599e-01 -2.615519308215930039e-01 -7.964370282038248927e-01 5.452326545515743250e-01
3.819644930185021880e-02 -2.747287145461716276e-02 -7.119687156185972032e-01 -3.520696827226012515e-01 -4.633913840148028984e-01 8.132129879241061232e-01
4.751963390223207934e-02 1.475896070275041494e-01 -5.670118817667444411e-01 -3.676295278298160607e-01 -6.781584012902910352e-01 6.363565926640682990e-01
-3.999238106114706010e-02 6.101166361394320947e-02 -6.601606188282025389e-01 2.391160921166458064e-01 -5.006641765960901935e-01 8.319608625195193952e-01
-1.563513670098448383e-01 5.981921696140753836e-02 -6.409174899140247517e-01 7.804298828151730316e-02 -6.247983126285204802e-01 7.768760264782562652e-01
-2.362371536436619693e-02 -2.828561423188316951e-02 -7.258980795743293912e-01 3.136195514799139383e-01 -5.354472165561502406e-01 7.841804991274704539e-01
-2.502373960192191271e-01 -1.107595639389238190e-01 -6.731470831457532222e-01 7.914770977348394299e-01 -4.927436419896112363e-01 3.616181785254289904e-01
1.481064489580565247e-01 -1.004716774171470067e-01 -7.183602540766519384e-01 -2.799089537195293409e-01 -4.834242358293708852e-01 8.294287105233499879e-01
1.960600394363118115e-01 4.884292385414549381e-02 -5.693547467776398641e-01 -9.043027492539564838e-01 -3.998526783619013591e-01 1.495137896601832772e-01
-1.656631279139702817e-01 9.912948162065801649e-02 -6.005185338161036501e-01 2.901815467018515893e-01 -7.943029429859942425e-01 5.337391729276664831e-01
-1.842961873988556987e-01 8.137437240051882681e-02 -6.168110713073722273e-01 2.901815467018515893e-01 -7.943029429859942425e-01 5.337391729276664831e-01
-2.597633404837237231e-02 -7.160766790231674894e-02 -7.527886891509953937e-01 -1.336493895411609012e-01 -3.794313207450653591e-01 9.155160913457121019e-01
-2.255794700534624608e-01 7.820892613451636832e-02 -5.843337816436318111e-01 7.197914134471993242e-01 -3.076668516380603458e-01 6.222872564425586672e-01
1.009648255187602789e-01 3.113506705491541141e-02 -6.460807522753747589e-01 -1.592597531060274962e-01 -7.208825824407472105e-01 6.745106621649258338e-01
1.020909919701046276e-01 -1.029082229834723562e-02 -6.900578120833351647e-01 -7.474411824653728886e-02 -6.400808079938435924e-01 7.646632435428656338e-01
6.774017378550687557e-03 -5.890108646032446438e-02 -7.448934415913146534e-01 -1.915613311198484103e-01 -3.382906240063242032e-01 9.213379999375926888e-01
-8.353360906667638142e-02 -1.269774570269122105e-01 -7.805023019141261731e-01 9.578000250383573999e-02 -5.931555375528403395e-01 7.993701892057059055e-01
2.740150169327132401e-02 -1.129487482126108749e-01 -7.655017232375266323e-01 -1.078480780456112370e-01 -6.003164863450765054e-01 7.924575119740926432e-01
-4.932259893239691884e-02 1.601832091882982867e-01 -5.721141536553663309e-01 1.932027648964379229e-01 -6.798061991116982616e-01 7.074858467034359499e-01
2.458547541696020494e-02 4.093211472058438938e-02 -6.768423814209684197e-01 -3.665013902964713299e-01 -5.344205850514256451e-01 7.616241653099286024e-01
9.220605830995340368e-02 -7.527566802305023230e-02 -7.281093279771687632e-01 -3.635705994734777513e-01 -4.035132469204270045e-01 8.396388978353909183e-01
1.452903434996403662e-02 -1.489972698735537310e-03 -7.074094277108937678e-01 -3.520696827226012515e-01 -4.633913840148028984e-01 8.132129879241061232e-01
-5.639699405872660581e-02 4.087381716418874572e-02 -6.675644422963685765e-01 2.391160921166458064e-01 -5.006641765960901935e-01 8.319608625195193952e-01
1.401312294537616077e-01 6.907873047210473516e-02 -6.017682816199633189e-01 -1.006089864022619990e-01 -6.577944892430046542e-01 7.464477488589833509e-01
1.182308046632562504e-01 -7.696690470831295261e-02 -7.176531708728854930e-01 -3.635705994734777513e-01 -4.035132469204270045e-01 8.396388978353909183e-01
8.632397011254315522e-02 -7.880183806320616158e-02 -7.323509259585946340e-01 -3.635705994734777513e-01 -4.035132469204270045e-01 8.396388978353909183e-01
3.734842245974883540e-02 9.968919717747715126e-02 -6.197126043571639098e-01 -4.863880358807095017e-01 -5.482492454890959266e-01 6.803303928039247106e-01
2.549089170331759746e-01 -8.856779868374002607e-02 -6.759120865820625879e-01 -2.803406089421318081e-01 -7.521446438544961977e-01 5.963954876581037956e-01
-1.511284835232706153e-02 9.904554317339382685e-02 -6.410134294936840060e-01 1.903650328073143438e-01 -6.893781311731366213e-01 6.989413040767470386e-01
8.497337543007539573e-02 3.725997393317372758e-02 -6.433105302470388809e-01 -1.592597531060274962e-01 -7.208825824407472105e-01 6.745106621649258338e-01
-3.085925613935407499e-02 9.035767242173471658e-02 -6.436593676204440673e-01 2.375780393394140155e-01 -6.461107207527162499e-01 7.253258659058322566e-01
-2.021955409177774166e-01 2.376631271887899577e-02 -6.321708115406794448e-01 5.999372311635668975e-01 -2.114224792032174949e-01 7.716060224955204605e-01
-4.430547020488399129e-02 -1.240734270779096926e-01 -7.810832309234551074e-01 -1.037413924748041283e-01 -5.467930289925529985e-01 8.308159284297200742e-01
-4.742896636077652273e-02 1.376193796174447481e-01 -5.943123168266561951e-01 1.932027648964379229e-01 -6.798061991116982616e-01 7.074858467034359499e-01
5.135251775291096998e-02 8.080246832397630641e-02 -6.249206774893349969e-01 -4.863880358807095017e-01 -5.482492454890959266e-01 6.803303928039247106e-01
1.462407297397811667e-01 8.452938854348396314e-02 -5.873291887535072586e-01 -1.006089864022619990e-01 -6.577944892430046542e-01 7.464477488589833509e-01
1.581868496225396770e-01 5.546873725764795565e-02 -6.102061862700334238e-01 -5.384489896441686518e-01 -6.056672272710098559e-01 5.858667897747926734e-01
6.879125554084196403e-02 -3.865922141104802257e-02 -7.170592763712406725e-01 -7.474411824653728886e-02 -6.400808079938435924e-01 7.646632435428656338e-01
-3.920997249695127446e-02 -9.971554970291932052e-02 -7.661637440100268481e-01 -1.291785547768986575e-01 -3.679859380640813638e-01 9.208144494809199498e-01
-7.467653507708091332e-02 -1.192426630788906081e-02 -7.153453322803060566e-01 -1.381499515281117696e-01 -7.481420624520810359e-01 6.489977236344720568e-01
-1.586774327515801941e-01 2.901584968784729629e-02 -6.650048553690559583e-01 7.056862503215904914e-01 -1.825626775534354984e-01 6.846004563769833018e-01
1.587083247398702324e-01 8.038044185560358490e-02 -5.839732762148358569e-01 -5.384489896441686518e-01 -6.056672272710098559e-01 5.858667897747926734e-01
6.161675117410284064e-02 -5.616035943701919858e-02 -7.292670800222728067e-01 -3.331957477315455329e-01 -4.023632132018840624e-01 8.526924641132178628e-01
-2.168862134918308204e-01 -8.700703690716032890e-02 -6.944188993195691273e-01 6.298951242164667619e-01 -5.998095267112971696e-01 4.934173326451875563e-01
5.253173095695388289e-02 2.018697781728141100e-02 -6.779509159584765632e-01 -3.665013902964713299e-01 -5.344205850514256451e-01 7.616241653099286024e-01
-1.810360133906789848e-01 9.412463401488631309e-02 -5.996087963880308846e-01 2.901815467018515893e-01 -7.943029429859942425e-01 5.337391729276664831e-01
2.060770799432369571e-02 3.660440428751420699e-03 -7.018428986023342864e-01 -3.520696827226012515e-01 -4.633913840148028984e-01 8.132129879241061232e-01
1.179983036008594617e-02 5.410378645104648582e-02 -6.737525952373070171e-01 -3.665013902964713299e-01 -5.344205850514256451e-01 7.616241653099286024e-01
6.088377399956784036e-02 3.919634589375895622e-02 -6.561410903561916141e-01 -4.787505335219610081e-01 -5.986256832694063501e-01 6.422189797745578854e-01
-7.491947719618693990e-02 2.944902711736482534e-02 -6.703195058850811572e-01 5.288550684967589788e-02 -5.929125288528905857e-01 8.035283792714000839e-01
3.908618439794860067e-02 7.602587962639641150e-02 -6.380608132083535056e-01 -4.787505335219610081e-01 -5.986256832694063501e-01 6.422189797745578854e-01
-1.351406832019345083e-01 -2.440923808178055085e-02 -7.035134297654500601e-01 7.056862503215904914e-01 -1.825626775534354984e-01 6.846004563769833018e-01
5.386248194435905995e-02 -1.896243775468750559e-02 -7.017773571625965934e-01 -4.690322074381302747e-02 -6.469497684323268771e-01 7.610887497586700245e-01
2.003011604612296437e-01 -4.608943540599483996e-02 -6.312670258598358508e-01 3.833907420902382679e-02 -8.020026214776583284e-01 5.960888444953140741e-01
-1.035218501806473290e-01 -2.144751181240846585e-02 -7.186922789819731872e-01 1.840369207667329754e-01 -3.806172928104248898e-01 9.062344554299193167e-01
-9.853085176440777582e-02 -1.289433231770239496e-01 -7.801640711997914757e-01 9.578000250383573999e-02 -5.931555375528403395e-01 7.993701892057059055e-01
5.480724171304297843e-02 2.263390145542220136e-02 -6.751389460715429003e-01 -3.665013902964713299e-01 -5.344205850514256451e-01 7.616241653099286024e-01
-1.213573613041983718e-01 4.425261171642452113e-02 -6.563397609145544820e-01 5.288550684967589788e-02 -5.929125288528905857e-01 8.035283792714000839e-01
-1.477398018005797800e-02 2.023774286921212195e-01 -5.233487394472756682e-01 1.958959433198780298e-01 -9.198285491199199582e-01 3.399120763002659307e-01
1.190581439216082948e-01 -1.469078527964151337e-01 -7.630213606251896596e-01 -3.510376988727183512e-01 -6.714702471081953616e-01 6.526103287710098844e-01
-4.762813510526341110e-02 1.097856879648287931e-01 -6.208605577485085680e-01 2.375780393394140155e-01 -6.461107207527162499e-01 7.253258659058322566e-01
-1.935367912985397620e-01 -7.686386380990868628e-02 -7.067634382308725094e-01 3.783637294948967167e-01 -7.625097668327697198e-01 5.248044813903057770e-01
4.591716259934626454e-02 1.416121039212748789e-01 -5.743078063665542077e-01 -3.676295278298160607e-01 -6.781584012902910352e-01 6.363565926640682990e-01
3.497005383797040234e-02 -2.080949267362930052e-02 -7.095685617631927178e-01 -3.520696827226012515e-01 -4.633913840148028984e-01 8.132129879241061232e-01
-1.664057338849490031e-01 -1.221610664016806180e-01 -7.500424205103738418e-01 3.433065572456345249e-01 -3.121962991223377060e-01 8.858183101327639086e-01
-5.244142159734282299e-02 1.186832679122120336e-02 -6.869553717512889568e-01 3.136195514799139383e-01 -5.354472165561502406e-01 7.841804991274704539e-01
2.379040470468657756e-02 -5.955485035976110231e-02 -7.415954992403446244e-01 -1.915613311198484103e-01 -3.382906240063242032e-01 9.213379999375926888e-01
-1.511164082281599430e-01 8.295451282257693126e-02 -6.228369448712820500e-01 7.804298828151730316e-02 -6.247983126285204802e-01 7.768760264782562652e-01
-1.696202930374620943e-01 -3.854599385234797060e-02 -6.729390375456000273e-01 5.717042357825229404e-01 -5.893429393778899517e-01 5.708144765103194684e-01
-4.882880710926202489e-02 1.401806860016198246e-02 -6.869323072495445714e-01 3.136195514799139383e-01 -5.354472165561502406e-01 7.841804991274704539e-01
-6.385250287765036059e-02 5.993451927105049315e-02 -6.539511302171218121e-01 2.391160921166458064e-01 -5.006641765960901935e-01 8.319608625195193952e-01
2.001226354179936329e-01 5.742492720304888387e-02 -5.381013523599463833e-01 -9.671339504440199519e-01 -1.619982897253373355e-01 1.959808052453344551e-01
-1.763818040498499329e-01 -4.766350881210237173e-02 -6.767051375011045034e-01 3.783637294948967167e-01 -7.625097668327697198e-01 5.248044813903057770e-01
-1.337185269707140689e-01 -3.465484194713326638e-02 -7.077115878972778384e-01 7.056862503215904914e-01 -1.825626775534354984e-01 6.846004563769833018e-01
5.687064732108897819e-02 3.708400108211448026e-02 -6.611016886799946368e-01 -4.787505335219610081e-01 -5.986256832694063501e-01 6.422189797745578854e-01
-1.065059186057850660e-01 3.558410990743657298e-02 -6.637136005403060368e-01 5.288550684967589788e-02 -5.929125288528905857e-01 8.035283792714000839e-01
-2.505162830034301513e-01 -1.163492681349871660e-01 -6.804024347161407027e-01 7.852050823385653411e-01 -5.208949906730911961e-01 3.348453185597301540e-01
-3.502467155921955982e-02 -1.054275596940759674e-01 -7.678592954094045631e-01 -1.291785547768986575e-01 -3.679859380640813638e-01 9.208144494809199498e-01
-1.764559012062210386e-01 1.672903484674670427e-02 -6.527486692161281745e-01 5.828764393388752296e-01 -1.112985806050356963e-01 8.049022812857091758e-01
9.957676123275331637e-02 -7.634625117561869012e-02 -7.254322528654905122e-01 -3.635705994734777513e-01 -4.035132469204270045e-01 8.396388978353909183e-01
-2.693296813503818776e-01 -1.310482147640080475e-01 -6.530138937115320674e-01 8.319872609978931077e-01 -4.863963537224827993e-01 2.668628573306838225e-01
1.748085118084306000e-01 -3.897939881562306058e-02 -6.392856880377119078e-01 -7.600786203725113932e-01 -1.835739228271584256e-01 6.233627400723178447e-01
-2.641187118926126981e-02 -1.067168536613428559e-01 -7.674258612927492562e-01 -1.037413924748041283e-01 -5.467930289925529985e-01 8.308159284297200742e-01
3.289014752911302575e-02 -1.141877906044443808e-01 -7.656933772610353683e-01 -1.078480780456112370e-01 -6.003164863450765054e-01 7.924575119740926432e-01
2.034934647437908750e-01 3.867776672719123315e-02 -5.515804555581809154e-01 -9.043027492539564838e-01 -3.998526783619013591e-01 1.495137896601832772e-01
1.385560995667483031e-01 1.560996972675370541e-02 -6.539243330804968002e-01 -1.555300537286766760e-01 -7.266994343664378020e-01 6.691175789640071425e-01
-1.615427639947835947e-01 -1.089495100431274177e-01 -7.472708481442115191e-01 3.433065572456345249e-01 -3.121962991223377060e-01 8.858183101327639086e-01
1.552322252036504313e-01 -2.828543823889315828e-02 -6.600061831694074010e-01 -7.600786203725113932e-01 -1.835739228271584256e-01 6.233627400723178447e-01
2.884465212188986553e-03 1.956319235102433607e-01 -5.345373690048642601e-01 -3.498564258928421600e-01 -8.799904252316715914e-01 3.212745442173536303e-01
6.915451541342131081e-02 -7.419983978053164286e-02 -7.365838735467510334e-01 -3.091316457125420358e-01 -4.691018500544480441e-01 8.272732800559615685e-01
4.414450607958674000e-02 2.504872897740941049e-03 -6.923114313093029493e-01 -3.520696827226012515e-01 -4.633913840148028984e-01 8.132129879241061232e-01
7.770577612030087067e-02 -5.727894117403049823e-02 -7.237935533572578128e-01 -3.091316457125420358e-01 -4.691018500544480441e-01 8.272732800559615685e-01
6.338560442565803477e-02 4.028436268586621516e-02 -6.532619050547775474e-01 -4.787505335219610081e-01 -5.986256832694063501e-01 6.422189797745578854e-01
-1.642871055469140654e-02 8.564450628171980939e-03 -7.036139619542564061e-01 3.136195514799139383e-01 -5.354472165561502406e-01 7.841804991274704539e-01
2.227716980060367447e-01 -1.013459182997502178e-01 -6.970995789722915781e-01 -4.834184226309490989e-02 -5.968747871186906861e-01 8.008767413208024433e-01
7.835321646595561074e-02 4.757651007152238765e-02 -6.353069405890284793e-01 -4.787505335219610081e-01 -5.986256832694063501e-01 6.422189797745578854e-01
4.552355027082147926e-02 4.657773850322074333e-02 -6.607112201768104986e-01 -4.787505335219610081e-01 -5.986256832694063501e-01 6.422189797745578854e-01
1.121613038012089503e-01 -2.526662080393223160e-03 -6.797569589485844554e-01 -1.555300537286766760e-01 -7.266994343664378020e-01 6.691175789640071425e-01
9.052156381276753316e-02 1.062888417752672413e-03 -6.808884575524870586e-01 -1.555300537286766760e-01 -7.266994343664378020e-01 6.691175789640071425e-01
1.628622617124951266e-01 3.244983752580535286e-02 -6.297060494792099394e-01 -5.384489896441686518e-01 -6.056672272710098559e-01 5.858667897747926734e-01
7.346313001809549881e-02 -3.908651175501071107e-02 -7.165813208216949004e-01 -3.331957477315455329e-01 -4.023632132018840624e-01 8.526924641132178628e-01
1.225258736430035085e-02 1.491156887867726433e-01 -5.857596760665453317e-01 -3.676295278298160607e-01 -6.781584012902910352e-01 6.363565926640682990e-01
1.132171988864771189e-01 -1.420323946457869024e-01 -7.611468374513112867e-01 -3.510376988727183512e-01 -6.714702471081953616e-01 6.526103287710098844e-01
-1.598692101690019629e-01 -1.316191145806342756e-02 -6.750239314698632809e-01 7.056862503215904914e-01 -1.825626775534354984e-01 6.846004563769833018e-01
1.167480338122184151e-02 1.807309855900351980e-01 -5.531996487635351123e-01 -5.244555305997081751e-01 -5.942562422243659048e-01 6.097588990746704019e-01
-1.616340653486796897e-01 -1.144392277468882398e-02 -6.727465817637271472e-01 7.056862503215904914e-01 -1.825626775534354984e-01 6.846004563769833018e-01
9.600655174601019359e-02 4.419367347419130010e-02 -6.332950856499656167e-01 -1.592597531060274962e-01 -7.208825824407472105e-01 6.745106621649258338e-01
-2.134468499502498173e-02 3.245130793096916155e-02 -6.852908684289212848e-01 3.145337264028112423e-01 -5.392295368716021331e-01 7.812170258771879983e-01
7.633477869174501440e-02 -8.674386527131944941e-03 -6.912223455480605017e-01 -7.474411824653728886e-02 -6.400808079938435924e-01 7.646632435428656338e-01
1.693279107856197063e-01 -8.814576727322050859e-03 -6.370850639552660954e-01 -7.600786203725113932e-01 -1.835739228271584256e-01 6.233627400723178447e-01
-1.543260935344125950e-01 -5.707383908545553275e-02 -7.073863303490773857e-01 5.717042357825229404e-01 -5.893429393778899517e-01 5.708144765103194684e-01
4.532372941594410565e-02 -1.169064391016471499e-01 -7.660607302097196536e-01 -1.078480780456112370e-01 -6.003164863450765054e-01 7.924575119740926432e-01
1.447519948579495397e-01 -3.702349920722109583e-02 -6.753582062163657751e-01 -7.600786203725113932e-01 -1.835739228271584256e-01 6.233627400723178447e-01
1.305548470470178912e-01 -1.052697933897579624e-01 -7.270799619704590988e-01 -2.799089537195293409e-01 -4.834242358293708852e-01 8.294287105233499879e-01
9.748558509555939333e-02 -6.508875648187358032e-02 -7.208308490731997198e-01 -3.091316457125420358e-01 -4.691018500544480441e-01 8.272732800559615685e-01
1.427665141734939247e-01 7.915394961803982887e-02 -5.925344712599196484e-01 -1.006089864022619990e-01 -6.577944892430046542e-01 7.464477488589833509e-01
1.840278124122525227e-01 7.200236151681516789e-03 -6.135899999583617204e-01 -7.736942269423127128e-01 -1.928251379712006275e-01 6.035028660764788500e-01
-4.707405576609886150e-02 -9.803701427050057204e-02 -7.665961801820544430e-01 -1.291785547768986575e-01 -3.679859380640813638e-01 9.208144494809199498e-01
-8.033816478010321477e-03 -2.414039565904653635e-03 -7.144675918786520530e-01 3.136195514799139383e-01 -5.354472165561502406e-01 7.841804991274704539e-01
-5.324279312629721927e-02 6.606647216094942154e-02 -6.533103587165282056e-01 2.391160921166458064e-01 -5.006641765960901935e-01 8.319608625195193952e-01
-4.138711512248752222e-02 2.822737813211655816e-02 -6.801369196649087456e-01 3.145337264028112423e-01 -5.392295368716021331e-01 7.812170258771879983e-01
1.076333306931114425e-01 -1.157345163057411502e-01 -7.421210526459799395e-01 -3.581579766785379371e-01 -4.320590348474753761e-01 8.276761771056383443e-01
9.261445105647102272e-03 6.496456014738636806e-03 -7.054755644902407363e-01 -5.296545807541781503e-01 -4.771508847313736812e-01 7.012795863891826409e-01
1.420937349349948309e-01 -9.309423555450160870e-02 -7.160895083456215726e-01 -2.799089537195293409e-01 -4.834242358293708852e-01 8.294287105233499879e-01
-1.071357566119194721e-01 -7.251462607179598452e-02 -7.485109916936422136e-01 1.105364773563586589e-01 -5.789253456438236967e-01 8.078534095644001045e-01
3.389914947271372402e-03 1.946178219091431183e-01 -5.367646380937960426e-01 -3.498564258928421600e-01 -8.799904252316715914e-01 3.212745442173536303e-01
1.305376986434648393e-03 -6.252630710808525227e-02 -7.467607493210031144e-01 -8.180109630744697435e-02 -3.410107398153261471e-01 9.364935963334206637e-01
4.741318415716150314e-03 1.386851132070091031e-01 -6.012147634028883747e-01 -3.676295278298160607e-01 -6.781584012902910352e-01 6.363565926640682990e-01
-7.813976678969286604e-02 5.072360209513988340e-03 -6.963425998771924919e-01 -4.614609024154540939e-02 -8.256498996121747203e-01 5.622924342598116798e-01
2.116134694940343397e-01 -1.076768051242543156e-01 -7.024913650306428003e-01 -4.834184226309490989e-02 -5.968747871186906861e-01 8.008767413208024433e-01
5.832129545247332660e-03 1.974941132611070238e-01 -5.262268180848577170e-01 -3.498564258928421600e-01 -8.799904252316715914e-01 3.212745442173536303e-01
9.693315639975315368e-02 5.584452549223579976e-02 -6.206244673807836953e-01 -1.592597531060274962e-01 -7.208825824407472105e-01 6.745106621649258338e-01
-1.561197193129547633e-01 -5.136998815471724260e-03 -6.767489005268584323e-01 7.056862503215904914e-01 -1.825626775534354984e-01 6.846004563769833018e-01
-1.969240766243041951e-01 2.998623034749655844e-02 -6.345651905800583359e-01 5.999372311635668975e-01 -2.114224792032174949e-01 7.716060224955204605e-01
-8.716799618130137428e-02 -1.328480864667288819e-01 -7.844230069848562303e-01 9.578000250383573999e-02 -5.931555375528403395e-01 7.993701892057059055e-01
-4.385033798715306380e-02 -2.323462875392783705e-02 -7.218216573899728372e-01 -1.381499515281117696e-01 -7.481420624520810359e-01 6.489977236344720568e-01
-4.680633549449594866e-02 -1.025237990711696801e-01 -7.683516804317594984e-01 -1.291785547768986575e-01 -3.679859380640813638e-01 9.208144494809199498e-01
-4.752229140810685336e-03 -8.670800450068104348e-02 -7.560952897538183448e-01 -8.180109630744697435e-02 -3.410107398153261471e-01 9.364935963334206637e-01
1.838102704399400267e-01 7.099913503047361463e-02 -5.593164686702508659e-01 -6.285136478125488146e-01 -7.050153993985265322e-01 3.285177029085332712e-01
-7.437459429206041972e-02 6.093411925799311485e-02 -6.503254004259861887e-01 2.391160921166458064e-01 -5.006641765960901935e-01 8.319608625195193952e-01
1.841929340642632917e-01 1.625928138115710631e-02 -6.104393263215019960e-01 -7.769012084350819247e-01 -2.798456459358838466e-01 5.640132328082713142e-01
5.791254917995238005e-02 5.040550823874642011e-02 -6.479077351197932710e-01 -4.787505335219610081e-01 -5.986256832694063501e-01 6.422189797745578854e-01
8.802264173009556950e-03 9.764281318147461156e-03 -7.035989399943264333e-01 -5.296545807541781503e-01 -4.771508847313736812e-01 7.012795863891826409e-01
6.044360999245399629e-02 2.468767350766194052e-02 -6.699930519983482435e-01 -4.787505335219610081e-01 -5.986256832694063501e-01 6.422189797745578854e-01
-8.502921030761720345e-02 1.434103945959724728e-02 -6.832982073810851542e-01 -4.614609024154540939e-02 -8.256498996121747203e-01 5.622924342598116798e-01
5.481795437507758217e-02 -4.404987661759059842e-02 -7.229375202293114588e-01 -7.474411824653728886e-02 -6.400808079938435924e-01 7.646632435428656338e-01
-1.419639609100320776e-01 -3.303687606407668814e-02 -6.987807297803124706e-01 7.056862503215904914e-01 -1.825626775534354984e-01 6.846004563769833018e-01
-1.311859768098614931e-01 8.347204223559617775e-02 -6.246595736898160611e-01 8.784200735328377696e-02 -6.255977554526641615e-01 7.751846425960295939e-01
-2.583812001859074614e-02 -8.405214082951717458e-02 -7.579260653506032508e-01 -1.336493895411609012e-01 -3.794313207450653591e-01 9.155160913457121019e-01
-9.918172579177179926e-02 -1.238811884707196886e-01 -7.763298352097067756e-01 9.578000250383573999e-02 -5.931555375528403395e-01 7.993701892057059055e-01
1.001014799697024643e-01 -3.580537618183293747e-02 -7.046239110734584532e-01 -3.331957477315455329e-01 -4.023632132018840624e-01 8.526924641132178628e-01
-7.822064612904261471e-02 2.185403255779590909e-02 -6.757064760909777812e-01 5.288550684967589788e-02 -5.929125288528905857e-01 8.035283792714000839e-01
-5.992146570367044150e-02 -6.316363223458854037e-02 -7.485059308516843757e-01 1.200967558996615669e-01 -5.690151437003051482e-01 8.135100094418616923e-01
-2.873114172586072393e-02 1.054154020292668997e-01 -6.309431972571334368e-01 2.375780393394140155e-01 -6.461107207527162499e-01 7.253258659058322566e-01
9.230023887337785241e-03 1.175194230404692369e-01 -6.206341689424629271e-01 -3.739178307827435987e-01 -6.633146071995154047e-01 6.482277282703046151e-01
5.869717885556437198e-02 -9.114083423846322529e-02 -7.476525843424653983e-01 -1.025346275483377950e-01 -5.061765455148620196e-01 8.563130005577193060e-01
1.068573907972422410e-01 3.477177964871091403e-02 -6.408027167196493901e-01 -1.592597531060274962e-01 -7.208825824407472105e-01 6.745106621649258338e-01
-3.793684953776348123e-02 1.239316332225189488e-03 -7.000138340060159114e-01 3.136195514799139383e-01 -5.354472165561502406e-01 7.841804991274704539e-01
2.785806495302940028e-02 -9.445296765629496161e-02 -7.539494792943015611e-01 -1.620661596787502101e-01 -3.625148638382928445e-01 9.177785862523083482e-01
-1.015036020479326458e-02 7.446918651188698390e-02 -6.607953852497195912e-01 3.145337264028112423e-01 -5.392295368716021331e-01 7.812170258771879983e-01
-2.443224737697310411e-01 -1.137446660438175550e-01 -6.882536668957927040e-01 7.792747227032172930e-01 -3.728848730565610392e-01 5.036742776849102432e-01
-6.628096412807918392e-02 -4.990473174184820865e-02 -7.382930629057751215e-01 1.200967558996615669e-01 -5.690151437003051482e-01 8.135100094418616923e-01
-7.646413990009021111e-02 6.954459333869256188e-02 -6.445431573992667085e-01 2.391160921166458064e-01 -5.006641765960901935e-01 8.319608625195193952e-01
1.136601348803264744e-01 -5.938562040466251885e-02 -7.111831038292704132e-01 -3.635705994734777513e-01 -4.035132469204270045e-01 8.396388978353909183e-01
1.050136557680970140e-01 -3.516747667105501324e-02 -7.024034348001511052e-01 -3.331957477315455329e-01 -4.023632132018840624e-01 8.526924641132178628e-01
-1.233031808721844237e-02 1.977922214109139598e-01 -5.371649830560206729e-01 1.958959433198780298e-01 -9.198285491199199582e-01 3.399120763002659307e-01
-2.142712671043452421e-01 9.628891618480089898e-02 -5.814397230451535670e-01 -6.581551447975325653e-02 -8.022406389563663254e-01 5.933618417632248176e-01
1.164951406575843729e-01 4.699237230013800920e-02 -6.254663867948251355e-01 -1.592597531060274962e-01 -7.208825824407472105e-01 6.745106621649258338e-01
-2.756693278649252621e-02 -2.563989536953729595e-02 -7.225145309105964753e-01 3.136195514799139383e-01 -5.354472165561502406e-01 7.841804991274704539e-01
-4.904345286628268921e-03 4.401122648640727608e-02 -6.839309285122006088e-01 3.145337264028112423e-01 -5.392295368716021331e-01 7.812170258771879983e-01
-1.755750976301465593e-01 -8.054473031855260978e-02 -7.250612051291794868e-01 3.783637294948967167e-01 -7.625097668327697198e-01 5.248044813903057770e-01
1.442120121541406730e-01 1.908240093030220963e-02 -6.488384135245258699e-01 -1.555300537286766760e-01 -7.266994343664378020e-01 6.691175789640071425e-01
-1.834305756491690920e-01 -1.234870161939788102e-01 -7.436807758567265392e-01 4.288935706292125172e-01 -3.980886610734460374e-01 8.109104284677043362e-01
2.833502972869227365e-01 -9.033025848779541178e-02 -6.665982684533914293e-01 -2.939635954389586137e-01 -5.993084584401329185e-01 7.445903411935398397e-01
8.450026805543726927e-02 -7.735046397564564191e-02 -7.324431034170173493e-01 -3.635705994734777513e-01 -4.035132469204270045e-01 8.396388978353909183e-01
-1.119398876611912008e-01 -3.423001961774673613e-02 -7.223513914770995914e-01 1.840369207667329754e-01 -3.806172928104248898e-01 9.062344554299193167e-01
-1.622615328694379799e-01 1.251002225203202110e-02 -6.657119800495318040e-01 7.056862503215904914e-01 -1.825626775534354984e-01 6.846004563769833018e-01
-1.782956103882282206e-01 -7.735678800052898929e-02 -7.184679296721709907e-01 3.783637294948967167e-01 -7.625097668327697198e-01 5.248044813903057770e-01
7.478582209197962016e-02 -6.753496673513875725e-02 -7.307003046048202721e-01 -3.091316457125420358e-01 -4.691018500544480441e-01 8.272732800559615685e-01
1.728347519950063915e-01 -4.997104668573428693e-02 -6.484560042683318315e-01 -6.963241585245428800e-01 -4.108158436077162801e-01 5.885261327213666682e-01
3.158755310338930145e-02 1.208284410826848121e-01 -6.043516213612603050e-01 -3.739178307827435987e-01 -6.633146071995154047e-01 6.482277282703046151e-01
-8.437174821966245478e-03 -4.469630424741682408e-03 -7.157098560536848675e-01 3.136195514799139383e-01 -5.354472165561502406e-01 7.841804991274704539e-01
2.003124720155604055e-01 -2.220649935604073963e-02 -6.021087134877803893e-01 -7.736942269423127128e-01 -1.928251379712006275e-01 6.035028660764788500e-01
1.412886212180830547e-01 -7.824180558695133236e-02 -7.055144877720347374e-01 -6.963241585245428800e-01 -4.108158436077162801e-01 5.885261327213666682e-01
1.061280918431152243e-01 -1.119292532101525683e-01 -7.407860075763583740e-01 -3.581579766785379371e-01 -4.320590348474753761e-01 8.276761771056383443e-01
1.256253183059641565e-01 -2.368788526801326663e-02 -6.868425874149497457e-01 -4.491889616408424879e-01 -4.542232330137747631e-01 7.693572195869325947e-01
-2.170046814248248468e-02 -1.451014377815332441e-03 -7.083442843913801967e-01 3.136195514799139383e-01 -5.354472165561502406e-01 7.841804991274704539e-01
-2.432013712488882359e-02 -8.778849307095631938e-02 -7.592529798528653284e-01 -1.336493895411609012e-01 -3.794313207450653591e-01 9.155160913457121019e-01
6.471771628501236939e-02 -1.107183408324339743e-02 -6.943647317884554804e-01 -7.474411824653728886e-02 -6.400808079938435924e-01 7.646632435428656338e-01
-5.446869704590009964e-02 -1.579540945962915055e-02 -7.155062776477407738e-01 -1.381499515281117696e-01 -7.481420624520810359e-01 6.489977236344720568e-01
-8.530254403011816589e-02 2.082672382622963517e-03 -7.013203826971684540e-01 -4.614609024154540939e-02 -8.256498996121747203e-01 5.622924342598116798e-01
1.292435818708060902e-01 -4.928814582497965252e-02 -6.995549048788515245e-01 -6.963241585245428800e-01 -4.108158436077162801e-01 5.885261327213666682e-01
-5.395303904715116616e-02 1.023494768800512211e-01 -6.254129356262883022e-01 2.375780393394140155e-01 -6.461107207527162499e-01 7.253258659058322566e-01
-1.327109501324644780e-01 1.721930791947417702e-02 -6.829849963446343875e-01 -4.614609024154540939e-02 -8.256498996121747203e-01 5.622924342598116798e-01
-2.134400377490910383e-01 7.904878944386523054e-02 -5.979600626719322465e-01 7.197914134471993242e-01 -3.076668516380603458e-01 6.222872564425586672e-01
1.626229663809489745e-01 -4.374994242126086647e-02 -6.561956517961279323e-01 -6.963241585245428800e-01 -4.108158436077162801e-01 5.885261327213666682e-01
-2.452588566412221560e-01 -1.083638306504553506e-01 -6.807792148137853383e-01 7.914770977348394299e-01 -4.927436419896112363e-01 3.616181785254289904e-01
-7.666176226874926725e-02 -9.250307725369460998e-02 -7.637747403010510805e-01 1.354008520074096722e-01 -4.402624642254824305e-01 8.876010206561129046e-01
-3.388655694416262132e-02 -9.486175159250018196e-02 -7.634772086501431243e-01 -1.291785547768986575e-01 -3.679859380640813638e-01 9.208144494809199498e-01
4.970866735242210864e-03 1.916135652525034067e-02 -7.000989015032716978e-01 -5.296545807541781503e-01 -4.771508847313736812e-01 7.012795863891826409e-01
3.915072844751856657e-02 1.207261860910313483e-01 -6.000935824522358741e-01 -3.739178307827435987e-01 -6.633146071995154047e-01 6.482277282703046151e-01
4.596625747689557506e-02 7.527742807128052355e-03 -6.886605574059408985e-01 -3.520696827226012515e-01 -4.633913840148028984e-01 8.132129879241061232e-01
