-8.363158944461529520e-02 4.386108804555052809e-02 -8.863333945135897229e-01 -2.695051956837883275e-02 1.738608831922587028e-01 -9.844013728101980165e-01
4.914841440083514423e-02 2.599354344058675201e-02 -8.931065103369654201e-01 -4.245913102891940016e-01 3.885756526286364143e-01 -8.177598555878948794e-01
-2.241482489777996967e-01 -4.221656221897519129e-02 -9.414820966433191662e-01 -3.235178847024296200e-02 1.423613939776486870e-01 -9.892859016924872018e-01
9.013574162561860392e-02 -6.687692899102175813e-03 -9.153652824576576919e-01 -1.280790042051189181e-01 1.235617282772667920e-02 -9.916869938014092334e-01
-2.041193832543137798e-01 6.998176474591154272e-02 -9.030376443555711008e-01 6.384159541034741814e-01 3.847973771009230992e-01 -6.666003661283129711e-01
5.585526769672542746e-02 1.067619078673835431e-01 -8.660268141049388690e-01 -4.180033982005767479e-01 2.199556971149329021e-01 -8.814151407818305861e-01
-1.535489354122798467e-01 -3.515615354093305778e-02 -9.283720272215660874e-01 6.205024776734953118e-01 4.856267603019990831e-01 -6.157461529556138569e-01
-1.205671310637599913e-01 -7.346205283299327149e-02 -9.262891163735440525e-01 1.740066338958275449e-01 5.054517673822863655e-01 -8.451273289927182519e-01
-2.685199046208452955e-02 -9.128810083746746740e-03 -8.889664616099103300e-01 1.617946923672485826e-01 4.493485747711096767e-01 -8.785831411272128078e-01
-2.140658193518075458e-01 1.115604814655018207e-01 -9.122822320879582225e-01 8.240694829268465638e-01 -1.260037839618150836e-02 -5.663485832708974321e-01
1.547993841743443288e-01 3.057413480298657241e-02 -9.249968919426823089e-01 -5.525696264540586045e-01 3.706727647708124018e-01 -7.465041924715386523e-01
1.770316045300906471e-01 -1.170002613523396240e-01 -1.013524663693164740e+00 -5.187423797657563229e-01 5.276910028700697586e-01 -6.726429579836095130e-01
-1.642476256341770038e-02 1.430880225221420887e-01 -8.408595798823612633e-01 1.879119717680590440e-01 1.855648854017580007e-01 -9.644971561244090053e-01
1.611143635022391218e-01 -1.182399820434320570e-01 -1.002221850001154380e+00 -5.187423797657563229e-01 5.276910028700697586e-01 -6.726429579836095130e-01
-6.415780526135882178e-02 -1.222360819616358230e-01 -9.425878975346126953e-01 -9.429598479893445961e-02 4.378282175610420657e-01 -8.940999491992605019e-01
-1.051390160769783699e-01 -1.022703675935302953e-01 -9.403421695021968452e-01 1.740066338958275449e-01 5.054517673822863655e-01 -8.451273289927182519e-01
-8.818220442586831298e-02 1.456990616560894548e-02 -8.913820966492881359e-01 -2.695051956837883275e-02 1.738608831922587028e-01 -9.844013728101980165e-01
1.951134042664799673e-01 -1.682373314837276937e-02 -1.002503666147057437e+00 -6.004471158701304434e-01 -4.107143469284914999e-02 -7.986090397031034849e-01
-9.144429702799619641e-02 -1.066125556740595837e-01 -9.401194748646006794e-01 1.740066338958275449e-01 5.054517673822863655e-01 -8.451273289927182519e-01
1.704361704175309522e-01 -1.138328383467303584e-01 -1.005953408023220863e+00 -5.187423797657563229e-01 5.276910028700697586e-01 -6.726429579836095130e-01
-1.491270797962729322e-01 -8.970124701235764053e-02 -9.439888897584038929e-01 8.878740667078589832e-02 3.469296041725130481e-02 -9.954462290421133286e-01
5.897584475695777373e-02 -1.247747931577719016e-01 -9.534817538858734176e-01 -6.662150622816799539e-02 5.702236451083232405e-01 -8.187835913519927455e-01
2.377930436957619298e-01 -5.585085890997455726e-02 -1.056583554373782263e+00 -8.856668711828498131e-01 1.368835860095014012e-01 -4.436857865318213356e-01
-1.663804318541962923e-01 -6.212056022607074374e-02 -9.445665449786131429e-01 8.878740667078589832e-02 3.469296041725130481e-02 -9.954462290421133286e-01
4.232248689403218106e-02 -1.445678356313180590e-01 -9.639442628334925489e-01 -9.243536350885969699e-02 3.943556335971722393e-01 -9.142971824429723116e-01
4.612602592614037378e-02 1.075967440326983382e-01 -8.612044745556455272e-01 -4.180033982005767479e-01 2.199556971149329021e-01 -8.814151407818305861e-01
-2.195623263179135032e-01 1.384791487530364629e-01 -9.148425240315956053e-01 9.183941285682815092e-01 8.657097294241114516e-02 -3.860799026822185898e-01
1.638449178088682845e-01 9.310179413472451093e-02 -9.082378455256389094e-01 -2.685295343499422005e-01 2.894232984009071918e-01 -9.187633229099552157e-01
8.659497496199407285e-02 -1.423897426763829667e-02 -9.150020701406759160e-01 -1.280790042051189181e-01 1.235617282772667920e-02 -9.916869938014092334e-01
-7.840202924187744671e-02 -4.524539576013397041e-02 -9.056851734007492771e-01 -1.179998517000373642e-01 2.852372740620370273e-01 -9.511654600985190999e-01
-1.771188999619203175e-01 8.864969502811456681e-02 -8.796671671210239962e-01 3.708279048131363775e-01 2.000118936464349295e-01 -9.069078825392724585e-01
1.690418212306901979e-01 1.131824279089205382e-01 -9.071022248487495832e-01 -4.500499969334266215e-01 -2.556538653626520483e-02 -8.926373346838424316e-01
-9.957935842002579863e-02 -9.939295491330664423e-02 -9.374765532144201385e-01 1.740066338958275449e-01 5.054517673822863655e-01 -8.451273289927182519e-01
1.949287424375426847e-01 -5.138503297654039431e-02 -1.000587382013887083e+00 -6.004471158701304434e-01 -4.107143469284914999e-02 -7.986090397031034849e-01
-2.105409774117249500e-01 -5.149940506196021978e-02 -9.446578186867666815e-01 -2.145999075268528455e-01 4.546015979567116783e-02 -9.756435074148847031e-01
3.754281256538112566e-02 -7.368786295769828854e-02 -9.216226518852885796e-01 -1.930097463694561422e-01 3.694466870064581632e-01 -9.089864593415847294e-01
8.096406893115262737e-02 1.140058191485888439e-01 -8.761267366875492568e-01 -4.180033982005767479e-01 2.199556971149329021e-01 -8.814151407818305861e-01
-1.079040288455161006e-01 4.582115022672008514e-02 -8.853226960094461306e-01 -2.695051956837883275e-02 1.738608831922587028e-01 -9.844013728101980165e-01
5.550116740974026831e-04 2.270385006877890521e-01 -8.287005656301424938e-01 2.064662913178386128e-01 -1.885544424357575022e-01 -9.601139998912620044e-01
1.976330337346817179e-01 -3.817143661036916796e-02 -1.003300205388458766e+00 -6.004471158701304434e-01 -4.107143469284914999e-02 -7.986090397031034849e-01
2.977688246841453390e-02 8.791786577382182388e-02 -8.583618683633981172e-01 -4.180033982005767479e-01 2.199556971149329021e-01 -8.814151407818305861e-01
1.077055469460732814e-02 -6.653811804834572352e-02 -9.104299524854713166e-01 -3.041994831879409333e-01 3.990218041077420730e-01 -8.650111411275537288e-01
-1.337726649565548764e-01 -6.395239549584549876e-02 -9.272139706786910462e-01 5.431074671711854096e-01 3.249698291369310654e-01 -7.742279310730230124e-01
-1.265940926409486189e-01 -1.266252764598549130e-01 -9.574590120103346758e-01 8.638370983867800501e-02 4.448795465974114682e-01 -8.914146306258321495e-01
9.310660929784260118e-03 -3.131911146296556536e-02 -8.936703412087289022e-01 -3.041994831879409333e-01 3.990218041077420730e-01 -8.650111411275537288e-01
8.033101310263515704e-02 -8.939746784249733014e-02 -9.425799780550813134e-01 -3.109769800238574300e-01 3.466638241592425174e-01 -8.849392696194078312e-01
9.885857996212525298e-03 1.957186048662801492e-01 -8.246831737271250740e-01 -5.597524309983924473e-01 2.183987068651128127e-01 -7.993617584242044272e-01
-1.038570119285478072e-01 2.637850499132321502e-02 -8.888673727817600900e-01 -2.695051956837883275e-02 1.738608831922587028e-01 -9.844013728101980165e-01
-4.732740049948745698e-03 1.570051338714665290e-01 -8.354924379869127504e-01 3.540193198730781088e-01 2.247806848528069446e-01 -9.078237520982287423e-01
-2.655857368556088088e-02 8.467596413843962722e-02 -8.566591063977749831e-01 3.087051829683593041e-01 3.050610858228283151e-01 -9.009100087828244563e-01
7.766803949516425110e-02 7.973065938313331213e-02 -8.831169333270794120e-01 -4.180033982005767479e-01 2.199556971149329021e-01 -8.814151407818305861e-01
5.375246962754447189e-02 -3.562599242737131411e-02 -9.161977459914265598e-01 -4.574147923223552403e-02 1.356710393399077619e-01 -9.896974720398532543e-01
-2.062157655607181339e-01 -2.351944824275218476e-02 -9.443054530509535915e-01 -2.145999075268528455e-01 4.546015979567116783e-02 -9.756435074148847031e-01
-1.114345624683238667e-01 8.503082339813405888e-02 -8.762828568144438446e-01 -9.111310288872696839e-02 2.627923156174034602e-01 -9.605407858776384700e-01
-1.070312773114995702e-01 -8.857717277522936250e-02 -9.325421809229534897e-01 1.740066338958275449e-01 5.054517673822863655e-01 -8.451273289927182519e-01
1.758418527824304189e-01 -9.862132959076795602e-02 -1.000575965374143950e+00 -5.976017538773814586e-01 4.100978005200094367e-01 -6.889789095257766727e-01
-1.398570554973680158e-01 -4.826501214038043941e-02 -9.248975360981870342e-01 5.431074671711854096e-01 3.249698291369310654e-01 -7.742279310730230124e-01
7.086484760477849976e-02 1.283304920286468531e-01 -8.677625710387253388e-01 -4.180033982005767479e-01 2.199556971149329021e-01 -8.814151407818305861e-01
-1.707135248719237608e-01 9.129748368770167211e-02 -8.764641063649394326e-01 3.708279048131363775e-01 2.000118936464349295e-01 -9.069078825392724585e-01
-1.598167413719082594e-02 2.191272283999484705e-01 -8.307029972738552148e-01 2.064662913178386128e-01 -1.885544424357575022e-01 -9.601139998912620044e-01
1.686298592219301340e-01 -8.831231552775224702e-02 -9.881842885384097830e-01 -5.976017538773814586e-01 4.100978005200094367e-01 -6.889789095257766727e-01
-4.415056420543722604e-02 1.233457665408608378e-01 -8.502887682497467514e-01 1.933886734100390137e-01 2.041980173597013337e-01 -9.596374266894097671e-01
1.286866682227073566e-01 6.738429616716273829e-02 -9.057981412232234408e-01 -2.779190553797689645e-01 2.866589295339512788e-01 -9.168356759939405576e-01
-1.872246374323578988e-01 -5.689280642026122575e-02 -9.462435182322542770e-01 8.878740667078589832e-02 3.469296041725130481e-02 -9.954462290421133286e-01
9.320339021978185645e-02 -1.114593733565433648e-01 -9.567749639788030169e-01 -3.269650691610238025e-01 4.778186793144001965e-01 -8.153423533993370276e-01
1.504534546529990857e-01 8.816876590687230952e-02 -9.058778579089883376e-01 -2.685295343499422005e-01 2.894232984009071918e-01 -9.187633229099552157e-01
-1.601783416716311415e-01 -8.254391002015495221e-03 -9.138357564941030908e-01 6.205024776734953118e-01 4.856267603019990831e-01 -6.157461529556138569e-01
6.530816630410625490e-02 -7.658478698076336133e-02 -9.309708342706031203e-01 -3.723950220610985906e-01 5.216854782440177862e-01 -7.675716314021931996e-01
-1.651566618053359192e-01 -7.363749187189637391e-02 -9.448587768202034720e-01 8.878740667078589832e-02 3.469296041725130481e-02 -9.954462290421133286e-01
-2.565442430545738506e-01 -8.754430679449475006e-02 -9.464628455674114482e-01 1.097192015850770308e-01 1.040820182034812580e-01 -9.884981690879469651e-01
-1.828545378533721621e-01 -4.471017614970652400e-03 -9.337032432746482646e-01 6.205024776734953118e-01 4.856267603019990831e-01 -6.157461529556138569e-01
-6.131883730381047608e-03 -8.915319008049948923e-02 -9.219964803970502887e-01 -2.807860390518090218e-03 5.929721104581816560e-01 -8.052181022175279868e-01
-6.543353180708286199e-02 -3.779222320047533751e-02 -9.050589502303963974e-01 -1.179998517000373642e-01 2.852372740620370273e-01 -9.511654600985190999e-01
2.546269328173491470e-02 1.962328660411812378e-02 -8.821406407803547012e-01 -4.933077083431838261e-01 3.181388315407411294e-01 -8.095895186791194353e-01
-3.179545684328368566e-02 7.855578110676382508e-02 -8.605259550513635336e-01 3.087051829683593041e-01 3.050610858228283151e-01 -9.009100087828244563e-01
1.717282637962477265e-01 9.406542816736203350e-02 -9.102383749776763455e-01 -2.685295343499422005e-01 2.894232984009071918e-01 -9.187633229099552157e-01
-1.017200327075668265e-01 -1.501839879483604367e-01 -9.642988522224286152e-01 1.694434074627044762e-01 2.011542609429055883e-01 -9.647931876687051433e-01
2.067936211008742087e-01 -4.399256975866199654e-02 -1.012797411065153197e+00 -7.582915567447345850e-01 1.679918586038900430e-02 -6.516990887856719539e-01
1.320152024011480019e-01 -1.063810306290131624e-01 -9.704771780467510434e-01 -5.187423797657563229e-01 5.276910028700697586e-01 -6.726429579836095130e-01
1.039375283175078962e-01 7.904875844287796716e-02 -8.946489460935957982e-01 -2.779190553797689645e-01 2.866589295339512788e-01 -9.168356759939405576e-01
-1.416588476977599653e-01 -1.295766166515209539e-01 -9.603918114351163160e-01 8.638370983867800501e-02 4.448795465974114682e-01 -8.914146306258321495e-01
-2.132012309120563942e-01 -6.745794320500371477e-02 -9.454724029735532831e-01 -3.235178847024296200e-02 1.423613939776486870e-01 -9.892859016924872018e-01
-2.181266286286913658e-01 5.723261930783351409e-02 -9.238121403633180462e-01 6.384159541034741814e-01 3.847973771009230992e-01 -6.666003661283129711e-01
-1.714232782210212691e-01 5.568027281235959219e-02 -8.846094343339480082e-01 3.708279048131363775e-01 2.000118936464349295e-01 -9.069078825392724585e-01
2.203823893218130603e-01 -6.045455435198320709e-02 -1.030032582793316775e+00 -7.791617593805194586e-01 1.897292606080821231e-01 -5.974192500984245591e-01
-5.617655015299716920e-02 -5.964738660217516752e-03 -8.928776245837342085e-01 1.783426969264281514e-01 3.686928757673286206e-01 -9.122825471373577910e-01
1.992457071438407390e-01 -3.539583102510536310e-03 -1.006293791596672760e+00 -6.004471158701304434e-01 -4.107143469284914999e-02 -7.986090397031034849e-01
1.448938375781897159e-01 -9.199194492586136584e-02 -9.697865116743804581e-01 -5.976017538773814586e-01 4.100978005200094367e-01 -6.889789095257766727e-01
-2.202703565598328195e-01 1.097753449366798278e-01 -9.212704709984649298e-01 8.240694829268465638e-01 -1.260037839618150836e-02 -5.663485832708974321e-01
6.077422350242289023e-02 -1.248452075193453581e-01 -9.536771200808062954e-01 -6.662150622816799539e-02 5.702236451083232405e-01 -8.187835913519927455e-01
5.574881194080638647e-02 1.187645017295976477e-02 -9.032415519545990978e-01 -4.245913102891940016e-01 3.885756526286364143e-01 -8.177598555878948794e-01
4.174536568408863946e-02 9.154120165206000581e-02 -8.631336190310212597e-01 -4.180033982005767479e-01 2.199556971149329021e-01 -8.814151407818305861e-01
1.406900990619212310e-01 -7.600923841737708408e-02 -9.643825996642780840e-01 -7.136678611351605639e-01 9.210661076179640916e-02 -6.944023014339311128e-01
-1.209955546327063924e-01 -4.575207385529322240e-02 -9.109781756548901432e-01 2.654657012971718411e-01 4.272825309455846043e-01 -8.642670884532953623e-01
-1.783429418648319331e-01 2.410268350073550836e-02 -9.069008854731362979e-01 6.364411255109231336e-01 4.653544341873459556e-01 -6.151324608086981005e-01
-5.067666494934565391e-02 1.195105308365816861e-02 -8.851499362765531398e-01 3.031792247370300730e-01 2.449150551153954358e-01 -9.209228922475954926e-01
-1.860347314956532216e-01 -1.488881739604634019e-02 -9.432812494424561711e-01 5.431074671711854096e-01 3.249698291369310654e-01 -7.742279310730230124e-01
8.875705221390131627e-02 4.997568848199644698e-02 -9.009716116093723359e-01 -2.455410536254787335e-01 3.314986100331530072e-01 -9.109436110597500802e-01
2.128712557413289519e-01 1.030285070611499515e-01 -9.579793937668737991e-01 -8.454958240308090289e-01 2.881654776680270258e-01 -4.495525208769502457e-01
1.181096518800777290e-01 -6.967571982116027574e-02 -9.479941303473788938e-01 -3.015347703192444162e-01 3.373959579866553926e-01 -8.917627205836693438e-01
-1.383759061900081966e-01 -3.247370753229032042e-02 -9.109662022080451393e-01 6.205024776734953118e-01 4.856267603019990831e-01 -6.157461529556138569e-01
-1.787832930395932482e-02 1.120904857037684915e-01 -8.473892912744146466e-01 1.933886734100390137e-01 2.041980173597013337e-01 -9.596374266894097671e-01
8.196659090923953672e-02 4.824213763492202905e-02 -8.995742410769019815e-01 -4.245913102891940016e-01 3.885756526286364143e-01 -8.177598555878948794e-01
2.238921541836315088e-01 -7.355650001416882966e-02 -1.039832781073678269e+00 -7.245814463112090209e-01 3.956753418412016221e-01 -5.642895989830086778e-01
9.284233984849095400e-02 -2.734125595569132650e-02 -9.168686880700838149e-01 -4.574147923223552403e-02 1.356710393399077619e-01 -9.896974720398532543e-01
6.014195198589467051e-02 4.868102064706241600e-02 -8.880340667513511033e-01 -4.245913102891940016e-01 3.885756526286364143e-01 -8.177598555878948794e-01
1.813589018448367451e-01 1.445919700052275825e-01 -9.142118302065541657e-01 -4.500499969334266215e-01 -2.556538653626520483e-02 -8.926373346838424316e-01
-3.868165290230186210e-02 -4.757576367456741590e-02 -9.108085155913114850e-01 1.617946923672485826e-01 4.493485747711096767e-01 -8.785831411272128078e-01
8.520972559465068985e-02 9.501158358764229261e-02 -8.828801823245601144e-01 -4.180033982005767479e-01 2.199556971149329021e-01 -8.814151407818305861e-01
-5.246287744702173711e-02 -1.486760195556482422e-01 -9.554616778470346183e-01 -8.669190801168724647e-02 3.333679994124169599e-01 -9.388025831094927165e-01
1.458871019529528468e-01 5.365613001504734858e-02 -9.153043482091297589e-01 -2.779190553797689645e-01 2.866589295339512788e-01 -9.168356759939405576e-01
-2.226742516226712931e-01 -5.918729354905136186e-02 -9.439724418664682259e-01 -3.235178847024296200e-02 1.423613939776486870e-01 -9.892859016924872018e-01
1.772177358859568230e-01 -5.955609957211455835e-02 -9.888128699108824637e-01 -5.320480349933819353e-01 -2.365217847281280567e-02 -8.463837562909458656e-01
8.702310710506251656e-02 -8.762481568394106524e-02 -9.442372361936562930e-01 -3.109769800238574300e-01 3.466638241592425174e-01 -8.849392696194078312e-01
1.040714044256585979e-01 -5.711788482657375460e-02 -9.365463878477712223e-01 -3.723950220610985906e-01 5.216854782440177862e-01 -7.675716314021931996e-01
3.656486022458056706e-02 6.530225432338190861e-02 -8.678946151819488808e-01 -4.245913102891940016e-01 3.885756526286364143e-01 -8.177598555878948794e-01
3.374032721275298935e-02 -2.952898678161784782e-03 -8.960753159152271552e-01 -4.925763495701725447e-01 3.227711461193633058e-01 -8.082000538708938864e-01
-7.257378795297719787e-02 -8.990410351221343743e-02 -9.276295278892923157e-01 1.167302389609674168e-01 4.537777388879087881e-01 -8.834363672624601094e-01
-4.350309726875382921e-02 -1.387944435213841511e-02 -8.944625281915256076e-01 1.617946923672485826e-01 4.493485747711096767e-01 -8.785831411272128078e-01
1.727388428525459541e-01 -3.137303823595737756e-02 -9.867849535809892769e-01 -5.320480349933819353e-01 -2.365217847281280567e-02 -8.463837562909458656e-01
1.823014742542601041e-01 5.892403090300850355e-02 -9.406702340417075758e-01 -7.413438354256192131e-01 4.648456183243552808e-01 -4.840742389355997544e-01
1.671149063007547342e-01 1.273682908053245522e-01 -9.065369997899186405e-01 -4.500499969334266215e-01 -2.556538653626520483e-02 -8.926373346838424316e-01
1.849046375681215760e-03 2.061582435283355885e-01 -8.243216691733001866e-01 2.064662913178386128e-01 -1.885544424357575022e-01 -9.601139998912620044e-01
1.562058196310115062e-02 -4.802374147703480922e-02 -9.035950530584135887e-01 -3.041994831879409333e-01 3.990218041077420730e-01 -8.650111411275537288e-01
1.359363756408283053e-01 2.764379479751644803e-02 -9.208527939761446124e-01 -1.280790042051189181e-01 1.235617282772667920e-02 -9.916869938014092334e-01
1.912405025246052548e-01 1.188038593772987178e-01 -9.183864523567507598e-01 -2.956340044268801481e-01 -5.869444374170613293e-02 -9.534964591965611191e-01
-2.141988614137018132e-01 7.314343679200671633e-02 -9.116210961592094986e-01 8.240694829268465638e-01 -1.260037839618150836e-02 -5.663485832708974321e-01
-1.130328032379755709e-01 6.313580212182208495e-02 -8.821214664273442363e-01 -9.111310288872696839e-02 2.627923156174034602e-01 -9.605407858776384700e-01
4.680404384410685042e-02 -1.706090524671282152e-02 -9.096716219870374376e-01 -4.925763495701725447e-01 3.227711461193633058e-01 -8.082000538708938864e-01
1.900527148953508882e-01 -8.454615457533801171e-02 -1.004524181741029754e+00 -5.976017538773814586e-01 4.100978005200094367e-01 -6.889789095257766727e-01
-1.690265538414384427e-02 3.302816170225790493e-02 -8.694412265641491278e-01 1.783426969264281514e-01 3.686928757673286206e-01 -9.122825471373577910e-01
7.377012862097410972e-02 7.813882723763831278e-03 -9.122749182802993850e-01 -2.455410536254787335e-01 3.314986100331530072e-01 -9.109436110597500802e-01
5.338655274217663643e-03 2.261004327381017642e-01 -8.294277586430938154e-01 -3.355851585251614089e-01 -2.465628552811622298e-01 -9.091695990150807649e-01
1.391479186305519082e-02 1.898370308554891417e-01 -8.291113736594849515e-01 -5.597524309983924473e-01 2.183987068651128127e-01 -7.993617584242044272e-01
8.545028830627851568e-02 -1.846592759171289747e-02 -9.153103852156296849e-01 -4.574147923223552403e-02 1.356710393399077619e-01 -9.896974720398532543e-01
1.922125689475829569e-01 7.815633441754486765e-02 -9.373804017438691627e-01 -7.413438354256192131e-01 4.648456183243552808e-01 -4.840742389355997544e-01
9.158889108784895941e-03 -8.881940206705832286e-02 -9.227983144250786474e-01 -1.133119115504949981e-01 5.936738419153347879e-01 -7.966880067669270815e-01
-1.996963991412548656e-01 3.475369917323102575e-02 -9.209364331979479346e-01 6.364411255109231336e-01 4.653544341873459556e-01 -6.151324608086981005e-01
1.561518250739991620e-01 9.128328131207737173e-03 -9.482426279337847763e-01 -8.273202461957100962e-01 3.988891392479329001e-01 -3.955106380676923217e-01
1.376541466352688287e-02 2.229539589587214987e-01 -8.316848642795190427e-01 -3.355851585251614089e-01 -2.465628552811622298e-01 -9.091695990150807649e-01
1.760222528296395139e-01 6.164997095349473294e-02 -9.284361531789865341e-01 -7.413438354256192131e-01 4.648456183243552808e-01 -4.840742389355997544e-01
-1.625907032959615361e-01 1.096240720933453622e-01 -8.704664953331502364e-01 4.945608201671612969e-01 -5.944212341868416322e-02 -8.671079685477827148e-01
1.196205696095345161e-01 -1.683407263529292930e-01 -9.942657219698929350e-01 -2.869053255169067285e-01 3.238863984935463902e-01 -9.015447493391093303e-01
2.226050446922699655e-01 -5.197159464361150727e-02 -1.031400644275264566e+00 -7.582915567447345850e-01 1.679918586038900430e-02 -6.516990887856719539e-01
-1.983011175432369266e-01 6.496832436349951612e-02 -9.003594055839214683e-01 6.384159541034741814e-01 3.847973771009230992e-01 -6.666003661283129711e-01
1.430797459276432204e-01 3.644121679127742489e-03 -9.296938599264387149e-01 -5.525696264540586045e-01 3.706727647708124018e-01 -7.465041924715386523e-01
1.528656441319739545e-01 6.433070822580581882e-02 -9.140822171968452370e-01 -2.779190553797689645e-01 2.866589295339512788e-01 -9.168356759939405576e-01
1.389212570978665406e-01 -7.528046486342933330e-02 -9.624680171225805658e-01 -7.136678611351605639e-01 9.210661076179640916e-02 -6.944023014339311128e-01
2.202593830259269927e-02 1.246555592761802583e-01 -8.477636960600348770e-01 -3.711198263179947832e-01 1.786111691599353291e-01 -9.112453702296777758e-01
-9.422726482288576455e-02 2.287415034947482689e-02 -8.897499364441613379e-01 -2.695051956837883275e-02 1.738608831922587028e-01 -9.844013728101980165e-01
2.167344707899723777e-02 2.622711948544852048e-04 -8.874399021469351334e-01 -4.933077083431838261e-01 3.181388315407411294e-01 -8.095895186791194353e-01
8.102876744952323962e-02 -1.164555174877702909e-01 -9.548206617412258179e-01 -3.269650691610238025e-01 4.778186793144001965e-01 -8.153423533993370276e-01
-1.590484688923249346e-01 4.418841774465125799e-02 -8.829403769282585523e-01 -9.111310288872696839e-02 2.627923156174034602e-01 -9.605407858776384700e-01
1.800052134257192071e-01 4.800276578268853483e-02 -9.484938554601529681e-01 -7.211662562899777695e-01 5.494421979851417115e-01 -4.219389788369341532e-01
-1.500829013020867908e-01 5.964662281167757568e-02 -8.795616377114933160e-01 -9.111310288872696839e-02 2.627923156174034602e-01 -9.605407858776384700e-01
4.138525594601729501e-02 -4.820318337727059338e-02 -9.173502859873348125e-01 -4.574147923223552403e-02 1.356710393399077619e-01 -9.896974720398532543e-01
-2.042474449636392797e-01 8.715603681300268524e-02 -8.974529764131136123e-01 8.240694829268465638e-01 -1.260037839618150836e-02 -5.663485832708974321e-01
3.731984777227402052e-03 1.624564246526764011e-01 -8.308417323938903642e-01 3.540193198730781088e-01 2.247806848528069446e-01 -9.078237520982287423e-01
3.788523401247070876e-02 7.377314979241432480e-02 -8.657369735353350748e-01 -4.180033982005767479e-01 2.199556971149329021e-01 -8.814151407818305861e-01
-1.360132505591332419e-01 -8.853978482375004719e-03 -8.973490226367928368e-01 2.654657012971718411e-01 4.272825309455846043e-01 -8.642670884532953623e-01
-4.265493139714936904e-02 8.976441081347756590e-03 -8.841958970785267491e-01 1.783426969264281514e-01 3.686928757673286206e-01 -9.122825471373577910e-01
-9.838847062954803047e-02 -5.949339088056564834e-02 -9.143572769313467186e-01 1.420670814360933676e-01 5.140294737292530058e-01 -8.459259095865652167e-01
4.537324393582375937e-02 -1.502390689566388549e-01 -9.666988164904229963e-01 -9.243536350885969699e-02 3.943556335971722393e-01 -9.142971824429723116e-01
-6.750655528982064946e-02 -1.043976880850950861e-01 -9.344046245210608781e-01 1.167302389609674168e-01 4.537777388879087881e-01 -8.834363672624601094e-01
1.721463658783929929e-01 1.007738886049554389e-01 -9.083120904498837023e-01 -4.500499969334266215e-01 -2.556538653626520483e-02 -8.926373346838424316e-01
2.706753962762514093e-02 6.020505652547581549e-02 -8.653855254759933446e-01 -4.245913102891940016e-01 3.885756526286364143e-01 -8.177598555878948794e-01
-2.872235672725216571e-02 1.094855584667258352e-01 -8.501289020710180999e-01 1.933886734100390137e-01 2.041980173597013337e-01 -9.596374266894097671e-01
4.693953337517186783e-03 -3.568424628796455084e-02 -8.940923209810609507e-01 3.540468376433047459e-01 3.658361489592351634e-01 -8.607059595875072855e-01
-4.395457252207338877e-02 -1.426501529231841425e-01 -9.541075806822282290e-01 -8.669190801168724647e-02 3.333679994124169599e-01 -9.388025831094927165e-01
-1.675721491656040618e-01 -5.482378531474468852e-02 -9.444185337357061671e-01 8.878740667078589832e-02 3.469296041725130481e-02 -9.954462290421133286e-01
5.242292951406308729e-03 1.396980014952003135e-01 -8.367372661454470784e-01 -5.597524309983924473e-01 2.183987068651128127e-01 -7.993617584242044272e-01
-8.322997365450064688e-02 -3.257711348273274049e-02 -9.012872392830336699e-01 -1.179998517000373642e-01 2.852372740620370273e-01 -9.511654600985190999e-01
-1.117366774784925992e-01 -1.136428260004691687e-01 -9.480349751844768802e-01 1.681436757014863614e-01 4.792378722377120814e-01 -8.614283290759968681e-01
-2.173793835046855527e-01 7.253518514893707303e-02 -9.162354045044316386e-01 8.240694829268465638e-01 -1.260037839618150836e-02 -5.663485832708974321e-01
1.655588407098869310e-03 1.603766314143023064e-01 -8.321664187952256819e-01 3.540193198730781088e-01 2.247806848528069446e-01 -9.078237520982287423e-01
1.794244572263437032e-01 3.491867600517414155e-02 -9.645391359661951158e-01 -7.211662562899777695e-01 5.494421979851417115e-01 -4.219389788369341532e-01
-6.952927330202561540e-02 -1.573545164502394289e-01 -9.578462025266204494e-01 2.727987609513957690e-01 3.801042842778589170e-01 -8.837995072961964960e-01
-1.662879182254775601e-01 7.324066275600150944e-02 -8.786368082958545545e-01 3.708279048131363775e-01 2.000118936464349295e-01 -9.069078825392724585e-01
7.256632512169246263e-02 -1.066180259301188066e-01 -9.465714292358486937e-01 -3.015347703192444162e-01 3.373959579866553926e-01 -8.917627205836693438e-01
-2.847220842345574709e-01 -7.513384699940162115e-02 -9.470995937475135129e-01 1.041915205027995062e-01 3.118411127330648069e-01 -9.444041759038971362e-01
2.169675276350780668e-01 -3.966045546614091477e-02 -1.024523699412537514e+00 -7.582915567447345850e-01 1.679918586038900430e-02 -6.516990887856719539e-01
1.515484008922579617e-01 -1.154871287306318134e-01 -9.926849537052834238e-01 -5.187423797657563229e-01 5.276910028700697586e-01 -6.726429579836095130e-01
-4.478467103293951382e-03 2.445823912139790945e-01 -8.332283844020874630e-01 2.064662913178386128e-01 -1.885544424357575022e-01 -9.601139998912620044e-01
-1.193346400698230836e-02 6.712033807101855896e-03 -8.791052828465412139e-01 1.783426969264281514e-01 3.686928757673286206e-01 -9.122825471373577910e-01
-3.549704188461925199e-03 3.168089656599577808e-02 -8.673753377925517150e-01 1.783426969264281514e-01 3.686928757673286206e-01 -9.122825471373577910e-01
-1.543575671383826675e-01 4.182351719520124855e-02 -8.840323454538682180e-01 -9.111310288872696839e-02 2.627923156174034602e-01 -9.605407858776384700e-01
1.081427749897806954e-02 2.032640261136332283e-01 -8.252557404921574413e-01 -3.355851585251614089e-01 -2.465628552811622298e-01 -9.091695990150807649e-01
7.567313003918066383e-02 -5.324874567080161748e-03 -9.134804174541605315e-01 -1.280790042051189181e-01 1.235617282772667920e-02 -9.916869938014092334e-01
-2.225743277344105486e-01 7.219989988606290154e-02 -9.237868850066697224e-01 8.240694829268465638e-01 -1.260037839618150836e-02 -5.663485832708974321e-01
-1.298954903070323741e-01 4.909705360176770672e-02 -8.841420467350792345e-01 -2.695051956837883275e-02 1.738608831922587028e-01 -9.844013728101980165e-01
-4.828945016148566971e-02 1.636084537233563618e-01 -8.431197055843774324e-01 1.879119717680590440e-01 1.855648854017580007e-01 -9.644971561244090053e-01
-1.288129942744427603e-01 -1.056687821227168117e-02 -8.959842489828527823e-01 2.654657012971718411e-01 4.272825309455846043e-01 -8.642670884532953623e-01
1.738800226989291597e-01 4.408031747104448200e-02 -9.431326009728242532e-01 -7.211662562899777695e-01 5.494421979851417115e-01 -4.219389788369341532e-01
-2.573728066590755259e-01 -8.163583508693704471e-02 -9.458586770199949312e-01 1.024285018099651418e-01 1.033176469715847423e-01 -9.893603316493040367e-01
1.956634548651188799e-01 -6.762200198172287069e-03 -1.003434682266391320e+00 -6.004471158701304434e-01 -4.107143469284914999e-02 -7.986090397031034849e-01
8.373555516265764054e-02 1.118745977814156328e-01 -8.779729325027409992e-01 -4.180033982005767479e-01 2.199556971149329021e-01 -8.814151407818305861e-01
-2.145631950755905459e-01 8.523115395641438219e-02 -9.124201553887203442e-01 8.240694829268465638e-01 -1.260037839618150836e-02 -5.663485832708974321e-01
2.256373105341885968e-02 -9.089764788589663191e-02 -9.262535295420525339e-01 -1.133119115504949981e-01 5.936738419153347879e-01 -7.966880067669270815e-01
-1.259226030853988036e-02 1.639026752977403578e-01 -8.361082525369131213e-01 1.879119717680590440e-01 1.855648854017580007e-01 -9.644971561244090053e-01
-3.134562411349099686e-02 -8.919291282102567719e-02 -9.227313268967229920e-01 4.030257978696338839e-01 -2.765580672012037389e-01 -8.724023393580964125e-01
-2.762455992392979717e-02 5.486053062605035502e-02 -8.661493266329767238e-01 3.031792247370300730e-01 2.449150551153954358e-01 -9.209228922475954926e-01
7.437416118595537029e-02 -1.540682937615813208e-01 -9.740524169365234464e-01 -3.212707395496884333e-01 4.215821628347041217e-01 -8.479702777154451976e-01
7.295465748581664647e-03 2.142592471970789503e-01 -8.269387621279035150e-01 -3.355851585251614089e-01 -2.465628552811622298e-01 -9.091695990150807649e-01
-1.238746170449466083e-01 -4.296853883213885839e-02 -9.104863559697439213e-01 2.654657012971718411e-01 4.272825309455846043e-01 -8.642670884532953623e-01
-9.449749261489831867e-03 2.096782696972122537e-02 -8.728583566267420490e-01 1.783426969264281514e-01 3.686928757673286206e-01 -9.122825471373577910e-01
1.126420254228457651e-01 -2.098996164077888537e-03 -9.182148546562022284e-01 -1.280790042051189181e-01 1.235617282772667920e-02 -9.916869938014092334e-01
2.176433054356162120e-03 -8.301463244648119022e-02 -9.175049459024318121e-01 -2.807860390518090218e-03 5.929721104581816560e-01 -8.052181022175279868e-01
1.991637515411823489e-01 8.287592870315917126e-02 -9.451169140302322358e-01 -8.454958240308090289e-01 2.881654776680270258e-01 -4.495525208769502457e-01
1.855306373320663241e-02 -6.447155479667029954e-02 -9.122135496637112650e-01 -3.041994831879409333e-01 3.990218041077420730e-01 -8.650111411275537288e-01
7.422707515201105999e-02 1.006729102982014262e-01 -8.762589819395607549e-01 -4.180033982005767479e-01 2.199556971149329021e-01 -8.814151407818305861e-01
-7.188390740276477675e-02 3.054222802606033904e-02 -8.871873888211195824e-01 3.031792247370300730e-01 2.449150551153954358e-01 -9.209228922475954926e-01
2.020518494551146460e-01 8.119236278456298805e-02 -9.516278780818405725e-01 -8.454958240308090289e-01 2.881654776680270258e-01 -4.495525208769502457e-01
-6.812418302309980467e-02 -1.427566501721286019e-01 -9.519135018498210421e-01 -8.669190801168724647e-02 3.333679994124169599e-01 -9.388025831094927165e-01
-1.295902811534339616e-01 6.953233076745346519e-02 -8.788008768069116572e-01 -9.111310288872696839e-02 2.627923156174034602e-01 -9.605407858776384700e-01
-8.462970240569900326e-02 -1.604458762433447483e-01 -9.634368838174018901e-01 1.694434074627044762e-01 2.011542609429055883e-01 -9.647931876687051433e-01
1.393697471794479517e-02 -1.227511248185232384e-01 -9.485301696530173965e-01 -6.237323649877749010e-02 5.599230361168305858e-01 -8.261935445126511457e-01
1.568797563497441039e-01 6.819714683511901576e-02 -9.140474305085991569e-01 -2.685295343499422005e-01 2.894232984009071918e-01 -9.187633229099552157e-01
2.024689909189548442e-01 -5.386094556121553273e-02 -1.008019822869430593e+00 -7.582915567447345850e-01 1.679918586038900430e-02 -6.516990887856719539e-01
1.081955399146723173e-01 -5.135639635842521172e-02 -9.346314169442685449e-01 -3.723950220610985906e-01 5.216854782440177862e-01 -7.675716314021931996e-01
4.618371409866781768e-02 -9.210665955388924742e-02 -9.316415492911088725e-01 -3.109769800238574300e-01 3.466638241592425174e-01 -8.849392696194078312e-01
1.907332937607591761e-01 1.418340987168790202e-01 -9.188592260148182866e-01 -4.500499969334266215e-01 -2.556538653626520483e-02 -8.926373346838424316e-01
6.717437744933184296e-02 -1.192272481920960137e-01 -9.510665026828276636e-01 -2.904896133268043967e-01 5.191890463458457283e-01 -8.037776550164448253e-01
-1.794743090979157851e-01 -8.899104486258971325e-02 -9.467989691003632080e-01 1.406900528152582042e-01 3.755209881365586533e-01 -9.160733030209878835e-01
-8.591263907868681299e-03 -1.036895254406862560e-01 -9.326926331995682995e-01 -2.807860390518090218e-03 5.929721104581816560e-01 -8.052181022175279868e-01
1.662386325295591438e-01 -3.089465260952887690e-02 -9.827122037892401796e-01 -5.320480349933819353e-01 -2.365217847281280567e-02 -8.463837562909458656e-01
-6.298508352274911903e-02 -1.157413414560578835e-01 -9.395933821679296472e-01 2.830260495553338362e-01 3.263979574064280742e-01 -9.018650834099373181e-01
-7.032520465933889998e-04 2.655681425689230407e-02 -8.688897465630518457e-01 1.783426969264281514e-01 3.686928757673286206e-01 -9.122825471373577910e-01
-1.240598276528408206e-01 3.339717713873538441e-02 -8.870746600045906760e-01 -2.695051956837883275e-02 1.738608831922587028e-01 -9.844013728101980165e-01
1.929232734540513583e-01 -4.656593606537627605e-02 -9.993273776901030470e-01 -6.004471158701304434e-01 -4.107143469284914999e-02 -7.986090397031034849e-01
-2.081580471375054642e-01 1.056889292242777362e-01 -9.018402437419771323e-01 8.995219475064841763e-01 1.634686668616854577e-01 -4.051398041523510130e-01
3.812306896551869578e-02 1.613145002959386412e-02 -8.912271587667581763e-01 -4.933077083431838261e-01 3.181388315407411294e-01 -8.095895186791194353e-01
-1.173257120800197395e-01 -1.008769935003429735e-01 -9.420179910064697681e-01 1.740066338958275449e-01 5.054517673822863655e-01 -8.451273289927182519e-01
5.788779716468623465e-02 1.011919128960004771e-01 -8.683807064485253857e-01 -4.180033982005767479e-01 2.199556971149329021e-01 -8.814151407818305861e-01
6.342207206364519623e-02 5.817415380056147750e-02 -8.852262865537737779e-01 -4.245913102891940016e-01 3.885756526286364143e-01 -8.177598555878948794e-01
-1.734276305313778854e-01 3.777321455902617892e-02 -8.922360616810752765e-01 6.384159541034741814e-01 3.847973771009230992e-01 -6.666003661283129711e-01
9.344446652586821389e-02 -1.980870366494567880e-02 -9.159560975744961420e-01 -1.280790042051189181e-01 1.235617282772667920e-02 -9.916869938014092334e-01
1.743179318424749047e-01 -3.174520314640459639e-02 -9.877671896850129807e-01 -5.320480349933819353e-01 -2.365217847281280567e-02 -8.463837562909458656e-01
-4.530046784279248562e-02 2.659939825982755163e-02 -8.794843679853412421e-01 3.031792247370300730e-01 2.449150551153954358e-01 -9.209228922475954926e-01
-6.933675225068174075e-02 -5.638802838287254593e-02 -9.101512686007636743e-01 -1.179998517000373642e-01 2.852372740620370273e-01 -9.511654600985190999e-01
2.117359251485906313e-01 -3.618362291352351934e-02 -1.018346787369426076e+00 -7.582915567447345850e-01 1.679918586038900430e-02 -6.516990887856719539e-01
-9.936278176633028814e-02 -9.080835691462323112e-02 -9.322977051816537797e-01 1.740066338958275449e-01 5.054517673822863655e-01 -8.451273289927182519e-01
-6.865379160904290512e-02 -1.703660282383841207e-01 -9.626993869851311336e-01 1.694434074627044762e-01 2.011542609429055883e-01 -9.647931876687051433e-01
1.116045430380466635e-01 -1.754958443772436372e-02 -9.182733715356576898e-01 -1.280790042051189181e-01 1.235617282772667920e-02 -9.916869938014092334e-01
-1.964550425252144794e-01 -1.562772492113594092e-02 -9.456286541738136986e-01 8.878740667078589832e-02 3.469296041725130481e-02 -9.954462290421133286e-01
9.307086400389413816e-02 -7.646838228274283056e-02 -9.419920892567658077e-01 -3.109769800238574300e-01 3.466638241592425174e-01 -8.849392696194078312e-01
-1.005272084991237769e-01 7.256582917658824239e-02 -8.807277566280171666e-01 -9.111310288872696839e-02 2.627923156174034602e-01 -9.605407858776384700e-01
-2.031246527986943218e-01 -5.637568010525436518e-02 -9.465163036815837927e-01 -2.145999075268528455e-01 4.546015979567116783e-02 -9.756435074148847031e-01
2.416952788057028234e-01 -3.650045193859201287e-02 -1.061679931134463128e+00 -8.292542865849438227e-01 1.214585116208891369e-01 -5.455136644808579183e-01
-9.809885689824229815e-02 -8.139495198577928470e-02 -9.266314750869426575e-01 1.167302389609674168e-01 4.537777388879087881e-01 -8.834363672624601094e-01
-1.100214361907716522e-02 7.664477341480566142e-02 -8.540480278167028594e-01 3.087051829683593041e-01 3.050610858228283151e-01 -9.009100087828244563e-01
1.471554764833662432e-01 -2.507789745802023115e-02 -9.639226879737413656e-01 -8.273202461957100962e-01 3.988891392479329001e-01 -3.955106380676923217e-01
4.312132846707294326e-02 3.843916295844688330e-02 -8.840633750083848330e-01 -4.245913102891940016e-01 3.885756526286364143e-01 -8.177598555878948794e-01
1.486450074171900004e-01 -6.409052965720014872e-02 -9.707249599385303629e-01 -5.320480349933819353e-01 -2.365217847281280567e-02 -8.463837562909458656e-01
-4.361027043999193831e-02 9.490210154940670328e-02 -8.590393114828884791e-01 3.087051829683593041e-01 3.050610858228283151e-01 -9.009100087828244563e-01
7.107829888530871332e-02 -1.600994590660693995e-01 -9.758022042034716348e-01 -3.212707395496884333e-01 4.215821628347041217e-01 -8.479702777154451976e-01
-1.309318079110335584e-02 2.575204886518372982e-02 -8.716371021728614998e-01 1.783426969264281514e-01 3.686928757673286206e-01 -9.122825471373577910e-01
-2.059237103953839298e-01 -3.998115906121341157e-02 -9.451367269841343122e-01 -2.145999075268528455e-01 4.546015979567116783e-02 -9.756435074148847031e-01
-1.990311624247079469e-01 -2.600175379918195223e-02 -9.460014220839934040e-01 -2.145999075268528455e-01 4.546015979567116783e-02 -9.756435074148847031e-01
-9.666641378907815663e-02 -1.435304716386282819e-01 -9.602770701882941129e-01 2.727987609513957690e-01 3.801042842778589170e-01 -8.837995072961964960e-01
7.604471143910074629e-03 -1.370636898165060735e-01 -9.571975783833746032e-01 -9.243536350885969699e-02 3.943556335971722393e-01 -9.142971824429723116e-01
4.470515684561923719e-02 -8.821065202596568844e-02 -9.290460832147191539e-01 -1.930097463694561422e-01 3.694466870064581632e-01 -9.089864593415847294e-01
2.688513022527522830e-03 -5.816425729373646270e-02 -9.044721961951224243e-01 3.540468376433047459e-01 3.658361489592351634e-01 -8.607059595875072855e-01
-1.537162153131524100e-01 1.016276153784236025e-01 -8.677315052185072819e-01 -9.111310288872696839e-02 2.627923156174034602e-01 -9.605407858776384700e-01
5.931975934477399896e-03 9.423184179837421071e-02 -8.471724472180407473e-01 -3.711198263179947832e-01 1.786111691599353291e-01 -9.112453702296777758e-01
-9.745773193914690838e-03 -7.728508302456278678e-02 -9.165276631586833922e-01 4.030257978696338839e-01 -2.765580672012037389e-01 -8.724023393580964125e-01
-1.156879799286161109e-01 -9.616829265141876859e-02 -9.388646230657734515e-01 1.740066338958275449e-01 5.054517673822863655e-01 -8.451273289927182519e-01
4.790557907883095067e-03 1.276063351369196956e-02 -8.733913921135671998e-01 1.783426969264281514e-01 3.686928757673286206e-01 -9.122825471373577910e-01
5.161675117493210591e-02 1.421178547181364271e-01 -8.563214386295490144e-01 -3.745011327049051486e-01 1.907138060282066450e-01 -9.074013146304001909e-01
-5.522254158369079013e-02 5.717954600342191329e-02 -8.746181929958445345e-01 3.031792247370300730e-01 2.449150551153954358e-01 -9.209228922475954926e-01
-1.264605763494028035e-01 -7.884106315375913332e-02 -9.307196071660561731e-01 1.740066338958275449e-01 5.054517673822863655e-01 -8.451273289927182519e-01
-4.625470897743547832e-02 -4.510355007495789326e-02 -9.098857908140453032e-01 -1.453134838124956196e-01 2.758557888366693911e-01 -9.501513433067251269e-01
-1.002884641004414545e-01 -8.044420017769696174e-02 -9.264324379629484962e-01 1.167302389609674168e-01 4.537777388879087881e-01 -8.834363672624601094e-01
7.157703123818697118e-03 -1.224955648997927693e-01 -9.476084014260918176e-01 -1.133119115504949981e-01 5.936738419153347879e-01 -7.966880067669270815e-01
1.821410350978015513e-01 6.726071601573191394e-02 -9.324189952763822786e-01 -7.413438354256192131e-01 4.648456183243552808e-01 -4.840742389355997544e-01
1.535929693402776075e-01 -3.077277883073561288e-02 -9.716432133578951635e-01 -7.136678611351605639e-01 9.210661076179640916e-02 -6.944023014339311128e-01
1.955656924309337186e-01 1.401219925124649601e-01 -9.210397702096839723e-01 -2.956340044268801481e-01 -5.869444374170613293e-02 -9.534964591965611191e-01
-7.675203479754016955e-02 -1.724416733188308126e-02 -8.974928080401337604e-01 -1.179998517000373642e-01 2.852372740620370273e-01 -9.511654600985190999e-01
-5.532542462438548581e-02 -1.631432938743693217e-02 -8.978849725763045075e-01 1.617946923672485826e-01 4.493485747711096767e-01 -8.785831411272128078e-01
-8.349028893388458356e-03 -5.606897862084895406e-02 -9.081218492444697032e-01 3.540468376433047459e-01 3.658361489592351634e-01 -8.607059595875072855e-01
1.678315315089800863e-01 -1.163852739334206854e-01 -1.005947105584014567e+00 -5.187423797657563229e-01 5.276910028700697586e-01 -6.726429579836095130e-01
1.129719353489871438e-02 -1.216685650276983222e-01 -9.475808942716984484e-01 -1.133119115504949981e-01 5.936738419153347879e-01 -7.966880067669270815e-01
2.780626848390397449e-02 -5.392045898189760933e-02 -9.128135984760374910e-01 -4.925763495701725447e-01 3.227711461193633058e-01 -8.082000538708938864e-01
3.561328017762287190e-02 -8.282338137316114235e-02 -9.249259667202326396e-01 -1.930097463694561422e-01 3.694466870064581632e-01 -9.089864593415847294e-01
1.989771766508223183e-01 8.933585952310882372e-02 -9.406251644629901598e-01 -8.454958240308090289e-01 2.881654776680270258e-01 -4.495525208769502457e-01
2.079122002139772996e-01 -5.649435547487371284e-02 -1.014421210970754439e+00 -7.582915567447345850e-01 1.679918586038900430e-02 -6.516990887856719539e-01
3.080343995738053439e-02 -1.062416884351520679e-01 -9.386148201886139741e-01 -6.237323649877749010e-02 5.599230361168305858e-01 -8.261935445126511457e-01
6.888281224017879512e-02 1.831264217497342167e-02 -9.070026009567079273e-01 -4.245913102891940016e-01 3.885756526286364143e-01 -8.177598555878948794e-01
1.811379370604364603e-01 5.122576246825764901e-02 -9.462807892132055754e-01 -7.413438354256192131e-01 4.648456183243552808e-01 -4.840742389355997544e-01
-5.371288843910623084e-02 -1.515797266173272428e-01 -9.563773519105261967e-01 -8.669190801168724647e-02 3.333679994124169599e-01 -9.388025831094927165e-01
-1.369012740020339736e-01 -6.569563244318069040e-02 -9.301403315815321982e-01 5.431074671711854096e-01 3.249698291369310654e-01 -7.742279310730230124e-01
-1.929360460722795156e-01 5.708268137605087764e-03 -9.359150825072823920e-01 6.364411255109231336e-01 4.653544341873459556e-01 -6.151324608086981005e-01
-1.800881609295762742e-01 5.334650532865268385e-02 -8.896252431750947265e-01 6.384159541034741814e-01 3.847973771009230992e-01 -6.666003661283129711e-01
1.205410603090320970e-01 1.001067614211642032e-01 -8.930979302441257595e-01 -2.779190553797689645e-01 2.866589295339512788e-01 -9.168356759939405576e-01
-1.624401340395821569e-01 -8.746403241414688057e-02 -9.450983579862287653e-01 8.878740667078589832e-02 3.469296041725130481e-02 -9.954462290421133286e-01
-3.220228732539600486e-02 -1.280600228092170223e-01 -9.488099789461945655e-01 -9.429598479893445961e-02 4.378282175610420657e-01 -8.940999491992605019e-01
-2.014346750931609586e-01 9.055869592229272291e-02 -8.930173593664554321e-01 8.995219475064841763e-01 1.634686668616854577e-01 -4.051398041523510130e-01
-1.164916049326413933e-01 8.112242253221627064e-02 -8.768724568521290008e-01 -9.111310288872696839e-02 2.627923156174034602e-01 -9.605407858776384700e-01
-3.467768549606269068e-02 -2.228296915990442967e-02 -8.971352486236905399e-01 1.617946923672485826e-01 4.493485747711096767e-01 -8.785831411272128078e-01
-2.017997070004718119e-01 1.476937253881924379e-02 -9.382309629335462420e-01 6.364411255109231336e-01 4.653544341873459556e-01 -6.151324608086981005e-01
-1.675066266420094097e-01 2.213446932211561927e-02 -8.972535581998060117e-01 6.205024776734953118e-01 4.856267603019990831e-01 -6.157461529556138569e-01
1.600276624966599781e-01 3.028159836050337006e-02 -9.350160532735679597e-01 -8.273202461957100962e-01 3.988891392479329001e-01 -3.955106380676923217e-01
1.121928973264160745e-01 -1.617683630899777181e-01 -9.895407897863576219e-01 -2.869053255169067285e-01 3.238863984935463902e-01 -9.015447493391093303e-01
2.313799299041355007e-01 -3.830922271052950023e-02 -1.044036110574893872e+00 -8.840652991197699428e-01 -4.816618862281115548e-02 -4.648747843944897595e-01
-8.521460360965146807e-02 2.084948783039299036e-02 -8.903542687140626466e-01 -2.695051956837883275e-02 1.738608831922587028e-01 -9.844013728101980165e-01
-5.628814361720813064e-02 6.635450158905896456e-02 -8.725289666656771415e-01 3.031792247370300730e-01 2.449150551153954358e-01 -9.209228922475954926e-01
4.334214989825473097e-02 -1.137208677602203621e-01 -9.446301718563854255e-01 -6.237323649877749010e-02 5.599230361168305858e-01 -8.261935445126511457e-01
-2.180424180598510286e-01 1.446425494316118110e-01 -9.098644442419170364e-01 7.508342022781872016e-01 -8.235790985132353248e-02 -6.553359255940420791e-01
2.044587844705250124e-01 -3.980082305408225163e-02 -1.009972633699617539e+00 -7.582915567447345850e-01 1.679918586038900430e-02 -6.516990887856719539e-01
1.930567977001949043e-01 -4.903384932443678040e-02 -9.993008484515167877e-01 -6.004471158701304434e-01 -4.107143469284914999e-02 -7.986090397031034849e-01
-2.091664359993113953e-01 -6.552148373965377415e-02 -9.456135185815179867e-01 -2.145999075268528455e-01 4.546015979567116783e-02 -9.756435074148847031e-01
1.977587116167511261e-01 7.050561404486298256e-02 -9.532209524356507480e-01 -7.413438354256192131e-01 4.648456183243552808e-01 -4.840742389355997544e-01
8.561902073278121472e-02 3.991988130577413946e-02 -9.037851453060555817e-01 -2.455410536254787335e-01 3.314986100331530072e-01 -9.109436110597500802e-01
