1.913847488915767711e-02 -6.768675084950433879e-03 -7.540969312975798200e-01 7.109490687645603213e-01 -4.845272576154833755e-01 5.096908457589005570e-01
5.094811500330750226e-02 1.338760021048673587e-01 -6.684876186370699580e-01 3.358843319023019358e-01 -5.523611285969782791e-01 7.629409539391739381e-01
9.791543443543285208e-02 -2.290197277512789550e-02 -8.179787948182659640e-01 8.880567013513332442e-02 -5.101784978413270721e-01 8.554714801162088822e-01
6.078267274988306823e-02 -2.581378799349004841e-02 -8.029182771061234014e-01 5.214836389703579878e-01 -3.949253937585223140e-01 7.563654854968657748e-01
6.569165290530089296e-02 3.590049136773532795e-02 -7.713615620193408073e-01 6.070633987846996149e-01 -6.103272157093061479e-01 5.088955881322759778e-01
-3.360710333657991600e-02 3.332434665134959006e-02 -6.809892553518689384e-01 9.209820053167990794e-01 -2.614758813100234724e-01 2.888295507315587485e-01
1.303622465561465049e-01 -1.510848623315235589e-02 -8.271950497354186860e-01 4.798850626052290624e-01 -7.314777417659802383e-01 4.844075143815558815e-01
2.107861057297733334e-03 5.789720963096017109e-02 -7.045053535051093441e-01 4.634329146951594036e-01 -4.858321907493600711e-01 7.410782792720528311e-01
-6.144885151208803742e-02 -1.485595693358303382e-01 -7.531440767454095075e-01 6.850749550698093104e-01 -3.984025589654407451e-01 6.098751568525212496e-01
-1.176994153660211456e-01 -2.449720415077003867e-03 -5.405991020402138858e-01 9.831479457942776667e-01 1.354635637328708009e-01 1.227588676278920099e-01
1.315145854721941343e-01 1.319956045483195728e-01 -7.385445191544824928e-01 2.591311613831852600e-01 -6.391479422051764558e-01 7.241139062157903039e-01
-6.142967810939054668e-02 -1.334644901068267053e-01 -7.433047138738363424e-01 6.850749550698093104e-01 -3.984025589654407451e-01 6.098751568525212496e-01
1.362353640622248341e-01 -2.951464760990786008e-03 -8.146556710704945248e-01 4.798850626052290624e-01 -7.314777417659802383e-01 4.844075143815558815e-01
2.082262608903124868e-01 1.165722461540508043e-01 -7.431408792148727072e-01 -3.448894697426959088e-01 -6.445335109938147289e-01 6.823692599074110410e-01
4.738239594024232226e-02 1.031826768230687391e-01 -6.891394535483410522e-01 3.358843319023019358e-01 -5.523611285969782791e-01 7.629409539391739381e-01
-1.124824269917998332e-01 -1.230405005191869683e-01 -5.491133911951600055e-01 8.927712291247937859e-01 -4.491801390202143085e-01 -3.459386010242131160e-02
-1.262687844085707556e-01 -1.654725059904600948e-01 -6.203043215532904053e-01 9.649099649274164303e-01 -8.755878994939050863e-02 2.475524548179047768e-01
-3.276264498399268123e-03 1.564640320361667669e-01 -6.165131470686617821e-01 2.801903802387879505e-01 -6.198106255593156533e-01 7.330266975120436346e-01
-6.924240491934377517e-02 -1.390724081339237972e-01 -7.381920370566175116e-01 6.850749550698093104e-01 -3.984025589654407451e-01 6.098751568525212496e-01
8.015503312747317144e-02 4.849453588042143548e-02 -7.735107271116429262e-01 6.070633987846996149e-01 -6.103272157093061479e-01 5.088955881322759778e-01
1.332534406856196278e-02 1.912576214297409816e-01 -5.934391915798100658e-01 2.801903802387879505e-01 -6.198106255593156533e-01 7.330266975120436346e-01
-1.021268694168877139e-01 -9.875252503460081599e-02 -6.192772468509302186e-01 9.648307760411617418e-01 -2.591086052328777645e-01 -4.432047267440177019e-02
1.375854087533934511e-01 4.203554211106180771e-02 -7.891298125522675511e-01 -1.029834100571356409e-02 -3.144556911875502903e-01 9.492162885519244142e-01
2.176891001958085672e-02 -8.893589780892825758e-02 -8.081292949008682669e-01 6.884842835645323955e-01 -3.559261334417118672e-01 6.319066219132900564e-01
1.408280206310553728e-01 -4.965196623838125795e-02 -8.669548180053101571e-01 4.971219433917502539e-01 -4.742088048651771914e-01 7.266331831032423194e-01
1.159688616534086808e-01 9.182874167696318535e-02 -7.655919696463695523e-01 6.700819822221858457e-01 -5.148902634358902830e-01 5.346757463361375695e-01
-8.196763657038226569e-02 1.084426601746787434e-02 -5.945023562298176190e-01 7.850216850929645496e-01 -3.940459922072393484e-01 4.779840059659054563e-01
1.229854938861060960e-02 -1.046746861401435247e-01 -8.080539773287025440e-01 6.757530240002131983e-01 -4.560303917990219391e-01 5.791322235122113860e-01
-1.013068691351918238e-01 -7.308219448980615707e-02 -5.591839757150611767e-01 9.832106546555978710e-01 1.822451014210740572e-01 -9.139561244031495571e-03
-1.277510992872044060e-01 -1.873863680622653849e-01 -6.147671021169444083e-01 9.929228820324252913e-01 2.894113092194679215e-02 1.151805594594027815e-01
-6.255515698051069759e-03 -5.272712635102632522e-02 -7.690757014478274423e-01 6.143780124266248199e-01 -2.184320691106841628e-01 7.581735217156659878e-01
-1.179176131365896468e-01 1.726450149356122468e-02 -4.717178870634193832e-01 9.951793012953474848e-01 6.010796222482057971e-02 -7.749316841169698322e-02
-4.609637851480026527e-02 -1.299772421186742022e-01 -7.582506104334710839e-01 6.850749550698093104e-01 -3.984025589654407451e-01 6.098751568525212496e-01
-5.771015069567498462e-02 -1.341145941891669358e-01 -7.479075545934316116e-01 6.850749550698093104e-01 -3.984025589654407451e-01 6.098751568525212496e-01
-1.209541390673831013e-01 1.165172259747007319e-02 -5.217786403202402390e-01 8.300492569649746688e-01 -5.488411319646301356e-01 9.895273051147696064e-02
-1.176822573672036132e-01 1.700911024160799492e-02 -4.644290711750450051e-01 9.877371497101873343e-01 1.494432176001980472e-01 4.518902295574436789e-02
-5.628485690748124409e-02 -5.604414430602021324e-02 -7.135182479970086922e-01 7.539029629032872881e-01 -3.830222397630956843e-01 5.337829955820121430e-01
-3.788407146479100263e-02 -2.844483026625005406e-02 -7.223603817975595698e-01 9.210275319235350366e-01 -2.577586180368611757e-01 2.920081852732371863e-01
-2.000220123606014783e-02 3.293773720256539667e-02 -7.070416369311722793e-01 4.634329146951594036e-01 -4.858321907493600711e-01 7.410782792720528311e-01
1.395436107694903449e-01 -2.204769595781157915e-02 -8.467692237889771212e-01 4.798850626052290624e-01 -7.314777417659802383e-01 4.844075143815558815e-01
-1.036257113258967494e-01 -1.003116071301491941e-01 -6.427913736669335076e-01 9.648307760411617418e-01 -2.591086052328777645e-01 -4.432047267440177019e-02
1.835175257773734303e-01 1.293015415964567927e-01 -7.436059134504210411e-01 -3.448894697426959088e-01 -6.445335109938147289e-01 6.823692599074110410e-01
-1.132930190086194333e-01 -4.434068231708022945e-02 -5.292565001571613026e-01 9.586950069943008801e-01 2.284449448738367638e-01 1.694602924752207362e-01
-7.051392011587569175e-02 -1.495003586249857574e-01 -7.425736754251434091e-01 8.371633870113497355e-01 -2.712133484601607081e-01 4.749745078051162417e-01
-9.263357631287164051e-02 1.090084248983127189e-02 -5.762576987938281547e-01 8.003805294993426855e-01 -4.176840091235278218e-01 4.300361339711448183e-01
-1.324043178019371769e-01 -1.903151239729313215e-01 -5.739177724322552798e-01 9.929228820324252913e-01 2.894113092194679215e-02 1.151805594594027815e-01
-9.131085569165192650e-02 -5.079036663973672538e-02 -6.579383162302592236e-01 8.634838849075407996e-01 -1.359711990141455329e-01 4.857030096094079319e-01
-1.325526025229080418e-01 -1.928881573788700232e-01 -5.719929529122241840e-01 9.929228820324252913e-01 2.894113092194679215e-02 1.151805594594027815e-01
-1.041761984777291317e-01 -1.720667391446278893e-02 -5.811528672207048052e-01 7.850216850929645496e-01 -3.940459922072393484e-01 4.779840059659054563e-01
2.319423853156834386e-02 1.618908653736289838e-01 -6.266628501809510254e-01 4.298997957480437115e-01 -6.411516257220750692e-01 6.356970650000915990e-01
-3.698510284893003625e-02 5.013520172805305264e-02 -6.582778495559686860e-01 8.922570156830259558e-01 -2.419148300778430349e-01 3.812540268021163414e-01
1.291312258866631271e-02 5.479772923936424706e-02 -7.130246984887398387e-01 3.332398168551537476e-01 -6.031391299243235027e-01 7.246891846967731254e-01
-3.138405854858764867e-03 -2.841828879603845032e-02 -7.502596775933964013e-01 4.821015536542815894e-01 -4.062649578680924689e-01 7.762260469557595854e-01
-1.144158053128810498e-01 -1.309186329944344862e-01 -6.542832305570319695e-01 9.649099649274164303e-01 -8.755878994939050863e-02 2.475524548179047768e-01
-7.463786942687893056e-02 -9.885647120904005047e-02 -7.104183556957519574e-01 8.268861325214493796e-01 -3.479060314511618901e-01 4.418378855684776951e-01
1.411194087273792523e-02 -2.742883700188282481e-02 -7.667257669358421568e-01 7.109490687645603213e-01 -4.845272576154833755e-01 5.096908457589005570e-01
-9.941280283169971754e-02 -1.832022076948728873e-01 -7.157164833070424059e-01 8.102003159923809594e-01 -3.807890692128064192e-01 4.456176979585646514e-01
-1.152653340998835568e-01 -1.879760227875639997e-02 -5.420533323000001902e-01 9.831479457942776667e-01 1.354635637328708009e-01 1.227588676278920099e-01
2.927469059226699838e-02 -1.034101882962832480e-01 -8.259284791513786805e-01 3.771015598242820066e-01 -4.832470867516655555e-01 7.901054782268768228e-01
-2.264736004930663696e-02 2.032267039734511963e-02 -7.126326989896643038e-01 4.821015536542815894e-01 -4.062649578680924689e-01 7.762260469557595854e-01
-4.034351709827182358e-02 9.785976524178741087e-02 -5.987772114090711417e-01 8.715700293562017587e-01 -3.957432152954550308e-01 2.894010910063141151e-01
1.855940130812613331e-01 3.290213847574146450e-03 -8.691867038251734900e-01 6.091316355470125510e-01 -6.818115001407756282e-01 4.050823729213682833e-01
5.597637797273388727e-02 6.716896379287005947e-02 -7.229194456489704823e-01 6.061835897259896244e-01 -6.052356123777614672e-01 5.159760741125789529e-01
1.208984683232450091e-01 -5.350480663606588250e-02 -8.558345345916694713e-01 4.971219433917502539e-01 -4.742088048651771914e-01 7.266331831032423194e-01
-1.263918764131974903e-01 -1.732563574962072972e-01 -6.225776656715530377e-01 9.649099649274164303e-01 -8.755878994939050863e-02 2.475524548179047768e-01
2.080050265759483819e-01 9.046740695734811766e-02 -7.679100856252596419e-01 -3.448894697426959088e-01 -6.445335109938147289e-01 6.823692599074110410e-01
1.110193120144365997e-01 -2.733069875775272217e-02 -8.264888077253715881e-01 4.798850626052290624e-01 -7.314777417659802383e-01 4.844075143815558815e-01
1.493967062199516860e-01 1.206740557071486891e-01 -7.549369116494737408e-01 2.591311613831852600e-01 -6.391479422051764558e-01 7.241139062157903039e-01
1.241028844744971327e-01 7.871930030931759137e-02 -7.771235195246440908e-01 -1.029834100571356409e-02 -3.144556911875502903e-01 9.492162885519244142e-01
-1.304879975543588588e-01 -1.868667056691448725e-01 -5.913040341254179877e-01 9.929228820324252913e-01 2.894113092194679215e-02 1.151805594594027815e-01
-2.889269731533956886e-02 1.113455454656582244e-01 -6.120414651520297289e-01 8.386055522530825312e-01 -4.560612632588665893e-01 2.979074552357315331e-01
2.955899324643528753e-02 1.566582230872387849e-01 -6.362446528917249378e-01 4.298997957480437115e-01 -6.411516257220750692e-01 6.356970650000915990e-01
-2.139264313027304867e-02 8.484138810995528468e-02 -6.721454030361792009e-01 4.634329146951594036e-01 -4.858321907493600711e-01 7.410782792720528311e-01
2.802475986652245600e-03 -5.347563673657771549e-02 -7.766313987071155056e-01 6.143780124266248199e-01 -2.184320691106841628e-01 7.581735217156659878e-01
-1.231917726257035633e-01 -1.937224010854462219e-01 -5.235073379914236824e-01 9.325546424228743358e-01 9.394702709501923099e-02 -3.485911573685608333e-01
2.550540057165187266e-02 1.076155136256733424e-01 -6.762987918142973065e-01 3.358843319023019358e-01 -5.523611285969782791e-01 7.629409539391739381e-01
-1.017718678443385455e-01 -1.246325999457740669e-01 -6.798920806679173978e-01 8.406363555076763472e-01 -2.106184628270914849e-01 4.989693186109991907e-01
1.802609510685884708e-01 -1.319408435891361933e-02 -8.871915555835523381e-01 6.244042238962258518e-01 -6.393352877394207212e-01 4.487424150130051581e-01
6.494016814667407343e-03 1.480485839864812414e-01 -6.293301258431868161e-01 4.298997957480437115e-01 -6.411516257220750692e-01 6.356970650000915990e-01
-3.930492453224834065e-02 1.572950209599539156e-02 -6.787493069031714787e-01 9.209820053167990794e-01 -2.614758813100234724e-01 2.888295507315587485e-01
6.296668717588152497e-02 7.863432037789481674e-03 -7.891948134074543431e-01 4.990984361774915001e-01 -3.365930919052973480e-01 7.985022488927721040e-01
1.659520969803711110e-01 -7.820109187856366315e-03 -8.586074738769402526e-01 6.037376006905796899e-01 -6.270541498247721446e-01 4.922438447557415109e-01
-1.134113022556242426e-02 2.005397791916793335e-02 -7.197954466507749949e-01 4.821015536542815894e-01 -4.062649578680924689e-01 7.762260469557595854e-01
1.097703757968271771e-01 2.745395516215485155e-03 -8.039140947129918002e-01 8.880567013513332442e-02 -5.101784978413270721e-01 8.554714801162088822e-01
7.027458378165100938e-02 -2.716332876142757424e-02 -8.091985818781718409e-01 4.710048223097789144e-01 -3.499651434839770592e-01 8.097399926563914052e-01
-1.134738742598174616e-01 -1.278920184616996192e-01 -6.440196854858493136e-01 8.700358088902597764e-01 -4.916949089712123189e-01 3.569044326514976551e-02
-1.303459335017591661e-02 -4.637847833211409393e-02 -7.617532819517446319e-01 6.143780124266248199e-01 -2.184320691106841628e-01 7.581735217156659878e-01
-1.125011194450652174e-01 3.077304978049230253e-04 -5.499097880759638013e-01 7.948608601035792587e-01 -4.198944899158324473e-01 4.380466075815688254e-01
9.907719024499477695e-03 1.158844615728709809e-01 -6.631087536108336566e-01 4.284846882241948873e-01 -6.274155873531059857e-01 6.501927042837157833e-01
-3.415668151763208513e-03 -9.148053833385390299e-02 -7.830578845211192407e-01 6.398008139313564602e-01 -2.317558386357184419e-01 7.327647301494721876e-01
-1.317675802330961765e-01 -1.913745614103773973e-01 -5.791406154814174867e-01 9.929228820324252913e-01 2.894113092194679215e-02 1.151805594594027815e-01
-1.003145254356250377e-01 -6.704397376293894095e-02 -6.396988329683860330e-01 9.489782660963743677e-01 -1.664683377844773937e-01 2.678218493551112744e-01
3.458886803824043343e-02 -9.417080439993057162e-02 -8.228138054590056205e-01 3.771015598242820066e-01 -4.832470867516655555e-01 7.901054782268768228e-01
-4.813263598191758891e-02 -1.367574822959282191e-02 -6.769984059131665122e-01 9.210275319235350366e-01 -2.577586180368611757e-01 2.920081852732371863e-01
1.330518685492280695e-01 3.036230373589363010e-03 -8.061574785306588886e-01 8.880567013513332442e-02 -5.101784978413270721e-01 8.554714801162088822e-01
6.846104164816566029e-02 9.180478335622271890e-02 -7.086891790437075400e-01 6.061835897259896244e-01 -6.052356123777614672e-01 5.159760741125789529e-01
1.724249270726740668e-01 1.277341887210531324e-01 -7.506928855947093693e-01 -3.448894697426959088e-01 -6.445335109938147289e-01 6.823692599074110410e-01
-3.985277035492199027e-02 9.990747303011604519e-02 -5.974550107591002357e-01 8.715700293562017587e-01 -3.957432152954550308e-01 2.894010910063141151e-01
-2.588673479179933248e-02 1.434376458459863668e-01 -5.727751968691389139e-01 8.427703250961405823e-01 -4.447686570863472744e-01 3.031814981342906834e-01
-1.013904577096080284e-01 -9.167446785662938802e-02 -6.446260930235742093e-01 9.648307760411617418e-01 -2.591086052328777645e-01 -4.432047267440177019e-02
2.151157733682867307e-02 3.912156050511082783e-02 -7.289482983943953442e-01 4.634329146951594036e-01 -4.858321907493600711e-01 7.410782792720528311e-01
-1.013020042780701235e-01 -1.946189295992370172e-01 -7.220374425317445111e-01 8.102003159923809594e-01 -3.807890692128064192e-01 4.456176979585646514e-01
-9.941572173671023305e-02 -8.546425892655951095e-02 -6.026405823028724296e-01 9.832106546555978710e-01 1.822451014210740572e-01 -9.139561244031495571e-03
1.241340814189072078e-01 1.308905164223191919e-01 -7.368787539000397624e-01 2.591311613831852600e-01 -6.391479422051764558e-01 7.241139062157903039e-01
1.484566289593106381e-01 1.137697151950686630e-01 -7.606946960014254744e-01 2.591311613831852600e-01 -6.391479422051764558e-01 7.241139062157903039e-01
1.313852142301891179e-01 9.135331125849137368e-02 -7.718575600215760169e-01 -2.672683688564592500e-02 -4.195707458308711169e-01 9.073290833170811753e-01
-9.933663048432911369e-02 -1.369242838874319967e-01 -6.891832423957934273e-01 8.406363555076763472e-01 -2.106184628270914849e-01 4.989693186109991907e-01
-1.058133137109754929e-01 -1.120955948110236994e-01 -6.131414168373533480e-01 8.700358088902597764e-01 -4.916949089712123189e-01 3.569044326514976551e-02
8.056683834184338866e-02 -1.619808093833587440e-02 -8.104462008814404816e-01 4.710048223097789144e-01 -3.499651434839770592e-01 8.097399926563914052e-01
-7.797607109128699976e-02 -2.711036059984215166e-02 -6.461835763038367153e-01 6.417689027380059086e-01 -6.843339681628279880e-01 3.461498165490967671e-01
-1.192231526031586192e-01 2.523219926985417749e-02 -4.579426599583812929e-01 9.877371497101873343e-01 1.494432176001980472e-01 4.518902295574436789e-02
-4.569877966071994591e-02 -5.176338453697940795e-02 -7.231952399793578623e-01 6.125064504424798661e-01 -6.279355620081916722e-01 4.801382906328242051e-01
-1.103743481142354238e-01 3.636557973164968038e-02 -4.761735534836005757e-01 7.317712633320534454e-01 -6.556899832589404564e-01 1.859609206669541326e-01
-2.710814734497173778e-02 -8.288345302090632805e-02 -7.601249705493732245e-01 6.968644429493398018e-01 -1.820095412258797007e-01 6.937236301695737239e-01
1.103023991688329569e-02 -2.106503185294109418e-02 -7.563775930859891750e-01 7.109490687645603213e-01 -4.845272576154833755e-01 5.096908457589005570e-01
6.677279638365596001e-03 9.199364524156378176e-02 -6.793197884181463309e-01 3.358843319023019358e-01 -5.523611285969782791e-01 7.629409539391739381e-01
-6.860874458884264060e-02 -1.580781414122839068e-01 -7.508295972161674880e-01 8.371633870113497355e-01 -2.712133484601607081e-01 4.749745078051162417e-01
-9.921466716590120194e-02 4.386991514043330626e-02 -5.254386023205772638e-01 8.300492569649746688e-01 -5.488411319646301356e-01 9.895273051147696064e-02
4.367316272101909314e-02 6.754811798989521221e-02 -7.165575396253734963e-01 3.332398168551537476e-01 -6.031391299243235027e-01 7.246891846967731254e-01
-2.346617000191034749e-03 -5.050823669920741915e-02 -7.716039679990722711e-01 6.143780124266248199e-01 -2.184320691106841628e-01 7.581735217156659878e-01
1.035101217341917318e-01 -4.871976257252744191e-02 -8.405284919886212291e-01 5.470330133026422015e-01 -3.981678363465374071e-01 7.363540292930761400e-01
-9.015263836309571344e-02 -6.587311839599592489e-02 -6.642197717263115253e-01 8.634838849075407996e-01 -1.359711990141455329e-01 4.857030096094079319e-01
4.222463215805998676e-02 -6.573270258710808833e-02 -8.096912821335071619e-01 4.766756738730844600e-01 -3.767187550809886765e-01 7.942690233843134884e-01
-1.171162855993027330e-01 1.199684285794793727e-02 -4.655130000748182728e-01 9.951793012953474848e-01 6.010796222482057971e-02 -7.749316841169698322e-02
5.744532730475924304e-02 2.696995094247657521e-04 -7.889447149679031934e-01 4.990984361774915001e-01 -3.365930919052973480e-01 7.985022488927721040e-01
-1.686513021290458533e-02 1.393906681530795166e-01 -6.037899834423338108e-01 8.427703250961405823e-01 -4.447686570863472744e-01 3.031814981342906834e-01
-2.820192484465089411e-02 6.834926913572800244e-02 -6.672760474271677289e-01 8.922570156830259558e-01 -2.419148300778430349e-01 3.812540268021163414e-01
-1.216652852013902844e-02 9.139931834958883727e-02 -6.714540986684699453e-01 3.358843319023019358e-01 -5.523611285969782791e-01 7.629409539391739381e-01
-4.641923056436319389e-02 8.798627152494842285e-02 -5.939809557713566779e-01 8.715700293562017587e-01 -3.957432152954550308e-01 2.894010910063141151e-01
-1.137783032159245256e-01 -1.559911112706472147e-01 -6.600904836401553233e-01 9.289119580450952984e-01 -2.329127840096120727e-02 3.695674370818890497e-01
1.950508863396521395e-02 1.521246541733552449e-01 -6.340180161210934306e-01 4.298997957480437115e-01 -6.411516257220750692e-01 6.356970650000915990e-01
-4.557754339152758627e-02 9.466025095735962347e-02 -5.873894368561102253e-01 8.715700293562017587e-01 -3.957432152954550308e-01 2.894010910063141151e-01
1.332447628606726053e-01 -6.023320400424270887e-02 -8.686722076097330714e-01 4.971219433917502539e-01 -4.742088048651771914e-01 7.266331831032423194e-01
-1.194703890086513259e-01 -7.881103449892590609e-03 -5.204222818351759150e-01 9.831479457942776667e-01 1.354635637328708009e-01 1.227588676278920099e-01
1.587697442877058773e-01 1.506699052245715764e-01 -7.226382556963749648e-01 6.332517923157576778e-02 -8.054945789060796724e-01 5.892099838157922598e-01
3.305165242199752107e-02 -8.495080520197126339e-02 -8.158204137358453512e-01 3.629229656860999409e-01 -5.328112699943040598e-01 7.644599868826769118e-01
1.230705059573790755e-01 8.851830888615143389e-02 -7.734134562641972188e-01 -2.672683688564592500e-02 -4.195707458308711169e-01 9.073290833170811753e-01
-1.059298324344267600e-02 1.229321604283064029e-01 -6.427977395844988173e-01 4.284846882241948873e-01 -6.274155873531059857e-01 6.501927042837157833e-01
-1.041048652204789038e-01 -1.012809397305564629e-01 -6.475553121611306029e-01 9.648307760411617418e-01 -2.591086052328777645e-01 -4.432047267440177019e-02
2.735197550350997042e-02 2.111007850554068033e-01 -5.662082195553878039e-01 3.019971892969872673e-01 -8.768320993831596466e-01 3.741165154708367968e-01
1.876643515402540430e-01 1.039761915775354595e-01 -7.643626447168830884e-01 -2.672683688564592500e-02 -4.195707458308711169e-01 9.073290833170811753e-01
1.138319964296900522e-01 1.371041379251958237e-01 -7.193139483300405868e-01 6.700819822221858457e-01 -5.148902634358902830e-01 5.346757463361375695e-01
1.851165917714901188e-01 1.581840715774822659e-01 -7.151974424997319391e-01 6.332517923157576778e-02 -8.054945789060796724e-01 5.892099838157922598e-01
1.905357697811301543e-01 8.850718378295090172e-03 -8.675229251787268669e-01 6.037376006905796899e-01 -6.270541498247721446e-01 4.922438447557415109e-01
-1.032110981546740941e-01 -6.472301132033760063e-02 -5.973518994291289186e-01 9.832106546555978710e-01 1.822451014210740572e-01 -9.139561244031495571e-03
-1.023759062358959721e-01 -6.972670999501097422e-02 -6.072790695414447271e-01 9.832106546555978710e-01 1.822451014210740572e-01 -9.139561244031495571e-03
7.179169762129443411e-02 3.897475939355322938e-02 -7.749513051338228209e-01 6.070633987846996149e-01 -6.103272157093061479e-01 5.088955881322759778e-01
-4.349968737945859865e-02 8.796962436078616110e-02 -6.027963141819766557e-01 8.715700293562017587e-01 -3.957432152954550308e-01 2.894010910063141151e-01
4.102505087106573904e-03 2.958156082460765626e-02 -7.243157268478745969e-01 4.634329146951594036e-01 -4.858321907493600711e-01 7.410782792720528311e-01
1.202546180705401369e-01 -6.048253018331115061e-02 -8.593283456805073106e-01 5.470330133026422015e-01 -3.981678363465374071e-01 7.363540292930761400e-01
3.073598129637411525e-02 5.813368397695298923e-02 -7.184439063596823605e-01 3.332398168551537476e-01 -6.031391299243235027e-01 7.246891846967731254e-01
-1.130765548456843655e-01 -1.325546582138894258e-01 -6.600820197911354548e-01 9.649099649274164303e-01 -8.755878994939050863e-02 2.475524548179047768e-01
1.414769764149694520e-01 9.581621464465232829e-02 -7.694965372973044948e-01 -2.672683688564592500e-02 -4.195707458308711169e-01 9.073290833170811753e-01
-1.236733015514467210e-01 -1.607003210813523486e-01 -6.287330827954922263e-01 9.649099649274164303e-01 -8.755878994939050863e-02 2.475524548179047768e-01
-1.115708862772574750e-01 2.859795887348004842e-02 -5.064962980736894549e-01 8.300492569649746688e-01 -5.488411319646301356e-01 9.895273051147696064e-02
-4.379575176953094673e-02 -5.822676249784621699e-02 -7.327237392935503912e-01 7.539029629032872881e-01 -3.830222397630956843e-01 5.337829955820121430e-01
3.349989030094043668e-02 -5.561784354447896900e-02 -7.996696541245738032e-01 5.214836389703579878e-01 -3.949253937585223140e-01 7.563654854968657748e-01
-1.016923889402035625e-01 4.454514671726245850e-02 -5.009094562510888471e-01 8.300492569649746688e-01 -5.488411319646301356e-01 9.895273051147696064e-02
1.754795466332913223e-01 2.439260768761437187e-02 -8.250002149671725737e-01 7.109316243068037888e-01 -6.286025879250596304e-01 3.153331762032141050e-01
-1.691066800740664844e-02 1.403776844920929801e-01 -6.022154419995360275e-01 8.427703250961405823e-01 -4.447686570863472744e-01 3.031814981342906834e-01
6.580817741482745953e-02 -6.134303653018731428e-02 -8.217628001118211234e-01 4.766756738730844600e-01 -3.767187550809886765e-01 7.942690233843134884e-01
-3.054884002658963399e-02 -1.116712900772368622e-01 -7.650921409293520714e-01 6.651667029609948933e-01 -2.254215940309380328e-01 7.118555767966916470e-01
4.532521725675048990e-02 1.634198807836187983e-01 -6.400871256537185028e-01 4.298997957480437115e-01 -6.411516257220750692e-01 6.356970650000915990e-01
-1.207670696260656346e-01 6.474615092730141679e-03 -5.175613930606227653e-01 9.939561404333345784e-01 7.831970770444549035e-02 -7.692343128045706080e-02
5.158379178886741273e-02 6.265487644929752797e-02 -7.242676616267420542e-01 3.332398168551537476e-01 -6.031391299243235027e-01 7.246891846967731254e-01
1.846179980939330056e-01 -3.703187887191939850e-03 -8.792502172870617638e-01 4.862088223248069441e-01 -6.877856128004328218e-01 5.390286930380026043e-01
4.684970834665319606e-02 1.089849159099733761e-01 -6.847041788007395269e-01 3.358843319023019358e-01 -5.523611285969782791e-01 7.629409539391739381e-01
-1.108403226297399458e-01 2.439983275485272871e-02 -5.298296448882356957e-01 7.948608601035792587e-01 -4.198944899158324473e-01 4.380466075815688254e-01
5.528868420870206024e-02 5.609418079573889188e-02 -7.351021508364498080e-01 6.061835897259896244e-01 -6.052356123777614672e-01 5.159760741125789529e-01
-6.198417772804881709e-02 -4.990068832944642360e-03 -6.403760767890596117e-01 7.850216850929645496e-01 -3.940459922072393484e-01 4.779840059659054563e-01
1.660496719078583816e-01 4.048814191715979088e-02 -7.892641909321664873e-01 -2.917637190922623899e-02 -3.309691179993746735e-01 9.431904273543760819e-01
-1.024980050955201921e-01 -9.680143829531720479e-02 -6.387631962648790962e-01 9.648307760411617418e-01 -2.591086052328777645e-01 -4.432047267440177019e-02
1.332246224785468280e-01 9.723406584849675349e-02 -7.690839752221152459e-01 -2.672683688564592500e-02 -4.195707458308711169e-01 9.073290833170811753e-01
-5.609179706974756763e-02 -1.133410105108434152e-01 -7.417532305940508497e-01 6.651667029609948933e-01 -2.254215940309380328e-01 7.118555767966916470e-01
-8.543735746251396312e-02 -2.866927734257433951e-03 -6.001072190939777951e-01 7.850216850929645496e-01 -3.940459922072393484e-01 4.779840059659054563e-01
1.447606076600165548e-01 1.195580612000047421e-01 -7.542628850810293439e-01 2.591311613831852600e-01 -6.391479422051764558e-01 7.241139062157903039e-01
-8.726843289815945648e-02 -8.864848019788500177e-02 -6.787428025590918068e-01 8.268861325214493796e-01 -3.479060314511618901e-01 4.418378855684776951e-01
-8.279656200179656700e-02 -1.307458353100095505e-01 -7.144410830623374453e-01 8.406363555076763472e-01 -2.106184628270914849e-01 4.989693186109991907e-01
1.465673407073298266e-03 1.471845732662086237e-01 -6.268010565514613441e-01 4.298997957480437115e-01 -6.411516257220750692e-01 6.356970650000915990e-01
-3.181206283675588192e-02 4.599920248111577514e-02 -6.752385657316212209e-01 9.209820053167990794e-01 -2.614758813100234724e-01 2.888295507315587485e-01
-8.235257318555268269e-03 -1.036635054032310627e-01 -7.837341442674011782e-01 6.884842835645323955e-01 -3.559261334417118672e-01 6.319066219132900564e-01
7.944197404424671594e-02 -6.281809024902253180e-02 -8.306446517121205408e-01 4.766756738730844600e-01 -3.767187550809886765e-01 7.942690233843134884e-01
-8.129399492229062718e-02 -1.216571516107900625e-01 -7.131361289259946501e-01 8.406363555076763472e-01 -2.106184628270914849e-01 4.989693186109991907e-01
-1.045173553079398604e-01 -1.032706486794895545e-01 -6.449026423611735614e-01 9.648307760411617418e-01 -2.591086052328777645e-01 -4.432047267440177019e-02
-1.037022931191016427e-02 1.455203957051078023e-01 -6.128518789375548836e-01 8.427703250961405823e-01 -4.447686570863472744e-01 3.031814981342906834e-01
3.958584061897250234e-02 2.320890277407438793e-02 -7.537046643695843873e-01 6.928009453257847339e-01 -4.867544991891785688e-01 5.320685178384370051e-01
-4.435453757625940768e-02 -7.644668116780179573e-03 -6.835912682775481253e-01 9.210275319235350366e-01 -2.577586180368611757e-01 2.920081852732371863e-01
8.644733875694436687e-02 -5.719552871870296068e-02 -8.324357432801071655e-01 5.470330133026422015e-01 -3.981678363465374071e-01 7.363540292930761400e-01
-1.055806675693025248e-01 -1.086298512609244343e-01 -5.581116698934529552e-01 8.927712291247937859e-01 -4.491801390202143085e-01 -3.459386010242131160e-02
2.518490803376900733e-02 1.103113210617012591e-01 -6.742059592673395052e-01 3.358843319023019358e-01 -5.523611285969782791e-01 7.629409539391739381e-01
-2.775071379479055952e-02 1.053627062505554102e-01 -6.244151566003071085e-01 8.386055522530825312e-01 -4.560612632588665893e-01 2.979074552357315331e-01
1.645230272844822594e-01 2.567180065456796736e-03 -8.436226731126035272e-01 6.037376006905796899e-01 -6.270541498247721446e-01 4.922438447557415109e-01
5.001759926461320921e-02 7.058829749657560826e-02 -7.169446954644397296e-01 3.332398168551537476e-01 -6.031391299243235027e-01 7.246891846967731254e-01
-7.403917852835605051e-02 -1.432601465249143669e-01 -7.327970537009527163e-01 8.371633870113497355e-01 -2.712133484601607081e-01 4.749745078051162417e-01
1.413730029863613791e-01 3.185453939597405939e-03 -8.104783137924208569e-01 4.798850626052290624e-01 -7.314777417659802383e-01 4.844075143815558815e-01
-1.133307376672693240e-01 -5.516232399798087771e-02 -5.144547434133347474e-01 9.586950069943008801e-01 2.284449448738367638e-01 1.694602924752207362e-01
-1.022071435241014153e-01 4.480837897249467794e-02 -4.951315020111228815e-01 8.300492569649746688e-01 -5.488411319646301356e-01 9.895273051147696064e-02
-1.293810276734782272e-01 -1.944188003030632717e-01 -5.443609706151935068e-01 9.775085807838003182e-01 -1.154259946653196514e-03 -2.108924896197497678e-01
4.955156450065233836e-02 1.503493450588271919e-02 -7.741587570136448937e-01 6.928009453257847339e-01 -4.867544991891785688e-01 5.320685178384370051e-01
-3.540837089548583977e-02 -1.244682883667488915e-01 -7.666577491896381380e-01 6.850749550698093104e-01 -3.984025589654407451e-01 6.098751568525212496e-01
8.722378804157362997e-02 -4.955226026280518808e-02 -8.290229272227219726e-01 4.766756738730844600e-01 -3.767187550809886765e-01 7.942690233843134884e-01
1.364993573675230276e-01 1.120100165603316322e-01 -7.579688901629826336e-01 2.591311613831852600e-01 -6.391479422051764558e-01 7.241139062157903039e-01
1.792232312509262904e-01 2.690367651853716249e-02 -8.284348025788281777e-01 7.109316243068037888e-01 -6.286025879250596304e-01 3.153331762032141050e-01
8.501478455194232814e-03 2.006025446902117981e-01 -5.628090652331096955e-01 6.834608299218062344e-01 -7.299205903422885111e-01 9.860312214162964689e-03
1.884281464337866363e-01 1.141545305347634598e-01 -7.554310869165475895e-01 -3.448894697426959088e-01 -6.445335109938147289e-01 6.823692599074110410e-01
-5.196163521786499595e-02 6.418981419903023455e-02 -6.098298688915332333e-01 8.715700293562017587e-01 -3.957432152954550308e-01 2.894010910063141151e-01
-1.199595120324931097e-01 -1.354095207742719853e-01 -5.814719704636556186e-01 8.927712291247937859e-01 -4.491801390202143085e-01 -3.459386010242131160e-02
7.561859233563081317e-02 1.001084381381431576e-01 -7.073579587565709259e-01 6.061835897259896244e-01 -6.052356123777614672e-01 5.159760741125789529e-01
-1.068718157298314542e-01 -6.426008321089060615e-02 -5.387306315876725371e-01 9.586950069943008801e-01 2.284449448738367638e-01 1.694602924752207362e-01
-9.063864340263246000e-03 3.248837099815356927e-02 -7.141765133200318472e-01 4.634329146951594036e-01 -4.858321907493600711e-01 7.410782792720528311e-01
-7.674785176494317018e-02 -3.623576028300967700e-02 -6.632789513435516371e-01 6.125064504424798661e-01 -6.279355620081916722e-01 4.801382906328242051e-01
-3.475225181264947338e-02 1.332936345812256798e-02 -6.953639936244662145e-01 9.210275319235350366e-01 -2.577586180368611757e-01 2.920081852732371863e-01
-1.040402400410732758e-01 -5.480837568909577989e-02 -6.188922338323641359e-01 9.489782660963743677e-01 -1.664683377844773937e-01 2.678218493551112744e-01
-7.441314611578882243e-02 -3.868277708409522536e-02 -6.694575694585841452e-01 6.125064504424798661e-01 -6.279355620081916722e-01 4.801382906328242051e-01
-1.198740028612351738e-01 -1.401020749397439702e-01 -5.566268483053061766e-01 9.544519816550101066e-01 -2.628984133005514701e-01 -1.410880540615567502e-01
1.177934089167968906e-01 -3.932314888533393338e-02 -8.444551201474395086e-01 4.971219433917502539e-01 -4.742088048651771914e-01 7.266331831032423194e-01
-4.169902938783320162e-02 7.532039254575573217e-02 -6.255165022270716690e-01 8.715700293562017587e-01 -3.957432152954550308e-01 2.894010910063141151e-01
-1.060757872318955353e-01 -5.067592073681358167e-02 -5.615464885502083892e-01 9.586950069943008801e-01 2.284449448738367638e-01 1.694602924752207362e-01
3.467518108768980617e-02 -4.694605731622072259e-02 -7.959521210953992565e-01 5.214836389703579878e-01 -3.949253937585223140e-01 7.563654854968657748e-01
-4.634055110770364527e-02 -7.389574717810791504e-02 -7.384474236159670468e-01 6.968644429493398018e-01 -1.820095412258797007e-01 6.937236301695737239e-01
-3.151687277053095287e-02 9.690696628924290457e-02 -6.266627399286576194e-01 8.715700293562017587e-01 -3.957432152954550308e-01 2.894010910063141151e-01
1.197239994047935574e-01 1.186245529591072045e-01 -7.444938512832741662e-01 6.700819822221858457e-01 -5.148902634358902830e-01 5.346757463361375695e-01
-1.056630664536054170e-01 -1.111338039175805981e-01 -6.035537748694681515e-01 8.700358088902597764e-01 -4.916949089712123189e-01 3.569044326514976551e-02
-4.987411367285583819e-02 -1.341788842059410125e-01 -7.567518007607439978e-01 6.850749550698093104e-01 -3.984025589654407451e-01 6.098751568525212496e-01
-1.097618790096655250e-01 -1.186719926558263694e-01 -6.074869097626222070e-01 8.700358088902597764e-01 -4.916949089712123189e-01 3.569044326514976551e-02
1.459738241058514997e-02 3.656069258649543435e-02 -7.263033504973334109e-01 4.634329146951594036e-01 -4.858321907493600711e-01 7.410782792720528311e-01
-9.186859377885531197e-02 -8.153906765064633522e-02 -6.655547810680136900e-01 8.634838849075407996e-01 -1.359711990141455329e-01 4.857030096094079319e-01
-1.687941108685682076e-02 1.532675277714791728e-01 -5.833928690013476803e-01 8.427703250961405823e-01 -4.447686570863472744e-01 3.031814981342906834e-01
-8.617143266666715817e-02 -4.387309972486754667e-02 -6.612456891085912725e-01 6.125064504424798661e-01 -6.279355620081916722e-01 4.801382906328242051e-01
-4.472725816994971987e-02 -3.487829734310909230e-02 -7.064550681356102091e-01 9.210275319235350366e-01 -2.577586180368611757e-01 2.920081852732371863e-01
-3.899014727242793715e-02 -1.086744697717370242e-02 -7.033559546054518608e-01 9.210275319235350366e-01 -2.577586180368611757e-01 2.920081852732371863e-01
2.419595151491693574e-02 5.770576036081435933e-02 -7.157926996221455340e-01 3.332398168551537476e-01 -6.031391299243235027e-01 7.246891846967731254e-01
-5.663689006934320008e-02 7.271601321205677093e-02 -5.840905138880231329e-01 8.715700293562017587e-01 -3.957432152954550308e-01 2.894010910063141151e-01
5.402267930697628867e-02 -2.146857788203577685e-02 -7.959887438384738445e-01 5.214836389703579878e-01 -3.949253937585223140e-01 7.563654854968657748e-01
1.711624784626115600e-02 1.407390764824416329e-01 -6.438753348031703849e-01 4.284846882241948873e-01 -6.274155873531059857e-01 6.501927042837157833e-01
-3.880705471649997101e-02 1.247565221388363677e-02 -6.832825425210435899e-01 9.209820053167990794e-01 -2.614758813100234724e-01 2.888295507315587485e-01
2.549152070884736637e-02 5.643971607804235124e-02 -7.174421461894563423e-01 3.332398168551537476e-01 -6.031391299243235027e-01 7.246891846967731254e-01
1.474115599811279820e-01 -4.574847109821818941e-02 -8.719217715814059355e-01 7.188555390408564172e-01 -4.316879210485851659e-01 5.448781999777841945e-01
2.916143469377671660e-02 -2.266843545751318079e-02 -7.809351836122192525e-01 4.990984361774915001e-01 -3.365930919052973480e-01 7.985022488927721040e-01
-2.874269375856713937e-02 2.591000222412341222e-02 -7.032124174730158828e-01 9.209820053167990794e-01 -2.614758813100234724e-01 2.888295507315587485e-01
-5.122274460338827745e-02 -3.567843555171923420e-02 -6.951121316262138805e-01 6.125064504424798661e-01 -6.279355620081916722e-01 4.801382906328242051e-01
1.389464835136603460e-01 3.896966993224082465e-02 -7.901307057675722723e-01 -1.029834100571356409e-02 -3.144556911875502903e-01 9.492162885519244142e-01
-4.008145581666827661e-02 2.799193551196786992e-02 -6.651720883878546875e-01 9.209820053167990794e-01 -2.614758813100234724e-01 2.888295507315587485e-01
-2.848048322156816400e-02 1.390952008221545966e-01 -5.719355982550433648e-01 8.427703250961405823e-01 -4.447686570863472744e-01 3.031814981342906834e-01
-4.086705560082871946e-03 1.782423351772496056e-01 -5.865207935409718631e-01 9.381164468270195567e-01 -2.984612974276535935e-01 1.756655519174125657e-01
-1.325069191649077757e-02 -5.508641202369732315e-02 -7.640869505851025645e-01 6.143780124266248199e-01 -2.184320691106841628e-01 7.581735217156659878e-01
-1.109530069907976729e-01 -1.704253520031778768e-02 -5.693502193331967387e-01 7.948608601035792587e-01 -4.198944899158324473e-01 4.380466075815688254e-01
-1.019169705879590798e-01 -8.339209696414834339e-02 -5.409705278206501378e-01 9.586950069943008801e-01 2.284449448738367638e-01 1.694602924752207362e-01
2.358611309058779477e-03 1.386024254299882963e-01 -6.360607058138947334e-01 4.298997957480437115e-01 -6.411516257220750692e-01 6.356970650000915990e-01
1.814160351795929549e-01 -3.820133737291036679e-03 -8.748719135375293554e-01 6.091316355470125510e-01 -6.818115001407756282e-01 4.050823729213682833e-01
-6.363890226256514737e-02 5.207903065214552346e-02 -5.912231817445225968e-01 8.715700293562017587e-01 -3.957432152954550308e-01 2.894010910063141151e-01
5.221031819019723852e-02 -1.073831294047415674e-01 -8.409898448161599038e-01 4.492066053412666071e-01 -6.266524998535951685e-01 6.368045776727860874e-01
9.468992531265463253e-02 -2.632266753090631642e-02 -8.196839614390203366e-01 8.880567013513332442e-02 -5.101784978413270721e-01 8.554714801162088822e-01
-8.849780828572791774e-03 1.379667349254831421e-01 -6.295137911807430209e-01 9.381164468270195567e-01 -2.984612974276535935e-01 1.756655519174125657e-01
-1.312841129007675522e-01 -1.866872650656956623e-01 -5.532242845457137070e-01 9.775085807838003182e-01 -1.154259946653196514e-03 -2.108924896197497678e-01
-4.016650400569235502e-02 6.337441158409359843e-02 -6.424317514696450404e-01 8.922570156830259558e-01 -2.419148300778430349e-01 3.812540268021163414e-01
-2.613346849769486793e-02 -3.768163428517344593e-02 -7.461592974720800964e-01 2.964628427896404683e-01 -4.971111988446592078e-01 8.154693365346797895e-01
-1.259215586182130808e-01 -1.908257515856888464e-01 -6.296745930430792670e-01 9.929228820324252913e-01 2.894113092194679215e-02 1.151805594594027815e-01
1.270468683876662952e-01 1.365564705353403477e-02 -7.992009916675013592e-01 8.880567013513332442e-02 -5.101784978413270721e-01 8.554714801162088822e-01
1.095141587199432026e-01 5.623746902169313860e-02 -7.847295620635739155e-01 -1.029834100571356409e-02 -3.144556911875502903e-01 9.492162885519244142e-01
-1.182035931714846555e-01 1.637263581442357369e-02 -5.186666213272395076e-01 8.300492569649746688e-01 -5.488411319646301356e-01 9.895273051147696064e-02
-1.091907461103945182e-01 -1.155409185288055335e-01 -5.782738477078664951e-01 8.700358088902597764e-01 -4.916949089712123189e-01 3.569044326514976551e-02
-3.214312675633539812e-02 -1.151198062714138409e-01 -7.646944529160888404e-01 6.651667029609948933e-01 -2.254215940309380328e-01 7.118555767966916470e-01
-1.166129845985874880e-01 -1.376819115494331003e-01 -5.423548865129697027e-01 9.333219036354101217e-01 -2.389667659076584738e-01 -2.679647532531260756e-01
-1.267045633844383346e-01 -1.621440966663808547e-01 -5.617628571200599108e-01 9.544519816550101066e-01 -2.628984133005514701e-01 -1.410880540615567502e-01
-9.187196208771450379e-02 -8.594586775785163779e-02 -6.679993833750262899e-01 8.268861325214493796e-01 -3.479060314511618901e-01 4.418378855684776951e-01
-8.485884699054457858e-02 -1.381053217143244360e-01 -7.140731485692973779e-01 8.406363555076763472e-01 -2.106184628270914849e-01 4.989693186109991907e-01
1.745276376838444596e-02 -1.165588248395250937e-01 -8.234261220986140994e-01 6.757530240002131983e-01 -4.560303917990219391e-01 5.791322235122113860e-01
2.824975932833865763e-02 2.881842910987349529e-02 -7.397975324241821138e-01 4.821015536542815894e-01 -4.062649578680924689e-01 7.762260469557595854e-01
9.007997185500739301e-02 8.300252835183641320e-02 -7.444126938373066826e-01 6.061835897259896244e-01 -6.052356123777614672e-01 5.159760741125789529e-01
-5.804114340861195320e-02 -8.115197350053204861e-02 -7.275379855424040088e-01 8.268861325214493796e-01 -3.479060314511618901e-01 4.418378855684776951e-01
1.555661853846455334e-01 1.563011620609473795e-01 -7.145956004019845542e-01 6.332517923157576778e-02 -8.054945789060796724e-01 5.892099838157922598e-01
1.990141870067691776e-01 1.291876297117462991e-01 -7.358810413659029326e-01 -3.448894697426959088e-01 -6.445335109938147289e-01 6.823692599074110410e-01
-1.161048063604410430e-01 2.142144032372222603e-02 -5.082687763804782932e-01 8.300492569649746688e-01 -5.488411319646301356e-01 9.895273051147696064e-02
-1.292956973334146442e-01 -1.719030456990053579e-01 -6.053422313826993806e-01 9.929228820324252913e-01 2.894113092194679215e-02 1.151805594594027815e-01
-1.202846312610049845e-01 -2.051936238886421793e-03 -5.200089494105213372e-01 9.939561404333345784e-01 7.831970770444549035e-02 -7.692343128045706080e-02
-7.880328834991108533e-02 -2.233465301267078748e-02 -6.352083827469493515e-01 6.417689027380059086e-01 -6.843339681628279880e-01 3.461498165490967671e-01
-1.141287560443971089e-01 -2.058794837205592601e-02 -5.491802937593120992e-01 9.831479457942776667e-01 1.354635637328708009e-01 1.227588676278920099e-01
-1.178348357263601237e-01 -2.012113603418224511e-02 -5.067514171986855498e-01 9.939561404333345784e-01 7.831970770444549035e-02 -7.692343128045706080e-02
-3.297955986830448070e-03 -8.944679148792743228e-02 -7.825174377028941697e-01 6.398008139313564602e-01 -2.317558386357184419e-01 7.327647301494721876e-01
1.645376698640987345e-01 7.394536997570944070e-02 -7.775706938318805994e-01 -2.917637190922623899e-02 -3.309691179993746735e-01 9.431904273543760819e-01
4.240484697079367760e-02 4.172761880007265500e-02 -7.374640198477616648e-01 3.332398168551537476e-01 -6.031391299243235027e-01 7.246891846967731254e-01
8.365242156098996740e-02 7.556545649717698321e-02 -7.455850451501476739e-01 6.061835897259896244e-01 -6.052356123777614672e-01 5.159760741125789529e-01
-9.522040002853147944e-02 -1.740707961243439517e-01 -7.155359347403783543e-01 8.102003159923809594e-01 -3.807890692128064192e-01 4.456176979585646514e-01
3.240216054384959660e-02 8.451980989831754665e-02 -6.972496232278930783e-01 3.332398168551537476e-01 -6.031391299243235027e-01 7.246891846967731254e-01
1.375489296379542870e-01 -1.207320076927597026e-02 -8.297312162221717191e-01 4.798850626052290624e-01 -7.314777417659802383e-01 4.844075143815558815e-01
-6.589287680601994823e-02 -2.198366972062945970e-02 -6.584506624674023589e-01 6.417689027380059086e-01 -6.843339681628279880e-01 3.461498165490967671e-01
7.519274310785183102e-02 5.920628340752618485e-02 -7.548355436320137724e-01 6.061835897259896244e-01 -6.052356123777614672e-01 5.159760741125789529e-01
2.685272560081670631e-02 -7.200789673001391222e-02 -8.038565954022359739e-01 3.629229656860999409e-01 -5.328112699943040598e-01 7.644599868826769118e-01
1.384756304497431756e-01 -2.781010911840459902e-04 -8.128381194876977967e-01 4.798850626052290624e-01 -7.314777417659802383e-01 4.844075143815558815e-01
2.006676663108697689e-01 1.370433133646506152e-01 -7.290388956371409712e-01 -4.393734875953950736e-01 -4.366545282491832158e-01 7.850374267241928550e-01
1.700789605932249982e-01 -1.137363662202789394e-02 -8.704301484008893919e-01 6.244042238962258518e-01 -6.393352877394207212e-01 4.487424150130051581e-01
1.501268891575263664e-01 1.116353405449925923e-01 -7.619265967039384746e-01 -2.672683688564592500e-02 -4.195707458308711169e-01 9.073290833170811753e-01
1.355817880290360877e-01 7.250935407554762180e-02 -7.789703099168231448e-01 -2.917637190922623899e-02 -3.309691179993746735e-01 9.431904273543760819e-01
-6.926230270319773397e-02 1.657174246478737567e-02 -6.106474016000360550e-01 7.850216850929645496e-01 -3.940459922072393484e-01 4.779840059659054563e-01
1.177244885147644970e-01 -1.263930003005635759e-02 -8.139147918404142645e-01 8.880567013513332442e-02 -5.101784978413270721e-01 8.554714801162088822e-01
-3.177204704271242158e-02 6.718919572397998030e-02 -6.596569079254805956e-01 8.922570156830259558e-01 -2.419148300778430349e-01 3.812540268021163414e-01
-9.502515541615275119e-02 3.002212489010349164e-02 -5.532344538629339059e-01 8.003805294993426855e-01 -4.176840091235278218e-01 4.300361339711448183e-01
2.996277915676927306e-02 -2.172865039821891722e-04 -7.626056551127481375e-01 6.928009453257847339e-01 -4.867544991891785688e-01 5.320685178384370051e-01
-1.196423594523718797e-01 2.578584675426012513e-03 -5.069953456764839661e-01 9.939561404333345784e-01 7.831970770444549035e-02 -7.692343128045706080e-02
-2.111848416991160549e-02 -3.015410772612637440e-04 -7.251955338193639689e-01 2.964628427896404683e-01 -4.971111988446592078e-01 8.154693365346797895e-01
1.311577913933164585e-01 -1.089897671894201302e-02 -8.216266133480307765e-01 4.798850626052290624e-01 -7.314777417659802383e-01 4.844075143815558815e-01
-1.194423419461852209e-01 9.887420327240610540e-03 -4.970207609510339797e-01 9.951793012953474848e-01 6.010796222482057971e-02 -7.749316841169698322e-02
-7.828591442222548880e-02 -7.295196185179030068e-02 -6.872981622244885846e-01 8.634838849075407996e-01 -1.359711990141455329e-01 4.857030096094079319e-01
-4.145488820911887723e-02 2.376682401734086722e-02 -6.646176376162147292e-01 9.209820053167990794e-01 -2.614758813100234724e-01 2.888295507315587485e-01
-8.992663858161087376e-02 -1.638065006784013011e-01 -7.165268029115238191e-01 8.371633870113497355e-01 -2.712133484601607081e-01 4.749745078051162417e-01
1.348154350868121243e-01 6.681035730110774021e-03 -8.041668959652590321e-01 8.880567013513332442e-02 -5.101784978413270721e-01 8.554714801162088822e-01
-5.961686081646602742e-02 5.045093278295763317e-02 -6.051119196947414292e-01 8.922570156830259558e-01 -2.419148300778430349e-01 3.812540268021163414e-01
9.672838475397003977e-02 8.733795214129515261e-02 -7.471380254863799752e-01 6.061835897259896244e-01 -6.052356123777614672e-01 5.159760741125789529e-01
6.045689458175516201e-02 4.093486849212790604e-04 -7.907682083552400876e-01 4.990984361774915001e-01 -3.365930919052973480e-01 7.985022488927721040e-01
-1.209856444746147813e-01 3.439811001023296289e-02 -4.497305880889700402e-01 9.877371497101873343e-01 1.494432176001980472e-01 4.518902295574436789e-02
-6.657485069858330717e-02 -1.486389513454462741e-01 -7.474378799483970548e-01 6.850749550698093104e-01 -3.984025589654407451e-01 6.098751568525212496e-01
-1.048407020025642206e-01 -5.692583013306729001e-02 -6.171828065155174903e-01 9.832106546555978710e-01 1.822451014210740572e-01 -9.139561244031495571e-03
