-1.377271645721790949e-01 1.001581797687881997e-01 -7.628846397350832476e-01 2.823346924786340750e-01 2.419780749205954207e-01 -9.282961449239772733e-01
-5.152099963199589100e-02 5.173856838921238321e-02 -7.311042558474455388e-01 6.308923838298069464e-01 1.545118338229756194e-01 -7.603294636104830362e-01
1.160075277397737553e-01 8.390573484882075592e-03 -7.131331948075502192e-01 1.354105979494686085e-01 3.391104257573110403e-01 -9.309501002232410949e-01
-1.837899188616361201e-01 1.041663013795386949e-01 -8.130601811157783798e-01 8.821633784458936534e-01 2.401166367179224381e-01 -4.051317989249923479e-01
8.148790581944041767e-02 -1.355747419939625775e-01 -7.684960149995221368e-01 5.488641917856353775e-02 5.009122759267585767e-01 -8.637559683241731179e-01
7.352026592692000040e-02 -6.805886495242735590e-02 -7.350187203248351731e-01 4.945084176410429432e-03 5.538710072167836174e-01 -8.325878052837153431e-01
2.168486645911876787e-01 -1.230408892940646620e-01 -7.927328664559807336e-01 -4.114304549068142358e-01 5.005888182155574517e-01 -7.616664728427551267e-01
-1.584814344265970953e-02 1.185817517102089463e-01 -6.884401908558235306e-01 5.347258616668447706e-01 1.330058891038191637e-01 -8.344924723017894674e-01
-1.721671179226498261e-01 1.362508093276926791e-01 -7.893003378294703998e-01 7.348708512775831148e-01 -1.773991703702419986e-01 -6.545948107757272316e-01
-1.122179989125838412e-01 -2.289121442119121993e-03 -7.726142441178254217e-01 3.294411650523372814e-01 1.348024291587653078e-01 -9.345035173084448310e-01
-2.087981076548555137e-01 -1.434740595113306524e-02 -8.551115385283503123e-01 3.243879234112453380e-01 1.120016111540207970e-01 -9.392699900688000758e-01
7.575890028605170023e-02 -9.342694093716677473e-02 -7.497886981093966341e-01 6.896385464152977873e-02 3.667288287365437216e-01 -9.277682646687720469e-01
2.128860611108281814e-02 -1.425148946377051973e-01 -7.871289453962937444e-01 2.896601541171999750e-01 3.731156143148896542e-01 -8.814089479187413589e-01
1.030389320334004349e-01 9.290720148814586663e-04 -7.177374783651949697e-01 1.354105979494686085e-01 3.391104257573110403e-01 -9.309501002232410949e-01
7.724272889514682827e-02 -1.208741011855835263e-03 -7.222683699526729617e-01 1.354105979494686085e-01 3.391104257573110403e-01 -9.309501002232410949e-01
-1.266006638606536339e-01 -5.019765646660621569e-03 -7.847613456946735955e-01 6.103071847789051096e-01 3.425183573559389405e-01 -7.142872776981518124e-01
2.160988447980745630e-01 3.650199782169467194e-02 -7.240510957404115988e-01 -5.809784662771715347e-01 4.206785165144792393e-01 -6.967737132422564539e-01
-1.036381154453484138e-02 1.827637288232173696e-01 -6.759811102185666609e-01 5.278847336071431640e-01 1.155142015658775778e-01 -8.414238986748079352e-01
-1.318696296039172378e-01 -4.435289306537604920e-02 -8.108468079703888831e-01 8.188102775016736778e-01 1.948563112640724071e-01 -5.399821732411093089e-01
-1.550808369083613858e-01 1.832119005532521772e-02 -8.159009088323163628e-01 8.670170826328997826e-01 3.441997340052585508e-01 -3.602886641756087305e-01
1.517893754065882672e-01 -1.049378180879981109e-01 -7.600255717444343029e-01 -2.157442817841470073e-01 4.399084996184613600e-02 -9.754584614411200283e-01
-4.520761665879947239e-02 -7.936037221099181971e-02 -7.745642301514819028e-01 2.310903312578253266e-01 2.649672259982617240e-01 -9.361568393949458722e-01
-1.293583110362834243e-01 8.103924505202522721e-02 -7.653230268168526029e-01 2.823346924786340750e-01 2.419780749205954207e-01 -9.282961449239772733e-01
7.624987563654950229e-02 -1.523402502317903195e-01 -7.788149498076574195e-01 9.232507393296618403e-02 5.353810668222983571e-01 -8.395493993872487071e-01
6.270993778629836701e-03 -4.646021587903344241e-02 -7.370463942077192243e-01 -1.289462064241083117e-01 3.786778132633163430e-01 -9.165020401455439281e-01
-5.320063859699620396e-02 1.172704780821854087e-01 -7.162675349672503744e-01 6.402902459858197393e-01 2.133169588843328857e-01 -7.379188816853504695e-01
-1.786637621528810449e-01 1.380171802258031710e-01 -7.985879628673991926e-01 8.732887072685829866e-01 -1.609693870519705583e-01 -4.598431147568485255e-01
1.718483038868263979e-01 -1.027778823319041995e-01 -7.643646408856276109e-01 -2.157442817841470073e-01 4.399084996184613600e-02 -9.754584614411200283e-01
-1.549527039293912278e-01 -6.831818194177241566e-02 -8.381599107866595233e-01 5.026104647729235930e-01 3.124169870341118593e-01 -8.060882997000226036e-01
1.730825924572429106e-02 8.843931221682424515e-02 -6.853464199138701307e-01 -8.503566664955447205e-03 2.115113872283136132e-01 -9.773385403363202828e-01
-1.836941274428262882e-01 8.850338505707875877e-03 -8.492307293042943295e-01 1.335623696737563704e-01 5.014996978226984869e-02 -9.897707178624594038e-01
2.093649532366066712e-02 -5.282082071820887181e-02 -7.417377975355141650e-01 -1.289462064241083117e-01 3.786778132633163430e-01 -9.165020401455439281e-01
4.572650336246863317e-02 1.373088387117813447e-01 -6.748704945850835246e-01 -1.071075561316317017e-02 2.241498648328138776e-01 -9.744958274972891354e-01
1.713962221233087946e-01 1.899253654373024569e-02 -7.091770863998029251e-01 -4.410119917443985349e-01 5.743472111181471274e-01 -6.896620217312571244e-01
-1.764373684693960331e-01 2.059431162735041176e-01 -8.261394555651766503e-01 8.976022563810083232e-01 -2.390007478629216919e-01 -3.703901076712053375e-01
-1.742893836104314198e-01 1.839342088550470211e-01 -8.067324000314018972e-01 8.976022563810083232e-01 -2.390007478629216919e-01 -3.703901076712053375e-01
-1.810224061734592993e-01 1.681758929390002599e-01 -8.340102764828479787e-01 9.939894584571715708e-01 -9.403653209959064729e-02 -5.605432281904312863e-02
2.298592520395273744e-02 1.793988167171532699e-01 -6.649391727848318334e-01 -1.071075561316317017e-02 2.241498648328138776e-01 -9.744958274972891354e-01
-1.775354804623494390e-02 -3.037051141203316734e-02 -7.376561191018524699e-01 6.799521256735115982e-01 2.662353016587871157e-01 -6.832158304245649072e-01
4.211859479965377601e-02 4.501007796040960851e-02 -7.017577090894201453e-01 -5.088881036611759417e-02 4.307491704841928115e-01 -9.010357823675489986e-01
1.142211734226010744e-01 2.470163441752336320e-02 -7.074515159399985542e-01 1.354105979494686085e-01 3.391104257573110403e-01 -9.309501002232410949e-01
-2.465685652053638266e-02 1.691735811702731462e-01 -6.868138608799624345e-01 5.278847336071431640e-01 1.155142015658775778e-01 -8.414238986748079352e-01
2.009914741863287058e-01 2.357344178746779984e-02 -7.242871411497997514e-01 -4.410119917443985349e-01 5.743472111181471274e-01 -6.896620217312571244e-01
8.379343769044030055e-02 -1.590065969006256852e-01 -7.822365184123416526e-01 9.232507393296618403e-02 5.353810668222983571e-01 -8.395493993872487071e-01
1.373350707455596731e-01 -1.239405171594006316e-01 -7.628993470807379218e-01 -1.609426842587503292e-01 5.894595231822500336e-01 -7.916027557514833113e-01
-1.662276428276330542e-01 -8.566285082808641760e-02 -8.519604855073075189e-01 4.567583874690567813e-01 3.912475394294683828e-01 -7.989350025922344889e-01
1.658056418082886341e-01 9.134850963215784825e-02 -6.845225987860295014e-01 -1.248365492399887561e-01 2.571438976440616406e-02 -9.918440432512040106e-01
7.988100516140780871e-03 -1.025612266193090122e-01 -7.644353443215057275e-01 2.675010707633676543e-01 5.768226154118105686e-01 -7.718282499947319852e-01
-1.062437267620889615e-02 -3.822840275666854887e-02 -7.337442738349496674e-01 7.813330063144416360e-02 4.176496770628725930e-01 -9.052424728114092378e-01
1.337525392592971429e-01 -8.827569352863894048e-02 -7.526501049609650718e-01 -4.132826811424688551e-01 1.957824804922314865e-01 -8.893068344502933487e-01
-1.968966996632728061e-01 -9.768847230556862438e-03 -8.519557224617205771e-01 1.335623696737563704e-01 5.014996978226984869e-02 -9.897707178624594038e-01
5.670797585499048193e-02 -1.480788401109480179e-01 -7.782464651480421880e-01 9.232507393296618403e-02 5.353810668222983571e-01 -8.395493993872487071e-01
-7.045700121590553477e-02 -1.277793863481219705e-01 -8.111056840004861046e-01 2.920320643230057134e-01 3.112935235093896025e-01 -9.043304792100911316e-01
-5.571260388714856931e-02 -2.248181313098629799e-02 -7.600674793557925524e-01 5.231109409158418710e-01 3.824521000418433792e-01 -7.616333334799144650e-01
-1.780575250639475082e-01 1.964452285995162972e-01 -8.288597320887738373e-01 9.939894584571715708e-01 -9.403653209959064729e-02 -5.605432281904312863e-02
1.348711051118878235e-01 6.426227289166169809e-02 -6.917393591416930443e-01 9.925079016175417101e-02 3.006847815382529543e-01 -9.485451717253956527e-01
-4.368365338356090116e-02 4.153374257808875591e-02 -7.266749184761670532e-01 6.308923838298069464e-01 1.545118338229756194e-01 -7.603294636104830362e-01
-9.680534503220010120e-03 9.780689026639854955e-02 -6.877993209798518581e-01 5.347258616668447706e-01 1.330058891038191637e-01 -8.344924723017894674e-01
-4.848725285149834557e-02 9.002477265778653648e-02 -7.200539079341528037e-01 6.402902459858197393e-01 2.133169588843328857e-01 -7.379188816853504695e-01
1.609043370624462788e-01 5.252129292115958331e-02 -6.926223313131717463e-01 1.090840782845172302e-01 3.016395540199373060e-01 -9.471611496020466703e-01
1.525120187927693494e-01 5.490559225909855817e-02 -6.928295498147484244e-01 1.090840782845172302e-01 3.016395540199373060e-01 -9.471611496020466703e-01
-1.851579977371288210e-01 1.801847046933082938e-02 -8.489637345844422978e-01 1.335623696737563704e-01 5.014996978226984869e-02 -9.897707178624594038e-01
-1.501740966608820227e-01 1.281857380922420131e-02 -8.093499712063253471e-01 8.670170826328997826e-01 3.441997340052585508e-01 -3.602886641756087305e-01
-5.683123485800655600e-02 8.284981758859845391e-02 -7.291881533213540045e-01 6.308923838298069464e-01 1.545118338229756194e-01 -7.603294636104830362e-01
1.455325605223309615e-01 -2.019428733392203759e-02 -7.226435626779136312e-01 -5.619811872686119036e-01 5.280748953170290028e-01 -6.366427963089431596e-01
-8.868759655070254655e-02 -1.466534460212156332e-01 -8.288228005469707727e-01 5.137207760662868550e-01 1.341647870010850840e-01 -8.474023685161644615e-01
1.402478379552091758e-01 -1.443960480100184018e-01 -7.787235669232965840e-01 -1.609426842587503292e-01 5.894595231822500336e-01 -7.916027557514833113e-01
1.847590265736617221e-01 -1.027913881561518944e-01 -7.672207427456265716e-01 -2.157442817841470073e-01 4.399084996184613600e-02 -9.754584614411200283e-01
1.473098198209027432e-01 -1.014787114382093985e-01 -7.588788211769871284e-01 -2.157442817841470073e-01 4.399084996184613600e-02 -9.754584614411200283e-01
1.301833738902011817e-01 4.283294057275906230e-02 -6.990228658639625614e-01 9.925079016175417101e-02 3.006847815382529543e-01 -9.485451717253956527e-01
-1.098821606157514563e-01 1.322468980326037789e-02 -7.695529172439471433e-01 3.294411650523372814e-01 1.348024291587653078e-01 -9.345035173084448310e-01
9.931508826383508848e-02 -1.231478281887548876e-01 -7.601565485883047257e-01 5.488641917856353775e-02 5.009122759267585767e-01 -8.637559683241731179e-01
6.932270264966228571e-03 2.174813299417119317e-01 -6.646122301561044887e-01 4.756306805187737741e-01 -2.554280555901731198e-01 -8.417434075575953578e-01
-1.312975012744006277e-02 -4.375903165361834379e-02 -7.382716427519010471e-01 6.799521256735115982e-01 2.662353016587871157e-01 -6.832158304245649072e-01
1.891110023433439646e-01 8.988939825974091857e-02 -6.874937120034568805e-01 -1.248365492399887561e-01 2.571438976440616406e-02 -9.918440432512040106e-01
1.111602785782699471e-01 -4.320755023428025227e-02 -7.233498803097498930e-01 -1.962578814664891202e-01 4.387095268836961881e-01 -8.769360267338598414e-01
-1.022087304766666205e-01 -2.800534827958277989e-02 -7.777690016984027954e-01 5.057596002761837184e-01 4.507096685797317703e-01 -7.355732603739910669e-01
5.547668917697004543e-02 -1.008168479919438337e-01 -7.542174240896636350e-01 6.896385464152977873e-02 3.667288287365437216e-01 -9.277682646687720469e-01
2.904705406935341808e-02 2.021919009661101163e-01 -6.595977708621336699e-01 -2.130225726042195844e-01 2.885254361734573281e-01 -9.334744004213484381e-01
1.700712111528577264e-01 8.726145685776694194e-02 -6.851654367703745585e-01 -1.248365492399887561e-01 2.571438976440616406e-02 -9.918440432512040106e-01
-3.902978416176045712e-02 6.790880505055622851e-02 -7.174534556067729829e-01 6.308923838298069464e-01 1.545118338229756194e-01 -7.603294636104830362e-01
-1.854965250405596067e-01 8.827989634510713390e-02 -8.261919462178979323e-01 8.821633784458936534e-01 2.401166367179224381e-01 -4.051317989249923479e-01
8.941266739741803027e-02 -1.138498142397559171e-01 -7.565715881126768849e-01 7.828533648515766108e-02 3.556798780551071459e-01 -9.313233758679687613e-01
1.503379466428354516e-01 6.214908140547653614e-02 -6.907731244853516639e-01 1.090840782845172302e-01 3.016395540199373060e-01 -9.471611496020466703e-01
-3.990616698338928653e-02 2.722769915831455695e-02 -7.273405548071877336e-01 5.349628232479123335e-01 2.990311138704365712e-01 -7.901867948023612032e-01
-1.771752142089734472e-01 1.475610658393923247e-01 -7.991019236076751797e-01 8.732887072685829866e-01 -1.609693870519705583e-01 -4.598431147568485255e-01
7.399536968023102956e-02 -1.119836063436402129e-01 -7.571548181234770691e-01 7.828533648515766108e-02 3.556798780551071459e-01 -9.313233758679687613e-01
-1.777970901126998959e-01 5.241750866314626861e-02 -8.391366234229410415e-01 8.778830265821725432e-01 3.214140478583775717e-01 -3.549850721906727125e-01
8.817197569703418003e-02 -5.577406764519320104e-02 -7.267593548230668610e-01 4.945084176410429432e-03 5.538710072167836174e-01 -8.325878052837153431e-01
8.966355354440178060e-02 -1.889365599474775170e-02 -7.211994169822035783e-01 2.129590220003045598e-01 1.428869852618880375e-03 -9.770600868317249610e-01
-1.651334732426003593e-01 1.285141765069907904e-01 -7.793074497255884081e-01 7.348708512775831148e-01 -1.773991703702419986e-01 -6.545948107757272316e-01
-1.875958498016028486e-01 1.143742614647319938e-01 -8.211107699148936234e-01 9.485174077053672992e-01 -1.806277133272669311e-01 -2.601698607795545626e-01
5.220245137953180570e-02 1.037741835448195704e-01 -6.827961337741702552e-01 -5.429195373919994821e-02 2.616409692122607655e-01 -9.636370618593130821e-01
-1.237942664762767403e-01 9.562194386010830494e-02 -7.598295038474867091e-01 2.823346924786340750e-01 2.419780749205954207e-01 -9.282961449239772733e-01
-1.928560410511889756e-02 1.097855087137727809e-01 -6.920448383931423475e-01 5.347258616668447706e-01 1.330058891038191637e-01 -8.344924723017894674e-01
1.225724405433880615e-01 -1.101985587776128511e-01 -7.523897945520920949e-01 7.828533648515766108e-02 3.556798780551071459e-01 -9.313233758679687613e-01
-1.152229278185738226e-01 -6.292423055614712601e-02 -8.073022161018892362e-01 5.334994769149534743e-01 4.365342002334294258e-01 -7.244419922657928668e-01
1.452252925331587452e-01 -1.442661753272947156e-01 -7.796388368685492898e-01 -1.609426842587503292e-01 5.894595231822500336e-01 -7.916027557514833113e-01
1.190915563697731300e-01 7.316158820230932169e-02 -6.905694032639432267e-01 9.925079016175417101e-02 3.006847815382529543e-01 -9.485451717253956527e-01
-1.301559587909215943e-01 4.849497776625326384e-02 -7.715608019363517922e-01 3.334886507403836409e-01 1.421547152649050849e-01 -9.319749764641283019e-01
-1.642048597503117935e-01 2.432787746601624071e-02 -8.321189696216038101e-01 8.670170826328997826e-01 3.441997340052585508e-01 -3.602886641756087305e-01
1.112098892181303533e-01 1.204358597149495815e-02 -7.125003751553156128e-01 1.354105979494686085e-01 3.391104257573110403e-01 -9.309501002232410949e-01
-1.827195870068306360e-01 1.499601648258287179e-01 -8.280392442585836621e-01 9.485174077053672992e-01 -1.806277133272669311e-01 -2.601698607795545626e-01
1.063236585667804296e-01 -8.401501086650652039e-02 -7.437559301265742606e-01 7.828533648515766108e-02 3.556798780551071459e-01 -9.313233758679687613e-01
1.399779687150744800e-01 2.569257491276827690e-02 -7.034314337982346954e-01 9.925079016175417101e-02 3.006847815382529543e-01 -9.485451717253956527e-01
2.992687635143264149e-02 -6.010348021363558224e-02 -7.426412635783763427e-01 3.109154253639150878e-01 1.078307453824739887e-01 -9.443008676375531651e-01
7.385648555394558334e-02 -9.136090174066897884e-02 -7.491134451335619282e-01 6.896385464152977873e-02 3.667288287365437216e-01 -9.277682646687720469e-01
2.030904158889238614e-02 1.376685220778631202e-01 -6.745083963705023056e-01 -1.071075561316317017e-02 2.241498648328138776e-01 -9.744958274972891354e-01
-6.552420556278346075e-02 -7.148909416739883393e-02 -7.791896542659040303e-01 5.057596002761837184e-01 4.507096685797317703e-01 -7.355732603739910669e-01
2.469282238070398192e-02 1.950670182381016859e-01 -6.608063313328260691e-01 -2.130225726042195844e-01 2.885254361734573281e-01 -9.334744004213484381e-01
1.339063348487177507e-01 -6.060630529909316611e-02 -7.459012703514208420e-01 -5.619811872686119036e-01 5.280748953170290028e-01 -6.366427963089431596e-01
-1.494017197875023850e-01 8.578053478365928186e-02 -7.701831800220206858e-01 2.823346924786340750e-01 2.419780749205954207e-01 -9.282961449239772733e-01
-1.922236738284878732e-01 8.615388735571814782e-02 -8.442678446564242378e-01 8.778830265821725432e-01 3.214140478583775717e-01 -3.549850721906727125e-01
-1.950537488971765265e-01 1.017570549607906272e-01 -8.395407676990708223e-01 9.485174077053672992e-01 -1.806277133272669311e-01 -2.601698607795545626e-01
-5.484097488487963551e-02 1.288564804307343603e-01 -7.143415787454704402e-01 6.402902459858197393e-01 2.133169588843328857e-01 -7.379188816853504695e-01
-1.017828914546214762e-02 -7.781586297830260512e-02 -7.522381272743162706e-01 2.675010707633676543e-01 5.768226154118105686e-01 -7.718282499947319852e-01
5.359659638260191872e-02 -7.963949839879401471e-02 -7.428409599646864647e-01 4.945084176410429432e-03 5.538710072167836174e-01 -8.325878052837153431e-01
-1.474503839928266169e-01 -2.399590956080945026e-02 -8.271269659947531050e-01 8.188102775016736778e-01 1.948563112640724071e-01 -5.399821732411093089e-01
-1.358425010537400446e-01 -4.097131414305980879e-02 -8.156508665260380209e-01 8.188102775016736778e-01 1.948563112640724071e-01 -5.399821732411093089e-01
-1.575998298156834274e-02 4.189655646381473114e-03 -7.197117017421139629e-01 5.349628232479123335e-01 2.990311138704365712e-01 -7.901867948023612032e-01
2.309717339198777766e-02 -1.546190613663128710e-01 -7.916584929313207342e-01 2.896601541171999750e-01 3.731156143148896542e-01 -8.814089479187413589e-01
-6.216704723186005851e-03 1.549372269425114135e-01 -6.771994756216739297e-01 5.278847336071431640e-01 1.155142015658775778e-01 -8.414238986748079352e-01
1.807587248206056485e-02 7.407964919064201348e-02 -6.889359018882560415e-01 -5.429195373919994821e-02 2.616409692122607655e-01 -9.636370618593130821e-01
3.982874398071156730e-02 -1.681444130060368025e-02 -7.295188032117677635e-01 -1.289462064241083117e-01 3.786778132633163430e-01 -9.165020401455439281e-01
2.229562261505305953e-01 -1.172941190087281454e-01 -7.922550561178115514e-01 -4.114304549068142358e-01 5.005888182155574517e-01 -7.616664728427551267e-01
3.336324896900666470e-02 1.733742614740566845e-01 -6.664389762533983186e-01 -1.071075561316317017e-02 2.241498648328138776e-01 -9.744958274972891354e-01
-1.205275655684483055e-01 -1.856759292584053006e-02 -7.860688364661946315e-01 6.103071847789051096e-01 3.425183573559389405e-01 -7.142872776981518124e-01
5.336896969341049790e-02 5.367598761580610889e-02 -6.982502843423886718e-01 -5.088881036611759417e-02 4.307491704841928115e-01 -9.010357823675489986e-01
-8.072449099478358481e-02 9.255797482748527594e-02 -7.470410036884933547e-01 6.308923838298069464e-01 1.545118338229756194e-01 -7.603294636104830362e-01
-1.763061385251095681e-01 1.976029168657286172e-01 -8.204397725926645402e-01 8.976022563810083232e-01 -2.390007478629216919e-01 -3.703901076712053375e-01
-2.799088053542843346e-02 1.789827164956619143e-01 -6.875588907570131525e-01 5.278847336071431640e-01 1.155142015658775778e-01 -8.414238986748079352e-01
-3.478978663590005793e-02 8.727226459637028866e-02 -7.089643456981085112e-01 6.402902459858197393e-01 2.133169588843328857e-01 -7.379188816853504695e-01
2.701283040990329343e-02 -1.114178598920377156e-01 -7.634761430939123183e-01 3.183147688536772102e-01 5.334356056017549585e-01 -7.836594685231073054e-01
2.695052550636440336e-01 -8.496992088420750322e-02 -8.180601176149001619e-01 -7.691599861163788132e-01 2.442789571639487345e-01 -5.905257884668083657e-01
-3.974406092524957607e-02 5.353805811655992092e-02 -7.209665145635122396e-01 6.308923838298069464e-01 1.545118338229756194e-01 -7.603294636104830362e-01
1.467316250127002897e-02 2.440310055489404717e-01 -6.682947373749286157e-01 4.756306805187737741e-01 -2.554280555901731198e-01 -8.417434075575953578e-01
-1.637561906007049817e-01 8.561152329006742681e-03 -8.401040852318188978e-01 8.188102775016736778e-01 1.948563112640724071e-01 -5.399821732411093089e-01
7.315734030480260108e-02 3.565802446941979380e-03 -7.211234186250135014e-01 1.354105979494686085e-01 3.391104257573110403e-01 -9.309501002232410949e-01
-1.250818343803462296e-01 -1.150954212557466910e-01 -8.428505174436083935e-01 4.567583874690567813e-01 3.912475394294683828e-01 -7.989350025922344889e-01
-1.710340774563956778e-01 1.240539104905199752e-01 -7.847229136008525563e-01 7.348708512775831148e-01 -1.773991703702419986e-01 -6.545948107757272316e-01
-1.339460843092495357e-01 2.528637175037549978e-02 -7.765049400324570694e-01 6.103071847789051096e-01 3.425183573559389405e-01 -7.142872776981518124e-01
1.648724926462981355e-02 -3.085545943578079861e-02 -7.320362278834531278e-01 -1.289462064241083117e-01 3.786778132633163430e-01 -9.165020401455439281e-01
-4.867091939885725277e-02 -6.399759600755143552e-02 -7.710709090762172258e-01 2.310903312578253266e-01 2.649672259982617240e-01 -9.361568393949458722e-01
-1.355446912336633614e-01 1.825141685520170753e-02 -7.812442691400456329e-01 6.103071847789051096e-01 3.425183573559389405e-01 -7.142872776981518124e-01
-4.131210743324054135e-02 1.576365233860691373e-03 -7.380960695541528560e-01 5.231109409158418710e-01 3.824521000418433792e-01 -7.616333334799144650e-01
1.160804978050992142e-01 -3.271165161498485081e-03 -7.154187600949859505e-01 2.129590220003045598e-01 1.428869852618880375e-03 -9.770600868317249610e-01
-4.662524164461556014e-02 5.878674890249295515e-02 -7.256096328932115647e-01 6.308923838298069464e-01 1.545118338229756194e-01 -7.603294636104830362e-01
1.377914983295608353e-01 -9.472348062823000847e-02 -7.559466000198826752e-01 -4.132826811424688551e-01 1.957824804922314865e-01 -8.893068344502933487e-01
5.155994191360926959e-02 -3.848914875603778873e-02 -7.330503126816940718e-01 3.109154253639150878e-01 1.078307453824739887e-01 -9.443008676375531651e-01
-1.692082542054706706e-01 1.023332813493313745e-02 -8.439332321134749293e-01 4.189986493745185281e-01 -1.593023949438344966e-02 -9.078471012742073132e-01
5.611094656203535758e-02 -7.179265771102594229e-02 -7.382824716003850707e-01 1.902788270847178276e-01 3.669860445536224369e-01 -9.105576374212402957e-01
6.310759788028480477e-02 -1.602925993748086642e-01 -7.843880666872605767e-01 6.077295752862106604e-02 4.434918235502408046e-01 -8.942156619503520698e-01
-1.309940030887435936e-01 -6.714171003627977807e-02 -8.214578483655696761e-01 5.334994769149534743e-01 4.365342002334294258e-01 -7.244419922657928668e-01
1.830090136093606157e-01 -1.725514313163795804e-02 -7.532870780787466192e-01 -5.619811872686119036e-01 5.280748953170290028e-01 -6.366427963089431596e-01
-1.847507658150723125e-02 -6.397087965740978766e-02 -7.514675804537985782e-01 6.799521256735115982e-01 2.662353016587871157e-01 -6.832158304245649072e-01
-1.575973459882828720e-01 1.602702739260565001e-01 -7.794532270584537681e-01 7.348708512775831148e-01 -1.773991703702419986e-01 -6.545948107757272316e-01
-1.496496475170500939e-01 -5.484031233207642408e-02 -8.337644840384419442e-01 4.189986493745185281e-01 -1.593023949438344966e-02 -9.078471012742073132e-01
7.533780104818349477e-02 -1.222882931275275503e-01 -7.611816943535406610e-01 5.488641917856353775e-02 5.009122759267585767e-01 -8.637559683241731179e-01
1.722549518496267751e-02 1.393986241832545214e-01 -6.740765533054524639e-01 -1.071075561316317017e-02 2.241498648328138776e-01 -9.744958274972891354e-01
1.780310516406314603e-01 8.987434266729911470e-02 -6.860995455762723960e-01 -1.248365492399887561e-01 2.571438976440616406e-02 -9.918440432512040106e-01
1.142206059844604188e-01 -1.329154971750674541e-01 -7.648830231421721582e-01 -1.609426842587503292e-01 5.894595231822500336e-01 -7.916027557514833113e-01
-9.160350969493943896e-02 4.830135995911964686e-02 -7.577951098614563730e-01 3.334886507403836409e-01 1.421547152649050849e-01 -9.319749764641283019e-01
4.874677107020436440e-02 -1.544591812634432959e-01 -7.831615061500998287e-01 2.896601541171999750e-01 3.731156143148896542e-01 -8.814089479187413589e-01
3.561829922987178737e-02 -1.134887850366459311e-01 -7.613903613541519455e-01 3.183147688536772102e-01 5.334356056017549585e-01 -7.836594685231073054e-01
-9.272924718161737467e-02 2.935360377573801097e-02 -7.610880454425391628e-01 3.334886507403836409e-01 1.421547152649050849e-01 -9.319749764641283019e-01
-2.236665878282262376e-01 -6.137289464712965964e-02 -8.660652153755232785e-01 2.347094176990467407e-01 3.255513478219070334e-01 -9.159300241692669431e-01
-1.637907105190518353e-01 4.894769096339304792e-02 -8.076403278521888662e-01 8.778830265821725432e-01 3.214140478583775717e-01 -3.549850721906727125e-01
-1.780727740350988575e-01 1.976606445152279401e-01 -8.311691135572969458e-01 9.939894584571715708e-01 -9.403653209959064729e-02 -5.605432281904312863e-02
1.065921426887915663e-01 1.488369393923461882e-02 -7.121375002779843921e-01 1.354105979494686085e-01 3.391104257573110403e-01 -9.309501002232410949e-01
-3.497027480786957243e-02 1.106110633959713485e-01 -7.023741948175542538e-01 6.402902459858197393e-01 2.133169588843328857e-01 -7.379188816853504695e-01
-4.522026858741078764e-02 4.168910220914416598e-02 -7.279183714432533314e-01 6.308923838298069464e-01 1.545118338229756194e-01 -7.603294636104830362e-01
-3.106081010585077726e-02 -5.673022895246945807e-02 -7.603336908054781906e-01 5.231109409158418710e-01 3.824521000418433792e-01 -7.616333334799144650e-01
1.985055236653147925e-01 -4.992911906829462267e-04 -7.471349717490040065e-01 -4.275958100031654330e-01 6.559766549646058875e-01 -6.219778544363001593e-01
1.345007022565135602e-01 -2.489411046325767582e-02 -7.194116929293103979e-01 -1.962578814664891202e-01 4.387095268836961881e-01 -8.769360267338598414e-01
1.270198028802543289e-01 -5.350999103203525620e-02 -7.339361827549264472e-01 -5.619811872686119036e-01 5.280748953170290028e-01 -6.366427963089431596e-01
-1.338548330842847245e-01 4.273767602334097027e-02 -7.737467622543369172e-01 3.294411650523372814e-01 1.348024291587653078e-01 -9.345035173084448310e-01
2.160342431206100922e-01 5.300129834054822381e-02 -7.140357445343252785e-01 -5.809784662771715347e-01 4.206785165144792393e-01 -6.967737132422564539e-01
-1.128851058632353438e-01 1.006279957291983801e-01 -7.552066371851786641e-01 2.823346924786340750e-01 2.419780749205954207e-01 -9.282961449239772733e-01
1.193613302800787812e-01 -8.039597679920344742e-02 -7.442274238024333410e-01 -4.132826811424688551e-01 1.957824804922314865e-01 -8.893068344502933487e-01
-3.232327516716653609e-02 -1.381781248799626195e-02 -7.396524340691944532e-01 5.231109409158418710e-01 3.824521000418433792e-01 -7.616333334799144650e-01
8.470588690008314103e-02 -1.818734079673343593e-02 -7.222789520299456312e-01 2.129590220003045598e-01 1.428869852618880375e-03 -9.770600868317249610e-01
2.144434778345931381e-01 -8.683738250246805790e-02 -7.776976198247921301e-01 -4.824476477551739584e-01 1.312806280541121140e-01 -8.660309832062693669e-01
2.200786162612120289e-01 1.203662815788500012e-01 -6.874496998157243466e-01 2.353912230858240806e-01 3.833400508426498127e-02 -9.711444157015779455e-01
2.870270315460184476e-02 1.263701849837027547e-01 -6.771994527262350516e-01 -1.071075561316317017e-02 2.241498648328138776e-01 -9.744958274972891354e-01
-3.389861737168185091e-02 4.767808697850942773e-02 -7.173070339507914284e-01 6.308923838298069464e-01 1.545118338229756194e-01 -7.603294636104830362e-01
-8.118564131897153258e-02 -8.530780387336846238e-02 -7.963468478848355625e-01 4.838150650832704902e-01 3.947829340493705930e-01 -7.810694065074120784e-01
5.671247915667528700e-02 -5.511795939321049997e-02 -7.332526779910442105e-01 3.109154253639150878e-01 1.078307453824739887e-01 -9.443008676375531651e-01
-1.745227047615476035e-03 1.442516596367160731e-01 -6.753032479233082030e-01 6.699429489310458896e-01 1.259815412884923436e-01 -7.316454718182502370e-01
-6.887948867294349520e-02 4.940313301765818926e-02 -7.459822679121682620e-01 6.308923838298069464e-01 1.545118338229756194e-01 -7.603294636104830362e-01
-1.325649531142171489e-01 8.449222747129484304e-03 -7.833986906023493457e-01 6.103071847789051096e-01 3.425183573559389405e-01 -7.142872776981518124e-01
1.368036811002608377e-01 7.730699663671528055e-02 -6.874020226330707084e-01 9.925079016175417101e-02 3.006847815382529543e-01 -9.485451717253956527e-01
-1.711337158700644012e-01 1.281984425724813081e-01 -7.859579645139929127e-01 7.348708512775831148e-01 -1.773991703702419986e-01 -6.545948107757272316e-01
-4.765044951676481594e-02 2.452172016328039994e-02 -7.336075225591832671e-01 5.349628232479123335e-01 2.990311138704365712e-01 -7.901867948023612032e-01
-1.741925317446054722e-01 -1.003363020303900954e-01 -8.636998403553178827e-01 4.567583874690567813e-01 3.912475394294683828e-01 -7.989350025922344889e-01
1.070805375562417922e-01 -1.961566124862023086e-01 -7.944361925642401401e-01 9.261982147113342889e-02 3.394232475179799757e-01 -9.360627263784214724e-01
1.665387300085537647e-01 -7.478512657057488633e-02 -7.619279042990676487e-01 -2.157442817841470073e-01 4.399084996184613600e-02 -9.754584614411200283e-01
-7.901964774926982515e-02 -7.360359789689020771e-02 -7.890894120554708957e-01 4.838150650832704902e-01 3.947829340493705930e-01 -7.810694065074120784e-01
1.518942191163568656e-01 -9.740954671192485204e-02 -7.597092531743361299e-01 -2.157442817841470073e-01 4.399084996184613600e-02 -9.754584614411200283e-01
-9.168781063692534039e-02 -2.323524710909031024e-02 -7.709910112253275383e-01 2.584132407463880510e-01 2.692186677608668921e-01 -9.277628500516784671e-01
1.369744467678880862e-01 -4.451411427453672714e-02 -7.352616134653656710e-01 -5.619811872686119036e-01 5.280748953170290028e-01 -6.366427963089431596e-01
-8.762779604339430983e-02 -1.012629400695000265e-01 -8.097662880271196961e-01 5.287222867250500613e-01 4.112701768996415153e-01 -7.425022458640591072e-01
-3.492944451158493807e-02 6.696781135611107327e-02 -7.142423760525585807e-01 6.308923838298069464e-01 1.545118338229756194e-01 -7.603294636104830362e-01
-2.274481335152393410e-02 1.352111551858174721e-01 -6.902768052133765320e-01 5.278847336071431640e-01 1.155142015658775778e-01 -8.414238986748079352e-01
-1.240527015907372244e-01 -8.325015946633387842e-03 -7.841692439035825579e-01 6.103071847789051096e-01 3.425183573559389405e-01 -7.142872776981518124e-01
3.308661702983521288e-03 1.232476116861879779e-02 -7.124219399896946081e-01 -1.300034533587703378e-01 3.742092076510213916e-01 -9.181865665669417531e-01
1.444577087030534390e-01 5.572373674817569789e-02 -6.934429468481493331e-01 9.925079016175417101e-02 3.006847815382529543e-01 -9.485451717253956527e-01
2.209272795707303005e-01 -1.060142008123897972e-01 -7.852799807872145044e-01 -4.883683208621602545e-01 3.068860685970424829e-01 -8.168949284206172834e-01
-7.510517142150457959e-02 1.594196904383830393e-03 -7.591671670417363682e-01 2.584132407463880510e-01 2.692186677608668921e-01 -9.277628500516784671e-01
-3.027152335596020385e-02 -1.002703882714289230e-01 -7.785849353191677258e-01 3.724891482436958334e-01 5.558741015154599063e-01 -7.431391644268697805e-01
-3.845829814437124600e-02 5.708147880636017107e-02 -7.191795545156884906e-01 6.308923838298069464e-01 1.545118338229756194e-01 -7.603294636104830362e-01
8.596985243311966451e-02 -4.044938530409669664e-02 -7.220360157942908863e-01 2.129590220003045598e-01 1.428869852618880375e-03 -9.770600868317249610e-01
-1.025568189761057736e-01 9.240468272018140250e-02 -7.542089251341463907e-01 2.823346924786340750e-01 2.419780749205954207e-01 -9.282961449239772733e-01
2.762563750167863416e-02 2.004975871893441008e-01 -6.597970894587484869e-01 -2.130225726042195844e-01 2.885254361734573281e-01 -9.334744004213484381e-01
1.473999559283292737e-01 -2.207548145511776388e-02 -7.258523517945549841e-01 -5.619811872686119036e-01 5.280748953170290028e-01 -6.366427963089431596e-01
-1.486384696447268228e-01 6.568000272092118508e-02 -7.751906295137526159e-01 2.823346924786340750e-01 2.419780749205954207e-01 -9.282961449239772733e-01
1.279489313365312630e-01 1.689906730694362702e-02 -7.082969403586103496e-01 1.354105979494686085e-01 3.391104257573110403e-01 -9.309501002232410949e-01
-1.246768159325032099e-01 1.101871244397457927e-02 -7.754267101898207892e-01 6.103071847789051096e-01 3.425183573559389405e-01 -7.142872776981518124e-01
-2.006691034499122339e-01 -2.541147802868918767e-02 -8.536234074163046026e-01 3.243879234112453380e-01 1.120016111540207970e-01 -9.392699900688000758e-01
-1.799929476913968429e-01 1.502958143467118535e-01 -8.168649259443417909e-01 9.968209315081071331e-01 -1.569089100704278150e-02 -7.811418851088976212e-02
-5.230588567782966380e-02 8.153682940068804688e-03 -7.429534616757063059e-01 5.349628232479123335e-01 2.990311138704365712e-01 -7.901867948023612032e-01
-1.243354113674886158e-01 7.478797133454648249e-02 -7.654248610721535728e-01 2.823346924786340750e-01 2.419780749205954207e-01 -9.282961449239772733e-01
9.508625296144360139e-02 -6.915767120685070712e-02 -7.356216012491714196e-01 4.945084176410429432e-03 5.538710072167836174e-01 -8.325878052837153431e-01
-1.088577073109646548e-01 1.169933070122026152e-02 -7.694117995536082777e-01 3.294411650523372814e-01 1.348024291587653078e-01 -9.345035173084448310e-01
1.229957762540160593e-01 3.506237576189497052e-02 -7.024011812083144068e-01 1.354105979494686085e-01 3.391104257573110403e-01 -9.309501002232410949e-01
-2.378716869341867823e-01 -5.335743685228416106e-02 -8.674743538471979543e-01 2.847841562226842149e-01 8.624059755596120980e-02 -9.547044274002947084e-01
-1.711390893000764302e-01 9.019864885198503740e-03 -8.448030774161812140e-01 4.189986493745185281e-01 -1.593023949438344966e-02 -9.078471012742073132e-01
-1.602335110918851890e-01 7.699418167558653991e-02 -7.808083936095703281e-01 6.806968317815071945e-01 9.862919534369900265e-02 -7.258953816001816328e-01
2.106564402168273342e-02 -1.311444548598000026e-01 -7.793837433731384268e-01 3.137937391803380383e-01 5.445811947803843589e-01 -7.777948389792714856e-01
9.396793957673549302e-02 7.934652110496775296e-03 -7.165050205395028238e-01 1.354105979494686085e-01 3.391104257573110403e-01 -9.309501002232410949e-01
-1.375245712444398694e-01 -8.953165663873438596e-02 -8.374452772611111762e-01 4.567583874690567813e-01 3.912475394294683828e-01 -7.989350025922344889e-01
9.792636960440763427e-02 -1.084963851449219224e-01 -7.538114243325719777e-01 7.828533648515766108e-02 3.556798780551071459e-01 -9.313233758679687613e-01
1.477335968857805548e-01 -7.995375140223952293e-02 -7.573153547356681337e-01 -4.132826811424688551e-01 1.957824804922314865e-01 -8.893068344502933487e-01
6.060953853925108575e-02 -2.844738978343078900e-02 -7.289240117613647874e-01 3.109154253639150878e-01 1.078307453824739887e-01 -9.443008676375531651e-01
1.894052882404753668e-02 -5.845870374582717854e-02 -7.437864224439322269e-01 -1.289462064241083117e-01 3.786778132633163430e-01 -9.165020401455439281e-01
2.926754770560385452e-02 1.762149140591732499e-01 -6.657405638753427501e-01 -1.071075561316317017e-02 2.241498648328138776e-01 -9.744958274972891354e-01
1.401046299202403089e-01 -1.334374627094440102e-01 -7.705342438007036776e-01 -1.609426842587503292e-01 5.894595231822500336e-01 -7.916027557514833113e-01
-1.558466235332959804e-01 1.504984581788381681e-01 -7.748395838432937666e-01 7.348708512775831148e-01 -1.773991703702419986e-01 -6.545948107757272316e-01
3.201532532165458911e-02 9.202784095041613432e-02 -6.848480743079039534e-01 -5.429195373919994821e-02 2.616409692122607655e-01 -9.636370618593130821e-01
-9.597715672141977905e-02 3.740726001393063216e-02 -7.610218159398326465e-01 3.334886507403836409e-01 1.421547152649050849e-01 -9.319749764641283019e-01
-8.963794772581809567e-02 -5.161893957543729067e-02 -7.835944987339058532e-01 5.057596002761837184e-01 4.507096685797317703e-01 -7.355732603739910669e-01
1.467888976516725230e-01 -1.288149717717883280e-01 -7.685265611313626399e-01 -2.498767571713131352e-01 4.875634141466602123e-01 -8.365665086597724454e-01
8.826914923277716374e-02 -2.108264260848916744e-02 -7.215065411391524686e-01 2.129590220003045598e-01 1.428869852618880375e-03 -9.770600868317249610e-01
1.923976168074154336e-01 -9.503382024559063612e-02 -7.685603386479181731e-01 -2.157442817841470073e-01 4.399084996184613600e-02 -9.754584614411200283e-01
-7.009407539228676431e-02 9.560577250505129451e-03 -7.550867682607932396e-01 6.308923838298069464e-01 1.545118338229756194e-01 -7.603294636104830362e-01
-1.553154121901469675e-01 1.718791491230668711e-02 -8.175480707840006023e-01 8.670170826328997826e-01 3.441997340052585508e-01 -3.602886641756087305e-01
-1.836503924441668656e-01 1.243752944906601626e-01 -8.136699723809178719e-01 9.485174077053672992e-01 -1.806277133272669311e-01 -2.601698607795545626e-01
-1.432480537262813547e-01 -8.151130055173699818e-02 -8.367897846946653617e-01 4.567583874690567813e-01 3.912475394294683828e-01 -7.989350025922344889e-01
1.894344870277692994e-01 -9.805659714076642164e-02 -7.680412967806394819e-01 -2.157442817841470073e-01 4.399084996184613600e-02 -9.754584614411200283e-01
1.061995714461197587e-01 -1.976907443002088038e-01 -7.950796482956767885e-01 9.261982147113342889e-02 3.394232475179799757e-01 -9.360627263784214724e-01
-1.843171429982415899e-01 1.377765543010875393e-01 -8.254048574796419846e-01 9.485174077053672992e-01 -1.806277133272669311e-01 -2.601698607795545626e-01
-1.243900072530004092e-01 9.796163762355315774e-02 -7.594008084295805761e-01 2.823346924786340750e-01 2.419780749205954207e-01 -9.282961449239772733e-01
3.569173576786612706e-02 -1.163187845060623671e-01 -7.632869077571510230e-01 3.183147688536772102e-01 5.334356056017549585e-01 -7.836594685231073054e-01
2.853747950253249580e-02 -1.100231218029996405e-01 -7.619074498922568939e-01 3.183147688536772102e-01 5.334356056017549585e-01 -7.836594685231073054e-01
-4.558800814178926020e-02 2.281672239847906333e-02 -7.328564570087477970e-01 5.349628232479123335e-01 2.990311138704365712e-01 -7.901867948023612032e-01
-1.476852963783061301e-01 -1.050413393576298537e-01 -8.508495236566423481e-01 4.567583874690567813e-01 3.912475394294683828e-01 -7.989350025922344889e-01
-1.843243228690759072e-01 -6.964820938785788729e-02 -8.569891212086879762e-01 5.026104647729235930e-01 3.124169870341118593e-01 -8.060882997000226036e-01
2.171751150826605747e-01 6.976760119338559774e-02 -7.048643288402725027e-01 -5.809784662771715347e-01 4.206785165144792393e-01 -6.967737132422564539e-01
-5.792065667207865753e-02 -9.479753592882043944e-02 -7.876146643594469365e-01 3.450891451946000443e-01 5.421365489404675886e-01 -7.661601948494716208e-01
1.506192931757029119e-01 -1.423656659096982913e-01 -7.793203078703070386e-01 -1.609426842587503292e-01 5.894595231822500336e-01 -7.916027557514833113e-01
9.803647213773067359e-02 -4.489199386205755538e-02 -7.212554641541807365e-01 -1.962578814664891202e-01 4.387095268836961881e-01 -8.769360267338598414e-01
2.144534613863494088e-01 4.100485867909808846e-02 -7.199605436682289250e-01 -5.809784662771715347e-01 4.206785165144792393e-01 -6.967737132422564539e-01
2.989766138729340814e-02 5.149149891529831297e-02 -6.979689855674467980e-01 -5.088881036611759417e-02 4.307491704841928115e-01 -9.010357823675489986e-01
-1.747252005693177013e-01 1.052094662259637076e-01 -7.927037347204048956e-01 8.821633784458936534e-01 2.401166367179224381e-01 -4.051317989249923479e-01
-6.349339919352560424e-02 7.741707300461285468e-02 -7.358201889175022270e-01 6.308923838298069464e-01 1.545118338229756194e-01 -7.603294636104830362e-01
-4.710248677087552904e-02 1.331531489694181281e-01 -7.063848359790160236e-01 6.402902459858197393e-01 2.133169588843328857e-01 -7.379188816853504695e-01
5.525248836051056822e-02 -1.651735271827776963e-01 -7.873426445635177684e-01 6.077295752862106604e-02 4.434918235502408046e-01 -8.942156619503520698e-01
4.450686848298388704e-02 -9.549592281854221709e-02 -7.529295857550777349e-01 6.896385464152977873e-02 3.667288287365437216e-01 -9.277682646687720469e-01
-1.593443643170119883e-01 2.462893828664134560e-02 -8.201348078801059538e-01 8.670170826328997826e-01 3.441997340052585508e-01 -3.602886641756087305e-01
2.516566499114207822e-01 -8.209039777996089693e-02 -8.009355373229006814e-01 -6.726984930542957430e-01 9.652866012155508768e-02 -7.335931810053968327e-01
7.253029927340932936e-02 7.156840995268499983e-02 -6.926857372063593976e-01 -5.429195373919994821e-02 2.616409692122607655e-01 -9.636370618593130821e-01
-8.174726015111887650e-03 4.928919868098680102e-02 -6.975093602376470914e-01 5.349628232479123335e-01 2.990311138704365712e-01 -7.901867948023612032e-01
-8.085737332775691510e-03 9.942434781457543114e-02 -6.865196082132560829e-01 5.347258616668447706e-01 1.330058891038191637e-01 -8.344924723017894674e-01
-1.529956204187868929e-01 2.477932115359147633e-02 -8.047131981868361761e-01 8.670170826328997826e-01 3.441997340052585508e-01 -3.602886641756087305e-01
8.433839790298176819e-02 -1.021866823328005242e-01 -7.525438781498273721e-01 7.828533648515766108e-02 3.556798780551071459e-01 -9.313233758679687613e-01
4.366934280934526430e-02 -4.368610739367204121e-02 -7.362417752798764425e-01 3.109154253639150878e-01 1.078307453824739887e-01 -9.443008676375531651e-01
-1.239135744003030774e-02 1.819424224243033628e-01 -6.773658855733746265e-01 5.278847336071431640e-01 1.155142015658775778e-01 -8.414238986748079352e-01
-1.316230593815461911e-02 8.926683560771209169e-02 -6.913915292897455656e-01 5.347258616668447706e-01 1.330058891038191637e-01 -8.344924723017894674e-01
1.409713381754973127e-01 -9.864056513692254224e-02 -7.573489316970241081e-01 -2.157442817841470073e-01 4.399084996184613600e-02 -9.754584614411200283e-01
-5.353544564093611763e-02 7.107371070688142667e-02 -7.288465376684036823e-01 6.308923838298069464e-01 1.545118338229756194e-01 -7.603294636104830362e-01
8.672632888069235768e-02 3.072829284555943577e-02 -7.092554693786625730e-01 1.354105979494686085e-01 3.391104257573110403e-01 -9.309501002232410949e-01
-5.134775634004789396e-02 2.579612035985633101e-02 -7.362324503105643903e-01 6.308923838298069464e-01 1.545118338229756194e-01 -7.603294636104830362e-01
-2.257323659428053519e-01 -1.518027210038903375e-02 -8.610592972028512371e-01 3.243879234112453380e-01 1.120016111540207970e-01 -9.392699900688000758e-01
1.601481669097055693e-01 4.870041315681677974e-02 -6.939262431055177593e-01 1.090840782845172302e-01 3.016395540199373060e-01 -9.471611496020466703e-01
1.246767701362884728e-01 -1.065456431024075501e-01 -7.524545344966110383e-01 -4.132826811424688551e-01 1.957824804922314865e-01 -8.893068344502933487e-01
-4.146718543891532265e-03 3.717454879964005726e-02 -7.012387612199487696e-01 -1.300034533587703378e-01 3.742092076510213916e-01 -9.181865665669417531e-01
8.988978220878394987e-02 -7.969288571875167426e-02 -7.426609150861624986e-01 4.945084176410429432e-03 5.538710072167836174e-01 -8.325878052837153431e-01
-5.543206479671243872e-03 1.660634873607151341e-01 -6.750251649690161004e-01 6.699429489310458896e-01 1.259815412884923436e-01 -7.316454718182502370e-01
2.185162585521117085e-01 -8.362507558076237579e-02 -7.794795304454631424e-01 -4.824476477551739584e-01 1.312806280541121140e-01 -8.660309832062693669e-01
2.146250571459468182e-01 -1.020998482913940963e-01 -7.801123932527886939e-01 -4.824476477551739584e-01 1.312806280541121140e-01 -8.660309832062693669e-01
-4.826783882676954213e-02 5.086623999408450281e-02 -7.285821790279336518e-01 6.308923838298069464e-01 1.545118338229756194e-01 -7.603294636104830362e-01
-9.491064720834697932e-02 -4.677611751021863024e-02 -7.842525047826965912e-01 5.057596002761837184e-01 4.507096685797317703e-01 -7.355732603739910669e-01
9.182989031883841136e-02 -1.568819811202673831e-01 -7.801954110311432045e-01 5.488641917856353775e-02 5.009122759267585767e-01 -8.637559683241731179e-01
-7.076789488211823742e-02 -1.423336930726338545e-01 -8.162160418263944006e-01 2.920320643230057134e-01 3.112935235093896025e-01 -9.043304792100911316e-01
-7.538971827237864187e-02 -1.329373172468518993e-01 -8.144740787391743231e-01 2.920320643230057134e-01 3.112935235093896025e-01 -9.043304792100911316e-01
-1.388453649834978654e-01 1.226254985211736384e-02 -7.869362671909656548e-01 6.103071847789051096e-01 3.425183573559389405e-01 -7.142872776981518124e-01
3.729628657142933928e-02 3.039233372508872572e-02 -7.084735130487940236e-01 -5.088881036611759417e-02 4.307491704841928115e-01 -9.010357823675489986e-01
6.645574824083444465e-02 -2.571966293611336815e-02 -7.266876380931250878e-01 3.109154253639150878e-01 1.078307453824739887e-01 -9.443008676375531651e-01
-1.806251082573228361e-01 1.635301703506698290e-01 -8.275903746466459765e-01 9.968209315081071331e-01 -1.569089100704278150e-02 -7.811418851088976212e-02
-1.406233514646086924e-01 -6.980169533202135179e-02 -8.298002711279264254e-01 5.026104647729235930e-01 3.124169870341118593e-01 -8.060882997000226036e-01
7.795896891970625908e-02 1.063518754933752558e-01 -6.835473936288155583e-01 -5.429195373919994821e-02 2.616409692122607655e-01 -9.636370618593130821e-01
-1.522053098046497466e-01 7.049745533391550689e-02 -7.750196978660138791e-01 2.823346924786340750e-01 2.419780749205954207e-01 -9.282961449239772733e-01
-3.620247184971973203e-02 -7.444056722923576841e-02 -7.699794579214523926e-01 6.124559994548428588e-01 -3.744533771121498766e-01 -6.961912934683077703e-01
-4.354036104755842906e-02 1.237281868931249112e-01 -7.060185489593876484e-01 6.402902459858197393e-01 2.133169588843328857e-01 -7.379188816853504695e-01
-1.295082669561864186e-01 -1.025803909301405553e-01 -8.392523966880147679e-01 4.567583874690567813e-01 3.912475394294683828e-01 -7.989350025922344889e-01
1.031049064412717098e-01 2.126043617680131032e-02 -7.103219238800090318e-01 1.354105979494686085e-01 3.391104257573110403e-01 -9.309501002232410949e-01
2.976375263614585223e-02 4.849040766488956627e-02 -6.993961243501469749e-01 -5.088881036611759417e-02 4.307491704841928115e-01 -9.010357823675489986e-01
4.926587272268073692e-02 -9.906236284131535175e-02 -7.539855790812082237e-01 6.896385464152977873e-02 3.667288287365437216e-01 -9.277682646687720469e-01
2.784489705485578351e-02 -9.812952995155296843e-02 -7.552091349867029457e-01 6.896385464152977873e-02 3.667288287365437216e-01 -9.277682646687720469e-01
3.965149672105324624e-02 -6.691575485033586512e-02 -7.402172884393677377e-01 3.109154253639150878e-01 1.078307453824739887e-01 -9.443008676375531651e-01
2.100616492684795888e-01 -1.292703929711400135e-01 -7.931609213772882194e-01 -4.114304549068142358e-01 5.005888182155574517e-01 -7.616664728427551267e-01
1.564491473006396904e-01 5.609129642162711052e-03 -7.108768068718248623e-01 -5.619811872686119036e-01 5.280748953170290028e-01 -6.366427963089431596e-01
-1.043694505112639920e-01 -1.583774843539343669e-01 -8.401858172793176260e-01 5.137207760662868550e-01 1.341647870010850840e-01 -8.474023685161644615e-01
-1.764762227407729589e-01 1.307636174904001636e-01 -7.926508261166314018e-01 7.348708512775831148e-01 -1.773991703702419986e-01 -6.545948107757272316e-01
