-2.361400927070107791e-01 -6.719544882253726537e-02 -9.209296361412808718e-01 5.352803602825260132e-01 -6.500299768094935926e-01 5.393848024785817818e-01
-2.310234082313180892e-01 8.319639244370691245e-02 -8.340519186348914760e-01 5.317846086255141325e-01 -3.536055800438441810e-01 7.695246739324640428e-01
-1.362016800837558550e-01 -7.318370995772335852e-02 -9.656237277297345933e-01 1.027757878564258681e-01 -3.253290353369080457e-01 9.399990192533436151e-01
-8.541403632191019168e-02 -3.663119352708679721e-02 -9.405165978533370774e-01 -1.275154885792433301e-01 -5.570973207571755514e-01 8.205987907483006660e-01
-1.916872780640497403e-02 1.040379612249714425e-01 -8.321057402575600115e-01 -3.371021813678222109e-03 -6.492998950650972212e-01 7.605250045070086617e-01
4.737924936180001878e-02 4.277840132359932851e-02 -8.393618429067758457e-01 -6.737372724973493820e-01 -5.233588910583613085e-01 5.217025577836424954e-01
1.703431259448467128e-01 5.974809355981343557e-03 -7.497618798922982553e-01 -9.084967176667743116e-01 -1.751081212718005320e-01 3.794349217630842985e-01
1.099816802628620672e-02 1.802721534745920784e-01 -7.390835679610113784e-01 -5.740292594907644430e-01 -6.150727036358044630e-01 5.405330503222042227e-01
1.444322528783884285e-01 9.951665105530705865e-03 -7.954015317312569389e-01 -3.854423045755459021e-01 -6.800509811555476292e-01 6.236705002426116140e-01
-1.563282996464704921e-01 -4.914112898634246523e-02 -9.384004067830946649e-01 1.633386981971096941e-01 -7.861636585963717172e-01 5.960429276265603038e-01
1.265395300694843739e-02 -7.907814383198912001e-02 -9.384705340096324289e-01 -3.235284119758028987e-01 -3.045372145378106299e-01 8.958718946400578975e-01
5.020124015009719103e-03 1.014218668936202605e-01 -8.332173457367539893e-01 -4.837430754809968897e-02 -6.876385365735209199e-01 7.244399004667456676e-01
-2.095072234697891445e-01 9.556087831834643442e-02 -8.432391805023368159e-01 5.317846086255141325e-01 -3.536055800438441810e-01 7.695246739324640428e-01
-1.584657367888006249e-02 2.022656941984738721e-01 -7.307606554559756828e-01 8.682984125981327295e-03 -9.267071292071888955e-01 3.756840460589699893e-01
-2.789887266703170235e-02 9.815900060885943135e-02 -8.371636121185760393e-01 -3.371021813678222109e-03 -6.492998950650972212e-01 7.605250045070086617e-01
-5.985791562345648548e-02 -5.753869864620457693e-03 -9.192359025916100324e-01 -3.625795327149584080e-01 -7.101914657029995137e-01 6.034601598273306999e-01
3.543222284150635698e-02 -6.929211924837183623e-02 -9.242078586505261262e-01 -4.262459572603808922e-01 -2.898291888329763144e-01 8.569208978777449470e-01
1.407186625852176187e-01 -5.011243520969821397e-02 -8.252009024947443150e-01 -8.939865883954722925e-01 -7.981086341920443084e-02 4.409287990699923832e-01
-1.881755525838740839e-01 3.668840768157806929e-03 -8.808993459102952839e-01 3.759096371576703954e-01 -1.550298651389921401e-01 9.135960188217627786e-01
3.369616761643059316e-02 2.118433206502702386e-03 -8.801673972647772182e-01 -5.726605527234843729e-01 -3.988129157311318118e-01 7.162458723095489477e-01
1.720849025806691357e-01 2.677171938163001169e-02 -6.747112750265639169e-01 -9.986925946548745880e-01 -4.634267867439350458e-02 -2.157446441505032897e-02
-1.235636919158501768e-02 1.237590592639084205e-02 -8.936646641939873792e-01 7.029543288360316777e-02 -5.464167583028290975e-01 8.345581336021682395e-01
1.065288869469037947e-01 4.916846395575684425e-02 -7.776962945638401514e-01 -3.370102862508070340e-01 -6.221069652642335912e-01 7.066873359066757621e-01
1.233474270073362834e-02 1.449823678505288982e-01 -7.778204238691045491e-01 -5.740292594907644430e-01 -6.150727036358044630e-01 5.405330503222042227e-01
-4.370088673906590698e-02 -5.504791802338650231e-02 -9.465376099246205488e-01 -1.275154885792433301e-01 -5.570973207571755514e-01 8.205987907483006660e-01
-6.496551788308470299e-02 -3.338213654530284430e-02 -9.370688998510642298e-01 -6.394758730865045260e-02 -3.747366101101572977e-01 9.249233368882799899e-01
7.827170054488291617e-02 -8.841454079575011837e-02 -9.082524291902687175e-01 -5.347943372248481486e-01 -4.089652353535356277e-01 7.394203494254554254e-01
4.573685098707763741e-02 1.064386493852404608e-01 -7.827830565850804057e-01 -6.836152908273200879e-01 -4.714458919633939815e-01 5.571435228896755021e-01
-1.359523492811056389e-01 1.071605902592899923e-01 -8.396046288851759520e-01 -1.569627447786608454e-01 -6.106699389082438367e-01 7.761732554432357878e-01
8.895766242942475255e-02 -1.075992367549514356e-01 -9.093793538945924571e-01 -5.780812249352872412e-01 -3.666194665289393972e-01 7.289802906384739156e-01
1.657668811081038918e-01 -9.004789895413012335e-02 -8.213733209972631233e-01 -4.650744119848954639e-01 -7.469685023985792593e-01 4.751250864154904496e-01
1.525474338631913895e-01 4.797624328770420943e-02 -7.466076577333552455e-01 -7.200809014192232071e-01 -5.251025776982656268e-01 4.535975951280123430e-01
1.364676076571219032e-01 -1.164440077514104083e-01 -8.773316091504917980e-01 -5.086152693023875404e-01 -4.264372710464218730e-01 7.479717653059775317e-01
2.039875939185997744e-02 5.940456398929638837e-02 -8.540975124089900117e-01 -5.836184643201500766e-01 -4.691023265311719537e-01 6.628216165361775492e-01
2.394278342766166870e-02 -3.687084097517113503e-03 -8.911980977117237579e-01 -5.726605527234843729e-01 -3.988129157311318118e-01 7.162458723095489477e-01
1.226018552954672436e-01 1.365854477505007609e-02 -8.048512196603585522e-01 -3.854423045755459021e-01 -6.800509811555476292e-01 6.236705002426116140e-01
6.420568509905145993e-02 7.963254401401573257e-02 -7.828046862973684350e-01 -6.836152908273200879e-01 -4.714458919633939815e-01 5.571435228896755021e-01
1.911470184963320537e-02 6.952233455254358541e-02 -8.480674284166755950e-01 -5.836184643201500766e-01 -4.691023265311719537e-01 6.628216165361775492e-01
-1.470334137780509864e-01 -2.419770947136701961e-02 -9.154985568731730528e-01 3.607215568506742520e-01 -6.348038855370613520e-01 6.833037284621498175e-01
-1.184640256491135690e-01 -1.012994273009839262e-03 -9.217747490778758213e-01 1.378506103334766753e-01 -4.817284193379631763e-01 8.654102722020553529e-01
1.724402733151644829e-01 3.457423811249292489e-02 -7.079216354558597324e-01 -9.986925946548745880e-01 -4.634267867439350458e-02 -2.157446441505032897e-02
-1.364950104862807101e-01 8.793435991517196959e-02 -8.548409932136199485e-01 -1.569627447786608454e-01 -6.106699389082438367e-01 7.761732554432357878e-01
1.111103758102087724e-01 -9.977090231757305971e-02 -8.878752231473594492e-01 -5.780812249352872412e-01 -3.666194665289393972e-01 7.289802906384739156e-01
1.786410084198615522e-01 -2.589914806368789901e-02 -7.415728222539347270e-01 -9.039128252182222489e-01 -8.798848116148692833e-02 4.185685506448213467e-01
-1.096779423545534982e-01 -2.251702848482463326e-02 -9.351444440381657675e-01 1.378506103334766753e-01 -4.817284193379631763e-01 8.654102722020553529e-01
-3.976452501209500751e-02 -3.815625646377763386e-02 -9.372608020504652471e-01 -6.394758730865045260e-02 -3.747366101101572977e-01 9.249233368882799899e-01
-1.245394457257164300e-01 -8.778558918651271914e-02 -9.719524690220895380e-01 1.027757878564258681e-01 -3.253290353369080457e-01 9.399990192533436151e-01
-7.759122581937666352e-02 2.914962207570881078e-02 -8.846504210487947661e-01 -1.932299381512242453e-01 -5.734995957551399792e-01 7.960907012839461006e-01
1.791901845747103511e-02 -5.745277369013561397e-02 -9.289148796344962600e-01 -4.262459572603808922e-01 -2.898291888329763144e-01 8.569208978777449470e-01
-2.996770531080375846e-02 -4.434642092091774235e-02 -9.384398683494608040e-01 -2.477286384525709539e-01 -5.394632933487819582e-01 8.047421182091326619e-01
4.513547554325718705e-03 6.133961442112676604e-02 -8.628261164544385187e-01 7.138952496927980507e-02 -5.503556845048472868e-01 8.318726803170433115e-01
-3.157878850771927287e-02 1.175280689258502431e-01 -8.203732186547081362e-01 -4.837430754809968897e-02 -6.876385365735209199e-01 7.244399004667456676e-01
2.169725643979123486e-01 -9.708988704564275318e-02 -7.989048628732440260e-01 -3.758844334360397221e-01 -7.033223688775690485e-01 6.033643494083091863e-01
-4.773915536431327933e-02 4.181078091681454667e-02 -8.726582833297339414e-01 -8.292554563997998202e-03 -5.021744517950719189e-01 8.647265773081813656e-01
-3.246516258331434701e-02 7.023186554600011067e-02 -8.560067736045997577e-01 -8.292554563997998202e-03 -5.021744517950719189e-01 8.647265773081813656e-01
3.702820685684391627e-02 1.183850029080596444e-01 -7.814672961234986337e-01 -5.809922891225859365e-01 -5.993025642830325239e-01 5.507126259891623743e-01
3.829767045269791975e-02 5.041787452113366541e-02 -8.434262507798453434e-01 -6.737372724973493820e-01 -5.233588910583613085e-01 5.217025577836424954e-01
1.549112520638808339e-02 -1.948767231994616130e-03 -8.992418580652400406e-01 -7.218565061021670060e-01 -3.953796086233672402e-01 5.679772439832473374e-01
-1.687327122714041283e-01 -6.453705069134474392e-02 -9.544847412653594265e-01 1.920950483037696666e-01 -4.223096323455988732e-01 8.858634583530905493e-01
-2.174368917609930674e-01 -8.417668117356624791e-02 -9.470710570111566806e-01 3.568957956840017598e-01 -3.575154605779315431e-01 8.630226453986202806e-01
-1.580874731669406619e-01 -5.824995168837579507e-02 -9.499326034582079581e-01 1.633386981971096941e-01 -7.861636585963717172e-01 5.960429276265603038e-01
-3.023524912799614196e-03 1.889544239861272734e-01 -7.496727939050448208e-01 -7.104189457273636377e-01 -5.147152435851074515e-01 4.799720195727502636e-01
6.225332601483586983e-03 7.397049566239217999e-02 -8.546165984216222977e-01 7.138952496927980507e-02 -5.503556845048472868e-01 8.318726803170433115e-01
1.576720132799494870e-02 8.376980667755197507e-02 -8.390647360087842843e-01 -6.737372724973493820e-01 -5.233588910583613085e-01 5.217025577836424954e-01
4.856112071068929489e-03 1.915852028577525179e-01 -7.287725193887122366e-01 -5.113911865602074336e-01 -8.259314179145564871e-01 2.373106554923175016e-01
1.726815170965311508e-01 -1.082936819617799362e-01 -8.432900861600270970e-01 -4.650744119848954639e-01 -7.469685023985792593e-01 4.751250864154904496e-01
-1.419965648705583949e-01 2.863175354275350817e-02 -9.008861212802128371e-01 5.129133043274840542e-01 -2.428974203575484381e-01 8.233594509249958504e-01
2.111491189665608836e-01 -1.396756831854554515e-01 -8.460622229110225101e-01 -2.911888443187948261e-01 -5.660607606411456327e-01 7.712225827908906206e-01
1.539411129998834171e-01 -1.102912720059969903e-01 -8.605683483609375406e-01 -5.525294019932043277e-01 -4.755543675161652550e-01 6.845139176593360020e-01
-1.061104200295347050e-01 3.693584211440349707e-02 -8.859635479161399596e-01 -1.932299381512242453e-01 -5.734995957551399792e-01 7.960907012839461006e-01
1.917835195442257109e-03 -3.035668079765083821e-02 -9.213092294054768816e-01 -1.369364800497896995e-01 -5.095414894981405984e-01 8.494797648629366371e-01
-1.677693729158558078e-02 1.401125726854123288e-01 -7.980975969865811148e-01 -4.638049581177811770e-02 -6.782248830507721093e-01 7.333892947262183881e-01
-3.069609771030793605e-02 -1.450757666529578493e-02 -9.120164194525595125e-01 -3.625795327149584080e-01 -7.101914657029995137e-01 6.034601598273306999e-01
2.367839402079838507e-01 -1.245850590434003508e-01 -8.204855597777531706e-01 -4.957201457692315127e-01 -6.969243195481248376e-01 5.182258483527379944e-01
-7.674994961229176203e-03 3.906864116027694567e-02 -8.765142958390181871e-01 7.138952496927980507e-02 -5.503556845048472868e-01 8.318726803170433115e-01
1.143261626541964698e-01 5.657136491692622143e-02 -7.674609924695754426e-01 -3.370102862508070340e-01 -6.221069652642335912e-01 7.066873359066757621e-01
1.483576292051804746e-01 6.886590153055223429e-02 -7.141585392185939574e-01 -7.626401327500412775e-01 -6.204427845776989692e-01 1.828408569889954094e-01
2.010239581577728460e-02 1.532891399146011635e-01 -7.601191400866577075e-01 -5.740292594907644430e-01 -6.150727036358044630e-01 5.405330503222042227e-01
-9.306179059757592464e-02 -9.887420760027887390e-02 -9.777607361521295504e-01 -1.139258140374158623e-01 -4.289750401537204549e-01 8.961034113432591042e-01
5.975701146357770971e-02 8.823169257079176153e-02 -7.809867490895345821e-01 -6.836152908273200879e-01 -4.714458919633939815e-01 5.571435228896755021e-01
-5.043174155871345959e-02 2.961276360056748838e-02 -8.797678844892660166e-01 -8.292554563997998202e-03 -5.021744517950719189e-01 8.647265773081813656e-01
1.016527809644586500e-02 8.508524053781731100e-02 -8.449330308562138514e-01 -5.836184643201500766e-01 -4.691023265311719537e-01 6.628216165361775492e-01
2.523765675785807905e-01 -1.185408053197168354e-01 -7.998090780413205092e-01 -5.171509848265248843e-01 -5.422054071431156030e-01 6.622447850740118547e-01
-2.281406087598117707e-02 -9.920578243748296929e-03 -9.073821563337707286e-01 7.029543288360316777e-02 -5.464167583028290975e-01 8.345581336021682395e-01
1.468100998613734998e-01 -2.517041452543430230e-02 -8.083358044316306668e-01 -8.939865883954722925e-01 -7.981086341920443084e-02 4.409287990699923832e-01
1.457109661751592421e-02 4.320497947608128997e-02 -8.706938244611114319e-01 -5.836184643201500766e-01 -4.691023265311719537e-01 6.628216165361775492e-01
6.107950020939958979e-02 6.444361241421735220e-02 -7.999350657468052850e-01 -6.737372724973493820e-01 -5.233588910583613085e-01 5.217025577836424954e-01
9.915333647814665585e-02 2.346166625668014843e-02 -8.086535940695041003e-01 -3.854423045755459021e-01 -6.800509811555476292e-01 6.236705002426116140e-01
-7.844150176124599361e-02 6.370215049588691045e-03 -9.161331399203216375e-01 -3.625795327149584080e-01 -7.101914657029995137e-01 6.034601598273306999e-01
-1.893769030348823046e-01 -1.918463722110777189e-02 -8.898320576293873296e-01 1.633386981971096941e-01 -7.861636585963717172e-01 5.960429276265603038e-01
-2.267279757815010566e-01 -7.467644201967249540e-02 -9.355060991969480488e-01 4.328012544187332944e-01 -6.538380138640840222e-01 6.206278480698725897e-01
-1.633821139821933777e-01 7.032648902637542165e-02 -8.742977282527270022e-01 -1.667337132930330201e-01 -6.087230215182758419e-01 7.756649740224044187e-01
-2.448008740767259467e-02 2.171567117204165759e-02 -8.865283773025152136e-01 7.029543288360316777e-02 -5.464167583028290975e-01 8.345581336021682395e-01
-1.266336971620567742e-01 -3.682514686414749272e-02 -9.379988934262153411e-01 3.607215568506742520e-01 -6.348038855370613520e-01 6.833037284621498175e-01
1.800611188097723039e-02 1.070062484444218170e-01 -8.139179907126088409e-01 -5.809922891225859365e-01 -5.993025642830325239e-01 5.507126259891623743e-01
-1.040619332569214794e-01 5.309574764142151182e-02 -8.738248202008478405e-01 -1.932299381512242453e-01 -5.734995957551399792e-01 7.960907012839461006e-01
-2.328296709136706555e-01 -8.520397952115429940e-02 -9.395369480146810170e-01 4.363023803151029334e-01 -5.144150584320341668e-01 7.382529245385638372e-01
7.100797590936885895e-02 6.258541880533070867e-02 -7.889773238182988813e-01 -6.737372724973493820e-01 -5.233588910583613085e-01 5.217025577836424954e-01
-1.028728213530957641e-01 4.237384340356774304e-02 -8.812601987537649340e-01 -1.932299381512242453e-01 -5.734995957551399792e-01 7.960907012839461006e-01
3.552131822590323673e-02 7.554846311721394835e-03 -8.756810837757038612e-01 -5.726605527234843729e-01 -3.988129157311318118e-01 7.162458723095489477e-01
5.453150599688785793e-02 -7.652526113479975189e-04 -8.651145702107116975e-01 -5.726605527234843729e-01 -3.988129157311318118e-01 7.162458723095489477e-01
4.781006281796786744e-02 8.979445602529831372e-02 -7.943232738032954821e-01 -6.836152908273200879e-01 -4.714458919633939815e-01 5.571435228896755021e-01
7.842593773651045097e-02 -3.156968943130362970e-02 -8.745650584082382828e-01 -3.138736198384606269e-01 -6.069528178870456925e-01 7.301312400031081395e-01
1.005859004774430771e-02 1.236230910967127949e-01 -8.042195250210505408e-01 -5.809922891225859365e-01 -5.993025642830325239e-01 5.507126259891623743e-01
-7.978225360151970647e-02 -2.558680201918101665e-02 -9.349349903092745162e-01 -6.394758730865045260e-02 -3.747366101101572977e-01 9.249233368882799899e-01
-4.648937123928181814e-02 2.212808331920013138e-02 -8.843909728559307126e-01 7.138952496927980507e-02 -5.503556845048472868e-01 8.318726803170433115e-01
-1.263623786019269224e-01 2.009018232314334351e-02 -9.087695964452278119e-01 1.378506103334766753e-01 -4.817284193379631763e-01 8.654102722020553529e-01
-2.166043542620021689e-01 1.202971284198387364e-01 -8.235401524605745482e-01 -2.866196962234939249e-01 -7.735823554879265318e-01 5.651720879648101103e-01
1.918163007045129986e-01 -1.351056963801054445e-01 -8.500074014728121741e-01 -2.911888443187948261e-01 -5.660607606411456327e-01 7.712225827908906206e-01
-2.244308667179943373e-01 -6.773954602274358250e-02 -9.297999185481020668e-01 4.328012544187332944e-01 -6.538380138640840222e-01 6.206278480698725897e-01
-2.718187795971941864e-02 1.641813051802069531e-02 -8.897693036632184915e-01 7.029543288360316777e-02 -5.464167583028290975e-01 8.345581336021682395e-01
-1.965041839832155357e-01 9.068000058922026652e-02 -8.544678287283697937e-01 5.317846086255141325e-01 -3.536055800438441810e-01 7.695246739324640428e-01
-1.621861690436021131e-01 -1.071259712060924386e-02 -8.999158581627023645e-01 5.129133043274840542e-01 -2.428974203575484381e-01 8.233594509249958504e-01
-1.094110129398567360e-01 -3.347847887055278859e-02 -9.422258427612956178e-01 -1.366931441246453660e-01 -5.660100607393740990e-01 8.129868359888301477e-01
-6.672251428543306273e-02 1.001220429424374975e-01 -8.356597459318753085e-01 -3.371021813678222109e-03 -6.492998950650972212e-01 7.605250045070086617e-01
1.430562204860855169e-01 -1.292830396936122880e-02 -8.131551910948365824e-01 -6.561092246234375702e-01 -3.798933078797537277e-01 6.520749650095533090e-01
-2.581560536045744425e-01 -7.945619367455136750e-02 -9.118706950700149472e-01 5.153438318764971271e-01 -5.231757531549011686e-01 6.787546436361600044e-01
8.837353895897395381e-03 1.862207293368745575e-01 -7.350487774516580863e-01 -7.104189457273636377e-01 -5.147152435851074515e-01 4.799720195727502636e-01
1.367974619483680043e-01 -7.607299906152426190e-03 -8.163526997991350509e-01 -6.561092246234375702e-01 -3.798933078797537277e-01 6.520749650095533090e-01
-4.804479399930877692e-02 -6.383793077148307293e-02 -9.531800862108069650e-01 -1.275154885792433301e-01 -5.570973207571755514e-01 8.205987907483006660e-01
1.397788061976461826e-01 -1.290468585602900231e-01 -8.822652167278202118e-01 -5.086152693023875404e-01 -4.264372710464218730e-01 7.479717653059775317e-01
1.076853959761311791e-01 -1.246033441067441044e-01 -9.030799868996292057e-01 -5.780812249352872412e-01 -3.666194665289393972e-01 7.289802906384739156e-01
2.139303250263090983e-01 -1.207478631076920883e-01 -8.304415022361578691e-01 -3.364250792210591867e-01 -7.316607644591136550e-01 5.928665042167667876e-01
2.693629842772158126e-02 1.451647701092343909e-02 -8.786687644425068555e-01 -5.726605527234843729e-01 -3.988129157311318118e-01 7.162458723095489477e-01
5.667474695229202802e-02 -6.648609110767395025e-02 -9.117442926438636963e-01 -5.347943372248481486e-01 -4.089652353535356277e-01 7.394203494254554254e-01
1.596109603654101081e-02 1.007429508304437671e-01 -8.228913618039284117e-01 -5.809922891225859365e-01 -5.993025642830325239e-01 5.507126259891623743e-01
-1.222389528339608011e-01 6.240769339621504014e-02 -8.715285331641136057e-01 -1.932299381512242453e-01 -5.734995957551399792e-01 7.960907012839461006e-01
-1.248155805119517958e-01 2.570799438096481662e-02 -9.058888441106816014e-01 1.378506103334766753e-01 -4.817284193379631763e-01 8.654102722020553529e-01
-1.802707314978728159e-01 7.068190996712468699e-02 -8.696890733368167758e-01 3.880875853007670351e-01 -2.572909111418036354e-01 8.849798942231628107e-01
9.267405321446732774e-04 1.593607015024722240e-01 -7.755617960912245534e-01 -7.104189457273636377e-01 -5.147152435851074515e-01 4.799720195727502636e-01
-1.207943295610010709e-01 3.558015026168456774e-02 -8.943936432542560766e-01 -2.634909748792612638e-01 -7.998836691580645253e-01 5.392203834902833393e-01
-3.644346150922389560e-02 -4.542619628314152787e-03 -9.037422179466370054e-01 -3.625795327149584080e-01 -7.101914657029995137e-01 6.034601598273306999e-01
4.163642357720180251e-03 4.656777031461042070e-03 -8.999451626753798283e-01 -1.369364800497896995e-01 -5.095414894981405984e-01 8.494797648629366371e-01
1.289640851575694358e-01 -1.498326196190204879e-02 -8.285317126775576524e-01 -6.561092246234375702e-01 -3.798933078797537277e-01 6.520749650095533090e-01
-5.195896847051320599e-02 6.955597162710966397e-02 -8.565862285679590737e-01 -8.292554563997998202e-03 -5.021744517950719189e-01 8.647265773081813656e-01
-2.338321824935554738e-01 -6.432331447237892019e-02 -9.196447775368815636e-01 4.328012544187332944e-01 -6.538380138640840222e-01 6.206278480698725897e-01
-4.257415324012910757e-02 6.137755827269186087e-02 -8.612456969550413843e-01 -8.292554563997998202e-03 -5.021744517950719189e-01 8.647265773081813656e-01
-2.584172559236075015e-02 1.393845227478318904e-01 -7.993441531691752866e-01 -4.638049581177811770e-02 -6.782248830507721093e-01 7.333892947262183881e-01
-9.062925799846141550e-02 6.328809714195199332e-02 -8.632218784579869242e-01 -1.932299381512242453e-01 -5.734995957551399792e-01 7.960907012839461006e-01
-1.013021733544485353e-01 1.748748336407875831e-02 -9.117075687426022812e-01 -2.634909748792612638e-01 -7.998836691580645253e-01 5.392203834902833393e-01
2.559529877823794181e-02 9.302168051806640470e-02 -8.188499713035140015e-01 -6.836152908273200879e-01 -4.714458919633939815e-01 5.571435228896755021e-01
-2.997884813229027140e-02 2.994829508678884325e-02 -8.806341243950213116e-01 7.138952496927980507e-02 -5.503556845048472868e-01 8.318726803170433115e-01
-1.298252387423705911e-01 9.849657091756104654e-02 -8.451821568971649157e-01 -1.569627447786608454e-01 -6.106699389082438367e-01 7.761732554432357878e-01
-2.370763923707721807e-02 1.011708842064833747e-01 -8.345736322605423751e-01 -3.371021813678222109e-03 -6.492998950650972212e-01 7.605250045070086617e-01
1.521044878470672879e-01 -3.208458880022806159e-02 -7.988529000645550049e-01 -8.939865883954722925e-01 -7.981086341920443084e-02 4.409287990699923832e-01
7.150149217597341622e-02 -1.365956631362312268e-01 -9.434685015376251815e-01 -3.474036249497145512e-01 -5.629753614713112198e-01 7.499129707826398539e-01
1.840955372911853016e-01 -1.178489390320568674e-02 -7.250299647262230529e-01 -9.084967176667743116e-01 -1.751081212718005320e-01 3.794349217630842985e-01
-3.672936226331263015e-02 7.161800499386450358e-02 -8.552426907995107630e-01 -8.292554563997998202e-03 -5.021744517950719189e-01 8.647265773081813656e-01
8.429023446954286847e-02 -6.092424429974305222e-02 -8.889951227495073161e-01 -5.559137378317492439e-01 -3.392812768363037690e-01 7.588465795391454716e-01
1.769477115339040119e-01 1.261550885661306791e-02 -6.861796643180205768e-01 -9.552863323679746665e-01 -2.909272866276974567e-01 -5.281417505167402410e-02
-9.928490581199124476e-02 -6.836398139666668983e-02 -9.639463126297523887e-01 -1.139258140374158623e-01 -4.289750401537204549e-01 8.961034113432591042e-01
-2.737399616696186561e-02 3.364586288710273709e-02 -8.784114064754713347e-01 7.138952496927980507e-02 -5.503556845048472868e-01 8.318726803170433115e-01
-7.518013330592789034e-02 1.264385334266480421e-01 -8.132294726462158119e-01 -3.371021813678222109e-03 -6.492998950650972212e-01 7.605250045070086617e-01
-1.476312181102424903e-01 -6.475714798775415726e-02 -9.591654194324050753e-01 1.920950483037696666e-01 -4.223096323455988732e-01 8.858634583530905493e-01
1.768569145428260381e-01 -1.073436653957473563e-01 -8.377094442626988879e-01 -4.650744119848954639e-01 -7.469685023985792593e-01 4.751250864154904496e-01
-1.202779608033045511e-01 8.013379577900346662e-02 -8.576987281052523837e-01 -1.569627447786608454e-01 -6.106699389082438367e-01 7.761732554432357878e-01
1.589408708027831574e-01 5.403558785404102144e-02 -7.203396321936826885e-01 -7.626401327500412775e-01 -6.204427845776989692e-01 1.828408569889954094e-01
1.314928745116702991e-01 -9.466836088713484476e-02 -8.694597662682234107e-01 -5.826244246713706554e-01 -3.373366395492010672e-01 7.394273266481341533e-01
1.858314572463081737e-01 -9.076236771056002406e-02 -8.069499088955357502e-01 -1.862736350730473112e-01 -7.850491752523126587e-01 5.907621562967086959e-01
-1.305168783500600463e-02 8.618866543253370094e-02 -8.465539769072945031e-01 -8.292554563997998202e-03 -5.021744517950719189e-01 8.647265773081813656e-01
1.542616109008012326e-01 -7.960302555357430532e-02 -8.162142908061615909e-01 -4.650744119848954639e-01 -7.469685023985792593e-01 4.751250864154904496e-01
-8.485310345739002780e-03 1.769809377399931549e-01 -7.669233638321437674e-01 1.558905665989880618e-01 -6.135396318057588783e-01 7.741235375888657622e-01
1.237531096813022924e-02 8.449644352155417926e-02 -8.427161482519578417e-01 -6.737372724973493820e-01 -5.233588910583613085e-01 5.217025577836424954e-01
-2.145668637608064422e-01 1.071008225010493115e-01 -8.342499994073234726e-01 5.256677557079311169e-01 -3.704075499141548655e-01 7.658143754041053519e-01
3.256472823889359786e-03 1.738854451944674695e-01 -7.565373684712707325e-01 -7.104189457273636377e-01 -5.147152435851074515e-01 4.799720195727502636e-01
1.762206861110418299e-01 -1.050151322708264140e-01 -8.346714077990856628e-01 -4.650744119848954639e-01 -7.469685023985792593e-01 4.751250864154904496e-01
-1.324074082635936234e-01 -5.207314958725198228e-02 -9.491166277536006168e-01 3.607215568506742520e-01 -6.348038855370613520e-01 6.833037284621498175e-01
-1.046393597436478945e-01 5.954146347804437772e-02 -8.693215150667008562e-01 -1.932299381512242453e-01 -5.734995957551399792e-01 7.960907012839461006e-01
6.754334497578776131e-02 5.721839827827727987e-02 -7.988356786030187395e-01 -6.737372724973493820e-01 -5.233588910583613085e-01 5.217025577836424954e-01
-4.563270546598761912e-02 2.356421718206798757e-02 -8.835143633821728182e-01 7.138952496927980507e-02 -5.503556845048472868e-01 8.318726803170433115e-01
-7.344007053616827263e-02 -1.729678221078510131e-02 -9.311377661654237636e-01 -6.394758730865045260e-02 -3.747366101101572977e-01 9.249233368882799899e-01
-6.413935057246891724e-02 -5.020017253095433729e-02 -9.464225167449986653e-01 -1.275154885792433301e-01 -5.570973207571755514e-01 8.205987907483006660e-01
-1.461018900370737172e-01 2.303249132154540357e-02 -8.999805270756141562e-01 5.129133043274840542e-01 -2.428974203575484381e-01 8.233594509249958504e-01
1.509637682269825976e-01 6.564186702817270680e-02 -7.142284510254469643e-01 -7.626401327500412775e-01 -6.204427845776989692e-01 1.828408569889954094e-01
-2.093327555812034557e-01 1.229940770729307797e-01 -8.176929784487191322e-01 -8.317861273091288477e-02 -8.442926179776434337e-01 5.293876591049493374e-01
1.464198768558110930e-01 6.968601877584160165e-02 -7.194580761906316235e-01 -7.626401327500412775e-01 -6.204427845776989692e-01 1.828408569889954094e-01
-1.268147775530546473e-01 -1.909885156103115558e-02 -9.244245424748188666e-01 5.129133043274840542e-01 -2.428974203575484381e-01 8.233594509249958504e-01
1.739754585210420701e-01 -8.951967990007102249e-02 -8.125079454788252109e-01 -4.650744119848954639e-01 -7.469685023985792593e-01 4.751250864154904496e-01
-1.651253509424095989e-01 -5.040215051745498137e-02 -9.376529277249037175e-01 1.633386981971096941e-01 -7.861636585963717172e-01 5.960429276265603038e-01
-7.243816910849237845e-02 -6.536158140028661134e-02 -9.582066950380403458e-01 -1.366931441246453660e-01 -5.660100607393740990e-01 8.129868359888301477e-01
-4.102564244552486805e-02 -2.061237806240790241e-02 -9.254072941005332398e-01 -3.625795327149584080e-01 -7.101914657029995137e-01 6.034601598273306999e-01
2.793839744516337167e-02 3.431575345901407420e-02 -8.652150547818017179e-01 -5.836184643201500766e-01 -4.691023265311719537e-01 6.628216165361775492e-01
-1.956619623798012131e-01 -8.109129756569265213e-02 -9.547977469669628459e-01 3.568957956840017598e-01 -3.575154605779315431e-01 8.630226453986202806e-01
9.831842796079214020e-02 3.534700018000155181e-02 -7.962098053543761322e-01 -3.854423045755459021e-01 -6.800509811555476292e-01 6.236705002426116140e-01
-1.437881333800325456e-01 -4.516092999383237300e-02 -9.366870501237604119e-01 3.607215568506742520e-01 -6.348038855370613520e-01 6.833037284621498175e-01
1.167311836023365856e-04 -4.165696542996016188e-02 -9.289153246261264707e-01 -6.881196742159802204e-02 -6.786482391226563715e-01 7.312328498332707483e-01
-1.195780246792992052e-02 -6.890530834024553852e-02 -9.439400076272037587e-01 -3.736415351567493603e-01 -3.373938985684193925e-01 8.640355087694665537e-01
1.910620839322221265e-01 -7.648211904466127586e-02 -7.863239680593101522e-01 -1.862736350730473112e-01 -7.850491752523126587e-01 5.907621562967086959e-01
-4.069535036461430222e-02 1.155800931838095041e-01 -8.223470363208058576e-01 -3.371021813678222109e-03 -6.492998950650972212e-01 7.605250045070086617e-01
1.451992226914122219e-01 7.064724919052721430e-02 -7.212877076219194050e-01 -7.626401327500412775e-01 -6.204427845776989692e-01 1.828408569889954094e-01
2.222784723456139311e-02 -4.175525751504966659e-02 -9.194894626826838335e-01 -6.370319738250599384e-01 -7.692115531173417953e-01 5.003849393571623699e-02
1.796748111704424000e-01 4.263974026291111885e-03 -6.895020989154911906e-01 -9.552863323679746665e-01 -2.909272866276974567e-01 -5.281417505167402410e-02
-8.545284800107957879e-02 1.041325483015480280e-01 -8.323187902364835855e-01 -3.371021813678222109e-03 -6.492998950650972212e-01 7.605250045070086617e-01
-1.046499248728160192e-01 4.211725379641829276e-02 -8.818763893943387666e-01 -1.932299381512242453e-01 -5.734995957551399792e-01 7.960907012839461006e-01
-1.852616135715744461e-01 3.816935342267047115e-02 -8.762438614514999058e-01 3.759096371576703954e-01 -1.550298651389921401e-01 9.135960188217627786e-01
-1.970269156605345406e-01 1.168643378036528097e-01 -8.272876223875492707e-01 7.225459897619247729e-02 -8.075339963388208364e-01 5.853786105452120081e-01
-1.366056567537939359e-01 -2.330394874848022973e-03 -9.133784713264813115e-01 5.129133043274840542e-01 -2.428974203575484381e-01 8.233594509249958504e-01
5.891426182995487815e-02 5.602725659602165315e-02 -8.111743751202296071e-01 -6.737372724973493820e-01 -5.233588910583613085e-01 5.217025577836424954e-01
1.628140172623238069e-01 4.888599079215205645e-02 -7.216588855292848104e-01 -7.626401327500412775e-01 -6.204427845776989692e-01 1.828408569889954094e-01
-3.650452533205194444e-02 1.082562612288078957e-01 -8.285811981552722028e-01 -3.371021813678222109e-03 -6.492998950650972212e-01 7.605250045070086617e-01
4.907213804981569449e-02 1.003104193230667796e-01 -7.838762679882625983e-01 -6.836152908273200879e-01 -4.714458919633939815e-01 5.571435228896755021e-01
-1.893030927491773929e-01 -4.541090753765118088e-02 -9.244439886550955832e-01 1.633386981971096941e-01 -7.861636585963717172e-01 5.960429276265603038e-01
6.302696189149060990e-02 3.768940606085752903e-02 -8.242592214499454562e-01 -6.737372724973493820e-01 -5.233588910583613085e-01 5.217025577836424954e-01
1.720547612721925190e-01 -1.423110840567509000e-02 -7.533432722115451785e-01 -9.039128252182222489e-01 -8.798848116148692833e-02 4.185685506448213467e-01
1.609665597904701498e-02 7.486130973150266488e-02 -8.469462543889091366e-01 -5.836184643201500766e-01 -4.691023265311719537e-01 6.628216165361775492e-01
2.664017272595346764e-02 4.740128854996669694e-02 -8.570970530391568420e-01 -5.836184643201500766e-01 -4.691023265311719537e-01 6.628216165361775492e-01
1.923644503348423684e-01 -8.402018728086081689e-02 -7.959304698761949792e-01 -1.862736350730473112e-01 -7.850491752523126587e-01 5.907621562967086959e-01
7.415675652197808998e-02 1.885122473224730422e-02 -8.291292693853891116e-01 -3.854423045755459021e-01 -6.800509811555476292e-01 6.236705002426116140e-01
-4.626707535539974908e-02 2.619466454854831386e-02 -8.817196548152029800e-01 7.138952496927980507e-02 -5.503556845048472868e-01 8.318726803170433115e-01
-6.234211953146766988e-02 1.044493546273195100e-01 -8.319458779953347038e-01 -3.371021813678222109e-03 -6.492998950650972212e-01 7.605250045070086617e-01
2.095134776045453825e-02 1.090799633852451572e-01 -8.085541369023838687e-01 -5.809922891225859365e-01 -5.993025642830325239e-01 5.507126259891623743e-01
-1.682939302979336027e-01 -5.581508160620508169e-02 -9.439241171110115403e-01 1.633386981971096941e-01 -7.861636585963717172e-01 5.960429276265603038e-01
2.377775886792435345e-01 -1.217470149962811971e-01 -8.157183844443438581e-01 -4.957201457692315127e-01 -6.969243195481248376e-01 5.182258483527379944e-01
1.720073429636546636e-01 -1.227603376188467071e-01 -8.546482282252142459e-01 -5.525294019932043277e-01 -4.755543675161652550e-01 6.845139176593360020e-01
-2.012174600062735519e-02 1.531414037104562031e-01 -7.862603046040019805e-01 -4.638049581177811770e-02 -6.782248830507721093e-01 7.333892947262183881e-01
-1.607961878074010420e-01 -8.109000637903328312e-02 -9.640968768610727047e-01 1.920950483037696666e-01 -4.223096323455988732e-01 8.858634583530905493e-01
6.369106796810647397e-02 5.432304742211242765e-03 -8.541764502883573140e-01 -5.836184643201500766e-01 -4.691023265311719537e-01 6.628216165361775492e-01
-9.563196160675321855e-02 7.506875919069652681e-02 -8.559494246979738596e-01 -1.932299381512242453e-01 -5.734995957551399792e-01 7.960907012839461006e-01
-8.679357921360975059e-02 3.346521897302866949e-02 -8.837751151348859358e-01 -1.932299381512242453e-01 -5.734995957551399792e-01 7.960907012839461006e-01
-1.732508344755595009e-01 1.237200954321332133e-02 -8.862129663043294414e-01 5.129133043274840542e-01 -2.428974203575484381e-01 8.233594509249958504e-01
-8.617432674644164015e-02 -1.111697983262636968e-01 -9.826608987324882971e-01 -1.197635486573355584e-01 -4.863371458990923268e-01 8.655246229494150123e-01
-2.447814321483989530e-01 -8.076642972933474607e-02 -9.281461824175858411e-01 6.305955744211589886e-01 -5.692720740425974979e-01 5.275211154405934355e-01
1.758348002128038920e-02 1.208969323353425995e-01 -7.992475868711480524e-01 -5.809922891225859365e-01 -5.993025642830325239e-01 5.507126259891623743e-01
1.446634961968069726e-02 3.541996751170969904e-02 -8.762957834406369662e-01 -5.836184643201500766e-01 -4.691023265311719537e-01 6.628216165361775492e-01
-1.754118792125661797e-01 -9.866350753492512948e-02 -9.693051929081970552e-01 1.920950483037696666e-01 -4.223096323455988732e-01 8.858634583530905493e-01
2.118001501507032758e-01 -1.203757816377409168e-01 -8.311910922962708614e-01 -3.364250792210591867e-01 -7.316607644591136550e-01 5.928665042167667876e-01
-9.165077936587844032e-02 7.610006375429204106e-02 -8.542401516888799007e-01 -1.932299381512242453e-01 -5.734995957551399792e-01 7.960907012839461006e-01
1.082836203755635357e-01 3.067030834651406079e-02 -7.951505635597010402e-01 -3.854423045755459021e-01 -6.800509811555476292e-01 6.236705002426116140e-01
-1.040901381485528562e-02 1.998835533503160455e-01 -7.327865930473200784e-01 -5.113911865602074336e-01 -8.259314179145564871e-01 2.373106554923175016e-01
1.448588927436241514e-01 -1.010792081466621410e-02 -8.095654867914369168e-01 -8.939865883954722925e-01 -7.981086341920443084e-02 4.409287990699923832e-01
1.094921708603079080e-01 -1.383287951845042218e-01 -9.085500317897013955e-01 -5.780812249352872412e-01 -3.666194665289393972e-01 7.289802906384739156e-01
1.716328415883396075e-01 3.432148738905843599e-02 -6.704565178789597679e-01 -9.925015817619534664e-01 -7.239181839278867325e-02 -9.848875483935326525e-02
1.652497106124067514e-02 6.898368562519627267e-02 -8.507289230431566152e-01 -5.836184643201500766e-01 -4.691023265311719537e-01 6.628216165361775492e-01
7.149426231742279925e-02 -1.145879922254301880e-01 -9.276787463944181633e-01 -3.452769417971328081e-01 -4.683743379426754117e-01 8.132707501318242604e-01
1.643280892273200899e-01 5.689654175277510106e-02 -6.881610082536546713e-01 -7.626401327500412775e-01 -6.204427845776989692e-01 1.828408569889954094e-01
-1.274073901048165258e-01 1.228763520692207484e-02 -9.129464052164373289e-01 1.378506103334766753e-01 -4.817284193379631763e-01 8.654102722020553529e-01
-1.944518508917419397e-01 1.050625830986305076e-01 -8.439528557701246880e-01 -8.317861273091288477e-02 -8.442926179776434337e-01 5.293876591049493374e-01
4.860707988215606790e-02 -1.102805132791878362e-01 -9.349148405942891982e-01 -3.452769417971328081e-01 -4.683743379426754117e-01 8.132707501318242604e-01
-1.191032690469223249e-01 -8.221818556924445631e-02 -9.706199881562667109e-01 1.027757878564258681e-01 -3.253290353369080457e-01 9.399990192533436151e-01
2.159704394288338714e-01 -1.200443440038113790e-01 -8.284156111353727647e-01 -3.364250792210591867e-01 -7.316607644591136550e-01 5.928665042167667876e-01
1.175337137356781553e-01 -6.741666016650929572e-02 -8.680261580028999502e-01 -5.826244246713706554e-01 -3.373366395492010672e-01 7.394273266481341533e-01
-9.013236226863853562e-02 -1.113167716642342597e-01 -9.832911603785440269e-01 -1.197635486573355584e-01 -4.863371458990923268e-01 8.655246229494150123e-01
1.077007186422353630e-01 -1.827997418049329137e-02 -8.493025949962312859e-01 -3.813255984089307660e-01 -6.863936376868786660e-01 6.192370807219516049e-01
4.213594675065210349e-02 5.913743586044358652e-02 -8.297221781229954241e-01 -6.737372724973493820e-01 -5.233588910583613085e-01 5.217025577836424954e-01
3.303876066498685760e-02 5.178532923767965868e-02 -8.483603166254107819e-01 -5.836184643201500766e-01 -4.691023265311719537e-01 6.628216165361775492e-01
1.693517616474415344e-01 5.091534355965716269e-02 -6.715238683833898437e-01 -9.085475422912917542e-01 -4.161973607459801827e-01 -3.634721866297647985e-02
1.503008181451008229e-01 -1.003992315091028001e-02 -7.985196324800462042e-01 -8.939865883954722925e-01 -7.981086341920443084e-02 4.409287990699923832e-01
1.246189982278852609e-01 -1.190676408907579975e-01 -8.868843743260025336e-01 -5.086152693023875404e-01 -4.264372710464218730e-01 7.479717653059775317e-01
-2.279287955012584965e-01 6.312587724485736740e-02 -8.454131054614200114e-01 5.317846086255141325e-01 -3.536055800438441810e-01 7.695246739324640428e-01
-2.017931469884628737e-01 -8.244508905759038997e-02 -9.528230680524202301e-01 3.568957956840017598e-01 -3.575154605779315431e-01 8.630226453986202806e-01
-2.042749417508171184e-01 -7.515899923705290919e-02 -9.487784095570175324e-01 3.568957956840017598e-01 -3.575154605779315431e-01 8.630226453986202806e-01
-5.124689050662715323e-02 -3.615614343436728689e-02 -9.372443185151290157e-01 -6.394758730865045260e-02 -3.747366101101572977e-01 9.249233368882799899e-01
-1.145317284989001289e-01 -5.366729903443851618e-02 -9.571424951599789566e-01 -1.366931441246453660e-01 -5.660100607393740990e-01 8.129868359888301477e-01
-1.811559053733952096e-01 1.740450286225758356e-02 -8.814568299440805887e-01 3.759096371576703954e-01 -1.550298651389921401e-01 9.135960188217627786e-01
-9.414240224076794727e-02 2.423716117581151477e-02 -8.981964101376885834e-01 -2.634909748792612638e-01 -7.998836691580645253e-01 5.392203834902833393e-01
-1.135952275508073789e-02 1.434084351712409666e-01 -7.947070398307777284e-01 -4.638049581177811770e-02 -6.782248830507721093e-01 7.333892947262183881e-01
1.532653770638141982e-02 3.063453070586904647e-03 -8.959619359141322015e-01 -7.218565061021670060e-01 -3.953796086233672402e-01 5.679772439832473374e-01
-9.882549268726477723e-03 -3.809995630539363826e-02 -9.272759852382590484e-01 -3.625795327149584080e-01 -7.101914657029995137e-01 6.034601598273306999e-01
1.815886967467940372e-01 -8.386120498471313868e-04 -7.259805191832674476e-01 -9.084967176667743116e-01 -1.751081212718005320e-01 3.794349217630842985e-01
-2.356278774696244360e-01 -8.211462216674339509e-02 -9.357305612987475429e-01 4.363023803151029334e-01 -5.144150584320341668e-01 7.382529245385638372e-01
1.771138657683269668e-01 1.260984643554069820e-02 -6.891538188183484737e-01 -9.552863323679746665e-01 -2.909272866276974567e-01 -5.281417505167402410e-02
3.570175282989138110e-02 6.094697704193888232e-02 -8.362161405279593396e-01 -6.737372724973493820e-01 -5.233588910583613085e-01 5.217025577836424954e-01
4.329886072661193880e-02 3.178477904159453249e-02 -8.534813336569443409e-01 -5.836184643201500766e-01 -4.691023265311719537e-01 6.628216165361775492e-01
1.525655064102457159e-01 -4.597958172001087584e-02 -8.004332617263891780e-01 -8.939865883954722925e-01 -7.981086341920443084e-02 4.409287990699923832e-01
-1.655353286734329299e-01 5.532890095021196497e-02 -8.806145380195914418e-01 3.880875853007670351e-01 -2.572909111418036354e-01 8.849798942231628107e-01
4.968755851627591064e-02 8.169979902619349532e-02 -7.988691545632812252e-01 -6.836152908273200879e-01 -4.714458919633939815e-01 5.571435228896755021e-01
-2.824363506471578439e-02 1.002819476961648582e-01 -8.353526695311646044e-01 -3.371021813678222109e-03 -6.492998950650972212e-01 7.605250045070086617e-01
-3.131514944647026399e-02 1.834485369857308604e-02 -8.881596567269975928e-01 7.029543288360316777e-02 -5.464167583028290975e-01 8.345581336021682395e-01
-1.395799731309176894e-01 -7.156783327163560027e-02 -9.641580876023835289e-01 1.920950483037696666e-01 -4.223096323455988732e-01 8.858634583530905493e-01
-1.482120095176009227e-02 1.966935542806858561e-01 -7.445292600483968126e-01 8.682984125981327295e-03 -9.267071292071888955e-01 3.756840460589699893e-01
1.739227635623921409e-01 2.726039663200563803e-02 -7.121368246601316176e-01 -9.552863323679746665e-01 -2.909272866276974567e-01 -5.281417505167402410e-02
8.642213897226733166e-03 1.162030713758059886e-01 -8.137884729968712927e-01 -5.809922891225859365e-01 -5.993025642830325239e-01 5.507126259891623743e-01
-1.647943980440633449e-01 4.392438650178916854e-02 -8.836887511186199973e-01 3.759096371576703954e-01 -1.550298651389921401e-01 9.135960188217627786e-01
-1.084730118431146001e-01 2.638306479940435469e-03 -9.213337235880029175e-01 1.378506103334766753e-01 -4.817284193379631763e-01 8.654102722020553529e-01
-1.572507622544388750e-01 -4.473819973144249618e-02 -9.323402781486059832e-01 1.633386981971096941e-01 -7.861636585963717172e-01 5.960429276265603038e-01
1.106593086472487490e-02 -9.763371612358122398e-02 -9.453516881328670740e-01 -3.235284119758028987e-01 -3.045372145378106299e-01 8.958718946400578975e-01
-6.917238302608276490e-02 -6.290087268305299961e-02 -9.559444241417233146e-01 -1.366931441246453660e-01 -5.660100607393740990e-01 8.129868359888301477e-01
-9.951431255611187243e-02 -4.261895471906852056e-02 -9.469255377983553101e-01 -1.366931441246453660e-01 -5.660100607393740990e-01 8.129868359888301477e-01
1.359422516538669745e-01 -4.944894708088751895e-02 -8.347650175213856549e-01 -8.939865883954722925e-01 -7.981086341920443084e-02 4.409287990699923832e-01
5.705019789446957174e-02 -7.687019494710049805e-02 -9.164826858673187360e-01 -3.997039808051216503e-01 -3.173189205694534332e-01 8.599682728898642159e-01
7.987922236943161003e-02 2.384843337013890438e-02 -8.201436959789918379e-01 -3.854423045755459021e-01 -6.800509811555476292e-01 6.236705002426116140e-01
-1.768058060743755988e-02 2.053030576603982471e-01 -7.232259436232509886e-01 8.682984125981327295e-03 -9.267071292071888955e-01 3.756840460589699893e-01
-7.038529941293172887e-02 7.341344366941744692e-02 -8.545227756798093877e-01 -8.292554563997998202e-03 -5.021744517950719189e-01 8.647265773081813656e-01
1.647535475728405252e-01 6.058934804234471921e-02 -6.673584612783105552e-01 -9.085475422912917542e-01 -4.161973607459801827e-01 -3.634721866297647985e-02
2.037901736493038726e-02 5.654259665337723478e-02 -8.561404110009994683e-01 -5.836184643201500766e-01 -4.691023265311719537e-01 6.628216165361775492e-01
-4.760727578436098686e-03 -6.140081137805473988e-02 -9.387504159552269023e-01 -3.235284119758028987e-01 -3.045372145378106299e-01 8.958718946400578975e-01
-2.064462545043487807e-01 -8.591773989988003846e-02 -9.523373934919523442e-01 3.568957956840017598e-01 -3.575154605779315431e-01 8.630226453986202806e-01
-7.099521762183098883e-02 8.834884710533789931e-02 -8.457300764961209749e-01 -3.371021813678222109e-03 -6.492998950650972212e-01 7.605250045070086617e-01
-8.381173500852763525e-02 -1.240433307259017903e-01 -9.911328956427793990e-01 -1.507893437166742401e-01 -5.787012739209984602e-01 8.014782650725521540e-01
-4.785301584860977148e-02 -9.085330267636688995e-02 -9.675163106816697667e-01 -1.510134906824746048e-01 -3.885443716174249440e-01 9.089709549354778595e-01
1.565219957768192519e-03 1.291443796763552809e-01 -8.071338300214102590e-01 -4.837430754809968897e-02 -6.876385365735209199e-01 7.244399004667456676e-01
6.934615197486063143e-02 -1.049873257655558993e-02 -8.609522024316106359e-01 -3.138736198384606269e-01 -6.069528178870456925e-01 7.301312400031081395e-01
-7.540262965346472557e-02 -1.350486119594200285e-01 -9.974970941672394176e-01 -1.507893437166742401e-01 -5.787012739209984602e-01 8.014782650725521540e-01
1.688420293280092077e-01 5.740656680834272003e-03 -7.534640783557555732e-01 -9.084967176667743116e-01 -1.751081212718005320e-01 3.794349217630842985e-01
1.128231058510788670e-01 -2.061849669197463389e-02 -8.480555926957762392e-01 -6.561092246234375702e-01 -3.798933078797537277e-01 6.520749650095533090e-01
1.618189588095781117e-01 1.064861691241537900e-02 -7.680146969252169553e-01 -9.084967176667743116e-01 -1.751081212718005320e-01 3.794349217630842985e-01
1.741745650013424018e-01 2.237249932111917347e-02 -6.897663109161356054e-01 -9.552863323679746665e-01 -2.909272866276974567e-01 -5.281417505167402410e-02
1.254201458201133212e-01 -3.816434606086268472e-02 -8.456026793711504119e-01 -6.561092246234375702e-01 -3.798933078797537277e-01 6.520749650095533090e-01
-5.325702373189932642e-02 9.855573013123312964e-02 -8.369373032453210071e-01 -3.371021813678222109e-03 -6.492998950650972212e-01 7.605250045070086617e-01
-5.563592774328850188e-02 -1.262480546928190228e-01 -9.874238307217928501e-01 -1.507893437166742401e-01 -5.787012739209984602e-01 8.014782650725521540e-01
1.405090711592568153e-01 -2.375064260054965404e-02 -8.208542018265072571e-01 -8.939865883954722925e-01 -7.981086341920443084e-02 4.409287990699923832e-01
-9.241900126831474604e-02 -8.216336547318505920e-03 -9.287709553078200564e-01 -6.394758730865045260e-02 -3.747366101101572977e-01 9.249233368882799899e-01
4.103068771895097139e-02 -5.411961803217448658e-02 -9.088118764747610268e-01 -2.869154428480197860e-01 -6.170181024818052196e-01 7.327811336716284485e-01
7.440420205063555392e-02 -1.174806035275557242e-01 -9.281092178107380741e-01 -3.452769417971328081e-01 -4.683743379426754117e-01 8.132707501318242604e-01
-2.249301265282105111e-01 9.846548556923585827e-02 -8.312463905228019145e-01 5.317846086255141325e-01 -3.536055800438441810e-01 7.695246739324640428e-01
1.427259992333678451e-01 4.937592336527690112e-02 -7.602517183129167133e-01 -3.370102862508070340e-01 -6.221069652642335912e-01 7.066873359066757621e-01
6.235140850883642838e-02 6.912322334079518127e-02 -7.939727024971046099e-01 -6.836152908273200879e-01 -4.714458919633939815e-01 5.571435228896755021e-01
1.265764204760702616e-01 -2.018208879066654693e-02 -8.339629414993245948e-01 -6.561092246234375702e-01 -3.798933078797537277e-01 6.520749650095533090e-01
4.396534214362678855e-02 -5.934660762221615621e-02 -9.131741337086415333e-01 -6.370319738250599384e-01 -7.692115531173417953e-01 5.003849393571623699e-02
1.790696547426550989e-01 -7.953674809230198983e-02 -7.941645301936296475e-01 -1.862736350730473112e-01 -7.850491752523126587e-01 5.907621562967086959e-01
8.855516100636647014e-02 4.840339666705924943e-02 -7.880070137772706707e-01 -3.854423045755459021e-01 -6.800509811555476292e-01 6.236705002426116140e-01
-1.652089547460369179e-01 -2.470447775339329813e-02 -9.063743406566018290e-01 3.607215568506742520e-01 -6.348038855370613520e-01 6.833037284621498175e-01
