1.755866881422291428e-02 1.356243271736541633e-01 -8.513792149951484589e-01 -9.458728463287764399e-01 -1.689533324868666697e-01 -2.770908335176056059e-01
3.715576123071615000e-02 -9.301538036483736338e-02 -9.334561161804494356e-01 -8.905735220413156794e-01 3.284360044921778576e-01 -3.146563089978346994e-01
7.656299044656356134e-02 -2.100130998978468749e-02 -1.065726103374809997e+00 -9.968911070669469465e-01 -9.473469590676030644e-03 7.822003595468235426e-02
2.296605655170458338e-02 5.713671297177885106e-02 -8.435483760213327020e-01 -7.282477581067716699e-01 2.219903730786126073e-01 -6.483636919761003314e-01
5.712171404839044148e-02 -4.543311225845423490e-02 -9.618895117876208323e-01 -9.791515551155793862e-01 1.654974093784337685e-01 -1.177830191656243225e-01
1.583911291451470596e-02 -1.322312943827866072e-01 -9.191922027890290225e-01 -8.893268483982926798e-01 1.776080598729873894e-01 -4.213705421432706877e-01
7.093254577650752457e-02 -3.491557528697329660e-02 -1.119631905762428437e+00 -9.670658210058626914e-01 -4.896649100843089575e-02 2.497718571027931767e-01
6.134435677680158449e-04 -1.260929842282066948e-01 -8.822904476007803476e-01 -7.744678231878235897e-01 2.789238937912281169e-01 -5.678037093213232911e-01
3.130470772090367115e-02 6.095407424836030673e-03 -8.706709469368725252e-01 -7.448625044826561181e-01 2.940618124032174929e-01 -5.989219480883632984e-01
-4.324148635121111139e-02 -1.424682467591793511e-01 -8.353749313278154842e-01 -7.362601102669443787e-01 3.557143138992786002e-01 -5.756634232925280648e-01
8.292317397268862342e-03 2.816344674108945886e-02 -8.371783938639448808e-01 -6.174345263191215460e-01 1.598935981963187647e-01 -7.702003914338892976e-01
-2.076343670058906563e-02 -1.228170763010769662e-01 -8.519809693540901785e-01 -7.362601102669443787e-01 3.557143138992786002e-01 -5.756634232925280648e-01
5.940289521137952222e-02 -7.025673205432518553e-02 -9.758558616840665723e-01 -9.621134661321969483e-01 1.067262195877089620e-02 -2.724404034419549148e-01
6.133810699092607371e-02 -1.231686009190196135e-01 -1.012536380579110107e+00 -9.706253939334502645e-01 8.077589442382604457e-02 -2.266309765490264472e-01
1.180051000368866239e-02 6.409692308985046050e-02 -8.325309623269901982e-01 -6.174345263191215460e-01 1.598935981963187647e-01 -7.702003914338892976e-01
4.685288461249014630e-02 1.112308206085676349e-01 -1.059249819174665541e+00 -9.221708603677704064e-01 1.178720936717014972e-01 3.683844103949244775e-01
5.941156838540895962e-02 -1.197213070607453383e-01 -1.003056628206480783e+00 -9.706253939334502645e-01 8.077589442382604457e-02 -2.266309765490264472e-01
1.457284947112089286e-02 1.217218981562555730e-01 -8.327100042992762186e-01 -9.458728463287764399e-01 -1.689533324868666697e-01 -2.770908335176056059e-01
6.197656323189290606e-02 -1.118154111881116825e-01 -1.011224281857179719e+00 -9.706253939334502645e-01 8.077589442382604457e-02 -2.266309765490264472e-01
-1.233788919801174777e-01 -1.291868022996983389e-01 -7.451115976309879985e-01 -8.068410361477109660e-01 -8.031998246135391151e-02 -5.852830450350464675e-01
4.752124085361369293e-02 2.139789994555512387e-01 -1.031793402579646468e+00 -9.239301819402412352e-01 -3.165876094035952742e-02 3.812489236123743352e-01
3.943587710283227854e-02 -1.261613214897238169e-02 -9.136769907359189036e-01 -9.932839083957850645e-01 -6.870727216766782386e-02 -9.309343732654741521e-02
-4.866474142762161614e-02 -2.545706681218431328e-02 -7.840342179469422801e-01 -8.130754571643885598e-01 -4.902431200361128533e-02 -5.800904393191579356e-01
-1.060198336201108489e-02 1.646751066304550162e-02 -8.244597709645103967e-01 -6.174345263191215460e-01 1.598935981963187647e-01 -7.702003914338892976e-01
4.789223656073768320e-02 1.984546808874729229e-01 -1.035188032709600581e+00 -9.072721430988803792e-01 -1.826673994622097230e-01 3.788005801612222001e-01
-1.230806163925921154e-01 -1.813162121452419340e-01 -7.373821618467354400e-01 -7.186465963627963749e-01 -6.097667708773052420e-02 -6.926968416179667409e-01
-2.104358381127025349e-02 -8.270260944270126091e-02 -8.285092041284315423e-01 -7.574906700242288737e-01 3.503667418633917841e-01 -5.508638951885268531e-01
3.381707026815844452e-02 -1.061589661934455864e-01 -9.377257812286236005e-01 -8.905735220413156794e-01 3.284360044921778576e-01 -3.146563089978346994e-01
7.082602273226573653e-02 -1.272574155569070331e-01 -1.043081354857319232e+00 -9.522385454084986156e-01 -3.264858248090022740e-03 -3.053376710118270720e-01
-1.040222949933040791e-01 2.452231493892768552e-02 -7.168196298967300928e-01 -3.515536785627323413e-01 -2.456608799704754209e-02 -9.358453496222183254e-01
5.626273078885862117e-02 3.559165286369030123e-02 -1.035144534456253318e+00 -8.987348212709499462e-01 -5.426205908706124847e-02 4.351222241838564875e-01
-5.508015547161448228e-02 2.583393115667874818e-03 -7.774118859964289641e-01 -8.130754571643885598e-01 -4.902431200361128533e-02 -5.800904393191579356e-01
-3.781058846310112603e-02 -1.698928528252068304e-01 -8.575418890430236418e-01 -7.408587824846857295e-01 3.267127609134380939e-01 -5.868449848738830354e-01
-1.487021423238744054e-02 -6.475582987605799090e-02 -8.328199514485346011e-01 -8.825133597847154565e-01 2.042572637470584096e-02 -4.698435479003187365e-01
6.693670340492224868e-02 -3.583279754571285641e-02 -1.000961404155492618e+00 -9.583342913716738076e-01 4.846650499223656428e-03 -2.856079409962025140e-01
2.212482991721524336e-02 -4.187473154688906019e-02 -8.828068174935601586e-01 -7.448625044826561181e-01 2.940618124032174929e-01 -5.989219480883632984e-01
-1.211293520683043995e-01 3.506427069947426218e-03 -7.100268187584193313e-01 1.176206755907881346e-01 4.286106377744516305e-01 -8.958003671913428168e-01
4.389717048018682011e-02 1.999254880641704035e-01 -9.955506040687738256e-01 -8.918823189760093362e-01 -3.796043848325649783e-01 -2.458585774665308088e-01
4.336043382183556866e-02 6.501616151363652507e-02 -9.450204487021475197e-01 -9.400393924246575050e-01 1.834531110881288882e-02 -3.405721513133476153e-01
4.456322752899165296e-02 5.480839048978096428e-02 -9.488902254756299559e-01 -9.400393924246575050e-01 1.834531110881288882e-02 -3.405721513133476153e-01
4.290670048880199788e-02 9.468096064886805108e-02 -1.063832774689199789e+00 -9.221708603677704064e-01 1.178720936717014972e-01 3.683844103949244775e-01
-1.046275197963918158e-01 -8.913096438513299150e-03 -7.221727488163525166e-01 -5.525289055550324235e-01 1.497422337048545105e-01 -8.199323581681839945e-01
-1.415055148088876225e-01 2.029061509706130487e-02 -7.046715814945930800e-01 1.176206755907881346e-01 4.286106377744516305e-01 -8.958003671913428168e-01
2.595331518704167145e-02 3.078030712965162605e-02 -8.559277440663131120e-01 -7.282477581067716699e-01 2.219903730786126073e-01 -6.483636919761003314e-01
5.398368676854200382e-02 -1.159905141123739221e-02 -9.494468947991420160e-01 -8.116342336925118639e-01 -9.177281276557212875e-02 -5.769121436886766041e-01
6.755924616084674206e-02 4.147883715816423622e-02 -1.011077681779368298e+00 -8.987348212709499462e-01 -5.426205908706124847e-02 4.351222241838564875e-01
-1.364992652745295083e-02 -1.644308799596063131e-01 -8.815519908148853334e-01 -6.471530302783345956e-01 2.283734973371205068e-01 -7.273503290131799748e-01
6.725573342308879821e-02 -3.964253746019327958e-03 -1.040709944841366363e+00 -9.345664789515079063e-01 -3.415518320189517287e-01 9.963855912586638830e-02
1.527801463430322748e-02 -1.080408007274515914e-01 -8.984720880133748588e-01 -8.555407203002417527e-01 3.386489260408708790e-01 -3.916209657302689995e-01
7.182412973534950396e-02 -9.663517472186322968e-03 -1.111229337677179352e+00 -9.670658210058626914e-01 -4.896649100843089575e-02 2.497718571027931767e-01
6.393786634618160714e-02 8.727812050651485853e-02 -9.980436018849681012e-01 -8.074448911522448258e-01 -2.355565480062791206e-01 -5.408750876528748419e-01
5.541286213623832640e-02 1.580575836111750010e-01 -9.813921732620659588e-01 -9.411483554188060374e-01 -3.006304665559847433e-02 -3.366541048587706197e-01
5.521551589066725496e-02 1.921096202269832187e-01 -1.018917275760955476e+00 -8.404933868396539109e-01 -3.590226752574116609e-01 -4.057999326390029915e-01
2.354630262022040441e-02 1.152937350415506879e-01 -8.594221333061272672e-01 -9.458728463287764399e-01 -1.689533324868666697e-01 -2.770908335176056059e-01
7.159505727405596209e-02 -8.729419336634799964e-02 -1.044326976642679483e+00 -9.900210703901476395e-01 1.306163551322875038e-01 5.289279682057396181e-02
-6.104971311200869943e-02 -1.931208919504932928e-03 -7.686632052351435318e-01 -8.130754571643885598e-01 -4.902431200361128533e-02 -5.800904393191579356e-01
5.501111209789551898e-02 -4.145303500840551159e-02 -9.515314869275572907e-01 -9.257172368115252903e-01 7.380495468020575878e-02 -3.709453142104472967e-01
5.351287215871259467e-02 4.107169398367121332e-02 -9.623572945193419326e-01 -8.074448911522448258e-01 -2.355565480062791206e-01 -5.408750876528748419e-01
1.717541779692663070e-02 3.720343167299212245e-02 -8.438691479331457135e-01 -7.282477581067716699e-01 2.219903730786126073e-01 -6.483636919761003314e-01
-1.213670631003791328e-01 -7.471337692635797445e-02 -7.580536208393932052e-01 -3.013306890405411664e-01 5.512786458858117689e-01 -7.780049295683534316e-01
3.173226304858414726e-02 7.898370693249660845e-03 -8.703174572794958319e-01 -7.448625044826561181e-01 2.940618124032174929e-01 -5.989219480883632984e-01
1.547957118472744788e-02 1.235125031738305013e-01 -8.368969783620268110e-01 -9.458728463287764399e-01 -1.689533324868666697e-01 -2.770908335176056059e-01
4.261414133979190416e-02 1.082299179430697006e-01 -9.406327906640272740e-01 -9.400393924246575050e-01 1.834531110881288882e-02 -3.405721513133476153e-01
4.891165583650692456e-02 4.572330684227288167e-02 -1.076646628294691377e+00 -9.025147944533394861e-01 -4.018098062480917609e-01 -1.549707243182326943e-01
5.584854569702704663e-02 4.994033524700581400e-02 -9.697064852625466580e-01 -8.074448911522448258e-01 -2.355565480062791206e-01 -5.408750876528748419e-01
4.646858267007556581e-02 -4.247072640094070803e-03 -9.400437230264481192e-01 -8.116342336925118639e-01 -9.177281276557212875e-02 -5.769121436886766041e-01
6.582810534469558938e-02 -2.133907715213457373e-02 -1.136733657948073128e+00 -9.670658210058626914e-01 -4.896649100843089575e-02 2.497718571027931767e-01
1.227078717024649920e-02 -5.144065417678250068e-02 -8.752483460961102413e-01 -7.448625044826561181e-01 2.940618124032174929e-01 -5.989219480883632984e-01
9.165556945058109944e-03 1.779209457130883076e-01 -8.470845506887568765e-01 -9.497457927846530978e-01 -1.587389134650992739e-01 -2.697867425204037439e-01
3.862370698813232667e-02 -1.218543229415984669e-01 -9.622130598599650808e-01 -8.856700311523616476e-01 1.355205426680156366e-01 -4.440977127091981225e-01
6.450960198163006865e-02 3.152862488502054805e-02 -1.018617495285322638e+00 -8.987348212709499462e-01 -5.426205908706124847e-02 4.351222241838564875e-01
-1.443030071744778597e-01 -6.069565468837633676e-02 -7.392375771241902482e-01 -3.013306890405411664e-01 5.512786458858117689e-01 -7.780049295683534316e-01
6.333293094743182305e-02 9.496887279371661605e-02 -9.985346370639393010e-01 -9.400393924246575050e-01 1.834531110881288882e-02 -3.405721513133476153e-01
4.486708298619004366e-03 -8.124016109323485557e-02 -8.698949464222630601e-01 -8.825133597847154565e-01 2.042572637470584096e-02 -4.698435479003187365e-01
6.207001777937401488e-02 1.060740045523686781e-01 -9.952003003147594784e-01 -9.436502512776432372e-01 -3.593551678184791348e-02 -3.289876014339480625e-01
-2.326304415387868765e-02 8.120554275230956742e-02 -7.984489980340017112e-01 -6.240068009890240575e-01 2.198247288935417099e-01 -7.498617211768616730e-01
-8.380492503119195413e-02 4.248744638454243078e-02 -7.297507107391302261e-01 -8.659113966954262720e-01 9.340811323535411215e-03 -5.001101901749196443e-01
2.172275029548614844e-02 -8.824756061318868305e-02 -8.938144154697036381e-01 -8.372034704310035158e-01 3.706202727410234932e-01 -4.021578825929602585e-01
7.629563416138882004e-02 -5.267520156606105008e-02 -1.041833940878514664e+00 -9.900210703901476395e-01 1.306163551322875038e-01 5.289279682057396181e-02
7.396425262476398477e-02 -4.163445495131510438e-03 -1.096806958774787288e+00 -9.968911070669469465e-01 -9.473469590676030644e-03 7.822003595468235426e-02
-1.629543894773688439e-01 1.472677528780849676e-02 -7.091400082340454381e-01 2.908311595701493571e-02 2.091226574287323170e-01 -9.774568463703017240e-01
-1.320572936220072713e-02 1.574144762588858548e-01 -7.974736357309416546e-01 -6.876000923694384204e-01 5.185791533965474626e-02 -7.242353689168771202e-01
-7.651221344893428811e-02 -4.177345439449859504e-02 -7.522859435695069541e-01 -3.185579255107514052e-01 5.628644023768514248e-01 -7.626955569762002840e-01
4.711056921504879619e-02 -1.496960640919085643e-02 -9.392412111855059642e-01 -8.116342336925118639e-01 -9.177281276557212875e-02 -5.769121436886766041e-01
5.931043031317758535e-02 1.367059391197056606e-01 -9.903815019280800547e-01 -9.411483554188060374e-01 -3.006304665559847433e-02 -3.366541048587706197e-01
2.255651000237321457e-02 2.494714297262060412e-02 -8.541096140759996125e-01 -7.282477581067716699e-01 2.219903730786126073e-01 -6.483636919761003314e-01
1.485491108736375354e-02 -9.756114674217025717e-02 -8.881003039539340227e-01 -8.372034704310035158e-01 3.706202727410234932e-01 -4.021578825929602585e-01
4.938676824895554124e-02 1.679562977065436336e-01 -9.661045309414995064e-01 -8.918823189760093362e-01 -3.796043848325649783e-01 -2.458585774665308088e-01
-9.569674438248824966e-02 -1.570144262993480588e-01 -7.800286916037247886e-01 -7.027015885941388929e-01 -1.290158179359725266e-01 -6.996894997851444975e-01
8.619850483566423097e-03 1.381803243425593908e-01 -8.212744008229205805e-01 -9.806032490372651456e-01 -1.873229544783136524e-01 -5.768343525722895854e-02
5.742918992542194595e-02 1.090388261482674315e-01 -1.032072948319685102e+00 -9.221708603677704064e-01 1.178720936717014972e-01 3.683844103949244775e-01
2.657478563588519180e-02 -4.319296460367856062e-03 -8.699019403716615750e-01 -7.448625044826561181e-01 2.940618124032174929e-01 -5.989219480883632984e-01
6.663683189140268137e-02 -3.677673252102942048e-03 -1.051786677272960491e+00 -9.025147944533394861e-01 -4.018098062480917609e-01 -1.549707243182326943e-01
-3.042237434106003988e-02 -9.223588221095453676e-02 -8.216759289107277153e-01 -7.574906700242288737e-01 3.503667418633917841e-01 -5.508638951885268531e-01
8.119910760154583351e-02 -1.261127265452250124e-01 -1.075443521182681383e+00 -9.522385454084986156e-01 -3.264858248090022740e-03 -3.053376710118270720e-01
4.881360456638208362e-02 1.447161226933199873e-01 -1.056679484926863921e+00 -9.036609474031200850e-01 -1.711947964123519961e-01 3.925420153561001713e-01
-3.968350519861738729e-02 -1.573235486594194155e-01 -8.481797593141384706e-01 -7.408587824846857295e-01 3.267127609134380939e-01 -5.868449848738830354e-01
1.347753711086614389e-02 1.386765652405279881e-01 -8.391733936213681133e-01 -9.497457927846530978e-01 -1.587389134650992739e-01 -2.697867425204037439e-01
-8.836980927498941374e-02 -1.881032866621977773e-01 -7.964839666142862207e-01 -7.540543438355600259e-01 2.121900821453018837e-01 -6.215926444078094804e-01
1.231094064472308680e-02 1.722415919763442549e-01 -8.548157700756318089e-01 -9.497457927846530978e-01 -1.587389134650992739e-01 -2.697867425204037439e-01
-1.315320412332022029e-02 1.355414164437029334e-01 -7.990896955002556590e-01 -6.876000923694384204e-01 5.185791533965474626e-02 -7.242353689168771202e-01
4.234159655493403840e-02 2.186156254208938138e-02 -9.383908884738825229e-01 -8.116342336925118639e-01 -9.177281276557212875e-02 -5.769121436886766041e-01
5.644584083305068112e-02 1.859285525358458369e-01 -1.015996961129616460e+00 -8.404933868396539109e-01 -3.590226752574116609e-01 -4.057999326390029915e-01
3.634788428631369195e-02 6.825002578816009857e-02 -9.129408684587936307e-01 -9.904512479142062453e-01 1.561258130800757989e-02 -1.369765410940599060e-01
7.728291417996660528e-02 -2.633466590901729909e-02 -1.057196828562594781e+00 -9.968911070669469465e-01 -9.473469590676030644e-03 7.822003595468235426e-02
9.431017873903994181e-03 1.504233685877598148e-01 -8.318398612090049937e-01 -9.497457927846530978e-01 -1.587389134650992739e-01 -2.697867425204037439e-01
4.001237063912440467e-02 -2.999487677556857829e-02 -9.070017147772176935e-01 -9.932839083957850645e-01 -6.870727216766782386e-02 -9.309343732654741521e-02
5.869213074654012346e-02 1.740212939141852835e-02 -1.060174462133042894e+00 -9.025147944533394861e-01 -4.018098062480917609e-01 -1.549707243182326943e-01
6.467321333254302806e-02 3.947033033425912524e-02 -1.017289186878085117e+00 -8.987348212709499462e-01 -5.426205908706124847e-02 4.351222241838564875e-01
4.550333036486210736e-02 -4.359248290192070663e-02 -9.324268426534525478e-01 -8.116342336925118639e-01 -9.177281276557212875e-02 -5.769121436886766041e-01
-1.100545458775996910e-01 -1.768077111836638127e-01 -7.547847197033525912e-01 -8.151474271980371222e-01 -1.251812370696459842e-01 -5.655654956042969195e-01
-5.882176280444923605e-02 -7.069008872262781684e-02 -7.810150703594689325e-01 -3.185579255107514052e-01 5.628644023768514248e-01 -7.626955569762002840e-01
5.751511641007675535e-02 3.225135159221180492e-02 -1.032974314481262645e+00 -8.987348212709499462e-01 -5.426205908706124847e-02 4.351222241838564875e-01
-7.614615782503869612e-02 1.185208623663288642e-02 -7.435836080952024085e-01 -8.659113966954262720e-01 9.340811323535411215e-03 -5.001101901749196443e-01
-3.098489345151161402e-03 -1.082793720255920411e-01 -8.684768452023337026e-01 -7.744678231878235897e-01 2.789238937912281169e-01 -5.678037093213232911e-01
-1.645290706061458552e-01 1.888104031078736630e-02 -7.082980740755594473e-01 2.908311595701493571e-02 2.091226574287323170e-01 -9.774568463703017240e-01
4.434339308641333660e-02 1.936448315872035253e-01 -9.874720301750757878e-01 -8.918823189760093362e-01 -3.796043848325649783e-01 -2.458585774665308088e-01
1.565513219654106683e-02 8.822919885438633425e-02 -8.308150077318811055e-01 -6.886040326109752474e-01 7.167659282867500092e-02 -7.215864136140419660e-01
4.908919400721156040e-02 4.829272539556776767e-02 -1.048377416228588155e+00 -8.987348212709499462e-01 -5.426205908706124847e-02 4.351222241838564875e-01
-1.267978863458189553e-01 -1.730119727156007037e-01 -7.342566409212599732e-01 -7.186465963627963749e-01 -6.097667708773052420e-02 -6.926968416179667409e-01
4.672796717662287824e-02 1.221630195266889679e-01 -1.063060502674323393e+00 -9.221708603677704064e-01 1.178720936717014972e-01 3.683844103949244775e-01
-7.087040257033346002e-02 -5.224414773800823558e-02 -7.623696841269688163e-01 -3.185579255107514052e-01 5.628644023768514248e-01 -7.626955569762002840e-01
-3.635833053719765562e-02 2.525266341898771763e-02 -8.019882844589627524e-01 -6.174345263191215460e-01 1.598935981963187647e-01 -7.702003914338892976e-01
3.866481621155518078e-02 6.334558417826541277e-02 -9.302531694641471560e-01 -9.904512479142062453e-01 1.561258130800757989e-02 -1.369765410940599060e-01
6.540682307264036877e-02 -8.843288564900300686e-02 -1.010426121978742264e+00 -9.723140525169685633e-01 1.351756470902421292e-01 -1.906119820781586871e-01
-9.008021944772703904e-02 -7.029886367013735149e-02 -7.676705114916205774e-01 -3.185579255107514052e-01 5.628644023768514248e-01 -7.626955569762002840e-01
7.679541520443963765e-02 -3.979944547417570838e-02 -1.064275381650101604e+00 -9.900210703901476395e-01 1.306163551322875038e-01 5.289279682057396181e-02
5.782168683466197556e-02 1.468872556968092435e-01 -9.871287654684073321e-01 -9.411483554188060374e-01 -3.006304665559847433e-02 -3.366541048587706197e-01
-1.471899033183931282e-01 5.177705008272572712e-02 -7.013190033397702638e-01 -3.515536785627323413e-01 -2.456608799704754209e-02 -9.358453496222183254e-01
5.571005505731250335e-02 1.804822941964772942e-01 -1.008383108330482170e+00 -8.918823189760093362e-01 -3.796043848325649783e-01 -2.458585774665308088e-01
7.654351838199364988e-02 -3.858595937848686291e-02 -1.033243013008533495e+00 -9.583342913716738076e-01 4.846650499223656428e-03 -2.856079409962025140e-01
-1.060518537967593787e-02 1.887624896779669867e-02 -8.239571499905070651e-01 -6.174345263191215460e-01 1.598935981963187647e-01 -7.702003914338892976e-01
3.890692262478599034e-02 9.097201622254207087e-02 -9.288549350226933399e-01 -9.904512479142062453e-01 1.561258130800757989e-02 -1.369765410940599060e-01
-3.491524688263857555e-03 5.340285666188235997e-02 -8.224921237053057776e-01 -6.174345263191215460e-01 1.598935981963187647e-01 -7.702003914338892976e-01
-3.837514213779004424e-02 -9.255454527740657189e-02 -8.112881213826064197e-01 -6.696165483546359098e-01 3.188886644363849721e-01 -6.707635185843087156e-01
5.787599811699682684e-02 -7.079970716221618832e-02 -9.704849502136763117e-01 -9.621134661321969483e-01 1.067262195877089620e-02 -2.724404034419549148e-01
5.472692766662708846e-02 3.875452577274876576e-02 -1.099806126375875603e+00 -8.968867928473331919e-01 -4.355242467074352808e-01 -7.689415677375049940e-02
6.359896916015378432e-03 1.491494993161141258e-01 -8.184774185340086827e-01 -9.806032490372651456e-01 -1.873229544783136524e-01 -5.768343525722895854e-02
5.582104110782278028e-02 7.511383662597138910e-02 -1.031128207371849514e+00 -8.987348212709499462e-01 -5.426205908706124847e-02 4.351222241838564875e-01
5.220576936725671024e-02 -5.727431396327119922e-02 -9.476784517498204607e-01 -9.257172368115252903e-01 7.380495468020575878e-02 -3.709453142104472967e-01
-7.404500231488660156e-02 -1.822500092065462429e-01 -8.118632919244256341e-01 -7.540543438355600259e-01 2.121900821453018837e-01 -6.215926444078094804e-01
-8.249918577667726682e-02 -1.948676873072471005e-01 -8.059147536919664123e-01 -7.540543438355600259e-01 2.121900821453018837e-01 -6.215926444078094804e-01
2.497376154968971793e-02 -1.271575820532996892e-01 -9.361845320794246472e-01 -8.555407203002417527e-01 3.386489260408708790e-01 -3.916209657302689995e-01
5.860466986462326694e-02 1.644559056813347797e-01 -1.025530840972765034e+00 -9.036609474031200850e-01 -1.711947964123519961e-01 3.925420153561001713e-01
-1.448311389582948305e-01 -3.170884128640519967e-02 -7.199767899968866347e-01 -3.057332285040857411e-01 4.699336069212267653e-01 -8.280637644979247369e-01
1.682504862370277909e-02 -1.516035181589288627e-01 -9.260050765354260749e-01 -8.760230857342047317e-01 7.849056338470654370e-02 -4.758390323631233598e-01
-2.479760760825612531e-02 -2.990635052183417478e-02 -8.171112286474289110e-01 -8.130754571643885598e-01 -4.902431200361128533e-02 -5.800904393191579356e-01
-9.044991384751777108e-02 -4.057559599865435962e-02 -7.458388605021939455e-01 -3.013306890405411664e-01 5.512786458858117689e-01 -7.780049295683534316e-01
-5.103433924068445128e-03 -3.510847340258381466e-02 -8.456216533804064017e-01 -7.448625044826561181e-01 2.940618124032174929e-01 -5.989219480883632984e-01
5.535366345721622061e-02 3.021397114446518206e-02 -1.073950661105149917e+00 -9.025147944533394861e-01 -4.018098062480917609e-01 -1.549707243182326943e-01
4.695206303587665803e-02 1.449069597088719907e-01 -9.560785236134752285e-01 -9.436502512776432372e-01 -3.593551678184791348e-02 -3.289876014339480625e-01
1.254701704082596993e-02 -5.557366346217521014e-02 -8.776211318637557879e-01 -7.448625044826561181e-01 2.940618124032174929e-01 -5.989219480883632984e-01
5.212702402166771720e-02 -9.097632801780201894e-02 -9.685320785772951746e-01 -8.713583394474092580e-01 3.129680041011687619e-01 -3.778699150294774767e-01
-6.845150445800791961e-02 -1.236881792047264533e-01 -8.082151763723801619e-01 -4.123611074435976631e-01 3.569090586167648627e-01 -8.381970179767908036e-01
-1.995935606274391698e-03 1.160813386251650231e-01 -8.112041299718754095e-01 -6.886040326109752474e-01 7.167659282867500092e-02 -7.215864136140419660e-01
3.912372126583602699e-02 2.143933663769360921e-04 -9.198158879047115821e-01 -9.932839083957850645e-01 -6.870727216766782386e-02 -9.309343732654741521e-02
3.975669157831577052e-03 1.595628110642316189e-01 -8.117626803802991953e-01 -9.806032490372651456e-01 -1.873229544783136524e-01 -5.768343525722895854e-02
-7.870683019248458923e-02 -1.385800507054869568e-01 -8.004908619538171344e-01 -7.027015885941388929e-01 -1.290158179359725266e-01 -6.996894997851444975e-01
5.088075729209294573e-02 -5.678263493619326030e-02 -9.442739745482113811e-01 -9.257172368115252903e-01 7.380495468020575878e-02 -3.709453142104472967e-01
6.326510399008822283e-02 9.669099020223330399e-03 -1.134382976404769705e+00 -9.375438521553841609e-01 -2.615715708899759018e-01 2.293291054092217451e-01
-1.077623857548609537e-01 6.600236561170948028e-03 -7.172270906138463742e-01 -5.525289055550324235e-01 1.497422337048545105e-01 -8.199323581681839945e-01
-1.764624096031881112e-02 1.502068664107225893e-01 -7.937738377388419142e-01 -6.876000923694384204e-01 5.185791533965474626e-02 -7.242353689168771202e-01
-2.629931874829742611e-02 -1.473792317144276276e-01 -8.595402667828498933e-01 -7.408587824846857295e-01 3.267127609134380939e-01 -5.868449848738830354e-01
-1.237185839953380967e-01 -8.325338975044621614e-02 -7.631941297769888610e-01 -3.013306890405411664e-01 5.512786458858117689e-01 -7.780049295683534316e-01
2.225084589279681391e-02 -8.055728867688098649e-02 -8.949246849880321264e-01 -3.167822429683165852e-01 -2.565606200941642490e-01 -9.131405470993281259e-01
7.035333591446109314e-02 3.404088425383666272e-05 -1.083054537855988153e+00 -9.025147944533394861e-01 -4.018098062480917609e-01 -1.549707243182326943e-01
-5.535229144808572616e-02 -6.094139493335651303e-02 -7.793107481062953035e-01 -6.696165483546359098e-01 3.188886644363849721e-01 -6.707635185843087156e-01
-4.855703803738564001e-02 -1.791674227947152309e-01 -8.468011235183928731e-01 -7.930790842227311011e-01 2.571822273251769264e-01 -5.521619944513525002e-01
-1.086266270197865647e-01 -1.443896708240769988e-01 -7.635943714138753169e-01 -8.554823075488746653e-01 -2.376399309713459751e-01 -4.600839974165440993e-01
5.843670944188896627e-02 1.213397125787296776e-01 -9.864461977099320267e-01 -9.436502512776432372e-01 -3.593551678184791348e-02 -3.289876014339480625e-01
-7.011292468467990313e-02 -1.113911565920236435e-02 -7.544592149534934400e-01 -8.659113966954262720e-01 9.340811323535411215e-03 -5.001101901749196443e-01
4.205056088277763643e-02 8.759496115872381083e-02 -9.401887346016477576e-01 -9.400393924246575050e-01 1.834531110881288882e-02 -3.405721513133476153e-01
3.502653429491664472e-02 1.052848274054044020e-01 -9.036268542156866701e-01 -9.657421395041460022e-01 -1.450001127313798321e-01 -2.152140499452625810e-01
5.938343578441648840e-02 1.662450516879906970e-01 -1.022957784342557686e+00 -9.036609474031200850e-01 -1.711947964123519961e-01 3.925420153561001713e-01
-7.606840789728892827e-02 -1.883721673441773325e-01 -8.115734267473709851e-01 -7.930790842227311011e-01 2.571822273251769264e-01 -5.521619944513525002e-01
-5.094255360679986883e-02 -8.845925223170482410e-02 -7.974195374125422342e-01 -3.185579255107514052e-01 5.628644023768514248e-01 -7.626955569762002840e-01
-3.457780453090403966e-02 -2.140636480501138892e-03 -8.057494777735308977e-01 -8.130754571643885598e-01 -4.902431200361128533e-02 -5.800904393191579356e-01
2.134774779541728437e-02 -2.027562830641611163e-02 -8.712355421333417560e-01 -7.448625044826561181e-01 2.940618124032174929e-01 -5.989219480883632984e-01
-5.638978055342762363e-02 -1.003871299813953594e-01 -8.039470704757185615e-01 -3.185579255107514052e-01 5.628644023768514248e-01 -7.626955569762002840e-01
-4.153431102026634847e-02 -8.769272266750018086e-02 -8.058229883215690670e-01 -6.696165483546359098e-01 3.188886644363849721e-01 -6.707635185843087156e-01
1.328956048062467955e-02 1.496366541163612895e-01 -8.449604184815646679e-01 -9.497457927846530978e-01 -1.587389134650992739e-01 -2.697867425204037439e-01
-4.557045792195908024e-02 -1.516642912987788139e-02 -7.892409533173119218e-01 -8.130754571643885598e-01 -4.902431200361128533e-02 -5.800904393191579356e-01
7.525331533905314785e-02 -1.250776749829930756e-01 -1.056911797730556879e+00 -9.522385454084986156e-01 -3.264858248090022740e-03 -3.053376710118270720e-01
6.298242272210846648e-02 1.385415383519253141e-01 -1.000810821729802846e+00 -9.411483554188060374e-01 -3.006304665559847433e-02 -3.366541048587706197e-01
-1.128814257440152874e-01 -1.616722393953416714e-02 -7.229530833443815752e-01 -3.057332285040857411e-01 4.699336069212267653e-01 -8.280637644979247369e-01
-1.223210657210247604e-01 -1.567499548818306887e-01 -7.427872960668713276e-01 -8.068410361477109660e-01 -8.031998246135391151e-02 -5.852830450350464675e-01
-1.212182159488272570e-01 2.895454078571733231e-02 -7.104762668395652181e-01 -3.515536785627323413e-01 -2.456608799704754209e-02 -9.358453496222183254e-01
3.713452255032369254e-02 -1.096661268530671612e-01 -9.494394441527074235e-01 -8.713583394474092580e-01 3.129680041011687619e-01 -3.778699150294774767e-01
-1.286879369334338954e-02 -2.515736214764952364e-02 -8.314746633628278261e-01 -7.282477581067716699e-01 2.219903730786126073e-01 -6.483636919761003314e-01
6.717233570576523760e-02 -9.888719275551427837e-03 -1.129284287529250586e+00 -9.670658210058626914e-01 -4.896649100843089575e-02 2.497718571027931767e-01
-1.067765114004248783e-01 -1.902591380555111733e-01 -7.584298470218542310e-01 -9.029733875070656834e-01 5.915113384645911965e-02 -4.256056917132250428e-01
3.321189889496453662e-02 1.775594101716561346e-02 -8.700990707661167001e-01 -9.928297180725040860e-01 -7.341626482508459284e-02 -9.433558698182496760e-02
-1.657581709941340076e-02 -3.850878931352600537e-02 -8.284752452278444368e-01 -8.825133597847154565e-01 2.042572637470584096e-02 -4.698435479003187365e-01
-8.934589739461841484e-02 -3.091680696826948870e-03 -7.314074451042128500e-01 -5.525289055550324235e-01 1.497422337048545105e-01 -8.199323581681839945e-01
2.752927489918295320e-02 -8.346482181052895799e-02 -9.014946393905992617e-01 -8.372034704310035158e-01 3.706202727410234932e-01 -4.021578825929602585e-01
5.653372327836156397e-02 1.066282653523659973e-01 -1.033543247781689711e+00 -9.221708603677704064e-01 1.178720936717014972e-01 3.683844103949244775e-01
3.687446688728678729e-02 1.030568134387665480e-01 -9.127812104047408059e-01 -9.904512479142062453e-01 1.561258130800757989e-02 -1.369765410940599060e-01
5.713329338334992291e-02 1.191111573796859446e-01 -9.824641231022445131e-01 -9.436502512776432372e-01 -3.593551678184791348e-02 -3.289876014339480625e-01
6.880235464123798939e-02 3.290316988757097105e-02 -9.937984598551781179e-01 -9.992813913101117329e-01 -3.790293225169845404e-02 2.621222054789091650e-04
-3.723442444925888217e-02 1.120685509067532726e-01 -7.779749253795886776e-01 -6.886040326109752474e-01 7.167659282867500092e-02 -7.215864136140419660e-01
-5.229765228866328775e-02 -1.476523208248071428e-01 -8.267495314945051410e-01 -7.930790842227311011e-01 2.571822273251769264e-01 -5.521619944513525002e-01
1.178191192375739778e-02 -9.449173929978921249e-02 -8.843240873386660761e-01 -8.926466838837340267e-01 1.241608047382992226e-03 -4.507553173960675563e-01
2.312332334370430925e-02 1.112344780024085572e-01 -8.555031670862245363e-01 -9.458728463287764399e-01 -1.689533324868666697e-01 -2.770908335176056059e-01
5.146077405376787289e-02 9.402469116008385641e-02 -1.042209511019681178e+00 -9.221708603677704064e-01 1.178720936717014972e-01 3.683844103949244775e-01
7.823865579206851217e-02 -3.524642581720487805e-02 -1.046095516518048996e+00 -9.968911070669469465e-01 -9.473469590676030644e-03 7.822003595468235426e-02
3.748210867825301634e-02 5.765014666521738745e-02 -9.223504025934597950e-01 -9.904512479142062453e-01 1.561258130800757989e-02 -1.369765410940599060e-01
-4.237663059918145292e-02 -4.406390701253839332e-02 -7.910847526534959817e-01 -8.125296707785040207e-01 -5.777258282188444533e-02 -5.800498795609431157e-01
6.240972395031235687e-02 1.797109421069958621e-02 -1.121410934321817710e+00 -8.964777706745026276e-01 -4.184435107457214476e-01 1.457142237438387722e-01
-7.689778539811498170e-02 -9.428468171757779792e-02 -7.908778473976976198e-01 -3.185579255107514052e-01 5.628644023768514248e-01 -7.626955569762002840e-01
5.123863545031547007e-02 3.437168686742523432e-02 -1.140498064916992682e+00 -8.352715908935057776e-01 -5.008842197099759863e-01 2.267958727396967022e-01
5.167694941152833205e-02 3.533749051613593178e-02 -1.065822619497873935e+00 -9.025147944533394861e-01 -4.018098062480917609e-01 -1.549707243182326943e-01
5.152188264239112442e-02 1.233459750356770412e-01 -9.668312275999030314e-01 -9.436502512776432372e-01 -3.593551678184791348e-02 -3.289876014339480625e-01
-7.625902057561077807e-02 3.393080420543218012e-02 -7.429758174787213232e-01 -8.659113966954262720e-01 9.340811323535411215e-03 -5.001101901749196443e-01
-1.670283129313270692e-02 -6.978868267980753437e-02 -8.295965180907888259e-01 -8.825133597847154565e-01 2.042572637470584096e-02 -4.698435479003187365e-01
-3.568491704929033139e-03 -1.671701886012307015e-01 -8.919740544452495756e-01 -6.610264426703473806e-01 2.758222664061740770e-01 -6.978295776514116255e-01
1.146692065723371907e-02 1.701382755756893073e-01 -8.506069546918602065e-01 -9.497457927846530978e-01 -1.587389134650992739e-01 -2.697867425204037439e-01
5.119130377386642977e-02 1.168536264334453234e-01 -9.651738498381789988e-01 -9.436502512776432372e-01 -3.593551678184791348e-02 -3.289876014339480625e-01
2.080343367521752737e-02 1.195880788774010967e-01 -8.526775523667993184e-01 -9.458728463287764399e-01 -1.689533324868666697e-01 -2.770908335176056059e-01
4.153338651897603429e-02 6.462608707091055393e-02 -9.399984867099288044e-01 -9.400393924246575050e-01 1.834531110881288882e-02 -3.405721513133476153e-01
-1.106278077585971936e-01 -1.635820994833417363e-01 -7.579314190687440611e-01 -7.938500481706792788e-01 -1.824422795598019398e-01 -5.801007805962971053e-01
6.017804501746191331e-02 9.680451279522241104e-02 -1.021277165212174376e+00 -9.221708603677704064e-01 1.178720936717014972e-01 3.683844103949244775e-01
5.021596269698586079e-02 1.719277917846530057e-01 -1.041583642455949699e+00 -9.036609474031200850e-01 -1.711947964123519961e-01 3.925420153561001713e-01
4.444508782860700363e-02 1.219098251883886513e-01 -9.463756603934977418e-01 -9.436502512776432372e-01 -3.593551678184791348e-02 -3.289876014339480625e-01
5.993713330426403418e-02 -3.206567321803754922e-02 -9.665119574961337223e-01 -9.791515551155793862e-01 1.654974093784337685e-01 -1.177830191656243225e-01
-1.029686509838015213e-01 -1.307084517882161345e-01 -7.775760415307687579e-01 -7.027015885941388929e-01 -1.290158179359725266e-01 -6.996894997851444975e-01
3.888072420600124229e-02 2.125959104776983799e-02 -9.327555009450060330e-01 -9.932839083957850645e-01 -6.870727216766782386e-02 -9.309343732654741521e-02
4.525476713296107401e-02 1.810667347334443400e-01 -1.049019022853252325e+00 -9.036609474031200850e-01 -1.711947964123519961e-01 3.925420153561001713e-01
-7.331159460967694164e-02 -1.733046598964660401e-01 -8.096993584366185548e-01 -7.540543438355600259e-01 2.121900821453018837e-01 -6.215926444078094804e-01
-1.243631691648702520e-01 -2.364807141049551573e-02 -7.229593040609056942e-01 -3.057332285040857411e-01 4.699336069212267653e-01 -8.280637644979247369e-01
-2.941156584517927441e-02 4.209362339974677403e-02 -8.040610056577809361e-01 -6.174345263191215460e-01 1.598935981963187647e-01 -7.702003914338892976e-01
-1.313732052913402573e-02 -4.342186865203004342e-02 -8.351474074594649188e-01 -8.825133597847154565e-01 2.042572637470584096e-02 -4.698435479003187365e-01
-3.950610430250849070e-02 -1.814730026074025948e-01 -8.608750012343728830e-01 -7.930790842227311011e-01 2.571822273251769264e-01 -5.521619944513525002e-01
-9.749224654326175618e-03 -1.893427713028393855e-01 -8.935444731457492518e-01 -7.040565232124785799e-01 5.830105147488105072e-02 -7.077467057633541891e-01
-9.305385601836060894e-02 -1.695717764390450299e-01 -7.844757349576739758e-01 -7.540543438355600259e-01 2.121900821453018837e-01 -6.215926444078094804e-01
-8.155978458841260659e-02 -6.587569023899765563e-02 -7.679650001394837666e-01 -3.185579255107514052e-01 5.628644023768514248e-01 -7.626955569762002840e-01
-1.947373135674269201e-02 1.420050282910256638e-02 -8.178183260393548926e-01 -6.174345263191215460e-01 1.598935981963187647e-01 -7.702003914338892976e-01
6.874390381108463899e-02 -1.875881478244831313e-02 -1.124938432232558183e+00 -9.670658210058626914e-01 -4.896649100843089575e-02 2.497718571027931767e-01
7.497877207289058155e-02 -2.077032994335600152e-02 -1.085888520927705381e+00 -9.968911070669469465e-01 -9.473469590676030644e-03 7.822003595468235426e-02
-2.795584198360890477e-02 7.051294761584603332e-02 -7.976784013785679361e-01 -6.240068009890240575e-01 2.198247288935417099e-01 -7.498617211768616730e-01
-1.023634590854337334e-01 -1.828668291731321560e-01 -7.667652744257900110e-01 -9.029733875070656834e-01 5.915113384645911965e-02 -4.256056917132250428e-01
7.313872071540031272e-02 -4.061153995029753716e-02 -1.111742458602230865e+00 -9.968911070669469465e-01 -9.473469590676030644e-03 7.822003595468235426e-02
-8.051679565088552815e-02 -9.467836744004042016e-02 -7.896568192808975928e-01 -3.185579255107514052e-01 5.628644023768514248e-01 -7.626955569762002840e-01
-1.982050867965310867e-02 -1.085257317352400913e-01 -8.457895148937566443e-01 -7.744678231878235897e-01 2.789238937912281169e-01 -5.678037093213232911e-01
-1.009615532062292098e-01 -9.022302432224635349e-02 -7.778295659118799055e-01 -3.185579255107514052e-01 5.628644023768514248e-01 -7.626955569762002840e-01
2.867411137179635972e-02 1.234826434441481935e-01 -8.873820173724794591e-01 -9.657421395041460022e-01 -1.450001127313798321e-01 -2.152140499452625810e-01
5.388795048036704866e-02 8.822926781257149631e-02 -9.728278565305610304e-01 -9.400393924246575050e-01 1.834531110881288882e-02 -3.405721513133476153e-01
7.320367981499424637e-02 -5.630290420828649306e-02 -1.090749158271166586e+00 -9.900210703901476395e-01 1.306163551322875038e-01 5.289279682057396181e-02
-1.205498359125193319e-01 -8.362272862802201667e-02 -7.647770784499859920e-01 -3.185579255107514052e-01 5.628644023768514248e-01 -7.626955569762002840e-01
2.915053222742960623e-02 5.639923859553232915e-02 -8.574294198631111641e-01 -9.928297180725040860e-01 -7.341626482508459284e-02 -9.433558698182496760e-02
-1.119944552897614992e-01 -7.833327392057896910e-02 -7.644468530312589216e-01 -3.185579255107514052e-01 5.628644023768514248e-01 -7.626955569762002840e-01
-4.837805858945710968e-02 -1.463566442199580875e-01 -8.310977970824424688e-01 -7.408587824846857295e-01 3.267127609134380939e-01 -5.868449848738830354e-01
-1.117775078034310005e-01 -7.570411072915049500e-02 -7.625971608252396505e-01 -3.185579255107514052e-01 5.628644023768514248e-01 -7.626955569762002840e-01
4.553392973733746962e-02 1.140396490767046495e-01 -9.486391715160804594e-01 -9.436502512776432372e-01 -3.593551678184791348e-02 -3.289876014339480625e-01
-1.425516105691548019e-01 -4.309746440977279408e-02 -7.274461904474326390e-01 -3.013306890405411664e-01 5.512786458858117689e-01 -7.780049295683534316e-01
-4.157921454121794869e-02 -1.512096703439714807e-01 -8.423827685115951036e-01 -7.408587824846857295e-01 3.267127609134380939e-01 -5.868449848738830354e-01
4.038214481755501156e-02 5.670646809671527760e-02 -9.372474553294125599e-01 -9.400393924246575050e-01 1.834531110881288882e-02 -3.405721513133476153e-01
7.093917670550949073e-02 -1.454399424140199668e-02 -1.014030116503162438e+00 -9.583342913716738076e-01 4.846650499223656428e-03 -2.856079409962025140e-01
4.735807169725250038e-02 1.249640512423824124e-01 -1.062379419142932768e+00 -9.221708603677704064e-01 1.178720936717014972e-01 3.683844103949244775e-01
-6.672662537420162576e-02 -1.721348399071603863e-01 -8.174282670385250027e-01 -7.930790842227311011e-01 2.571822273251769264e-01 -5.521619944513525002e-01
4.873373043350379130e-02 8.510233635223984905e-02 -1.046181187015167602e+00 -9.221708603677704064e-01 1.178720936717014972e-01 3.683844103949244775e-01
3.310665916531752798e-03 8.577425152576526046e-02 -8.192786389149264714e-01 -6.886040326109752474e-01 7.167659282867500092e-02 -7.215864136140419660e-01
4.542395924347713415e-02 1.507707219055406944e-01 -1.061842178715257434e+00 -9.036609474031200850e-01 -1.711947964123519961e-01 3.925420153561001713e-01
6.164481844774783587e-02 5.284383775621141754e-02 -1.021876518378647125e+00 -8.987348212709499462e-01 -5.426205908706124847e-02 4.351222241838564875e-01
5.488552146530838866e-02 1.641472888375755668e-01 -9.804617502898510528e-01 -9.411483554188060374e-01 -3.006304665559847433e-02 -3.366541048587706197e-01
-8.740498944261967940e-02 -2.194184623088594327e-02 -7.361579267756267475e-01 -5.525289055550324235e-01 1.497422337048545105e-01 -8.199323581681839945e-01
-1.581696104871055386e-02 1.599999392648439045e-01 -7.948093639301805347e-01 -6.876000923694384204e-01 5.185791533965474626e-02 -7.242353689168771202e-01
5.685804907527516883e-02 -4.499830481891433503e-02 -9.590866674080464893e-01 -9.791515551155793862e-01 1.654974093784337685e-01 -1.177830191656243225e-01
2.599317832185507257e-02 2.123504694147150540e-02 -8.592406780498906826e-01 -7.282477581067716699e-01 2.219903730786126073e-01 -6.483636919761003314e-01
5.567646994030799046e-02 8.687783454658294657e-02 -1.029959782548629965e+00 -8.987348212709499462e-01 -5.426205908706124847e-02 4.351222241838564875e-01
3.230895755670249586e-02 5.645633047510585645e-02 -8.850804044545231841e-01 -9.904512479142062453e-01 1.561258130800757989e-02 -1.369765410940599060e-01
-1.229823630882827812e-01 -1.327823538948008641e-02 -7.175841429493661217e-01 -3.057332285040857411e-01 4.699336069212267653e-01 -8.280637644979247369e-01
7.379435022257559151e-02 -1.135963833052306381e-02 -1.073552577255226348e+00 -9.025147944533394861e-01 -4.018098062480917609e-01 -1.549707243182326943e-01
-1.656738933209499220e-02 -1.247132729272177193e-01 -8.585193152482427648e-01 -7.362601102669443787e-01 3.557143138992786002e-01 -5.756634232925280648e-01
6.097323578357721763e-02 -3.194112691219236355e-02 -9.749502643926144518e-01 -9.791515551155793862e-01 1.654974093784337685e-01 -1.177830191656243225e-01
4.168742020541621462e-02 -4.679822671223687891e-02 -9.156341454229394161e-01 -9.649231434547784758e-01 6.412846257436899400e-02 -2.545797861441421728e-01
7.567938719580497020e-02 -5.003404069770411855e-02 -1.059890771748597693e+00 -9.900210703901476395e-01 1.306163551322875038e-01 5.289279682057396181e-02
2.532848811118252122e-02 9.541345184070632035e-02 -8.534574417496758603e-01 -9.657421395041460022e-01 -1.450001127313798321e-01 -2.152140499452625810e-01
2.470471480420392829e-02 7.815525108592047410e-02 -8.407316557743313989e-01 -9.458728463287764399e-01 -1.689533324868666697e-01 -2.770908335176056059e-01
3.367394002334835740e-02 6.061051022579178743e-02 -8.944768391145349051e-01 -9.904512479142062453e-01 1.561258130800757989e-02 -1.369765410940599060e-01
4.670261375351642680e-02 1.949726091492403335e-01 -9.980804759371056933e-01 -8.918823189760093362e-01 -3.796043848325649783e-01 -2.458585774665308088e-01
-1.318858852174236394e-02 -2.018272118600002718e-01 -8.911514552182819848e-01 -7.040565232124785799e-01 5.830105147488105072e-02 -7.077467057633541891e-01
6.987418784863647092e-02 -1.242481115639706146e-01 -1.040145101000653272e+00 -9.522385454084986156e-01 -3.264858248090022740e-03 -3.053376710118270720e-01
3.105987436099610574e-02 1.374733482440585741e-01 -9.075140005205127869e-01 -9.657421395041460022e-01 -1.450001127313798321e-01 -2.152140499452625810e-01
3.136568926748966452e-02 3.700042595122345068e-02 -8.656456762938010696e-01 -9.928297180725040860e-01 -7.341626482508459284e-02 -9.433558698182496760e-02
1.708152928111754051e-02 1.704799442751331051e-01 -8.705734177821413677e-01 -9.497457927846530978e-01 -1.587389134650992739e-01 -2.697867425204037439e-01
6.398564437212921063e-02 6.379573985301102701e-02 -1.015675836415026012e+00 -8.987348212709499462e-01 -5.426205908706124847e-02 4.351222241838564875e-01
-1.830851360060298805e-01 4.979060021584502671e-02 -6.981166415144607340e-01 1.729921332191118044e-01 3.712108896398386149e-01 -9.122917281533911016e-01
3.577607352636960614e-02 6.411711124788269621e-03 -8.886712238347549420e-01 -9.932839083957850645e-01 -6.870727216766782386e-02 -9.309343732654741521e-02
-5.608606338407227249e-02 -1.791214696918485283e-01 -8.359656605410241692e-01 -7.930790842227311011e-01 2.571822273251769264e-01 -5.521619944513525002e-01
3.449165152625942310e-02 -2.285688156306885446e-02 -8.856946814859215644e-01 -5.944962828418224321e-01 3.003191829546196789e-01 -7.459105563247685478e-01
-1.410226744882969452e-01 -2.327653551421162564e-02 -7.166180987124010082e-01 2.908311595701493571e-02 2.091226574287323170e-01 -9.774568463703017240e-01
5.361314064697898091e-02 -1.276042356979487091e-01 -9.938613279559204150e-01 -8.856700311523616476e-01 1.355205426680156366e-01 -4.440977127091981225e-01
1.392926411949580411e-02 -1.550373794976951936e-01 -9.212403384376026683e-01 -8.760230857342047317e-01 7.849056338470654370e-02 -4.758390323631233598e-01
-4.112844470848588119e-02 -2.429610438481873136e-02 -7.946954749946537611e-01 -8.130754571643885598e-01 -4.902431200361128533e-02 -5.800904393191579356e-01
-5.980229474559659725e-02 -1.874727749618719796e-01 -8.345177918311634802e-01 -7.930790842227311011e-01 2.571822273251769264e-01 -5.521619944513525002e-01
1.472958236594845358e-02 1.770141728632521616e-01 -8.661383764975104649e-01 -9.497457927846530978e-01 -1.587389134650992739e-01 -2.697867425204037439e-01
4.555726126437913831e-02 1.842549236185735961e-01 -1.046932230997985824e+00 -9.036609474031200850e-01 -1.711947964123519961e-01 3.925420153561001713e-01
5.477083450458917341e-02 -6.071923360053880364e-02 -9.591242828147612531e-01 -9.621134661321969483e-01 1.067262195877089620e-02 -2.724404034419549148e-01
3.358045232410163117e-02 9.401349336431352732e-02 -8.899935765525026632e-01 -9.904512479142062453e-01 1.561258130800757989e-02 -1.369765410940599060e-01
6.414781751133377674e-02 -1.229139046701681337e-01 -1.022300874488980771e+00 -9.522385454084986156e-01 -3.264858248090022740e-03 -3.053376710118270720e-01
-2.405960271168377206e-03 6.634045732149466967e-02 -8.201632356148497172e-01 -6.240068009890240575e-01 2.198247288935417099e-01 -7.498617211768616730e-01
-8.874230423858402161e-02 -8.347841478747189403e-03 -7.327741089648809325e-01 -5.525289055550324235e-01 1.497422337048545105e-01 -8.199323581681839945e-01
-5.100776870785649758e-03 8.064056089402522887e-02 -8.137285822110360556e-01 -6.240068009890240575e-01 2.198247288935417099e-01 -7.498617211768616730e-01
-1.662147315722173335e-02 6.262507159957571290e-02 -8.094227979662276251e-01 -6.240068009890240575e-01 2.198247288935417099e-01 -7.498617211768616730e-01
1.298126869371995368e-02 -1.401561714347920873e-01 -9.165009003776506402e-01 -8.893268483982926798e-01 1.776080598729873894e-01 -4.213705421432706877e-01
3.295572907957071418e-02 9.628241444175536512e-02 -8.882690522757631379e-01 -9.657421395041460022e-01 -1.450001127313798321e-01 -2.152140499452625810e-01
-3.909680257868602266e-02 -3.388051308311257337e-02 -7.966933712663667455e-01 -8.125296707785040207e-01 -5.777258282188444533e-02 -5.800498795609431157e-01
4.564105945015749233e-02 1.292500433565052509e-01 -1.068048979162800727e+00 -9.221708603677704064e-01 1.178720936717014972e-01 3.683844103949244775e-01
5.092246349076250816e-02 -8.364993970452909433e-02 -9.596863651222088398e-01 -8.713583394474092580e-01 3.129680041011687619e-01 -3.778699150294774767e-01
3.572469441119775074e-02 -7.986536469419543149e-02 -9.156798674173945995e-01 -8.905735220413156794e-01 3.284360044921778576e-01 -3.146563089978346994e-01
5.057163875530856778e-02 1.192752466717851845e-01 -9.636609512560241342e-01 -9.436502512776432372e-01 -3.593551678184791348e-02 -3.289876014339480625e-01
