-2.083994500394538776e-03 8.039836676062409038e-02 -6.775315117425122491e-01 1.819059399905051042e-02 1.756336934194707711e-01 -9.842875128872645707e-01
-2.583925929563146012e-02 1.487947045109700162e-01 -6.661534589072800605e-01 1.366271497807482367e-02 1.564151825573133203e-01 -9.875968918971902433e-01
-1.168692696946871806e-01 1.607560057300904885e-02 -6.928584874679998284e-01 -1.997403650986329937e-01 1.263402711373977638e-01 -9.716696570538744249e-01
6.531915883316549709e-02 1.364956715494005657e-01 -7.059502097908376683e-01 -5.717147964983754216e-01 1.450082932312334594e-01 -8.075362446101017611e-01
-1.292018515317899796e-01 -8.150414418718619769e-02 -7.295336078084415643e-01 3.811566283089041773e-01 3.327904006188146524e-01 -8.625370565675175571e-01
6.068877263435599329e-02 1.582174021427477095e-01 -6.994422296837962127e-01 -5.305489886235423835e-01 1.182648075973683072e-01 -8.393635719725355271e-01
-1.998565434812592523e-01 4.660488774329209910e-02 -6.959667724148518309e-01 4.868750182503491786e-01 4.050014718359988830e-01 -7.739034335202272796e-01
1.871041345151787105e-01 1.251294599831183352e-01 -7.935489094988813497e-01 -9.286777919672078996e-01 1.976120893359053499e-01 -3.138582814825975342e-01
5.055031412793818679e-02 8.407325358702466556e-02 -7.049076786412999951e-01 -5.717147964983754216e-01 1.450082932312334594e-01 -8.075362446101017611e-01
-1.344296817623248930e-01 -5.335187314097747293e-04 -6.913183489853015340e-01 -2.024457535164862210e-01 1.180170558607875203e-01 -9.721562073088326761e-01
1.377794666204554819e-01 -1.026479611398804261e-03 -7.865578272901321277e-01 -9.118596229263754571e-01 3.117817686332634008e-01 -2.670283820579433809e-01
1.678703824945544376e-01 6.516310056239876802e-02 -7.962599797922307321e-01 -8.473388254962381794e-01 3.804522551497035998e-01 -3.705037062677786763e-01
-2.258546177866901095e-01 6.929715982845273403e-02 -7.117829181594981236e-01 7.203820187828046118e-01 2.901350363602557200e-02 -6.929703915905593981e-01
1.488634849552492902e-02 -1.004422348547800714e-01 -7.526110511583726792e-01 -2.913865453546499173e-01 5.457789997821236305e-01 -7.856329706568504490e-01
5.568590922473887206e-02 -1.261396410985225758e-01 -7.826242579379257824e-01 -2.469706409166439465e-01 5.252380693859920457e-01 -8.143282341862512208e-01
-1.358857350096541461e-01 -8.482842402571093288e-02 -7.337698256982615463e-01 3.811566283089041773e-01 3.327904006188146524e-01 -8.625370565675175571e-01
-1.000061199875735690e-01 4.813091435829657677e-02 -6.921569884030989162e-01 -1.997403650986329937e-01 1.263402711373977638e-01 -9.716696570538744249e-01
1.025430029176686714e-01 6.953896304648067572e-02 -7.446357336658040449e-01 -4.166967970852910597e-01 2.687915430318805754e-01 -8.683978844362764127e-01
-1.656998188867389588e-01 -1.058310235333549676e-01 -7.379554693001241228e-01 -4.167249890140468926e-02 3.438847931429101501e-01 -9.380866974221362398e-01
1.412598536861788823e-01 6.501812869344441095e-03 -7.896527795442127573e-01 -9.118596229263754571e-01 3.117817686332634008e-01 -2.670283820579433809e-01
1.033100800060868067e-02 -1.369962058943992589e-01 -7.753536727083523150e-01 -2.722328417695261127e-01 3.437076682073513800e-01 -8.987515333380819982e-01
7.528094921585637422e-02 6.692661807349478686e-02 -7.296285146353878037e-01 -5.827837064781732357e-01 3.152377834092072173e-01 -7.489915162235232238e-01
3.052129031462308753e-02 1.334713221167790065e-01 -6.838462117460762935e-01 -5.267788282728242955e-01 1.063166274475409040e-01 -8.433272442010226744e-01
-1.017839044986443113e-02 2.174901334454925061e-01 -6.576631339486525007e-01 6.546110193437414126e-02 -2.143619304699518890e-01 -9.745582624444437680e-01
-2.028816687727316159e-01 -8.634642252964647158e-02 -7.322733041647309093e-01 -3.715420025645336799e-01 -1.640603623440469241e-02 -9.282711792926738870e-01
1.564859952051856906e-01 -2.918079461247018169e-02 -8.301382832839455661e-01 -6.568203354829955654e-01 -1.052514872136033758e-01 -7.466653677085406393e-01
-1.476360556678837643e-01 2.718882757331826747e-03 -6.900066704297374010e-01 8.476590032630805516e-02 4.079407987164310745e-01 -9.090649299607100886e-01
-1.393378935227944648e-01 -2.222046517355914796e-02 -7.004713060238534350e-01 4.685704629015399747e-01 5.062328308914902930e-01 -7.239958855019995587e-01
-1.777091206999583187e-02 9.012784461993710028e-02 -6.763955489897384155e-01 1.321282811813127012e-01 2.881191831357257649e-01 -9.484352659097373683e-01
5.879563708005188308e-03 2.099156470400243002e-02 -6.960033120238572346e-01 -3.447289121824982476e-03 3.403284198816295403e-01 -9.403003152283763155e-01
2.094310670797228102e-01 -3.100273595883091052e-02 -8.961009038770674229e-01 -8.905887886652892327e-01 -1.583964021030455360e-01 -4.263357706133786840e-01
-1.304021460653747577e-01 5.453870009141306707e-02 -6.836067530791043456e-01 -2.668006720150322697e-01 2.107321502840681926e-01 -9.404304132943490657e-01
1.985857992888283297e-01 -6.967992111311671621e-02 -8.856442132550014223e-01 -8.376579970726067970e-01 3.093189202347610411e-01 -4.501676193653982860e-01
1.588495899833520242e-01 -9.416538668533641632e-02 -8.397793329536419327e-01 -7.340977867719484795e-01 3.283881552341015309e-01 -5.943581907894185390e-01
1.889142322356404946e-01 -6.738866429845426220e-02 -8.660732930216926695e-01 -8.376579970726067970e-01 3.093189202347610411e-01 -4.501676193653982860e-01
1.096586478440655099e-01 -1.202091225560516924e-01 -8.082662093602460684e-01 -4.942539533423597753e-01 4.121621194819694578e-01 -7.653988612936261093e-01
-5.986778708909076818e-02 -7.678891296946151190e-02 -7.262267294550183161e-01 -4.122474663364400493e-02 4.850774714144846511e-01 -8.734989221465140341e-01
7.110183732016662518e-03 1.916798814057446565e-01 -6.576623172289788322e-01 -6.977671273794654461e-01 1.356139067190519909e-01 -7.033703890931186642e-01
-2.266912286087982217e-02 -4.310277999995500847e-02 -7.229733639926086974e-01 -2.139084246049878860e-02 4.208087585303279532e-01 -9.068971389319708809e-01
-5.889667888548744817e-02 -2.833138914154306048e-02 -7.127155170856572797e-01 -2.937001819558623383e-01 2.313112397548252597e-01 -9.274887133988096721e-01
-1.462126949313551083e-01 -1.277176179719057836e-01 -7.475563029143827976e-01 -9.719599746792176309e-02 4.096289680593732108e-01 -9.070595606699864977e-01
-3.453960629102667372e-03 -7.292783741939581899e-02 -7.349706930114040526e-01 1.778196979844069714e-01 3.541467753584170985e-01 -9.181286492164207891e-01
-6.368297838943551281e-02 -6.181798110956979869e-02 -7.195512747358501215e-01 -2.937001819558623383e-01 2.313112397548252597e-01 -9.274887133988096721e-01
-1.697577029783573777e-01 -3.434111159306960093e-02 -7.286340259445829304e-01 4.685704629015399747e-01 5.062328308914902930e-01 -7.239958855019995587e-01
-6.163023246312233222e-02 -1.099468391781694698e-01 -7.425313574697097740e-01 -6.686262466109714475e-02 4.213241494525810649e-01 -9.044420105852494229e-01
-8.816634529992678493e-02 4.187722970304563752e-02 -6.954039490453755024e-01 -1.997403650986329937e-01 1.263402711373977638e-01 -9.716696570538744249e-01
-1.772451282639886661e-01 6.348568557507272558e-02 -6.796444118961079139e-01 2.014651611164262890e-01 1.883221295852264554e-01 -9.612213919617155211e-01
4.452628130066687423e-02 4.948878569305881821e-04 -7.313666301782486556e-01 -6.423086225781171610e-01 2.446091015619559217e-01 -7.263649363748602150e-01
-1.157835106494402438e-01 -8.952988079034709945e-02 -7.304286795462313631e-01 -8.942760890839680787e-03 4.791778003333500568e-01 -8.776722980106761440e-01
1.647393811335465530e-01 -1.637198365828488461e-02 -8.392041090332721387e-01 -6.568203354829955654e-01 -1.052514872136033758e-01 -7.466653677085406393e-01
-2.041301545348779278e-01 -7.138246095708671024e-02 -7.320380651426189322e-01 -3.715420025645336799e-01 -1.640603623440469241e-02 -9.282711792926738870e-01
-1.549990367958769925e-02 -3.215191508879781251e-02 -7.180611594671076903e-01 -2.139084246049878860e-02 4.208087585303279532e-01 -9.068971389319708809e-01
-2.248202315673633600e-01 -8.346059469026896604e-02 -7.272271677513432175e-01 -2.030681885869276837e-01 9.431651576228906875e-02 -9.746115665425308938e-01
9.578270027828722499e-02 1.710529549236077321e-02 -7.553803343098556278e-01 -2.861487451800395210e-01 -4.303673492879067641e-02 -9.572182275106120297e-01
1.758235924092859392e-01 5.222035497119421887e-02 -8.355332806209153640e-01 -8.249592303303809881e-01 4.691383896459882519e-01 -3.152006339668031454e-01
1.300880694285619921e-01 7.716870559711691557e-02 -7.561002071049814921e-01 -4.455363202029108960e-01 2.212403315947408522e-01 -8.674964570855020485e-01
3.253360445681293539e-02 -1.144630854197920683e-01 -7.682447361461152147e-01 -2.430786503227498618e-01 5.149933254441301234e-01 -8.220064747343944767e-01
1.105778622486761481e-01 -5.139081397064363538e-02 -7.803893511103255909e-01 -5.351032371483689376e-01 4.542957848928985132e-01 -7.122358214958595113e-01
-1.493278747427148612e-01 -3.588829701112087461e-02 -7.164936558191569160e-01 4.685704629015399747e-01 5.062328308914902930e-01 -7.239958855019995587e-01
1.881134686694056757e-01 1.320216789656827316e-01 -7.921959435118293147e-01 -9.286777919672078996e-01 1.976120893359053499e-01 -3.138582814825975342e-01
1.692107988750059799e-01 -9.285379615663287567e-02 -8.518519010324483443e-01 -7.340977867719484795e-01 3.283881552341015309e-01 -5.943581907894185390e-01
-1.818367885220183167e-01 -2.199929271456544863e-02 -7.278219616547603188e-01 4.685704629015399747e-01 5.062328308914902930e-01 -7.239958855019995587e-01
-1.643077319395801900e-02 6.730683638727212592e-02 -6.831221326361696100e-01 1.287657052750178222e-01 2.268787088855858947e-01 -9.653732151864568012e-01
3.952494523391687775e-02 2.752092847696012597e-03 -7.261839265861604886e-01 -6.423086225781171610e-01 2.446091015619559217e-01 -7.263649363748602150e-01
1.375693443506054159e-01 -7.329062048891259000e-03 -7.931991748199221925e-01 -9.118596229263754571e-01 3.117817686332634008e-01 -2.670283820579433809e-01
-2.039927145477455905e-01 -2.834043534945297413e-02 -7.328537898755032032e-01 -3.715420025645336799e-01 -1.640603623440469241e-02 -9.282711792926738870e-01
2.348218082105614155e-02 -4.010716103671241317e-02 -7.264308516026767304e-01 -6.423086225781171610e-01 2.446091015619559217e-01 -7.263649363748602150e-01
9.991762981910763675e-02 -5.908207599342420874e-02 -7.769557242460466417e-01 -4.781870548652927266e-01 2.797319665495525132e-01 -8.325185688316973920e-01
-7.194524250478746830e-02 1.169243040249258875e-01 -6.758023479032542191e-01 1.321282811813127012e-01 2.881191831357257649e-01 -9.484352659097373683e-01
-1.625455456756055850e-01 3.074988948212561274e-02 -6.829770687493236236e-01 2.014651611164262890e-01 1.883221295852264554e-01 -9.612213919617155211e-01
3.807757695786918861e-02 1.495166686692207536e-01 -6.863759532885116421e-01 -5.305489886235423835e-01 1.182648075973683072e-01 -8.393635719725355271e-01
2.979237646033075591e-03 1.012342087026568277e-01 -6.737200450450658851e-01 1.819059399905051042e-02 1.756336934194707711e-01 -9.842875128872645707e-01
1.128042278228085504e-01 -8.239615187251943251e-02 -7.918341384852525255e-01 -4.691853425879162209e-01 2.709655522422005913e-01 -8.405015073149715299e-01
-4.943025786860007209e-02 1.218769317139399566e-02 -7.004776607386397069e-01 1.287657052750178222e-01 2.268787088855858947e-01 -9.653732151864568012e-01
-1.320708765305814714e-01 -9.589627591463895095e-02 -7.363543132304474215e-01 3.811566283089041773e-01 3.327904006188146524e-01 -8.625370565675175571e-01
1.267236477257008276e-01 -3.298645888374442114e-02 -7.861203607384545933e-01 -9.118596229263754571e-01 3.117817686332634008e-01 -2.670283820579433809e-01
-6.880323659590786844e-02 -1.068718916331046070e-01 -7.405686495002844483e-01 -6.686262466109714475e-02 4.213241494525810649e-01 -9.044420105852494229e-01
1.651625220118981829e-01 -8.357223010276568220e-02 -8.417236862070330838e-01 -7.340977867719484795e-01 3.283881552341015309e-01 -5.943581907894185390e-01
-5.365823028490220720e-02 -1.112942600023543796e-02 -7.074107760522313493e-01 -3.447289121824982476e-03 3.403284198816295403e-01 -9.403003152283763155e-01
1.486596799681011993e-01 5.318957260540851245e-02 -7.718251705893470760e-01 -4.166967970852910597e-01 2.687915430318805754e-01 -8.683978844362764127e-01
1.221788753511636461e-01 1.652848482579844652e-02 -7.632452162255229933e-01 -2.861487451800395210e-01 -4.303673492879067641e-02 -9.572182275106120297e-01
3.044185912850498610e-02 -3.950004894212643530e-02 -7.323806931035745649e-01 -6.423086225781171610e-01 2.446091015619559217e-01 -7.263649363748602150e-01
-3.966183141279356478e-02 -8.440022767772772938e-02 -7.327897567902170728e-01 -2.937001819558623383e-01 2.313112397548252597e-01 -9.274887133988096721e-01
1.491070800128211360e-01 -1.285167328749695775e-02 -8.234237958273392666e-01 -8.211508044291160324e-01 2.073018458843169879e-03 -5.707075073799933174e-01
-1.991564655845980414e-01 2.385663983336114898e-03 -7.225547693277915018e-01 4.861188689405291363e-01 4.873763621083674891e-01 -7.253638582931976053e-01
-2.254228869147596390e-02 2.654647280240595569e-02 -6.938885924963695828e-01 -3.447289121824982476e-03 3.403284198816295403e-01 -9.403003152283763155e-01
1.660645177711251030e-01 5.685959538263404139e-02 -8.030863773601986111e-01 -8.249592303303809881e-01 4.691383896459882519e-01 -3.152006339668031454e-01
-6.446874136030754376e-02 4.353791672534902679e-02 -6.951157372579684912e-01 1.287657052750178222e-01 2.268787088855858947e-01 -9.653732151864568012e-01
-1.076078857686940810e-01 6.064119463391520054e-02 -6.887060481469901019e-01 -2.668006720150322697e-01 2.107321502840681926e-01 -9.404304132943490657e-01
8.859190526831652035e-02 5.398268086085018097e-02 -7.427564331250691154e-01 -4.166967970852910597e-01 2.687915430318805754e-01 -8.683978844362764127e-01
6.101640482802464516e-02 4.118885634641222121e-02 -7.293619841227195755e-01 -5.827837064781732357e-01 3.152377834092072173e-01 -7.489915162235232238e-01
1.637986997877532297e-02 1.774082560468282777e-01 -6.687312874934481233e-01 -5.305489886235423835e-01 1.182648075973683072e-01 -8.393635719725355271e-01
-6.636430475489900338e-02 4.241008606898960531e-02 -6.956336347018683419e-01 1.287657052750178222e-01 2.268787088855858947e-01 -9.653732151864568012e-01
-6.148420821109979589e-02 -3.149601616860397968e-02 -7.126853883818210500e-01 -2.937001819558623383e-01 2.313112397548252597e-01 -9.274887133988096721e-01
1.990513420791643340e-01 -3.875660765639798305e-02 -8.770627333227916100e-01 -8.515552347915914533e-01 -7.461172741700311528e-02 -5.189284846979290711e-01
-4.334366698168190231e-04 1.706328820196764129e-01 -6.604648588143749999e-01 1.826181420381933207e-01 2.115708449412546655e-01 -9.601501922977269121e-01
-1.238278409486590764e-01 -1.089621931442737862e-01 -7.409519318817898714e-01 -1.502076013846273539e-02 4.518621129625056132e-01 -8.919613263106886958e-01
-1.894720264227969242e-01 -1.080286553866148178e-02 -7.249347186338312987e-01 4.685704629015399747e-01 5.062328308914902930e-01 -7.239958855019995587e-01
1.742396816476021737e-01 5.549926162088560100e-02 -8.265075285070850875e-01 -8.249592303303809881e-01 4.691383896459882519e-01 -3.152006339668031454e-01
-2.201195367340205433e-01 1.730136429726584699e-02 -7.265816927069747022e-01 4.861188689405291363e-01 4.873763621083674891e-01 -7.253638582931976053e-01
1.592426195154946766e-01 6.683725273801235933e-02 -7.748092536980946132e-01 -8.473388254962381794e-01 3.804522551497035998e-01 -3.705037062677786763e-01
-1.851660992546388107e-01 -9.433792975697101457e-02 -7.361205848729992507e-01 -7.550680662292968970e-02 -3.283252137342179255e-03 -9.971398810643420374e-01
5.593997705589535963e-02 4.951143003759994610e-02 -7.219092307143429865e-01 -5.827837064781732357e-01 3.152377834092072173e-01 -7.489915162235232238e-01
7.015197454177343750e-02 -3.385298067333935429e-02 -7.501199351221101708e-01 -2.157104529438357288e-01 8.654483739969501266e-02 -9.726145133660228925e-01
1.316225138937709149e-01 -6.295303109348995840e-02 -7.984484725489707779e-01 -8.211508044291160324e-01 2.073018458843169879e-03 -5.707075073799933174e-01
1.157170390533845830e-03 7.533533239459941355e-02 -6.783750464822392301e-01 1.819059399905051042e-02 1.756336934194707711e-01 -9.842875128872645707e-01
9.924679382253581705e-02 -1.482935061227622364e-01 -8.152133999941033604e-01 -4.551862338016466336e-01 2.582649856660520493e-01 -8.521177675276973007e-01
1.490694578699419681e-01 -1.044336457683670977e-01 -8.364990498068007874e-01 -6.642741793983838461e-01 4.526388612132052347e-01 -5.948595430050832578e-01
-2.254075433593972708e-02 -1.223305367492363571e-01 -7.575472240544118829e-01 -2.144921113768554766e-01 5.315716502476529604e-01 -8.194050981108706999e-01
-3.395489739085509606e-02 -8.700761929631846414e-02 -7.352659090642039708e-01 -3.195662993904760940e-01 2.197892843045082256e-01 -9.217212435431813011e-01
2.336891452241209380e-02 1.538958893463192035e-01 -6.764618064899029504e-01 -5.305489886235423835e-01 1.182648075973683072e-01 -8.393635719725355271e-01
-1.977252898101427570e-01 -2.909396047654341441e-02 -7.353490188873074151e-01 -3.715420025645336799e-01 -1.640603623440469241e-02 -9.282711792926738870e-01
9.529846608516400266e-03 1.840243815477907996e-01 -6.615387292879250092e-01 -6.977671273794654461e-01 1.356139067190519909e-01 -7.033703890931186642e-01
1.919377507923572014e-03 1.783521937509424116e-01 -6.583163950890151828e-01 1.826181420381933207e-01 2.115708449412546655e-01 -9.601501922977269121e-01
-2.245482272151438918e-01 1.040157596827709224e-01 -7.079214673977736183e-01 8.049702831840152006e-01 2.177659177277549984e-01 -5.519065575501302945e-01
3.181129558841368915e-02 1.038851556499788831e-01 -6.883818756069880473e-01 -5.267788282728242955e-01 1.063166274475409040e-01 -8.433272442010226744e-01
1.501953865645854203e-01 -5.860731254414180275e-02 -8.204565908335206270e-01 -6.568203354829955654e-01 -1.052514872136033758e-01 -7.466653677085406393e-01
-1.809101320328545814e-01 -1.444602510471669210e-01 -7.514405258410054023e-01 -4.167249890140468926e-02 3.438847931429101501e-01 -9.380866974221362398e-01
2.060451601725321602e-01 -1.618582826925610979e-02 -8.945328771977086868e-01 -8.905887886652892327e-01 -1.583964021030455360e-01 -4.263357706133786840e-01
2.684080884502446779e-02 9.113247026564552308e-03 -7.128681880219610578e-01 -6.428438283898170180e-01 2.398744381472112663e-01 -7.274696325103086059e-01
1.257134404701352737e-01 1.155886201662400942e-01 -7.440550965547777507e-01 -4.455363202029108960e-01 2.212403315947408522e-01 -8.674964570855020485e-01
1.334445865400611941e-01 1.147086028840488686e-01 -7.482501588591168318e-01 -4.455363202029108960e-01 2.212403315947408522e-01 -8.674964570855020485e-01
-1.251924415798776613e-01 -4.256092465327662028e-02 -7.082331216984931732e-01 8.476590032630805516e-02 4.079407987164310745e-01 -9.090649299607100886e-01
1.852647777205469193e-01 8.016893225617606478e-02 -8.206320542410329155e-01 -8.473388254962381794e-01 3.804522551497035998e-01 -3.705037062677786763e-01
1.490237419536814545e-01 -2.200196036449453621e-02 -8.233371237586383229e-01 -8.211508044291160324e-01 2.073018458843169879e-03 -5.707075073799933174e-01
1.840971182964801223e-01 -4.128051716740459981e-02 -8.532460834260764404e-01 -7.148685853997222006e-01 -1.260095550804164743e-01 -6.878113823113396474e-01
-4.610639940887450300e-02 1.589466307057599004e-01 -6.648259828479335942e-01 1.366271497807482367e-02 1.564151825573133203e-01 -9.875968918971902433e-01
2.099763015028660307e-01 -2.022394138228506347e-02 -9.014102313947859324e-01 -9.395199254434525304e-01 -1.410922942345841369e-01 -3.120821593785054748e-01
2.709919893770630639e-02 1.653713180638554910e-03 -7.155659989601620419e-01 -6.423086225781171610e-01 2.446091015619559217e-01 -7.263649363748602150e-01
-3.036513952887864159e-02 -1.002212266768324617e-01 -7.411561235203183440e-01 -2.144921113768554766e-01 5.315716502476529604e-01 -8.194050981108706999e-01
-8.496141155079699192e-02 -1.324240157485679914e-01 -7.534920630729213809e-01 -1.502076013846273539e-02 4.518621129625056132e-01 -8.919613263106886958e-01
-2.959478150110522038e-02 -1.863378013267230973e-02 -7.114561646530684902e-01 -2.139084246049878860e-02 4.208087585303279532e-01 -9.068971389319708809e-01
1.528670593274056022e-01 2.023299796492555609e-03 -8.287797336860552866e-01 -8.211508044291160324e-01 2.073018458843169879e-03 -5.707075073799933174e-01
1.576165763921064389e-01 5.862908437057680333e-02 -7.795190762076703583e-01 -8.473388254962381794e-01 3.804522551497035998e-01 -3.705037062677786763e-01
1.312755949756869434e-01 1.292219874815683234e-01 -7.434347956297451265e-01 -4.455363202029108960e-01 2.212403315947408522e-01 -8.674964570855020485e-01
-8.330768238064090170e-02 -1.501386303110006648e-01 -7.607745500348086498e-01 1.048554923580010262e-01 3.072258199531548439e-01 -9.458422813960437603e-01
-2.121347276363683698e-01 -4.885627309620180214e-02 -7.292323444398411958e-01 -3.715420025645336799e-01 -1.640603623440469241e-02 -9.282711792926738870e-01
-8.652212251146573427e-03 1.214089579701723154e-01 -6.703350760178836687e-01 1.819059399905051042e-02 1.756336934194707711e-01 -9.842875128872645707e-01
-1.154987339149765591e-01 -1.954255558800637171e-01 -7.712218741662638655e-01 -5.910697298659955620e-03 1.704171940197979074e-01 -9.853542731626336870e-01
-1.891731607418933037e-01 -2.534866875137713541e-02 -7.343687146769710683e-01 3.811566283089041773e-01 3.327904006188146524e-01 -8.625370565675175571e-01
-7.415021826724040727e-03 1.595936804735543502e-01 -6.641882351223840075e-01 1.366271497807482367e-02 1.564151825573133203e-01 -9.875968918971902433e-01
-1.843811654856979954e-01 2.125907503026278414e-02 -6.999716113696515807e-01 4.861188689405291363e-01 4.873763621083674891e-01 -7.253638582931976053e-01
1.807852341198427915e-01 1.189139129855482785e-01 -7.788575256405436686e-01 -9.263228797559847072e-01 1.858992851300910187e-01 -3.276696174940557649e-01
-1.694627875512423887e-01 -1.326259767653525379e-01 -7.476108291584527832e-01 -4.167249890140468926e-02 3.438847931429101501e-01 -9.380866974221362398e-01
8.507437282945351509e-02 8.509368525692624641e-02 -7.296024819275589435e-01 -5.827837064781732357e-01 3.152377834092072173e-01 -7.489915162235232238e-01
1.393699862960026403e-01 1.215503235463588237e-03 -7.893714656328839618e-01 -9.118596229263754571e-01 3.117817686332634008e-01 -2.670283820579433809e-01
-2.613055935702636098e-02 -1.371991171835165724e-01 -7.642242173768846181e-01 -2.746384112049561343e-01 3.877533864879395553e-01 -8.798983204654685641e-01
-6.620629431648386576e-02 8.205525462581793328e-02 -6.855954935227097646e-01 1.321282811813127012e-01 2.881191831357257649e-01 -9.484352659097373683e-01
-5.286608069918514487e-03 1.353427388140188981e-01 -6.679996439950035558e-01 1.366271497807482367e-02 1.564151825573133203e-01 -9.875968918971902433e-01
-1.581843818871557159e-02 1.163528559527522571e-01 -6.713697125085709150e-01 1.819059399905051042e-02 1.756336934194707711e-01 -9.842875128872645707e-01
-2.219021008648539295e-01 1.167023945181982630e-01 -6.990562533712073590e-01 8.049702831840152006e-01 2.177659177277549984e-01 -5.519065575501302945e-01
4.103683469991389887e-02 -4.527065587701523119e-02 -7.436928954578609918e-01 -6.423086225781171610e-01 2.446091015619559217e-01 -7.263649363748602150e-01
2.215612277095444643e-02 -2.656491648804422401e-02 -7.206977901851135959e-01 -6.423086225781171610e-01 2.446091015619559217e-01 -7.263649363748602150e-01
-4.754069981147054924e-02 1.622421731152680069e-01 -6.643238787667204992e-01 1.366271497807482367e-02 1.564151825573133203e-01 -9.875968918971902433e-01
1.903751827900696802e-01 1.514577861854418672e-01 -7.875049740288381228e-01 -9.263228797559847072e-01 1.858992851300910187e-01 -3.276696174940557649e-01
1.287529737148612186e-01 -3.031542759303700041e-02 -7.899314970811004422e-01 -9.118596229263754571e-01 3.117817686332634008e-01 -2.670283820579433809e-01
-1.922377399857151392e-01 -3.715585655797424419e-02 -7.357733779748353298e-01 -7.550680662292968970e-02 -3.283252137342179255e-03 -9.971398810643420374e-01
4.781450179905370051e-02 1.056569551784009575e-01 -6.990950353703965225e-01 -5.717147964983754216e-01 1.450082932312334594e-01 -8.075362446101017611e-01
-1.163481394171663880e-01 -1.220614804842653917e-01 -7.477139094254918739e-01 -1.502076013846273539e-02 4.518621129625056132e-01 -8.919613263106886958e-01
-1.948595642543021478e-01 -1.227164858613806614e-01 -7.415651338284442451e-01 -3.225609682072216322e-01 2.811385243570696524e-01 -9.038338076834419033e-01
-2.091484470254373063e-01 4.484604955013051647e-02 -7.027328979258677943e-01 4.868750182503491786e-01 4.050014718359988830e-01 -7.739034335202272796e-01
-5.427474710349421139e-02 9.792549386756935204e-02 -6.791121673405166037e-01 1.321282811813127012e-01 2.881191831357257649e-01 -9.484352659097373683e-01
4.583699965788318870e-02 -8.153639162984498145e-02 -7.534605409644068441e-01 -3.680703391216516573e-01 3.109464425703182822e-01 -8.762628231938955903e-01
3.105393536797386791e-02 8.702800794748742630e-02 -6.905741645988126010e-01 -5.717147964983754216e-01 1.450082932312334594e-01 -8.075362446101017611e-01
1.393479675944572782e-01 -6.858938113664471425e-02 -8.095073312515432828e-01 -6.568203354829955654e-01 -1.052514872136033758e-01 -7.466653677085406393e-01
1.757081206967784359e-01 1.362804511650640270e-03 -8.523394906142562899e-01 -7.148685853997222006e-01 -1.260095550804164743e-01 -6.878113823113396474e-01
1.943705727038940595e-02 1.293563861108506241e-01 -6.774341107064023593e-01 -5.305489886235423835e-01 1.182648075973683072e-01 -8.393635719725355271e-01
4.405808950085639969e-02 1.244081426554197595e-01 -6.934444619435318202e-01 -5.267788282728242955e-01 1.063166274475409040e-01 -8.433272442010226744e-01
9.417894221518605113e-02 -1.404055629851686249e-01 -8.093438181099841255e-01 -4.889533675295638648e-01 3.551579710409810686e-01 -7.967354767973827689e-01
-2.402941871069933996e-02 -3.023068136651319775e-04 -7.036006770585571113e-01 -3.447289121824982476e-03 3.403284198816295403e-01 -9.403003152283763155e-01
-3.686684780190007185e-03 -1.120774801170911911e-01 -7.553842948849626149e-01 -1.840545553583455007e-01 5.537051481017514210e-01 -8.121173127187102381e-01
1.340198068598707215e-01 -1.024048105457206898e-01 -8.181494673413787222e-01 -6.642741793983838461e-01 4.526388612132052347e-01 -5.948595430050832578e-01
9.021076723886503612e-02 -8.582458336488162087e-02 -7.803272778460991210e-01 -4.691853425879162209e-01 2.709655522422005913e-01 -8.405015073149715299e-01
7.435672730101841599e-02 1.057699606602836850e-01 -7.178659529862799760e-01 -5.717147964983754216e-01 1.450082932312334594e-01 -8.075362446101017611e-01
6.850329309399866284e-02 1.194638131978715406e-01 -7.112628844970219077e-01 -5.717147964983754216e-01 1.450082932312334594e-01 -8.075362446101017611e-01
-1.388080734138143158e-03 2.956634195150889544e-02 -6.928731481650982627e-01 -3.447289121824982476e-03 3.403284198816295403e-01 -9.403003152283763155e-01
2.750037962345881076e-02 1.621235736903400559e-01 -6.779139771173604556e-01 -5.305489886235423835e-01 1.182648075973683072e-01 -8.393635719725355271e-01
-9.527875505189004057e-02 -8.337400070407455233e-02 -7.276651671031304502e-01 -6.686262466109714475e-02 4.213241494525810649e-01 -9.044420105852494229e-01
-2.173771906939968579e-01 -1.311718173918033914e-01 -7.361590647976484769e-01 -3.225609682072216322e-01 2.811385243570696524e-01 -9.038338076834419033e-01
-7.234307102108602540e-03 1.809413193705101952e-01 -6.594868842378088791e-01 1.826181420381933207e-01 2.115708449412546655e-01 -9.601501922977269121e-01
-1.762772157454891298e-01 5.376618364964750457e-02 -6.813457854436526517e-01 2.014651611164262890e-01 1.883221295852264554e-01 -9.612213919617155211e-01
-1.101124658521618060e-01 -3.008181214753635757e-02 -7.012270139580945028e-01 8.476590032630805516e-02 4.079407987164310745e-01 -9.090649299607100886e-01
1.502547012426692086e-01 -3.765055458296266699e-02 -8.234628760135022096e-01 -6.568203354829955654e-01 -1.052514872136033758e-01 -7.466653677085406393e-01
3.001059493532433689e-02 4.680779025923512832e-02 -7.028717226796175055e-01 -5.827837064781732357e-01 3.152377834092072173e-01 -7.489915162235232238e-01
1.626959484084689878e-01 1.218415524717676446e-01 -7.639958162225247706e-01 -5.834607956524086037e-01 -1.025638306467599875e-01 -8.056389765768047218e-01
-5.846667604291857362e-02 -1.402835720557059351e-01 -7.554905583730514573e-01 -2.746384112049561343e-01 3.877533864879395553e-01 -8.798983204654685641e-01
2.026973808374086805e-01 1.809646776208000685e-01 -7.924753893855644993e-01 -8.865857734609262630e-01 3.324316956446496385e-01 -3.216439553722631461e-01
9.634351489330184037e-02 -6.373457753975568518e-02 -7.764660750076359808e-01 -4.781870548652927266e-01 2.797319665495525132e-01 -8.325185688316973920e-01
2.200638851853579658e-01 -2.252003445874604590e-02 -9.344517684256794521e-01 -9.907484659536823779e-01 -7.694188497571875437e-03 -1.354927181577999518e-01
9.312077516890125695e-02 -8.220446382749048431e-02 -7.807846302417941198e-01 -4.691853425879162209e-01 2.709655522422005913e-01 -8.405015073149715299e-01
3.991420974626097573e-02 1.566244281316810094e-01 -6.865353905902322751e-01 -5.305489886235423835e-01 1.182648075973683072e-01 -8.393635719725355271e-01
1.253739285714791929e-01 -3.989509571421332584e-02 -7.893740687210224483e-01 -8.211508044291160324e-01 2.073018458843169879e-03 -5.707075073799933174e-01
-1.849452055900123459e-01 -7.483677355440238044e-02 -7.362015225523905748e-01 -7.550680662292968970e-02 -3.283252137342179255e-03 -9.971398810643420374e-01
5.985703144587857516e-02 -1.509838678952398795e-02 -7.461678656602677151e-01 -2.157104529438357288e-01 8.654483739969501266e-02 -9.726145133660228925e-01
1.080211643262204702e-01 2.864577134409190470e-02 -7.595577365108453494e-01 -2.861487451800395210e-01 -4.303673492879067641e-02 -9.572182275106120297e-01
-2.858736605966444300e-02 -1.316391439377303726e-02 -7.089418575194071925e-01 -2.139084246049878860e-02 4.208087585303279532e-01 -9.068971389319708809e-01
-2.090364020898468830e-02 -1.169191331016628949e-01 -7.544652311460645633e-01 -2.144921113768554766e-01 5.315716502476529604e-01 -8.194050981108706999e-01
-5.925817689166728436e-02 -2.098436635375826656e-02 -7.107687322313980260e-01 -2.937001819558623383e-01 2.313112397548252597e-01 -9.274887133988096721e-01
1.636664089262834798e-01 3.991024649838256777e-02 -8.220369998226071395e-01 -8.249592303303809881e-01 4.691383896459882519e-01 -3.152006339668031454e-01
2.269480650002854774e-02 -3.293725343642654041e-02 -7.233200709759880498e-01 -6.423086225781171610e-01 2.446091015619559217e-01 -7.263649363748602150e-01
1.882774456769819027e-01 1.007783233083537761e-01 -8.123526415118137445e-01 -9.286777919672078996e-01 1.976120893359053499e-01 -3.138582814825975342e-01
-5.821811659456497395e-02 -2.381781716549385627e-02 -7.118047285779516287e-01 -2.937001819558623383e-01 2.313112397548252597e-01 -9.274887133988096721e-01
5.459778678260662765e-02 -3.155163293960494726e-03 -7.415018255564957972e-01 -6.423086225781171610e-01 2.446091015619559217e-01 -7.263649363748602150e-01
-1.440091336533124711e-01 -1.058757832998017262e-01 -7.391991392652520476e-01 -7.550680662292968970e-02 -3.283252137342179255e-03 -9.971398810643420374e-01
-2.318880986400684296e-01 5.416221732087250773e-02 -7.186887382132737256e-01 7.203820187828046118e-01 2.901350363602557200e-02 -6.929703915905593981e-01
-7.773809566248505998e-02 -1.492406991656276549e-01 -7.598654456239840593e-01 1.048554923580010262e-01 3.072258199531548439e-01 -9.458422813960437603e-01
6.530843291858516586e-02 1.406032129601929859e-01 -7.052050299460398408e-01 -5.717147964983754216e-01 1.450082932312334594e-01 -8.075362446101017611e-01
1.617195184482659309e-01 4.064985396218658009e-02 -8.158406813055962825e-01 -8.249592303303809881e-01 4.691383896459882519e-01 -3.152006339668031454e-01
3.521643728757707648e-02 -3.708894368822665891e-03 -7.245497954948822983e-01 -6.423086225781171610e-01 2.446091015619559217e-01 -7.263649363748602150e-01
1.038175854909784285e-01 -1.204684294319123550e-01 -8.046339963680777529e-01 -4.942539533423597753e-01 4.121621194819694578e-01 -7.653988612936261093e-01
-9.883537799018218828e-02 -1.407054893995386136e-01 -7.574537669675641682e-01 -1.502076013846273539e-02 4.518621129625056132e-01 -8.919613263106886958e-01
1.024565363809899765e-01 -1.611844317249774006e-01 -8.208350470540306532e-01 -4.551862338016466336e-01 2.582649856660520493e-01 -8.521177675276973007e-01
2.989492068885828829e-02 -4.528477797473580424e-02 -7.338451003765221747e-01 -6.423086225781171610e-01 2.446091015619559217e-01 -7.263649363748602150e-01
1.504106392194434760e-01 6.634064185818519532e-02 -7.692807076737879779e-01 -4.368573544203704917e-01 2.246710466767999625e-01 -8.710215684321405138e-01
-2.723777158174536459e-02 8.572912568118272458e-02 -6.790506539541605324e-01 1.321282811813127012e-01 2.881191831357257649e-01 -9.484352659097373683e-01
7.318403221224190069e-02 -1.569091073866770158e-01 -8.038160529601271476e-01 -4.889533675295638648e-01 3.551579710409810686e-01 -7.967354767973827689e-01
1.614932270487336452e-01 -1.615669103743548260e-02 -8.363789074935787937e-01 -6.568203354829955654e-01 -1.052514872136033758e-01 -7.466653677085406393e-01
1.174686842184305274e-01 2.411803648458074253e-02 -7.621783897382358175e-01 -2.861487451800395210e-01 -4.303673492879067641e-02 -9.572182275106120297e-01
-7.690242635684818584e-02 -2.887944152001772902e-02 -7.071504675503805792e-01 -2.937001819558623383e-01 2.313112397548252597e-01 -9.274887133988096721e-01
1.656572750614366818e-01 1.291448506442444688e-01 -7.670702358001081356e-01 -5.834607956524086037e-01 -1.025638306467599875e-01 -8.056389765768047218e-01
1.700881432724794251e-01 8.714982566465806491e-02 -7.787548800429044960e-01 -8.473388254962381794e-01 3.804522551497035998e-01 -3.705037062677786763e-01
1.364504288570368706e-01 -7.917882394747668973e-02 -8.054539570961274375e-01 -8.211508044291160324e-01 2.073018458843169879e-03 -5.707075073799933174e-01
1.383615641969463128e-01 -5.955626672370822883e-02 -8.081324787182150304e-01 -8.211508044291160324e-01 2.073018458843169879e-03 -5.707075073799933174e-01
-1.282110614796994341e-01 8.960778199257186938e-02 -6.763700664498627502e-01 -2.668006720150322697e-01 2.107321502840681926e-01 -9.404304132943490657e-01
-6.586976778663113097e-02 -1.265414148248504012e-01 -7.508334797784146364e-01 -1.502076013846273539e-02 4.518621129625056132e-01 -8.919613263106886958e-01
1.295030518595621238e-01 -1.536729797156487047e-02 -7.796063932439173394e-01 -6.955950870236803363e-01 2.902028496960932236e-01 -6.572136493841141958e-01
-1.745001153583674303e-01 -9.126168140811710683e-02 -7.369383783420510037e-01 -7.550680662292968970e-02 -3.283252137342179255e-03 -9.971398810643420374e-01
7.954106071816710588e-02 -8.471160829826959726e-02 -7.738634063210890757e-01 -4.781870548652927266e-01 2.797319665495525132e-01 -8.325185688316973920e-01
-2.748118819183707484e-01 -1.029845693169714888e-01 -7.215069211002650418e-01 -1.006679552502868086e-01 9.808014282852976773e-02 -9.900738600571482584e-01
-4.528023540377617423e-02 -1.013801734134455040e-01 -7.397493776181219838e-01 -6.686262466109714475e-02 4.213241494525810649e-01 -9.044420105852494229e-01
1.086017591516073855e-01 -1.282466317880056883e-01 -8.119118712066613064e-01 -4.942539533423597753e-01 4.121621194819694578e-01 -7.653988612936261093e-01
-3.250622967416076821e-03 -1.014774933223761139e-01 -7.482560044220911699e-01 -1.840545553583455007e-01 5.537051481017514210e-01 -8.121173127187102381e-01
6.212760194323328766e-02 -5.557928942014206397e-02 -7.510923233144640720e-01 -3.680703391216516573e-01 3.109464425703182822e-01 -8.762628231938955903e-01
1.480293069349948309e-01 1.298379233522064559e-02 -8.052010446116569797e-01 -9.118596229263754571e-01 3.117817686332634008e-01 -2.670283820579433809e-01
1.639903273891361868e-01 -7.404180276958896578e-02 -8.350102514624551109e-01 -7.340977867719484795e-01 3.283881552341015309e-01 -5.943581907894185390e-01
-5.905963032752951924e-02 3.066541670151159624e-02 -6.974194972478929833e-01 1.287657052750178222e-01 2.268787088855858947e-01 -9.653732151864568012e-01
2.904325082502918695e-02 1.933987628496089753e-02 -7.114423130893051672e-01 -6.428438283898170180e-01 2.398744381472112663e-01 -7.274696325103086059e-01
1.877508034661769243e-01 1.572221213486876268e-01 -7.845777656456998095e-01 -4.385080061634198390e-01 -1.257118847859096944e-01 -8.898917072060829048e-01
1.101523481707100075e-03 1.060604962321116673e-01 -6.728935568923241073e-01 1.819059399905051042e-02 1.756336934194707711e-01 -9.842875128872645707e-01
2.235969308777102302e-02 1.218007580666225220e-01 -6.802194089422958223e-01 -5.267788282728242955e-01 1.063166274475409040e-01 -8.433272442010226744e-01
1.440645696255554720e-01 -5.617926695344738902e-02 -8.154057474539632144e-01 -6.568203354829955654e-01 -1.052514872136033758e-01 -7.466653677085406393e-01
1.650054455267572773e-01 3.302578880846371301e-02 -8.357882856084160039e-01 -8.249592303303809881e-01 4.691383896459882519e-01 -3.152006339668031454e-01
-2.152648244995928606e-01 -1.080268492068725689e-01 -7.306329798108243123e-01 -2.370489365353103950e-01 5.837336358682854165e-02 -9.697424153408154002e-01
9.188383205081952776e-03 1.136119312510811968e-01 -6.730243861575292419e-01 -5.267788282728242955e-01 1.063166274475409040e-01 -8.433272442010226744e-01
1.563915576476274383e-01 -1.127773974733623646e-02 -8.325788607109888551e-01 -6.568203354829955654e-01 -1.052514872136033758e-01 -7.466653677085406393e-01
7.098492872725685465e-02 1.298481536173589634e-01 -7.111551151305178786e-01 -5.717147964983754216e-01 1.450082932312334594e-01 -8.075362446101017611e-01
5.126020762873179787e-02 2.472546469508856218e-02 -7.286999343362612347e-01 -5.827837064781732357e-01 3.152377834092072173e-01 -7.489915162235232238e-01
1.761587373246746024e-01 -5.291904640260738230e-02 -8.440976434267863926e-01 -6.568203354829955654e-01 -1.052514872136033758e-01 -7.466653677085406393e-01
1.083992734511035061e-01 6.713681357139703043e-02 -7.481893658123763835e-01 -4.166967970852910597e-01 2.687915430318805754e-01 -8.683978844362764127e-01
-1.311247115984441325e-01 7.504884380416886047e-02 -6.788058368250178276e-01 -2.668006720150322697e-01 2.107321502840681926e-01 -9.404304132943490657e-01
1.257158561824605891e-01 -1.092246408563719434e-01 -8.140658482331617485e-01 -6.642741793983838461e-01 4.526388612132052347e-01 -5.948595430050832578e-01
4.593876329266786268e-02 4.971395613590090523e-02 -7.140421345231403594e-01 -5.827837064781732357e-01 3.152377834092072173e-01 -7.489915162235232238e-01
-1.974971481963513631e-01 -3.874882291266806139e-02 -7.352696952666333274e-01 -3.715420025645336799e-01 -1.640603623440469241e-02 -9.282711792926738870e-01
-1.116748957544215839e-02 1.851391255630969734e-01 -6.593099713664160033e-01 1.826181420381933207e-01 2.115708449412546655e-01 -9.601501922977269121e-01
-1.338208154911079729e-02 3.636892549981102229e-02 -6.903670772210821482e-01 -3.447289121824982476e-03 3.403284198816295403e-01 -9.403003152283763155e-01
-3.015844856464307971e-02 2.261647867259946026e-03 -7.026502198815507416e-01 -3.447289121824982476e-03 3.403284198816295403e-01 -9.403003152283763155e-01
1.488094146128770556e-01 -1.867023027476288378e-03 -8.229556057966974647e-01 -8.211508044291160324e-01 2.073018458843169879e-03 -5.707075073799933174e-01
-6.931687821302021102e-02 -7.887626967570562919e-02 -7.269399453614234785e-01 -4.122474663364400493e-02 4.850774714144846511e-01 -8.734989221465140341e-01
9.808722492297802797e-02 7.476444345528708568e-02 -7.408802277859229957e-01 -4.166967970852910597e-01 2.687915430318805754e-01 -8.683978844362764127e-01
-3.959774290112157841e-02 9.374598207221797319e-02 -6.783371541791675119e-01 1.321282811813127012e-01 2.881191831357257649e-01 -9.484352659097373683e-01
1.405470974126695194e-01 -4.395002573284226971e-02 -8.112204008320150761e-01 -8.211508044291160324e-01 2.073018458843169879e-03 -5.707075073799933174e-01
-3.389249044794860610e-02 9.800679725586873559e-02 -6.762479786057050690e-01 1.321282811813127012e-01 2.881191831357257649e-01 -9.484352659097373683e-01
1.905659110462653572e-01 1.045233203013671841e-01 -8.167660674671531895e-01 -9.286777919672078996e-01 1.976120893359053499e-01 -3.138582814825975342e-01
9.333510571392436561e-02 -2.854947586391415326e-02 -7.547896708725077008e-01 -2.157104529438357288e-01 8.654483739969501266e-02 -9.726145133660228925e-01
-1.746486696494510271e-01 -1.024359881792335919e-01 -7.368903360085437004e-01 -7.550680662292968970e-02 -3.283252137342179255e-03 -9.971398810643420374e-01
1.215293024635190344e-01 9.916181310440025376e-02 -7.460955507563571398e-01 -4.455363202029108960e-01 2.212403315947408522e-01 -8.674964570855020485e-01
2.988873049149016678e-02 8.300074286169910331e-02 -6.904724007053572032e-01 -5.717147964983754216e-01 1.450082932312334594e-01 -8.075362446101017611e-01
9.367674099623846118e-02 2.841188767140773175e-02 -7.531111885668173578e-01 -4.166967970852910597e-01 2.687915430318805754e-01 -8.683978844362764127e-01
-2.307235359659224605e-01 1.090430515183631599e-01 -7.149446983425299385e-01 8.049702831840152006e-01 2.177659177277549984e-01 -5.519065575501302945e-01
1.094411774089609907e-01 -1.033641868798899494e-01 -7.990548943588182684e-01 -4.942539533423597753e-01 4.121621194819694578e-01 -7.653988612936261093e-01
1.299894607554996917e-01 1.199014133464508525e-01 -7.451513068528115014e-01 -4.455363202029108960e-01 2.212403315947408522e-01 -8.674964570855020485e-01
5.440517977248383180e-02 1.156852554018738821e-01 -7.019602955149326640e-01 -5.717147964983754216e-01 1.450082932312334594e-01 -8.075362446101017611e-01
-4.201917849994311893e-02 1.076619147689061862e-01 -6.744470552234532734e-01 1.321282811813127012e-01 2.881191831357257649e-01 -9.484352659097373683e-01
-1.815885421123924759e-01 1.128642679570926316e-01 -6.793247043354219139e-01 3.522814420413541425e-01 -5.810940851983375371e-02 -9.340883696068263964e-01
-3.580221801649908359e-02 1.666494644189823737e-01 -6.634634600960406248e-01 1.366271497807482367e-02 1.564151825573133203e-01 -9.875968918971902433e-01
1.870912503027493123e-01 -1.332962423963155937e-02 -8.614787045186823589e-01 -7.148685853997222006e-01 -1.260095550804164743e-01 -6.878113823113396474e-01
1.510827936657009873e-01 8.594880465751236764e-02 -7.645601002911474042e-01 -4.368573544203704917e-01 2.246710466767999625e-01 -8.710215684321405138e-01
-2.088848750139247756e-01 -1.005572493438884468e-01 -7.319250981789944266e-01 -2.331533073139561985e-01 -4.246736654782819198e-03 -9.724307175919263413e-01
2.341493905504279591e-02 7.344398860665854456e-02 -6.876052182776191124e-01 -5.717147964983754216e-01 1.450082932312334594e-01 -8.075362446101017611e-01
2.153436570326438051e-02 -8.099665465117350527e-02 -7.415679217708264215e-01 -2.913865453546499173e-01 5.457789997821236305e-01 -7.856329706568504490e-01
-1.863490652633805755e-01 -1.064388810498483884e-01 -7.372609996499137619e-01 -4.167249890140468926e-02 3.438847931429101501e-01 -9.380866974221362398e-01
1.401726398086808878e-01 1.364553153593609791e-01 -7.495444001503878129e-01 -5.834607956524086037e-01 -1.025638306467599875e-01 -8.056389765768047218e-01
1.719940071260969705e-01 7.360770003654518168e-02 -7.970193253359978414e-01 -8.473388254962381794e-01 3.804522551497035998e-01 -3.705037062677786763e-01
-1.202561899062350448e-01 6.576093076255040693e-02 -6.839704834693015600e-01 -2.668006720150322697e-01 2.107321502840681926e-01 -9.404304132943490657e-01
-2.951653634754470776e-02 3.382505061936430524e-02 -6.927363437016251790e-01 1.287657052750178222e-01 2.268787088855858947e-01 -9.653732151864568012e-01
-1.678006003428216542e-01 7.486564223926574224e-02 -6.754353492943717674e-01 2.014651611164262890e-01 1.883221295852264554e-01 -9.612213919617155211e-01
-2.116084168711526714e-01 8.751937799698672471e-02 -6.955573941563751861e-01 8.049702831840152006e-01 2.177659177277549984e-01 -5.519065575501302945e-01
7.977593248007419646e-02 -1.929726679663460592e-02 -7.509591848187473495e-01 -2.157104529438357288e-01 8.654483739969501266e-02 -9.726145133660228925e-01
8.630351727861770850e-02 -4.707855359490198399e-02 -7.594014678362162041e-01 -5.351032371483689376e-01 4.542957848928985132e-01 -7.122358214958595113e-01
-5.532625753680980862e-02 6.681549706213413264e-02 -6.884256554857690613e-01 1.287657052750178222e-01 2.268787088855858947e-01 -9.653732151864568012e-01
2.279310808462340840e-02 9.257405412081383400e-02 -6.841746925668442669e-01 -5.267788282728242955e-01 1.063166274475409040e-01 -8.433272442010226744e-01
1.221381103229211666e-02 1.472806554693203984e-01 -6.703429091675787710e-01 -5.305489886235423835e-01 1.182648075973683072e-01 -8.393635719725355271e-01
7.754163888791312798e-02 7.994494161069622129e-02 -7.259083465307578642e-01 -5.827837064781732357e-01 3.152377834092072173e-01 -7.489915162235232238e-01
9.925443437766842680e-03 7.839811559895641657e-02 -6.779241233281790846e-01 -5.267788282728242955e-01 1.063166274475409040e-01 -8.433272442010226744e-01
7.153749509114556981e-02 1.894282257768225772e-02 -7.454186914285263477e-01 -4.166967970852910597e-01 2.687915430318805754e-01 -8.683978844362764127e-01
1.793817232939738660e-01 1.351029925423242462e-01 -7.773290791150014867e-01 -4.385080061634198390e-01 -1.257118847859096944e-01 -8.898917072060829048e-01
1.084984856978946643e-01 -1.341959602296167176e-01 -8.150488558935182759e-01 -4.942539533423597753e-01 4.121621194819694578e-01 -7.653988612936261093e-01
6.048088083438642182e-02 9.943361274323207766e-02 -7.091800224302726718e-01 -5.717147964983754216e-01 1.450082932312334594e-01 -8.075362446101017611e-01
-3.876824975245882210e-02 -1.124590151834627405e-01 -7.468954831956553519e-01 -2.144921113768554766e-01 5.315716502476529604e-01 -8.194050981108706999e-01
7.621814761509387859e-02 -7.648051131931368068e-03 -7.491335582875410237e-01 -2.157104529438357288e-01 8.654483739969501266e-02 -9.726145133660228925e-01
-1.548636628592057751e-01 1.884017556551687358e-02 -6.846663505805492544e-01 -2.668006720150322697e-01 2.107321502840681926e-01 -9.404304132943490657e-01
-1.433968038334358097e-01 -1.174389018088594916e-01 -7.432161617356571881e-01 -9.719599746792176309e-02 4.096289680593732108e-01 -9.070595606699864977e-01
7.167334526403219830e-02 4.757619781004972931e-02 -7.349657323511391560e-01 -5.827837064781732357e-01 3.152377834092072173e-01 -7.489915162235232238e-01
-7.106137563296444082e-02 5.262092677299141930e-02 -6.938604337426012014e-01 1.287657052750178222e-01 2.268787088855858947e-01 -9.653732151864568012e-01
6.457740895465309550e-02 5.080323808888230486e-02 -7.280862404260974863e-01 -5.827837064781732357e-01 3.152377834092072173e-01 -7.489915162235232238e-01
-7.067203889765415192e-02 -1.433395844652932960e-01 -7.571653235066007070e-01 1.048554923580010262e-01 3.072258199531548439e-01 -9.458422813960437603e-01
-1.540816582922566527e-02 3.267394047603270138e-03 -7.023402811157960501e-01 -3.447289121824982476e-03 3.403284198816295403e-01 -9.403003152283763155e-01
-1.332252894101327093e-02 5.158355576579042034e-02 -6.864027730078193779e-01 1.287657052750178222e-01 2.268787088855858947e-01 -9.653732151864568012e-01
-8.171377335377974158e-03 1.234813954722068924e-01 -6.699563893834232786e-01 1.819059399905051042e-02 1.756336934194707711e-01 -9.842875128872645707e-01
1.202197375990126521e-02 1.791250287931444862e-01 -6.649556271389096551e-01 -6.977671273794654461e-01 1.356139067190519909e-01 -7.033703890931186642e-01
3.012934802965699238e-02 1.253914666236665976e-01 -6.846199992563855030e-01 -5.267788282728242955e-01 1.063166274475409040e-01 -8.433272442010226744e-01
5.491815476218988440e-02 -3.490882651716251117e-02 -7.468352667216874297e-01 -2.157104529438357288e-01 8.654483739969501266e-02 -9.726145133660228925e-01
