3.555867559674483896e-02 -7.475067302108230616e-02 -8.669129284594562224e-01 -9.649652926249960849e-01 -2.592865360420382181e-01 4.015565036799049331e-02
1.674852960904745988e-02 2.736491840580592902e-02 -7.989798522478258613e-01 -9.274146847176273356e-01 -7.075858508053521623e-02 -3.672808533091599936e-01
-9.548177673504134114e-03 -4.041087167871505043e-02 -1.064278544538288740e+00 -8.399654935429797797e-01 -1.086565900312478627e-01 5.316499930404209318e-01
3.683069596472396401e-02 -1.883787004008216082e-01 -8.566978531823695731e-01 -9.440153264930225552e-01 -1.836907913184152585e-01 -2.740305759054751378e-01
-9.822997624435300321e-04 -5.799097091055485653e-02 -1.054338079379948168e+00 -8.399654935429797797e-01 -1.086565900312478627e-01 5.316499930404209318e-01
-5.685485205112536002e-03 -1.140644629552977629e-01 -7.295025406122608302e-01 -8.387319920117881633e-01 1.624404380379816659e-01 -5.197516230527485792e-01
2.247337734136690274e-02 -1.324421197966765829e-01 -7.806866299424065625e-01 -8.387319920117881633e-01 1.624404380379816659e-01 -5.197516230527485792e-01
-6.461232586116029408e-02 1.410877802618535903e-01 -1.023461035280709641e+00 -5.271418977657652549e-01 -3.457659142052832424e-01 7.762521189624488338e-01
8.170839649542830166e-03 1.053329744645871008e-01 -8.644168762409266682e-01 -8.760456326492758183e-01 -3.950775694451977293e-01 2.765099702314641195e-01
4.067130073617108293e-02 -7.382587610626692443e-02 -8.995481253265232846e-01 -9.909851908164785117e-01 1.154472902440167453e-01 6.797260299371656045e-02
-3.911682111330993389e-02 6.071750635692348477e-03 -6.331170715598913867e-01 -4.397701048471856500e-01 3.544367430153825826e-01 -8.252132149228724733e-01
3.943001191623157764e-02 -9.266829842402633799e-02 -8.856424086332849166e-01 -9.909851908164785117e-01 1.154472902440167453e-01 6.797260299371656045e-02
9.940021436025240492e-03 -5.171775451077880587e-02 -1.033118810123452302e+00 -9.424633168915441672e-01 -1.238247738479502924e-01 3.105323198884342717e-01
1.883422747560895699e-02 -1.801349695485064129e-01 -7.345576223441108166e-01 -9.766505199631773104e-01 -2.034285799504028658e-01 6.906934714486505367e-02
2.259179581043237184e-02 4.000146694920467955e-02 -8.818026753084232672e-01 -8.596748495574831894e-01 -3.207023788994863289e-01 3.976293968087986630e-01
1.526404307043307748e-02 7.069627479941109627e-02 -8.757490217439782842e-01 -9.011044920481561249e-01 -2.383706630319448738e-01 3.622017689304479204e-01
1.979759896940657196e-02 -1.830154448325544136e-01 -7.461098660082561285e-01 -9.847891660868941521e-01 -3.882635685289161087e-02 -1.693600081820136605e-01
-2.776376566871915572e-02 -4.665715172824475704e-02 -6.531590999868780445e-01 -7.736620813008570074e-01 2.983677335557785582e-01 -5.589487271029554005e-01
3.811513655352501140e-02 -1.113374784013008850e-01 -8.598828423545382682e-01 -9.935673861078990754e-01 2.591096938739924707e-02 -1.102382462130190727e-01
-6.864596455448258860e-02 1.931871882939659724e-01 -1.002628045602771856e+00 -5.337564520667129608e-01 -3.590612159009646809e-01 7.656233363168049033e-01
-6.411634933664290235e-03 7.275819391103932610e-02 -9.363718345498358575e-01 -9.566238300762314184e-01 -2.434659309445082465e-01 1.599849624171142959e-01
3.176573456047397659e-02 3.357851718353394022e-02 -8.493536165075029620e-01 -9.784331000430767089e-01 -2.573619449676796400e-02 -2.049544267219404192e-01
-5.479340043236640909e-03 -9.592365168605836157e-02 -7.218388865664167042e-01 -7.773347416261732201e-01 3.913648503009899970e-01 -4.925284290372018980e-01
3.747366940049660922e-02 -7.922102908686474987e-02 -8.376872604770254638e-01 -9.705374422338048923e-01 -2.401841374308461563e-01 1.920034762352790941e-02
-5.890748066692378521e-02 1.704130223644566011e-01 -1.006519438354435358e+00 -5.337564520667129608e-01 -3.590612159009646809e-01 7.656233363168049033e-01
-2.352842316655412436e-02 1.190346555629703540e-01 -9.643692043721875384e-01 -9.400558328232259120e-01 -2.955994585994050072e-01 1.700470265860879460e-01
-2.063737452270235709e-02 -4.723023790372678221e-02 -1.083192326004005057e+00 -8.399654935429797797e-01 -1.086565900312478627e-01 5.316499930404209318e-01
2.327434359506620840e-03 5.989838263502218763e-02 -9.150396551880979334e-01 -9.011044920481561249e-01 -2.383706630319448738e-01 3.622017689304479204e-01
1.963354859499231390e-03 1.171851937764260276e-01 -8.671491247062146357e-01 -8.760456326492758183e-01 -3.950775694451977293e-01 2.765099702314641195e-01
-1.090368833953791194e-01 9.942701277927781453e-03 -1.137382981267024640e+00 -2.858213612693925598e-01 -6.778147468396863440e-01 6.774018884006474117e-01
3.416406111359843872e-02 -4.995217026566372426e-02 -9.385905168717643132e-01 -9.734676764580253439e-01 -1.894398873870867250e-01 1.283480111189158612e-01
2.801102823636091727e-02 1.048640450136186994e-02 -8.285293185401633176e-01 -9.784331000430767089e-01 -2.573619449676796400e-02 -2.049544267219404192e-01
3.975155698414204603e-02 -8.314662441000560122e-02 -8.971265217707259376e-01 -9.909851908164785117e-01 1.154472902440167453e-01 6.797260299371656045e-02
1.673703305643808176e-02 1.225729377130350094e-02 -9.542212776013735409e-01 -9.330168085215612139e-01 -3.417966555167331055e-01 -1.124930277564610975e-01
-1.205020131740279672e-02 2.021046951779950640e-01 -7.768220550685562831e-01 -6.769912578009595894e-01 -7.358761966648962316e-01 1.300230914420368901e-02
2.035312634064453258e-02 2.423820535478874490e-03 -9.660346256918199703e-01 -9.734676764580253439e-01 -1.894398873870867250e-01 1.283480111189158612e-01
3.330148925110706232e-02 -5.462762868633920521e-02 -8.720741970740416571e-01 -9.874794702987113038e-01 4.464777848417714190e-02 -1.512972954649368929e-01
-5.545267159300066445e-02 3.314873942499439036e-02 -1.057019196375652559e+00 -7.276284194272073513e-01 -6.217335938265091677e-01 2.898348176969727796e-01
1.965149123780044610e-02 -1.846608697121761844e-01 -7.448830641974367728e-01 -9.847891660868941521e-01 -3.882635685289161087e-02 -1.693600081820136605e-01
1.469908266658424140e-02 -1.906659051383408424e-02 -7.430329091082460424e-01 -9.468263728433934379e-01 -3.011950975797632601e-01 -1.131429753990083609e-01
2.002756559326500374e-02 5.692563774416911637e-02 -8.129547184886908306e-01 -9.274146847176273356e-01 -7.075858508053521623e-02 -3.672808533091599936e-01
2.128101364728476538e-02 1.249874340732064042e-02 -8.075607045260256855e-01 -9.274146847176273356e-01 -7.075858508053521623e-02 -3.672808533091599936e-01
8.208439193057134181e-03 1.158147745614719198e-01 -7.945987701439349848e-01 -9.411107006553349752e-01 -1.683917324613972144e-01 -2.931806159190501471e-01
-1.174604866168267245e-02 1.644416022410772893e-01 -8.370302445093358301e-01 -8.850898687402302123e-01 -4.098096034785179143e-01 2.206173455333510502e-01
-1.320613769978210309e-03 -1.259483375045247766e-01 -7.294323508813913559e-01 -8.904699012210191000e-01 -3.633772792119575601e-01 -2.738983533574883555e-01
-2.133320863549437174e-02 1.263718180236758082e-01 -9.394791162581288546e-01 -9.400558328232259120e-01 -2.955994585994050072e-01 1.700470265860879460e-01
2.749812089635493909e-02 -1.778908227857806112e-01 -8.076506621083946458e-01 -9.960957098285607714e-01 1.947752334137546051e-03 -8.825838839442169681e-02
-4.814631112638208428e-03 9.632841511000719836e-02 -9.088328834141107260e-01 -9.011044920481561249e-01 -2.383706630319448738e-01 3.622017689304479204e-01
3.727173769464785149e-03 -4.031405410365595382e-02 -6.933609449796371837e-01 -7.736620813008570074e-01 2.983677335557785582e-01 -5.589487271029554005e-01
1.178393327211270034e-02 5.262725276593385737e-02 -8.962985274974284433e-01 -9.011044920481561249e-01 -2.383706630319448738e-01 3.622017689304479204e-01
1.927721977196838674e-02 -1.848627838374273802e-01 -7.426604729337249466e-01 -9.847891660868941521e-01 -3.882635685289161087e-02 -1.693600081820136605e-01
8.984126646836570682e-03 2.413245322141384028e-02 -9.259999533593938903e-01 -9.330168085215612139e-01 -3.417966555167331055e-01 -1.124930277564610975e-01
2.872609609812343257e-02 1.670872792359446787e-02 -8.872377953720659294e-01 -8.606844095199230882e-01 -3.161454587786411419e-01 3.990919644680706591e-01
3.430429350517044673e-02 -5.573506409053929217e-02 -8.789460525228324217e-01 -9.874794702987113038e-01 4.464777848417714190e-02 -1.512972954649368929e-01
1.906858791473441464e-03 -9.406940137807193528e-03 -6.837748762067074049e-01 -8.940092750146815259e-01 -6.970127225635663892e-02 -4.425936610860677911e-01
1.938005716126717237e-02 5.518196141728796619e-03 -9.556665661440181259e-01 -9.330168085215612139e-01 -3.417966555167331055e-01 -1.124930277564610975e-01
2.150126821488864554e-02 -6.301275106836255746e-02 -7.383593335749297770e-01 -9.650087194082169750e-01 7.980658084701072741e-02 -2.497780637278274318e-01
9.459479682434939959e-03 -1.653701351084009129e-03 -7.455402018579565526e-01 -9.468263728433934379e-01 -3.011950975797632601e-01 -1.131429753990083609e-01
1.911571302997643398e-02 -7.682241584224223062e-03 -7.982051677429504721e-01 -9.274146847176273356e-01 -7.075858508053521623e-02 -3.672808533091599936e-01
-1.133928868252922183e-02 -1.131835550090141695e-01 -7.137955408228666698e-01 -8.904699012210191000e-01 -3.633772792119575601e-01 -2.738983533574883555e-01
2.549794862380672447e-02 -7.270402628568768677e-02 -7.568968260725955632e-01 -9.650087194082169750e-01 7.980658084701072741e-02 -2.497780637278274318e-01
1.987246277492752105e-03 1.026137076753162874e-01 -8.877743677440369519e-01 -9.011044920481561249e-01 -2.383706630319448738e-01 3.622017689304479204e-01
7.444001891250909449e-03 6.081607437345384892e-02 -9.017064437321407055e-01 -9.011044920481561249e-01 -2.383706630319448738e-01 3.622017689304479204e-01
3.220434067081140439e-02 -9.912641612167848171e-02 -8.023194414837092614e-01 -9.897508572537767613e-01 1.006439014893945882e-01 -1.013116264720248516e-01
1.836665121203391940e-02 -3.315701712964188447e-02 -7.362148384880805585e-01 -9.468263728433934379e-01 -3.011950975797632601e-01 -1.131429753990083609e-01
6.653775486244790753e-03 -1.204958163486095080e-01 -7.514246358143478188e-01 -8.387319920117881633e-01 1.624404380379816659e-01 -5.197516230527485792e-01
-7.846324790133422933e-02 2.082966040925452733e-01 -1.004531240395285518e+00 -5.857264356155124085e-01 -2.170996613343280091e-01 7.808919769530654476e-01
1.129445147226272247e-02 -4.352281379357143820e-02 -1.025740391972714827e+00 -9.424633168915441672e-01 -1.238247738479502924e-01 3.105323198884342717e-01
1.927545581922862628e-02 -1.804012691128511203e-01 -7.291029168260118043e-01 -9.766505199631773104e-01 -2.034285799504028658e-01 6.906934714486505367e-02
3.294579183506499837e-02 -5.748969904005832993e-02 -7.910539722231403337e-01 -9.440806593500424837e-01 -3.095029763881391172e-01 -1.136644898289355388e-01
3.423144146240899438e-02 -1.747320467361769825e-01 -8.519065775809068208e-01 -9.595443345028069615e-01 3.766707625836838297e-02 -2.790266322230036677e-01
-7.010730449622848415e-02 1.374528874142596710e-03 -1.117200256778517531e+00 -6.100377894831368053e-01 -4.572039525603088794e-01 6.471618353748611607e-01
-7.792504758597018633e-02 3.028155281514574582e-02 -1.095394955508592671e+00 -5.747792253407003615e-01 -6.068632372181488321e-01 5.489497731394497038e-01
-4.307437238811252789e-02 1.695725070034036774e-01 -9.689785537270521054e-01 -7.678228467239506250e-01 -6.066293002031020176e-01 2.060314737699641685e-01
2.287872501513295298e-02 6.003297777343043554e-03 -9.083287092521180606e-01 -8.606844095199230882e-01 -3.161454587786411419e-01 3.990919644680706591e-01
-3.251476225865479203e-03 7.603995702198075579e-02 -9.182961373518874204e-01 -9.011044920481561249e-01 -2.383706630319448738e-01 3.622017689304479204e-01
1.275364116253568242e-02 5.982292585773352905e-02 -7.951456324278054488e-01 -9.274146847176273356e-01 -7.075858508053521623e-02 -3.672808533091599936e-01
1.611563115768648718e-02 -1.060837167723486518e-01 -1.045249150281580164e+00 -9.444534794622971852e-01 -2.638285514593873282e-01 1.959645900830082887e-01
1.422080931232318907e-02 -1.933429476924589385e-01 -6.583922328773877952e-01 -9.788342827966171056e-01 -1.172597211479651513e-01 -1.677307503659782040e-01
3.043906031132252374e-02 -1.679320823606344007e-02 -8.422269177641890092e-01 -9.874794702987113038e-01 4.464777848417714190e-02 -1.512972954649368929e-01
-3.255269936260189040e-02 1.446872727837588413e-01 -9.699560466372498801e-01 -9.431353841542990946e-01 -2.900760752231307249e-01 1.623315056890287933e-01
3.048038734429741464e-02 -4.140413401152475553e-02 -9.530618830370213290e-01 -9.213167734750120630e-01 -8.907798906072537937e-02 3.784712865971348039e-01
-2.138320249423026134e-02 9.473418172273463667e-02 -9.936116498968144972e-01 -8.750273928203118334e-01 -4.760350585642270649e-01 -8.785035476217770145e-02
2.373724907421898012e-02 2.315035190993802380e-02 -8.928939670955959862e-01 -8.606844095199230882e-01 -3.161454587786411419e-01 3.990919644680706591e-01
1.795469074572940762e-02 6.916249874361886374e-02 -8.700644898946539030e-01 -9.011044920481561249e-01 -2.383706630319448738e-01 3.622017689304479204e-01
3.570522469231265233e-02 -4.400609212340057634e-03 -8.889085729363008781e-01 -8.606844095199230882e-01 -3.161454587786411419e-01 3.990919644680706591e-01
-5.605822700157978011e-02 2.916632462064802991e-02 -1.066613725753447595e+00 -6.769086819945091538e-01 -6.452616419790441205e-01 3.541638739778017464e-01
1.340333022708856819e-02 1.421492224735015214e-02 -9.325195778851286255e-01 -9.330168085215612139e-01 -3.417966555167331055e-01 -1.124930277564610975e-01
2.705662706883325136e-02 -1.686867122275758357e-01 -8.024647818350303385e-01 -9.960957098285607714e-01 1.947752334137546051e-03 -8.825838839442169681e-02
-1.875372175405180461e-02 9.540709536089622689e-02 -9.757036467015730574e-01 -9.566238300762314184e-01 -2.434659309445082465e-01 1.599849624171142959e-01
8.618006181676018951e-03 -1.073438951321111362e-01 -7.504839158669475152e-01 -8.387319920117881633e-01 1.624404380379816659e-01 -5.197516230527485792e-01
-2.093470942254165371e-02 -4.659778436176453820e-02 -6.625797647219898723e-01 -7.736620813008570074e-01 2.983677335557785582e-01 -5.589487271029554005e-01
3.495518547034996704e-02 -1.627028012574279758e-01 -8.537756009962373938e-01 -9.496785159506786478e-01 -7.662641573729981476e-03 -3.131325602134484298e-01
-1.175952179874636787e-02 1.575538304153321356e-01 -7.573828642861127891e-01 -9.363934443142297726e-01 -1.875376350870500419e-01 -2.966428035049728518e-01
1.550975030865559857e-02 -1.825300295249535354e-01 -6.799083813037262169e-01 -9.181624303620827821e-01 -3.008825090503672861e-01 -2.577740623475311410e-01
-4.310066031140444807e-03 -7.685269717892015406e-02 -7.085304488047355909e-01 -7.773347416261732201e-01 3.913648503009899970e-01 -4.925284290372018980e-01
-2.286011439287710060e-03 4.294999548794160849e-02 -7.535368148099991226e-01 -9.387668400159596693e-01 -1.251089357859059767e-02 -3.443258596566843299e-01
3.260898129907371934e-02 -1.637005054239225876e-01 -8.458553226881961873e-01 -9.868201252914482469e-01 7.831713441129997677e-02 -1.416067328108835399e-01
-3.593711449662593052e-04 1.671709229798615526e-01 -7.946969828104512024e-01 -8.023888693846640274e-01 -4.240945588040427316e-01 4.198998779237792522e-01
2.116965276828681238e-03 1.253704026950669681e-01 -7.808395182882026386e-01 -9.363934443142297726e-01 -1.875376350870500419e-01 -2.966428035049728518e-01
8.350763342986788906e-03 4.747633473653128933e-02 -9.082296470050797987e-01 -9.011044920481561249e-01 -2.383706630319448738e-01 3.622017689304479204e-01
-2.591137834540873774e-03 -9.932275704707874478e-03 -6.746064953264695463e-01 -8.940092750146815259e-01 -6.970127225635663892e-02 -4.425936610860677911e-01
3.430813527988017114e-02 -6.517372633147744398e-02 -8.219755706305306164e-01 -9.705374422338048923e-01 -2.401841374308461563e-01 1.920034762352790941e-02
2.476768974754726060e-05 3.243583531288917604e-02 -7.573356065871461595e-01 -9.468263728433934379e-01 -3.011950975797632601e-01 -1.131429753990083609e-01
2.451398610684783416e-02 -1.978608402586723436e-01 -6.951190667645609222e-01 -9.218916362495603867e-01 -3.737831051509841740e-01 -1.019902020627310030e-01
-8.513368123925420814e-04 6.501278641859872809e-02 -9.195820989374635657e-01 -9.011044920481561249e-01 -2.383706630319448738e-01 3.622017689304479204e-01
-2.331382361015018820e-02 8.599120403957867531e-02 -1.002454463887511915e+00 -5.330044970839631358e-01 -2.275326339951222743e-01 8.149448487815069697e-01
-1.585303119302563374e-02 1.133690172354491765e-01 -9.310245366333461670e-01 -9.566238300762314184e-01 -2.434659309445082465e-01 1.599849624171142959e-01
3.857902973388260826e-02 -5.468260140496315758e-02 -8.904317390388527542e-01 -9.329698475698829929e-01 7.272348650180070206e-02 -3.525316411848044562e-01
3.871170083344547402e-02 -9.946281859929989588e-02 -8.624685408341721260e-01 -9.935673861078990754e-01 2.591096938739924707e-02 -1.102382462130190727e-01
7.679376238323446825e-03 -2.348941484298991758e-03 -9.993745006440654111e-01 -9.213167734750120630e-01 -8.907798906072537937e-02 3.784712865971348039e-01
2.766321576518720668e-02 -2.014099090587484139e-02 -8.250976066616322324e-01 -9.874794702987113038e-01 4.464777848417714190e-02 -1.512972954649368929e-01
2.629222645278047818e-02 -4.998626073996714075e-02 -7.562219335444704260e-01 -9.440806593500424837e-01 -3.095029763881391172e-01 -1.136644898289355388e-01
-6.399426194304388971e-02 4.813605296882764173e-02 -1.046313055373435885e+00 -7.276284194272073513e-01 -6.217335938265091677e-01 2.898348176969727796e-01
1.672404728175808097e-02 -1.920874806976810914e-02 -9.813251274995047346e-01 -9.213167734750120630e-01 -8.907798906072537937e-02 3.784712865971348039e-01
3.033610510222395709e-02 -2.516652551876959881e-02 -8.440259179316038640e-01 -9.874794702987113038e-01 4.464777848417714190e-02 -1.512972954649368929e-01
-4.030173563470414860e-02 -6.432504643419446888e-02 -6.452441230298673336e-01 -7.671696560605540949e-01 3.828565272694513522e-01 -5.146567772283843212e-01
-3.875544610384013683e-02 -6.563165194643498512e-02 -6.485210814439253957e-01 -7.671696560605540949e-01 3.828565272694513522e-01 -5.146567772283843212e-01
1.400324071191885907e-02 -1.552585067592209597e-03 -7.838334188094053800e-01 -9.468263728433934379e-01 -3.011950975797632601e-01 -1.131429753990083609e-01
1.263623834625416352e-02 -1.334084205526274713e-01 -7.649102277122173943e-01 -8.904699012210191000e-01 -3.633772792119575601e-01 -2.738983533574883555e-01
-1.677405492746466067e-02 -1.074428041262205230e-01 -7.003338830735598153e-01 -8.762769043080206322e-01 -4.817706842010295309e-01 5.982877303086924642e-03
3.515664245772388147e-02 -1.288276305889611284e-01 -9.110019650391256718e-01 -9.938813607828221874e-01 -8.536812393823921263e-02 7.008654723804956521e-02
-1.517479633587268291e-02 1.561506048532221823e-02 -6.589165445007401090e-01 -7.353620583708155856e-01 -2.006042538881246118e-01 -6.473025385634030293e-01
-3.544526333260591099e-03 1.674389588801615814e-01 -7.849630277602991368e-01 -9.065921623843871124e-01 -5.818812726557470033e-02 -4.179770244266141077e-01
4.778815229561993280e-04 6.956130958357159555e-02 -7.620391747078700817e-01 -9.387668400159596693e-01 -1.251089357859059767e-02 -3.443258596566843299e-01
1.952558408941611201e-02 1.008122711493415202e-01 -8.318570941568391719e-01 -8.826745583964757946e-01 -4.194460461275270058e-01 2.120156559020373865e-01
1.056131781133619850e-02 -1.752983358581445758e-02 -1.001230651756996881e+00 -9.422614110773332996e-01 -2.555430299732070476e-01 2.164282630033917687e-01
-7.012792450567692862e-03 1.152813888602870207e-01 -8.983077308886775469e-01 -8.760456326492758183e-01 -3.950775694451977293e-01 2.765099702314641195e-01
4.202627880272431782e-02 -6.281888529937458554e-02 -8.984883463528458014e-01 -9.909851908164785117e-01 1.154472902440167453e-01 6.797260299371656045e-02
1.221925641808633764e-02 -7.061386027366564622e-02 -1.033736171503410350e+00 -9.424633168915441672e-01 -1.238247738479502924e-01 3.105323198884342717e-01
-3.433380555433766107e-02 1.496059012898585117e-01 -9.715148803261153265e-01 -9.431353841542990946e-01 -2.900760752231307249e-01 1.623315056890287933e-01
-5.148118732548100790e-02 1.616196995752497700e-01 -1.005398332716947563e+00 -5.271418977657652549e-01 -3.457659142052832424e-01 7.762521189624488338e-01
3.173775026273600863e-02 -6.935687857092537323e-02 -7.799346320686800782e-01 -9.650087194082169750e-01 7.980658084701072741e-02 -2.497780637278274318e-01
1.834817646180242345e-02 4.544779767144858235e-02 -8.065028551697900339e-01 -9.274146847176273356e-01 -7.075858508053521623e-02 -3.672808533091599936e-01
1.350604116959041104e-02 -7.185188520538335344e-02 -1.030324451692021581e+00 -9.424633168915441672e-01 -1.238247738479502924e-01 3.105323198884342717e-01
-3.903402086978438601e-02 1.496309066298187607e-01 -9.987781395898134296e-01 -9.431353841542990946e-01 -2.900760752231307249e-01 1.623315056890287933e-01
3.478042544743022157e-02 -6.960789451879871581e-02 -8.524076512423789387e-01 -9.649652926249960849e-01 -2.592865360420382181e-01 4.015565036799049331e-02
3.702800674209814902e-02 -7.371957488738761777e-02 -9.272182874674900210e-01 -9.831143568252196374e-01 7.037024705440954320e-02 1.689206610620392346e-01
3.678223078688916490e-03 1.156223953176529623e-01 -8.639489645216661406e-01 -8.760456326492758183e-01 -3.950775694451977293e-01 2.765099702314641195e-01
-4.789176407626957038e-02 8.448600192936070452e-03 -1.088084831121712837e+00 -5.747792253407003615e-01 -6.068632372181488321e-01 5.489497731394497038e-01
-1.271389129349579337e-02 7.651300708739716683e-02 -9.812265757549887280e-01 -8.750273928203118334e-01 -4.760350585642270649e-01 -8.785035476217770145e-02
1.683813765959782729e-02 -8.485459146999847768e-02 -1.025396392841021465e+00 -9.424633168915441672e-01 -1.238247738479502924e-01 3.105323198884342717e-01
1.375104703278652802e-03 1.144468075344703822e-01 -7.718780369664257623e-01 -9.411107006553349752e-01 -1.683917324613972144e-01 -2.931806159190501471e-01
2.146333350522404426e-02 -9.354768944179278232e-04 -9.533365371717889003e-01 -9.330168085215612139e-01 -3.417966555167331055e-01 -1.124930277564610975e-01
3.824974077815729984e-02 -9.672610824420477260e-02 -8.576616858536597610e-01 -9.935673861078990754e-01 2.591096938739924707e-02 -1.102382462130190727e-01
2.961349596082707772e-02 2.005809242849596399e-02 -8.373812682859713696e-01 -9.784331000430767089e-01 -2.573619449676796400e-02 -2.049544267219404192e-01
-7.342385413270742511e-02 4.548327115826922284e-02 -1.070076089219877513e+00 -6.769086819945091538e-01 -6.452616419790441205e-01 3.541638739778017464e-01
-1.268089713574392999e-02 8.656184306023499697e-02 -9.528521792593035444e-01 -9.566238300762314184e-01 -2.434659309445082465e-01 1.599849624171142959e-01
-1.300538354535061072e-02 1.568522376272580565e-01 -7.530065847709083160e-01 -9.363934443142297726e-01 -1.875376350870500419e-01 -2.966428035049728518e-01
-1.182643622433324215e-02 1.823839349641896423e-01 -8.040238187278109239e-01 -8.850898687402302123e-01 -4.098096034785179143e-01 2.206173455333510502e-01
3.477499734059837783e-02 -3.186093812261014263e-02 -9.126677344947586867e-01 -8.606844095199230882e-01 -3.161454587786411419e-01 3.990919644680706591e-01
-1.408840444642547353e-02 1.916224070530803680e-01 -7.962361167620065627e-01 -8.023888693846640274e-01 -4.240945588040427316e-01 4.198998779237792522e-01
-8.318485964509583774e-03 1.625683808817647569e-01 -7.714151626703860121e-01 -9.363934443142297726e-01 -1.875376350870500419e-01 -2.966428035049728518e-01
1.979323490259079707e-02 5.234069228457477463e-02 -8.779011365795104105e-01 -8.596748495574831894e-01 -3.207023788994863289e-01 3.976293968087986630e-01
-1.911574034174694584e-02 -5.845585758656198644e-02 -1.083082511933022518e+00 -8.399654935429797797e-01 -1.086565900312478627e-01 5.316499930404209318e-01
-6.691347150344841010e-02 8.721366350202416906e-02 -1.035082648474701106e+00 -6.291541932731653519e-01 -7.360182201929385548e-02 7.737879379275905967e-01
-3.109508118650627581e-02 -5.022813774682615036e-03 -6.421572111850817333e-01 -4.397701048471856500e-01 3.544367430153825826e-01 -8.252132149228724733e-01
2.899878562701875898e-02 -4.678127319992181864e-03 -8.313405639211021159e-01 -9.784331000430767089e-01 -2.573619449676796400e-02 -2.049544267219404192e-01
2.094427346343089025e-02 -2.067933179974390089e-03 -9.670174780633596923e-01 -9.213167734750120630e-01 -8.907798906072537937e-02 3.784712865971348039e-01
-2.032337301611503080e-03 1.561334605654805530e-01 -8.134928782410918435e-01 -8.850898687402302123e-01 -4.098096034785179143e-01 2.206173455333510502e-01
1.843259533873361708e-02 -4.304793483230348605e-02 -7.201246666247415051e-01 -9.650087194082169750e-01 7.980658084701072741e-02 -2.497780637278274318e-01
3.400151400369803151e-02 -1.081156297313066172e-01 -9.305034367286630914e-01 -9.831143568252196374e-01 7.037024705440954320e-02 1.689206610620392346e-01
-5.640598673499400834e-02 1.845118751013097025e-01 -9.746750603969481785e-01 -7.678228467239506250e-01 -6.066293002031020176e-01 2.060314737699641685e-01
1.745041565058452412e-02 -1.830068367460031264e-01 -6.886905273817693907e-01 -8.960977753350031216e-01 -4.253165188541390695e-01 -1.269434355508586298e-01
-9.362367667616080386e-03 1.974173214203498727e-01 -7.765175286665079168e-01 -9.065921623843871124e-01 -5.818812726557470033e-02 -4.179770244266141077e-01
-1.397685581972491972e-02 6.710980939389320221e-02 -1.000987083907283859e+00 -8.291636353013477345e-01 -2.787180003207642698e-01 4.845657253573016354e-01
-7.378078238503220365e-02 5.160216618057213156e-02 -1.059610085517384670e+00 -6.769086819945091538e-01 -6.452616419790441205e-01 3.541638739778017464e-01
-2.026010728455846302e-02 2.002880238252935027e-02 -1.019086129384702444e+00 -6.486820871552605450e-01 -5.463897813559923655e-01 5.297827447488694386e-01
3.674060006147909091e-02 -1.437531418199374245e-01 -8.596541794686234361e-01 -9.496785159506786478e-01 -7.662641573729981476e-03 -3.131325602134484298e-01
3.939578967251915892e-02 -1.511955986856892975e-01 -8.810963373083527950e-01 -9.830018329284440082e-01 -1.831527372791943720e-01 1.274642249644621084e-02
-1.515870046716346828e-02 -1.886096777682411824e-02 -6.557685997512725518e-01 -7.736620813008570074e-01 2.983677335557785582e-01 -5.589487271029554005e-01
2.790174902459499964e-02 -4.237814044123249663e-02 -7.903069412178916897e-01 -9.440806593500424837e-01 -3.095029763881391172e-01 -1.136644898289355388e-01
3.096836192600894641e-02 -1.446063825487324817e-01 -8.238620661449163052e-01 -9.868201252914482469e-01 7.831713441129997677e-02 -1.416067328108835399e-01
2.652242487543797142e-02 -2.000799634007419114e-02 -9.523520463363700506e-01 -9.734676764580253439e-01 -1.894398873870867250e-01 1.283480111189158612e-01
3.706117564819520066e-02 -1.344299870572419064e-01 -8.908181004685609139e-01 -9.938813607828221874e-01 -8.536812393823921263e-02 7.008654723804956521e-02
1.727960757036824807e-02 -1.907695897074432878e-01 -6.765949249823549616e-01 -9.181624303620827821e-01 -3.008825090503672861e-01 -2.577740623475311410e-01
2.350348817003834398e-02 -2.611108528285521063e-02 -9.664464128233546392e-01 -9.213167734750120630e-01 -8.907798906072537937e-02 3.784712865971348039e-01
5.806410387800340148e-03 1.254649943955924440e-01 -7.925455555756646397e-01 -9.363934443142297726e-01 -1.875376350870500419e-01 -2.966428035049728518e-01
2.439857626573972357e-02 5.380743451622869294e-02 -8.233911455492688436e-01 -9.274146847176273356e-01 -7.075858508053521623e-02 -3.672808533091599936e-01
-2.440125526290664801e-02 1.365926119343915390e-01 -9.386727156891561119e-01 -9.400558328232259120e-01 -2.955994585994050072e-01 1.700470265860879460e-01
-2.946027550480945917e-02 6.224097119421831414e-02 -1.013105539909704200e+00 -5.330044970839631358e-01 -2.275326339951222743e-01 8.149448487815069697e-01
3.566008595006925352e-02 2.286308987181982430e-02 -8.665993429741181142e-01 -9.784331000430767089e-01 -2.573619449676796400e-02 -2.049544267219404192e-01
-5.356145238015597339e-03 6.002810270199040142e-03 -1.015302928698112783e+00 -6.486820871552605450e-01 -5.463897813559923655e-01 5.297827447488694386e-01
-3.699956694657415002e-02 -3.854950429566625369e-02 -1.101987526219807556e+00 -6.801934233750775993e-01 -2.571416721270444739e-01 6.864510669035336354e-01
3.066606547665281374e-02 -1.088291540404258580e-02 -8.419643981692206403e-01 -9.874794702987113038e-01 4.464777848417714190e-02 -1.512972954649368929e-01
4.822349313258039163e-04 6.236834469306315465e-02 -9.180047180125856521e-01 -9.011044920481561249e-01 -2.383706630319448738e-01 3.622017689304479204e-01
-5.312352479601611249e-02 8.395608156631310937e-02 -1.024180128007990964e+00 -6.291541932731653519e-01 -7.360182201929385548e-02 7.737879379275905967e-01
-8.011725777133363660e-03 1.711392916320984836e-01 -7.757888092113524037e-01 -9.065921623843871124e-01 -5.818812726557470033e-02 -4.179770244266141077e-01
-2.574335719124514789e-03 2.614968207383830401e-02 -1.005035595097117929e+00 -8.291636353013477345e-01 -2.787180003207642698e-01 4.845657253573016354e-01
-4.475165389744852062e-02 4.591576914607525817e-02 -1.027664671966488141e+00 -5.330044970839631358e-01 -2.275326339951222743e-01 8.149448487815069697e-01
1.556807604574694803e-02 3.366222954310634646e-02 -7.972123189351146832e-01 -9.274146847176273356e-01 -7.075858508053521623e-02 -3.672808533091599936e-01
2.944987434115465402e-02 -2.793024433725585509e-02 -9.418416562715716811e-01 -9.734676764580253439e-01 -1.894398873870867250e-01 1.283480111189158612e-01
3.519966405633087689e-03 1.642600454668289439e-02 -7.439654772264906457e-01 -9.468263728433934379e-01 -3.011950975797632601e-01 -1.131429753990083609e-01
-1.280477339028549336e-02 1.652763613611297755e-01 -7.589655706485725073e-01 -9.363934443142297726e-01 -1.875376350870500419e-01 -2.966428035049728518e-01
2.583103933254561613e-02 -1.614921506489863934e-01 -7.884738634338913643e-01 -9.960957098285607714e-01 1.947752334137546051e-03 -8.825838839442169681e-02
-1.111998268565125153e-02 4.727989006017552925e-02 -1.005287434964160065e+00 -5.330044970839631358e-01 -2.275326339951222743e-01 8.149448487815069697e-01
-2.492284918438386621e-02 1.100330621071654164e-01 -9.877257107651912227e-01 -9.400558328232259120e-01 -2.955994585994050072e-01 1.700470265860879460e-01
1.073745622974840372e-02 -1.648075402193233466e-02 -7.027585139993214325e-01 -9.681638975689729198e-01 -2.498261525175082820e-01 -1.567038488212894876e-02
3.983584212573958172e-02 -9.454720513901636314e-02 -8.714449337785842298e-01 -9.935673861078990754e-01 2.591096938739924707e-02 -1.102382462130190727e-01
3.698117773227503624e-02 -9.363364453965924983e-02 -8.435295647432896615e-01 -9.897508572537767613e-01 1.006439014893945882e-01 -1.013116264720248516e-01
3.209314890466901521e-02 -8.534884517041238516e-02 -7.875464021834799322e-01 -9.897508572537767613e-01 1.006439014893945882e-01 -1.013116264720248516e-01
3.386487865518344326e-02 -6.274818557459778401e-02 -8.140392943351262289e-01 -9.705374422338048923e-01 -2.401841374308461563e-01 1.920034762352790941e-02
2.824856155073183703e-02 -2.346095431930137268e-02 -9.443565170027726774e-01 -9.734676764580253439e-01 -1.894398873870867250e-01 1.283480111189158612e-01
3.021864517851791110e-02 -1.013422215412701360e-01 -9.664752470775553883e-01 -9.915467447546730817e-01 6.328090183869995722e-02 1.132721520449392894e-01
3.836290019023794184e-02 -1.213339099203830512e-01 -8.682964683896746694e-01 -9.930669808859320380e-01 8.117625919990266448e-02 8.501991776289929970e-02
1.143950388366548644e-02 -1.641534300662201851e-01 -7.032544109850219494e-01 -9.359551536009057537e-01 -3.304006908848551860e-01 -1.217511146179589554e-01
2.241077001335974473e-03 -1.093657504435702060e-01 -7.408252573284395126e-01 -8.387319920117881633e-01 1.624404380379816659e-01 -5.197516230527485792e-01
2.879175848583256231e-02 -1.114755615319344695e-01 -9.958110191597215888e-01 -9.907430962134777808e-01 -1.273331296451769568e-01 4.705732036671997354e-02
-3.921596082097446312e-02 3.419374057609250034e-02 -6.373624842084305575e-01 -7.353620583708155856e-01 -2.006042538881246118e-01 -6.473025385634030293e-01
4.689508990398846486e-03 -1.020870531777008372e-01 -7.425014877212592346e-01 -8.387319920117881633e-01 1.624404380379816659e-01 -5.197516230527485792e-01
-4.062668155356378985e-02 2.012988966417706208e-02 -1.047725780660585526e+00 -7.276284194272073513e-01 -6.217335938265091677e-01 2.898348176969727796e-01
2.350557803979160670e-02 -1.484031009273541722e-02 -9.280267285407679534e-01 -9.330168085215612139e-01 -3.417966555167331055e-01 -1.124930277564610975e-01
-1.746737311703366533e-02 1.013202227443459925e-02 -1.025873634123904532e+00 -6.486820871552605450e-01 -5.463897813559923655e-01 5.297827447488694386e-01
2.460514665898910422e-02 -8.376066887823237217e-02 -1.000622274191052208e+00 -9.524166268382848743e-01 -7.012997878515694894e-02 2.966215686654910533e-01
1.474266338674961804e-02 3.020799495417767974e-02 -7.944626069262923362e-01 -9.274146847176273356e-01 -7.075858508053521623e-02 -3.672808533091599936e-01
1.896846281042186694e-02 -9.135150277851729339e-02 -7.567906723455118945e-01 -7.773347416261732201e-01 3.913648503009899970e-01 -4.925284290372018980e-01
4.261841923563806749e-03 8.800815069371629995e-03 -7.057285208119832287e-01 -9.681638975689729198e-01 -2.498261525175082820e-01 -1.567038488212894876e-02
3.557863396863451128e-02 -1.694910276345316380e-01 -8.558319271503512793e-01 -9.595443345028069615e-01 3.766707625836838297e-02 -2.790266322230036677e-01
3.727161328409151625e-02 -1.290778095152603500e-01 -8.813147731409120000e-01 -9.938813607828221874e-01 -8.536812393823921263e-02 7.008654723804956521e-02
9.223448002915180660e-03 -4.004316583666984314e-02 -7.010050551427530197e-01 -7.671696560605540949e-01 3.828565272694513522e-01 -5.146567772283843212e-01
1.946675046870988482e-02 1.013618295899032656e-01 -8.224367659961137056e-01 -9.411107006553349752e-01 -1.683917324613972144e-01 -2.931806159190501471e-01
-3.725728701640824200e-03 1.679760832418814576e-01 -8.003165694591166668e-01 -8.023888693846640274e-01 -4.240945588040427316e-01 4.198998779237792522e-01
-1.540248138494251622e-02 9.661771545905496750e-02 -9.538227080575090167e-01 -9.566238300762314184e-01 -2.434659309445082465e-01 1.599849624171142959e-01
3.692107188436834740e-03 2.901249957362241061e-02 -9.926661165376396978e-01 -8.291636353013477345e-01 -2.787180003207642698e-01 4.845657253573016354e-01
-3.864380287815275677e-03 -6.785038632991904906e-02 -7.021817444811181419e-01 -7.671696560605540949e-01 3.828565272694513522e-01 -5.146567772283843212e-01
-8.262640749601216084e-02 2.147402834746196809e-01 -1.005862477044367376e+00 -5.857264356155124085e-01 -2.170996613343280091e-01 7.808919769530654476e-01
2.591202133722812079e-02 -1.547113946745936053e-01 -7.892381941155230951e-01 -9.960957098285607714e-01 1.947752334137546051e-03 -8.825838839442169681e-02
-4.757435352195914756e-03 -1.158200309757685259e-01 -7.315488263628024956e-01 -8.387319920117881633e-01 1.624404380379816659e-01 -5.197516230527485792e-01
2.463146595865289140e-02 -1.794963907557577953e-01 -7.753326525896184762e-01 -9.960957098285607714e-01 1.947752334137546051e-03 -8.825838839442169681e-02
-1.943184026291963108e-03 -1.341602492380711449e-02 -6.753666846177862615e-01 -8.940092750146815259e-01 -6.970127225635663892e-02 -4.425936610860677911e-01
-9.011146248098001604e-03 1.786470752874710632e-01 -7.746662525451682990e-01 -9.065921623843871124e-01 -5.818812726557470033e-02 -4.179770244266141077e-01
2.979349499138840562e-02 -1.711509043918668371e-01 -8.303554618415559530e-01 -9.868201252914482469e-01 7.831713441129997677e-02 -1.416067328108835399e-01
3.776876947145156593e-02 -1.055905115861091870e-01 -8.554102701345883686e-01 -9.935673861078990754e-01 2.591096938739924707e-02 -1.102382462130190727e-01
-1.020900479896169957e-02 1.431743252755188767e-01 -7.531865567437130426e-01 -9.363934443142297726e-01 -1.875376350870500419e-01 -2.966428035049728518e-01
2.112490681195910644e-02 -1.091504514079078142e-01 -7.712311247144649773e-01 -8.387319920117881633e-01 1.624404380379816659e-01 -5.197516230527485792e-01
-1.293872689962264136e-02 1.148031823152102920e-01 -9.168858995769781917e-01 -9.011044920481561249e-01 -2.383706630319448738e-01 3.622017689304479204e-01
-1.316388560289010433e-02 -1.092951314715224914e-01 -7.130223201321674864e-01 -8.904699012210191000e-01 -3.633772792119575601e-01 -2.738983533574883555e-01
1.219030746654760702e-02 -2.195313818648610485e-02 -7.052762208314118375e-01 -9.681638975689729198e-01 -2.498261525175082820e-01 -1.567038488212894876e-02
-1.132427745446599673e-02 -5.865807794576806400e-02 -6.842234809974313547e-01 -7.671696560605540949e-01 3.828565272694513522e-01 -5.146567772283843212e-01
-8.191353933488475236e-02 1.257997368139539829e-01 -1.042019797919088608e+00 -5.271418977657652549e-01 -3.457659142052832424e-01 7.762521189624488338e-01
-8.833144113963019295e-02 2.715235403685623689e-02 -1.107750206664727122e+00 -4.633229738350489457e-01 -6.636605975915382816e-01 5.872703237190596282e-01
-5.578774015953188743e-04 -3.604905090504969406e-02 -1.049183119575164191e+00 -8.399654935429797797e-01 -1.086565900312478627e-01 5.316499930404209318e-01
3.382410331754231309e-02 -6.999496593915870146e-02 -7.892040530477127946e-01 -9.897508572537767613e-01 1.006439014893945882e-01 -1.013116264720248516e-01
2.945551059005621988e-02 -8.232147343971366049e-02 -9.837816518303704738e-01 -9.915467447546730817e-01 6.328090183869995722e-02 1.132721520449392894e-01
2.991604149620177497e-02 -1.471988546691406774e-01 -8.179625162132527771e-01 -9.868201252914482469e-01 7.831713441129997677e-02 -1.416067328108835399e-01
3.736795318097239308e-03 1.079815540293568993e-01 -7.757456769437834909e-01 -9.411107006553349752e-01 -1.683917324613972144e-01 -2.931806159190501471e-01
-4.316387516538861685e-02 -3.878155545253649666e-02 -1.108182566387454049e+00 -6.801934233750775993e-01 -2.571416721270444739e-01 6.864510669035336354e-01
-2.266752271394381624e-02 -4.388581593132296482e-02 -1.085371875761144356e+00 -7.973305504680313627e-01 -2.430589671154294584e-01 5.524367219828230091e-01
-2.003584216969950607e-02 1.501340430909942070e-02 -1.023984147524575672e+00 -6.486820871552605450e-01 -5.463897813559923655e-01 5.297827447488694386e-01
3.191766492702130531e-02 -2.601930253804826329e-02 -8.546000161173873400e-01 -9.874794702987113038e-01 4.464777848417714190e-02 -1.512972954649368929e-01
-2.125544715419809896e-02 -4.182395372782703874e-02 -1.082426660470186208e+00 -7.973305504680313627e-01 -2.430589671154294584e-01 5.524367219828230091e-01
2.831851276020684594e-02 -8.691552258367965522e-02 -7.723346906151785651e-01 -9.650087194082169750e-01 7.980658084701072741e-02 -2.497780637278274318e-01
1.124510456612592621e-02 -1.354040234863199306e-02 -7.288397453929372771e-01 -9.468263728433934379e-01 -3.011950975797632601e-01 -1.131429753990083609e-01
2.012998184409511490e-02 -8.577016787954479249e-02 -1.015466600986596468e+00 -9.524166268382848743e-01 -7.012997878515694894e-02 2.966215686654910533e-01
-1.306900425986745086e-02 7.592567369061060945e-02 -9.745069118144733533e-01 -8.750273928203118334e-01 -4.760350585642270649e-01 -8.785035476217770145e-02
-2.151880788718013235e-02 1.577149197762553121e-02 -1.025018084448285682e+00 -6.486820871552605450e-01 -5.463897813559923655e-01 5.297827447488694386e-01
3.503802373257501601e-02 -1.373272765590097255e-01 -8.481966820438664456e-01 -9.868201252914482469e-01 7.831713441129997677e-02 -1.416067328108835399e-01
8.482341500238474788e-03 1.136631913237707604e-02 -9.941917740569747863e-01 -9.213167734750120630e-01 -8.907798906072537937e-02 3.784712865971348039e-01
-1.314608412824672459e-02 -1.140163601570043650e-01 -6.983013436016600739e-01 -8.762769043080206322e-01 -4.817706842010295309e-01 5.982877303086924642e-03
7.438903912116530057e-03 -6.253592184774581578e-03 -6.954458341665944454e-01 -8.940092750146815259e-01 -6.970127225635663892e-02 -4.425936610860677911e-01
-2.707479624554370509e-03 -5.103248651912849904e-02 -6.913953254942923898e-01 -7.671696560605540949e-01 3.828565272694513522e-01 -5.146567772283843212e-01
-4.381805005761391092e-02 1.640833584046604843e-01 -9.879120254293582981e-01 -7.678228467239506250e-01 -6.066293002031020176e-01 2.060314737699641685e-01
9.108815627827228714e-04 1.445756546414103672e-01 -8.231543427977949801e-01 -8.850898687402302123e-01 -4.098096034785179143e-01 2.206173455333510502e-01
2.301966996564602450e-02 6.877947033145730138e-02 -8.227937338423448876e-01 -9.274146847176273356e-01 -7.075858508053521623e-02 -3.672808533091599936e-01
-4.407460166598864415e-02 3.051273067515741788e-02 -6.307020957184141796e-01 -7.353620583708155856e-01 -2.006042538881246118e-01 -6.473025385634030293e-01
3.659657771940555415e-02 -1.761858741851150545e-01 -8.602363004700692706e-01 -9.595443345028069615e-01 3.766707625836838297e-02 -2.790266322230036677e-01
3.122985530504986812e-02 -8.184549432861339124e-02 -7.819626350600659137e-01 -9.650087194082169750e-01 7.980658084701072741e-02 -2.497780637278274318e-01
4.611897015973183064e-03 -1.344672425465633647e-01 -7.374175969798341113e-01 -8.904699012210191000e-01 -3.633772792119575601e-01 -2.738983533574883555e-01
-2.021243841113829279e-02 1.077551731763218001e-01 -9.656346182074460049e-01 -9.566238300762314184e-01 -2.434659309445082465e-01 1.599849624171142959e-01
-3.300651050199215810e-03 1.654410439656394394e-01 -8.020646499560609710e-01 -8.023888693846640274e-01 -4.240945588040427316e-01 4.198998779237792522e-01
-2.199093139000960970e-02 -7.795991673657676202e-02 -6.826820687460348758e-01 -7.671696560605540949e-01 3.828565272694513522e-01 -5.146567772283843212e-01
-4.179771096962065858e-04 -9.028602938643050246e-02 -7.253473257528620932e-01 -7.773347416261732201e-01 3.913648503009899970e-01 -4.925284290372018980e-01
-5.633687495882302304e-02 3.257231588502226133e-02 -1.060475487046864895e+00 -7.276284194272073513e-01 -6.217335938265091677e-01 2.898348176969727796e-01
3.457305914383016626e-02 2.635621239243186170e-02 -8.618486120782791193e-01 -9.784331000430767089e-01 -2.573619449676796400e-02 -2.049544267219404192e-01
-2.198289686373328805e-03 -7.674267152903788136e-02 -7.117759405430726938e-01 -7.773347416261732201e-01 3.913648503009899970e-01 -4.925284290372018980e-01
2.268591738337766631e-02 7.587113852812188419e-02 -8.538788359513598270e-01 -9.011044920481561249e-01 -2.383706630319448738e-01 3.622017689304479204e-01
-5.203232050273857989e-02 1.754660059740774380e-02 -1.080089383468087361e+00 -6.769086819945091538e-01 -6.452616419790441205e-01 3.541638739778017464e-01
2.255414564321077051e-02 -1.184159997441158914e-02 -9.231647478567622800e-01 -8.606844095199230882e-01 -3.161454587786411419e-01 3.990919644680706591e-01
3.788470939672187315e-02 -1.540507491667702025e-02 -8.804916990618921746e-01 -9.329698475698829929e-01 7.272348650180070206e-02 -3.525316411848044562e-01
-1.654462491262552459e-02 -1.105649452070556898e-02 -6.518324883689621263e-01 -4.961740532961897432e-01 1.131231202126371793e-01 -8.608219725988567328e-01
2.816920989850327239e-02 -1.644391382749329777e-01 -8.149277984546726694e-01 -9.960957098285607714e-01 1.947752334137546051e-03 -8.825838839442169681e-02
2.967357824952643677e-02 -6.931091446186200822e-02 -7.719450904744021846e-01 -9.650087194082169750e-01 7.980658084701072741e-02 -2.497780637278274318e-01
1.701857812614653020e-02 -2.075615286648493235e-02 -7.579456473421487539e-01 -9.468263728433934379e-01 -3.011950975797632601e-01 -1.131429753990083609e-01
4.264406904506220944e-05 2.927550071040890128e-02 -7.490721553360922824e-01 -9.468263728433934379e-01 -3.011950975797632601e-01 -1.131429753990083609e-01
1.230414577954398389e-02 -1.582491555365801161e-01 -7.308746922192334017e-01 -8.904699012210191000e-01 -3.633772792119575601e-01 -2.738983533574883555e-01
3.963344900443346863e-02 -9.348538417131832534e-02 -8.812886916346858168e-01 -9.909851908164785117e-01 1.154472902440167453e-01 6.797260299371656045e-02
2.751843481409532721e-02 -4.477916308988531824e-02 -9.613826224022671285e-01 -9.406625851609795586e-01 -2.495452023778497730e-01 2.299588938233543545e-01
3.199316310501233024e-02 -1.326070529264394005e-01 -8.232240843618117143e-01 -9.851422842986513606e-01 1.085204147839495536e-01 -1.331089751367446616e-01
-5.245597896603020061e-02 7.144190279557650902e-02 -1.025576692001983758e+00 -5.330044970839631358e-01 -2.275326339951222743e-01 8.149448487815069697e-01
-3.763298875063474103e-02 5.593259425336098711e-02 -1.020212099996131272e+00 -5.330044970839631358e-01 -2.275326339951222743e-01 8.149448487815069697e-01
3.385044133207696510e-02 -1.403968191995128012e-01 -8.416183759760330618e-01 -9.868201252914482469e-01 7.831713441129997677e-02 -1.416067328108835399e-01
2.812075086866638526e-02 -4.131839258916134711e-02 -8.297774080592044132e-01 -9.649652926249960849e-01 -2.592865360420382181e-01 4.015565036799049331e-02
-2.930236479867947066e-02 1.375937362204484593e-01 -9.640267891829198410e-01 -9.400558328232259120e-01 -2.955994585994050072e-01 1.700470265860879460e-01
2.754966255010404472e-02 -6.251169224753905240e-02 -9.804977465940357684e-01 -9.406625851609795586e-01 -2.495452023778497730e-01 2.299588938233543545e-01
1.945106074915172248e-02 -6.682503548968805884e-02 -1.010276904295380973e+00 -9.424633168915441672e-01 -1.238247738479502924e-01 3.105323198884342717e-01
-5.668662174707268103e-02 1.842195114474943496e-01 -9.765817318651243140e-01 -7.678228467239506250e-01 -6.066293002031020176e-01 2.060314737699641685e-01
3.872791018754622588e-02 -1.040567799171092517e-01 -8.805290538204960660e-01 -9.930669808859320380e-01 8.117625919990266448e-02 8.501991776289929970e-02
-1.916068092185436653e-02 1.679097197945937092e-01 -8.603346134475967633e-01 -8.850898687402302123e-01 -4.098096034785179143e-01 2.206173455333510502e-01
2.548829012503077765e-02 -9.230013350659420357e-03 -8.140102077159707683e-01 -9.784331000430767089e-01 -2.573619449676796400e-02 -2.049544267219404192e-01
3.646638967848978702e-02 -8.976286662361457336e-03 -8.903363808845345950e-01 -9.483588164199933113e-01 -1.968786841069181115e-01 2.487053257628351333e-01
-1.119117428687792411e-02 1.456721066864050396e-01 -7.516653027453140679e-01 -9.363934443142297726e-01 -1.875376350870500419e-01 -2.966428035049728518e-01
4.948290700139392796e-03 6.194234450648294574e-03 -7.065838230849851298e-01 -9.681638975689729198e-01 -2.498261525175082820e-01 -1.567038488212894876e-02
2.366640022427036333e-02 -1.846645150105077904e-01 -7.682279930356400444e-01 -9.847891660868941521e-01 -3.882635685289161087e-02 -1.693600081820136605e-01
-1.623723780814565615e-02 1.562348191740886294e-01 -8.690185640896554986e-01 -8.760456326492758183e-01 -3.950775694451977293e-01 2.765099702314641195e-01
-7.372639088887057712e-02 3.531262606803619360e-03 -1.119088057030235950e+00 -6.100377894831368053e-01 -4.572039525603088794e-01 6.471618353748611607e-01
-1.675539661741104122e-02 1.359117776942807797e-02 -6.564937006754197890e-01 -7.353620583708155856e-01 -2.006042538881246118e-01 -6.473025385634030293e-01
3.242639728499922130e-02 -1.747893644259195401e-03 -8.507579003239584825e-01 -9.874794702987113038e-01 4.464777848417714190e-02 -1.512972954649368929e-01
-1.841035531034213718e-02 8.864918240676626648e-02 -9.839347268369963428e-01 -9.566238300762314184e-01 -2.434659309445082465e-01 1.599849624171142959e-01
3.623156475721323218e-03 3.110602228774422655e-03 -6.892129899631748158e-01 -8.940092750146815259e-01 -6.970127225635663892e-02 -4.425936610860677911e-01
2.183882883904425878e-02 -1.948240990696972208e-01 -7.353357283715141746e-01 -9.766505199631773104e-01 -2.034285799504028658e-01 6.906934714486505367e-02
1.005285784572207061e-02 2.894766979865698656e-02 -9.502507306721146296e-01 -8.750273928203118334e-01 -4.760350585642270649e-01 -8.785035476217770145e-02
