1.013939402771787540e-01 -4.938830473748579558e-02 -8.297179408165245018e-01 -1.999679268807248722e-01 5.176827918123808603e-01 -8.318758052019329385e-01
-1.366560611430275018e-01 -6.143632061531605765e-02 -8.723778497450971336e-01 6.846181570495604163e-01 2.475067459595851893e-01 -6.855934580657555566e-01
1.982233033807134504e-01 7.772259390193339557e-02 -8.186218365828770160e-01 -7.357555448848922541e-01 3.366037279103538671e-01 -5.876748323077886083e-01
-1.347575527057091882e-01 8.249280234347355911e-02 -8.242991827193096865e-01 8.481983383538370391e-02 2.290959857328557503e-01 -9.697013071607303303e-01
1.609809992691317582e-01 1.093795406834518757e-01 -8.011305968788016152e-01 -3.039013469028374881e-01 -2.622978180159271644e-02 -9.523423596046129980e-01
-6.024749414512760304e-02 -2.059042797055531462e-02 -8.331342027988896115e-01 3.099342201139082889e-02 2.469186103380003605e-01 -9.685404522583320741e-01
1.596126638865766889e-01 -9.209827313837137819e-02 -8.704786931956375318e-01 -3.917000139055874519e-01 -1.577195348354219068e-02 -9.199577950045728647e-01
7.607898555363513081e-03 1.060565924266966970e-01 -7.710057413103568180e-01 -2.056733356508665400e-01 1.699471589775424785e-01 -9.637512345816776627e-01
-1.443803484567187934e-01 -7.369159921729739882e-02 -8.845154385375897377e-01 6.846181570495604163e-01 2.475067459595851893e-01 -6.855934580657555566e-01
8.397348081494182548e-02 4.600289370880097234e-02 -8.088280004753157781e-01 -2.548890018090123610e-01 3.872545203906723188e-01 -8.860392390824435305e-01
-2.075972541466497845e-01 1.232934770644480010e-01 -8.821735062580419173e-01 8.989719427461254631e-01 -1.027242749228930996e-01 -4.257900533089313266e-01
7.111641458809392358e-02 -1.620473933925411225e-01 -8.793871507135117005e-01 -1.456321324792485272e-01 4.105159849601430211e-01 -9.001488255181750997e-01
-1.550852268997934269e-01 5.801262430034143103e-02 -8.318607900028748281e-01 8.481983383538370391e-02 2.290959857328557503e-01 -9.697013071607303303e-01
-3.425458445365794306e-03 1.369313240268511637e-02 -7.963748927721365778e-01 3.514022043612267665e-01 3.147867538927791031e-01 -8.817175229877863840e-01
4.891474638667390323e-02 -9.532846951927317902e-02 -8.444085481235455992e-01 -1.361427464533786214e-01 3.335374120912617535e-01 -9.328547300215584981e-01
-1.871000590978401656e-01 1.027858077685666893e-01 -8.421354795558519957e-01 5.253117467762404846e-01 1.314698035322399150e-01 -8.406921311979131950e-01
-1.790570609413858760e-01 3.594784647886651446e-02 -8.659870778070462016e-01 7.634298722960020100e-01 3.863867676289751141e-01 -5.175713437656130900e-01
5.510438021038693152e-02 -1.773623590497174982e-02 -8.254904814403883906e-01 1.230673640349156106e-01 9.762049066563474597e-02 -9.875852690839905801e-01
8.270654688350925765e-02 -1.447543775898753327e-01 -8.726345568029948430e-01 -1.138979141983683524e-01 5.070697672804750367e-01 -8.543462507972899855e-01
1.328404086506545512e-01 3.548905250810889533e-02 -8.159473199195335091e-01 -6.897955540381836559e-02 3.120637976162758953e-01 -9.475536961848649575e-01
-1.905447495342674213e-02 -1.279807470511655221e-01 -8.703982820544673427e-01 1.460614836358904156e-01 5.401029075682282077e-01 -8.288274200546387194e-01
-5.536942386159597607e-02 -1.227451791911613882e-01 -8.719036642339551557e-01 8.632364755831185843e-02 4.064292367147122054e-01 -9.095952415309377370e-01
-1.902994514156043371e-01 5.047494651434949325e-02 -8.717248326771191991e-01 7.634298722960020100e-01 3.863867676289751141e-01 -5.175713437656130900e-01
6.588092373659823475e-02 9.487893340227222805e-02 -7.873771241088628470e-01 -2.529288693352897410e-01 2.161513460736037562e-01 -9.430300009264505068e-01
2.114707400183588881e-01 1.026761934816297211e-01 -8.210439188214508910e-01 -7.310061971240138234e-01 3.243507127399136714e-01 -6.003553571938852196e-01
-3.041380721378306173e-02 -1.035197047693687568e-02 -8.167961049575936938e-01 3.367731953192261707e-01 3.978483823896474814e-01 -8.534052258712852002e-01
-1.168082976100952575e-01 -1.184868435271762693e-01 -8.916097888561245188e-01 3.428921763732027950e-01 4.278146249684378066e-01 -8.363011431566761411e-01
2.243117737622196683e-02 -8.377961765589245213e-02 -8.378224421157000057e-01 -1.433588297566506034e-02 3.456901897010562497e-01 -9.382391886953752591e-01
1.311182750671135988e-01 8.098694240028427027e-02 -8.023789604809133946e-01 -1.037734655308304305e-01 2.697816440463154386e-01 -9.573133929844439560e-01
1.663557174695158916e-02 1.116031691411401572e-01 -7.719542502938042672e-01 -2.056733356508665400e-01 1.699471589775424785e-01 -9.637512345816776627e-01
1.627314460428258835e-01 1.144246141158122704e-01 -8.018281341675839169e-01 -3.039013469028374881e-01 -2.622978180159271644e-02 -9.523423596046129980e-01
1.953696930206453783e-02 7.087659101087104285e-02 -7.804488340519046830e-01 -2.529288693352897410e-01 2.161513460736037562e-01 -9.430300009264505068e-01
1.925664794012297010e-01 3.489519364117341788e-02 -8.465723206210107321e-01 -5.952358022225452405e-01 5.878983438543351481e-01 -5.477863425148652432e-01
-1.742660424500798999e-01 2.636231838334326255e-02 -8.662351006534902975e-01 7.496009857971500656e-01 4.078378919003864400e-01 -5.213123977253844021e-01
-9.253715653059894908e-02 3.987144128494091166e-02 -8.262020373269826079e-01 1.440156565435640190e-01 1.343537538033062750e-01 -9.804124435712181507e-01
-1.543967931631429480e-01 -2.690530317246121392e-02 -8.776272689979011110e-01 6.846181570495604163e-01 2.475067459595851893e-01 -6.855934580657555566e-01
-4.379484835179208585e-02 1.396352899171071082e-01 -7.819745575103683732e-01 3.594638815900114137e-01 1.477862839214860446e-01 -9.213820771628455919e-01
4.034483486924753115e-02 -1.177083572391049715e-01 -8.553546066956976279e-01 1.175516537025440150e-01 5.282641148660509600e-01 -8.409034627450316934e-01
8.741674326190285171e-02 1.574603436315169525e-02 -8.191426818157354628e-01 -6.897955540381836559e-02 3.120637976162758953e-01 -9.475536961848649575e-01
2.034772455538388369e-01 5.747352636207114090e-02 -8.383990346281523509e-01 -6.125809609042227599e-01 5.026972520403533151e-01 -6.099508497647464500e-01
-1.827582183282985828e-01 9.610022777195684207e-02 -8.404679629725562151e-01 5.253117467762404846e-01 1.314698035322399150e-01 -8.406921311979131950e-01
-5.464641121688187941e-02 -1.522020505839228877e-01 -8.828038380643266070e-01 9.183538935765782341e-02 2.999266862544568424e-01 -9.495315919620304079e-01
-2.230107651693388759e-01 -3.331889290185505864e-02 -8.990761042728432351e-01 1.367514857377858661e-01 1.032180092177191477e-01 -9.852132123158108268e-01
2.579868903117261136e-01 -6.335095734782623944e-02 -9.434534163640899695e-01 -8.834012945570270947e-01 1.480496689647046171e-01 -4.446160684167971833e-01
9.437321166625106672e-02 2.802671541333831909e-02 -8.156046217758442518e-01 -6.897955540381836559e-02 3.120637976162758953e-01 -9.475536961848649575e-01
8.681150142801042149e-03 3.271575180296772828e-03 -8.021057431153620909e-01 -3.298612318563072243e-01 3.230035771825383595e-01 -8.870514397967704801e-01
8.216690834981130176e-02 -7.560023373910247646e-02 -8.414079969630655631e-01 -1.999679268807248722e-01 5.176827918123808603e-01 -8.318758052019329385e-01
1.948518821980294857e-01 1.143912919553528862e-01 -8.120771477489260315e-01 -3.039013469028374881e-01 -2.622978180159271644e-02 -9.523423596046129980e-01
4.023814999846166141e-02 -6.483603427379132367e-02 -8.319987328223638068e-01 1.230673640349156106e-01 9.762049066563474597e-02 -9.875852690839905801e-01
7.996464157775583226e-02 -3.137941280050449838e-02 -8.237411305063432332e-01 1.230673640349156106e-01 9.762049066563474597e-02 -9.875852690839905801e-01
1.862428827407150711e-01 -2.009138139510081508e-02 -8.830518204688150297e-01 -3.917000139055874519e-01 -1.577195348354219068e-02 -9.199577950045728647e-01
-1.257164256837043081e-01 -5.804132587436811042e-02 -8.629801727529268218e-01 3.483502512738765877e-01 4.541244383921246852e-01 -8.200140833500751958e-01
1.794193417320870121e-01 1.536154881689364392e-02 -8.532503812448227754e-01 -5.952358022225452405e-01 5.878983438543351481e-01 -5.477863425148652432e-01
1.179022455439666939e-01 -1.525653252398959884e-03 -8.217860229189453136e-01 3.173083899393348839e-02 -1.861136259232276310e-02 -9.993231564610107753e-01
-1.686441268214967648e-01 3.574609141399814893e-02 -8.508100853589485313e-01 7.496009857971500656e-01 4.078378919003864400e-01 -5.213123977253844021e-01
7.975029173427058971e-02 -8.171761913362098062e-02 -8.440422617436992292e-01 -1.361427464533786214e-01 3.335374120912617535e-01 -9.328547300215584981e-01
1.092355349508689344e-01 4.321996678821295873e-02 -8.116828732937231283e-01 -6.897955540381836559e-02 3.120637976162758953e-01 -9.475536961848649575e-01
-1.143897687676200259e-01 -1.111236657975722131e-01 -8.868514912381589843e-01 3.428921763732027950e-01 4.278146249684378066e-01 -8.363011431566761411e-01
1.069675751664937863e-01 -5.943711495005341017e-02 -8.373111948813037886e-01 -1.999679268807248722e-01 5.176827918123808603e-01 -8.318758052019329385e-01
1.756247237520514037e-02 1.722311071089941692e-01 -7.608279968286559836e-01 -2.085604580045093137e-01 1.824329509069994582e-01 -9.608437717861908478e-01
1.970492720976445844e-01 8.471525745779358296e-02 -8.131876717432111601e-01 -7.310061971240138234e-01 3.243507127399136714e-01 -6.003553571938852196e-01
1.686173181101704999e-01 6.244490664873846020e-02 -8.115203870704216227e-01 -9.399397813158057169e-02 2.716954134313231406e-01 -9.577821956976346751e-01
4.844408628198268452e-02 6.247613893574396199e-02 -7.914073379288051324e-01 -2.548890018090123610e-01 3.872545203906723188e-01 -8.860392390824435305e-01
1.810955408300747582e-01 4.200697877197165364e-02 -8.286677337921047881e-01 -6.125809609042227599e-01 5.026972520403533151e-01 -6.099508497647464500e-01
-4.586317661881634394e-02 -1.236812147932978695e-01 -8.714197328310897550e-01 8.632364755831185843e-02 4.064292367147122054e-01 -9.095952415309377370e-01
-7.357438853944345269e-02 -1.434736429092975905e-02 -8.321579270958261443e-01 5.883171428054369267e-02 2.540113451874967954e-01 -9.654103096149588836e-01
-2.104874393772347974e-01 1.046086508379712315e-01 -8.837677431364867608e-01 8.989719427461254631e-01 -1.027242749228930996e-01 -4.257900533089313266e-01
-1.086552192075786877e-02 3.966715692521742553e-02 -7.900669494522710723e-01 3.514022043612267665e-01 3.147867538927791031e-01 -8.817175229877863840e-01
9.467829330668368903e-02 -2.501774314289760895e-02 -8.220859215896635375e-01 3.173083899393348839e-02 -1.861136259232276310e-02 -9.993231564610107753e-01
-1.735361302069043932e-02 9.162632045698546057e-02 -7.793593537263301396e-01 3.594638815900114137e-01 1.477862839214860446e-01 -9.213820771628455919e-01
2.528012797792167018e-02 6.358271909106304187e-02 -7.842600626185743939e-01 -2.548890018090123610e-01 3.872545203906723188e-01 -8.860392390824435305e-01
-1.886112325830445469e-01 5.305700070891791048e-02 -8.673070682676846666e-01 7.634298722960020100e-01 3.863867676289751141e-01 -5.175713437656130900e-01
-4.130003888279652063e-02 -1.841042040103341637e-03 -8.171243568881402242e-01 3.367731953192261707e-01 3.978483823896474814e-01 -8.534052258712852002e-01
-1.889986043438049435e-01 3.613913108236369714e-02 -8.805082862569001412e-01 7.634298722960020100e-01 3.863867676289751141e-01 -5.175713437656130900e-01
8.176978964587651444e-02 5.417758432802697449e-02 -8.046212087520409062e-01 -2.548890018090123610e-01 3.872545203906723188e-01 -8.860392390824435305e-01
-1.872705627759037317e-02 -5.229247501565302547e-02 -8.314357767613205219e-01 5.158403725396816242e-01 2.998864289262723193e-01 -8.024816756811150587e-01
-1.652564265773608931e-01 1.279058887758036112e-01 -8.284374450409000001e-01 6.183086647364082200e-01 -1.352546008946958755e-01 -7.742096538074788592e-01
1.617893044041922579e-01 5.346932263095995758e-02 -8.133964219848389687e-01 -9.399397813158057169e-02 2.716954134313231406e-01 -9.577821956976346751e-01
-1.816279702073095303e-01 1.059229032111027313e-01 -8.382256226973038293e-01 5.253117467762404846e-01 1.314698035322399150e-01 -8.406921311979131950e-01
7.313861969317133130e-03 2.339450313388584390e-01 -7.587075318142046942e-01 -2.077985952904808642e-01 -2.562520134812565908e-01 -9.440098777990114653e-01
-1.433745586125509570e-02 5.208703640922656558e-02 -7.872602296503810049e-01 4.648639748799916482e-01 1.810716804204166031e-01 -8.666686399129145402e-01
-1.667563455992375487e-01 -7.654928114031429864e-02 -8.910889725589066224e-01 2.475770742093462429e-01 -1.405233442042992664e-02 -9.687662897847324484e-01
3.279624152751389309e-03 1.968775106880402692e-01 -7.521639059239820790e-01 5.110635405656090979e-01 1.574565129655048079e-01 -8.449979313757446375e-01
-2.004332837865948069e-01 1.176768595913030707e-01 -8.656931510800146556e-01 8.989719427461254631e-01 -1.027242749228930996e-01 -4.257900533089313266e-01
1.609659504500363381e-01 -4.725578329404791990e-04 -8.439282933226830430e-01 -7.168428487352748180e-01 4.476487229285580627e-01 -5.345530386009672563e-01
1.430317617557863297e-01 -1.111562555489691018e-01 -8.687102365741216081e-01 -3.583991637836171362e-01 5.394427976544845516e-01 -7.619393069384901018e-01
-7.901331375911666011e-02 -9.587253272878069887e-02 -8.644136143119651727e-01 2.935948031175788508e-01 4.056996980741313097e-01 -8.655690882678913622e-01
-1.202160696462697409e-01 -1.110251737732560057e-01 -8.891899511052091531e-01 3.428921763732027950e-01 4.278146249684378066e-01 -8.363011431566761411e-01
9.665065307539770501e-02 7.626683623769327236e-02 -7.998959015551729834e-01 -2.529288693352897410e-01 2.161513460736037562e-01 -9.430300009264505068e-01
8.997953351548067247e-02 -3.593783302216922021e-02 -8.229437197329914078e-01 1.230673640349156106e-01 9.762049066563474597e-02 -9.875852690839905801e-01
-1.709712412869488218e-01 1.075882061082301805e-01 -8.313062740880885482e-01 5.253117467762404846e-01 1.314698035322399150e-01 -8.406921311979131950e-01
-8.107251989912556134e-02 -8.410766713147643792e-02 -8.595977882202592291e-01 2.935948031175788508e-01 4.056996980741313097e-01 -8.655690882678913622e-01
1.954984671114472494e-01 1.427599509069375078e-02 -8.718873306166321502e-01 -5.952358022225452405e-01 5.878983438543351481e-01 -5.477863425148652432e-01
-1.860763851315453132e-01 -6.313787538390470966e-02 -8.962209228261476257e-01 2.475770742093462429e-01 -1.405233442042992664e-02 -9.687662897847324484e-01
-1.999261720871914338e-01 -6.381185734727298775e-02 -8.995759976397337265e-01 -5.304866593143096887e-02 2.201647346513294773e-02 -9.983491943899460708e-01
-4.986596381351771079e-02 -5.733351214344777069e-02 -8.421692328922708581e-01 3.099342201139082889e-02 2.469186103380003605e-01 -9.685404522583320741e-01
7.045886285248892378e-02 2.473147597451879828e-02 -8.142371572925720669e-01 -2.548890018090123610e-01 3.872545203906723188e-01 -8.860392390824435305e-01
1.316602098765027318e-01 -4.111844171517871349e-02 -8.386668274965729530e-01 -7.168428487352748180e-01 4.476487229285580627e-01 -5.345530386009672563e-01
-3.616157262250807580e-02 1.158285069317147170e-01 -7.828150655751938691e-01 3.594638815900114137e-01 1.477862839214860446e-01 -9.213820771628455919e-01
-1.411087739248038375e-01 -1.277973739608053161e-01 -9.037539886665689748e-01 2.642354116338704317e-01 3.989591823213100574e-01 -8.780724446651259063e-01
1.476497625956028209e-02 2.164992925707086291e-02 -7.976759484541281475e-01 -3.298612318563072243e-01 3.230035771825383595e-01 -8.870514397967704801e-01
1.729413994420855583e-01 2.138854442054160046e-02 -8.397429909809962512e-01 -5.952358022225452405e-01 5.878983438543351481e-01 -5.477863425148652432e-01
5.411903143846949482e-02 -4.185428012567072448e-02 -8.279972822850700798e-01 1.230673640349156106e-01 9.762049066563474597e-02 -9.875852690839905801e-01
-1.175719981985524389e-02 -4.161939282034172322e-02 -8.229669904166023731e-01 5.158403725396816242e-01 2.998864289262723193e-01 -8.024816756811150587e-01
-1.383029398534076915e-01 -1.155563817676261013e-01 -8.973478464499443641e-01 2.642354116338704317e-01 3.989591823213100574e-01 -8.780724446651259063e-01
1.700711392289185886e-01 -1.252083286698313647e-01 -8.913776324618071234e-01 -3.583991637836171362e-01 5.394427976544845516e-01 -7.619393069384901018e-01
1.003343063989519113e-01 -1.226991210374704516e-01 -8.634952054535424137e-01 -1.515263663657322457e-01 4.683376839907077427e-01 -8.704594040219325590e-01
2.626029375535586866e-02 -1.070834815030537734e-01 -8.506488590659161408e-01 1.175516537025440150e-01 5.282641148660509600e-01 -8.409034627450316934e-01
5.992019014140143041e-02 -6.224157352328647808e-02 -8.304596581419020351e-01 -1.433588297566506034e-02 3.456901897010562497e-01 -9.382391886953752591e-01
-2.075995159181709127e-01 1.622567595479482983e-01 -8.879064690500836354e-01 9.718515032078234306e-01 -4.085825394643444186e-03 -2.355588286257563335e-01
-1.174964271559568035e-01 -9.379100437604533103e-02 -8.792586316065645891e-01 3.428921763732027950e-01 4.278146249684378066e-01 -8.363011431566761411e-01
-7.827958595708274514e-02 -1.050353166716059411e-01 -8.688538336302082943e-01 3.483502512738765877e-01 4.541244383921246852e-01 -8.200140833500751958e-01
9.510529339633984336e-02 -2.257881147574574907e-02 -8.221177859273346433e-01 3.173083899393348839e-02 -1.861136259232276310e-02 -9.993231564610107753e-01
8.096007986507899878e-02 4.683802522768575755e-02 -8.075961236375585051e-01 -2.548890018090123610e-01 3.872545203906723188e-01 -8.860392390824435305e-01
-1.242840282890257109e-01 -1.579631225222419277e-01 -9.065855279379152476e-01 3.364613223943337394e-01 1.464760184489793116e-01 -9.302357521359788661e-01
2.151835442114283792e-01 4.876003067217105080e-02 -8.573371277937434920e-01 -6.125809609042227599e-01 5.026972520403533151e-01 -6.099508497647464500e-01
-1.511818938464140338e-01 -5.828636369231873782e-02 -8.857458495695641476e-01 6.846181570495604163e-01 2.475067459595851893e-01 -6.855934580657555566e-01
-2.113424144165340635e-01 -6.276730227942715901e-02 -9.005417178790916521e-01 1.367514857377858661e-01 1.032180092177191477e-01 -9.852132123158108268e-01
-1.910874267281630901e-01 4.137535687766357578e-02 -8.796803058081296145e-01 7.634298722960020100e-01 3.863867676289751141e-01 -5.175713437656130900e-01
-2.001995500348042190e-01 -9.066529439553384917e-02 -9.065118069149377122e-01 3.224220309872657259e-02 3.083495735353419809e-01 -9.507265541889071692e-01
9.557199339077941669e-02 8.013096260245922142e-02 -7.987209015143660329e-01 -2.529288693352897410e-01 2.161513460736037562e-01 -9.430300009264505068e-01
-1.576480757681256173e-01 -5.541830982002059203e-02 -8.890677840215662764e-01 2.475770742093462429e-01 -1.405233442042992664e-02 -9.687662897847324484e-01
1.471324453288781753e-01 2.457432015398569591e-02 -8.205823619039139816e-01 -6.897955540381836559e-02 3.120637976162758953e-01 -9.475536961848649575e-01
5.392101568394134375e-02 -7.157929227282137929e-02 -8.338084356613084669e-01 -1.433588297566506034e-02 3.456901897010562497e-01 -9.382391886953752591e-01
1.526382625017509154e-01 -6.969801912170400793e-02 -8.678923456320103424e-01 -5.843524637684938128e-01 1.205120513853104036e-01 -8.025017405330628906e-01
-1.888249647740876391e-01 -7.250795167814816367e-02 -8.967874308335869182e-01 2.475770742093462429e-01 -1.405233442042992664e-02 -9.687662897847324484e-01
-1.321452147277862588e-01 -1.604612031746173104e-02 -8.465332336433638583e-01 4.345809443417670836e-01 3.680899782405731568e-01 -8.219788140419874711e-01
1.969221834036453400e-01 -9.643436840823713108e-02 -8.909810702596838716e-01 -5.894005664686299273e-01 4.291204113554735189e-01 -6.844433101466965708e-01
8.788291729102867822e-02 -1.522586233226723429e-01 -8.776355458685846100e-01 -1.456321324792485272e-01 4.105159849601430211e-01 -9.001488255181750997e-01
-6.675419536840705714e-02 1.065304136625141451e-01 -8.021840114209102257e-01 4.723372512082741337e-01 2.413548232295097407e-01 -8.477295384878739126e-01
1.134224756311467408e-01 1.833274384401659129e-02 -8.201839372895147751e-01 -6.897955540381836559e-02 3.120637976162758953e-01 -9.475536961848649575e-01
-6.425171960645993663e-02 -1.271610335884800456e-02 -8.312514515482377631e-01 3.367731953192261707e-01 3.978483823896474814e-01 -8.534052258712852002e-01
3.026000537233410753e-02 -9.303629771713266272e-02 -8.411319313805483144e-01 -1.864661236711319114e-01 1.831198523614588902e-01 -9.652447898819136451e-01
-1.587829284128617902e-01 2.003574089790489433e-03 -8.630283121121483658e-01 7.496009857971500656e-01 4.078378919003864400e-01 -5.213123977253844021e-01
7.235187310110965941e-02 -5.879155530183482331e-02 -8.293784644403735529e-01 -1.433588297566506034e-02 3.456901897010562497e-01 -9.382391886953752591e-01
3.997118247545819458e-02 1.861350056903912920e-01 -7.630521269705524690e-01 -2.085604580045093137e-01 1.824329509069994582e-01 -9.608437717861908478e-01
5.564249593991724141e-02 1.525256152862588532e-01 -7.728350665693770605e-01 -2.085604580045093137e-01 1.824329509069994582e-01 -9.608437717861908478e-01
2.008068480601707673e-01 6.127343217811447723e-02 -8.325853909947805720e-01 -6.125809609042227599e-01 5.026972520403533151e-01 -6.099508497647464500e-01
-1.347451877040260482e-01 -5.174821886979852348e-02 -8.669721838273118930e-01 6.846181570495604163e-01 2.475067459595851893e-01 -6.855934580657555566e-01
-5.552449512206548282e-02 8.397153910468151128e-02 -8.023497334213056664e-01 4.723372512082741337e-01 2.413548232295097407e-01 -8.477295384878739126e-01
-2.815617513856118193e-02 4.319259551079191600e-02 -7.965306194635929371e-01 4.648639748799916482e-01 1.810716804204166031e-01 -8.666686399129145402e-01
3.557422458497910139e-02 -1.894953628211288460e-02 -8.202945989433342300e-01 -3.289609009850403831e-01 3.276154172361159800e-01 -8.856934368122618695e-01
4.915461821079351173e-02 -1.408181589345128548e-01 -8.689879691436159792e-01 1.130927006318807465e-01 5.391738094266386172e-01 -8.345667404660663813e-01
8.252424432299459989e-02 -1.538707623623291332e-01 -8.775038052913883835e-01 -1.456321324792485272e-01 4.105159849601430211e-01 -9.001488255181750997e-01
3.519671979694267983e-02 -7.485701828391819190e-02 -8.347300006762260471e-01 -1.433588297566506034e-02 3.456901897010562497e-01 -9.382391886953752591e-01
2.074258680828312482e-02 -9.680351130096641332e-02 -8.442251226371534356e-01 6.570220083245462139e-02 5.672202785181166274e-01 -8.209411528505573541e-01
-1.280957089300385210e-01 -8.018040742296717732e-03 -8.407972054035923737e-01 4.345809443417670836e-01 3.680899782405731568e-01 -8.219788140419874711e-01
-8.174250773972417672e-02 5.149871858551859777e-02 -8.230230009886976283e-01 1.440156565435640190e-01 1.343537538033062750e-01 -9.804124435712181507e-01
1.211293196201250061e-01 5.406005768164688641e-02 -8.089786761991695219e-01 -6.897955540381836559e-02 3.120637976162758953e-01 -9.475536961848649575e-01
1.575703300345770441e-01 -3.995084619490284206e-02 -8.670165506242937248e-01 -5.843524637684938128e-01 1.205120513853104036e-01 -8.025017405330628906e-01
-2.029161890812557489e-01 -3.061221385097316963e-02 -8.986849712456280725e-01 -5.304866593143096887e-02 2.201647346513294773e-02 -9.983491943899460708e-01
-1.326409603757806172e-02 9.735827460606415185e-02 -7.768445035796748277e-01 3.594638815900114137e-01 1.477862839214860446e-01 -9.213820771628455919e-01
4.027179134662962207e-02 -1.344713892494821539e-01 -8.660913414779032315e-01 1.130927006318807465e-01 5.391738094266386172e-01 -8.345667404660663813e-01
-8.232808859823410874e-02 9.396186130871382602e-02 -8.144398196459277095e-01 4.723372512082741337e-01 2.413548232295097407e-01 -8.477295384878739126e-01
-9.528074202840107476e-02 -6.794784380903370891e-02 -8.568428662891600656e-01 2.935948031175788508e-01 4.056996980741313097e-01 -8.655690882678913622e-01
-1.749185068429660317e-01 -7.879609334960774314e-02 -8.941230462101281695e-01 3.155540045536370797e-01 3.244722182173864766e-01 -8.917081640398119013e-01
2.227035569869877663e-01 8.646711584345280477e-02 -8.442619402904383286e-01 -7.357555448848922541e-01 3.366037279103538671e-01 -5.876748323077886083e-01
1.110059147143782343e-01 6.803263559543314132e-02 -8.038494348979654536e-01 -1.037734655308304305e-01 2.697816440463154386e-01 -9.573133929844439560e-01
-1.666352769894222097e-01 2.520744695200183988e-02 -8.561662263957046104e-01 7.496009857971500656e-01 4.078378919003864400e-01 -5.213123977253844021e-01
-1.172483803038871786e-01 -1.160451683735335415e-01 -8.905411744762389281e-01 3.428921763732027950e-01 4.278146249684378066e-01 -8.363011431566761411e-01
1.182287015320792473e-01 -9.949291370327306705e-02 -8.555965962753125931e-01 -1.265781261796674051e-01 3.232607763617517671e-01 -9.378061891664192240e-01
-7.206390355696502652e-03 9.351900887200698120e-02 -7.750969814365552546e-01 3.594638815900114137e-01 1.477862839214860446e-01 -9.213820771628455919e-01
1.903165119668615290e-01 4.689416991165408499e-02 -8.339006370736719020e-01 -6.125809609042227599e-01 5.026972520403533151e-01 -6.099508497647464500e-01
6.540406936349399403e-02 -1.353114747862427247e-01 -8.647233303877368549e-01 -1.138979141983683524e-01 5.070697672804750367e-01 -8.543462507972899855e-01
-6.246727651493273921e-03 1.875757164530424403e-01 -7.596588345281327648e-01 5.110635405656090979e-01 1.574565129655048079e-01 -8.449979313757446375e-01
-1.438078119160235598e-02 -9.827101086327401369e-02 -8.492421893914258169e-01 1.756868043244800004e-01 5.572346827612351117e-01 -8.115563166621510005e-01
-6.423415819085454004e-02 -1.961750599716755028e-02 -8.330137409429316797e-01 3.099342201139082889e-02 2.469186103380003605e-01 -9.685404522583320741e-01
-9.114126051879221924e-02 -8.437654550599761605e-02 -8.631390581625221214e-01 2.935948031175788508e-01 4.056996980741313097e-01 -8.655690882678913622e-01
-3.728164569629279640e-02 -2.762887703383005641e-02 -8.275606198194158658e-01 3.367731953192261707e-01 3.978483823896474814e-01 -8.534052258712852002e-01
-1.674282042679097471e-01 4.697396416805731112e-02 -8.407997606558880177e-01 7.665391720634993078e-01 3.038618596752525325e-01 -5.657611403471451972e-01
-7.347413926266214979e-02 -8.250103330910173172e-02 -8.562674290811678190e-01 2.935948031175788508e-01 4.056996980741313097e-01 -8.655690882678913622e-01
2.263412679437974417e-01 -6.718960646155557048e-02 -9.090494663689058230e-01 -6.415016614781530180e-01 5.090038832205654590e-02 -7.654310999622585543e-01
5.064421258382661127e-03 -3.678349986993640491e-02 -8.163058245329023466e-01 -1.280981841228353013e-01 3.859600685681844889e-01 -9.135785027545660908e-01
1.952785132192030315e-01 3.828679406672253621e-02 -8.459778916303859475e-01 -6.125809609042227599e-01 5.026972520403533151e-01 -6.099508497647464500e-01
-6.787519969457493640e-02 2.294749228877231151e-02 -8.220648980506016779e-01 4.648639748799916482e-01 1.810716804204166031e-01 -8.666686399129145402e-01
7.325705223435648172e-02 5.487377079643363659e-02 -8.018680524686508937e-01 -2.548890018090123610e-01 3.872545203906723188e-01 -8.860392390824435305e-01
1.149069825099796327e-01 -1.390948571375384968e-01 -8.752611258572216002e-01 -3.583991637836171362e-01 5.394427976544845516e-01 -7.619393069384901018e-01
3.812888123431037481e-03 1.869034817852735508e-01 -7.536999381320397262e-01 5.110635405656090979e-01 1.574565129655048079e-01 -8.449979313757446375e-01
2.595388784758078521e-02 -1.202810155098111775e-02 -8.141612314118124027e-01 -3.289609009850403831e-01 3.276154172361159800e-01 -8.856934368122618695e-01
9.835706650994950617e-02 -6.331095186831725563e-02 -8.376521029154859743e-01 -1.999679268807248722e-01 5.176827918123808603e-01 -8.318758052019329385e-01
3.734813404967006478e-02 -3.659041000643547398e-02 -8.274787653793818087e-01 -3.289609009850403831e-01 3.276154172361159800e-01 -8.856934368122618695e-01
-1.600920865763404977e-01 5.146138656797921707e-02 -8.338464976198992629e-01 8.481983383538370391e-02 2.290959857328557503e-01 -9.697013071607303303e-01
-1.154148747842737993e-01 -5.584279033259100661e-02 -8.579401488593659808e-01 3.178003442808332024e-01 4.652149935875232734e-01 -8.261827587866649170e-01
-2.834405033284226414e-03 9.026605767786739787e-02 -7.739130760052188585e-01 3.594638815900114137e-01 1.477862839214860446e-01 -9.213820771628455919e-01
1.841201825495342517e-02 5.565395789363724666e-04 -8.067129193968857193e-01 -3.298612318563072243e-01 3.230035771825383595e-01 -8.870514397967704801e-01
1.186059952799393136e-01 1.463912328860567102e-02 -8.217777278518398898e-01 -6.897955540381836559e-02 3.120637976162758953e-01 -9.475536961848649575e-01
6.309321104873798214e-02 -1.259611667878713093e-01 -8.588656814097922476e-01 -1.138979141983683524e-01 5.070697672804750367e-01 -8.543462507972899855e-01
4.792054807697826435e-02 -3.581771812653953418e-02 -8.281730026703946201e-01 1.230673640349156106e-01 9.762049066563474597e-02 -9.875852690839905801e-01
7.313279934941173399e-02 -1.767011999839410152e-01 -8.849042075346242875e-01 -1.118103599713351215e-01 3.082176195834023802e-01 -9.447223625920059265e-01
8.434479895541140138e-02 5.709072386455524284e-02 -8.040887437316635022e-01 -2.548890018090123610e-01 3.872545203906723188e-01 -8.860392390824435305e-01
1.420011790663339990e-01 -8.518678472705169813e-02 -8.624727648677602554e-01 -5.843524637684938128e-01 1.205120513853104036e-01 -8.025017405330628906e-01
-1.725687764800547253e-01 4.119589802758701763e-02 -8.524988351983980861e-01 7.634298722960020100e-01 3.863867676289751141e-01 -5.175713437656130900e-01
1.756756357762379733e-02 1.874384038489614879e-01 -7.571243903456698066e-01 -4.054568315300892123e-01 2.294726806685211118e-01 -8.848429502416705894e-01
1.206413797708158209e-01 -1.236365878532295348e-01 -8.675345759981372140e-01 -1.515263663657322457e-01 4.683376839907077427e-01 -8.704594040219325590e-01
5.531118350057900174e-02 1.142446178114989302e-01 -7.801034305964440474e-01 -2.529288693352897410e-01 2.161513460736037562e-01 -9.430300009264505068e-01
1.679297720528764026e-01 7.383746368807120319e-02 -8.082211707161088832e-01 -9.399397813158057169e-02 2.716954134313231406e-01 -9.577821956976346751e-01
-8.721086377678946566e-03 1.603092411679907237e-01 -7.656885292643504926e-01 3.532337364442998395e-01 1.294707457551139695e-01 -9.265329208566814856e-01
4.259360175930172049e-02 -7.246547912483979059e-02 -8.339618694789092679e-01 -1.433588297566506034e-02 3.456901897010562497e-01 -9.382391886953752591e-01
1.893150577154134595e-01 -1.129911662411657441e-01 -8.954693587292719137e-01 -4.435536369323055395e-01 4.280307622825555991e-01 -7.874324337388821649e-01
-4.824966311639850708e-02 9.416178360195326391e-02 -7.953951110515584677e-01 4.723372512082741337e-01 2.413548232295097407e-01 -8.477295384878739126e-01
-1.615954046767340835e-01 -8.726341206245391557e-02 -8.924893855403398524e-01 3.155540045536370797e-01 3.244722182173864766e-01 -8.917081640398119013e-01
-2.198386288422201490e-02 -4.278214015441415136e-02 -8.285880543779905461e-01 3.367731953192261707e-01 3.978483823896474814e-01 -8.534052258712852002e-01
-1.517851365200809932e-01 -1.084065821062468876e-01 -8.981564307115230683e-01 2.642354116338704317e-01 3.989591823213100574e-01 -8.780724446651259063e-01
-1.739726998356727894e-01 7.400456626727128229e-02 -8.384336584688095728e-01 5.253117467762404846e-01 1.314698035322399150e-01 -8.406921311979131950e-01
-1.148098640967457063e-01 1.014417799540299620e-01 -8.180775820130083975e-01 8.481983383538370391e-02 2.290959857328557503e-01 -9.697013071607303303e-01
1.280836420454369929e-03 3.516126222753212377e-02 -7.877417964258844885e-01 -3.298612318563072243e-01 3.230035771825383595e-01 -8.870514397967704801e-01
-9.403955456447479766e-02 -1.327153689100574463e-01 -8.880210514477688832e-01 4.490730324199867507e-01 2.646391796320991530e-01 -8.534046614336993075e-01
2.213146076748957192e-01 1.398246685088706809e-01 -8.161455087238337347e-01 5.112951617269636401e-02 2.041649687301386185e-02 -9.984833194557533043e-01
-1.062701783241125769e-01 4.745713868970843560e-03 -8.329442388287973120e-01 1.403195831669448446e-01 1.265626406512052327e-01 -9.819838657387649494e-01
-8.944465978305707679e-03 8.617674596927051012e-02 -7.769527383501639850e-01 3.594638815900114137e-01 1.477862839214860446e-01 -9.213820771628455919e-01
1.944921945021332310e-01 -1.249318786977856102e-02 -8.871725202008047262e-01 -4.680333438803602752e-01 -2.560240463021676294e-02 -8.833398586576510780e-01
-5.075493926699068542e-02 6.740099733058357856e-02 -8.035943287526815526e-01 4.648639748799916482e-01 1.810716804204166031e-01 -8.666686399129145402e-01
-1.426165090951987957e-01 -3.421554160629375341e-02 -8.681177056240488854e-01 7.496009857971500656e-01 4.078378919003864400e-01 -5.213123977253844021e-01
-2.069534569124540507e-02 -7.101231023646349672e-02 -8.396965855495538422e-01 5.158403725396816242e-01 2.998864289262723193e-01 -8.024816756811150587e-01
-9.775952413863420176e-02 2.643082220080184702e-02 -8.288110416740308573e-01 1.440156565435640190e-01 1.343537538033062750e-01 -9.804124435712181507e-01
-4.089084290143733119e-02 -1.051602953141252961e-01 -8.593755530587399161e-01 1.460614836358904156e-01 5.401029075682282077e-01 -8.288274200546387194e-01
-2.133317424000858234e-02 5.215806245235324323e-02 -7.909977557342037224e-01 4.648639748799916482e-01 1.810716804204166031e-01 -8.666686399129145402e-01
6.118437076851204748e-02 -1.088019574172847254e-01 -8.510165787721097885e-01 -1.361427464533786214e-01 3.335374120912617535e-01 -9.328547300215584981e-01
1.111425984362405250e-01 -8.149316207841950099e-02 -8.484356717538767967e-01 -1.265781261796674051e-01 3.232607763617517671e-01 -9.378061891664192240e-01
-1.290784957191473958e-01 -1.719481691655538047e-01 -9.105217632346592760e-01 3.364613223943337394e-01 1.464760184489793116e-01 -9.302357521359788661e-01
-2.819464357416891914e-03 -1.350909108761782218e-01 -8.723309099440145209e-01 1.130927006318807465e-01 5.391738094266386172e-01 -8.345667404660663813e-01
-9.856163681741764160e-02 -2.369805190453803945e-02 -8.361409210127246361e-01 5.883171428054369267e-02 2.540113451874967954e-01 -9.654103096149588836e-01
-1.584702556536572715e-01 -5.881625867208125497e-02 -8.892286110224270068e-01 2.475770742093462429e-01 -1.405233442042992664e-02 -9.687662897847324484e-01
-4.912870144305354903e-02 1.080039374140014385e-01 -7.919439300950446015e-01 4.723372512082741337e-01 2.413548232295097407e-01 -8.477295384878739126e-01
-1.719328761919922954e-01 -8.604082061454272970e-03 -8.885314645861993599e-01 6.846181570495604163e-01 2.475067459595851893e-01 -6.855934580657555566e-01
1.647791336058933021e-01 1.909943547724592475e-02 -8.326517233679904262e-01 -7.168428487352748180e-01 4.476487229285580627e-01 -5.345530386009672563e-01
-8.024779046276928063e-02 -2.884791172706544990e-02 -8.363798741735053444e-01 5.883171428054369267e-02 2.540113451874967954e-01 -9.654103096149588836e-01
8.472767696451347086e-02 -5.343032044644001333e-02 -8.282270498217804144e-01 -1.999679268807248722e-01 5.176827918123808603e-01 -8.318758052019329385e-01
2.467651021409936543e-02 1.983916807465392895e-01 -7.574051264799601668e-01 -2.085604580045093137e-01 1.824329509069994582e-01 -9.608437717861908478e-01
2.365093493683829637e-02 1.567986542574096032e-01 -7.650796770432771732e-01 -2.085604580045093137e-01 1.824329509069994582e-01 -9.608437717861908478e-01
-1.572489762647659994e-01 -7.119766189205942175e-02 -8.887369048167527152e-01 2.475770742093462429e-01 -1.405233442042992664e-02 -9.687662897847324484e-01
-9.846957739299198875e-02 -1.116233803696399102e-01 -8.805796788540629638e-01 3.428921763732027950e-01 4.278146249684378066e-01 -8.363011431566761411e-01
-1.874749024563060751e-01 -1.156586417851485638e-01 -9.121914637748995691e-01 2.642354116338704317e-01 3.989591823213100574e-01 -8.780724446651259063e-01
2.410508579171345006e-02 1.256768138883757324e-01 -7.710665771668836488e-01 -2.056733356508665400e-01 1.699471589775424785e-01 -9.637512345816776627e-01
-1.840015868574320645e-01 9.307829808896751767e-02 -8.417174674661211942e-01 5.253117467762404846e-01 1.314698035322399150e-01 -8.406921311979131950e-01
1.918757011512323696e-01 -6.016427357891981909e-02 -8.847631459957053801e-01 -3.917000139055874519e-01 -1.577195348354219068e-02 -9.199577950045728647e-01
1.576445137427687562e-02 -1.298137064170950261e-01 -8.664032406398471942e-01 1.130927006318807465e-01 5.391738094266386172e-01 -8.345667404660663813e-01
1.147433622273805742e-01 1.437566651940098104e-02 -8.215833036292449210e-01 -6.897955540381836559e-02 3.120637976162758953e-01 -9.475536961848649575e-01
-2.994507389294956499e-03 1.474314796517826320e-01 -7.651723158841219341e-01 5.110635405656090979e-01 1.574565129655048079e-01 -8.449979313757446375e-01
1.488904152034800366e-01 -8.523016926389504616e-03 -8.344765027815668201e-01 -7.168428487352748180e-01 4.476487229285580627e-01 -5.345530386009672563e-01
-1.728188220796040564e-01 7.671904320111454234e-02 -8.372881531725725468e-01 5.253117467762404846e-01 1.314698035322399150e-01 -8.406921311979131950e-01
-1.652076650589218987e-01 5.549252326615332180e-03 -8.694926260256746753e-01 7.496009857971500656e-01 4.078378919003864400e-01 -5.213123977253844021e-01
-9.675574554598069532e-02 -1.561387908684761655e-02 -8.342087225427334829e-01 1.403195831669448446e-01 1.265626406512052327e-01 -9.819838657387649494e-01
-1.482550786379992214e-01 -9.141750140559821991e-02 -8.893750185522729668e-01 2.642354116338704317e-01 3.989591823213100574e-01 -8.780724446651259063e-01
-4.417116178978900722e-03 -1.256771439970864601e-01 -8.661886431351437654e-01 6.570220083245462139e-02 5.672202785181166274e-01 -8.209411528505573541e-01
-4.098930887783714533e-02 3.470631352837468681e-02 -8.051870846381468105e-01 4.648639748799916482e-01 1.810716804204166031e-01 -8.666686399129145402e-01
1.529340265235891623e-02 1.404610627669122536e-01 -7.663675703529102545e-01 -2.085604580045093137e-01 1.824329509069994582e-01 -9.608437717861908478e-01
1.780536356818570032e-01 1.044398741974424810e-01 -8.064425845016237604e-01 -3.039013469028374881e-01 -2.622978180159271644e-02 -9.523423596046129980e-01
1.918246068597789789e-01 1.285179445050240177e-01 -8.115001976287996577e-01 -3.039013469028374881e-01 -2.622978180159271644e-02 -9.523423596046129980e-01
-1.674066174682499186e-01 7.165213698355911431e-02 -8.346986802697389241e-01 5.253117467762404846e-01 1.314698035322399150e-01 -8.406921311979131950e-01
9.056841670918731879e-02 7.649859666905943489e-02 -7.982114710547844050e-01 -2.529288693352897410e-01 2.161513460736037562e-01 -9.430300009264505068e-01
-1.827146419791817189e-01 1.354462988423807690e-01 -8.436974472248246482e-01 6.183086647364082200e-01 -1.352546008946958755e-01 -7.742096538074788592e-01
1.328827526886633137e-01 -5.512041433219705411e-02 -8.513179792251376332e-01 -5.843524637684938128e-01 1.205120513853104036e-01 -8.025017405330628906e-01
2.365430761599859183e-02 -9.931059250410916028e-02 -8.457243297712629948e-01 6.570220083245462139e-02 5.672202785181166274e-01 -8.209411528505573541e-01
1.169721341560717304e-01 -1.282219078935906142e-01 -8.693629102149884602e-01 -1.515263663657322457e-01 4.683376839907077427e-01 -8.704594040219325590e-01
1.382569691293801806e-01 2.390054268319943831e-02 -8.201581486402487187e-01 -6.897955540381836559e-02 3.120637976162758953e-01 -9.475536961848649575e-01
-1.944881807822285147e-01 -1.099406838915414214e-01 -9.123810862444344805e-01 3.155540045536370797e-01 3.244722182173864766e-01 -8.917081640398119013e-01
1.901521100735213410e-01 -1.146951886405042365e-01 -8.968671315122025423e-01 -4.435536369323055395e-01 4.280307622825555991e-01 -7.874324337388821649e-01
3.263079967025673406e-02 -1.131249773242897633e-01 -8.535536418923300728e-01 1.175516537025440150e-01 5.282641148660509600e-01 -8.409034627450316934e-01
-4.215409335230421717e-02 1.473990387068264962e-01 -7.802386431472406736e-01 3.532337364442998395e-01 1.294707457551139695e-01 -9.265329208566814856e-01
-3.629092764583729397e-02 -1.452971022307178728e-01 -8.788475070788904775e-01 9.183538935765782341e-02 2.999266862544568424e-01 -9.495315919620304079e-01
1.794884330257121366e-02 4.948697754932630810e-02 -7.883117745959536959e-01 -2.548890018090123610e-01 3.872545203906723188e-01 -8.860392390824435305e-01
-9.284533455761262433e-02 6.241077411128752306e-02 -8.231585615611302087e-01 1.440156565435640190e-01 1.343537538033062750e-01 -9.804124435712181507e-01
-5.052547154232506915e-02 -5.545621726845377519e-02 -8.417117417886867958e-01 3.099342201139082889e-02 2.469186103380003605e-01 -9.685404522583320741e-01
3.048044477355666554e-02 5.430428014396864594e-02 -7.898113077154109707e-01 -2.548890018090123610e-01 3.872545203906723188e-01 -8.860392390824435305e-01
2.814193739060280239e-02 4.818420849119752630e-02 -7.918134375555333504e-01 -2.548890018090123610e-01 3.872545203906723188e-01 -8.860392390824435305e-01
9.286894571162722378e-02 -1.028583743013413015e-01 -8.533337950793997706e-01 -1.265781261796674051e-01 3.232607763617517671e-01 -9.378061891664192240e-01
-7.400382473808246597e-02 4.067444043462303815e-02 -8.216485090472369635e-01 4.648639748799916482e-01 1.810716804204166031e-01 -8.666686399129145402e-01
9.318914469277951584e-02 7.443216772958513583e-02 -7.993880181015041719e-01 -2.529288693352897410e-01 2.161513460736037562e-01 -9.430300009264505068e-01
-1.128227176683333638e-01 2.050891406696125213e-02 -8.318352447150306750e-01 1.440156565435640190e-01 1.343537538033062750e-01 -9.804124435712181507e-01
-2.030734659446835066e-01 -1.054990175477378833e-01 -9.114202988128627947e-01 3.224220309872657259e-02 3.083495735353419809e-01 -9.507265541889071692e-01
-1.240150307191320578e-01 -4.533444778797839775e-02 -8.553503912797426612e-01 4.345809443417670836e-01 3.680899782405731568e-01 -8.219788140419874711e-01
-4.495076827055672491e-02 1.194053796860717193e-01 -7.863699983868319698e-01 4.723372512082741337e-01 2.413548232295097407e-01 -8.477295384878739126e-01
1.520475366874090781e-02 -9.577237564636906231e-02 -8.439558789437263675e-01 6.570220083245462139e-02 5.672202785181166274e-01 -8.209411528505573541e-01
2.936129285973435726e-02 -5.187282029558825530e-02 -8.301652420433078827e-01 -3.289609009850403831e-01 3.276154172361159800e-01 -8.856934368122618695e-01
-1.738012114204497971e-01 -1.119385528420488302e-01 -9.063864336167565261e-01 2.642354116338704317e-01 3.989591823213100574e-01 -8.780724446651259063e-01
-1.929982816120643929e-01 8.520736069136888857e-02 -8.549095931954913130e-01 7.665391720634993078e-01 3.038618596752525325e-01 -5.657611403471451972e-01
1.415408408200919399e-01 -6.924910662895530922e-02 -8.597441949972148834e-01 -5.843524637684938128e-01 1.205120513853104036e-01 -8.025017405330628906e-01
2.290905618544951672e-01 -9.714038688142348499e-02 -9.191251504681934303e-01 -5.894005664686299273e-01 4.291204113554735189e-01 -6.844433101466965708e-01
1.205003147820406378e-01 4.041209553434532697e-02 -8.134276551227974661e-01 -6.897955540381836559e-02 3.120637976162758953e-01 -9.475536961848649575e-01
-1.760521839914812869e-01 5.366609701324723952e-02 -8.488899846377919722e-01 7.665391720634993078e-01 3.038618596752525325e-01 -5.657611403471451972e-01
2.148491532902362666e-01 -9.096376858543293864e-02 -9.029888144191502430e-01 -5.894005664686299273e-01 4.291204113554735189e-01 -6.844433101466965708e-01
2.318112503008399050e-01 1.286991855285019304e-01 -8.289519149926423136e-01 -6.724961530823516664e-01 4.627215527122154337e-01 -5.776137885690010298e-01
4.437963334056851256e-02 3.323400550425107541e-02 -8.030187469390090982e-01 -2.548890018090123610e-01 3.872545203906723188e-01 -8.860392390824435305e-01
2.102808659750901310e-01 7.856860247916316875e-02 -8.332330610621525580e-01 -7.357555448848922541e-01 3.366037279103538671e-01 -5.876748323077886083e-01
7.672751923703277632e-02 9.378146780456572684e-02 -7.905378250402729234e-01 -2.529288693352897410e-01 2.161513460736037562e-01 -9.430300009264505068e-01
2.125199783775146012e-02 -9.917141031162882148e-02 -8.458204268876698961e-01 6.570220083245462139e-02 5.672202785181166274e-01 -8.209411528505573541e-01
1.327619301754646812e-02 7.974935444818193053e-02 -7.768544055529814640e-01 -2.056733356508665400e-01 1.699471589775424785e-01 -9.637512345816776627e-01
9.584135090732254225e-02 -1.051066962807697680e-01 -8.545099824422486279e-01 -1.265781261796674051e-01 3.232607763617517671e-01 -9.378061891664192240e-01
-1.589696529896147403e-01 -9.910731327301473825e-02 -8.960932467063973395e-01 2.642354116338704317e-01 3.989591823213100574e-01 -8.780724446651259063e-01
6.139067741726324245e-02 1.436526382259250938e-02 -8.161591735038653539e-01 -2.548890018090123610e-01 3.872545203906723188e-01 -8.860392390824435305e-01
9.552191803417976745e-02 9.172424663415102569e-03 -8.218976464892092659e-01 -6.897955540381836559e-02 3.120637976162758953e-01 -9.475536961848649575e-01
1.661207261797759682e-01 -1.298100011024194526e-02 -8.613158145951900213e-01 -7.168428487352748180e-01 4.476487229285580627e-01 -5.345530386009672563e-01
1.167150704211777079e-01 -3.148985582472389744e-02 -8.267951233577893744e-01 -3.935786174133823478e-01 3.827352469006932156e-01 -8.358286921940617509e-01
-4.206233721345789545e-02 -8.378813837861615044e-02 -8.486638283837623087e-01 3.099342201139082889e-02 2.469186103380003605e-01 -9.685404522583320741e-01
1.369712244815419200e-01 -3.308260650227009408e-02 -8.390595508622046284e-01 -7.168428487352748180e-01 4.476487229285580627e-01 -5.345530386009672563e-01
-1.350454467152466427e-02 6.138498628164442555e-02 -7.848708668433320712e-01 4.648639748799916482e-01 1.810716804204166031e-01 -8.666686399129145402e-01
1.909288061021586214e-01 -1.028051177707144381e-01 -8.908414592812943233e-01 -4.435536369323055395e-01 4.280307622825555991e-01 -7.874324337388821649e-01
6.699402741533214134e-02 6.325682672940803608e-02 -7.964024339773373429e-01 -2.548890018090123610e-01 3.872545203906723188e-01 -8.860392390824435305e-01
-3.624669086423136510e-02 -1.259148901477227245e-01 -8.715051563676161628e-01 8.632364755831185843e-02 4.064292367147122054e-01 -9.095952415309377370e-01
3.952228377411377835e-02 9.708943536463175705e-02 -7.798008391862512045e-01 -2.529288693352897410e-01 2.161513460736037562e-01 -9.430300009264505068e-01
-1.731876264172160784e-02 -6.310497553564138606e-02 -8.345711349024212966e-01 5.158403725396816242e-01 2.998864289262723193e-01 -8.024816756811150587e-01
-1.635426191216806657e-01 -5.045715290114116680e-02 -8.906461519411904559e-01 2.475770742093462429e-01 -1.405233442042992664e-02 -9.687662897847324484e-01
-2.243460565931123044e-02 -6.862705878085877120e-02 -8.399232274458983127e-01 5.158403725396816242e-01 2.998864289262723193e-01 -8.024816756811150587e-01
5.698274459081403148e-02 -7.804543458396308309e-02 -8.368758461376346602e-01 -1.999679268807248722e-01 5.176827918123808603e-01 -8.318758052019329385e-01
-3.964677689483026707e-02 -6.878691271169483368e-02 -8.447621345860681918e-01 3.099342201139082889e-02 2.469186103380003605e-01 -9.685404522583320741e-01
2.314156572412310042e-01 1.343244914800804657e-01 -8.239849540717880672e-01 -6.724961530823516664e-01 4.627215527122154337e-01 -5.776137885690010298e-01
-1.188333533670863917e-01 -1.543256111410820919e-01 -9.040412809866257282e-01 3.364613223943337394e-01 1.464760184489793116e-01 -9.302357521359788661e-01
-1.671179074323768110e-01 2.259744482634809884e-02 -8.589020869407821834e-01 7.496009857971500656e-01 4.078378919003864400e-01 -5.213123977253844021e-01
2.068181161598613704e-01 6.869602218070049171e-02 -8.345525151425802202e-01 -7.357555448848922541e-01 3.366037279103538671e-01 -5.876748323077886083e-01
-2.274706840243604089e-01 -4.385321080402138083e-02 -9.007988093998207102e-01 1.367514857377858661e-01 1.032180092177191477e-01 -9.852132123158108268e-01
8.591371113360729561e-02 -1.642134589077099138e-01 -8.823427105520635916e-01 -1.118103599713351215e-01 3.082176195834023802e-01 -9.447223625920059265e-01
