-1.993897629284152682e-03 -3.085263141662587805e-02 -8.199769789910290596e-01 6.241361790954890187e-01 2.544434400500513727e-01 -7.387236057955500756e-01
-6.865582900430204638e-02 -8.109750684103615975e-04 -9.547771421651159995e-01 9.723531673533041264e-01 1.430897133608500793e-01 -1.845390253261005864e-01
-3.849795044386437881e-02 3.137643377470882705e-02 -8.642996121156035771e-01 9.748548423851500777e-01 -1.632826446211594132e-02 -2.222418143776715704e-01
-5.036517124909149073e-02 3.800269027132098520e-02 -9.111345823947614164e-01 8.716561826919175804e-01 -1.189891118292409899e-01 -4.754546144912707994e-01
-4.637827871880076890e-04 4.609792153214185839e-02 -7.901526880978645417e-01 6.861930611956386095e-01 2.800282020457337540e-01 -6.713592844565360318e-01
1.549291008374265380e-02 -8.230542912464015870e-02 -7.961611163943101976e-01 7.237656270221686228e-01 3.872768097552364286e-01 -5.711216943585784023e-01
3.208669253357272072e-02 -9.339675989916246257e-02 -7.826533224558610558e-01 7.237656270221686228e-01 3.872768097552364286e-01 -5.711216943585784023e-01
-2.848858636918586221e-02 3.593546203981654724e-02 -8.207288914332303564e-01 9.748548423851500777e-01 -1.632826446211594132e-02 -2.222418143776715704e-01
2.517681281958179113e-02 1.163042812007972215e-01 -7.542583846632043842e-01 6.892873704784705513e-01 6.289947733941653185e-02 -7.217524344602543884e-01
1.204654246971374881e-01 2.017289539620990141e-02 -6.700065658938028079e-01 6.443087454749379939e-01 -1.983328637754566692e-01 -7.386002407602760833e-01
2.944155196560713228e-02 -8.416318399666990191e-02 -7.797441561383727793e-01 7.237656270221686228e-01 3.872768097552364286e-01 -5.711216943585784023e-01
-7.080227068669071866e-02 -5.583862210324745667e-03 -1.018390014362937634e+00 8.607911584055190080e-01 -2.905933189828200924e-01 -4.178445938066371323e-01
-7.225796832236253131e-02 2.456507820326261568e-02 -9.694589391947037171e-01 9.936690416328003428e-01 1.141471061574731057e-02 -1.117655585684197983e-01
-6.361175849743094801e-02 -7.330909427306216142e-02 -9.735630805286547007e-01 9.789964940834113838e-01 9.775800574766098372e-02 -1.789112542145673834e-01
2.831274118710403950e-02 1.294673364138004823e-01 -7.501163756185356135e-01 6.892873704784705513e-01 6.289947733941653185e-02 -7.217524344602543884e-01
-5.288736900601537921e-02 6.946177785598868504e-02 -9.236316283342773659e-01 8.716561826919175804e-01 -1.189891118292409899e-01 -4.754546144912707994e-01
2.385498584747086648e-02 -2.215786581093415752e-01 -8.435824570347433271e-01 7.760252860071522596e-01 1.427697221695374830e-01 -6.143301733670180065e-01
-5.843433018947395696e-02 -3.533100542537404715e-02 -9.276856069742489552e-01 9.723531673533041264e-01 1.430897133608500793e-01 -1.845390253261005864e-01
-7.581009905090350942e-02 8.096348241673575639e-04 -1.033152923811375246e+00 8.607911584055190080e-01 -2.905933189828200924e-01 -4.178445938066371323e-01
-4.418035317143056279e-02 -8.873831363541088979e-02 -9.135186165327711105e-01 9.124012821824435404e-01 2.759404030054994350e-01 -3.022925640186929774e-01
1.204933985455097084e-01 -2.520905275398388490e-02 -6.927374478684562575e-01 3.320311755628011507e-01 5.733424437070965274e-01 -7.490218559550574362e-01
4.070347108231084018e-03 1.618395604026471590e-01 -7.682662060661608061e-01 5.457308703452653509e-01 1.950508758265246945e-01 -8.149435397568989270e-01
-3.855728392554792078e-02 9.233308155742692147e-03 -8.662470614501164290e-01 9.773285503396109686e-01 6.975273186831637551e-02 -1.999086318496063053e-01
-5.522103319170811042e-02 -7.941488572868030116e-02 -9.383317315263227654e-01 9.124012821824435404e-01 2.759404030054994350e-01 -3.022925640186929774e-01
-6.503254910078248852e-02 -3.482712116429555887e-02 -9.576858678845443507e-01 9.668002244471390894e-01 9.104876680979061276e-02 -2.387623254857805244e-01
-5.915900884871470172e-02 1.544403155905970659e-01 -9.606460479573801781e-01 9.654449776352438395e-01 -2.408281957030751763e-01 -9.958802796162365134e-02
-4.353073328392346314e-02 -1.034367255247383433e-01 -9.249749740294610501e-01 9.124012821824435404e-01 2.759404030054994350e-01 -3.022925640186929774e-01
-1.815677856622070069e-02 2.135945577737097256e-01 -1.008225508744768018e+00 6.895971574728593234e-01 -4.195429427803035183e-01 5.902876244413357565e-01
-4.164354681705085409e-02 -6.963533781935983547e-02 -8.846188350184097660e-01 9.214372200576277372e-01 2.833874250714946696e-01 -2.657913031004193183e-01
-1.200369469724070319e-02 1.536131053678352065e-01 -8.170318217506822300e-01 9.391617387727724253e-01 -1.931393309396769176e-01 -2.840289197766255880e-01
3.703006060223325291e-02 -1.496649097011532037e-02 -7.715567637793692146e-01 8.022193283331102709e-01 1.293504775091674497e-01 -5.828486966760100252e-01
-6.830889927265046402e-02 3.803617384674648494e-02 -9.859825885726877237e-01 9.465675572239474755e-01 -1.608870395429405284e-02 3.221040409807985894e-01
-4.198674510856287984e-02 9.890865144860094420e-06 -8.862315355704144526e-01 9.773285503396109686e-01 6.975273186831637551e-02 -1.999086318496063053e-01
2.249196358371573223e-02 -2.089015545501788362e-01 -8.423580880494646594e-01 7.760252860071522596e-01 1.427697221695374830e-01 -6.143301733670180065e-01
-3.927138107853291732e-02 3.624421207116651500e-02 -8.680498738436093209e-01 9.748548423851500777e-01 -1.632826446211594132e-02 -2.222418143776715704e-01
9.486810585463195666e-02 -1.728603929519604288e-01 -7.641805251991549142e-01 5.274201711607601206e-01 4.076463130116477207e-01 -7.454209861150705718e-01
-6.158787629888199527e-02 3.022405682159857304e-02 -1.015726870519553016e+00 9.759043402260273448e-01 -1.673780655480543444e-01 1.399832200708128749e-01
1.524468005725237718e-01 -1.804255288881695396e-01 -7.425457184818929912e-01 2.878322943046175975e-01 3.196218606709440024e-01 -9.027704229407294001e-01
-5.572163323047400751e-02 5.196738750814759722e-02 -9.244495023295994374e-01 8.716561826919175804e-01 -1.189891118292409899e-01 -4.754546144912707994e-01
-3.732980714696830515e-02 1.003451466768377903e-01 -9.028387701845241864e-01 8.716561826919175804e-01 -1.189891118292409899e-01 -4.754546144912707994e-01
-4.617801672631133975e-02 -6.369740527588123313e-02 -8.995041778762423723e-01 7.360921499393288103e-01 -6.555093613422976473e-01 -1.687478118089524859e-01
-5.616217457652159656e-02 -6.763791324073628597e-02 -9.342797550775803206e-01 9.668002244471390894e-01 9.104876680979061276e-02 -2.387623254857805244e-01
7.129619348024332504e-02 -1.289553039935491530e-01 -7.724680129877362633e-01 4.860973894079763657e-01 -3.869039380276705076e-02 -8.730477543858279343e-01
1.105317582694795436e-01 -1.951654386603628860e-02 -6.927959483973733512e-01 3.320311755628011507e-01 5.733424437070965274e-01 -7.490218559550574362e-01
-2.541476247153610923e-02 6.006311320303363982e-02 -8.090183613986005051e-01 9.748548423851500777e-01 -1.632826446211594132e-02 -2.222418143776715704e-01
-4.229863820034509420e-02 1.916154789850152695e-01 -9.582835600954150435e-01 8.622371045685376378e-01 -5.050484339245004950e-01 -3.838300269226099098e-02
-7.063109656828062133e-02 3.019247973047897368e-02 -1.042918322087579508e+00 8.607911584055190080e-01 -2.905933189828200924e-01 -4.178445938066371323e-01
-6.770566701944992494e-02 1.099794425919892356e-02 -9.960648782700476378e-01 9.759043402260273448e-01 -1.673780655480543444e-01 1.399832200708128749e-01
-2.860917990430782501e-02 -3.673808770978451849e-03 -8.331024394178287995e-01 6.241361790954890187e-01 2.544434400500513727e-01 -7.387236057955500756e-01
6.048965812520498003e-02 -9.414388869959836037e-02 -7.663023585060284582e-01 1.988196916558034044e-01 5.776442554634930726e-01 -7.917056551142716003e-01
-5.550401647023127383e-02 1.660112489593177643e-01 -9.531944792849050829e-01 9.654449776352438395e-01 -2.408281957030751763e-01 -9.958802796162365134e-02
-6.370417905271381909e-02 4.752140615390441913e-02 -9.377088566547309156e-01 8.679292377400164016e-01 -1.249220576285027112e-01 -4.807216635371192592e-01
-2.234768665343692465e-02 6.402367287674735896e-02 -8.049021353864391770e-01 6.229336082167989952e-01 2.503587006758750677e-01 -7.411303803986766248e-01
-4.908176682091884568e-02 1.218493995574704142e-01 -1.034754974960148566e+00 9.428335173767470323e-01 -4.006802619651277098e-02 3.308466590245501271e-01
-7.032874252340554078e-02 2.826691135434812249e-02 -9.519287865250785075e-01 9.936690416328003428e-01 1.141471061574731057e-02 -1.117655585684197983e-01
-2.316155779888843733e-02 2.102922402759423715e-01 -1.004725829188426678e+00 6.895971574728593234e-01 -4.195429427803035183e-01 5.902876244413357565e-01
2.920154316889368024e-02 -1.641998118744927015e-01 -8.157211130947069622e-01 7.597761649234019421e-01 3.168340092643953665e-01 -5.677643787591263314e-01
-5.117581097451957134e-02 1.171033753033432906e-01 -9.306871045109474938e-01 8.684593129789162091e-01 -8.646580094759047028e-03 -4.956850394684649830e-01
-5.577089848705678310e-02 -1.058347776698342485e-01 -9.518649784972879058e-01 8.912542367146280009e-01 1.625624376051549580e-01 -4.233666725405959008e-01
2.305537790896953002e-02 -8.628050850880014666e-02 -7.892729203341740662e-01 7.237656270221686228e-01 3.872768097552364286e-01 -5.711216943585784023e-01
-5.493325386923817583e-02 1.687726479566727666e-01 -9.543390230009671793e-01 9.654449776352438395e-01 -2.408281957030751763e-01 -9.958802796162365134e-02
-3.345808416997460896e-03 1.723349498304349581e-01 -8.011347397805155257e-01 9.391617387727724253e-01 -1.931393309396769176e-01 -2.840289197766255880e-01
-5.969125736716222180e-02 -8.918207946060609237e-02 -9.537237295487543953e-01 8.912542367146280009e-01 1.625624376051549580e-01 -4.233666725405959008e-01
8.500868411813503056e-02 -3.722227836503878146e-02 -7.181707333339597543e-01 3.264688880145844019e-01 6.555487955563215063e-01 -6.809360041906853400e-01
-1.473757784651896253e-02 6.429992333502154711e-02 -7.971496946142048179e-01 6.861930611956386095e-01 2.800282020457337540e-01 -6.713592844565360318e-01
-1.923427090589576588e-02 1.338593314125455791e-01 -8.288630557506826424e-01 9.455209462427462963e-01 -1.779771061650706199e-01 -2.726064744229836356e-01
-2.754219938982413549e-03 -5.371956786325168820e-03 -8.118757676835525183e-01 6.229336082167989952e-01 2.503587006758750677e-01 -7.411303803986766248e-01
4.108173707696193694e-02 7.940645012242343592e-02 -7.441310554504112496e-01 6.652348846558590045e-01 1.137208556723374037e-01 -7.379228382575357958e-01
-9.571284572906277321e-02 4.161677123177384870e-03 -1.071852231548955592e+00 8.565676566276030357e-01 8.672054646172751291e-02 -5.086957798536133613e-01
2.726502621892197206e-02 1.275768119133126599e-01 -7.512817193821992312e-01 6.892873704784705513e-01 6.289947733941653185e-02 -7.217524344602543884e-01
-2.733735504347145281e-02 3.003499711487627247e-02 -8.205776401865469971e-01 6.229336082167989952e-01 2.503587006758750677e-01 -7.411303803986766248e-01
-7.461445846309949781e-02 -1.105553256719263300e-02 -1.022438090388817500e+00 8.607911584055190080e-01 -2.905933189828200924e-01 -4.178445938066371323e-01
1.019828493046765681e-04 -3.025865532123899262e-02 -8.180016148043200985e-01 6.241361790954890187e-01 2.544434400500513727e-01 -7.387236057955500756e-01
2.662771786212879757e-02 1.198999848133738416e-01 -7.525593832592025745e-01 6.892873704784705513e-01 6.289947733941653185e-02 -7.217524344602543884e-01
-1.193529271576326475e-02 -8.568486417464819815e-02 -8.372990405110504186e-01 8.367768266443055269e-01 1.406548441613150735e-01 -5.291698755645883878e-01
-6.722384677070999959e-02 1.048087268678287928e-02 -9.384763097871616777e-01 9.723531673533041264e-01 1.430897133608500793e-01 -1.845390253261005864e-01
-6.491096619498294695e-02 4.061285899653831188e-02 -9.958393965739542608e-01 9.465675572239474755e-01 -1.608870395429405284e-02 3.221040409807985894e-01
-5.524167998158029114e-02 8.502063998630091102e-02 -9.318416336319791382e-01 8.716561826919175804e-01 -1.189891118292409899e-01 -4.754546144912707994e-01
5.175165551975020872e-02 -1.476858157683155065e-02 -7.512503828459545785e-01 8.022193283331102709e-01 1.293504775091674497e-01 -5.828486966760100252e-01
-5.915308925989261335e-02 -8.752145993185365958e-02 -9.519531627733885948e-01 8.912542367146280009e-01 1.625624376051549580e-01 -4.233666725405959008e-01
-7.100409977061537814e-02 3.938023516671090157e-02 -9.567981418100917068e-01 9.936690416328003428e-01 1.141471061574731057e-02 -1.117655585684197983e-01
-8.006496073418584158e-02 3.927830950657830444e-02 -1.058398469814586074e+00 7.385489632756296885e-01 -1.487155892639448473e-01 -6.575934172072969153e-01
-5.455043592291063115e-02 9.781465553938753499e-02 -9.337762481290684535e-01 8.716561826919175804e-01 -1.189891118292409899e-01 -4.754546144912707994e-01
-9.781181413287491633e-02 -1.498027000153320278e-02 -1.078649827870631794e+00 8.565676566276030357e-01 8.672054646172751291e-02 -5.086957798536133613e-01
-8.496352782852807650e-02 5.082515507634147167e-02 -1.068257717800260131e+00 8.595957438839351150e-01 -1.452868822950275085e-01 -4.898845567372123733e-01
-5.606677616340701581e-02 -1.490094603415902108e-02 -9.198493656808870433e-01 8.610061833769014905e-01 2.463133657637480919e-02 -5.079976864565455275e-01
1.094205302727218818e-02 -9.824949326954837692e-02 -8.127399301586367697e-01 7.237656270221686228e-01 3.872768097552364286e-01 -5.711216943585784023e-01
1.119920923530380863e-01 -3.435817292275009094e-02 -7.035091997740777758e-01 3.320311755628011507e-01 5.733424437070965274e-01 -7.490218559550574362e-01
-3.137330623591485373e-02 1.168573371435835534e-01 -8.959880604009036187e-01 8.684593129789162091e-01 -8.646580094759047028e-03 -4.956850394684649830e-01
9.207589239742471066e-02 3.831582124339218826e-02 -6.910206512983457783e-01 5.529801909146730976e-01 -8.781951260473191967e-02 -8.285533426773672439e-01
9.621291682894864486e-03 1.633519619310475346e-01 -7.641870068400682392e-01 5.457308703452653509e-01 1.950508758265246945e-01 -8.149435397568989270e-01
-9.775014855246727530e-02 4.714539043997281742e-02 -1.089602957362420854e+00 8.595957438839351150e-01 -1.452868822950275085e-01 -4.898845567372123733e-01
7.361374870151202177e-02 1.458257984688497537e-02 -7.166465139677795637e-01 7.751612615962508723e-01 1.025488919909239988e-01 -6.233849077993004473e-01
-9.682007798737825299e-02 1.359561095305303162e-02 -1.076515891220693799e+00 8.088487414631716499e-01 -2.138480764394813105e-01 -5.477524200189141101e-01
8.754095559399424284e-03 -1.013361985924862985e-01 -8.176057544237712582e-01 7.237656270221686228e-01 3.872768097552364286e-01 -5.711216943585784023e-01
-6.448877793179504103e-02 -9.944162611638729388e-02 -9.781601902789559544e-01 9.912179291189975316e-01 -3.790400168038697559e-02 -1.266897929971436965e-01
-7.710419026157246114e-02 -5.358296274058364783e-03 -1.031529312289694245e+00 8.607911584055190080e-01 -2.905933189828200924e-01 -4.178445938066371323e-01
1.468871495520735274e-02 2.155859896689111266e-01 -7.766001595275102698e-01 7.751968902654363669e-01 -5.223246456858342546e-01 -3.553121808100098145e-01
-6.527100869434150632e-02 1.037290301506043760e-01 -9.908140372884206570e-01 9.428335173767470323e-01 -4.006802619651277098e-02 3.308466590245501271e-01
-2.844093281500801804e-02 -1.137770079015175129e-01 -8.899763828298754564e-01 8.743979927173349820e-01 3.326619075328239306e-01 -3.532197695607063315e-01
-3.652542566019888887e-02 -9.508377803666107075e-02 -8.940086855720832393e-01 9.214372200576277372e-01 2.833874250714946696e-01 -2.657913031004193183e-01
-1.063709507999776038e-01 1.324840371126772588e-02 -1.091298424476314421e+00 8.331591514087199890e-01 -1.588193485242928027e-01 -5.297379002471136467e-01
-2.589512506940459206e-03 1.501734249141731536e-01 -7.820530630594513255e-01 9.711169618544294169e-01 -2.126927680241787744e-01 -1.081371019994319810e-01
-6.429266083879166260e-02 -1.238917208906636577e-02 -9.407648242397418370e-01 9.723531673533041264e-01 1.430897133608500793e-01 -1.845390253261005864e-01
1.005726372515048095e-01 -1.322349223291923725e-01 -7.560220711235491331e-01 4.860973894079763657e-01 -3.869039380276705076e-02 -8.730477543858279343e-01
-7.099022145049226074e-02 1.074498172159908151e-02 -9.794661454167512549e-01 9.465675572239474755e-01 -1.608870395429405284e-02 3.221040409807985894e-01
1.235065297999361419e-02 -1.911653989150354227e-01 -8.510467829577754717e-01 7.760252860071522596e-01 1.427697221695374830e-01 -6.143301733670180065e-01
-6.695547730017642474e-02 -6.651895172308625818e-04 -9.457047913445074672e-01 9.723531673533041264e-01 1.430897133608500793e-01 -1.845390253261005864e-01
-6.299055190042847363e-02 1.222449334131084503e-01 -9.932968148018537224e-01 9.495866216434714069e-01 -1.250236530918988620e-01 2.874966680907715122e-01
9.582708085387463270e-02 -5.407241011852562118e-02 -7.281911808149268417e-01 1.988196916558034044e-01 5.776442554634930726e-01 -7.917056551142716003e-01
-2.936465364609272197e-02 8.930191877181734017e-02 -8.599064059434221585e-01 9.722285217942081559e-01 -1.777817846628932663e-01 -1.522016374810922779e-01
-2.546418305886588226e-02 1.918453047734508254e-01 -1.016291468039761225e+00 7.580101749276794143e-01 -5.169199849752517117e-01 3.977616168502112748e-01
1.207806015440572034e-01 -4.750188421605767986e-02 -7.109165496230659409e-01 3.264688880145844019e-01 6.555487955563215063e-01 -6.809360041906853400e-01
-4.497100501133156902e-02 1.291833291857689414e-01 -9.200267641447369416e-01 8.684593129789162091e-01 -8.646580094759047028e-03 -4.956850394684649830e-01
9.016363485334298253e-03 1.721445181734332364e-01 -7.624876648163333437e-01 5.457308703452653509e-01 1.950508758265246945e-01 -8.149435397568989270e-01
-1.417647652659391640e-02 4.114032712076114151e-02 -8.057642283726016430e-01 6.229336082167989952e-01 2.503587006758750677e-01 -7.411303803986766248e-01
-5.599333109076568005e-02 -4.215818848354563331e-02 -9.210465082416612326e-01 8.610061833769014905e-01 2.463133657637480919e-02 -5.079976864565455275e-01
-6.533046349305537959e-02 -6.176676236335650050e-02 -9.766609897034729260e-01 9.789964940834113838e-01 9.775800574766098372e-02 -1.789112542145673834e-01
3.291481664033083041e-03 6.026492690753134512e-02 -7.811487288213921909e-01 6.652348846558590045e-01 1.137208556723374037e-01 -7.379228382575357958e-01
1.309160725405878190e-01 -1.748531954602089156e-01 -7.474375482945839755e-01 2.878322943046175975e-01 3.196218606709440024e-01 -9.027704229407294001e-01
1.167449538433822653e-01 -1.435666644408079354e-02 -6.860920701048836001e-01 3.320311755628011507e-01 5.733424437070965274e-01 -7.490218559550574362e-01
1.054379037491931098e-01 -2.431536896653526889e-02 -6.987272687977572616e-01 3.320311755628011507e-01 5.733424437070965274e-01 -7.490218559550574362e-01
-7.133012514101383372e-02 -1.191738593906134930e-01 -1.000269522363109509e+00 9.396192721135941950e-01 -1.720498563477155518e-01 -2.958284475898992349e-01
-6.746441358674599986e-02 -9.431786028371053066e-02 -1.002447047899099664e+00 9.396192721135941950e-01 -1.720498563477155518e-01 -2.958284475898992349e-01
-3.428665149193937250e-02 2.060471344693599882e-01 -9.681955720101469431e-01 8.622371045685376378e-01 -5.050484339245004950e-01 -3.838300269226099098e-02
4.612972988073926750e-02 7.777585410336031700e-03 -7.539846429607375278e-01 8.022193283331102709e-01 1.293504775091674497e-01 -5.828486966760100252e-01
4.265312788286430151e-02 -7.333127794125861298e-02 -7.636243399818664068e-01 5.732351740768463211e-01 3.384241862983128901e-01 -7.462375662812829047e-01
-7.552235598414104578e-02 4.385314547688000386e-02 -1.054331235362991670e+00 7.385489632756296885e-01 -1.487155892639448473e-01 -6.575934172072969153e-01
1.030150709592026065e-01 3.909207944229735332e-02 -6.838020714860532090e-01 5.529801909146730976e-01 -8.781951260473191967e-02 -8.285533426773672439e-01
-6.665960643173655942e-02 -3.672659553281507061e-02 -9.666574571586187270e-01 9.795417165478728094e-01 1.225536702515966081e-01 -1.596202476201231124e-01
1.156721943322048737e-02 -1.490814254314288545e-01 -8.308825430656335831e-01 7.597761649234019421e-01 3.168340092643953665e-01 -5.677643787591263314e-01
-4.207035296105589295e-02 -4.371132607431970490e-02 -8.984166478835510228e-01 8.460034899678899878e-01 2.825826626301600197e-02 -5.324279907649094312e-01
-4.330971303200824990e-02 -7.342742112095632101e-02 -8.944381792080663418e-01 9.214372200576277372e-01 2.833874250714946696e-01 -2.657913031004193183e-01
4.090839835135638008e-02 1.105239906663917776e-01 -7.397157904633078207e-01 6.882542768948922696e-01 4.995207784821970726e-02 -7.237477739202616833e-01
-2.016504039425173062e-02 8.651560948553585484e-02 -8.011819942782389958e-01 9.455209462427462963e-01 -1.779771061650706199e-01 -2.726064744229836356e-01
1.035104521505059855e-01 -1.295383472209166997e-01 -7.545058509701146887e-01 4.860973894079763657e-01 -3.869039380276705076e-02 -8.730477543858279343e-01
1.510709293645103209e-02 -6.695461873809288589e-02 -7.911821953475995928e-01 8.520486573141097253e-01 -1.455713093631789412e-01 -5.028141599632137693e-01
-5.422058746004976282e-02 1.010797139985044474e-01 -9.339886594739974512e-01 8.716561826919175804e-01 -1.189891118292409899e-01 -4.754546144912707994e-01
-6.644078043795748068e-02 5.581375848560384684e-02 -9.905844631135005685e-01 9.465675572239474755e-01 -1.608870395429405284e-02 3.221040409807985894e-01
1.174433948340070921e-01 -1.482481295949015510e-01 -7.465865303578244072e-01 4.143044034017203114e-01 -1.149261972200996997e-02 -9.100658113641395541e-01
1.668866021561903404e-02 -1.224640905898524701e-01 -8.141974270233222066e-01 7.687273211562055675e-01 1.633277011097511722e-01 -6.183707364989126098e-01
-4.609633145078699534e-02 -4.369162086928637945e-02 -9.048126959444824369e-01 8.460034899678899878e-01 2.825826626301600197e-02 -5.324279907649094312e-01
-6.953779421495896729e-02 -1.169098248363392295e-01 -9.958933987318490111e-01 9.396192721135941950e-01 -1.720498563477155518e-01 -2.958284475898992349e-01
3.573169837373414703e-02 2.333220335262211342e-01 -7.567627239849328280e-01 7.751968902654363669e-01 -5.223246456858342546e-01 -3.553121808100098145e-01
-4.158637039815141212e-02 -1.269377737604404817e-02 -8.887067559982393394e-01 9.773285503396109686e-01 6.975273186831637551e-02 -1.999086318496063053e-01
-2.911630643797662871e-02 5.366814632958871040e-02 -8.247851933940202329e-01 9.748548423851500777e-01 -1.632826446211594132e-02 -2.222418143776715704e-01
9.751835185517887875e-03 1.876625638954247943e-01 -7.582810199961674824e-01 5.457308703452653509e-01 1.950508758265246945e-01 -8.149435397568989270e-01
1.349027740868915907e-02 1.942373479681824278e-01 -7.542039268506233185e-01 5.457308703452653509e-01 1.950508758265246945e-01 -8.149435397568989270e-01
-3.733874928727426434e-02 -1.440245863323089603e-03 -8.640140456175404715e-01 9.773285503396109686e-01 6.975273186831637551e-02 -1.999086318496063053e-01
-7.099381981151638155e-02 5.830707882223930272e-02 -9.547737317574654936e-01 9.936690416328003428e-01 1.141471061574731057e-02 -1.117655585684197983e-01
-8.436242415544878068e-03 4.238969345853262766e-02 -7.998480257040737618e-01 6.861930611956386095e-01 2.800282020457337540e-01 -6.713592844565360318e-01
1.337504776495953840e-01 4.036244050720048243e-02 -6.634237715019127846e-01 5.529801909146730976e-01 -8.781951260473191967e-02 -8.285533426773672439e-01
-2.926422813553912136e-02 9.165329086656244517e-02 -8.620114725316456727e-01 9.722285217942081559e-01 -1.777817846628932663e-01 -1.522016374810922779e-01
-3.035081899656850556e-03 -1.745322762437632735e-01 -8.647479335726209193e-01 7.633718644259690489e-01 2.566607580030460523e-01 -5.927804415667924376e-01
9.172668149086150857e-02 -1.636103543669692739e-01 -7.613446866755096964e-01 5.274201711607601206e-01 4.076463130116477207e-01 -7.454209861150705718e-01
-5.570133410429250337e-02 1.060360269648438769e-01 -9.379437146737015230e-01 8.716561826919175804e-01 -1.189891118292409899e-01 -4.754546144912707994e-01
-4.258105240630485205e-02 -6.558588675234879040e-02 -8.835514149652584637e-01 9.214372200576277372e-01 2.833874250714946696e-01 -2.657913031004193183e-01
-8.094917394492716356e-02 -1.162509180580454382e-01 -1.032521779878133650e+00 9.396192721135941950e-01 -1.720498563477155518e-01 -2.958284475898992349e-01
7.689551542861738920e-02 1.621221323112298496e-02 -7.122976510093816938e-01 7.751612615962508723e-01 1.025488919909239988e-01 -6.233849077993004473e-01
-9.377111951806317569e-02 -3.490859781404925810e-02 -1.075243208614057977e+00 8.565676566276030357e-01 8.672054646172751291e-02 -5.086957798536133613e-01
-5.362209180918316165e-02 1.672050125643836926e-01 -9.378371837495210750e-01 9.654449776352438395e-01 -2.408281957030751763e-01 -9.958802796162365134e-02
-6.479205603347008846e-02 -7.426895493538886173e-02 -9.805461024709409834e-01 9.789964940834113838e-01 9.775800574766098372e-02 -1.789112542145673834e-01
-2.970449098566246837e-02 5.676529442389548208e-02 -8.275927910976165203e-01 9.748548423851500777e-01 -1.632826446211594132e-02 -2.222418143776715704e-01
2.879487102637328169e-02 -1.099744667537927989e-01 -7.957967884723966545e-01 7.638457484884676463e-01 1.772145098981477152e-01 -6.205922091016384812e-01
-5.534300779474739251e-02 1.421617843493398203e-01 -1.009895017976653930e+00 9.495866216434714069e-01 -1.250236530918988620e-01 2.874966680907715122e-01
-1.385289935763184613e-02 7.697621836732672362e-02 -7.941069467591196362e-01 6.882542768948922696e-01 4.995207784821970726e-02 -7.237477739202616833e-01
-6.677687894168118921e-02 1.274912270960069927e-01 -9.693271523153335067e-01 9.654449776352438395e-01 -2.408281957030751763e-01 -9.958802796162365134e-02
-5.059221319905406189e-02 3.658924699373130619e-04 -9.098302743800038561e-01 8.610061833769014905e-01 2.463133657637480919e-02 -5.079976864565455275e-01
6.710030139274407446e-02 -3.302994746594824921e-02 -7.333053464902447027e-01 7.684796067825473420e-01 -2.180390810625816300e-01 -6.015796315440924413e-01
1.380240018093519261e-01 -1.151174169652652568e-01 -7.376356640452181868e-01 4.143044034017203114e-01 -1.149261972200996997e-02 -9.100658113641395541e-01
6.911445568221323554e-02 -2.451515191766180310e-02 -7.295156677665590728e-01 8.022193283331102709e-01 1.293504775091674497e-01 -5.828486966760100252e-01
-6.477934506609329957e-02 1.328565435539711126e-01 -9.827738534608023713e-01 9.495866216434714069e-01 -1.250236530918988620e-01 2.874966680907715122e-01
6.206200163988952884e-02 1.458719556411921039e-02 -7.310100209715818531e-01 7.751612615962508723e-01 1.025488919909239988e-01 -6.233849077993004473e-01
3.398308325015918230e-02 1.308085587188731989e-02 -7.687163405946848549e-01 6.861930611956386095e-01 2.800282020457337540e-01 -6.713592844565360318e-01
-3.286057856066441213e-02 1.995932787717224349e-02 -8.387326826020855552e-01 9.748548423851500777e-01 -1.632826446211594132e-02 -2.222418143776715704e-01
1.131607659523418130e-01 -6.965914227611727516e-02 -7.352105930546218859e-01 1.988196916558034044e-01 5.776442554634930726e-01 -7.917056551142716003e-01
-7.706394653023129586e-03 -8.280003863420803967e-02 -8.298450852310815806e-01 8.367768266443055269e-01 1.406548441613150735e-01 -5.291698755645883878e-01
4.879748622280403320e-02 -7.883880964019344961e-02 -7.614021516817981450e-01 5.732351740768463211e-01 3.384241862983128901e-01 -7.462375662812829047e-01
-3.682572094401014018e-02 -3.553803459876563736e-02 -8.713541611732252834e-01 9.956801930482080953e-01 -7.763492015027112503e-02 -5.092909134025652013e-02
1.169001232203714102e-01 -1.094474245438002286e-01 -7.479410801278983945e-01 4.860973894079763657e-01 -3.869039380276705076e-02 -8.730477543858279343e-01
1.478713150557849770e-02 -7.490994040006467014e-02 -7.921788406148128070e-01 8.367768266443055269e-01 1.406548441613150735e-01 -5.291698755645883878e-01
-1.087384889720354603e-02 1.349056425887568689e-01 -8.005748539372844474e-01 9.391617387727724253e-01 -1.931393309396769176e-01 -2.840289197766255880e-01
3.488044555590125162e-02 3.610692227323212752e-03 -7.703926455740953694e-01 8.022193283331102709e-01 1.293504775091674497e-01 -5.828486966760100252e-01
-5.543647830196029441e-02 1.440068670982858623e-01 -1.008783918739159846e+00 9.495866216434714069e-01 -1.250236530918988620e-01 2.874966680907715122e-01
1.277767810972066653e-01 2.178522473892349418e-02 -6.640615462043435446e-01 6.443087454749379939e-01 -1.983328637754566692e-01 -7.386002407602760833e-01
-5.225785331094898178e-03 -1.659466378889130345e-01 -8.662883978180243583e-01 8.890016888980788456e-01 1.185405003085390208e-01 -4.422941859475034154e-01
-6.555477532399171803e-02 5.999294501753254898e-03 -9.349172002203772758e-01 8.610061833769014905e-01 2.463133657637480919e-02 -5.079976864565455275e-01
-1.094324203410462076e-01 3.467788891506792121e-02 -1.107784274430899440e+00 8.914707202243126183e-01 -2.353819932620669908e-01 -3.871372782757057651e-01
-6.835737402460163870e-02 -1.746913151557856828e-02 -9.645295687383473870e-01 9.668002244471390894e-01 9.104876680979061276e-02 -2.387623254857805244e-01
6.291976066614884955e-03 -4.706840924058588310e-02 -8.118772570153034440e-01 8.520486573141097253e-01 -1.455713093631789412e-01 -5.028141599632137693e-01
8.877699442148741238e-02 -8.163438828453097040e-02 -7.500714266557083620e-01 1.988196916558034044e-01 5.776442554634930726e-01 -7.917056551142716003e-01
-7.313062855447330368e-02 -2.079383113826881180e-02 -1.012608713080089151e+00 8.607911584055190080e-01 -2.905933189828200924e-01 -4.178445938066371323e-01
-6.640731840969542332e-02 3.317490471694646559e-02 -1.036291173718099756e+00 8.607911584055190080e-01 -2.905933189828200924e-01 -4.178445938066371323e-01
-2.845914149550996322e-02 1.967530959962685289e-01 -1.006499447562117622e+00 7.326232363886948651e-01 -3.507489164914062707e-01 5.832995723326556137e-01
7.342764857450982674e-02 -1.954732295338159898e-01 -7.948064277262940625e-01 5.954467288467979458e-01 4.807185646763820208e-01 -6.437024581909926990e-01
-5.640214260063440566e-02 1.469420876212824967e-01 -1.004317940402918330e+00 9.495866216434714069e-01 -1.250236530918988620e-01 2.874966680907715122e-01
2.719443627640613648e-02 -1.931042679995678413e-01 -8.327466247287113044e-01 7.760252860071522596e-01 1.427697221695374830e-01 -6.143301733670180065e-01
-2.341058569190094737e-02 1.232116108240152441e-01 -8.509622280736818256e-01 9.847814446197321603e-01 -1.225228400952713403e-01 -1.232625652323610377e-01
-3.564904150052530807e-02 -2.595886653028409846e-02 -8.629519208017382148e-01 9.956801930482080953e-01 -7.763492015027112503e-02 -5.092909134025652013e-02
-6.752466737538248553e-02 5.773354676451366435e-02 -9.873033521012898328e-01 9.465675572239474755e-01 -1.608870395429405284e-02 3.221040409807985894e-01
-6.347042850792737612e-02 -3.035831840985401403e-02 -9.496563870366200311e-01 9.668002244471390894e-01 9.104876680979061276e-02 -2.387623254857805244e-01
5.472884445797036174e-02 -4.122608785749701937e-02 -7.461384496016539858e-01 7.684796067825473420e-01 -2.180390810625816300e-01 -6.015796315440924413e-01
-2.505992749129628758e-02 8.298140030033129833e-02 -8.241505318796084056e-01 9.847814446197321603e-01 -1.225228400952713403e-01 -1.232625652323610377e-01
-4.021424370810305210e-02 2.411829462480466826e-02 -8.712948033149146010e-01 9.748548423851500777e-01 -1.632826446211594132e-02 -2.222418143776715704e-01
-2.951927757282479803e-03 1.435777610889165390e-01 -7.773395366268001094e-01 5.457308703452653509e-01 1.950508758265246945e-01 -8.149435397568989270e-01
-6.180304775069935495e-03 1.782548105945231665e-01 -8.145327010811365120e-01 9.391617387727724253e-01 -1.931393309396769176e-01 -2.840289197766255880e-01
-5.730523067390090597e-02 5.262646892896973017e-02 -1.018797096013077219e+00 9.759043402260273448e-01 -1.673780655480543444e-01 1.399832200708128749e-01
1.839657464399624756e-02 1.758440627240924758e-01 -7.553207018066668832e-01 5.457308703452653509e-01 1.950508758265246945e-01 -8.149435397568989270e-01
1.060573765637140842e-01 -1.298143226877004897e-02 -6.897770476571407627e-01 3.320311755628011507e-01 5.733424437070965274e-01 -7.490218559550574362e-01
5.281245407168390360e-02 -4.576443380587148085e-02 -7.469416186669486368e-01 7.684796067825473420e-01 -2.180390810625816300e-01 -6.015796315440924413e-01
-5.663844288708137775e-02 1.056209031854503932e-01 -1.015185656423091443e+00 9.428335173767470323e-01 -4.006802619651277098e-02 3.308466590245501271e-01
-3.872946202270439314e-02 -4.019482243009686595e-02 -8.843354335036092140e-01 9.773285503396109686e-01 6.975273186831637551e-02 -1.999086318496063053e-01
-1.553098242700582223e-03 1.218861198577683436e-01 -7.792995130504517531e-01 6.892873704784705513e-01 6.289947733941653185e-02 -7.217524344602543884e-01
1.461480565732960202e-02 2.139804161528865989e-01 -7.744011458088635447e-01 7.751968902654363669e-01 -5.223246456858342546e-01 -3.553121808100098145e-01
-8.006159461347138462e-02 -6.268152893814579567e-03 -1.036989019790581112e+00 8.607911584055190080e-01 -2.905933189828200924e-01 -4.178445938066371323e-01
-2.643701224338125891e-02 8.608593344010166681e-02 -8.374488283404976086e-01 9.722285217942081559e-01 -1.777817846628932663e-01 -1.522016374810922779e-01
-6.092714795804057837e-02 -2.445424192282623366e-02 -9.323867604538124132e-01 9.723531673533041264e-01 1.430897133608500793e-01 -1.845390253261005864e-01
-8.324038318608414921e-02 -2.311203345222820685e-02 -1.042303529387992311e+00 9.672397643024014391e-01 4.237728526899961663e-03 -2.538292339530012209e-01
-5.107565377713149495e-03 1.382626672656190603e-01 -7.812392058517471094e-01 9.711169618544294169e-01 -2.126927680241787744e-01 -1.081371019994319810e-01
-5.465191182943961862e-02 1.161777101821398345e-01 -1.019568283859725311e+00 9.428335173767470323e-01 -4.006802619651277098e-02 3.308466590245501271e-01
-8.481389779203034329e-02 -3.467545876601765831e-02 -1.048492605915692710e+00 9.672397643024014391e-01 4.237728526899961663e-03 -2.538292339530012209e-01
6.364589065074059693e-02 2.713701797667300922e-02 -7.269760128403173205e-01 7.751612615962508723e-01 1.025488919909239988e-01 -6.233849077993004473e-01
-5.999599688354102095e-02 1.179565317797348911e-01 -1.004123496252814274e+00 9.428335173767470323e-01 -4.006802619651277098e-02 3.308466590245501271e-01
-1.503127004816687956e-02 -6.877586980797825711e-02 -8.417261772705151301e-01 8.520486573141097253e-01 -1.455713093631789412e-01 -5.028141599632137693e-01
1.474749287787892604e-01 2.675027642811809644e-02 -6.558913661264567097e-01 1.942893094739148729e-01 4.590726016091949413e-01 -8.668933098576286911e-01
9.261820770049986051e-02 -1.813402527877083087e-02 -6.996785254912761820e-01 3.320311755628011507e-01 5.733424437070965274e-01 -7.490218559550574362e-01
3.820830215963224447e-02 2.340390174703699255e-01 -7.545607044368166649e-01 5.095669100729226519e-01 -3.310290203044923829e-01 -7.942048551066541728e-01
-5.723510911991424449e-02 7.063997985660350198e-02 -9.318972495751841612e-01 8.716561826919175804e-01 -1.189891118292409899e-01 -4.754546144912707994e-01
-9.464073581231852508e-03 -6.319162737379048142e-03 -8.178381911157091011e-01 6.241361790954890187e-01 2.544434400500513727e-01 -7.387236057955500756e-01
4.589770002429605089e-02 -1.162000434094605655e-01 -7.796543740099950437e-01 3.473409469922692505e-01 1.804113889155743167e-01 -9.202206242483738086e-01
-7.068290787455862312e-02 -1.999522997097732263e-02 -9.785012011181337677e-01 9.795417165478728094e-01 1.225536702515966081e-01 -1.596202476201231124e-01
-5.481920414710945988e-02 1.714281347833759017e-01 -9.739183440693552907e-01 8.622371045685376378e-01 -5.050484339245004950e-01 -3.838300269226099098e-02
-1.147816015034369870e-02 -3.686730005484491202e-02 -8.300617580505519344e-01 6.241361790954890187e-01 2.544434400500513727e-01 -7.387236057955500756e-01
1.028235586160637094e-01 -3.153784502388202321e-02 -7.054146519767543477e-01 3.320311755628011507e-01 5.733424437070965274e-01 -7.490218559550574362e-01
-3.792368855699448211e-04 2.265649630138226109e-02 -7.998438408090138285e-01 6.861930611956386095e-01 2.800282020457337540e-01 -6.713592844565360318e-01
-6.253906064422411898e-03 6.841648181479041690e-02 -7.884976314766157790e-01 6.652348846558590045e-01 1.137208556723374037e-01 -7.379228382575357958e-01
-3.347957640933837270e-02 7.402221269137432280e-02 -8.683438438091058975e-01 9.722285217942081559e-01 -1.777817846628932663e-01 -1.522016374810922779e-01
1.268021840230213193e-01 -2.284405264906949617e-02 -6.881305483894137875e-01 3.320311755628011507e-01 5.733424437070965274e-01 -7.490218559550574362e-01
-7.388313984740527141e-02 4.404423526192088878e-02 -1.052533432469211272e+00 7.385489632756296885e-01 -1.487155892639448473e-01 -6.575934172072969153e-01
1.296128259552381257e-01 -4.235451470976715066e-02 -7.018190077706446539e-01 3.320311755628011507e-01 5.733424437070965274e-01 -7.490218559550574362e-01
-2.456763567121238862e-02 -1.311125129710443149e-01 -8.947043520951598605e-01 8.990266955443391161e-01 2.866091148960157597e-01 -3.310682950044422368e-01
-4.451589924562499023e-02 2.944686745609181866e-02 -8.905553375640944402e-01 9.748548423851500777e-01 -1.632826446211594132e-02 -2.222418143776715704e-01
-3.037778420650519284e-02 2.607600976568102275e-02 -8.282914013076972948e-01 9.748548423851500777e-01 -1.632826446211594132e-02 -2.222418143776715704e-01
-8.324790616342383695e-03 -1.383622483626045785e-01 -8.568725474158715993e-01 8.990266955443391161e-01 2.866091148960157597e-01 -3.310682950044422368e-01
1.580283502292074149e-01 2.519879728268219904e-02 -6.538088902993351992e-01 2.606441544707778224e-01 5.661894260336446383e-01 -7.819809195804621194e-01
2.009183927603412981e-02 -2.089756769867310848e-01 -8.454071643820304516e-01 7.760252860071522596e-01 1.427697221695374830e-01 -6.143301733670180065e-01
-2.401055449689300583e-02 1.224750392165857016e-01 -8.550234067477369138e-01 9.847814446197321603e-01 -1.225228400952713403e-01 -1.232625652323610377e-01
3.236406211124796123e-02 1.646591311036651323e-02 -7.689592054554408307e-01 6.861930611956386095e-01 2.800282020457337540e-01 -6.713592844565360318e-01
-2.067656029582157565e-02 1.340382713289522965e-01 -8.398809700876008755e-01 9.847814446197321603e-01 -1.225228400952713403e-01 -1.232625652323610377e-01
1.974514195934128774e-02 1.079354788718392272e-01 -7.600198297944451564e-01 6.882542768948922696e-01 4.995207784821970726e-02 -7.237477739202616833e-01
1.050422446423625866e-01 -1.956305736183944211e-01 -7.712504136708784319e-01 3.727507786754763464e-01 4.838365066249854518e-01 -7.918074840854664176e-01
1.276620078033469663e-01 1.057948064741275757e-02 -6.688952824053476798e-01 1.942893094739148729e-01 4.590726016091949413e-01 -8.668933098576286911e-01
-6.312144880908986122e-02 1.427138732548007549e-01 -9.707020740649093815e-01 9.654449776352438395e-01 -2.408281957030751763e-01 -9.958802796162365134e-02
6.637183444906682994e-02 -4.436283641727970656e-02 -7.322670092928653673e-01 5.732351740768463211e-01 3.384241862983128901e-01 -7.462375662812829047e-01
8.913643773957811989e-02 -8.623208321063884074e-02 -7.533357302969352354e-01 1.988196916558034044e-01 5.776442554634930726e-01 -7.917056551142716003e-01
-3.714320971508202132e-03 1.671876983186932342e-01 -7.988531276749178955e-01 9.391617387727724253e-01 -1.931393309396769176e-01 -2.840289197766255880e-01
-6.748459837852767429e-02 -7.763308341022516490e-02 -9.971177822111413347e-01 9.789964940834113838e-01 9.775800574766098372e-02 -1.789112542145673834e-01
-4.612216977837704790e-02 6.393003240269273801e-02 -9.098445180350525074e-01 8.716561826919175804e-01 -1.189891118292409899e-01 -4.754546144912707994e-01
-4.799392945817398948e-02 6.133032560518569126e-02 -9.126254229926610284e-01 8.716561826919175804e-01 -1.189891118292409899e-01 -4.754546144912707994e-01
-1.011684704586697688e-02 -1.550422722418253740e-01 -8.731968159312725186e-01 8.890016888980788456e-01 1.185405003085390208e-01 -4.422941859475034154e-01
3.701931587051360273e-02 -1.569620507206553883e-01 -8.012205094042440523e-01 7.597761649234019421e-01 3.168340092643953665e-01 -5.677643787591263314e-01
-2.405385855899078509e-03 1.695709464599777228e-01 -7.961456469428499494e-01 9.391617387727724253e-01 -1.931393309396769176e-01 -2.840289197766255880e-01
7.689333089402590471e-02 -7.200652347266745835e-03 -7.161518617224196248e-01 7.751612615962508723e-01 1.025488919909239988e-01 -6.233849077993004473e-01
-6.323222630743786932e-02 -6.407611196309598300e-02 -9.664413450810195316e-01 9.789964940834113838e-01 9.775800574766098372e-02 -1.789112542145673834e-01
-4.712458639515054726e-02 7.452761948762520738e-02 -9.143344526183921905e-01 8.716561826919175804e-01 -1.189891118292409899e-01 -4.754546144912707994e-01
1.322871222793314538e-01 -8.309500849924295052e-03 -6.782813052541791787e-01 1.868306552101403895e-01 4.743700223543473316e-01 -8.602716943880492906e-01
1.248942229160453499e-01 -1.519328669250533947e-01 -7.445324457527944251e-01 2.625125942042592642e-01 1.462894227808302916e-01 -9.537748909814103282e-01
-4.749517657527203840e-02 -2.913434763601807295e-02 -9.062627785238008826e-01 8.460034899678899878e-01 2.825826626301600197e-02 -5.324279907649094312e-01
-3.502780619031013037e-02 2.045576265488731338e-01 -9.652457621084231665e-01 8.622371045685376378e-01 -5.050484339245004950e-01 -3.838300269226099098e-02
-6.737304807240854232e-02 1.243418931690096485e-01 -9.674907878650420567e-01 9.654449776352438395e-01 -2.408281957030751763e-01 -9.958802796162365134e-02
6.466541139631638846e-02 2.055341921239337705e-02 -7.267912919281911410e-01 7.751612615962508723e-01 1.025488919909239988e-01 -6.233849077993004473e-01
-7.120257007524903592e-02 2.048071580533170066e-02 -9.604928966788908173e-01 9.936690416328003428e-01 1.141471061574731057e-02 -1.117655585684197983e-01
3.186592177724014568e-02 -9.924368660249925644e-02 -7.868978913968968092e-01 7.237656270221686228e-01 3.872768097552364286e-01 -5.711216943585784023e-01
9.592594012125250924e-02 -1.818251967475816855e-01 -7.683346154942718442e-01 5.274201711607601206e-01 4.076463130116477207e-01 -7.454209861150705718e-01
-2.700527279915392737e-02 1.076049361694688539e-01 -8.641682412395609303e-01 9.847814446197321603e-01 -1.225228400952713403e-01 -1.232625652323610377e-01
-6.375518066802317307e-02 -4.055814193183753663e-02 -9.546989740661985246e-01 9.668002244471390894e-01 9.104876680979061276e-02 -2.387623254857805244e-01
4.293828476777446224e-02 -4.935013292197910212e-02 -7.582556240734478203e-01 7.684796067825473420e-01 -2.180390810625816300e-01 -6.015796315440924413e-01
1.272574005807095288e-01 -2.771191364996205414e-02 -6.916548851121753216e-01 3.320311755628011507e-01 5.733424437070965274e-01 -7.490218559550574362e-01
2.589025908685441135e-02 -8.123896606171805701e-02 -7.822616965127888733e-01 7.237656270221686228e-01 3.872768097552364286e-01 -5.711216943585784023e-01
-7.179135588679018409e-02 -9.266558722036764839e-03 -9.918114528247884421e-01 9.759043402260273448e-01 -1.673780655480543444e-01 1.399832200708128749e-01
1.169919061025410240e-01 -1.150167322703180483e-03 -6.776552728635137912e-01 1.868306552101403895e-01 4.743700223543473316e-01 -8.602716943880492906e-01
-5.239737078867350017e-02 1.292995009454089572e-01 -9.330400699654289864e-01 8.684593129789162091e-01 -8.646580094759047028e-03 -4.956850394684649830e-01
9.615428526737553050e-02 4.502306343811737777e-02 -6.890096235931124635e-01 5.529801909146730976e-01 -8.781951260473191967e-02 -8.285533426773672439e-01
-4.573448052656862300e-02 5.916399874378476878e-03 -9.016048183848545117e-01 8.460034899678899878e-01 2.825826626301600197e-02 -5.324279907649094312e-01
7.123878390278740036e-02 -1.498269124579844347e-01 -7.715750216236999526e-01 4.860973894079763657e-01 -3.869039380276705076e-02 -8.730477543858279343e-01
-8.834767640137960315e-03 1.063103449854931742e-01 -7.873103093527168417e-01 6.882542768948922696e-01 4.995207784821970726e-02 -7.237477739202616833e-01
-7.132092620391082549e-02 -1.969798790079644452e-02 -1.007563960911257217e+00 9.759043402260273448e-01 -1.673780655480543444e-01 1.399832200708128749e-01
3.723202440538417313e-02 1.565706433131481765e-02 -7.643210607970345460e-01 6.861930611956386095e-01 2.800282020457337540e-01 -6.713592844565360318e-01
-3.128095027259851502e-02 1.830833036423467342e-01 -1.016593369366488808e+00 7.580101749276794143e-01 -5.169199849752517117e-01 3.977616168502112748e-01
4.673136211963051755e-03 -1.809782898916285909e-01 -8.576124112346532602e-01 7.633718644259690489e-01 2.566607580030460523e-01 -5.927804415667924376e-01
-6.670851820265812082e-02 1.134904570101317733e-01 -9.578379841805969575e-01 8.684593129789162091e-01 -8.646580094759047028e-03 -4.956850394684649830e-01
-3.061872807333180374e-02 2.217584352504312420e-02 -8.290617439633984898e-01 9.748548423851500777e-01 -1.632826446211594132e-02 -2.222418143776715704e-01
-8.141031631247496944e-03 -1.055261461706696741e-01 -8.399884893306777123e-01 7.638457484884676463e-01 1.772145098981477152e-01 -6.205922091016384812e-01
-5.870284766230949441e-02 1.642776452379941798e-01 -9.800129122541123561e-01 9.654449776352438395e-01 -2.408281957030751763e-01 -9.958802796162365134e-02
-6.184685349876519606e-02 9.623220534522461400e-02 -1.001479979239249918e+00 9.428335173767470323e-01 -4.006802619651277098e-02 3.308466590245501271e-01
1.035388760773051434e-02 -3.412345451946240810e-02 -8.087418396148654542e-01 8.520486573141097253e-01 -1.455713093631789412e-01 -5.028141599632137693e-01
1.225132401628876468e-02 -1.684856237260086986e-01 -8.413188097796781006e-01 7.821495679327722383e-01 3.405435505629333948e-01 -5.217970329089350878e-01
6.438625597912808751e-02 -1.386917824695993971e-02 -7.336608111390275910e-01 8.022193283331102709e-01 1.293504775091674497e-01 -5.828486966760100252e-01
-3.668846198839578049e-02 -1.140137015917511848e-01 -9.139780708295430767e-01 9.124012821824435404e-01 2.759404030054994350e-01 -3.022925640186929774e-01
-5.269043728998046988e-02 -9.568915946275995121e-02 -9.414844483216134874e-01 8.912542367146280009e-01 1.625624376051549580e-01 -4.233666725405959008e-01
-5.787440647356176943e-02 1.125823264339728125e-01 -1.010820376178352742e+00 9.428335173767470323e-01 -4.006802619651277098e-02 3.308466590245501271e-01
3.005007937537881174e-02 7.083963398791089106e-02 -7.553962836950192106e-01 6.652348846558590045e-01 1.137208556723374037e-01 -7.379228382575357958e-01
1.353328100856789895e-01 1.590297784797163952e-02 -6.643569770068308289e-01 1.942893094739148729e-01 4.590726016091949413e-01 -8.668933098576286911e-01
-3.850971176609285784e-02 6.871776866957251227e-03 -8.668384797798536212e-01 9.773285503396109686e-01 6.975273186831637551e-02 -1.999086318496063053e-01
-6.848740294723704158e-02 -7.209424346665353756e-02 -9.995786459053292994e-01 9.789964940834113838e-01 9.775800574766098372e-02 -1.789112542145673834e-01
-2.269688379091564998e-02 -8.371567794713304089e-02 -8.537929394470804567e-01 8.367768266443055269e-01 1.406548441613150735e-01 -5.291698755645883878e-01
7.053055939431034094e-02 3.051215728328699264e-02 -7.178599029793841790e-01 7.751612615962508723e-01 1.025488919909239988e-01 -6.233849077993004473e-01
-1.240080981734076587e-03 1.076993141334514764e-01 -7.799922108933020626e-01 6.882542768948922696e-01 4.995207784821970726e-02 -7.237477739202616833e-01
9.953113633158570950e-02 4.878599567389422381e-02 -6.871547365362326021e-01 5.529801909146730976e-01 -8.781951260473191967e-02 -8.285533426773672439e-01
-8.795587100324653643e-03 6.814347088551953036e-02 -7.908310216875772403e-01 6.652348846558590045e-01 1.137208556723374037e-01 -7.379228382575357958e-01
1.188980100639371595e-01 -4.301809933840154698e-02 -7.075025250823256950e-01 3.264688880145844019e-01 6.555487955563215063e-01 -6.809360041906853400e-01
-6.278953841136329650e-02 8.568415138384256891e-02 -9.998223830369759035e-01 9.465675572239474755e-01 -1.608870395429405284e-02 3.221040409807985894e-01
