-1.061235843060928941e-01 -1.212397445696307280e-01 -8.221822052576194251e-01 8.734547983308502683e-01 -4.868829734953007971e-01 -4.656757797876240855e-03
-5.298352994235466101e-02 -3.456637075047333616e-03 -8.813796526453512303e-01 8.985535219165974308e-01 -2.580867055469423521e-01 3.549546741081242018e-01
1.471690300997064715e-01 -2.433065456173253219e-02 -1.100207218388244979e+00 7.284438440385319069e-01 -4.585157546088639569e-01 5.090509491768292483e-01
-8.536052590181598954e-02 -5.107667636075031992e-02 -8.985178241097465657e-01 7.630436590408000708e-01 -4.090304846457569754e-01 5.004582270560495871e-01
1.034897152231369355e-01 7.732291318623779608e-02 -1.002210179505614418e+00 6.173098683576109247e-01 -6.354545586860430584e-01 4.638168068035432023e-01
2.032305877882819578e-01 1.273126141321351268e-01 -9.637253831303328466e-01 -3.321109423474282729e-01 -6.866071431283556903e-01 6.467402515525229045e-01
-1.072984721099701222e-01 -3.750827320289772115e-02 -8.174999546295654840e-01 9.533472196048294878e-01 -1.755928420769977127e-01 2.455529121860771102e-01
5.498959182865109652e-02 1.274643877955589366e-01 -8.976194450454559881e-01 3.490548184271176080e-01 -5.946874721919774842e-01 7.242289307606593063e-01
-6.435223452095344132e-02 -2.705873766579384651e-02 -8.944886124179871612e-01 6.224930064397760088e-01 -6.512716903013481273e-01 4.339903712590795770e-01
-1.065813841847340487e-01 -4.436946806406908556e-02 -8.172859482323732161e-01 9.818634592074722001e-01 1.893032794549654174e-01 -1.041229373057857809e-02
-7.193082333063895162e-02 -2.772070510487595688e-02 -8.823921071061496813e-01 6.503849943904169706e-01 -6.993437654495118228e-01 2.965091175641573762e-01
-1.127474150180162865e-01 -1.325960660818322201e-01 -8.772456515353157513e-01 8.734547983308502683e-01 -4.868829734953007971e-01 -4.656757797876240855e-03
-5.758645944367844771e-02 -8.486960229426618318e-02 -9.660680149611555745e-01 6.732963394857469641e-01 -2.758762806724827654e-01 6.859769070438240801e-01
-3.126046576086314449e-02 1.004628947766817021e-01 -8.366717025372134575e-01 8.451675060949290774e-01 -4.672284296964419603e-01 2.595948403275283867e-01
3.143154882513740644e-02 -3.722367727017431016e-02 -1.025548432411252264e+00 5.335745336321544574e-01 -4.358526454894123270e-01 7.247969981167894371e-01
-1.109655507904987182e-01 -1.299445036593189773e-01 -8.202580918776644081e-01 8.734547983308502683e-01 -4.868829734953007971e-01 -4.656757797876240855e-03
-1.023353835833037545e-01 -1.289536628591958327e-02 -7.998929268424902483e-01 8.084017962654556078e-01 -4.370958058076421238e-01 3.942509256046871635e-01
4.677149405259389825e-02 -1.405242281505328199e-02 -1.023409382456324623e+00 5.113698531069257314e-01 -3.803043289923547232e-01 7.706292822642258900e-01
-9.300122960735236755e-02 -9.388821495249798088e-02 -9.035793586411696721e-01 8.282480868901691551e-01 -3.814033488013624518e-01 4.105320841126560705e-01
2.414045564768937946e-02 4.239408763016570131e-02 -9.584018273082897110e-01 4.758976124644299088e-01 -5.260831676370026910e-01 7.048105867392121526e-01
-3.240273699161245330e-02 1.054043054907406601e-01 -8.240590554920710353e-01 8.451675060949290774e-01 -4.672284296964419603e-01 2.595948403275283867e-01
4.886268459844621270e-02 1.568034391010145745e-01 -8.679671959237247325e-01 4.419806107003977913e-01 -6.750458590322933050e-01 5.907336353791415862e-01
-3.014200320268864419e-02 1.003200881011704765e-01 -8.405701295954144392e-01 8.451675060949290774e-01 -4.672284296964419603e-01 2.595948403275283867e-01
-9.563980170786967605e-02 -1.382642046911906619e-01 -9.315980036028994604e-01 8.482527178160573778e-01 -2.342525752967646868e-01 4.749663753198807292e-01
4.830569050193778829e-02 3.123081803193085079e-02 -9.919125555712700049e-01 6.173098683576109247e-01 -6.354545586860430584e-01 4.638168068035432023e-01
-9.827718033774910864e-03 -2.456197331435095582e-02 -9.777724794272759645e-01 3.099678850166354693e-01 -5.429564989608743897e-01 7.804602171119703335e-01
7.583617828219681167e-02 -4.979037290679529104e-02 -1.061562402928103444e+00 4.891439878843885092e-01 -4.202597246653972385e-01 7.642773861241228817e-01
-1.102641210448700448e-01 -1.334845827008152852e-01 -7.821380981670466026e-01 8.950233910972118512e-01 -4.400802148629953670e-01 -7.254332412418944276e-02
-1.364298857990246458e-02 1.552817592834349891e-01 -7.978952353355023286e-01 8.493294106476682037e-01 -4.562430527722480256e-01 2.654841407804695574e-01
-1.194457727445871198e-01 -1.552451465966680488e-01 -7.967726687757645809e-01 9.541775525563214178e-01 -2.473333162280229314e-01 -1.684382049336710929e-01
-5.604332367494580837e-03 8.369334496559203973e-02 -9.048272276756609278e-01 3.462352561761233294e-01 -6.431019476280140923e-01 6.830380899611012691e-01
4.365702981810614530e-02 -2.454428772680621387e-02 -1.026923796611399764e+00 5.335745336321544574e-01 -4.358526454894123270e-01 7.247969981167894371e-01
-3.077856238106591730e-02 4.664927685906694599e-02 -9.040559019343037406e-01 9.262123365906340666e-01 -2.718800221762129876e-01 2.611741968280558157e-01
-1.019243245532622105e-01 -6.824054950945349085e-02 -8.121264051830956454e-01 9.818634592074722001e-01 1.893032794549654174e-01 -1.041229373057857809e-02
6.741520579287954562e-02 1.063621769947565576e-01 -9.209358856178930797e-01 3.490548184271176080e-01 -5.946874721919774842e-01 7.242289307606593063e-01
8.065694137616481740e-02 -5.017378981595685405e-02 -1.064858564786144601e+00 4.891439878843885092e-01 -4.202597246653972385e-01 7.642773861241228817e-01
9.259067969095101380e-02 1.047582076403633239e-01 -9.527780811366540759e-01 6.800605332652941426e-01 -5.412956222784620630e-01 4.944863197269427912e-01
6.108730660220402370e-02 1.131030919983982835e-01 -9.123508634754157187e-01 3.490548184271176080e-01 -5.946874721919774842e-01 7.242289307606593063e-01
1.207324169694816290e-01 2.291921220131169952e-03 -1.041919280252816327e+00 1.029255158283683691e-01 -5.598395893331705730e-01 8.221836609947508201e-01
-4.591956890286336135e-02 9.273741296164861314e-02 -7.999080501890679651e-01 8.776454921480986160e-01 -4.062814257572154308e-01 2.543104268346190189e-01
5.219948595018800153e-02 -9.935601706080311735e-02 -1.080448774847511118e+00 4.612097266206151569e-01 -6.605050165751807922e-01 5.924683207983000299e-01
6.625889293093564780e-02 -3.371432094764991588e-02 -1.047019835805409471e+00 4.835060603116281830e-01 -3.945202484416743260e-01 7.813934112925750020e-01
-4.495828356932078662e-02 6.366233836765133533e-03 -8.957040888905953846e-01 9.262123365906340666e-01 -2.718800221762129876e-01 2.611741968280558157e-01
-2.690621023272079821e-03 2.556242370821969201e-02 -9.521525612350398848e-01 4.945213245988179795e-01 -4.486344683049149906e-01 7.444298310558200571e-01
1.808241889733920305e-01 1.162891218101688579e-01 -9.867853804035580101e-01 -1.249262478488539010e-02 -4.733045667506508569e-01 8.808102641426034385e-01
8.696956849332909689e-02 6.469150302803572394e-02 -9.975286707644205331e-01 6.173098683576109247e-01 -6.354545586860430584e-01 4.638168068035432023e-01
-3.422732203070827373e-02 -2.044841828309931081e-02 -9.572239681666337985e-01 8.341653948173118893e-01 -3.245402881957931696e-01 4.459166911285895596e-01
-1.022048212682117041e-01 -1.100489317979896076e-01 -8.538432943694519439e-01 9.657720442147772477e-01 -2.492704193037293958e-01 -7.175386173129132128e-02
-1.140727940912892452e-01 -4.763910058308198220e-02 -7.432570456059079955e-01 9.837814432460273428e-01 1.347112313065634281e-01 1.184354511311237618e-01
1.358812446790600426e-01 -4.445135721053350419e-02 -1.103929081009491719e+00 5.093259908294731630e-01 -5.133818130703999838e-01 6.906707964537984745e-01
-1.164589189914831124e-01 -2.353008459583022169e-02 -7.412667828937725689e-01 9.923836799725939128e-01 8.969889369209990693e-02 -8.443186717386601259e-02
1.014615838852275242e-01 2.843682895528047705e-02 -1.026170619856004551e+00 3.819088657224063797e-03 -3.707734685429486809e-01 9.287154836581864581e-01
8.552867463714547425e-02 9.531329384699950558e-02 -9.544979113465613674e-01 6.164893172223879780e-01 -6.308021502904750388e-01 4.712001368204248308e-01
7.916516155642464025e-02 3.778304295742286600e-02 -1.014870230094449877e+00 3.993556005915534501e-01 -4.825920122128448120e-01 7.794998742940995040e-01
1.474955610689538121e-01 1.511560462660116455e-01 -9.475882830912656374e-01 7.586668005976590634e-02 -8.388586010273256788e-01 5.390366354332392085e-01
-1.072307846050985225e-01 -4.587997043855793905e-02 -7.933018112713583481e-01 9.593528290296783334e-01 2.245580404785171569e-01 1.709264048917005507e-01
-4.928322449363431446e-02 4.231246968550029380e-02 -8.574682180153745392e-01 8.985535219165974308e-01 -2.580867055469423521e-01 3.549546741081242018e-01
6.501159431348865758e-02 -7.770565454094922886e-02 -1.069984591678874608e+00 4.891439878843885092e-01 -4.202597246653972385e-01 7.642773861241228817e-01
5.767631795127063643e-02 3.223326966702096119e-02 -1.003010834590675637e+00 6.173098683576109247e-01 -6.354545586860430584e-01 4.638168068035432023e-01
-1.303018315022541340e-01 -2.073138666894097648e-01 -8.026935043239971090e-01 9.747136655808140704e-01 1.827392790461928457e-02 -2.227090785957094865e-01
1.189583642256647755e-01 5.112147735147585387e-02 -1.017186120124901061e+00 3.819088657224063797e-03 -3.707734685429486809e-01 9.287154836581864581e-01
-1.008868330852768502e-01 9.870252470783618184e-03 -7.777524245669414915e-01 8.029990660651801226e-01 -4.398201673888335050e-01 4.021824464798367527e-01
8.565161264352753878e-02 -2.232778761052239477e-02 -1.053270566199757896e+00 4.835060603116281830e-01 -3.945202484416743260e-01 7.813934112925750020e-01
-9.800920707199740900e-02 -1.005029587949357039e-01 -8.305347481041062130e-01 9.657720442147772477e-01 -2.492704193037293958e-01 -7.175386173129132128e-02
-1.820151568593493183e-02 1.114349681492742411e-01 -8.594400119812591887e-01 8.451675060949290774e-01 -4.672284296964419603e-01 2.595948403275283867e-01
-6.786019718506225429e-02 -1.431948656395266584e-01 -9.819484288609681144e-01 6.952932876469707368e-01 -4.294165124426636559e-01 5.763407872037570323e-01
4.565047131170110739e-02 -9.625204349687292715e-02 -1.072206363074900137e+00 3.901873497831396809e-01 -5.270381924049759581e-01 7.549732285423802480e-01
-1.057800441865256041e-01 -1.190659891274500719e-02 -7.917974295784320216e-01 8.029990660651801226e-01 -4.398201673888335050e-01 4.021824464798367527e-01
-3.151550472546602033e-02 1.179367206497962117e-01 -8.048966359537917947e-01 8.493294106476682037e-01 -4.562430527722480256e-01 2.654841407804695574e-01
-1.121671859691018014e-01 -6.415836878354780337e-02 -7.402965380255133176e-01 9.837814432460273428e-01 1.347112313065634281e-01 1.184354511311237618e-01
1.833753680768020200e-02 1.998819576345904070e-01 -7.849055829725828382e-01 3.122001460556619867e-01 -8.955305995822855358e-01 3.171056827220473662e-01
-3.881240154216634292e-02 3.806423641030019789e-02 -8.870635667657277290e-01 8.985535219165974308e-01 -2.580867055469423521e-01 3.549546741081242018e-01
-4.038427267627540951e-02 -3.885106115665243331e-02 -9.577725972126798215e-01 9.262755422416586448e-01 -2.683594621782935397e-01 2.645691193323556067e-01
1.666389996680868180e-01 1.308358622656529413e-01 -9.787752883337507148e-01 -3.321109423474282729e-01 -6.866071431283556903e-01 6.467402515525229045e-01
1.935655077579553560e-02 1.826222562138369310e-01 -8.172995191895655598e-01 2.934014636331322423e-01 -6.606113860288189699e-01 6.910196652679418960e-01
1.555112737980517135e-01 2.039677134406402484e-02 -1.043712654153335029e+00 4.905820046373092214e-01 -7.558041769128529541e-01 4.336926825381353101e-01
-9.927195452039715151e-02 -8.206392235505073629e-02 -8.133311922893533552e-01 9.818634592074722001e-01 1.893032794549654174e-01 -1.041229373057857809e-02
-3.242473148188172033e-02 4.216139975644341009e-02 -9.028898678972389069e-01 9.262123365906340666e-01 -2.718800221762129876e-01 2.611741968280558157e-01
1.400468738047291016e-03 -1.034322939033128635e-01 -1.036964369175676248e+00 6.859357122253689765e-01 -4.851642992205822402e-01 5.423170672730823760e-01
-1.173302012503179559e-01 5.043394281334931568e-03 -7.365272293492087785e-01 7.381474482405573356e-01 -6.605370128289973497e-01 1.372195297284572735e-01
1.368343136092742829e-01 1.393788324635981402e-01 -9.610385013502296125e-01 2.723500860135171231e-01 -6.795266186769064465e-01 6.812261042840036529e-01
-1.042719898527488115e-01 -2.091966543185044825e-02 -8.048182964186697541e-01 8.084017962654556078e-01 -4.370958058076421238e-01 3.942509256046871635e-01
-9.932024806171245446e-02 -8.158886108525947867e-02 -8.092482309476616287e-01 9.818634592074722001e-01 1.893032794549654174e-01 -1.041229373057857809e-02
1.700075072070166698e-02 7.286897702759799478e-02 -9.264773362919059840e-01 3.462352561761233294e-01 -6.431019476280140923e-01 6.830380899611012691e-01
2.100903887586854368e-01 1.530876432737141579e-01 -9.385839456788952484e-01 -4.749602499999036609e-01 -5.221977134695047207e-01 7.083235905765458140e-01
-1.131991118163464399e-01 -2.633369496054179665e-02 -7.059306143087387131e-01 9.923836799725939128e-01 8.969889369209990693e-02 -8.443186717386601259e-02
-9.920795102641687124e-02 -9.838768380206379394e-02 -8.952375193874835269e-01 8.282480868901691551e-01 -3.814033488013624518e-01 4.105320841126560705e-01
1.507509446916932734e-02 1.843000123104033827e-01 -8.138777202943060507e-01 2.934014636331322423e-01 -6.606113860288189699e-01 6.910196652679418960e-01
-1.711197486847920452e-04 1.816734745626650827e-01 -8.088554915169867687e-01 9.421240378628864542e-01 -3.019052854304837830e-01 1.457926469684537873e-01
1.590888472783703045e-01 1.764047524292336119e-02 -1.054634911706263445e+00 7.188000566667740454e-01 -6.413877508802776628e-01 2.682316751552306644e-01
3.594277547523466038e-02 -5.771216143123252679e-02 -1.040386309314743851e+00 4.891439878843885092e-01 -4.202597246653972385e-01 7.642773861241228817e-01
4.444975960113935198e-02 1.585785821511092319e-01 -8.626369928307179302e-01 4.419806107003977913e-01 -6.750458590322933050e-01 5.907336353791415862e-01
1.086341384196116838e-01 1.070219334718331139e-01 -9.723644232242725227e-01 6.800605332652941426e-01 -5.412956222784620630e-01 4.944863197269427912e-01
-5.931723679285146739e-02 -1.207093328143888089e-01 -9.784772915072902366e-01 6.756212024429861795e-01 -2.629927313833463898e-01 6.887458268831980757e-01
2.043879102230698463e-01 1.161063801135068935e-01 -9.750280983437328297e-01 -3.321109423474282729e-01 -6.866071431283556903e-01 6.467402515525229045e-01
-5.786732927547390271e-02 4.511495961733370808e-02 -8.337002172156766644e-01 8.985535219165974308e-01 -2.580867055469423521e-01 3.549546741081242018e-01
-1.141319983375990305e-01 -2.228393868636624475e-02 -7.125930596658081040e-01 9.923836799725939128e-01 8.969889369209990693e-02 -8.443186717386601259e-02
-7.223034545728400369e-02 -3.275383454615352075e-02 -8.917350637928097568e-01 6.224930064397760088e-01 -6.512716903013481273e-01 4.339903712590795770e-01
1.840091876542212512e-01 8.682717933880905459e-02 -1.001919327105271540e+00 -1.503183603101360989e-02 -3.870275680562839660e-01 9.219456087372915887e-01
-1.290958967021418602e-01 -1.870089165650354601e-01 -8.132598603659060288e-01 9.926635816748720087e-01 -9.928842340708797509e-02 -6.899871443548416527e-02
1.788894897788725347e-01 1.350875491925445648e-01 -9.681358181538968211e-01 -4.265588742475840411e-01 -4.859089153007404849e-01 7.628499543369532399e-01
1.425554269634605187e-01 4.453679794392773755e-02 -1.019911975074421218e+00 3.819088657224063797e-03 -3.707734685429486809e-01 9.287154836581864581e-01
2.238080419140984004e-02 -1.115059334485571096e-01 -1.070723592550511194e+00 6.859357122253689765e-01 -4.851642992205822402e-01 5.423170672730823760e-01
-2.092507323217688425e-02 -3.394749815396459758e-02 -9.798944427911847610e-01 3.099678850166354693e-01 -5.429564989608743897e-01 7.804602171119703335e-01
-1.054194504997683079e-01 -1.653011665759785420e-01 -9.171999429219136468e-01 9.336989442414890261e-01 -3.890584690572213011e-02 3.559390630415227852e-01
1.208289929839588689e-01 1.208308176738614181e-01 -9.731414129568335403e-01 2.723500860135171231e-01 -6.795266186769064465e-01 6.812261042840036529e-01
8.116649654487428922e-02 3.790792849445257656e-02 -1.015818242529160198e+00 3.993556005915534501e-01 -4.825920122128448120e-01 7.794998742940995040e-01
-8.405668566865136249e-02 -6.739658845276874644e-02 -9.068969823917997219e-01 8.704648969098149891e-01 -1.587878838479498955e-01 4.659155193711355669e-01
-9.519599606612924592e-02 -4.875473619008301174e-02 -8.725294803055778647e-01 9.533472196048294878e-01 -1.755928420769977127e-01 2.455529121860771102e-01
-1.336800931257039679e-02 3.089037452345446202e-02 -9.416621821993650387e-01 4.758976124644299088e-01 -5.260831676370026910e-01 7.048105867392121526e-01
1.561806979053268485e-01 1.498817437157940261e-02 -1.053895550433014083e+00 4.905820046373092214e-01 -7.558041769128529541e-01 4.336926825381353101e-01
8.371624439227717818e-02 -5.069227779640659431e-02 -1.067355886023674705e+00 5.588849453105141363e-01 -4.377135609126101001e-01 7.043113349211883589e-01
-1.018108043556832654e-01 -1.029560454056057395e-01 -8.731804591234769708e-01 9.657720442147772477e-01 -2.492704193037293958e-01 -7.175386173129132128e-02
7.202932716976126470e-02 4.709072678673375222e-03 -1.030911065287925199e+00 5.113698531069257314e-01 -3.803043289923547232e-01 7.706292822642258900e-01
6.530409304464122877e-02 -7.948999125622680656e-03 -1.032880252332567750e+00 5.335745336321544574e-01 -4.358526454894123270e-01 7.247969981167894371e-01
-3.005375136736234548e-02 1.105927612439053659e-01 -8.223683142136751778e-01 8.451675060949290774e-01 -4.672284296964419603e-01 2.595948403275283867e-01
1.164908618879407498e-01 1.429184868617242588e-01 -9.438750614538143902e-01 6.800605332652941426e-01 -5.412956222784620630e-01 4.944863197269427912e-01
4.152270519090834125e-03 4.033431102291731157e-02 -9.464429890947115842e-01 4.758976124644299088e-01 -5.260831676370026910e-01 7.048105867392121526e-01
2.301157674704871481e-01 1.689184973775021970e-01 -9.129547245288550661e-01 -2.471358996718568957e-01 -7.716941155283407738e-01 5.860136851237468525e-01
2.024666629152413813e-02 -1.034481503289226695e-01 -1.060815679956367497e+00 6.859357122253689765e-01 -4.851642992205822402e-01 5.423170672730823760e-01
-1.018027027684922370e-01 -5.201169025920826527e-02 -8.492082841000493376e-01 9.533472196048294878e-01 -1.755928420769977127e-01 2.455529121860771102e-01
-1.203827034853823669e-01 -1.465279483371548508e-01 -8.527399943055321563e-01 8.734547983308502683e-01 -4.868829734953007971e-01 -4.656757797876240855e-03
-5.985774451197531376e-02 -7.579342735120440933e-02 -9.549693134641762393e-01 8.704648969098149891e-01 -1.587878838479498955e-01 4.659155193711355669e-01
1.607946268016536284e-01 1.369150745773949907e-01 -9.716221180876695174e-01 7.586668005976590634e-02 -8.388586010273256788e-01 5.390366354332392085e-01
-3.860565495915557060e-02 1.067149138079067083e-01 -8.015052244231275491e-01 8.451675060949290774e-01 -4.672284296964419603e-01 2.595948403275283867e-01
2.588736269162039347e-02 1.803247808856094925e-01 -8.238988889594818232e-01 4.419806107003977913e-01 -6.750458590322933050e-01 5.907336353791415862e-01
-8.532685204461987194e-02 -3.306116995027633121e-02 -8.656042413344127162e-01 6.503849943904169706e-01 -6.993437654495118228e-01 2.965091175641573762e-01
-9.770797066609941683e-02 -1.020604546373399951e-01 -8.210695663727126670e-01 9.657720442147772477e-01 -2.492704193037293958e-01 -7.175386173129132128e-02
-8.907546990132240994e-02 -3.666397087113852649e-02 -8.658792802914855313e-01 6.503849943904169706e-01 -6.993437654495118228e-01 2.965091175641573762e-01
4.408696277629387678e-02 1.181457886226739556e-01 -9.000165309785200796e-01 3.490548184271176080e-01 -5.946874721919774842e-01 7.242289307606593063e-01
-8.925883737016496178e-02 -7.143043578707999886e-02 -8.985526276730866346e-01 8.704648969098149891e-01 -1.587878838479498955e-01 4.659155193711355669e-01
-3.399612709325262189e-02 5.555878363798191083e-02 -8.865355283875590020e-01 8.985535219165974308e-01 -2.580867055469423521e-01 3.549546741081242018e-01
-8.144613715678844512e-02 -2.266264668122876594e-02 -8.495906235187323796e-01 6.503849943904169706e-01 -6.993437654495118228e-01 2.965091175641573762e-01
1.581208399202274628e-01 4.943737804190764459e-03 -1.080652257452449971e+00 6.138747337640699797e-01 -6.511775100594765497e-01 4.462349847768914413e-01
-3.369630226597773032e-02 -7.255165685171233170e-02 -9.861140952358806722e-01 7.068140700423743983e-01 -2.183536525523388228e-01 6.728562645968202416e-01
-1.241931632303352323e-01 -1.534928502417282625e-01 -8.392482466018420517e-01 8.734547983308502683e-01 -4.868829734953007971e-01 -4.656757797876240855e-03
-3.388372387458962048e-02 8.297474869818634302e-02 -8.570413516830516221e-01 8.776454921480986160e-01 -4.062814257572154308e-01 2.543104268346190189e-01
-5.421239945045747133e-02 -7.708013853668052584e-02 -9.662470500737141421e-01 6.732963394857469641e-01 -2.758762806724827654e-01 6.859769070438240801e-01
-1.091532639282508099e-01 -1.278806298625869420e-01 -8.024286718808821828e-01 8.950233910972118512e-01 -4.400802148629953670e-01 -7.254332412418944276e-02
-1.066813264255202370e-01 -1.616987879533638151e-01 -9.134960341697786479e-01 9.336989442414890261e-01 -3.890584690572213011e-02 3.559390630415227852e-01
2.106608339173219723e-03 3.367476969249177249e-02 -9.500325305947804333e-01 4.758976124644299088e-01 -5.260831676370026910e-01 7.048105867392121526e-01
-1.116680605529202785e-01 -2.372595908059237091e-02 -7.904312735405957246e-01 9.837814432460273428e-01 1.347112313065634281e-01 1.184354511311237618e-01
2.350933258817841653e-02 -1.018731666161711014e-01 -1.063533376945103637e+00 6.859357122253689765e-01 -4.851642992205822402e-01 5.423170672730823760e-01
-1.149156404700827500e-01 2.915299888963740396e-03 -6.968055933259045265e-01 9.937123734658529495e-01 7.156285984874631578e-02 -8.610735108647699088e-02
2.140983042949726745e-01 1.530618477141639511e-01 -9.359154898939621159e-01 -4.749602499999036609e-01 -5.221977134695047207e-01 7.083235905765458140e-01
1.908787801261251915e-01 1.321707343548780000e-01 -9.649106355302281557e-01 -3.321109423474282729e-01 -6.866071431283556903e-01 6.467402515525229045e-01
1.486958800453462570e-01 -2.279251882533984974e-02 -1.101006676628067282e+00 7.284438440385319069e-01 -4.585157546088639569e-01 5.090509491768292483e-01
-1.058651781211195353e-01 -1.205884811999331230e-01 -8.418059279741775258e-01 8.734547983308502683e-01 -4.868829734953007971e-01 -4.656757797876240855e-03
-1.022186547304610588e-01 -6.678286612131524580e-02 -8.133795200576499074e-01 9.818634592074722001e-01 1.893032794549654174e-01 -1.041229373057857809e-02
3.463634126141066499e-02 1.217276079350261830e-01 -8.925204923379341793e-01 3.490548184271176080e-01 -5.946874721919774842e-01 7.242289307606593063e-01
-4.137623629617694782e-02 9.163846765450756049e-02 -8.173431058530882254e-01 8.776454921480986160e-01 -4.062814257572154308e-01 2.543104268346190189e-01
1.184136167062451034e-01 1.312561861753017423e-01 -9.592856838923442542e-01 6.800605332652941426e-01 -5.412956222784620630e-01 4.944863197269427912e-01
-2.760367578619911388e-02 1.296829016289178238e-01 -7.972250586806627348e-01 8.493294106476682037e-01 -4.562430527722480256e-01 2.654841407804695574e-01
1.839329859493496477e-01 1.593552278303210223e-01 -9.399569510989667087e-01 7.586668005976590634e-02 -8.388586010273256788e-01 5.390366354332392085e-01
-2.513815531031875217e-02 -1.050037282270855354e-01 -1.006007987942855841e+00 6.756212024429861795e-01 -2.629927313833463898e-01 6.887458268831980757e-01
2.207851924689946954e-01 1.573340852882871288e-01 -9.282820313399986478e-01 -4.749602499999036609e-01 -5.221977134695047207e-01 7.083235905765458140e-01
6.326235610068899062e-02 1.013945276021461644e-01 -9.230698567149950851e-01 3.462352561761233294e-01 -6.431019476280140923e-01 6.830380899611012691e-01
5.197473470426241388e-02 5.224935108955110208e-02 -9.682482939669074806e-01 6.164893172223879780e-01 -6.308021502904750388e-01 4.712001368204248308e-01
-1.190085258546260821e-01 -3.280003376762979407e-03 -7.497206804883124187e-01 9.923836799725939128e-01 8.969889369209990693e-02 -8.443186717386601259e-02
1.600367371717389964e-01 1.674978872764537607e-02 -1.059304825239465453e+00 7.188000566667740454e-01 -6.413877508802776628e-01 2.682316751552306644e-01
-9.910577579519926072e-02 -1.063315955804268048e-01 -8.250455478219689276e-01 9.657720442147772477e-01 -2.492704193037293958e-01 -7.175386173129132128e-02
6.151066967351705161e-02 -3.587778404257414844e-02 -1.045174075779630840e+00 4.835060603116281830e-01 -3.945202484416743260e-01 7.813934112925750020e-01
9.237186205618526380e-02 -7.001543912421720472e-02 -1.086233197091080127e+00 5.588849453105141363e-01 -4.377135609126101001e-01 7.043113349211883589e-01
1.777881595527951858e-02 1.205107287017937456e-01 -8.852912343061848377e-01 4.406662369404855673e-01 -6.622123019602249583e-01 6.060430139464124677e-01
-6.217125364041791585e-02 2.375547043580114939e-02 -8.383354394534966447e-01 8.985535219165974308e-01 -2.580867055469423521e-01 3.549546741081242018e-01
-5.885259160989503996e-02 -8.603123202685443449e-02 -9.652924552342743159e-01 6.732963394857469641e-01 -2.758762806724827654e-01 6.859769070438240801e-01
8.017193427966651242e-02 6.521039348935027402e-02 -9.877886509798636805e-01 6.164893172223879780e-01 -6.308021502904750388e-01 4.712001368204248308e-01
9.731313515307796203e-02 1.161944224884609439e-01 -9.467540167005328300e-01 6.800605332652941426e-01 -5.412956222784620630e-01 4.944863197269427912e-01
-4.232039842403650942e-02 9.981702735446347508e-02 -8.010188183176373267e-01 8.776454921480986160e-01 -4.062814257572154308e-01 2.543104268346190189e-01
-1.267098078009727680e-01 -1.856959706218182515e-01 -8.458259150790293779e-01 9.941189668865457740e-01 2.890402625963493094e-02 1.043649219920612103e-01
1.060017539146666660e-01 3.600304319450950419e-02 -1.023168610915252463e+00 3.819088657224063797e-03 -3.707734685429486809e-01 9.287154836581864581e-01
-7.932877339172859921e-02 -2.641241169813801637e-02 -8.630791679513387660e-01 6.503849943904169706e-01 -6.993437654495118228e-01 2.965091175641573762e-01
-8.255509668796362499e-02 -1.185086423888697255e-01 -9.452228528247924588e-01 8.482527178160573778e-01 -2.342525752967646868e-01 4.749663753198807292e-01
1.827447639732096840e-01 7.377373812288742783e-02 -1.007419703884500084e+00 -1.503183603101360989e-02 -3.870275680562839660e-01 9.219456087372915887e-01
-1.124605172326382380e-01 -6.195941335730215105e-02 -7.403611313478134504e-01 9.837814432460273428e-01 1.347112313065634281e-01 1.184354511311237618e-01
-9.543487611901410594e-02 -9.084273143182297616e-02 -8.958400836760399555e-01 8.282480868901691551e-01 -3.814033488013624518e-01 4.105320841126560705e-01
1.737703049291002277e-01 1.287362847440474134e-01 -9.773422561631203154e-01 -3.321109423474282729e-01 -6.866071431283556903e-01 6.467402515525229045e-01
-3.674820652302016044e-02 1.009866727408380987e-01 -8.178624530020935923e-01 8.451675060949290774e-01 -4.672284296964419603e-01 2.595948403275283867e-01
1.014266371475057438e-02 4.181251087073450251e-02 -9.493844286817484379e-01 4.758976124644299088e-01 -5.260831676370026910e-01 7.048105867392121526e-01
2.012702427740918065e-01 1.612282427600908730e-01 -9.352465058714065638e-01 -2.471358996718568957e-01 -7.716941155283407738e-01 5.860136851237468525e-01
3.554677012546560849e-02 1.818292130353011404e-01 -8.294068030326023910e-01 4.419806107003977913e-01 -6.750458590322933050e-01 5.907336353791415862e-01
-9.697656133734905426e-02 -5.222253895085285369e-02 -8.680963192470304568e-01 9.533472196048294878e-01 -1.755928420769977127e-01 2.455529121860771102e-01
7.508956940664560098e-02 5.526187252246441556e-02 -9.946362810081194050e-01 6.173098683576109247e-01 -6.354545586860430584e-01 4.638168068035432023e-01
-2.887100172251579402e-02 1.009107932811941361e-01 -8.436449784504901350e-01 8.451675060949290774e-01 -4.672284296964419603e-01 2.595948403275283867e-01
2.338791519513174974e-02 -7.204738031803618881e-02 -1.040341158870907501e+00 6.987211833221218527e-01 -3.883122992707846444e-01 6.008346413215290838e-01
-8.802026030505437360e-02 -2.373217522878463132e-02 -8.376930368469157617e-01 6.503849943904169706e-01 -6.993437654495118228e-01 2.965091175641573762e-01
-1.136992657323809552e-01 -3.751994590379341410e-02 -7.236933260444691207e-01 9.923836799725939128e-01 8.969889369209990693e-02 -8.443186717386601259e-02
3.602417268300038122e-03 1.090768606828377285e-01 -8.874768676158694136e-01 4.406662369404855673e-01 -6.622123019602249583e-01 6.060430139464124677e-01
-1.141536297665940308e-01 -1.354331621601523039e-01 -8.443754096804775289e-01 8.734547983308502683e-01 -4.868829734953007971e-01 -4.656757797876240855e-03
-5.388875377702721792e-02 -7.347054970997313195e-02 -9.648053007346637511e-01 7.630436590408000708e-01 -4.090304846457569754e-01 5.004582270560495871e-01
-2.468069909673210882e-02 1.069575849230502557e-01 -8.464041806580028249e-01 8.451675060949290774e-01 -4.672284296964419603e-01 2.595948403275283867e-01
-1.232353175209351392e-01 -1.802314212508493441e-01 -8.675025753958394148e-01 9.685280747806639390e-01 -9.550255462488570213e-02 2.298534977366703258e-01
7.713281365294812064e-02 -7.353270673159666149e-02 -1.076326613655077979e+00 5.588849453105141363e-01 -4.377135609126101001e-01 7.043113349211883589e-01
1.483879793073122344e-01 -1.197516883402928445e-02 -1.090822600162415279e+00 7.284438440385319069e-01 -4.585157546088639569e-01 5.090509491768292483e-01
5.077849640365064959e-04 -9.376913632994693382e-02 -1.027771965736768989e+00 6.987211833221218527e-01 -3.883122992707846444e-01 6.008346413215290838e-01
1.416891420638061172e-01 -2.554111168557841177e-02 -1.094155882145801728e+00 5.093259908294731630e-01 -5.133818130703999838e-01 6.906707964537984745e-01
7.951396997017373680e-02 -5.944780835529192564e-02 -1.069462662493767757e+00 5.588849453105141363e-01 -4.377135609126101001e-01 7.043113349211883589e-01
1.684179183434717231e-01 3.132750186842205020e-02 -1.046906687915675649e+00 7.188000566667740454e-01 -6.413877508802776628e-01 2.682316751552306644e-01
-4.968602436234798199e-03 -1.072273805166521973e-02 -9.725067480712441537e-01 4.945213245988179795e-01 -4.486344683049149906e-01 7.444298310558200571e-01
7.746325453241545422e-02 8.503028689980562937e-02 -9.577116149131249534e-01 6.164893172223879780e-01 -6.308021502904750388e-01 4.712001368204248308e-01
2.105826592526415658e-02 -7.620916214875345096e-02 -1.040321678930815175e+00 6.987211833221218527e-01 -3.883122992707846444e-01 6.008346413215290838e-01
-8.361796613843415493e-02 -1.838993894682891886e-02 -8.394177638693045562e-01 7.935124342272786846e-01 -4.164776638532403097e-01 4.437165449225957126e-01
-1.281123563146266409e-01 -1.670086504422445273e-01 -8.376415436455489916e-01 9.941189668865457740e-01 2.890402625963493094e-02 1.043649219920612103e-01
-5.301827199224427856e-02 -4.292989935430017306e-02 -9.345626598187048995e-01 6.224930064397760088e-01 -6.512716903013481273e-01 4.339903712590795770e-01
-2.818840823144948618e-02 9.425945849993748460e-02 -8.578386293686063313e-01 8.451675060949290774e-01 -4.672284296964419603e-01 2.595948403275283867e-01
-9.851984718205131220e-02 -1.008418810082037376e-01 -8.362303113932650911e-01 9.657720442147772477e-01 -2.492704193037293958e-01 -7.175386173129132128e-02
5.536516259640366505e-02 1.042674696399048528e-01 -9.168481872501452745e-01 3.490548184271176080e-01 -5.946874721919774842e-01 7.242289307606593063e-01
-2.872161927447304877e-02 -1.139713433922991126e-01 -1.007391236016314418e+00 6.952932876469707368e-01 -4.294165124426636559e-01 5.763407872037570323e-01
-8.154265082607672910e-02 2.237363622680001857e-02 -8.034260813550498925e-01 8.084017962654556078e-01 -4.370958058076421238e-01 3.942509256046871635e-01
-8.884040771858144059e-02 -4.509152610306970538e-02 -8.862720397975315523e-01 6.503849943904169706e-01 -6.993437654495118228e-01 2.965091175641573762e-01
1.046770593440192187e-01 -2.910512409774984599e-02 -1.069510976588265772e+00 5.093259908294731630e-01 -5.133818130703999838e-01 6.906707964537984745e-01
3.521140218169963726e-02 3.561367014277296711e-02 -9.707854509280408051e-01 3.462352561761233294e-01 -6.431019476280140923e-01 6.830380899611012691e-01
-8.996257102889056168e-02 -1.739960090678098759e-01 -9.646577482738470932e-01 8.181914519592294877e-01 -4.011322495984400716e-01 4.118927849245996309e-01
1.065568045730806157e-01 5.463674153595760030e-02 -1.015731714147942943e+00 3.819088657224063797e-03 -3.707734685429486809e-01 9.287154836581864581e-01
2.073208579037137678e-01 1.533758058616498943e-01 -9.402285883792521615e-01 -4.749602499999036609e-01 -5.221977134695047207e-01 7.083235905765458140e-01
-3.690477661971074130e-02 7.283505040203187841e-02 -8.628144447311288934e-01 8.776454921480986160e-01 -4.062814257572154308e-01 2.543104268346190189e-01
1.479441574215646926e-01 1.094090926808377190e-01 -9.909487141573395386e-01 -1.249262478488539010e-02 -4.733045667506508569e-01 8.808102641426034385e-01
1.235322280757144425e-02 1.392697047653406461e-01 -8.606874352931240812e-01 4.419806107003977913e-01 -6.750458590322933050e-01 5.907336353791415862e-01
-7.601782058948643173e-02 -6.351083508756000251e-02 -9.205916095143364952e-01 8.704648969098149891e-01 -1.587878838479498955e-01 4.659155193711355669e-01
-1.093033111552009912e-01 -1.648084559443317165e-01 -9.069579484445136064e-01 9.336989442414890261e-01 -3.890584690572213011e-02 3.559390630415227852e-01
-1.001466537710619387e-01 -1.377190889349710033e-02 -8.053526634451081412e-01 8.084017962654556078e-01 -4.370958058076421238e-01 3.942509256046871635e-01
1.470034936783125579e-01 8.202908431344288487e-02 -1.004536898630272068e+00 -1.503183603101360989e-02 -3.870275680562839660e-01 9.219456087372915887e-01
-1.851369215675815680e-02 1.005342918893492032e-01 -8.780430952942935852e-01 8.451675060949290774e-01 -4.672284296964419603e-01 2.595948403275283867e-01
1.257833141951111844e-01 -1.607425640666332312e-02 -1.073643878767380322e+00 4.905820046373092214e-01 -7.558041769128529541e-01 4.336926825381353101e-01
-1.068364685017990368e-02 1.334057636640583744e-01 -8.449572818829780285e-01 8.493294106476682037e-01 -4.562430527722480256e-01 2.654841407804695574e-01
4.655271677706322025e-02 5.261603043840421684e-02 -9.606635800155356453e-01 6.164893172223879780e-01 -6.308021502904750388e-01 4.712001368204248308e-01
-1.751103362509267083e-02 1.182997695575658120e-01 -8.493325022268350954e-01 8.451675060949290774e-01 -4.672284296964419603e-01 2.595948403275283867e-01
-4.233375556628309749e-02 1.610468909382129594e-03 -9.099061160435152340e-01 9.262755422416586448e-01 -2.683594621782935397e-01 2.645691193323556067e-01
2.128212229232191374e-02 2.035879192751706146e-01 -7.688304375765557808e-01 6.880452742777593000e-01 -7.244280021352497156e-01 -4.240012106555091087e-02
9.512049625267127162e-02 4.252880338154969159e-02 -1.020106390268812557e+00 3.993556005915534501e-01 -4.825920122128448120e-01 7.794998742940995040e-01
1.629729456547021060e-01 1.216399187671370896e-01 -9.841633086080928683e-01 -1.249262478488539010e-02 -4.733045667506508569e-01 8.808102641426034385e-01
-1.015033529281377800e-01 -1.101830553943900226e-01 -8.439359313271602714e-01 9.657720442147772477e-01 -2.492704193037293958e-01 -7.175386173129132128e-02
-1.199609016067613165e-01 -1.458517065318377937e-01 -8.443276491606309664e-01 8.734547983308502683e-01 -4.868829734953007971e-01 -4.656757797876240855e-03
-4.421756262400415409e-03 3.262200585636005484e-02 -9.464102924480581880e-01 4.758976124644299088e-01 -5.260831676370026910e-01 7.048105867392121526e-01
-1.168404541151988885e-01 -2.443930934256741822e-03 -7.234726895853271778e-01 9.937123734658529495e-01 7.156285984874631578e-02 -8.610735108647699088e-02
-3.023161053570685292e-02 -4.979155156646689756e-02 -9.823675903865800585e-01 7.068140700423743983e-01 -2.183536525523388228e-01 6.728562645968202416e-01
4.211156370563452073e-02 1.397711324737976532e-02 -1.001379036740204231e+00 7.025692638564231540e-01 -5.128968232977345609e-01 4.932882302825965515e-01
1.607733966276594373e-01 1.506556593084663054e-01 -9.502357825589969886e-01 7.586668005976590634e-02 -8.388586010273256788e-01 5.390366354332392085e-01
1.707553955892834874e-01 3.221008004146609649e-02 -1.051060201652326276e+00 7.188000566667740454e-01 -6.413877508802776628e-01 2.682316751552306644e-01
8.014404739762167468e-03 1.900767967301943973e-01 -8.024326680650009092e-01 3.122001460556619867e-01 -8.955305995822855358e-01 3.171056827220473662e-01
7.526210539686084555e-02 7.208243571321550081e-02 -9.721652343208267988e-01 6.164893172223879780e-01 -6.308021502904750388e-01 4.712001368204248308e-01
-9.690260236660211413e-02 -7.037320206311058202e-02 -8.813628493467475788e-01 9.533472196048294878e-01 -1.755928420769977127e-01 2.455529121860771102e-01
8.847834326616439704e-02 7.280106588512789967e-02 -9.884945080228884073e-01 6.164893172223879780e-01 -6.308021502904750388e-01 4.712001368204248308e-01
2.159398916871239221e-02 1.470877758048954043e-01 -8.586673760823952950e-01 4.419806107003977913e-01 -6.750458590322933050e-01 5.907336353791415862e-01
5.142598015904570330e-02 1.266160949138545322e-01 -8.965984603217401760e-01 3.490548184271176080e-01 -5.946874721919774842e-01 7.242289307606593063e-01
1.820392410224481727e-01 1.468688324847940499e-02 -1.099846956777316587e+00 6.184907200688967155e-01 -7.005805559200527499e-01 3.558877826723013671e-01
-2.589107722372454429e-02 1.895233119004505196e-02 -9.411203871417167521e-01 3.099678850166354693e-01 -5.429564989608743897e-01 7.804602171119703335e-01
1.989335404836571342e-01 1.083761536745268400e-01 -9.860357394299054112e-01 -3.321109423474282729e-01 -6.866071431283556903e-01 6.467402515525229045e-01
1.890681629917636553e-01 1.627644614176223734e-02 -1.107521349615716577e+00 4.973341932039719859e-01 -7.154169216985714064e-01 4.907517991994468365e-01
-7.131218790422174693e-03 6.565659500365164658e-02 -9.199232214539772023e-01 4.758976124644299088e-01 -5.260831676370026910e-01 7.048105867392121526e-01
1.132516482433866267e-01 8.228770833959404840e-02 -1.004720078346906798e+00 3.819088657224063797e-03 -3.707734685429486809e-01 9.287154836581864581e-01
1.500187396683418627e-02 -7.617127833616733380e-03 -9.846193762030355234e-01 7.204149216440384196e-01 -5.092078656673861836e-01 4.708605846904992953e-01
-1.138462621968002048e-01 -5.161464895059272862e-02 -7.406168467581973891e-01 9.837814432460273428e-01 1.347112313065634281e-01 1.184354511311237618e-01
1.610232334801345866e-01 1.413180352226587333e-01 -9.648023260069813478e-01 7.586668005976590634e-02 -8.388586010273256788e-01 5.390366354332392085e-01
1.004807917507469089e-01 1.209393663425135657e-01 -9.459163411479057926e-01 6.800605332652941426e-01 -5.412956222784620630e-01 4.944863197269427912e-01
1.545172553068538401e-01 4.170593142184782220e-02 -1.021091338939450477e+00 3.819088657224063797e-03 -3.707734685429486809e-01 9.287154836581864581e-01
-1.072812137538344257e-01 1.609883308707822647e-02 -7.581739045616798789e-01 8.029990660651801226e-01 -4.398201673888335050e-01 4.021824464798367527e-01
2.824382320276509414e-02 7.494149749212029518e-03 -9.883684752495909276e-01 7.025692638564231540e-01 -5.128968232977345609e-01 4.932882302825965515e-01
1.637105556177531618e-01 2.930078859194904656e-02 -1.039138241020969966e+00 7.188000566667740454e-01 -6.413877508802776628e-01 2.682316751552306644e-01
5.384497353504498485e-02 -4.796758984491617667e-02 -1.046534802187003566e+00 4.835060603116281830e-01 -3.945202484416743260e-01 7.813934112925750020e-01
-6.739050654360113739e-03 -4.119258751959303105e-02 -9.932384847960230578e-01 8.441724172330604403e-02 -9.412674967644922841e-01 3.269391821647186225e-01
-1.051107766925901965e-01 -7.255980703028727663e-02 -7.701495298002596357e-01 9.593528290296783334e-01 2.245580404785171569e-01 1.709264048917005507e-01
3.629158806194774517e-02 5.281112898560227920e-02 -9.551410512991429513e-01 3.462352561761233294e-01 -6.431019476280140923e-01 6.830380899611012691e-01
3.542276441589560509e-02 4.346190490967027226e-02 -9.635032303903633411e-01 3.462352561761233294e-01 -6.431019476280140923e-01 6.830380899611012691e-01
-6.018938672823898051e-02 -1.052737175891875349e-01 -9.717190361333386539e-01 6.732963394857469641e-01 -2.758762806724827654e-01 6.859769070438240801e-01
2.050385114061280267e-02 1.050140830022192745e-01 -8.994330995371691007e-01 3.490548184271176080e-01 -5.946874721919774842e-01 7.242289307606593063e-01
5.541405944977730036e-02 1.329303984098301750e-01 -8.933357090125739752e-01 3.490548184271176080e-01 -5.946874721919774842e-01 7.242289307606593063e-01
1.754047290298839379e-01 3.788504741796769326e-02 -1.049949544526561418e+00 7.188000566667740454e-01 -6.413877508802776628e-01 2.682316751552306644e-01
1.196379842455855963e-01 1.379915881886176754e-01 -9.535965485813200360e-01 6.800605332652941426e-01 -5.412956222784620630e-01 4.944863197269427912e-01
-7.355598321124826033e-02 -5.968671907869822074e-02 -9.235531831393302138e-01 7.630436590408000708e-01 -4.090304846457569754e-01 5.004582270560495871e-01
-1.178211239859434517e-01 -1.661711094385512066e-01 -8.844742672885057555e-01 9.685280747806639390e-01 -9.550255462488570213e-02 2.298534977366703258e-01
-4.030067737802002503e-02 -4.122854845973508708e-02 -9.604768186880234815e-01 9.262755422416586448e-01 -2.683594621782935397e-01 2.645691193323556067e-01
3.257126735691552588e-02 5.255552726313501150e-02 -9.534958601401954947e-01 3.462352561761233294e-01 -6.431019476280140923e-01 6.830380899611012691e-01
-7.460207494560146257e-02 3.312325348733881347e-02 -8.057397382954234466e-01 8.084017962654556078e-01 -4.370958058076421238e-01 3.942509256046871635e-01
-9.327012066999447459e-02 -1.685294091959116947e-01 -9.527637833226330066e-01 8.181914519592294877e-01 -4.011322495984400716e-01 4.118927849245996309e-01
6.287030218943136239e-02 6.178643190345038672e-02 -9.697359630484801984e-01 6.164893172223879780e-01 -6.308021502904750388e-01 4.712001368204248308e-01
-8.696839371176236233e-02 -5.953927620435632562e-02 -8.987792325659493820e-01 8.704648969098149891e-01 -1.587878838479498955e-01 4.659155193711355669e-01
-3.349496095322061773e-02 2.503882821874297768e-02 -9.169189160748395517e-01 9.262123365906340666e-01 -2.718800221762129876e-01 2.611741968280558157e-01
-1.134125956331005214e-01 -1.773020925029619374e-02 -6.992996429331211905e-01 9.923836799725939128e-01 8.969889369209990693e-02 -8.443186717386601259e-02
7.343289531204634513e-02 -2.092072698988147600e-02 -1.044999524121296153e+00 4.835060603116281830e-01 -3.945202484416743260e-01 7.813934112925750020e-01
-8.960833186372565984e-02 -1.244032349353663136e-01 -9.355335302494951488e-01 8.482527178160573778e-01 -2.342525752967646868e-01 4.749663753198807292e-01
2.444057198488481034e-02 1.763187752960131971e-01 -8.273941767181910434e-01 4.419806107003977913e-01 -6.750458590322933050e-01 5.907336353791415862e-01
-1.015038070593255737e-01 -5.923183115183911635e-02 -8.555317947397547140e-01 9.533472196048294878e-01 -1.755928420769977127e-01 2.455529121860771102e-01
-3.127814815618934485e-02 5.584753959484841518e-02 -8.932060292866610407e-01 8.985535219165974308e-01 -2.580867055469423521e-01 3.549546741081242018e-01
-1.152836393732183384e-01 -1.824318783330157109e-02 -7.666347796919128488e-01 9.837814432460273428e-01 1.347112313065634281e-01 1.184354511311237618e-01
-1.076248829773106680e-01 1.737805264388555399e-02 -7.528442022970516234e-01 8.346375745928026335e-01 -5.479903289903151897e-01 5.555824341112537007e-02
1.364792423311988190e-01 3.647967513126042227e-02 -1.023103654265819396e+00 3.819088657224063797e-03 -3.707734685429486809e-01 9.287154836581864581e-01
5.115405482319188013e-02 5.062231110369150994e-02 -9.693527077849108942e-01 6.164893172223879780e-01 -6.308021502904750388e-01 4.712001368204248308e-01
6.301300472788935736e-02 1.207683229639143901e-01 -9.069848218109903826e-01 3.490548184271176080e-01 -5.946874721919774842e-01 7.242289307606593063e-01
1.379540799891403047e-01 1.247707616621687374e-02 -1.037654205982360578e+00 4.905820046373092214e-01 -7.558041769128529541e-01 4.336926825381353101e-01
8.856595437208902855e-02 1.128494644211148340e-01 -9.383857340952367343e-01 6.800605332652941426e-01 -5.412956222784620630e-01 4.944863197269427912e-01
-9.525292075006482062e-02 -1.018920700413707275e-01 -7.886107520173479823e-01 9.657720442147772477e-01 -2.492704193037293958e-01 -7.175386173129132128e-02
2.197273316877203786e-01 1.636991514088494970e-01 -9.242088883166521551e-01 -2.471358996718568957e-01 -7.716941155283407738e-01 5.860136851237468525e-01
-9.410216505577564949e-02 -1.050691079238738473e-01 -9.117457906270463042e-01 8.282480868901691551e-01 -3.814033488013624518e-01 4.105320841126560705e-01
-4.929402657737774751e-02 4.000597106856732671e-02 -8.591179226726590734e-01 8.985535219165974308e-01 -2.580867055469423521e-01 3.549546741081242018e-01
-7.784964969009723623e-02 -1.218032038508668619e-01 -9.552512842231581924e-01 8.482527178160573778e-01 -2.342525752967646868e-01 4.749663753198807292e-01
-9.409155847569076331e-03 1.389095537771504185e-01 -8.395761570192031842e-01 8.493294106476682037e-01 -4.562430527722480256e-01 2.654841407804695574e-01
1.179348347576181649e-01 3.004688070093236574e-02 -1.025595576504071849e+00 3.819088657224063797e-03 -3.707734685429486809e-01 9.287154836581864581e-01
1.410489227788711275e-01 1.213725553238626485e-03 -1.060783859820281672e+00 4.905820046373092214e-01 -7.558041769128529541e-01 4.336926825381353101e-01
-9.950310113326130135e-02 -8.048239284618002864e-02 -8.063745781592250861e-01 9.818634592074722001e-01 1.893032794549654174e-01 -1.041229373057857809e-02
-7.547115088770338376e-03 -2.622421047867303998e-02 -9.801358960592447822e-01 4.945213245988179795e-01 -4.486344683049149906e-01 7.444298310558200571e-01
-1.125754011682486427e-01 -1.321808609709780591e-01 -8.883928871823615347e-01 8.734547983308502683e-01 -4.868829734953007971e-01 -4.656757797876240855e-03
1.612011369749543344e-01 7.434277668283517659e-02 -1.007532082161030074e+00 -1.503183603101360989e-02 -3.870275680562839660e-01 9.219456087372915887e-01
5.627057443410233423e-03 1.792984782058578141e-01 -8.146476006783183177e-01 2.934014636331322423e-01 -6.606113860288189699e-01 6.910196652679418960e-01
-8.789522175346868582e-02 -9.905571525687265066e-02 -9.186815720797288920e-01 8.282480868901691551e-01 -3.814033488013624518e-01 4.105320841126560705e-01
9.207767416434679830e-02 1.019108632568780093e-01 -9.551894324528393820e-01 6.800605332652941426e-01 -5.412956222784620630e-01 4.944863197269427912e-01
1.893237321922298100e-01 1.309152542847355771e-01 -9.670420476630394724e-01 -3.321109423474282729e-01 -6.866071431283556903e-01 6.467402515525229045e-01
5.471904911121688170e-02 -9.680277232603753945e-02 -1.079563691374273438e+00 4.612097266206151569e-01 -6.605050165751807922e-01 5.924683207983000299e-01
-1.247042888102141561e-01 -1.545240349128350898e-01 -8.326629578358812900e-01 8.950233910972118512e-01 -4.400802148629953670e-01 -7.254332412418944276e-02
1.763194832025954117e-01 7.307782222176852083e-02 -1.007816606263893133e+00 -1.503183603101360989e-02 -3.870275680562839660e-01 9.219456087372915887e-01
-1.062515257677013186e-01 -2.167663313333225220e-02 -8.015985373780964984e-01 8.084017962654556078e-01 -4.370958058076421238e-01 3.942509256046871635e-01
-5.152601346940744939e-03 1.586844994232560480e-01 -8.242699831944388933e-01 9.421240378628864542e-01 -3.019052854304837830e-01 1.457926469684537873e-01
-5.464291871408900186e-02 5.946085494738218707e-02 -8.229650631045822839e-01 8.776454921480986160e-01 -4.062814257572154308e-01 2.543104268346190189e-01
