-7.488336003433032455e-03 2.062516956395898104e-01 -6.227380106084362543e-01 -4.323799774092717541e-01 -8.481965386337388946e-01 3.059578189641544155e-01
-5.432691870618782531e-02 5.026058615145886227e-02 -7.615089463544464365e-01 1.188179187810113890e-01 -4.837110153657282474e-01 8.671251096528143076e-01
-7.762945982842774095e-02 2.073685247007343163e-02 -7.787303617176020154e-01 -1.538416243480923151e-01 -8.019916839755901750e-01 5.771846268326430440e-01
-2.464185453658902514e-01 -8.274894767687737684e-02 -7.827773964959502395e-01 6.297491832826940250e-01 -6.075850109209111061e-01 4.840004345649043249e-01
-1.724667914964929660e-01 -9.631020394261137485e-02 -8.442556392796889408e-01 3.153278598729176152e-01 -3.923051792034785712e-01 8.640977879604208045e-01
-2.257886463917189446e-01 3.781721278771751904e-02 -7.286480119444619374e-01 6.350988458669225567e-01 -3.070901762925805079e-01 7.087630630916754715e-01
-6.219002076090573289e-02 3.901309679994849648e-04 -7.993036458957817336e-01 -2.500678701704253659e-01 -7.166807545907508681e-01 6.510259259873290016e-01
-5.609864181792012516e-02 8.272325189777218757e-02 -7.431574290413436312e-01 1.188179187810113890e-01 -4.837110153657282474e-01 8.671251096528143076e-01
-1.456661363211428362e-01 6.278316044399646911e-02 -7.545416429068469988e-01 -3.236020967050299429e-02 -6.021999070340079419e-01 7.976892181785543157e-01
-1.826245397185010388e-01 2.699083577514835297e-02 -7.591418936106396620e-01 4.852539265437467164e-01 -1.146128237956020868e-01 8.668290070108836121e-01
-3.487238681491236503e-02 1.761387715392583875e-01 -6.653443102553774358e-01 7.640788301727838294e-02 -6.643210481676886658e-01 7.435316942633994897e-01
1.219678196766984732e-02 -6.562416567009898838e-02 -8.331921966438226024e-01 -3.089636911377645068e-01 -2.953601752795102509e-01 9.040485630857365562e-01
1.858231945212096836e-01 6.651780709690692517e-02 -5.841026133569588996e-01 -8.810907556271079244e-01 -4.671865650743222687e-01 7.359207676447306057e-02
1.846979718567053064e-01 7.025875414509918926e-02 -5.738257337375202161e-01 -8.810907556271079244e-01 -4.671865650743222687e-01 7.359207676447306057e-02
9.878918988213206132e-02 -1.389864782281608202e-01 -8.333898075112420312e-01 -4.573519208214552600e-01 -6.285657490820754090e-01 6.290741765498045757e-01
2.304679721863574920e-02 -4.572485442143150308e-02 -8.223707830951314524e-01 -5.814892861490508214e-01 -8.025323062655517203e-01 1.334620076799455934e-01
1.842211207525047689e-01 -9.561198369350344672e-02 -7.553652066520990527e-01 -3.641158819071705910e-01 -7.618183327607522815e-01 5.357727619173926481e-01
6.235769568076899444e-02 6.021876523767665662e-02 -7.179692422426330323e-01 -5.788077428232706323e-01 -5.493464520762653125e-01 6.026608270321294203e-01
2.738781850731235659e-02 7.124297911584966114e-02 -7.415060680265910253e-01 -5.788077428232706323e-01 -5.493464520762653125e-01 6.026608270321294203e-01
3.367343764316904631e-02 -1.084208601830772140e-01 -8.419449433629468960e-01 -2.232158634919773066e-01 -4.699521378296099283e-01 8.540021466219570589e-01
-7.316819804399193883e-02 5.533906609227608880e-02 -7.560942740833866971e-01 1.188179187810113890e-01 -4.837110153657282474e-01 8.671251096528143076e-01
1.878123993813142489e-01 4.119837493185453392e-02 -6.235413822668791628e-01 -9.365935781640906121e-01 -3.451068844318175288e-01 6.077588057403439381e-02
1.965594119057462730e-01 -8.331082921785021300e-02 -7.330375739142850344e-01 -7.228099771909966831e-02 -7.817766310448414080e-01 6.193551134211370268e-01
-1.473145475017189343e-01 -1.591425369294255723e-02 -7.945353079115792250e-01 6.160391979258136308e-01 -1.965169939489756767e-01 7.628084803593747631e-01
4.835036593760007329e-02 -1.675687729464138409e-02 -7.849748977019563867e-01 -4.637746266368683590e-01 -4.152965344276132731e-01 7.825866624088655410e-01
-9.767925078943553996e-02 -1.068684715429888826e-01 -8.657948381098111712e-01 1.333965796951316375e-02 -4.159156668828387082e-01 9.093053456164547077e-01
1.195846985580600874e-01 6.980763481416170368e-02 -6.786283162307300554e-01 -2.181436592390749996e-01 -6.251673918678904984e-01 7.493857992241952370e-01
1.670433837366788049e-02 -8.489505178104651828e-02 -8.379476724112283614e-01 -3.089636911377645068e-01 -2.953601752795102509e-01 9.040485630857365562e-01
-1.887296310071261973e-01 7.174329234418777568e-02 -7.449268797756943838e-01 5.000376005584241668e-01 -2.166038234551680153e-01 8.384778957685026235e-01
1.992453256858321697e-01 -8.233867439713596012e-03 -6.499559419002629568e-01 -8.440867107500277244e-01 -1.298217934813868379e-01 5.202537137517375676e-01
1.579103031572861304e-01 7.790665557375904549e-02 -6.429942642552127774e-01 -6.996939772500345711e-01 -6.583092958202826361e-01 2.775918032590867224e-01
7.282335752892480480e-05 1.353349334548626659e-01 -7.048245480826748066e-01 -6.204162258653294071e-01 -5.436464959354574411e-01 5.652717878508701776e-01
3.917079273601674697e-03 1.705666394483641990e-01 -6.667214042166166310e-01 -6.204162258653294071e-01 -5.436464959354574411e-01 5.652717878508701776e-01
-1.274520460302705771e-01 4.974207652296028410e-03 -8.000730260911194103e-01 2.626627647984745573e-01 -4.550874451482545546e-01 8.508252989050428816e-01
1.405159773529884304e-01 -1.209671871023501877e-01 -7.980436733859989085e-01 -3.950539658142139254e-01 -4.386164031517797990e-01 8.071852420483524027e-01
-1.647059539020957475e-01 -6.360636657800737559e-02 -8.236591408046120000e-01 2.751530607646459070e-01 -7.631626269905060767e-01 5.846995792001197234e-01
-2.790451602734815573e-02 -1.112357624232772069e-01 -8.602007614918659728e-01 -2.239914115861328658e-01 -5.113031741773190753e-01 8.296968793552558230e-01
5.960325559878035685e-04 -6.073211371713348877e-02 -8.342694135903473418e-01 -2.018179980697928644e-01 -3.034663797064379165e-01 9.312237389816527822e-01
1.248479977764409277e-01 -8.255260274706537060e-02 -7.873973405181419194e-01 -4.746069640927790267e-01 -3.540062510154873832e-01 8.058708357277827306e-01
6.745614790219923995e-02 -3.138465453856811860e-02 -7.893176301417088592e-01 -1.934226171474779099e-01 -6.082534702182065267e-01 7.698151772622631173e-01
3.586557430267237750e-02 -3.100622377505097074e-02 -7.999353287349392216e-01 -4.637746266368683590e-01 -4.152965344276132731e-01 7.825866624088655410e-01
-4.004452627147048888e-02 -4.212396631101626709e-02 -8.315360005226359874e-01 -1.232938606655262087e-01 -5.356181008732880944e-01 8.354112005109113337e-01
3.392325356206005171e-02 5.037420157892703865e-02 -7.539053865307542290e-01 -4.766043730251521837e-01 -4.871885688344881893e-01 7.317756281882478175e-01
-5.521262814267514918e-02 -5.258823490383938287e-02 -8.364729446120522383e-01 -1.238180183754083313e-03 -5.461448832678191811e-01 8.376898193187097830e-01
-1.342956833538708206e-01 -4.980825316308654799e-02 -8.256916725323586448e-01 4.720106601211475628e-01 -5.991800359740766524e-01 6.466755146300985357e-01
-7.261483159617627969e-02 9.538838358961004849e-02 -7.308037383737671089e-01 1.204577379093758199e-01 -6.324689658335924669e-01 7.651620355422388275e-01
1.887375465859475118e-02 -1.603089868042494037e-02 -8.028473544830869724e-01 -6.287369679494824171e-01 -4.233318034881455305e-01 6.522882869477004686e-01
9.785568047784151680e-02 -1.179890005006521275e-01 -8.199284779388070765e-01 -4.695811166879941267e-01 -3.831994637875860144e-01 7.953940820769055398e-01
-1.974778882225677323e-01 -5.685247809069392949e-02 -7.990221443390106426e-01 3.558906506690756588e-01 -7.447328932908116039e-01 5.645482817412863508e-01
1.866837105356516091e-01 -9.531867393990205162e-02 -7.532745501690620848e-01 -3.641158819071705910e-01 -7.618183327607522815e-01 5.357727619173926481e-01
1.643613533545489336e-01 -7.875248549253799357e-02 -7.448894630365068270e-01 -3.641158819071705910e-01 -7.618183327607522815e-01 5.357727619173926481e-01
-4.152389364902762774e-03 3.742158946635065070e-02 -7.790303876142163908e-01 1.969347293156548662e-01 -5.280199326598400411e-01 8.260821164407735617e-01
1.450942775474041435e-01 -7.472058091232565424e-02 -7.612785419622700722e-01 -7.781834057581683561e-01 -3.520538878724250864e-01 5.200852305502702277e-01
1.919577818787311652e-01 2.853032973266141081e-02 -6.315921250911552542e-01 -9.365935781640906121e-01 -3.451068844318175288e-01 6.077588057403439381e-02
-1.697763305851087215e-04 1.598151722582485668e-01 -6.815471025334207678e-01 -6.204162258653294071e-01 -5.436464959354574411e-01 5.652717878508701776e-01
1.299754623080334459e-01 -1.278319405375075990e-01 -8.069326685716375902e-01 -3.950539658142139254e-01 -4.386164031517797990e-01 8.071852420483524027e-01
-2.101066959133559287e-01 -6.679205446497653298e-02 -8.028881864308973215e-01 5.375180665485901343e-01 -6.154424182489501849e-01 5.764589820219213623e-01
-6.522900396187754357e-02 -1.257694250885544873e-01 -8.752338726495288990e-01 7.422544377861364263e-03 -4.741399925770289903e-01 8.804181809083757582e-01
1.332968550560285348e-01 -4.246616004604946565e-02 -7.616623835003445420e-01 -8.321859428099807054e-01 -1.206357086475648571e-01 5.412149133094572573e-01
2.733432519266432159e-01 -1.077893754412846267e-01 -7.268361268988529078e-01 -3.608421729431847136e-01 -6.979236676116189475e-01 6.186238602035871725e-01
1.922580563776765950e-01 -1.017163301154064836e-01 -7.576383874048931988e-01 -4.429380933252504149e-01 -4.914324121633996123e-01 7.498666746540043615e-01
1.545804539104576360e-02 -2.352220401557941071e-02 -8.110015565325764397e-01 -6.287369679494824171e-01 -4.233318034881455305e-01 6.522882869477004686e-01
5.337273049720737093e-03 1.228690937893719137e-01 -7.131784608837730133e-01 -4.791197554018165605e-01 -6.193453099053835009e-01 6.219772078476091259e-01
2.033814412776858149e-01 -8.892722209609768558e-02 -7.390442277739089905e-01 -2.636747180945561708e-01 -7.105724963465381849e-01 6.523514163957992995e-01
1.883858077476866233e-01 5.842515946633249774e-02 -5.817984030380346505e-01 -9.913758485939466736e-01 -1.300036195566944275e-01 1.652227970923771452e-02
6.540764526066725204e-02 -4.614173129628416914e-02 -8.014923315078823496e-01 -1.934226171474779099e-01 -6.082534702182065267e-01 7.698151772622631173e-01
1.209261759288722364e-02 7.908514661381804700e-02 -7.490089845263894208e-01 -4.766043730251521837e-01 -4.871885688344881893e-01 7.317756281882478175e-01
-1.658545610981110863e-01 1.643451505277720992e-02 -7.712287265676764925e-01 6.160391979258136308e-01 -1.965169939489756767e-01 7.628084803593747631e-01
-7.618232698356493249e-02 -7.215483751892078079e-02 -8.494361305143832697e-01 -1.068470822823961233e-02 -5.557152894708410340e-01 8.313040082054318214e-01
1.483478715179180341e-01 8.344491278148566393e-02 -6.539632106999283545e-01 -6.996939772500345711e-01 -6.583092958202826361e-01 2.775918032590867224e-01
2.573762076237819940e-01 -9.880842670768899549e-02 -7.276902281660475591e-01 -2.265651756222385182e-01 -6.266763203898110257e-01 7.456172011548226619e-01
-1.006129037929401893e-01 -1.415512888119332402e-01 -8.869427128597060506e-01 -2.523119197822231916e-02 -5.694146072175392259e-01 8.216631864935008966e-01
-1.426750479825049378e-01 -5.722427415730364092e-02 -8.264468925542911570e-01 4.720106601211475628e-01 -5.991800359740766524e-01 6.466755146300985357e-01
-2.008555958382993445e-01 8.487045742708118623e-02 -7.306026319170875194e-01 6.350988458669225567e-01 -3.070901762925805079e-01 7.087630630916754715e-01
3.789241408377719972e-02 8.047327159492739801e-02 -7.231172938922153515e-01 -5.876117681466735965e-01 -4.973418880829427180e-01 6.382503084947421801e-01
3.948078459255312950e-02 -3.191384683415625367e-02 -7.982745413054812555e-01 -4.637746266368683590e-01 -4.152965344276132731e-01 7.825866624088655410e-01
-3.891789748884758732e-02 5.119165610935835081e-02 -7.631009877120510376e-01 1.188179187810113890e-01 -4.837110153657282474e-01 8.671251096528143076e-01
1.441959917854151729e-01 -9.578770034342692918e-02 -7.821427413696591113e-01 -4.429380933252504149e-01 -4.914324121633996123e-01 7.498666746540043615e-01
5.819776885652779008e-02 1.213867115346333875e-01 -6.725421003375555706e-01 -5.876117681466735965e-01 -4.973418880829427180e-01 6.382503084947421801e-01
-2.166263834692018775e-01 1.004276787978849450e-01 -7.093946821080211462e-01 6.295882848544741561e-01 -3.242825841959159350e-01 7.060165700330413019e-01
2.485266908691522170e-01 -9.899009787028970053e-02 -7.315098991499229264e-01 -3.857450166673966896e-01 -7.148322036383437661e-01 5.832801237465743416e-01
-4.802849490263762927e-02 2.362234563200193982e-02 -7.773907768051057099e-01 1.969347293156548662e-01 -5.280199326598400411e-01 8.260821164407735617e-01
1.254141916687426528e-01 4.317801506755821611e-02 -6.991468568551493235e-01 -2.181436592390749996e-01 -6.251673918678904984e-01 7.493857992241952370e-01
-1.712864836949975489e-01 9.986101839796270030e-02 -7.245749051673208152e-01 1.848441590265250400e-01 -7.898276185263438665e-01 5.848119098366424407e-01
-1.550467343947711518e-01 -5.377819330975969550e-03 -7.855764161379282795e-01 6.160391979258136308e-01 -1.965169939489756767e-01 7.628084803593747631e-01
2.136397803000191220e-01 -1.111435797250319990e-01 -7.586799391553676886e-01 -1.686484904030766396e-01 -5.653052195231064170e-01 8.074575502555509932e-01
2.473625670118619405e-02 1.432234548533088125e-01 -6.774360097252356550e-01 -4.724487842248546454e-01 -6.349087135860244091e-01 6.112962225443541175e-01
8.952451294602518928e-02 5.725491748402538467e-02 -6.987932915686462243e-01 -2.722094020800119862e-01 -6.874557638418441474e-01 6.732804870036479539e-01
1.535129526014470391e-01 -3.451868702889044488e-02 -7.288061173519885250e-01 -8.321859428099807054e-01 -1.206357086475648571e-01 5.412149133094572573e-01
-4.784431672456280343e-02 5.652141394747437625e-02 -7.589047291897486058e-01 1.188179187810113890e-01 -4.837110153657282474e-01 8.671251096528143076e-01
2.143108327430790772e-01 -6.992715320463169237e-02 -7.139308760055304015e-01 -2.636747180945561708e-01 -7.105724963465381849e-01 6.523514163957992995e-01
-1.040735197829307374e-02 1.934588992219796189e-01 -6.570652248388418881e-01 2.778859380060546558e-01 -5.875533068241233225e-01 7.599740239630119465e-01
-1.018391049194797282e-01 2.563530545441660910e-02 -7.783768051213181272e-01 -1.538416243480923151e-01 -8.019916839755901750e-01 5.771846268326430440e-01
-6.978021389085121810e-03 5.348697657705899638e-02 -7.680880012360619125e-01 1.969347293156548662e-01 -5.280199326598400411e-01 8.260821164407735617e-01
1.329953144786746692e-02 1.316850516239532753e-01 -6.982591380600546849e-01 -4.724487842248546454e-01 -6.349087135860244091e-01 6.112962225443541175e-01
1.863981891202351471e-01 5.642539021809871158e-02 -6.148222875316760039e-01 -8.489294644703708759e-01 -4.942256639707725552e-01 1.872425096678053957e-01
-8.668525715671489273e-02 1.382992463018148724e-02 -7.907411758278222180e-01 -1.538416243480923151e-01 -8.019916839755901750e-01 5.771846268326430440e-01
1.487872657346205330e-01 7.343501812146508573e-03 -7.232831669858266199e-01 -5.549068300457670189e-01 -4.024309412421375742e-01 7.280987209846789820e-01
5.934662822056076953e-02 8.582784483859517977e-02 -6.991928208966450287e-01 -5.876117681466735965e-01 -4.973418880829427180e-01 6.382503084947421801e-01
2.011271219371534025e-01 2.143041557042892759e-03 -6.401233021185233074e-01 -9.365935781640906121e-01 -3.451068844318175288e-01 6.077588057403439381e-02
-2.929937706972540051e-02 -8.014300800347880227e-02 -8.482954883788553779e-01 -2.532172476322333554e-01 -3.397396892103400901e-01 9.057913496367790973e-01
7.090938009998450087e-02 7.921097707681455657e-02 -6.937034955895674537e-01 -5.876117681466735965e-01 -4.973418880829427180e-01 6.382503084947421801e-01
-2.054791738216146454e-02 1.024374851729419195e-01 -7.331738569021788443e-01 1.204577379093758199e-01 -6.324689658335924669e-01 7.651620355422388275e-01
1.292755385027336557e-01 -8.396006943808596856e-02 -7.854080767494168169e-01 -4.746069640927790267e-01 -3.540062510154873832e-01 8.058708357277827306e-01
8.791841597734738334e-02 4.512620771656829233e-02 -7.118267097391063336e-01 -2.722094020800119862e-01 -6.874557638418441474e-01 6.732804870036479539e-01
-2.169154574088023590e-01 6.176529137089285804e-02 -7.262228466370759250e-01 6.350988458669225567e-01 -3.070901762925805079e-01 7.087630630916754715e-01
-8.873552239875794403e-03 -8.324514698021033554e-02 -8.437489099490194100e-01 -2.532172476322333554e-01 -3.397396892103400901e-01 9.057913496367790973e-01
1.152851957213899409e-01 -1.307359361442378409e-01 -8.157796510840457094e-01 -4.695811166879941267e-01 -3.831994637875860144e-01 7.953940820769055398e-01
3.890264808084053366e-02 -6.255731590335177061e-02 -8.230633511061852259e-01 -3.089636911377645068e-01 -2.953601752795102509e-01 9.040485630857365562e-01
-2.084540731392989510e-01 4.331830701664569905e-02 -7.405069633637945126e-01 5.000376005584241668e-01 -2.166038234551680153e-01 8.384778957685026235e-01
-2.706680693451710487e-02 7.364405776878459042e-02 -7.522001938313225278e-01 1.188179187810113890e-01 -4.837110153657282474e-01 8.671251096528143076e-01
1.622718764998979657e-01 7.307761509454131776e-02 -6.434526194253145093e-01 -6.996939772500345711e-01 -6.583092958202826361e-01 2.775918032590867224e-01
1.147657095928738685e-01 1.356117528633427830e-03 -7.458456591154930537e-01 -2.682592469268477164e-01 -6.936484938848650472e-01 6.684973772345700338e-01
1.563318442344469317e-01 -1.576369419227203333e-02 -7.202912672813703843e-01 -8.321859428099807054e-01 -1.206357086475648571e-01 5.412149133094572573e-01
1.018724577110423218e-01 -1.246301394306739696e-01 -8.210480617644883017e-01 -5.667194771611205883e-01 -4.891549720734553186e-01 6.629905334935356498e-01
1.027031400851757814e-01 3.781549413706922907e-02 -7.133138333050506041e-01 -2.722094020800119862e-01 -6.874557638418441474e-01 6.732804870036479539e-01
-1.636719880623820345e-01 -3.382753180746299933e-03 -7.780967421427124053e-01 6.160391979258136308e-01 -1.965169939489756767e-01 7.628084803593747631e-01
3.726668925507654190e-02 4.921703115410305807e-02 -7.520956222185799511e-01 -5.788077428232706323e-01 -5.493464520762653125e-01 6.026608270321294203e-01
3.367314858083550466e-02 -1.100499638134184582e-01 -8.428415046422736978e-01 -2.232158634919773066e-01 -4.699521378296099283e-01 8.540021466219570589e-01
6.406028995491190592e-02 -1.218180554058869713e-01 -8.424680223814167146e-01 -2.269973724333647636e-01 -5.658237814570077351e-01 7.926636368889647954e-01
-1.950364556133116212e-01 -7.700653819518547827e-02 -8.268761429370473648e-01 2.751530607646459070e-01 -7.631626269905060767e-01 5.846995792001197234e-01
-9.189202466761359211e-02 6.142920289428750735e-02 -7.518249870619785336e-01 -6.823894800681370998e-02 -5.667158774446724445e-01 8.210825538440323923e-01
-1.668194827490445398e-01 -7.225224287993886607e-02 -8.339493239242845579e-01 2.751530607646459070e-01 -7.631626269905060767e-01 5.846995792001197234e-01
2.096196437554339875e-01 -7.456223366046779710e-02 -7.204705441423518986e-01 -7.228099771909966831e-02 -7.817766310448414080e-01 6.193551134211370268e-01
-6.855084473172599890e-02 4.097214754814598910e-03 -7.976659877623718531e-01 -2.500678701704253659e-01 -7.166807545907508681e-01 6.510259259873290016e-01
1.211735528820508112e-01 -8.387093079729253386e-02 -7.901404767736260881e-01 -4.746069640927790267e-01 -3.540062510154873832e-01 8.058708357277827306e-01
-1.629753560779966248e-01 3.449936267004052870e-02 -7.691487922893963658e-01 4.852539265437467164e-01 -1.146128237956020868e-01 8.668290070108836121e-01
7.265365066957313323e-02 7.864248624435234147e-02 -6.925405982126775495e-01 -5.876117681466735965e-01 -4.973418880829427180e-01 6.382503084947421801e-01
2.010587241248298351e-01 -1.256034087189887571e-01 -7.714310651211334635e-01 -1.686484904030766396e-01 -5.653052195231064170e-01 8.074575502555509932e-01
1.258993562343486972e-01 -1.003820044147833296e-01 -7.948896041458461958e-01 -4.695811166879941267e-01 -3.831994637875860144e-01 7.953940820769055398e-01
-4.395910197690622995e-02 1.061608554635326898e-02 -7.866182214388969252e-01 1.959245139744557329e-01 -5.240934697116669261e-01 8.288182067434688438e-01
-2.058290897611763370e-01 7.696696776934756901e-02 -7.295704446374144947e-01 6.350988458669225567e-01 -3.070901762925805079e-01 7.087630630916754715e-01
1.254387297581707472e-01 4.937714382390114704e-02 -6.939681545243974181e-01 -2.181436592390749996e-01 -6.251673918678904984e-01 7.493857992241952370e-01
1.858049378171605925e-01 -1.107510187437189125e-01 -7.673711453785969638e-01 -4.429380933252504149e-01 -4.914324121633996123e-01 7.498666746540043615e-01
1.777784892277914641e-01 -9.247147609218676900e-02 -7.552781701158133298e-01 -3.641158819071705910e-01 -7.618183327607522815e-01 5.357727619173926481e-01
1.016964604108785142e-01 -1.796552406377190450e-02 -7.701116129408491773e-01 -1.934226171474779099e-01 -6.082534702182065267e-01 7.698151772622631173e-01
-7.995373796428602298e-02 3.040084486396800109e-02 -7.722487641142022907e-01 -6.823894800681370998e-02 -5.667158774446724445e-01 8.210825538440323923e-01
-7.580150701759251486e-02 -7.646719205373399275e-02 -8.522102629466357104e-01 1.333965796951316375e-02 -4.159156668828387082e-01 9.093053456164547077e-01
-8.155792316109888862e-02 7.421396358715258434e-02 -7.444156300249936686e-01 1.188179187810113890e-01 -4.837110153657282474e-01 8.671251096528143076e-01
1.472493131311896908e-01 -7.115536237855224488e-02 -7.556406930024991420e-01 -7.781834057581683561e-01 -3.520538878724250864e-01 5.200852305502702277e-01
9.284884748186704451e-02 -4.310090748645134529e-02 -7.873774498153711665e-01 -4.458026739033549846e-01 -3.540438286073753771e-01 8.221392481603407854e-01
1.485898697630921306e-01 6.179667392892410072e-02 -6.768680711581553933e-01 -2.181436592390749996e-01 -6.251673918678904984e-01 7.493857992241952370e-01
2.573065194741572942e-02 -6.888808885532571313e-02 -8.296332711263133541e-01 -3.089636911377645068e-01 -2.953601752795102509e-01 9.040485630857365562e-01
-1.207506023130488632e-01 2.546063511489805864e-02 -7.836601399432220338e-01 -1.538416243480923151e-01 -8.019916839755901750e-01 5.771846268326430440e-01
-3.543595202620052065e-02 -2.451138937897735792e-02 -8.164398411846687242e-01 -2.500678701704253659e-01 -7.166807545907508681e-01 6.510259259873290016e-01
1.479311037259046710e-02 1.279336324285238191e-01 -7.008513585052488226e-01 -4.791197554018165605e-01 -6.193453099053835009e-01 6.219772078476091259e-01
1.161072931239165267e-02 8.435364694595975932e-02 -7.447078731578694599e-01 -5.788077428232706323e-01 -5.493464520762653125e-01 6.026608270321294203e-01
-7.151279538815619695e-03 -8.639433679776339914e-02 -8.444486247532062562e-01 -2.532172476322333554e-01 -3.397396892103400901e-01 9.057913496367790973e-01
-1.913445867500811193e-01 -3.950147456225027581e-02 -7.796610689880226763e-01 2.751530607646459070e-01 -7.631626269905060767e-01 5.846995792001197234e-01
-1.843151936131278978e-01 7.999722239161491735e-03 -7.607064798180912524e-01 4.852539265437467164e-01 -1.146128237956020868e-01 8.668290070108836121e-01
1.476091639471399097e-01 1.713059725916325771e-02 -7.162980421597422431e-01 -2.682592469268477164e-01 -6.936484938848650472e-01 6.684973772345700338e-01
-2.381970998058079853e-02 4.511888410696487592e-03 -7.952388940871545353e-01 1.959245139744557329e-01 -5.240934697116669261e-01 8.288182067434688438e-01
-1.710226940452130306e-01 -4.275153722479246854e-02 -7.934663762344331683e-01 2.751530607646459070e-01 -7.631626269905060767e-01 5.846995792001197234e-01
1.435823444858271014e-01 -1.054902735110408857e-01 -7.881329264458287742e-01 -3.950539658142139254e-01 -4.386164031517797990e-01 8.071852420483524027e-01
-7.142507379312997007e-02 -3.645232114097307630e-02 -8.284369589877684792e-01 6.302110810072021618e-02 -3.583694076007133966e-01 9.314503248320176176e-01
1.251212862581335405e-01 -1.446524692020151499e-03 -7.445981887874699723e-01 -2.682592469268477164e-01 -6.936484938848650472e-01 6.684973772345700338e-01
-1.756315106412152660e-01 3.494791155179283182e-02 -7.620045249649218810e-01 4.852539265437467164e-01 -1.146128237956020868e-01 8.668290070108836121e-01
-8.075237410326750742e-02 -9.382749546338722824e-02 -8.600782242764887231e-01 1.333965796951316375e-02 -4.159156668828387082e-01 9.093053456164547077e-01
-1.421999385588935128e-01 9.671373698645341702e-03 -7.920743874567269804e-01 6.160391979258136308e-01 -1.965169939489756767e-01 7.628084803593747631e-01
-1.399459289574775112e-01 3.070989360151453809e-02 -7.814826366557028337e-01 -1.538416243480923151e-01 -8.019916839755901750e-01 5.771846268326430440e-01
1.651147013873089098e-01 -1.842587156990959513e-02 -7.073799146301779084e-01 -8.321859428099807054e-01 -1.206357086475648571e-01 5.412149133094572573e-01
-1.037480135684702709e-02 7.142297383250671705e-02 -7.558137880498579930e-01 1.969347293156548662e-01 -5.280199326598400411e-01 8.260821164407735617e-01
-2.410993637221255370e-01 -9.973801385862259006e-02 -8.070172191130189354e-01 5.461992093431623507e-01 -4.736206972081687949e-01 6.909051012179260320e-01
-2.127276772105091140e-01 -8.846745849916944071e-02 -8.217205762530978008e-01 5.461992093431623507e-01 -4.736206972081687949e-01 6.909051012179260320e-01
1.069323803640192215e-02 3.079712656565114157e-02 -7.820556138980262473e-01 -4.637746266368683590e-01 -4.152965344276132731e-01 7.825866624088655410e-01
-1.339430982447746277e-01 1.507537768176328910e-02 -7.926662489408144996e-01 2.626627647984745573e-01 -4.550874451482545546e-01 8.508252989050428816e-01
4.983864830424952763e-02 7.576247685352521799e-02 -7.158241529718926133e-01 -5.788077428232706323e-01 -5.493464520762653125e-01 6.026608270321294203e-01
-3.792450345306019877e-02 1.637220407758855634e-01 -6.761246036663233205e-01 7.640788301727838294e-02 -6.643210481676886658e-01 7.435316942633994897e-01
-1.011090907585242837e-01 4.501129968341471138e-02 -7.639227344458442426e-01 -6.823894800681370998e-02 -5.667158774446724445e-01 8.210825538440323923e-01
1.763186336753156669e-01 9.197663808047713829e-03 -6.827187073266318684e-01 -8.479988857367850574e-01 -2.178583011246769119e-01 4.831517881786638324e-01
-6.303115827591400377e-02 -5.364891841412058882e-02 -8.371760301783334191e-01 -1.238180183754083313e-03 -5.461448832678191811e-01 8.376898193187097830e-01
-3.815557604602904523e-02 9.408174194012762503e-02 -7.373086275804667800e-01 1.204577379093758199e-01 -6.324689658335924669e-01 7.651620355422388275e-01
-1.760677546485928946e-01 -5.274249614425419869e-02 -8.041326445373783161e-01 2.751530607646459070e-01 -7.631626269905060767e-01 5.846995792001197234e-01
5.569122204581990893e-02 1.164499312740501363e-01 -6.786966512511238836e-01 -5.876117681466735965e-01 -4.973418880829427180e-01 6.382503084947421801e-01
-8.058113324487446716e-02 -1.224099405400870255e-01 -8.732952281771830805e-01 7.422544377861364263e-03 -4.741399925770289903e-01 8.804181809083757582e-01
-1.637410028526560257e-01 4.785863637604336612e-02 -7.659993034584023919e-01 5.000376005584241668e-01 -2.166038234551680153e-01 8.384778957685026235e-01
1.708511377155777777e-01 -3.538962144950873884e-02 -7.023406083969349067e-01 -8.321859428099807054e-01 -1.206357086475648571e-01 5.412149133094572573e-01
8.606345564805999160e-02 -3.898978884734285305e-02 -7.892864082353174826e-01 -4.458026739033549846e-01 -3.540438286073753771e-01 8.221392481603407854e-01
-3.073250052794701190e-02 -3.477558204637249545e-02 -8.254503229236976880e-01 -1.232938606655262087e-01 -5.356181008732880944e-01 8.354112005109113337e-01
-2.347117969420467465e-01 -7.495092039729704669e-02 -7.882202650986491754e-01 6.297491832826940250e-01 -6.075850109209111061e-01 4.840004345649043249e-01
4.171774078209017356e-02 5.618335961626445829e-02 -7.414706892131273097e-01 -5.788077428232706323e-01 -5.493464520762653125e-01 6.026608270321294203e-01
1.797885535873195439e-01 7.384752971698883839e-02 -5.974744771941644661e-01 -6.996939772500345711e-01 -6.583092958202826361e-01 2.775918032590867224e-01
1.446830936701694326e-01 3.164208663649431541e-02 -7.031614745607783767e-01 -2.181436592390749996e-01 -6.251673918678904984e-01 7.493857992241952370e-01
-1.190527831137693782e-01 -4.501923402776646793e-02 -8.318473648048874125e-01 -1.068470822823961233e-02 -5.557152894708410340e-01 8.313040082054318214e-01
1.087043899034834810e-01 -3.292028713134059759e-02 -7.743956720450624331e-01 -4.458026739033549846e-01 -3.540438286073753771e-01 8.221392481603407854e-01
-2.389146409052007175e-02 7.920577337410786289e-02 -7.495327869614967220e-01 1.188179187810113890e-01 -4.837110153657282474e-01 8.671251096528143076e-01
7.116083256119980216e-02 2.399731857353403289e-02 -7.425316474339377359e-01 -5.788077428232706323e-01 -5.493464520762653125e-01 6.026608270321294203e-01
1.150412558534905511e-01 -1.598631894130824599e-02 -7.618967948969319615e-01 -5.549068300457670189e-01 -4.024309412421375742e-01 7.280987209846789820e-01
8.293430457406208989e-02 -1.122959776832250095e-01 -8.281361021838612446e-01 -5.667194771611205883e-01 -4.891549720734553186e-01 6.629905334935356498e-01
8.661967795807774817e-02 -9.733076296710685416e-02 -8.166093547584863943e-01 -4.695811166879941267e-01 -3.831994637875860144e-01 7.953940820769055398e-01
1.180087642080960841e-01 -5.077036673904367775e-02 -7.770373116287746518e-01 -4.458026739033549846e-01 -3.540438286073753771e-01 8.221392481603407854e-01
-4.154825140236423353e-02 1.013162719759588826e-01 -7.307945959147333914e-01 1.204577379093758199e-01 -6.324689658335924669e-01 7.651620355422388275e-01
3.573269118880581519e-02 1.492872541422845256e-01 -6.626392372654889007e-01 -4.724487842248546454e-01 -6.349087135860244091e-01 6.112962225443541175e-01
1.849256491862650009e-01 -5.155126455696060206e-02 -6.943069895247462320e-01 -7.228099771909966831e-02 -7.817766310448414080e-01 6.193551134211370268e-01
-1.546846643326796056e-01 5.630343819981464826e-02 -7.597992413485077368e-01 -3.236020967050299429e-02 -6.021999070340079419e-01 7.976892181785543157e-01
-1.957869041155157475e-01 -5.844697675952371940e-02 -8.021915473803180596e-01 3.558906506690756588e-01 -7.447328932908116039e-01 5.645482817412863508e-01
1.599664761038189220e-01 -4.773364120389656136e-03 -7.122528416975854038e-01 -8.321859428099807054e-01 -1.206357086475648571e-01 5.412149133094572573e-01
-1.594645382887331930e-01 1.400502060018053545e-02 -7.770151612842614020e-01 6.160391979258136308e-01 -1.965169939489756767e-01 7.628084803593747631e-01
2.313261684669805709e-02 1.721075510611271009e-01 -6.486756051645191645e-01 -4.724487842248546454e-01 -6.349087135860244091e-01 6.112962225443541175e-01
-2.479670640877676135e-01 -1.031422922689169130e-01 -8.021785498536105896e-01 6.976863154922501309e-01 -3.966810265155754078e-01 5.965550841099235280e-01
-4.882009315942203997e-02 1.235674725550112429e-01 -7.111915104175171587e-01 7.396458655497550883e-02 -6.740162752584184513e-01 7.350042861252712445e-01
1.154707071677490843e-01 4.542449458041609989e-02 -7.003826654166657173e-01 -2.722094020800119862e-01 -6.874557638418441474e-01 6.732804870036479539e-01
-1.755775207839772867e-01 -1.886802814514734446e-03 -7.680965196829857566e-01 6.160391979258136308e-01 -1.965169939489756767e-01 7.628084803593747631e-01
-3.951440133457958387e-02 9.105016046361630311e-02 -7.396005606604632021e-01 1.204577379093758199e-01 -6.324689658335924669e-01 7.651620355422388275e-01
4.869120218581487330e-02 -1.208065840950274007e-02 -7.822913754776970041e-01 -4.637746266368683590e-01 -4.152965344276132731e-01 7.825866624088655410e-01
6.481136018570428370e-02 -7.387165770304839237e-03 -7.709140127261945308e-01 -1.657986385451470090e-01 -6.167328649147995057e-01 7.695137326848425774e-01
-1.535016932468940276e-01 7.222331497188291816e-02 -7.477438784274512695e-01 -4.222245653707957375e-02 -6.008153166040236526e-01 7.982720209915797893e-01
-1.825893630860694061e-01 4.529771715884153144e-02 -7.554203913888823951e-01 5.000376005584241668e-01 -2.166038234551680153e-01 8.384778957685026235e-01
7.107810191834383617e-02 6.292505856459509319e-04 -7.631124612805635365e-01 -1.934226171474779099e-01 -6.082534702182065267e-01 7.698151772622631173e-01
1.130943766376158593e-01 -1.846764401037336717e-02 -7.647520375959206973e-01 -5.549068300457670189e-01 -4.024309412421375742e-01 7.280987209846789820e-01
1.981089552866686643e-01 1.027376239135493335e-02 -6.404660000302931921e-01 -9.365935781640906121e-01 -3.451068844318175288e-01 6.077588057403439381e-02
-1.390324246738274261e-01 5.797535408625058284e-02 -7.579020897836297177e-01 -3.236020967050299429e-02 -6.021999070340079419e-01 7.976892181785543157e-01
1.279838643024319433e-01 -3.554573628859486727e-03 -7.451616181370851466e-01 -5.549068300457670189e-01 -4.024309412421375742e-01 7.280987209846789820e-01
-1.785564300663436688e-01 -2.829920014452659213e-02 -7.734562953293727672e-01 4.720106601211475628e-01 -5.991800359740766524e-01 6.466755146300985357e-01
1.107824769303297346e-01 -7.247559209969720029e-02 -7.912543722515603672e-01 -4.746069640927790267e-01 -3.540062510154873832e-01 8.058708357277827306e-01
-2.377926026621128841e-01 -7.594852148258311730e-02 -7.854640538961423779e-01 6.297491832826940250e-01 -6.075850109209111061e-01 4.840004345649043249e-01
1.667568880343877069e-01 7.663365473306836539e-02 -6.237146104329764906e-01 -6.996939772500345711e-01 -6.583092958202826361e-01 2.775918032590867224e-01
4.662970358665973619e-02 -1.018669972638960725e-01 -8.349519328608748792e-01 -2.232158634919773066e-01 -4.699521378296099283e-01 8.540021466219570589e-01
6.171282292009635378e-02 -9.259134682481137690e-02 -8.262540708945831369e-01 -2.806948989735906230e-01 -3.212478399304113941e-01 9.044391627026389102e-01
2.310767276290853767e-02 -6.119990990069643089e-02 -8.280178971158597134e-01 -3.089636911377645068e-01 -2.953601752795102509e-01 9.040485630857365562e-01
1.553725500170519136e-02 2.970313268252155678e-02 -7.796421766925785146e-01 -4.766043730251521837e-01 -4.871885688344881893e-01 7.317756281882478175e-01
-1.546164937249157670e-02 1.839390345849462594e-01 -6.625771366194771472e-01 2.778859380060546558e-01 -5.875533068241233225e-01 7.599740239630119465e-01
1.152245775622712104e-01 -8.389955582015870550e-02 -7.936566215792071333e-01 -4.746069640927790267e-01 -3.540062510154873832e-01 8.058708357277827306e-01
-1.576181543899705245e-02 -2.931731231107558358e-02 -8.185351997166222526e-01 1.959245139744557329e-01 -5.240934697116669261e-01 8.288182067434688438e-01
-9.610095904803513112e-02 4.655248877888478777e-03 -8.059989289287257108e-01 -1.538416243480923151e-01 -8.019916839755901750e-01 5.771846268326430440e-01
-1.792647510630328636e-02 1.168258507671827429e-01 -7.204826079281452245e-01 7.396458655497550883e-02 -6.740162752584184513e-01 7.350042861252712445e-01
1.523127049309043191e-01 -3.370044134650389267e-02 -7.304692636723095767e-01 -8.321859428099807054e-01 -1.206357086475648571e-01 5.412149133094572573e-01
-4.663096857482311973e-03 2.039924970277086080e-01 -6.250084791551583363e-01 -4.323799774092717541e-01 -8.481965386337388946e-01 3.059578189641544155e-01
-1.391380000030103051e-02 2.151350258736049459e-01 -6.058339807403809729e-01 1.049845420387955502e-01 -9.167258358513935557e-01 3.854763129110115871e-01
1.879894011481000049e-01 6.287811837519612090e-02 -5.705461515262697514e-01 -9.913758485939466736e-01 -1.300036195566944275e-01 1.652227970923771452e-02
6.685005204819138847e-02 -6.601108759785750957e-02 -8.117218994173189817e-01 -4.230034781167130165e-01 -4.228228612135981335e-01 8.014292766902827436e-01
5.577151495430959088e-02 2.400740170712141464e-02 -7.572296658290007532e-01 -4.766043730251521837e-01 -4.871885688344881893e-01 7.317756281882478175e-01
-9.726369866125889052e-02 3.287071713222177588e-02 -7.719826491898795773e-01 -6.823894800681370998e-02 -5.667158774446724445e-01 8.210825538440323923e-01
9.436418772037080682e-02 5.834914579936684165e-02 -6.957193297074650840e-01 -2.722094020800119862e-01 -6.874557638418441474e-01 6.732804870036479539e-01
1.358229582936566759e-01 3.815892494309568173e-02 -7.003040245567971889e-01 -2.181436592390749996e-01 -6.251673918678904984e-01 7.493857992241952370e-01
-6.700343278662583557e-02 1.055179632398228623e-01 -7.233142027036758570e-01 1.204577379093758199e-01 -6.324689658335924669e-01 7.651620355422388275e-01
-1.530568492872190212e-01 -5.607745923696177276e-02 -8.193141848559777340e-01 2.751530607646459070e-01 -7.631626269905060767e-01 5.846995792001197234e-01
7.982698029095769421e-02 4.486705646812790688e-02 -7.153627098691609509e-01 -2.722094020800119862e-01 -6.874557638418441474e-01 6.732804870036479539e-01
-2.052418095315278468e-01 9.007402112118996496e-02 -7.243024133047623048e-01 6.295882848544741561e-01 -3.242825841959159350e-01 7.060165700330413019e-01
8.634574328261485077e-02 -1.447061433214387460e-01 -8.481515321598582791e-01 -4.573519208214552600e-01 -6.285657490820754090e-01 6.290741765498045757e-01
-1.436398590279262810e-01 4.405903638270623063e-02 -7.681146608246609553e-01 -6.823894800681370998e-02 -5.667158774446724445e-01 8.210825538440323923e-01
-1.510447300531505416e-02 -7.565636831985553083e-03 -8.049361722274335218e-01 1.959245139744557329e-01 -5.240934697116669261e-01 8.288182067434688438e-01
-1.359409986811682958e-01 3.258560247570595203e-02 -7.778088938025622401e-01 -1.538416243480923151e-01 -8.019916839755901750e-01 5.771846268326430440e-01
-1.819838040467024465e-01 -4.004030471533984864e-02 -7.847694411390799818e-01 2.751530607646459070e-01 -7.631626269905060767e-01 5.846995792001197234e-01
9.148156229279863494e-02 -1.370492813570894919e-01 -8.377493196326523117e-01 -5.601344641964924875e-01 -4.446651822502045714e-01 6.989436727760688361e-01
-1.115919532144030168e-01 -3.649635089663273019e-02 -8.260649246641807997e-01 -1.238180183754083313e-03 -5.461448832678191811e-01 8.376898193187097830e-01
1.560797635108622239e-01 -4.366411517482567117e-02 -7.268978204333377269e-01 -8.321859428099807054e-01 -1.206357086475648571e-01 5.412149133094572573e-01
-6.272320519459126387e-02 1.272813837462523912e-01 -7.059987833391484502e-01 1.204577379093758199e-01 -6.324689658335924669e-01 7.651620355422388275e-01
1.117367139232075058e-03 1.075998383904171185e-02 -7.969363008884532418e-01 -1.007804160489192934e-02 -4.986007975281346316e-01 8.667731408977313867e-01
-1.571782502366573520e-01 -5.886425039837378526e-02 -8.210120803446301352e-01 2.751530607646459070e-01 -7.631626269905060767e-01 5.846995792001197234e-01
1.786319184145362948e-02 -7.528648137473991156e-03 -7.983035125748521033e-01 -6.287369679494824171e-01 -4.233318034881455305e-01 6.522882869477004686e-01
-2.042132909157806098e-01 -7.889821959938501938e-02 -8.213083334611022135e-01 5.375180665485901343e-01 -6.154424182489501849e-01 5.764589820219213623e-01
-1.613698582625805178e-01 -6.742882455935635122e-02 -8.302182253965143532e-01 2.751530607646459070e-01 -7.631626269905060767e-01 5.846995792001197234e-01
-1.446817138397511193e-01 1.036214317578228877e-01 -7.236716515049999021e-01 -3.236020967050299429e-02 -6.021999070340079419e-01 7.976892181785543157e-01
1.772452455157928208e-01 4.601718662772982110e-02 -6.604888447534890128e-01 -6.323807103623912962e-01 -5.551071962414788619e-01 5.403245671283898321e-01
1.681168231748421393e-01 6.714040158757121277e-03 -6.967304107384814094e-01 -8.440867107500277244e-01 -1.298217934813868379e-01 5.202537137517375676e-01
-1.559361768672006543e-01 -9.767321715492609246e-02 -8.504980659804235454e-01 2.272244949730191088e-01 -2.993814376584183479e-01 9.266821373425921937e-01
1.571497371411625654e-01 -1.054579062047196203e-01 -7.808285681838476044e-01 -4.429380933252504149e-01 -4.914324121633996123e-01 7.498666746540043615e-01
-2.106752289500309072e-02 3.652942375682968063e-02 -7.755681458971959152e-01 1.969347293156548662e-01 -5.280199326598400411e-01 8.260821164407735617e-01
1.328953479034817031e-01 5.731886988665185062e-02 -6.851722550769170361e-01 -2.181436592390749996e-01 -6.251673918678904984e-01 7.493857992241952370e-01
1.244361017034316813e-01 -8.852908070537444940e-02 -7.902652930467168879e-01 -4.746069640927790267e-01 -3.540062510154873832e-01 8.058708357277827306e-01
1.978074823950854988e-01 -8.836607852807380759e-02 -7.392728723900064969e-01 -7.228099771909966831e-02 -7.817766310448414080e-01 6.193551134211370268e-01
1.006283112760763543e-01 -1.403625922987042363e-01 -8.334277242948557873e-01 -4.573519208214552600e-01 -6.285657490820754090e-01 6.290741765498045757e-01
1.292246656463604537e-01 -1.051158117198290887e-01 -7.952070441666247991e-01 -4.695811166879941267e-01 -3.831994637875860144e-01 7.953940820769055398e-01
1.232392812607202154e-01 1.442240110367484784e-02 -7.288966195761353850e-01 -2.722094020800119862e-01 -6.874557638418441474e-01 6.732804870036479539e-01
-9.969226205352509085e-02 -9.241105635507619598e-02 -8.591524947098174714e-01 1.333965796951316375e-02 -4.159156668828387082e-01 9.093053456164547077e-01
8.142068696388690685e-02 -7.692306404405891904e-03 -7.670889041199016045e-01 -1.934226171474779099e-01 -6.082534702182065267e-01 7.698151772622631173e-01
-2.428495844288593858e-02 1.213992615397850861e-01 -7.156488185852111217e-01 7.396458655497550883e-02 -6.740162752584184513e-01 7.350042861252712445e-01
1.560766998257540322e-03 1.277418200507058621e-01 -7.112354612279790933e-01 -4.791197554018165605e-01 -6.193453099053835009e-01 6.219772078476091259e-01
1.139462641529403464e-01 -1.343551953502796215e-01 -8.183223773818257829e-01 -3.950539658142139254e-01 -4.386164031517797990e-01 8.071852420483524027e-01
1.175434015237111079e-01 -1.277894174250268355e-01 -8.130269084562782300e-01 -4.695811166879941267e-01 -3.831994637875860144e-01 7.953940820769055398e-01
-2.674991698571927909e-02 -3.052447644774806262e-02 -8.197229139621869942e-01 -2.500678701704253659e-01 -7.166807545907508681e-01 6.510259259873290016e-01
5.157273207326042858e-02 -9.079062398659372424e-02 -8.287614738767452582e-01 -2.806948989735906230e-01 -3.212478399304113941e-01 9.044391627026389102e-01
5.597901694838168518e-02 -8.869820101614291075e-02 -8.266507646924541319e-01 -2.806948989735906230e-01 -3.212478399304113941e-01 9.044391627026389102e-01
-1.144637396697405912e-02 1.110789267412469333e-01 -7.264047751997213531e-01 7.396458655497550883e-02 -6.740162752584184513e-01 7.350042861252712445e-01
1.377521926418357745e-01 -3.506973352806628391e-02 -7.531630935681618011e-01 -8.321859428099807054e-01 -1.206357086475648571e-01 5.412149133094572573e-01
1.546033830856573428e-02 2.664639917402179120e-02 -7.814332196365824101e-01 -4.637746266368683590e-01 -4.152965344276132731e-01 7.825866624088655410e-01
-7.249064855769944693e-02 2.907781329777728643e-02 -7.725416818285156806e-01 -6.823894800681370998e-02 -5.667158774446724445e-01 8.210825538440323923e-01
-1.715014792780639175e-02 1.788296307034822341e-01 -6.659099309805012190e-01 2.778859380060546558e-01 -5.875533068241233225e-01 7.599740239630119465e-01
4.471539779887108434e-02 -2.116197268835834366e-02 -7.894667029052158114e-01 -4.637746266368683590e-01 -4.152965344276132731e-01 7.825866624088655410e-01
1.992495140396284004e-01 -1.136457928775566339e-01 -7.634373543725254674e-01 -1.686484904030766396e-01 -5.653052195231064170e-01 8.074575502555509932e-01
9.939338480181181268e-02 -2.139306981437519295e-02 -7.733984843661813047e-01 -1.934226171474779099e-01 -6.082534702182065267e-01 7.698151772622631173e-01
5.763566801356240395e-03 3.828446150622159122e-02 -7.802946406585297145e-01 -4.766043730251521837e-01 -4.871885688344881893e-01 7.317756281882478175e-01
-1.595698548235502945e-01 -7.419762627753469231e-02 -8.389227760693457325e-01 3.153278598729176152e-01 -3.923051792034785712e-01 8.640977879604208045e-01
2.441966270426853824e-01 -1.119854508070771831e-01 -7.502477828141522753e-01 -3.925434373255375919e-01 -7.126847938344567090e-01 5.813691034530384938e-01
3.375717365749547616e-02 -8.978567112686788865e-02 -8.339336265511982926e-01 -2.806948989735906230e-01 -3.212478399304113941e-01 9.044391627026389102e-01
2.271958086323972240e-02 3.784195523578940540e-02 -7.695458179984314695e-01 -4.766043730251521837e-01 -4.871885688344881893e-01 7.317756281882478175e-01
-2.210182112858039699e-02 4.029307929371121061e-02 -7.729158982063244476e-01 1.969347293156548662e-01 -5.280199326598400411e-01 8.260821164407735617e-01
-2.097121676304812554e-01 7.074995616016201139e-02 -7.287846318444909377e-01 6.350988458669225567e-01 -3.070901762925805079e-01 7.087630630916754715e-01
-1.333261342029092023e-01 2.415654440180530632e-02 -7.879994019562670537e-01 2.626627647984745573e-01 -4.550874451482545546e-01 8.508252989050428816e-01
2.205309134316523270e-02 8.113393899242031526e-02 -7.376136923782236066e-01 -5.788077428232706323e-01 -5.493464520762653125e-01 6.026608270321294203e-01
-3.948627187885388884e-02 -1.619152087317076924e-02 -8.088367111368623963e-01 -2.500678701704253659e-01 -7.166807545907508681e-01 6.510259259873290016e-01
9.708030447637794325e-02 -1.500910161980192892e-01 -8.457277710445540997e-01 -4.573519208214552600e-01 -6.285657490820754090e-01 6.290741765498045757e-01
1.616576332020579765e-01 3.869524033887049904e-03 -7.077259928594606953e-01 -8.321859428099807054e-01 -1.206357086475648571e-01 5.412149133094572573e-01
-1.367891919304674853e-01 9.566451844966969431e-02 -7.293583885038931180e-01 -3.236020967050299429e-02 -6.021999070340079419e-01 7.976892181785543157e-01
-2.879230014433575499e-02 -3.957314728962802591e-02 -8.282399048531987606e-01 -1.232938606655262087e-01 -5.356181008732880944e-01 8.354112005109113337e-01
1.336119456915833489e-03 1.879859827435195752e-01 -6.528012055361800403e-01 -6.204162258653294071e-01 -5.436464959354574411e-01 5.652717878508701776e-01
1.247743718986661643e-01 6.027451253540384857e-02 -6.850705291250648310e-01 -2.181436592390749996e-01 -6.251673918678904984e-01 7.493857992241952370e-01
-1.494896421628051641e-01 2.170329351375909301e-04 -7.886229253893198843e-01 6.160391979258136308e-01 -1.965169939489756767e-01 7.628084803593747631e-01
-1.148699076038348088e-01 -3.770660563405348054e-02 -8.269052110699949276e-01 -1.068470822823961233e-02 -5.557152894708410340e-01 8.313040082054318214e-01
1.930797052558425875e-01 3.131579132965211978e-03 -6.560359475031657395e-01 -8.479988857367850574e-01 -2.178583011246769119e-01 4.831517881786638324e-01
-1.336589909339654103e-01 -1.181405936407534385e-01 -8.625728373282453010e-01 2.272244949730191088e-01 -2.993814376584183479e-01 9.266821373425921937e-01
-1.814670139716998212e-02 1.533615915990162171e-01 -6.874137585298653041e-01 7.640788301727838294e-02 -6.643210481676886658e-01 7.435316942633994897e-01
6.622330328265392529e-02 6.487700879909223672e-02 -7.100104817443295691e-01 -5.788077428232706323e-01 -5.493464520762653125e-01 6.026608270321294203e-01
5.464073811253981894e-02 -1.083199721501832274e-01 -8.364090712989166176e-01 -2.232158634919773066e-01 -4.699521378296099283e-01 8.540021466219570589e-01
2.245101585549369796e-02 -8.587667358323969324e-02 -8.363044169936889594e-01 -3.089636911377645068e-01 -2.953601752795102509e-01 9.040485630857365562e-01
-1.286397873373527068e-01 -7.606799155436057280e-02 -8.502112414426296061e-01 2.272244949730191088e-01 -2.993814376584183479e-01 9.266821373425921937e-01
2.359726207461014438e-03 1.037372014470152731e-01 -7.345230521953357572e-01 -4.791197554018165605e-01 -6.193453099053835009e-01 6.219772078476091259e-01
-1.605672882675377722e-01 8.000197407168790908e-02 -7.422630264921653565e-01 -4.222245653707957375e-02 -6.008153166040236526e-01 7.982720209915797893e-01
1.973510530784427786e-01 1.677426972855829146e-02 -6.152335644195972009e-01 -9.365935781640906121e-01 -3.451068844318175288e-01 6.077588057403439381e-02
1.581362092100433714e-01 2.254916398012354016e-03 -7.135005175525429566e-01 -8.321859428099807054e-01 -1.206357086475648571e-01 5.412149133094572573e-01
-4.691412953363337940e-02 -1.757502521490696828e-02 -8.132128801426576903e-01 -2.500678701704253659e-01 -7.166807545907508681e-01 6.510259259873290016e-01
