1.552738918266307333e-01 1.693908892390106335e-01 -1.018253044007133346e+00 1.289134295206018910e-01 -7.196111798252172731e-01 6.823057068204805287e-01
1.715836117247952070e-02 -1.507918158390991574e-02 -1.036980664671407038e+00 7.304988979174578123e-01 -2.493065888027093391e-01 6.357810825440910474e-01
-6.624382322885341567e-02 -1.217448748336150688e-01 -9.365412826238178612e-01 9.621223994465372131e-01 -9.024305789210561313e-02 2.572482827649585357e-01
1.144349216393393126e-01 8.215774526118642396e-02 -1.060153561937210664e+00 2.627483263261370383e-01 -3.054392139731993971e-01 9.152432483117524109e-01
4.440944313663594545e-02 1.360863443322308797e-01 -9.334013101959915959e-01 5.925683597782047674e-01 -4.846276375676594195e-01 6.434273788823081652e-01
1.117579290011648657e-01 1.459618228908919624e-01 -1.026032092021890607e+00 5.200109742960563608e-01 -5.813495066740130834e-01 6.257965625517192265e-01
1.015692890118725933e-01 1.220000022003756152e-01 -1.039825692924173817e+00 5.200109742960563608e-01 -5.813495066740130834e-01 6.257965625517192265e-01
1.072140347615025413e-01 5.006870092518745340e-03 -1.117751617584983093e+00 6.797269478008363119e-01 -6.521646383059378493e-01 3.356375440510853680e-01
-7.785600540988106555e-02 -1.761560768110988495e-01 -8.907047514860840787e-01 9.885660443335784198e-01 1.029128672828022589e-01 1.102094267215538437e-01
-1.813982039589500522e-02 1.173209312002517213e-01 -8.436643457715030658e-01 9.385053470938713449e-01 -3.395714803764272038e-01 6.244135801833426702e-02
-8.087040467568797075e-02 -1.414810049545051629e-01 -8.887605442175150472e-01 9.621223994465372131e-01 -9.024305789210561313e-02 2.572482827649585357e-01
-5.849792758752810767e-02 -9.612786259446362558e-02 -9.437559141361945292e-01 9.514257710484399500e-01 -2.297224553900099886e-01 2.049795006201014513e-01
1.254001154023594300e-01 4.281997691724684363e-02 -1.081108511749269141e+00 6.797269478008363119e-01 -6.521646383059378493e-01 3.356375440510853680e-01
1.065138456491931951e-01 -1.004157804161886353e-02 -1.144899715462713408e+00 8.859479946399977379e-01 -3.233786245995992625e-01 3.324491178292369176e-01
-8.004874163181904118e-03 1.489131209994090932e-01 -8.310954941011770014e-01 9.424375171213247304e-01 -3.277047704763030866e-01 6.649142598310098240e-02
1.687932637494828428e-02 -3.275821154827333187e-02 -1.044322071368072535e+00 7.482405242138976398e-01 -3.055569356795457270e-01 5.888727171318411946e-01
-3.157081007195902678e-02 5.097907122953587028e-02 -8.973340244033655155e-01 9.844641319733385965e-01 -1.181587280557259839e-01 1.298802827308051522e-01
1.205188237453185957e-01 -1.833542193729818500e-04 -1.172575503322148105e+00 7.967780962679260615e-01 -5.437836748093957118e-01 2.635222577287331669e-01
9.866429012878628890e-02 2.825990938535739155e-02 -1.073728666442529622e+00 3.753036137323281785e-01 -4.709552305438014508e-01 7.983410100595423886e-01
-1.930954587819516330e-02 1.339797984473444468e-02 -9.621009949897197933e-01 7.172597799411649655e-01 -3.211496830787721746e-01 6.183860356906161204e-01
-7.886969158103540600e-02 -1.406958619799411336e-01 -8.959678894343463540e-01 9.621223994465372131e-01 -9.024305789210561313e-02 2.572482827649585357e-01
-2.753772216989270813e-02 7.842170385356074525e-02 -9.029379836804879433e-01 9.844641319733385965e-01 -1.181587280557259839e-01 1.298802827308051522e-01
9.427854059418047661e-02 1.486473873464002893e-01 -1.009012622749740240e+00 5.200109742960563608e-01 -5.813495066740130834e-01 6.257965625517192265e-01
-7.346684400585547225e-02 -1.211634776796321478e-01 -8.559875560851123444e-01 9.439473859606575257e-01 -1.381138176694596820e-01 -2.998131183034004610e-01
-4.606515982135933607e-02 -1.027922147321198576e-01 -7.768375745775145669e-01 9.040287528243493576e-01 -3.783558345607088702e-01 -1.989444056029750496e-01
-3.105346522992495292e-02 4.321134344962056922e-02 -9.295869634486843003e-01 9.900786652826158996e-01 -1.365761025110350524e-01 3.303338879208667783e-02
-4.185065199708437600e-02 -8.592576987600814009e-02 -9.778827526672704273e-01 8.722999643759389299e-01 -7.430457714151984805e-02 4.832924600752177557e-01
1.167273619673306201e-01 2.133494702668043905e-02 -1.110353548745661278e+00 8.430064713463492065e-01 -5.261083314750080175e-01 1.120272860546024096e-01
4.273381233234035265e-02 1.556950280913020276e-02 -1.053423184180533489e+00 6.390397412640989039e-01 -3.630237170299170368e-01 6.781165017597611255e-01
2.577797150782756841e-02 1.802958246865239422e-01 -8.689805367654364066e-01 6.602681382664750132e-01 -5.645565401343721756e-01 4.952998067651854242e-01
-7.243356433014655482e-02 -1.986930226716218661e-01 -7.911204761356720461e-01 9.761053479130553656e-01 1.555519697634643317e-01 -1.517298074810590480e-01
-6.054238432069655035e-02 -1.162857821703636302e-01 -9.534572211791303431e-01 8.511506386591927154e-01 -1.340576807733711573e-01 5.075146584441805331e-01
4.694703387047677312e-02 -5.818256806186761915e-02 -1.089953688551958511e+00 7.130578245524422654e-01 -2.920144824432356900e-01 6.373978984025188144e-01
-7.543960458148141202e-02 -1.303731027889037664e-01 -9.051753607285369929e-01 9.621223994465372131e-01 -9.024305789210561313e-02 2.572482827649585357e-01
1.125015869615831610e-01 2.026114764540658947e-02 -1.098819859808707777e+00 6.797269478008363119e-01 -6.521646383059378493e-01 3.356375440510853680e-01
-6.182749613497551949e-02 -9.838505776966237348e-02 -9.308311636291538571e-01 9.514257710484399500e-01 -2.297224553900099886e-01 2.049795006201014513e-01
-7.241635315200227463e-02 -8.805097571630220166e-03 -7.504201118651184776e-01 9.551753000756080247e-01 2.601990139731153451e-01 -1.411970936417970834e-01
-5.280874375756349631e-02 -6.621275670135184921e-02 -9.419868165208331590e-01 9.103345396144653101e-01 -2.710587547873355985e-01 3.127589765906947372e-01
2.842525896151727738e-02 1.466051810725405302e-01 -9.104783091260564287e-01 6.609823834114232355e-01 -5.507023983317079763e-01 5.097343987720065472e-01
1.143844138914325813e-02 1.585115745502765905e-01 -8.746952695244656351e-01 6.602681382664750132e-01 -5.645565401343721756e-01 4.952998067651854242e-01
1.128830928115875099e-01 1.287498691059630607e-01 -1.041091500394707214e+00 2.669388141562725192e-01 -3.940173086686540871e-01 8.794850936578479939e-01
2.538037936437913950e-02 -3.031300255135038757e-02 -1.053855000324822377e+00 7.482405242138976398e-01 -3.055569356795457270e-01 5.888727171318411946e-01
2.343462661890405307e-02 -1.057591497390633767e-01 -1.093156129280613786e+00 6.771731297397697302e-01 -5.477412482072698818e-01 4.913411008360554222e-01
-5.376297124036613639e-02 -1.198032616440229264e-01 -9.656497590219060845e-01 8.523003561837784181e-01 -1.207993698738526606e-01 5.089121879922747782e-01
-7.593538383054249108e-02 -1.054276774331276839e-01 -8.738877778398673746e-01 9.472938633242272699e-01 -2.437151867945594186e-01 2.079356733077638852e-01
9.154589453993437764e-02 -3.783268397442943187e-02 -1.137362612085990543e+00 7.272201918470037052e-01 -3.880590280296108974e-01 5.661810517270257082e-01
-7.781882234156937972e-02 -1.831203958978671886e-01 -8.097999065181723521e-01 9.761053479130553656e-01 1.555519697634643317e-01 -1.517298074810590480e-01
-7.463882923273736786e-03 1.012174204883702494e-01 -9.118914273299169038e-01 5.925683597782047674e-01 -4.846276375676594195e-01 6.434273788823081652e-01
5.338460781758683910e-02 6.152072780974721100e-02 -1.035698133048617686e+00 7.923441178377554905e-01 -5.154844169861655390e-01 3.262922229725099266e-01
-4.534103988395279949e-02 -1.345442609736436090e-01 -9.847595874703294339e-01 8.665246625212240650e-01 -2.927478985815498147e-01 4.042693126104990320e-01
-7.180429409644380201e-02 -7.964052664834246620e-02 -8.791547884775198218e-01 9.709591384461301322e-01 -1.373380693679730410e-02 2.388508614490880144e-01
-1.698524469810493848e-02 9.643002563924416015e-02 -9.058014332612710495e-01 6.609823834114232355e-01 -5.507023983317079763e-01 5.097343987720065472e-01
-1.483658440022101767e-02 5.396152272841094055e-02 -9.417859159382940826e-01 7.002929036567316912e-01 -4.033764048455021900e-01 5.889629233677965425e-01
3.294271152417214271e-02 -9.099381140813296576e-02 -1.090658792217212181e+00 6.303262783029004446e-01 -4.101853112035169779e-01 6.591181937662532464e-01
4.094438531010205495e-02 9.849055236877592157e-02 -9.595365446034416212e-01 5.864364188734878525e-01 -5.363926254509393532e-01 6.069392704222453805e-01
1.020261876238548332e-01 -1.621828809712995770e-02 -1.138948682598510898e+00 8.859479946399977379e-01 -3.233786245995992625e-01 3.324491178292369176e-01
-7.077991728783145087e-02 -1.554438090034505338e-01 -9.313976804247027230e-01 9.621223994465372131e-01 -9.024305789210561313e-02 2.572482827649585357e-01
1.411020119502021664e-01 1.765370401534024358e-01 -1.003283711169049131e+00 3.184463178456155008e-01 -7.744973917232057525e-01 5.465763742282684357e-01
-4.247025697286096330e-02 2.635574848812842139e-02 -8.371196956983305570e-01 9.844641319733385965e-01 -1.181587280557259839e-01 1.298802827308051522e-01
-3.262228797106019734e-02 -6.043278637103944445e-02 -9.898488401089304833e-01 8.150452321002882305e-01 -1.188908785568343618e-01 5.670680987558472941e-01
6.800916540894706708e-02 -1.222947487896786610e-02 -1.083202948884122829e+00 3.753036137323281785e-01 -4.709552305438014508e-01 7.983410100595423886e-01
-5.490481495967230313e-02 3.191843540851703465e-02 -7.222586340618977196e-01 8.897422879515866079e-01 -4.382385505485990596e-01 -1.276935152767708914e-01
-5.798139121867409984e-02 -2.028134520447318415e-02 -8.306233690646638301e-01 9.267975996431976338e-01 -2.796832940258592304e-01 2.506460938025003027e-01
-5.348145327074161487e-02 -7.362563049335940635e-02 -7.608167281045018493e-01 9.322418711260502810e-01 3.506857342165627944e-01 -8.913253915597300903e-02
1.263175229541832756e-01 1.529087217353007344e-01 -1.028151242120793896e+00 3.184463178456155008e-01 -7.744973917232057525e-01 5.465763742282684357e-01
-7.266250625497849835e-02 -1.294826674745814220e-02 -7.597203592314378806e-01 9.551753000756080247e-01 2.601990139731153451e-01 -1.411970936417970834e-01
-6.114338247328470616e-02 8.518290921251916309e-03 -7.815330318355635519e-01 9.318669284925278351e-01 -3.025608048589465415e-01 2.002023649835544816e-01
1.073576047122505178e-01 -9.921913687567667818e-04 -1.133782080097100131e+00 7.760879740131677584e-01 -5.890386217850911432e-01 2.252131404639984014e-01
-4.786248241518007568e-02 -2.377248249433725619e-02 -8.827309889924789266e-01 7.920939204429214842e-01 -5.891302284339337003e-01 1.597272523483191653e-01
-7.473475535253074065e-02 -1.307592312869191031e-01 -8.539277282653037204e-01 9.040287528243493576e-01 -3.783558345607088702e-01 -1.989444056029750496e-01
-4.698431979617957027e-02 2.447198668489687645e-02 -8.213485391692072479e-01 9.267975996431976338e-01 -2.796832940258592304e-01 2.506460938025003027e-01
-3.716775248021196576e-02 3.275135817602321808e-02 -8.714931069884108705e-01 9.844641319733385965e-01 -1.181587280557259839e-01 1.298802827308051522e-01
-3.322530521179420382e-02 -8.592062874166472852e-03 -9.604305620406661248e-01 5.616665819788052572e-01 -4.332639591610294438e-01 7.048496239485100290e-01
-9.626255132617814528e-03 8.082729744250276294e-03 -9.760929439910761563e-01 7.172597799411649655e-01 -3.211496830787721746e-01 6.183860356906161204e-01
-3.728963815138626459e-02 2.164902250208638329e-02 -8.806696021818947173e-01 9.844641319733385965e-01 -1.181587280557259839e-01 1.298802827308051522e-01
-6.853743755966615336e-02 -1.994160768717559151e-01 -7.766891031290942271e-01 9.499901473697993648e-01 1.367812055168048276e-02 -3.119801739189219103e-01
-2.951713944299303241e-02 -6.822620438774198992e-02 -9.959458200401175576e-01 8.150452321002882305e-01 -1.188908785568343618e-01 5.670680987558472941e-01
-3.250481401142092663e-02 6.026411924111322455e-02 -8.818073963570900453e-01 9.844641319733385965e-01 -1.181587280557259839e-01 1.298802827308051522e-01
3.025119936927154508e-03 1.858715545916226064e-01 -8.223295377014053775e-01 9.813680859625873998e-01 -1.743001007752972564e-01 -8.084648863029608723e-02
-5.047116868876258544e-02 -5.147182936701718420e-02 -9.275405237039326956e-01 7.922182978050550384e-01 -5.330777671311495158e-01 2.970155935524746438e-01
-5.151490630075753613e-02 -1.256489219463231277e-01 -9.708022758836302168e-01 8.523003561837784181e-01 -1.207993698738526606e-01 5.089121879922747782e-01
-6.992370188726748648e-02 -2.301516911721707831e-02 -7.883196637809293250e-01 9.318669284925278351e-01 -3.025608048589465415e-01 2.002023649835544816e-01
3.422928103371419145e-02 -9.935338400914430282e-03 -1.054577750295615735e+00 7.304988979174578123e-01 -2.493065888027093391e-01 6.357810825440910474e-01
-8.102790089393666073e-02 -1.692955581172219115e-01 -8.686595182047545105e-01 9.885660443335784198e-01 1.029128672828022589e-01 1.102094267215538437e-01
-3.308094290827073847e-02 6.884908818522812723e-02 -8.507028396216241850e-01 9.600966611814587548e-01 -2.758812279109051913e-01 4.586882682810181078e-02
5.289122288254245741e-02 4.187067434921499381e-02 -1.048915168173142787e+00 6.390397412640989039e-01 -3.630237170299170368e-01 6.781165017597611255e-01
-5.314079371469963842e-02 -1.926470670271779317e-01 -7.489015691916964812e-01 8.207371347063290301e-01 -2.496965059037112647e-02 -5.707600829275288890e-01
-5.706735923207956890e-02 -1.234068570862559278e-01 -7.877109731876307253e-01 9.018347748388123586e-01 -3.353296274948499578e-01 -2.724850084235714842e-01
-1.817316191973141620e-02 -2.529695294759308141e-02 -9.835147190176209975e-01 7.172597799411649655e-01 -3.211496830787721746e-01 6.183860356906161204e-01
-2.942181466887332925e-02 6.788126627182750061e-02 -8.982461492007223214e-01 9.844641319733385965e-01 -1.181587280557259839e-01 1.298802827308051522e-01
-6.331813435324917805e-02 -2.412797931968808582e-02 -7.271791868091413980e-01 9.201944867670771577e-01 1.992670009070726389e-01 -3.369492081500948255e-01
1.274399449608032420e-01 1.689021020828941066e-01 -1.006142606592125288e+00 3.184463178456155008e-01 -7.744973917232057525e-01 5.465763742282684357e-01
2.379567058080710173e-02 -8.751560504984537414e-02 -1.079538775350212365e+00 6.163312270158337602e-01 -4.618287729919444140e-01 6.378479466470921011e-01
-6.194466747964902376e-02 -3.846223046144991303e-02 -7.342332434938406704e-01 9.551753000756080247e-01 2.601990139731153451e-01 -1.411970936417970834e-01
-6.879839700612010167e-02 -4.429020419336022335e-02 -8.545855064351071118e-01 7.920939204429214842e-01 -5.891302284339337003e-01 1.597272523483191653e-01
-7.682876331999949349e-02 -1.748670456212750024e-01 -8.008601684803136056e-01 9.499901473697993648e-01 1.367812055168048276e-02 -3.119801739189219103e-01
1.639209927649029619e-01 1.582564870928738487e-01 -1.023588238839515441e+00 -1.576789459965290130e-01 -4.657652307802843672e-01 8.707468632074490955e-01
-5.713598031494190183e-02 -1.609757181231426595e-02 -8.290809284001379176e-01 9.267975996431976338e-01 -2.796832940258592304e-01 2.506460938025003027e-01
1.970717442102668665e-02 -6.048867273405609396e-02 -1.060536931758717216e+00 7.130578245524422654e-01 -2.920144824432356900e-01 6.373978984025188144e-01
6.726534797987668290e-02 1.264779892316893195e-01 -9.756425548430679440e-01 8.472286731071200228e-01 -4.122590239182369332e-01 3.350314502597200317e-01
-5.033433037485352674e-02 -8.487572961142099415e-02 -9.624090265855872461e-01 8.722999643759389299e-01 -7.430457714151984805e-02 4.832924600752177557e-01
6.935122972920257367e-02 1.293978490646702506e-01 -9.773244275794338298e-01 8.472286731071200228e-01 -4.122590239182369332e-01 3.350314502597200317e-01
-6.491066899023317793e-03 1.498001358189836596e-01 -8.634349913178184233e-01 5.400309627528676604e-01 -5.592984785481734944e-01 6.289290668763124481e-01
1.347945123688929492e-01 1.673545754923978432e-02 -1.172470617033877671e+00 6.989538089891116357e-01 -5.874269127069241536e-01 4.079132200937160002e-01
-2.970373941673650972e-02 7.640887797114695457e-02 -8.759234041632056877e-01 9.600966611814587548e-01 -2.758812279109051913e-01 4.586882682810181078e-02
4.164176594430230721e-02 5.050701703719435998e-02 -1.024582405632528559e+00 7.923441178377554905e-01 -5.154844169861655390e-01 3.262922229725099266e-01
7.259476621982449696e-02 -2.243487334537843172e-02 -1.100962330578360016e+00 6.797269478008363119e-01 -6.521646383059378493e-01 3.356375440510853680e-01
-5.991853880589394915e-02 2.404134718705623272e-02 -7.301594142948759636e-01 8.897422879515866079e-01 -4.382385505485990596e-01 -1.276935152767708914e-01
7.984464689145061300e-02 1.860190309692863822e-02 -1.070578895221610649e+00 3.753036137323281785e-01 -4.709552305438014508e-01 7.983410100595423886e-01
9.950342217780917820e-02 1.296792874183421707e-01 -1.030975177549597221e+00 5.200109742960563608e-01 -5.813495066740130834e-01 6.257965625517192265e-01
-3.859519792422442391e-02 -3.880552342308064145e-02 -9.678175891811904297e-01 9.538352128135274555e-01 -1.837238679716942658e-01 2.375793070418642239e-01
1.290718486756471384e-01 4.358707863418735673e-02 -1.098744326590675335e+00 8.430064713463492065e-01 -5.261083314750080175e-01 1.120272860546024096e-01
3.997134413930480967e-02 1.303956434920643948e-01 -9.336002353040818713e-01 5.925683597782047674e-01 -4.846276375676594195e-01 6.434273788823081652e-01
-5.846439518979545252e-02 6.732294346532524676e-03 -6.960207167700138697e-01 9.235356263217902040e-01 1.813404668125219721e-01 -3.379313273590290878e-01
6.280017150730798914e-02 1.154397177972101701e-01 -9.779336874178885530e-01 8.472286731071200228e-01 -4.122590239182369332e-01 3.350314502597200317e-01
-3.737668852405580389e-02 5.268058729918480634e-03 -8.969429455236480608e-01 9.900786652826158996e-01 -1.365761025110350524e-01 3.303338879208667783e-02
-6.463280627629365560e-02 -1.250322773891105743e-01 -9.437197980068079417e-01 9.621223994465372131e-01 -9.024305789210561313e-02 2.572482827649585357e-01
-7.561893640142280937e-02 -1.977598750073831790e-01 -8.106558977237021679e-01 9.761053479130553656e-01 1.555519697634643317e-01 -1.517298074810590480e-01
1.072632326199948194e-01 1.776105702605832240e-02 -1.093069073140712222e+00 6.797269478008363119e-01 -6.521646383059378493e-01 3.356375440510853680e-01
3.592683457170226663e-02 4.961441744509500519e-03 -1.050686781341892750e+00 7.304988979174578123e-01 -2.493065888027093391e-01 6.357810825440910474e-01
-6.272695012188556074e-02 -7.573215799576296647e-02 -9.158306172823956759e-01 9.709591384461301322e-01 -1.373380693679730410e-02 2.388508614490880144e-01
5.542536277550737418e-03 1.546306940924377094e-01 -8.712591651201664344e-01 6.602681382664750132e-01 -5.645565401343721756e-01 4.952998067651854242e-01
-3.365320579695550707e-02 4.240070779623791170e-02 -8.893540957647472212e-01 9.844641319733385965e-01 -1.181587280557259839e-01 1.298802827308051522e-01
1.514541638522555467e-01 9.650866374700406425e-02 -1.065991802952438672e+00 2.627483263261370383e-01 -3.054392139731993971e-01 9.152432483117524109e-01
1.270365790006623419e-01 3.731718710829572128e-02 -1.112873890181973469e+00 8.430064713463492065e-01 -5.261083314750080175e-01 1.120272860546024096e-01
-6.523648436442987253e-02 -9.824430283238339001e-02 -9.148503762109295723e-01 9.514257710484399500e-01 -2.297224553900099886e-01 2.049795006201014513e-01
-5.075021194365088306e-02 -1.225723494533872276e-01 -9.713526679965029942e-01 8.523003561837784181e-01 -1.207993698738526606e-01 5.089121879922747782e-01
-6.382526765126583790e-02 -1.096394695070766756e-01 -9.341713015012464982e-01 9.514257710484399500e-01 -2.297224553900099886e-01 2.049795006201014513e-01
3.537956839665271774e-02 1.615990124037506304e-01 -9.030912630877744318e-01 6.602681382664750132e-01 -5.645565401343721756e-01 4.952998067651854242e-01
9.797434517005709775e-02 1.223478797260684620e-01 -1.036515274168884782e+00 5.200109742960563608e-01 -5.813495066740130834e-01 6.257965625517192265e-01
1.002959390621841070e-04 -1.147049110176395909e-01 -1.071558025125825431e+00 8.568588257209046599e-01 -3.519274132712957859e-01 3.767493179454566854e-01
-3.827590617484327717e-02 -8.368832233426125311e-03 -9.241285514138496415e-01 9.904856454541872690e-01 -1.327944068183122828e-01 3.610860931931127865e-02
-6.869820320787148327e-02 -8.181701561502074949e-02 -8.356114607057673060e-01 9.145268386677745109e-01 3.029061491784617588e-01 -2.681203575751047730e-01
5.348811341231279881e-02 -2.727954787340318779e-02 -1.083529479143397811e+00 7.083000976304988372e-01 -2.657516810121242634e-01 6.539778404012293045e-01
1.073935391531206929e-01 -2.846880904403277079e-03 -1.138386524299048297e+00 7.967780962679260615e-01 -5.437836748093957118e-01 2.635222577287331669e-01
-6.977261176790998387e-02 -6.515175295066587269e-02 -8.865807382598808184e-01 9.709591384461301322e-01 -1.373380693679730410e-02 2.388508614490880144e-01
9.520001788028606415e-02 4.937331479497765463e-02 -1.064843183779992097e+00 2.802821252379167349e-01 -2.865415158850835864e-01 9.161527656162999911e-01
-4.444285399561422045e-02 -1.344437537489555079e-01 -9.866120084223883868e-01 8.665246625212240650e-01 -2.927478985815498147e-01 4.042693126104990320e-01
-3.872163207624568226e-02 -5.513872136934908075e-02 -9.787969513797594168e-01 8.722999643759389299e-01 -7.430457714151984805e-02 4.832924600752177557e-01
-5.371710117759963266e-02 -1.256570046371086602e-01 -7.738536223553964533e-01 9.018347748388123586e-01 -3.353296274948499578e-01 -2.724850084235714842e-01
-3.952783715099663503e-02 -1.848942496084180973e-02 -9.270070462899154817e-01 9.904856454541872690e-01 -1.327944068183122828e-01 3.610860931931127865e-02
-5.550056147172009735e-02 -4.043296111149384531e-02 -8.943134728518925547e-01 7.922182978050550384e-01 -5.330777671311495158e-01 2.970155935524746438e-01
9.157391539656115770e-03 -9.613728003776271513e-02 -1.071113379777661079e+00 6.303262783029004446e-01 -4.101853112035169779e-01 6.591181937662532464e-01
-4.709828898267263281e-02 -3.463664479762504356e-02 -9.063214169740395620e-01 7.922182978050550384e-01 -5.330777671311495158e-01 2.970155935524746438e-01
4.066434862279925955e-02 7.646407888922010510e-02 -9.822013112985970018e-01 7.927189021302585292e-01 -5.103453758139073759e-01 3.333831723269181091e-01
1.008981857714579544e-01 1.276386734721673272e-02 -1.089888548534814872e+00 6.797269478008363119e-01 -6.521646383059378493e-01 3.356375440510853680e-01
-2.869443679146530413e-03 6.227484535701701546e-02 -9.492090092000557977e-01 5.864364188734878525e-01 -5.363926254509393532e-01 6.069392704222453805e-01
-4.913460232312073100e-02 2.023249457369974066e-02 -8.181282154305755672e-01 9.267975996431976338e-01 -2.796832940258592304e-01 2.506460938025003027e-01
-6.647693498005992352e-02 -8.187279829190664826e-02 -8.280979973022916107e-01 9.145268386677745109e-01 3.029061491784617588e-01 -2.681203575751047730e-01
-4.857803976596727913e-02 -5.358979592497269823e-02 -9.363912787261646775e-01 7.922182978050550384e-01 -5.330777671311495158e-01 2.970155935524746438e-01
-5.447675947607252822e-02 -1.419372358303106207e-01 -7.613434926096863675e-01 8.523377463651546915e-01 -1.283325797822638115e-01 -5.070020858809145547e-01
-7.244382363537911484e-02 -1.054949705224052410e-02 -7.589293411532980205e-01 9.289808181137810816e-01 -3.052157077611205582e-01 2.093752882088242007e-01
-5.072185675826929724e-02 -3.760692469253415493e-02 -9.019874138140191455e-01 7.922182978050550384e-01 -5.330777671311495158e-01 2.970155935524746438e-01
-6.714728050227877776e-02 -1.959016862699717032e-01 -7.723019468911240804e-01 9.499901473697993648e-01 1.367812055168048276e-02 -3.119801739189219103e-01
-5.428450478951778874e-02 -2.607311168164444179e-02 -8.593694484529598165e-01 7.920939204429214842e-01 -5.891302284339337003e-01 1.597272523483191653e-01
7.228489488251915729e-02 8.370211518987918931e-02 -1.044797176650414050e+00 6.390397412640989039e-01 -3.630237170299170368e-01 6.781165017597611255e-01
-7.619674955772678948e-02 -1.238098612367661694e-01 -8.633634343856645410e-01 9.439473859606575257e-01 -1.381138176694596820e-01 -2.998131183034004610e-01
-6.878422556572322266e-02 -2.982255498985699610e-02 -8.013249912243661788e-01 9.267975996431976338e-01 -2.796832940258592304e-01 2.506460938025003027e-01
-6.924753750430903687e-02 -6.639765330224542406e-02 -8.200653129191712853e-01 9.145268386677745109e-01 3.029061491784617588e-01 -2.681203575751047730e-01
1.815591584754415455e-02 1.126212003868235778e-01 -9.268968429227592010e-01 5.925683597782047674e-01 -4.846276375676594195e-01 6.434273788823081652e-01
7.475561812271103168e-02 3.918392880526584687e-02 -1.061775444630674858e+00 2.802821252379167349e-01 -2.865415158850835864e-01 9.161527656162999911e-01
3.598393537378649643e-02 1.797695114612026246e-01 -8.831856833017474040e-01 6.602681382664750132e-01 -5.645565401343721756e-01 4.952998067651854242e-01
6.925779609556577052e-03 1.660918196314403184e-01 -8.604674047799137915e-01 5.400309627528676604e-01 -5.592984785481734944e-01 6.289290668763124481e-01
-6.936449673616315592e-02 -1.159688092738296039e-01 -8.454645192202479009e-01 9.439473859606575257e-01 -1.381138176694596820e-01 -2.998131183034004610e-01
9.890424383205564940e-02 2.943142280910645159e-03 -1.104932734239614911e+00 6.797269478008363119e-01 -6.521646383059378493e-01 3.356375440510853680e-01
1.303266923130945720e-01 1.058494830619802207e-01 -1.056645513010405324e+00 2.669388141562725192e-01 -3.940173086686540871e-01 8.794850936578479939e-01
-5.415254711600801796e-02 -1.147726092223755878e-01 -7.908031771057212334e-01 9.040287528243493576e-01 -3.783558345607088702e-01 -1.989444056029750496e-01
-3.652232670944016713e-02 -1.668203744282919371e-02 -9.590313237146750325e-01 9.538352128135274555e-01 -1.837238679716942658e-01 2.375793070418642239e-01
-7.639254632192160437e-03 -3.848585735225231591e-02 -1.009843469413246320e+00 8.758544678678177320e-01 -3.777572392486155950e-01 3.002972182875588980e-01
-6.309967134189704840e-02 -8.682751443643961509e-02 -8.221760887045860278e-01 9.145268386677745109e-01 3.029061491784617588e-01 -2.681203575751047730e-01
1.605652259032760987e-02 -1.091878254472431614e-01 -1.086809770958107269e+00 6.771731297397697302e-01 -5.477412482072698818e-01 4.913411008360554222e-01
-2.421132940182047118e-03 1.634545534177852533e-01 -8.401100649988941793e-01 9.813680859625873998e-01 -1.743001007752972564e-01 -8.084648863029608723e-02
-5.935907215717407120e-02 -1.106653323593689703e-01 -8.164060477881578404e-01 9.439473859606575257e-01 -1.381138176694596820e-01 -2.998131183034004610e-01
-5.643889503304364702e-02 -1.297661526603000604e-01 -9.635331269778176777e-01 8.523003561837784181e-01 -1.207993698738526606e-01 5.089121879922747782e-01
2.452092943627408317e-02 2.898605737628965826e-02 -1.016723986035043881e+00 8.646795181756576909e-01 -3.815979871216507724e-01 3.266684972142505083e-01
-3.050995711316663306e-02 -1.089793692452477036e-01 -1.001896112391845728e+00 8.722999643759389299e-01 -7.430457714151984805e-02 4.832924600752177557e-01
-4.727349139382374527e-02 -1.100484713989537122e-01 -7.717358260577292794e-01 9.018347748388123586e-01 -3.353296274948499578e-01 -2.724850084235714842e-01
-5.783223529782765063e-03 -9.647614269342151549e-02 -1.042314813787177386e+00 8.701734431932350855e-01 -2.495763620077762202e-01 4.248644704940544026e-01
-7.261289261292146191e-02 -5.187995780602684681e-02 -8.532424518887156140e-01 9.992039864115249692e-01 -3.944918799443062479e-02 5.929174132794116578e-03
-3.447982657237122495e-02 -7.747386004438500118e-02 -9.898869854012523062e-01 8.722999643759389299e-01 -7.430457714151984805e-02 4.832924600752177557e-01
-3.144846207347212763e-02 -6.580555146013866707e-02 -9.926624245203407026e-01 8.150452321002882305e-01 -1.188908785568343618e-01 5.670680987558472941e-01
1.088429779903832273e-02 -1.080727150698198137e-03 -1.015750853879308302e+00 8.646795181756576909e-01 -3.815979871216507724e-01 3.266684972142505083e-01
-4.663069570300890782e-02 9.511673283424539049e-03 -8.393495685252232441e-01 9.267975996431976338e-01 -2.796832940258592304e-01 2.506460938025003027e-01
2.628394352121698682e-02 1.175096111812947430e-01 -9.307004626199604225e-01 5.925683597782047674e-01 -4.846276375676594195e-01 6.434273788823081652e-01
1.452639073054798335e-01 1.178436814536460986e-01 -1.055805704219575647e+00 2.669388141562725192e-01 -3.940173086686540871e-01 8.794850936578479939e-01
7.278549644709177147e-02 1.282867932222643281e-01 -9.873761765390957068e-01 8.472286731071200228e-01 -4.122590239182369332e-01 3.350314502597200317e-01
5.959142225529360376e-02 -5.029744510511566236e-02 -1.102464453082152129e+00 7.678132839403105647e-01 -3.061533373889093190e-01 5.627902762223495614e-01
-6.448612731900681128e-02 -1.642374144741851616e-01 -7.756896250527703929e-01 9.090154971828928732e-01 -1.458790625735286450e-01 -3.903973936695873670e-01
7.818239570941689157e-03 -1.189791104028766061e-01 -1.086370863542463150e+00 6.771731297397697302e-01 -5.477412482072698818e-01 4.913411008360554222e-01
-3.403715085010635983e-03 -2.981335075646197874e-02 -1.011287419143154898e+00 8.758544678678177320e-01 -3.777572392486155950e-01 3.002972182875588980e-01
1.063742489878540150e-02 -1.100255731413954940e-01 -1.081171784795948998e+00 6.303262783029004446e-01 -4.101853112035169779e-01 6.591181937662532464e-01
5.918249717265400278e-03 9.962837872381621884e-02 -9.254126454673907709e-01 5.925683597782047674e-01 -4.846276375676594195e-01 6.434273788823081652e-01
9.677643458215907588e-03 1.751968141971147197e-01 -8.547333433186964369e-01 5.400309627528676604e-01 -5.592984785481734944e-01 6.289290668763124481e-01
-5.516233427002669581e-02 -2.436116044368099448e-02 -7.050439308473964717e-01 9.201944867670771577e-01 1.992670009070726389e-01 -3.369492081500948255e-01
-6.678364111222889754e-02 -1.627712699892737425e-01 -7.815870912331802645e-01 9.090154971828928732e-01 -1.458790625735286450e-01 -3.903973936695873670e-01
-7.889372168501254667e-02 -1.642944535286427477e-01 -8.924728632998859545e-01 9.885660443335784198e-01 1.029128672828022589e-01 1.102094267215538437e-01
9.175725163353619374e-02 1.004592522233354462e-01 -1.047353898441317988e+00 2.669388141562725192e-01 -3.940173086686540871e-01 8.794850936578479939e-01
2.256105073722122593e-03 1.784403086675798722e-01 -8.454764297047149268e-01 5.400309627528676604e-01 -5.592984785481734944e-01 6.289290668763124481e-01
8.890358949176782599e-02 4.253283100308187514e-02 -1.065056364673293787e+00 2.802821252379167349e-01 -2.865415158850835864e-01 9.161527656162999911e-01
-4.466189599537240956e-02 -1.192203791527861462e-01 -9.807534213366869702e-01 8.523003561837784181e-01 -1.207993698738526606e-01 5.089121879922747782e-01
6.211006355089202652e-02 7.211361337635013857e-02 -1.040151491060031574e+00 7.923441178377554905e-01 -5.154844169861655390e-01 3.262922229725099266e-01
2.287294776093654752e-02 3.348497485992459749e-02 -1.005897420918056895e+00 7.923441178377554905e-01 -5.154844169861655390e-01 3.262922229725099266e-01
1.650777483933228984e-01 1.824518686992497862e-01 -1.006330268064918210e+00 1.289134295206018910e-01 -7.196111798252172731e-01 6.823057068204805287e-01
1.171637315093710247e-01 1.999829003454919527e-02 -1.119914511663221868e+00 8.430064713463492065e-01 -5.261083314750080175e-01 1.120272860546024096e-01
-3.457434645314529792e-02 6.819683335740588104e-02 -8.233669127813932898e-01 9.600966611814587548e-01 -2.758812279109051913e-01 4.586882682810181078e-02
9.192902816404432964e-02 -4.775532766005807089e-02 -1.144655674895426190e+00 7.272201918470037052e-01 -3.880590280296108974e-01 5.661810517270257082e-01
-5.906701072177729384e-02 -9.620482967603212476e-02 -8.190150832250104873e-01 9.145268386677745109e-01 3.029061491784617588e-01 -2.681203575751047730e-01
-6.613629001194981649e-02 -1.299330831033566891e-01 -9.398158975620876099e-01 9.621223994465372131e-01 -9.024305789210561313e-02 2.572482827649585357e-01
-2.088081388432305383e-02 1.118213193161251978e-01 -8.323749421034474238e-01 9.385053470938713449e-01 -3.395714803764272038e-01 6.244135801833426702e-02
1.029401529648278461e-02 5.397650564646164217e-02 -9.692615919855089857e-01 5.864364188734878525e-01 -5.363926254509393532e-01 6.069392704222453805e-01
-6.581378929727720040e-02 -9.178573024194551511e-02 -9.049325944888337858e-01 9.514257710484399500e-01 -2.297224553900099886e-01 2.049795006201014513e-01
-5.452359170779429165e-02 -7.588147488622318249e-02 -9.453750658489590286e-01 9.103345396144653101e-01 -2.710587547873355985e-01 3.127589765906947372e-01
-8.157162371463018424e-02 -1.681293370747825311e-01 -8.572644417800547867e-01 9.990395546392835113e-01 4.023005654150529214e-02 -1.736406682806471841e-02
8.803726304118779378e-02 1.642137266519305000e-02 -1.075716612822762208e+00 3.753036137323281785e-01 -4.709552305438014508e-01 7.983410100595423886e-01
-5.294600922785872715e-02 -1.230304558730225817e-01 -9.677839976375252062e-01 8.523003561837784181e-01 -1.207993698738526606e-01 5.089121879922747782e-01
7.563610735229465976e-02 6.002425251960467195e-02 -1.055526669567190101e+00 2.802821252379167349e-01 -2.865415158850835864e-01 9.161527656162999911e-01
3.985402665787744769e-02 1.075851646186524874e-01 -9.506729776541943400e-01 5.925683597782047674e-01 -4.846276375676594195e-01 6.434273788823081652e-01
-3.103937603389252814e-02 4.686150418856321886e-02 -9.149177050837360436e-01 9.900786652826158996e-01 -1.365761025110350524e-01 3.303338879208667783e-02
-1.873143805320237609e-02 1.151277317195204958e-01 -8.466993800120934388e-01 9.385053470938713449e-01 -3.395714803764272038e-01 6.244135801833426702e-02
1.214615947568295634e-01 1.217123821439943313e-02 -1.147956069381185218e+00 7.760879740131677584e-01 -5.890386217850911432e-01 2.252131404639984014e-01
-1.359287786310747238e-02 -1.150556363607256466e-01 -1.040742609121703577e+00 8.568588257209046599e-01 -3.519274132712957859e-01 3.767493179454566854e-01
1.350660084976448017e-01 1.328718861194659040e-01 -1.045977694815518610e+00 2.669388141562725192e-01 -3.940173086686540871e-01 8.794850936578479939e-01
-7.330815837119945833e-02 -1.543640029569612604e-01 -8.033656665095925131e-01 9.018347748388123586e-01 -3.353296274948499578e-01 -2.724850084235714842e-01
-7.028380975752834825e-02 -1.116214236689413719e-01 -8.503616269734980415e-01 9.439473859606575257e-01 -1.381138176694596820e-01 -2.998131183034004610e-01
-6.729368495138600414e-02 -1.593500636565682305e-01 -7.840530916274783824e-01 9.090154971828928732e-01 -1.458790625735286450e-01 -3.903973936695873670e-01
3.399194129886578403e-03 1.568705790322128812e-01 -8.658488617346146166e-01 6.602681382664750132e-01 -5.645565401343721756e-01 4.952998067651854242e-01
-5.753767914208585132e-02 -5.405673194564030587e-02 -9.133316239710511653e-01 7.922182978050550384e-01 -5.330777671311495158e-01 2.970155935524746438e-01
-3.871279344379788614e-03 -1.148656645424837031e-01 -1.062675445643772587e+00 8.568588257209046599e-01 -3.519274132712957859e-01 3.767493179454566854e-01
1.665270434737065597e-01 1.792723964365430800e-01 -1.009957406693026805e+00 1.289134295206018910e-01 -7.196111798252172731e-01 6.823057068204805287e-01
1.606273425541049349e-01 1.785999554304917858e-01 -1.009551936520054705e+00 1.289134295206018910e-01 -7.196111798252172731e-01 6.823057068204805287e-01
8.466323095098451934e-02 1.330584801248796689e-01 -1.011541031068603269e+00 8.472286731071200228e-01 -4.122590239182369332e-01 3.350314502597200317e-01
4.967004213580422135e-03 2.276584346221358773e-02 -9.853940606693035731e-01 7.172597799411649655e-01 -3.211496830787721746e-01 6.183860356906161204e-01
7.518273734933290930e-02 -2.145955866830611888e-02 -1.104308344733079261e+00 6.797269478008363119e-01 -6.521646383059378493e-01 3.356375440510853680e-01
3.315622008144485794e-02 -2.711562510214450550e-02 -1.061442117934915830e+00 7.083000976304988372e-01 -2.657516810121242634e-01 6.539778404012293045e-01
3.706981403195917096e-02 -2.964397318669070164e-02 -1.066708216444881341e+00 7.083000976304988372e-01 -2.657516810121242634e-01 6.539778404012293045e-01
-7.039700773687805613e-02 -1.966302414495398609e-01 -7.822294178620459171e-01 9.499901473697993648e-01 1.367812055168048276e-02 -3.119801739189219103e-01
-2.745076146920011687e-02 6.068430832297850436e-02 -9.221829302281913110e-01 7.002929036567316912e-01 -4.033764048455021900e-01 5.889629233677965425e-01
3.089962662271420954e-02 9.320361845143572410e-02 -9.545035205474317053e-01 5.864364188734878525e-01 -5.363926254509393532e-01 6.069392704222453805e-01
8.718141243815652475e-02 1.518797427405627620e-01 -9.947492946794687096e-01 8.472286731071200228e-01 -4.122590239182369332e-01 3.350314502597200317e-01
1.490047021725987228e-02 1.804162432433016050e-01 -8.545763612890141525e-01 5.400309627528676604e-01 -5.592984785481734944e-01 6.289290668763124481e-01
1.378647268556335882e-02 -6.964058685670364290e-02 -1.058106250331454001e+00 7.130578245524422654e-01 -2.920144824432356900e-01 6.373978984025188144e-01
-6.803645166156360724e-02 -1.241481307651007109e-04 -7.632869889924839280e-01 9.289808181137810816e-01 -3.052157077611205582e-01 2.093752882088242007e-01
1.308010587350630360e-01 5.079916055492043891e-02 -1.077886898033187490e+00 8.430064713463492065e-01 -5.261083314750080175e-01 1.120272860546024096e-01
2.402415437046143479e-02 1.198160619787086711e-01 -9.268820839928459954e-01 5.925683597782047674e-01 -4.846276375676594195e-01 6.434273788823081652e-01
8.769419601608566261e-02 6.965163111634023463e-02 -1.056204529290146521e+00 2.802821252379167349e-01 -2.865415158850835864e-01 9.161527656162999911e-01
-6.712140715705527949e-02 -2.722625023472292211e-02 -7.485472980301995927e-01 9.551753000756080247e-01 2.601990139731153451e-01 -1.411970936417970834e-01
5.507644130366468743e-02 7.830650629459903755e-02 -1.013650001127746725e+00 7.927189021302585292e-01 -5.103453758139073759e-01 3.333831723269181091e-01
-3.838972903959807920e-02 -4.490771023185996524e-02 -9.733614256259059960e-01 9.538352128135274555e-01 -1.837238679716942658e-01 2.375793070418642239e-01
-2.927736836707751228e-02 6.076672617270622440e-02 -9.102377485361325959e-01 9.900786652826158996e-01 -1.365761025110350524e-01 3.303338879208667783e-02
7.857464228967976291e-03 -4.322125762819522404e-02 -1.038287717151856970e+00 7.482405242138976398e-01 -3.055569356795457270e-01 5.888727171318411946e-01
2.129347419782109951e-02 -1.055165817475583884e-01 -1.089934751345848163e+00 6.771731297397697302e-01 -5.477412482072698818e-01 4.913411008360554222e-01
5.697290336318373838e-02 9.372386183628599043e-02 -9.945584112859420234e-01 7.927189021302585292e-01 -5.103453758139073759e-01 3.333831723269181091e-01
3.190695328779281914e-02 1.546261346871872777e-01 -9.063274811978278001e-01 6.609823834114232355e-01 -5.507023983317079763e-01 5.097343987720065472e-01
-6.279041676846416897e-02 -4.681674369341656122e-02 -7.553503561695448232e-01 9.551753000756080247e-01 2.601990139731153451e-01 -1.411970936417970834e-01
-6.174593008365171498e-02 -9.938768867078631719e-02 -9.323334156826357244e-01 9.514257710484399500e-01 -2.297224553900099886e-01 2.049795006201014513e-01
1.053627914983635942e-02 1.643587134096421154e-01 -8.668278942235552176e-01 6.602681382664750132e-01 -5.645565401343721756e-01 4.952998067651854242e-01
-7.798586006520367986e-02 -1.346364729578864716e-01 -8.613273589612503445e-01 9.040287528243493576e-01 -3.783558345607088702e-01 -1.989444056029750496e-01
-6.168028468834895611e-02 -1.771496290819903618e-01 -7.645405981525643657e-01 8.523377463651546915e-01 -1.283325797822638115e-01 -5.070020858809145547e-01
-5.239366481635832073e-02 -1.859475184653856111e-02 -6.940726353978561303e-01 9.201944867670771577e-01 1.992670009070726389e-01 -3.369492081500948255e-01
-8.225218515276763731e-02 -1.559613389387083660e-01 -8.701292371440882967e-01 9.885660443335784198e-01 1.029128672828022589e-01 1.102094267215538437e-01
-6.857077450922126338e-02 -9.520987107626842361e-02 -8.959733339997334456e-01 9.514257710484399500e-01 -2.297224553900099886e-01 2.049795006201014513e-01
-2.622014350032317656e-02 8.848678607695643905e-02 -8.761963714548038906e-01 9.600966611814587548e-01 -2.758812279109051913e-01 4.586882682810181078e-02
5.670622292886684686e-03 6.265328032013707527e-02 -9.571261373483285206e-01 5.864364188734878525e-01 -5.363926254509393532e-01 6.069392704222453805e-01
1.206014040418726257e-01 1.151437891226615301e-01 -1.049529787657526247e+00 2.669388141562725192e-01 -3.940173086686540871e-01 8.794850936578479939e-01
2.590790182814731515e-02 1.977264630885968710e-01 -8.492858146503310390e-01 6.602681382664750132e-01 -5.645565401343721756e-01 4.952998067651854242e-01
7.458942533968875022e-02 9.147954710942207690e-02 -1.039882611358275977e+00 7.927189021302585292e-01 -5.103453758139073759e-01 3.333831723269181091e-01
-7.240612770647039675e-02 -1.347032422344669467e-01 -8.358453605338105330e-01 9.040287528243493576e-01 -3.783558345607088702e-01 -1.989444056029750496e-01
-3.195706324678672383e-02 -8.879403090139011134e-02 -9.961807870203844839e-01 8.722999643759389299e-01 -7.430457714151984805e-02 4.832924600752177557e-01
-2.215013819907964490e-02 9.606529001335600837e-02 -8.989819261696684327e-01 9.385053470938713449e-01 -3.395714803764272038e-01 6.244135801833426702e-02
-6.259781215086443473e-02 -2.463485783173915110e-03 -7.123999409997731069e-01 9.201944867670771577e-01 1.992670009070726389e-01 -3.369492081500948255e-01
1.900737836029902164e-02 2.077793724343973136e-01 -8.157455604337719990e-01 7.491863136868303075e-01 -6.385863220141687613e-01 -1.758618114337346106e-01
-2.940583644543015573e-02 7.811998511807269341e-02 -8.718673446225745360e-01 9.600966611814587548e-01 -2.758812279109051913e-01 4.586882682810181078e-02
-5.972320613717808924e-02 -5.115000435294413811e-02 -9.022853139393446353e-01 7.922182978050550384e-01 -5.330777671311495158e-01 2.970155935524746438e-01
-2.020491374564482162e-02 -6.601223525179478191e-02 -1.008866075006442875e+00 8.150452321002882305e-01 -1.188908785568343618e-01 5.670680987558472941e-01
7.491474697640677916e-02 2.918267507749792988e-02 -1.064952180527170000e+00 2.802821252379167349e-01 -2.865415158850835864e-01 9.161527656162999911e-01
-5.081892844499721895e-02 -8.362846943137069999e-02 -7.723247116250885336e-01 9.322418711260502810e-01 3.506857342165627944e-01 -8.913253915597300903e-02
-1.401271603729374593e-02 8.509117658661359898e-03 -9.707836935596307892e-01 7.172597799411649655e-01 -3.211496830787721746e-01 6.183860356906161204e-01
1.774045498685846711e-01 1.597519278561206901e-01 -1.020346656809340447e+00 -1.576789459965290130e-01 -4.657652307802843672e-01 8.707468632074490955e-01
-3.785166962005261787e-02 -7.018116909624030203e-03 -9.307982288711750263e-01 9.904856454541872690e-01 -1.327944068183122828e-01 3.610860931931127865e-02
6.639312910833151948e-02 1.146002254232956624e-01 -9.880525732862870392e-01 8.472286731071200228e-01 -4.122590239182369332e-01 3.350314502597200317e-01
8.020173460126213405e-03 1.551100100011871818e-01 -8.740156853935756587e-01 6.602681382664750132e-01 -5.645565401343721756e-01 4.952998067651854242e-01
-5.888530956704565028e-02 -9.521572773363685960e-02 -9.409356171958673798e-01 9.514257710484399500e-01 -2.297224553900099886e-01 2.049795006201014513e-01
-6.373995038286736636e-02 -8.268908336709150653e-02 -9.121126621310623461e-01 9.709591384461301322e-01 -1.373380693679730410e-02 2.388508614490880144e-01
9.276713009885926078e-03 -5.837879615124438870e-02 -1.047956072145618478e+00 7.482405242138976398e-01 -3.055569356795457270e-01 5.888727171318411946e-01
2.638295171390670282e-02 1.351591389485382877e-01 -9.174980716392822089e-01 5.925683597782047674e-01 -4.846276375676594195e-01 6.434273788823081652e-01
-5.288008362685771291e-02 3.940743000942287938e-02 -7.733136091088824715e-01 9.318669284925278351e-01 -3.025608048589465415e-01 2.002023649835544816e-01
1.864664844965477700e-02 -7.032938949064064527e-02 -1.063858899832072158e+00 7.130578245524422654e-01 -2.920144824432356900e-01 6.373978984025188144e-01
1.002886799488048458e-01 7.662324335074035229e-03 -1.098566804208066072e+00 6.797269478008363119e-01 -6.521646383059378493e-01 3.356375440510853680e-01
1.015859063003722446e-01 1.439013737854262232e-01 -1.019493669459249574e+00 5.200109742960563608e-01 -5.813495066740130834e-01 6.257965625517192265e-01
5.837098289870866485e-02 -4.646176777617165576e-02 -1.098712833598238792e+00 7.678132839403105647e-01 -3.061533373889093190e-01 5.627902762223495614e-01
-1.907928576040037252e-02 6.002322233597390949e-02 -9.325896150593709910e-01 7.002929036567316912e-01 -4.033764048455021900e-01 5.889629233677965425e-01
-2.263992787059914552e-02 -4.334029092528998012e-03 -9.674469759866360929e-01 7.172597799411649655e-01 -3.211496830787721746e-01 6.183860356906161204e-01
6.113045046162837726e-02 8.207600889359013829e-02 -1.022274849384497308e+00 7.927189021302585292e-01 -5.103453758139073759e-01 3.333831723269181091e-01
4.140440930504336869e-02 1.204947706684518227e-01 -9.423773341134179526e-01 5.925683597782047674e-01 -4.846276375676594195e-01 6.434273788823081652e-01
-1.855207721682299721e-02 7.007176355340748175e-02 -9.263343078367206607e-01 7.002929036567316912e-01 -4.033764048455021900e-01 5.889629233677965425e-01
-6.205828838803975622e-02 -1.018615296228348732e-01 -8.289600178496377980e-01 9.439473859606575257e-01 -1.381138176694596820e-01 -2.998131183034004610e-01
-7.345822446563407548e-02 -7.269395899739858335e-02 -8.492682877591631874e-01 9.992039864115249692e-01 -3.944918799443062479e-02 5.929174132794116578e-03
1.447801765848526767e-01 1.547036944315105245e-01 -1.028954747996269958e+00 -1.576789459965290130e-01 -4.657652307802843672e-01 8.707468632074490955e-01
-5.767595870891460696e-02 1.772685958333921827e-02 -7.837559106068615611e-01 9.318669284925278351e-01 -3.025608048589465415e-01 2.002023649835544816e-01
3.754048551476803913e-02 -4.689134818650204234e-02 -1.074257664670799306e+00 7.130578245524422654e-01 -2.920144824432356900e-01 6.373978984025188144e-01
1.434924430928630756e-01 9.486870673494242345e-02 -1.064253443640389873e+00 2.627483263261370383e-01 -3.054392139731993971e-01 9.152432483117524109e-01
-7.409663607125700768e-02 -9.170256873241289242e-02 -8.681530084861630581e-01 9.992039864115249692e-01 -3.944918799443062479e-02 5.929174132794116578e-03
-5.772738189177274021e-02 -7.616526953361589525e-02 -9.361794018840874365e-01 9.709591384461301322e-01 -1.373380693679730410e-02 2.388508614490880144e-01
-7.936065219707304219e-02 -1.655061410507978059e-01 -8.871530834599691273e-01 9.885660443335784198e-01 1.029128672828022589e-01 1.102094267215538437e-01
-4.792754835036382860e-02 -1.720756172585277688e-02 -8.643689240852888700e-01 9.267975996431976338e-01 -2.796832940258592304e-01 2.506460938025003027e-01
-3.247658630645551547e-02 -6.512927909036717034e-02 -9.910429181994938608e-01 8.150452321002882305e-01 -1.188908785568343618e-01 5.670680987558472941e-01
-5.440531211495605590e-02 -7.764284761750886443e-02 -9.472458658634909101e-01 9.103345396144653101e-01 -2.710587547873355985e-01 3.127589765906947372e-01
-3.015576065705590642e-02 5.188943892213319226e-02 -9.206135482960394745e-01 9.900786652826158996e-01 -1.365761025110350524e-01 3.303338879208667783e-02
-2.398469844063177286e-02 9.869517851047550361e-02 -8.571061596995253051e-01 9.385053470938713449e-01 -3.395714803764272038e-01 6.244135801833426702e-02
1.313790359423762377e-01 3.120840116603725012e-02 -1.139253598601226880e+00 7.869098315900935336e-01 -5.329557090670326014e-01 3.110162843320382620e-01
-3.833506791302049993e-02 1.014745271325916826e-02 -8.832090388625893906e-01 9.844641319733385965e-01 -1.181587280557259839e-01 1.298802827308051522e-01
-3.408832263416354535e-02 4.620181992624750045e-02 -8.825979394377175824e-01 9.844641319733385965e-01 -1.181587280557259839e-01 1.298802827308051522e-01
2.075906506425063275e-02 1.419547320808665358e-01 -9.055616197542719625e-01 6.609823834114232355e-01 -5.507023983317079763e-01 5.097343987720065472e-01
