-1.222450657463490346e-02 4.470894950315473099e-02 -6.158570053994268934e-01 9.125806813827644914e-01 1.319126889764866417e-01 -3.870342910569575245e-01
-5.075049826227011167e-03 1.018874004458973220e-01 -6.021216040784935775e-01 8.926867843195120944e-01 -9.715984879786319917e-02 -4.400798437589083512e-01
-1.981451962348350164e-04 1.021794290881689743e-01 -5.922934446792587071e-01 8.926867843195120944e-01 -9.715984879786319917e-02 -4.400798437589083512e-01
1.497486477016775602e-03 1.374065453696957928e-01 -6.861477706923901909e-01 9.301094338760071967e-01 -2.923647443252259115e-01 2.223045147775868924e-01
-1.738755009420333425e-02 -7.823219006088144058e-04 -6.409766064515129980e-01 8.730451895913342586e-01 1.105178081750447794e-01 -4.749504300530900114e-01
8.905810408193963121e-03 8.900724038870388988e-02 -8.432100420249998285e-01 7.601514393838437744e-01 -1.626938717118640298e-01 6.290472902016778223e-01
-1.093838179961563462e-02 3.335665674350799664e-02 -6.166936724543242709e-01 9.125806813827644914e-01 1.319126889764866417e-01 -3.870342910569575245e-01
-3.413255088805236537e-02 -1.053328654678441362e-01 -8.671137193145797006e-01 9.391790920502878226e-01 -3.406220333376815401e-01 4.380939922550851351e-02
1.621825559620698048e-02 1.982757264695688415e-01 -6.091002910460959763e-01 9.310518173092531269e-01 -3.608243341833474171e-01 5.429837332997230342e-02
6.250650469671455156e-02 -1.202477404272801059e-01 -5.340698458210516586e-01 6.932555343342455823e-01 -1.190104335530251245e-01 -7.107976370391650978e-01
-1.753783197512368691e-02 -1.932098161000570663e-02 -9.271226971296540054e-01 9.804706370478261102e-01 -8.054792373801927807e-02 -1.794139400061318113e-01
-3.509277804852651422e-02 -1.159104307468288436e-01 -7.656031625546000363e-01 9.851878672603087139e-01 -1.130310339142038545e-01 -1.289529044859789864e-01
6.473668403317572873e-02 -9.158128293648552798e-02 -5.263715094627987590e-01 6.488237169109458691e-01 5.621627046668628003e-01 -5.128361120821176566e-01
6.778638085548531478e-02 -2.077837449866233033e-01 -5.340292967705616567e-01 6.313028278385096614e-01 2.287434564570144935e-01 -7.410352020593887756e-01
-2.922742155514567591e-02 -8.957882777334881530e-02 -8.497800545546502216e-01 9.391790920502878226e-01 -3.406220333376815401e-01 4.380939922550851351e-02
1.165689266996061853e-02 1.864779155335511418e-01 -5.801334428892355177e-01 8.175941297773816618e-01 6.606865400622029261e-02 -5.719919334320825444e-01
-1.424705810306821190e-02 6.068281752093616227e-02 -7.378311561918896588e-01 9.189111776626748274e-01 -3.458506422877036801e-01 1.897092006091923577e-01
4.134187514855852674e-02 -6.240927744034809738e-03 -4.766585434904938579e-01 5.567577062733840565e-01 3.833721459216496985e-01 -7.369169927723404623e-01
7.935697172821627732e-02 -4.007442171986267537e-02 -4.665593688602690525e-01 5.502438560549554047e-01 3.999712822797731326e-01 -7.329765836813937341e-01
4.009029046625069842e-02 2.219750783655503532e-02 -4.875535659318219195e-01 7.800239923547906962e-01 -2.142671390473429027e-01 -5.879219033811889927e-01
3.609278477855695777e-02 -2.901468731196086420e-02 -4.990823958967199880e-01 6.631405503375595867e-01 4.774590869229816681e-01 -5.764351054651953854e-01
7.106754020510810954e-02 -1.694414273754909356e-02 -4.601604760679380290e-01 5.502438560549554047e-01 3.999712822797731326e-01 -7.329765836813937341e-01
-3.324403660682146572e-02 -1.185996362004947402e-01 -7.383607922408399471e-01 9.946468401927208713e-01 1.032467572773499015e-01 4.215495978855378356e-03
-1.741187831715149473e-02 -1.125960168309080543e-02 -9.300535371317623090e-01 9.804706370478261102e-01 -8.054792373801927807e-02 -1.794139400061318113e-01
-9.071001937537070958e-03 1.085691530286141682e-01 -7.997461970019238420e-01 9.473798488515600136e-01 -2.842933017705986387e-01 -1.471351098764893672e-01
8.587305256004870019e-03 -3.728342613903173203e-02 -5.637415364550175667e-01 8.783705802813629449e-01 -3.695823020965989802e-01 -3.031073170894420521e-01
-2.936095521873934369e-02 6.502356482137312821e-02 -6.502784392155687154e-01 9.733458451280926349e-01 -1.902024440707388298e-01 1.281440441120703655e-01
-3.644518126668922116e-03 2.313911594486895221e-02 -8.984933015058413908e-01 8.819945144140586279e-01 -2.985680424795914001e-01 -3.646132204863307691e-01
5.953350745239113090e-03 1.630610155484766566e-01 -6.670253234687211208e-01 9.356178313596561491e-01 -3.464979575928892608e-01 6.751621305886473801e-02
1.634891668833233710e-02 1.773372241456622200e-01 -7.920670119379874530e-01 7.216436284659361045e-01 -6.448033194997262463e-01 2.519110014601418368e-01
-3.904176400925613716e-02 -7.913954037174548983e-02 -7.077906649169372066e-01 9.860309864666694235e-01 1.650402356939314474e-01 -2.246362236279762434e-02
6.499006181204515509e-02 -8.738564018156730340e-02 -5.214517479020421842e-01 6.488237169109458691e-01 5.621627046668628003e-01 -5.128361120821176566e-01
-1.034192299352681629e-02 5.128232916691138725e-03 -6.249083722428196985e-01 9.125806813827644914e-01 1.319126889764866417e-01 -3.870342910569575245e-01
-3.988730854615041288e-02 -5.296001500966018849e-02 -7.176605032036897924e-01 9.230691262589511004e-01 -2.470188872621615905e-01 2.948305572414431919e-01
-2.235859800755994609e-02 -1.062969641511469776e-01 -6.470170021729024779e-01 9.490127150935619982e-01 1.962889854664743097e-02 -3.146260843169090826e-01
1.498825097095181575e-03 -2.729765689887286503e-02 -5.944448902351834318e-01 9.631748546119104359e-01 -3.243714299188907996e-02 -2.669120289493310261e-01
6.274811397815432436e-03 6.588873071839006224e-02 -5.760293528952263875e-01 8.873459372940957213e-01 -3.105644505571100028e-02 -4.600572625099666468e-01
8.133581569518592846e-03 4.216604743478840484e-02 -8.834661592660878471e-01 8.878578967945915945e-01 -4.490565563700666396e-01 -1.002824225901097349e-01
7.634940973590326196e-03 1.672074927714537751e-01 -6.683776480470289272e-01 9.310518173092531269e-01 -3.608243341833474171e-01 5.429837332997230342e-02
-3.313992016672873131e-02 -7.305280319106487175e-02 -6.766381880627737599e-01 9.785736045299486818e-01 -2.493516389476607698e-02 -2.043818439069491899e-01
8.115541461795225744e-03 1.750783393954509215e-01 -6.243150198706619580e-01 9.310518173092531269e-01 -3.608243341833474171e-01 5.429837332997230342e-02
-2.866352820275893526e-02 -5.952492645355988293e-02 -8.305914268926705146e-01 9.820111450800911301e-01 -7.677066503085662463e-02 1.725119588005654403e-01
-6.925189022562614101e-03 -1.558336299976975925e-01 -6.073231717964999721e-01 8.540377944258282783e-01 3.460322564727612016e-01 -3.884341941341360460e-01
-8.194279048625801795e-03 1.062816586431195205e-02 -8.868020130049144578e-01 8.878578967945915945e-01 -4.490565563700666396e-01 -1.002824225901097349e-01
-2.081486557752205632e-02 -4.433695792026691278e-03 -8.396949215946829526e-01 8.236608122197981441e-01 -3.241579279212635778e-01 4.653004450666420877e-01
2.439490116278679802e-02 1.179760011430443511e-01 -8.530796267137025213e-01 7.495508979748222167e-01 -1.853137536666701612e-01 6.354779807728243579e-01
-1.208096075753546314e-02 -1.747355412919435746e-01 -6.354975578396502289e-01 8.540377944258282783e-01 3.460322564727612016e-01 -3.884341941341360460e-01
6.880606958358005676e-02 -1.623098563085324519e-01 -5.260218087610696314e-01 5.954783906537149951e-01 6.023729582386810194e-02 -8.011098267130977169e-01
-3.943909504800206800e-02 -1.181654449277425301e-01 -8.531273139243967796e-01 9.391790920502878226e-01 -3.406220333376815401e-01 4.380939922550851351e-02
-6.609515614213540106e-03 1.105341446497185992e-01 -6.875698895400960131e-01 9.301094338760071967e-01 -2.923647443252259115e-01 2.223045147775868924e-01
-3.372565318532404210e-02 -5.906508865302959044e-02 -8.021295419853958775e-01 9.801727182563934049e-01 -5.164932880342582022e-02 1.912950318749229994e-01
-1.642136081534290373e-02 5.887719803916452443e-02 -8.203969520714563535e-01 7.601514393838437744e-01 -1.626938717118640298e-01 6.290472902016778223e-01
2.115749775852402217e-02 -7.580937327113908275e-02 -5.531032551877943515e-01 5.556064521706749471e-01 5.024709754976051101e-01 -6.624382152992087658e-01
-3.273085532370984679e-02 -1.165842658415952721e-01 -6.789448459823522741e-01 9.490127150935619982e-01 1.962889854664743097e-02 -3.146260843169090826e-01
-2.353633643852504065e-02 3.191352482357754511e-02 -7.459383511363569808e-01 9.735852114382090861e-01 -1.424103161670335349e-01 -1.784688710056267225e-01
3.072371464251116152e-02 1.654934345335271895e-01 -8.355206869090089361e-01 4.734589101671837219e-01 -6.208416628691777461e-01 6.248138042882349641e-01
-1.868392773543158967e-03 1.487186363121970334e-01 -6.282868184228461717e-01 9.310518173092531269e-01 -3.608243341833474171e-01 5.429837332997230342e-02
-4.980565370605385088e-03 1.072796471602494354e-04 -6.139782194284514327e-01 9.125806813827644914e-01 1.319126889764866417e-01 -3.870342910569575245e-01
-1.660426986196043841e-02 -1.553991275207927125e-01 -6.378540301416704139e-01 9.512519046642105014e-01 1.599853049785351922e-01 -2.636750197945130769e-01
6.704521779135862343e-03 9.920892126616086271e-02 -5.776358006908074438e-01 8.926867843195120944e-01 -9.715984879786319917e-02 -4.400798437589083512e-01
-3.510849646866309043e-02 -5.007526492690519276e-02 -7.302052888190476709e-01 9.230691262589511004e-01 -2.470188872621615905e-01 2.948305572414431919e-01
-3.349813405464773658e-02 -1.170093890073796994e-01 -7.173551127034751840e-01 9.946468401927208713e-01 1.032467572773499015e-01 4.215495978855378356e-03
1.973833573679457595e-02 6.516979560472382915e-02 -8.763478316349992969e-01 8.819945144140586279e-01 -2.985680424795914001e-01 -3.646132204863307691e-01
-2.493410509196572825e-02 -2.333997217503254451e-02 -8.375306563711782948e-01 9.801727182563934049e-01 -5.164932880342582022e-02 1.912950318749229994e-01
-4.680787871552200691e-03 1.444744805241190422e-01 -6.148390742467613190e-01 8.966973840442038490e-01 -3.782197009842241942e-01 2.299644738556052281e-01
1.989088673456586905e-03 8.052786461220198810e-02 -5.852837619703856742e-01 8.873459372940957213e-01 -3.105644505571100028e-02 -4.600572625099666468e-01
-2.768433193261447128e-02 -1.690698735276165987e-01 -6.878293991649809813e-01 9.527596841553052087e-01 9.908995896134334402e-02 -2.871065382071991134e-01
2.540554062892303941e-02 1.610318316505473801e-01 -8.359240263977472107e-01 4.734589101671837219e-01 -6.208416628691777461e-01 6.248138042882349641e-01
1.643003200121765511e-02 1.732493463142256440e-01 -8.027629066330062013e-01 7.216436284659361045e-01 -6.448033194997262463e-01 2.519110014601418368e-01
-3.441893660047791459e-02 -3.296649441347005577e-02 -7.816979882517797185e-01 9.856570035841966115e-01 -3.124024878081271134e-02 1.658442586933164264e-01
4.143806882744832513e-04 1.258142213421485633e-01 -6.968618128288579516e-01 9.301094338760071967e-01 -2.923647443252259115e-01 2.223045147775868924e-01
-3.785786781268005163e-02 -4.630528910447625351e-02 -7.184388183778447345e-01 9.230691262589511004e-01 -2.470188872621615905e-01 2.948305572414431919e-01
5.272132787371996976e-02 2.442495628509272834e-02 -4.716071567815666721e-01 7.800239923547906962e-01 -2.142671390473429027e-01 -5.879219033811889927e-01
-2.946531251883282784e-02 -1.314883680878732031e-01 -6.697872716152235562e-01 9.503520739698492203e-01 5.220151995280916842e-03 -3.111329065115935877e-01
3.853059100108595370e-02 1.626780235407927488e-01 -8.442339380849044339e-01 4.734589101671837219e-01 -6.208416628691777461e-01 6.248138042882349641e-01
-1.705362085074475439e-02 4.135407848896142935e-02 -6.283869195834529409e-01 9.125806813827644914e-01 1.319126889764866417e-01 -3.870342910569575245e-01
-7.292226511422105796e-03 -1.815093876533724337e-02 -6.256517793432245789e-01 9.125806813827644914e-01 1.319126889764866417e-01 -3.870342910569575245e-01
-2.315364585883687015e-02 5.711342202970248055e-02 -7.899293430564174878e-01 9.447241161714784452e-01 -2.897225566505959859e-01 -1.534834990865822923e-01
3.735184836184818336e-02 1.903955694129177631e-02 -4.900358776659745619e-01 7.800239923547906962e-01 -2.142671390473429027e-01 -5.879219033811889927e-01
5.848634660878918555e-03 -2.623962250656070028e-02 -5.788768111281081818e-01 9.631748546119104359e-01 -3.243714299188907996e-02 -2.669120289493310261e-01
7.900609808884812707e-03 -1.236704427801143917e-02 -5.731579828415345190e-01 9.631748546119104359e-01 -3.243714299188907996e-02 -2.669120289493310261e-01
-2.894610769716973037e-02 -1.833645155128626747e-01 -6.963337965397951024e-01 9.521421888472089146e-01 -1.609150536992886085e-02 -3.052315771216589924e-01
-3.132937388821229602e-02 -2.255719810442140955e-02 -7.461447704094871236e-01 9.687638126021683727e-01 -1.373095988275083446e-01 -2.065012093483692412e-01
-3.606248048526743133e-02 -2.320891017250576588e-02 -6.808862106246278412e-01 8.740344779977120560e-01 1.144360666555867961e-01 -4.721949998884622524e-01
-2.532988414468330396e-02 2.727160557210278960e-02 -7.346191727085256140e-01 9.828446157604294742e-01 -1.049330823708570087e-01 1.516756720601052655e-01
-1.883732443811607024e-02 8.088335154896722501e-03 -6.415774121862654056e-01 8.730451895913342586e-01 1.105178081750447794e-01 -4.749504300530900114e-01
-1.012215785181909584e-02 5.691570160354423452e-02 -6.070496515077316024e-01 8.873459372940957213e-01 -3.105644505571100028e-02 -4.600572625099666468e-01
7.403749528832230878e-03 4.875843058166411115e-02 -8.525896394803207379e-01 8.236608122197981441e-01 -3.241579279212635778e-01 4.653004450666420877e-01
5.551943411859595195e-03 1.659820565616033083e-01 -6.408038669376375784e-01 9.310518173092531269e-01 -3.608243341833474171e-01 5.429837332997230342e-02
-1.766921133909387515e-02 7.531867200662908934e-02 -8.106851875056531043e-01 9.575329109116127446e-01 -1.615031141050895236e-01 2.388461191970502606e-01
3.178189833241967799e-02 1.770930507722753844e-01 -8.260735529373431918e-01 4.149951726998690194e-01 -4.452504957034317257e-01 7.934298977929016283e-01
-2.552178394159665409e-02 -1.045410485321770500e-01 -6.564486327019075640e-01 9.490127150935619982e-01 1.962889854664743097e-02 -3.146260843169090826e-01
2.263594515668052812e-03 1.727494691127407778e-01 -5.954136902559161726e-01 8.966973840442038490e-01 -3.782197009842241942e-01 2.299644738556052281e-01
2.742181558679188461e-02 1.820688239689084165e-01 -8.116760629024761808e-01 7.216436284659361045e-01 -6.448033194997262463e-01 2.519110014601418368e-01
4.270791237732573555e-03 1.044837367749859025e-01 -5.837371011849298297e-01 8.926867843195120944e-01 -9.715984879786319917e-02 -4.400798437589083512e-01
3.863726118904710783e-03 1.599882813048301988e-01 -6.516860011787574125e-01 9.310518173092531269e-01 -3.608243341833474171e-01 5.429837332997230342e-02
7.274970290863173872e-02 2.199138568117262882e-01 -8.210131295341422941e-01 5.195565570402602695e-01 -6.823908575118127207e-01 5.142020046837273428e-01
-1.167982691459813066e-02 -1.379980245888239865e-01 -6.155709178283419458e-01 9.503520739698492203e-01 5.220151995280916842e-03 -3.111329065115935877e-01
-2.089270220621524538e-02 -7.783448408437440569e-02 -6.222385236144525322e-01 9.313563988669294469e-01 2.353056699440204680e-01 -2.778605765160300223e-01
1.150887346888046329e-02 2.857442980969355367e-02 -5.651127688986148367e-01 9.631748546119104359e-01 -3.243714299188907996e-02 -2.669120289493310261e-01
-5.680165556728031771e-03 1.246582094952496389e-01 -8.067973053505554937e-01 8.836556398901118659e-01 -4.046122663515480666e-01 2.354604510491324632e-01
-4.027908938709626879e-02 -1.161823564702678252e-01 -8.241573997535032170e-01 9.518683362058616426e-01 -2.102698291333038039e-01 2.230095726307181891e-01
7.136474825694585911e-02 -5.142096038765773874e-04 -4.509963177913698384e-01 5.567577062733840565e-01 3.833721459216496985e-01 -7.369169927723404623e-01
-3.179392353006370298e-02 -1.615712360750151677e-02 -7.941327484766723677e-01 9.856570035841966115e-01 -3.124024878081271134e-02 1.658442586933164264e-01
9.697062386269234696e-03 1.895850642132295427e-01 -5.825758909773749439e-01 8.175941297773816618e-01 6.606865400622029261e-02 -5.719919334320825444e-01
2.171022067779850018e-02 -1.916686428115847440e-01 -5.808407612034294232e-01 8.135756250556364089e-01 2.813848477844149154e-01 -5.088391393679069230e-01
-2.345517225780075279e-02 -1.499106256028326922e-01 -6.592396521239349827e-01 9.512519046642105014e-01 1.599853049785351922e-01 -2.636750197945130769e-01
-5.870658701219070609e-03 1.378842789240091460e-01 -6.316567688349469245e-01 9.310518173092531269e-01 -3.608243341833474171e-01 5.429837332997230342e-02
1.416059777506666409e-02 -1.807317062770469607e-01 -5.868636881225983704e-01 8.135756250556364089e-01 2.813848477844149154e-01 -5.088391393679069230e-01
8.014837615283551021e-04 2.588221137051440607e-02 -8.568395392058349991e-01 8.236608122197981441e-01 -3.241579279212635778e-01 4.653004450666420877e-01
3.660334413402794099e-03 1.200493074063632704e-01 -7.380751399014366942e-01 9.704741950008468621e-01 -1.759320402111714809e-01 -1.650083454392317350e-01
5.747079350878169651e-02 -1.251833438557080069e-01 -5.381548992809582765e-01 6.932555343342455823e-01 -1.190104335530251245e-01 -7.107976370391650978e-01
-2.105554504883980910e-02 -1.464356575465709798e-01 -6.484741507901643498e-01 9.512519046642105014e-01 1.599853049785351922e-01 -2.636750197945130769e-01
-2.502453712658709098e-02 4.117667036699276806e-02 -7.713621331999360731e-01 9.447241161714784452e-01 -2.897225566505959859e-01 -1.534834990865822923e-01
-3.652150690799173260e-02 9.801939024958116267e-03 -6.756142492918794096e-01 9.230691262589511004e-01 -2.470188872621615905e-01 2.948305572414431919e-01
5.984027347021662890e-02 -7.758899467028275432e-02 -5.172281687253683646e-01 6.488237169109458691e-01 5.621627046668628003e-01 -5.128361120821176566e-01
-5.229650347809843176e-03 1.094437392487428301e-01 -6.947772186383378568e-01 9.301094338760071967e-01 -2.923647443252259115e-01 2.223045147775868924e-01
-2.218583622574855918e-03 1.213016683387747735e-01 -6.917803436530087779e-01 9.301094338760071967e-01 -2.923647443252259115e-01 2.223045147775868924e-01
-2.353381203073531130e-02 -4.706081225585423411e-02 -8.584132315184842543e-01 9.935289042182271491e-01 -8.092324786637328238e-02 7.969783207644963452e-02
-1.549384576823868188e-02 -1.452422996217155315e-01 -6.276853147082716022e-01 9.512519046642105014e-01 1.599853049785351922e-01 -2.636750197945130769e-01
-2.229243374891877114e-02 -2.923244353924408373e-02 -8.557860045137017924e-01 9.935289042182271491e-01 -8.092324786637328238e-02 7.969783207644963452e-02
-3.569922709090595815e-03 1.401105485767102921e-01 -6.528382936892259680e-01 9.356178313596561491e-01 -3.464979575928892608e-01 6.751621305886473801e-02
6.143720872427911595e-02 -4.581305089842690331e-02 -4.838397713232748254e-01 6.631405503375595867e-01 4.774590869229816681e-01 -5.764351054651953854e-01
7.292272492266676891e-03 -8.812625218797909277e-02 -5.740749963438930292e-01 5.556064521706749471e-01 5.024709754976051101e-01 -6.624382152992087658e-01
-2.387045715606645260e-02 -1.762520238912918813e-01 -6.776518979455130598e-01 9.527596841553052087e-01 9.908995896134334402e-02 -2.871065382071991134e-01
-2.710541679386768710e-02 2.252658370553977524e-02 -7.579180683155379850e-01 9.735852114382090861e-01 -1.424103161670335349e-01 -1.784688710056267225e-01
-2.049079535515151498e-02 -3.296135986508769156e-02 -6.544264689837352433e-01 8.740344779977120560e-01 1.144360666555867961e-01 -4.721949998884622524e-01
-2.187921086723997391e-02 2.514875447855569740e-02 -6.431991059784905040e-01 8.730451895913342586e-01 1.105178081750447794e-01 -4.749504300530900114e-01
1.230009459168109401e-02 -9.647933088734686469e-02 -5.762107447050937026e-01 5.556064521706749471e-01 5.024709754976051101e-01 -6.624382152992087658e-01
7.294388396350152959e-02 -1.586077235111940931e-01 -5.226677299235943375e-01 5.954783906537149951e-01 6.023729582386810194e-02 -8.011098267130977169e-01
-1.772857046132714567e-02 -3.409339952338859975e-02 -9.138791536235925106e-01 9.807340824126878909e-01 -1.699671810222240231e-01 9.629027453227866074e-02
9.799288382445096174e-03 1.154978242043046971e-01 -5.748663644798157613e-01 8.951944235905939795e-01 -8.450270750344812676e-02 -4.375914034769087801e-01
4.430416408050774635e-02 -2.093944339010210265e-01 -5.620723563002847367e-01 6.999466430250054216e-01 3.806640511478339151e-01 -6.042926253742838538e-01
-5.909736337031620997e-03 1.000953061326689403e-01 -6.034190822812287580e-01 8.926867843195120944e-01 -9.715984879786319917e-02 -4.400798437589083512e-01
2.988018728531342816e-02 1.828743416289390911e-01 -8.166566624168414279e-01 7.216436284659361045e-01 -6.448033194997262463e-01 2.519110014601418368e-01
-3.162296364099647338e-03 -1.715691680960029497e-01 -6.130676485752469818e-01 8.540377944258282783e-01 3.460322564727612016e-01 -3.884341941341360460e-01
-3.636557926375855870e-02 -8.416724872170419647e-02 -7.881804802608932681e-01 9.962739583013842104e-01 -8.209197745788666609e-03 -8.585341625621169259e-02
-1.480900830895047135e-02 -1.200951051010793261e-03 -9.203450708274503178e-01 9.804706370478261102e-01 -8.054792373801927807e-02 -1.794139400061318113e-01
5.557180060812621364e-02 2.065653615355143302e-01 -8.204376735756225836e-01 6.189539418861357278e-01 -6.309001902009537810e-01 4.678257879040170764e-01
3.886034508906131228e-03 1.604739125483218565e-01 -7.798484642779244247e-01 9.704741950008468621e-01 -1.759320402111714809e-01 -1.650083454392317350e-01
1.242455785533952937e-02 -5.144355890486886074e-02 -5.443855914204527302e-01 8.441664893321592089e-01 2.054351874146803092e-01 -4.951558563326425300e-01
-2.659932478351400079e-02 -5.009829180100992818e-02 -8.381467393544491662e-01 9.820111450800911301e-01 -7.677066503085662463e-02 1.725119588005654403e-01
9.147915597068465368e-03 1.731375021096097921e-01 -5.852606272321195791e-01 8.175941297773816618e-01 6.606865400622029261e-02 -5.719919334320825444e-01
1.890410509743147135e-03 -1.379456268931828766e-01 -5.960365611435224364e-01 6.681419679201516804e-01 8.087109331780246990e-02 -7.396257005873784207e-01
8.982643403140015692e-02 2.315829019365950314e-01 -8.219096057971108094e-01 3.609785758275231293e-01 -5.054244979210735789e-01 7.837349964718712814e-01
-2.646354798259735464e-02 7.850986529354152255e-02 -6.466186179509733067e-01 9.301094338760071967e-01 -2.923647443252259115e-01 2.223045147775868924e-01
8.658248845681031092e-02 -1.901534040757754951e-01 -5.176284996015302342e-01 4.030710980036101287e-01 1.466760415159479303e-01 -9.033381586091534521e-01
-2.153612632511186023e-02 -6.843446692038904211e-02 -6.221208774201473224e-01 9.340887405470972293e-01 -3.082818755130914967e-01 -1.801124926629691370e-01
-2.996328492871010857e-02 -3.130197114562439237e-02 -8.139114702159853110e-01 9.801727182563934049e-01 -5.164932880342582022e-02 1.912950318749229994e-01
6.619505556634329435e-02 -1.074262110351901917e-01 -5.326190636595160566e-01 6.932555343342455823e-01 -1.190104335530251245e-01 -7.107976370391650978e-01
1.087663523559554736e-02 1.620150292674337744e-01 -8.047395622736307486e-01 8.836556398901118659e-01 -4.046122663515480666e-01 2.354604510491324632e-01
-1.236737828146916574e-02 -4.318594842413333440e-02 -6.177860105545368574e-01 9.340887405470972293e-01 -3.082818755130914967e-01 -1.801124926629691370e-01
-2.361557785311660385e-02 -4.995325141701087435e-02 -8.603308352886479549e-01 9.935289042182271491e-01 -8.092324786637328238e-02 7.969783207644963452e-02
2.154232764977244766e-02 7.499359442652187013e-02 -8.621046486364690731e-01 7.601514393838437744e-01 -1.626938717118640298e-01 6.290472902016778223e-01
2.715633387096990162e-02 -1.559624313763225412e-01 -5.649404313587754745e-01 7.420880031246380737e-01 -1.564105297119234295e-01 -6.517983904657349559e-01
-3.345273775946145528e-02 -8.141295337764501913e-03 -7.064833613831756898e-01 9.828446157604294742e-01 -1.049330823708570087e-01 1.516756720601052655e-01
-2.354494343814336754e-02 8.766566375410159498e-03 -8.256660766848493704e-01 8.236608122197981441e-01 -3.241579279212635778e-01 4.653004450666420877e-01
-2.598710845334276445e-02 3.179897277157796992e-02 -7.595851917848932544e-01 9.447241161714784452e-01 -2.897225566505959859e-01 -1.534834990865822923e-01
5.712462114692367331e-03 1.511145002298919793e-01 -6.857549126622654034e-01 9.301094338760071967e-01 -2.923647443252259115e-01 2.223045147775868924e-01
-2.537541327880917311e-02 -1.357834073391874473e-02 -8.326338226799638864e-01 9.801727182563934049e-01 -5.164932880342582022e-02 1.912950318749229994e-01
3.357136672909592084e-02 1.231027465175854874e-01 -8.624083080455138273e-01 7.495508979748222167e-01 -1.853137536666701612e-01 6.354779807728243579e-01
2.777629591552348634e-02 -3.053813034027388906e-02 -5.099116855419923988e-01 6.631405503375595867e-01 4.774590869229816681e-01 -5.764351054651953854e-01
4.262485572981008358e-02 -1.093905278393996483e-01 -5.561168092361715720e-01 6.681419679201516804e-01 8.087109331780246990e-02 -7.396257005873784207e-01
-2.866969800958860462e-02 -3.060725017678455739e-03 -7.339621581119650795e-01 9.828446157604294742e-01 -1.049330823708570087e-01 1.516756720601052655e-01
-3.536249203519242681e-03 1.012967489583690428e-01 -7.500571120536633218e-01 9.473798488515600136e-01 -2.842933017705986387e-01 -1.471351098764893672e-01
5.854503766339612392e-02 -1.059284395493305109e-01 -5.412101835106970515e-01 7.420880031246380737e-01 -1.564105297119234295e-01 -6.517983904657349559e-01
6.593785035417888685e-02 2.175524663661958791e-01 -8.172641137939227196e-01 5.195565570402602695e-01 -6.823908575118127207e-01 5.142020046837273428e-01
-3.415746959954391732e-02 2.321981617171783863e-02 -6.758942050014468128e-01 9.733458451280926349e-01 -1.902024440707388298e-01 1.281440441120703655e-01
-5.677974291613889848e-03 9.214640419284834960e-02 -7.219780781502109779e-01 9.189111776626748274e-01 -3.458506422877036801e-01 1.897092006091923577e-01
-6.344822750180484534e-03 1.221193005140087384e-01 -8.086657534802184077e-01 8.836556398901118659e-01 -4.046122663515480666e-01 2.354604510491324632e-01
6.098396364620300297e-02 -1.947473528797525333e-01 -5.358003271162934400e-01 6.313028278385096614e-01 2.287434564570144935e-01 -7.410352020593887756e-01
-2.419712046190483634e-02 -1.588315245557291727e-02 -8.392935484407548774e-01 9.801727182563934049e-01 -5.164932880342582022e-02 1.912950318749229994e-01
-1.007372178684574210e-02 6.050113787532628712e-02 -6.071982663969516247e-01 8.873459372940957213e-01 -3.105644505571100028e-02 -4.600572625099666468e-01
1.792601421334800993e-02 1.202784696882220651e-02 -5.419791911261176987e-01 9.474987682974109759e-01 -5.592545645931254472e-02 -3.148307916877035595e-01
2.179226566072829316e-02 1.999947088369254389e-01 -5.722062915029715313e-01 6.860686446356705215e-01 -4.449951135251347112e-01 -5.755772439790564077e-01
-2.730874578346779210e-03 1.322670028768290207e-01 -6.752158403040968704e-01 9.301094338760071967e-01 -2.923647443252259115e-01 2.223045147775868924e-01
-3.116738730216535996e-02 -1.162262680402564169e-01 -6.742065925160289908e-01 9.490127150935619982e-01 1.962889854664743097e-02 -3.146260843169090826e-01
1.862671899566774661e-02 7.741754731493094566e-02 -8.579544576476118012e-01 7.601514393838437744e-01 -1.626938717118640298e-01 6.290472902016778223e-01
-1.704301601127951316e-02 -9.920347649403008297e-03 -6.424696480579341618e-01 8.730451895913342586e-01 1.105178081750447794e-01 -4.749504300530900114e-01
-3.273185628994276092e-02 -1.853885078089454949e-02 -7.183479009513559221e-01 9.828446157604294742e-01 -1.049330823708570087e-01 1.516756720601052655e-01
2.264831226162045824e-02 -1.666944587133535050e-01 -5.674975820020381478e-01 7.420880031246380737e-01 -1.564105297119234295e-01 -6.517983904657349559e-01
1.987051796954948657e-02 -9.643777402119733944e-02 -5.698296859197534703e-01 5.556064521706749471e-01 5.024709754976051101e-01 -6.624382152992087658e-01
1.083538101011180706e-02 6.269884718693242986e-02 -8.958605936499181022e-01 8.819945144140586279e-01 -2.985680424795914001e-01 -3.646132204863307691e-01
-1.732156513858721172e-02 -9.212826768901617724e-02 -6.223731485707088007e-01 9.313563988669294469e-01 2.353056699440204680e-01 -2.778605765160300223e-01
6.499592633040626732e-02 -7.312584704875085828e-02 -5.058129722285170660e-01 6.488237169109458691e-01 5.621627046668628003e-01 -5.128361120821176566e-01
-3.720334968928992736e-02 -4.883471488766968210e-02 -7.682436391213017801e-01 9.901681814083089783e-01 -8.378618528902741225e-02 1.120127121414105642e-01
-2.064449932787913028e-02 -1.449568266765826896e-01 -6.460939509775170952e-01 9.512519046642105014e-01 1.599853049785351922e-01 -2.636750197945130769e-01
-2.482124278254178862e-02 -1.251434776530241100e-01 -6.554955573511701550e-01 9.503520739698492203e-01 5.220151995280916842e-03 -3.111329065115935877e-01
-3.510094098435254800e-02 -1.017628440721048688e-01 -7.466142045933713556e-01 9.908673582894039766e-01 1.121715440716299916e-01 7.482929224016494907e-02
-3.836383138286305478e-02 -5.637259317166320310e-02 -7.566606871834451464e-01 9.687638126021683727e-01 -1.373095988275083446e-01 -2.065012093483692412e-01
3.864212864969730071e-02 2.262100368279903739e-01 -5.723896382100343017e-01 6.860686446356705215e-01 -4.449951135251347112e-01 -5.755772439790564077e-01
-1.950645748106286798e-02 -1.447839256134418227e-04 -6.447231923877833060e-01 8.730451895913342586e-01 1.105178081750447794e-01 -4.749504300530900114e-01
-1.439316694002269054e-02 6.007119600441883367e-02 -8.225390459376565877e-01 7.601514393838437744e-01 -1.626938717118640298e-01 6.290472902016778223e-01
-2.791531901687605705e-02 -4.048203334769957806e-02 -8.268836020141191456e-01 9.801727182563934049e-01 -5.164932880342582022e-02 1.912950318749229994e-01
-2.880682504353404214e-02 -8.501303848502663948e-03 -7.436569165299636852e-01 9.687638126021683727e-01 -1.373095988275083446e-01 -2.065012093483692412e-01
3.574719458908933063e-03 1.451136979758589629e-01 -6.847027001382384181e-01 9.301094338760071967e-01 -2.923647443252259115e-01 2.223045147775868924e-01
-1.789524191469395870e-02 -5.685573569231877969e-03 -8.457352891326250788e-01 8.236608122197981441e-01 -3.241579279212635778e-01 4.653004450666420877e-01
-2.997307879760629720e-02 -1.890444834055876946e-02 -8.097696519489295808e-01 9.901681814083089783e-01 -8.378618528902741225e-02 1.120127121414105642e-01
-2.568365620896102472e-02 4.458133557185519485e-02 -7.818459572579987693e-01 9.447241161714784452e-01 -2.897225566505959859e-01 -1.534834990865822923e-01
-2.486353192209162649e-02 2.110832340759963635e-02 -6.496250117868874741e-01 8.730451895913342586e-01 1.105178081750447794e-01 -4.749504300530900114e-01
-6.364603771955208884e-03 1.129978147568463584e-02 -8.736102869262417636e-01 8.878578967945915945e-01 -4.490565563700666396e-01 -1.002824225901097349e-01
-2.686743967565884128e-02 5.280098627351975660e-02 -6.873602820682280790e-01 9.733458451280926349e-01 -1.902024440707388298e-01 1.281440441120703655e-01
-3.147154388975308137e-02 -1.676175701338413204e-01 -7.079526327863217006e-01 9.930852439871566961e-01 -5.195906258761219532e-02 -1.052708601180104009e-01
3.159836298622908934e-02 -2.104543578970143394e-02 -4.976519517640735635e-01 6.631405503375595867e-01 4.774590869229816681e-01 -5.764351054651953854e-01
6.521066097907374758e-03 1.609249314906253114e-01 -7.902668290131344975e-01 8.836556398901118659e-01 -4.046122663515480666e-01 2.354604510491324632e-01
-2.969524462904067977e-02 -1.521932709320261423e-01 -6.988087495118567860e-01 9.930852439871566961e-01 -5.195906258761219532e-02 -1.052708601180104009e-01
1.992350600631431681e-03 2.636122610088477772e-02 -8.670652967021321711e-01 8.878578967945915945e-01 -4.490565563700666396e-01 -1.002824225901097349e-01
5.715280126445040909e-02 1.720191389801872806e-01 -8.490633732110817178e-01 4.734589101671837219e-01 -6.208416628691777461e-01 6.248138042882349641e-01
-2.722134450986018247e-03 1.124613531068285321e-01 -7.012998944759794018e-01 9.301094338760071967e-01 -2.923647443252259115e-01 2.223045147775868924e-01
6.960232963419973884e-02 -1.326036119892473053e-01 -5.250803708887626930e-01 6.932555343342455823e-01 -1.190104335530251245e-01 -7.107976370391650978e-01
2.559959494293886223e-02 -1.867396249497573213e-01 -5.718963803814913760e-01 8.135756250556364089e-01 2.813848477844149154e-01 -5.088391393679069230e-01
-2.233533027617850501e-03 1.549767467751833050e-01 -6.071086759174739722e-01 8.966973840442038490e-01 -3.782197009842241942e-01 2.299644738556052281e-01
-2.920048861881121074e-02 -1.593467821379349336e-01 -6.906106153973032846e-01 9.930852439871566961e-01 -5.195906258761219532e-02 -1.052708601180104009e-01
-2.225235911397957858e-02 6.090831436999889076e-02 -7.915451427291377851e-01 9.447241161714784452e-01 -2.897225566505959859e-01 -1.534834990865822923e-01
1.263294100610912532e-02 1.962139576340234670e-01 -5.972549922312159199e-01 8.966973840442038490e-01 -3.782197009842241942e-01 2.299644738556052281e-01
1.914482610247046288e-02 -1.163447117323212626e-01 -5.780879030525200024e-01 6.681419679201516804e-01 8.087109331780246990e-02 -7.396257005873784207e-01
5.462184423693041725e-03 7.223595500199608832e-02 -8.433863532595567980e-01 7.601514393838437744e-01 -1.626938717118640298e-01 6.290472902016778223e-01
-3.707159996423861625e-02 -9.159723455734893049e-02 -7.956629526300726951e-01 9.962739583013842104e-01 -8.209197745788666609e-03 -8.585341625621169259e-02
-1.576947385658392445e-02 -2.284392644738816522e-02 -9.139758568923566084e-01 9.807340824126878909e-01 -1.699671810222240231e-01 9.629027453227866074e-02
-8.631841869783836441e-03 1.144924601284258298e-01 -8.044451915211459081e-01 9.704741950008468621e-01 -1.759320402111714809e-01 -1.650083454392317350e-01
1.225207262859366424e-02 -4.099964767250777013e-03 -5.584600348174270090e-01 9.631748546119104359e-01 -3.243714299188907996e-02 -2.669120289493310261e-01
-3.772153892020260052e-02 -1.094419658314195465e-01 -7.913564451748567041e-01 9.851878672603087139e-01 -1.130310339142038545e-01 -1.289529044859789864e-01
5.284819580809756862e-02 -8.376130624630161170e-02 -5.325550131379813701e-01 5.556064521706749471e-01 5.024709754976051101e-01 -6.624382152992087658e-01
3.589634272619420668e-02 -2.068441021066176055e-01 -5.702045202439258720e-01 6.999466430250054216e-01 3.806640511478339151e-01 -6.042926253742838538e-01
-3.985156571326481378e-02 -6.197390193176485068e-02 -7.433527558852955908e-01 9.908673582894039766e-01 1.121715440716299916e-01 7.482929224016494907e-02
7.276722983518028876e-02 6.879777678033368281e-03 -4.460900783733183217e-01 5.567577062733840565e-01 3.833721459216496985e-01 -7.369169927723404623e-01
-3.155244556097260705e-02 -1.458348770259364768e-01 -7.194672206700299943e-01 9.930852439871566961e-01 -5.195906258761219532e-02 -1.052708601180104009e-01
-3.032208710129623286e-02 -1.521791786758178444e-01 -7.047290984975597139e-01 9.930852439871566961e-01 -5.195906258761219532e-02 -1.052708601180104009e-01
3.788547101359007740e-02 -6.397754984784098306e-03 -4.800573099532589594e-01 7.800239923547906962e-01 -2.142671390473429027e-01 -5.879219033811889927e-01
7.807623326479186388e-02 7.745266300347786355e-03 -4.411592705172572848e-01 6.073443721519758975e-01 4.811323925566722282e-01 -6.321743702871974735e-01
-3.177944110816256079e-02 -7.427073108464143925e-02 -6.699756680373309958e-01 9.785736045299486818e-01 -2.493516389476607698e-02 -2.043818439069491899e-01
-3.556558555453186860e-02 -4.359104429966579458e-02 -6.849060497982786266e-01 8.740344779977120560e-01 1.144360666555867961e-01 -4.721949998884622524e-01
-3.424280540835046571e-02 2.171803558493301534e-02 -6.774750906721440646e-01 9.733458451280926349e-01 -1.902024440707388298e-01 1.281440441120703655e-01
-1.183157575854573706e-02 5.221472337456393997e-03 -8.947943551289699871e-01 8.878578967945915945e-01 -4.490565563700666396e-01 -1.002824225901097349e-01
2.351545129396382088e-03 -1.216042083255060996e-01 -5.938332145360574188e-01 6.681419679201516804e-01 8.087109331780246990e-02 -7.396257005873784207e-01
3.687552199570089811e-02 1.753900105153619327e-01 -8.303486201875397432e-01 4.734589101671837219e-01 -6.208416628691777461e-01 6.248138042882349641e-01
5.639936571180534375e-02 -5.690966973721905270e-02 -4.989131506281407891e-01 6.488237169109458691e-01 5.621627046668628003e-01 -5.128361120821176566e-01
-2.954385732991392233e-02 -1.700909506674370131e-01 -6.943526198961624818e-01 9.527596841553052087e-01 9.908995896134334402e-02 -2.871065382071991134e-01
1.817087615573504192e-02 -5.113131004473142269e-03 -5.381974028208896810e-01 9.474987682974109759e-01 -5.592545645931254472e-02 -3.148307916877035595e-01
6.236804731591371470e-02 -2.054165595933046540e-01 -5.386433293933600153e-01 6.999466430250054216e-01 3.806640511478339151e-01 -6.042926253742838538e-01
-1.706669302406936539e-02 -7.349342233831698823e-02 -6.057379655510271022e-01 9.313563988669294469e-01 2.353056699440204680e-01 -2.778605765160300223e-01
6.448067572416925353e-02 -2.075894896878434648e-01 -5.375650921911998559e-01 6.999466430250054216e-01 3.806640511478339151e-01 -6.042926253742838538e-01
1.691377913923826706e-02 -3.586164392950422219e-02 -5.377779522563223003e-01 9.631748546119104359e-01 -3.243714299188907996e-02 -2.669120289493310261e-01
5.655567042863226222e-03 1.675984508629300984e-01 -6.318394100351467646e-01 9.310518173092531269e-01 -3.608243341833474171e-01 5.429837332997230342e-02
-1.685880483947426248e-02 3.877964343788435631e-02 -6.288050099842582563e-01 9.125806813827644914e-01 1.319126889764866417e-01 -3.870342910569575245e-01
-2.490305390621258552e-02 5.239684423318485829e-02 -7.013215696939915089e-01 9.189111776626748274e-01 -3.458506422877036801e-01 1.897092006091923577e-01
-3.296631327395906780e-02 -3.566864390428024778e-02 -7.286794668983532786e-01 9.828446157604294742e-01 -1.049330823708570087e-01 1.516756720601052655e-01
-2.178402781194588040e-03 -1.553469721068584664e-01 -5.989502839718447991e-01 8.135756250556364089e-01 2.813848477844149154e-01 -5.088391393679069230e-01
-2.683541244579574353e-02 -1.198866069211749069e-01 -6.613683346570526922e-01 9.490127150935619982e-01 1.962889854664743097e-02 -3.146260843169090826e-01
-3.382487602821372674e-02 -3.119451327978510491e-02 -7.521087349291866175e-01 9.687638126021683727e-01 -1.373095988275083446e-01 -2.065012093483692412e-01
-1.781751300206716251e-02 -2.074862992093423342e-01 -6.603474794383554780e-01 9.521421888472089146e-01 -1.609150536992886085e-02 -3.052315771216589924e-01
3.763637080239910088e-02 -3.562380245162903580e-02 -5.027809346817411207e-01 6.631405503375595867e-01 4.774590869229816681e-01 -5.764351054651953854e-01
-3.982700132405542909e-02 -1.050029638923427461e-01 -8.155462866423672796e-01 9.518683362058616426e-01 -2.102698291333038039e-01 2.230095726307181891e-01
-3.556218364768463924e-02 8.303307976585865349e-03 -6.814375488542320225e-01 9.828446157604294742e-01 -1.049330823708570087e-01 1.516756720601052655e-01
6.353529037047413001e-03 9.036740256428656137e-02 -5.775299720705143747e-01 8.873459372940957213e-01 -3.105644505571100028e-02 -4.600572625099666468e-01
-6.775728489453756997e-03 4.129371112921348397e-02 -9.388218991724112117e-01 8.978516543205732336e-01 -3.700621498066956616e-01 -2.385716079382795562e-01
-8.655927401816273722e-03 7.715332272911462619e-02 -7.363721771473138444e-01 9.473798488515600136e-01 -2.842933017705986387e-01 -1.471351098764893672e-01
-1.936618033013301141e-02 -3.164188629147469956e-02 -8.928724983292168904e-01 9.807340824126878909e-01 -1.699671810222240231e-01 9.629027453227866074e-02
2.656120678494397480e-02 -1.943387080815313916e-01 -5.745611181935226242e-01 8.135756250556364089e-01 2.813848477844149154e-01 -5.088391393679069230e-01
4.856454809964107916e-02 1.441928559332058823e-01 -8.702049209234495875e-01 4.734589101671837219e-01 -6.208416628691777461e-01 6.248138042882349641e-01
-1.401924435895047540e-02 -6.542954022366123841e-03 -8.614828947544410642e-01 8.878578967945915945e-01 -4.490565563700666396e-01 -1.002824225901097349e-01
1.026153410306612952e-02 1.541762450372345661e-01 -8.159012272422024870e-01 8.836556398901118659e-01 -4.046122663515480666e-01 2.354604510491324632e-01
-7.085800361533322114e-03 1.034491353231385691e-01 -8.201503230303232028e-01 7.601514393838437744e-01 -1.626938717118640298e-01 6.290472902016778223e-01
5.031874586092527357e-02 -2.039984455978866573e-01 -5.517066082656461035e-01 6.999466430250054216e-01 3.806640511478339151e-01 -6.042926253742838538e-01
-1.627776909822945385e-04 1.049393952763698346e-01 -5.928310421092585214e-01 8.926867843195120944e-01 -9.715984879786319917e-02 -4.400798437589083512e-01
4.783662532266552171e-03 1.635518364198646213e-01 -6.437795224776452496e-01 9.310518173092531269e-01 -3.608243341833474171e-01 5.429837332997230342e-02
-2.831772191856516893e-02 7.440787871617064730e-02 -6.442735355477814396e-01 9.733458451280926349e-01 -1.902024440707388298e-01 1.281440441120703655e-01
-3.911612900773848295e-02 -6.065069974367272992e-02 -7.550747143843280496e-01 9.908673582894039766e-01 1.121715440716299916e-01 7.482929224016494907e-02
1.044474184945984180e-01 -1.983778686093665700e-01 -5.100517960854363819e-01 3.169423917413873859e-01 3.554995026941428216e-01 -8.792995075066665223e-01
-9.147152738359483337e-03 1.109475488092192125e-01 -6.764088700133452647e-01 9.301094338760071967e-01 -2.923647443252259115e-01 2.223045147775868924e-01
-1.410599009792852868e-02 -1.487968649049753733e-01 -6.248351314051326932e-01 9.512519046642105014e-01 1.599853049785351922e-01 -2.636750197945130769e-01
-1.713708597305325584e-02 2.162490337559229772e-02 -9.502292913932818275e-01 9.236174917318675792e-01 -3.192435737287547259e-01 -2.121656654593918334e-01
-2.126139164186015458e-03 1.486742620413172566e-01 -6.241621289536634087e-01 9.310518173092531269e-01 -3.608243341833474171e-01 5.429837332997230342e-02
-2.098961172290390170e-02 3.124085385683081362e-03 -6.466888552142423530e-01 8.730451895913342586e-01 1.105178081750447794e-01 -4.749504300530900114e-01
-3.038025942919067579e-02 1.508047090495082988e-02 -7.966502772783776720e-01 9.856570035841966115e-01 -3.124024878081271134e-02 1.658442586933164264e-01
-8.121886374739041917e-03 2.576890168925669716e-02 -9.193711304687188779e-01 9.366590118622029060e-01 -3.087446319446472409e-01 -1.653682186597107695e-01
-3.328945400191732351e-02 1.089222500871335139e-02 -6.943735525296299560e-01 9.828446157604294742e-01 -1.049330823708570087e-01 1.516756720601052655e-01
-9.228465713275567014e-03 2.416834999083225868e-02 -8.402788101993220460e-01 8.236608122197981441e-01 -3.241579279212635778e-01 4.653004450666420877e-01
-2.787226467428127741e-02 -1.781361650344763861e-02 -8.209837738169815102e-01 9.801727182563934049e-01 -5.164932880342582022e-02 1.912950318749229994e-01
4.543683164209972626e-03 -1.507718350214766745e-01 -5.919310483824631319e-01 7.420880031246380737e-01 -1.564105297119234295e-01 -6.517983904657349559e-01
-4.119105021496279745e-02 -5.734747987841089939e-02 -7.325508554500879121e-01 9.908673582894039766e-01 1.121715440716299916e-01 7.482929224016494907e-02
2.748403508510987442e-02 -1.802062643975020292e-02 -5.074109232669321567e-01 9.503200074762950811e-01 -5.873338451011608785e-02 -3.056832886080640410e-01
-1.264011262586548640e-02 1.151848867942068394e-01 -6.550667877430059738e-01 9.356178313596561491e-01 -3.464979575928892608e-01 6.751621305886473801e-02
-3.472931678762837537e-02 -9.900738855234766933e-02 -7.608934671752892731e-01 9.937868179853978079e-01 1.048593601378889767e-01 3.731320128225584093e-02
5.949300578952126939e-02 -2.069182463782436865e-01 -5.429194263231635897e-01 6.999466430250054216e-01 3.806640511478339151e-01 -6.042926253742838538e-01
-4.603224013196904885e-03 -8.910894066970573291e-02 -5.890423945667456751e-01 8.441664893321592089e-01 2.054351874146803092e-01 -4.951558563326425300e-01
-3.740210772287006630e-02 -9.416737692373911006e-02 -8.156798343499293003e-01 9.518683362058616426e-01 -2.102698291333038039e-01 2.230095726307181891e-01
-1.546193831447526326e-02 -2.697538600268654593e-02 -6.436673424711949476e-01 8.740344779977120560e-01 1.144360666555867961e-01 -4.721949998884622524e-01
3.872535767671781044e-03 3.203948651404957965e-02 -8.579862727695724001e-01 8.236608122197981441e-01 -3.241579279212635778e-01 4.653004450666420877e-01
8.661056919574244535e-04 1.063039481476549947e-01 -7.313859116336649535e-01 9.473798488515600136e-01 -2.842933017705986387e-01 -1.471351098764893672e-01
2.543749365833918030e-02 1.691665015282422246e-01 -8.278652839488476189e-01 4.734589101671837219e-01 -6.208416628691777461e-01 6.248138042882349641e-01
6.895243456909191590e-03 9.262397532667070166e-02 -5.766374593441885299e-01 8.873459372940957213e-01 -3.105644505571100028e-02 -4.600572625099666468e-01
1.826551412059189763e-02 1.413146062753918575e-01 -5.625321868823355276e-01 8.951944235905939795e-01 -8.450270750344812676e-02 -4.375914034769087801e-01
-4.180176519012065929e-04 -1.130700866025285550e-01 -5.954019774546644994e-01 6.681419679201516804e-01 8.087109331780246990e-02 -7.396257005873784207e-01
-2.525522292474155148e-02 3.850822459737555242e-02 -7.208207734159535196e-01 9.733458451280926349e-01 -1.902024440707388298e-01 1.281440441120703655e-01
-1.956937636806603889e-02 -2.196321079987828551e-01 -6.651719431664940840e-01 9.521421888472089146e-01 -1.609150536992886085e-02 -3.052315771216589924e-01
2.796811940090246362e-02 -1.007313354251153648e-01 -5.662947304155289130e-01 5.556064521706749471e-01 5.024709754976051101e-01 -6.624382152992087658e-01
3.373595253111667976e-03 1.576217789785565038e-01 -7.841308332102598921e-01 8.836556398901118659e-01 -4.046122663515480666e-01 2.354604510491324632e-01
7.983370628961837523e-03 1.466282195780674591e-01 -8.203219768007420365e-01 8.836556398901118659e-01 -4.046122663515480666e-01 2.354604510491324632e-01
-3.059115768000493334e-03 1.184124569665015170e-01 -8.196348568297783244e-01 7.559878448431626152e-01 -2.719042895397137949e-01 5.954413789612659214e-01
-1.488894987735466142e-02 -1.607028761835727904e-01 -6.348837845881446507e-01 9.512519046642105014e-01 1.599853049785351922e-01 -2.636750197945130769e-01
2.557361147725273343e-02 -1.291446129955148847e-01 -5.731778074521377553e-01 7.420880031246380737e-01 -1.564105297119234295e-01 -6.517983904657349559e-01
-2.590922779903843606e-02 -4.292874652340492730e-03 -8.273915614970698273e-01 9.801727182563934049e-01 -5.164932880342582022e-02 1.912950318749229994e-01
-8.406912598964843761e-03 -4.529000024298612814e-02 -6.032263401356874333e-01 8.783705802813629449e-01 -3.695823020965989802e-01 -3.031073170894420521e-01
7.884440017047154858e-02 1.577833874845608469e-02 -4.343075007885832672e-01 6.073443721519758975e-01 4.811323925566722282e-01 -6.321743702871974735e-01
-3.324602552105770936e-02 -6.804900452583785564e-02 -6.835098232857540479e-01 9.340887405470972293e-01 -3.082818755130914967e-01 -1.801124926629691370e-01
6.801356550998712003e-02 2.658112770456190835e-02 -4.516456596137078394e-01 8.142756573763294536e-01 -3.348280848228515905e-01 -4.741785606901771088e-01
-3.668293519621507182e-02 -9.584971522343387063e-02 -7.270205508010572082e-01 9.860309864666694235e-01 1.650402356939314474e-01 -2.246362236279762434e-02
-3.071907777464617101e-02 -2.487226234125067964e-02 -7.417423103256827188e-01 9.687638126021683727e-01 -1.373095988275083446e-01 -2.065012093483692412e-01
-1.792469862103476808e-02 8.959541412422647455e-02 -6.677654700549481293e-01 9.301094338760071967e-01 -2.923647443252259115e-01 2.223045147775868924e-01
-3.119334193830758037e-02 -1.785783428820150454e-01 -7.027556949212335757e-01 9.527596841553052087e-01 9.908995896134334402e-02 -2.871065382071991134e-01
3.826743609433579107e-02 3.043943862213416632e-02 -4.929757913260131019e-01 7.800239923547906962e-01 -2.142671390473429027e-01 -5.879219033811889927e-01
