-1.373705733069357504e-01 2.687596765719409836e-02 -7.944800664745662599e-01 3.159871410424520133e-01 -2.844005633627960106e-01 9.051344906999964079e-01
-1.831556256455117160e-01 7.208366106102673254e-02 -7.712831781754569960e-01 1.807550361332723732e-01 -2.856230883319313407e-01 9.411413646866174654e-01
-5.997744010614009663e-02 -1.184000967449270886e-01 -8.690678890638747767e-01 -3.609405331159649677e-01 -5.524654365372743126e-01 7.513347276584796397e-01
-2.311028647044588089e-02 -1.666348027855180797e-02 -7.909594231523126018e-01 -5.422067481919252696e-01 -6.641851135088499003e-01 5.146552022552323136e-01
-2.398614960891630801e-02 -9.620083235001027078e-02 -8.371502878806625914e-01 -5.621540560348451399e-01 -2.789197711811429725e-01 7.785798472397231773e-01
1.195374427601551826e-02 -8.874352265034814169e-02 -8.084863926265898337e-01 -5.204653767209843629e-01 -2.614661368687836163e-01 8.128660719365757847e-01
1.347817862355381036e-01 3.772994925893665558e-02 -5.475898699478092269e-01 -8.417542338548155145e-01 -5.392784982375476988e-01 2.507012417495011955e-02
-6.103329790342652827e-02 7.602504739377664855e-02 -7.352952051436818515e-01 -2.265556782953770110e-01 -4.899013073952822594e-01 8.418249423986643443e-01
1.439447736187766391e-01 -1.879128310213168743e-02 -5.958758362116087781e-01 -9.778297898797172483e-01 -7.960428472756549134e-02 1.936803032752695553e-01
5.366301336479720879e-02 3.850538753002675368e-02 -6.800356685125851230e-01 -8.112457307324123512e-01 -4.480704163522533090e-01 3.756504576842050191e-01
2.354337635290043237e-02 5.729604593054305438e-03 -7.520328576146051436e-01 -8.544146165986054031e-01 -3.154562023065661802e-01 4.128717081236940034e-01
5.928952328712104591e-02 1.157678992831195040e-02 -7.000048330173171962e-01 -8.112457307324123512e-01 -4.480704163522533090e-01 3.756504576842050191e-01
-6.724161625870765657e-02 3.080324381228398412e-02 -7.711851367411820535e-01 -4.419807534937189031e-01 -7.639798169807784367e-01 4.700934511213068490e-01
6.084810739983669003e-02 -5.747748823970211945e-02 -7.528129100213563074e-01 -5.090136515658374439e-01 -5.650259492568275865e-01 6.493464246348269464e-01
-1.218689601437919906e-01 -4.586377882895869250e-03 -8.097774828956069149e-01 3.159871410424520133e-01 -2.844005633627960106e-01 9.051344906999964079e-01
-1.171491665803719023e-01 1.112909711184853351e-01 -7.340503259309755224e-01 -3.652348624565780466e-01 -5.839169583545553710e-01 7.250134350426126195e-01
-5.541440959470195909e-03 -8.189262380151267340e-02 -8.185860868682144353e-01 -5.664528384082717638e-01 -2.894812520839286085e-01 7.715774663318862858e-01
-7.201754146485431218e-02 -1.066843897209085040e-01 -8.662372431295244368e-01 -3.609405331159649677e-01 -5.524654365372743126e-01 7.513347276584796397e-01
9.562971347186165205e-02 -5.772933353045975324e-02 -7.175406232932803885e-01 -7.240286218119516004e-01 -2.742435619864487806e-01 6.329083847651811867e-01
-6.261438862002326189e-02 3.717430388693134663e-02 -7.612637279020315617e-01 -4.007848480138496150e-01 -5.431079872380911722e-01 7.378382070621611888e-01
-3.524616681416636171e-02 -5.388919102816628476e-02 -8.230783238602690233e-01 -3.397922703746928952e-01 -5.330974176900107331e-01 7.748214996022333434e-01
-1.864757593208858644e-02 1.111501819557848547e-01 -6.977818132177459054e-01 -2.161788673145883521e-01 -6.378486396208414844e-01 7.391994387581901638e-01
1.363425649888352562e-02 1.157160118756856981e-01 -6.726646880600737344e-01 -7.339822966758698941e-01 -5.325919264741748593e-01 4.214449288115140746e-01
6.418099937037867464e-02 -1.057116913243623113e-01 -7.753027866381496658e-01 -5.419862427809044592e-01 -4.231552919434901083e-01 7.260788604114970513e-01
9.111471749233127082e-02 1.352218003009422048e-02 -6.542732641606262556e-01 -5.654365423906241306e-01 -6.317058647659672399e-01 5.303104910801006433e-01
-2.136392500620871299e-02 7.286435711542320684e-03 -7.678753108633242785e-01 -1.484218877017786375e-01 -5.420777233158455832e-01 8.271170927599973410e-01
3.851129048843487251e-02 -1.029312074998887244e-01 -7.936059835098330240e-01 -5.890862539661655406e-01 -2.669473197686065280e-01 7.627034245737116525e-01
3.281134736269286645e-03 7.534068383606079555e-02 -7.185394218845313485e-01 -1.472253487109374814e-01 -5.461336644904800641e-01 8.246591521393201729e-01
-2.344889586320811070e-01 -6.160775198530859392e-02 -8.439407732407743223e-01 4.135208082794004647e-01 -4.960565086670111756e-01 7.634975319731208687e-01
-4.218219258356723650e-02 -3.902842113989737904e-02 -8.158954693426587745e-01 -3.397922703746928952e-01 -5.330974176900107331e-01 7.748214996022333434e-01
-6.337867842729065504e-02 8.520391400272318838e-02 -7.305847489942284279e-01 -2.265556782953770110e-01 -4.899013073952822594e-01 8.418249423986643443e-01
1.053228128137276148e-01 -8.394679264133024510e-02 -7.187962956709813556e-01 -7.461189432466699412e-01 -2.698418442063618139e-01 6.086804593904601157e-01
9.925446057380223064e-02 -5.799343934578532478e-02 -7.135084578321678750e-01 -7.240286218119516004e-01 -2.742435619864487806e-01 6.329083847651811867e-01
-2.192265337142623033e-02 2.034430739830635493e-01 -6.025551720775035314e-01 -1.572493309318966914e-01 -9.190232434211429435e-01 3.614815707240870979e-01
-2.057800642089227250e-01 1.435250940720326773e-01 -7.276535678561141252e-01 -4.669710161839212281e-01 -7.352346442813756378e-01 4.912922632126367484e-01
9.616423198366205738e-02 2.435702905559859743e-02 -6.359828138468132108e-01 -5.654365423906241306e-01 -6.317058647659672399e-01 5.303104910801006433e-01
-8.831614829391277663e-03 -2.242295030110202925e-02 -7.850974518658822010e-01 -1.484218877017786375e-01 -5.420777233158455832e-01 8.271170927599973410e-01
1.073925910080339267e-02 4.315967735880786582e-02 -7.385199265468167518e-01 -1.472253487109374814e-01 -5.461336644904800641e-01 8.246591521393201729e-01
-1.514123718990537104e-01 -4.555998250753836437e-02 -8.488379316637367777e-01 -3.517647334152544658e-02 -7.923611613182111046e-01 6.090372778063004588e-01
1.242870874513643809e-01 -9.999998565342258644e-03 -6.470346351569931098e-01 -5.611906685911968173e-01 -6.384732025086027329e-01 5.267039046414732084e-01
-1.600963013990612527e-01 -8.695829480236527687e-02 -8.703601521061350432e-01 -2.715367572576672661e-02 -4.302300962899239245e-01 9.023107791337431349e-01
2.321265825626362411e-01 -1.466857394565783679e-01 -6.105153743637329322e-01 -6.876856265724351491e-01 -4.810084028002911682e-01 5.438008784851218191e-01
8.402319991373560781e-02 -9.669679420049710761e-02 -7.505576711260510958e-01 -7.461189432466699412e-01 -2.698418442063618139e-01 6.086804593904601157e-01
-8.592484962211037469e-02 -1.334063352812831123e-02 -8.192552772444453568e-01 -2.798412083530941175e-01 -3.569299422573460334e-01 8.912294398344612345e-01
-1.435087533749802302e-01 4.602523583115473993e-02 -7.863203413691258747e-01 3.159871410424520133e-01 -2.844005633627960106e-01 9.051344906999964079e-01
-1.557987917367998076e-01 -4.149889871196309893e-02 -8.438077858851072977e-01 -3.517647334152544658e-02 -7.923611613182111046e-01 6.090372778063004588e-01
7.675580053278983905e-02 -8.499870278344430485e-02 -7.525803815826508369e-01 -7.066044450434721957e-01 -3.458844225530471328e-01 6.173120154994162778e-01
1.349502292351488497e-01 -8.333964106602506638e-02 -6.372683489811357127e-01 -9.436990495921890876e-01 -2.227570232074646550e-01 2.445637185081790677e-01
2.774538412545644178e-02 1.152704436151083811e-01 -6.486520327546693165e-01 -7.339822966758698941e-01 -5.325919264741748593e-01 4.214449288115140746e-01
9.998673909273470342e-03 -5.310027546836309023e-03 -7.705029509032752522e-01 -1.484218877017786375e-01 -5.420777233158455832e-01 8.271170927599973410e-01
1.467905162205253855e-01 -5.920736186907091941e-02 -5.829414932511020053e-01 -9.722658866814778422e-01 7.020850207856160589e-03 2.337728668127210807e-01
1.236650989708569931e-01 -1.077492086950526257e-01 -7.030474000435350534e-01 -9.436990495921890876e-01 -2.227570232074646550e-01 2.445637185081790677e-01
9.928192508821714890e-02 -1.354295958675387768e-01 -7.505283863432203884e-01 -7.425792310012857556e-01 -2.995380329861126456e-01 5.990434479070357865e-01
1.138372173552534561e-01 -5.014034000275786884e-02 -6.906079412864036815e-01 -8.050778245210743478e-01 -3.057463309324410239e-01 5.082999877884754047e-01
-4.129590729065191722e-03 8.127022213915098331e-04 -7.690254675863862355e-01 -1.484218877017786375e-01 -5.420777233158455832e-01 8.271170927599973410e-01
-4.452268237003669839e-03 -8.593315551882273196e-02 -8.193024027594513203e-01 -5.664528384082717638e-01 -2.894812520839286085e-01 7.715774663318862858e-01
6.524820618156124130e-02 -2.565272151846903145e-02 -7.216715521767361752e-01 -5.090136515658374439e-01 -5.650259492568275865e-01 6.493464246348269464e-01
-3.351994993198459394e-02 -6.832226573780588418e-03 -7.892386932758751472e-01 -5.422067481919252696e-01 -6.641851135088499003e-01 5.146552022552323136e-01
-6.287738705401139938e-02 1.783672675486609391e-02 -7.881546392881016994e-01 -4.419807534937189031e-01 -7.639798169807784367e-01 4.700934511213068490e-01
1.167046161178403318e-01 -7.663227355005913788e-02 -7.015634726917689967e-01 -9.436990495921890876e-01 -2.227570232074646550e-01 2.445637185081790677e-01
-4.399420456104040367e-02 1.136985980237160687e-01 -7.029954288444120181e-01 -2.161788673145883521e-01 -6.378486396208414844e-01 7.391994387581901638e-01
-1.092523163796675634e-01 4.350075737530539888e-02 -7.900479326068158281e-01 -4.419807534937189031e-01 -7.639798169807784367e-01 4.700934511213068490e-01
-2.020928455896758846e-01 1.255523707635304853e-01 -7.429578211668306231e-01 3.268879865467398393e-01 -4.131330558281171017e-01 8.499796011867226664e-01
1.302716300427411433e-01 -7.560216684338448567e-02 -6.482741224570081062e-01 -9.436990495921890876e-01 -2.227570232074646550e-01 2.445637185081790677e-01
-2.371714108129855947e-01 -5.572290784077899017e-02 -8.373172774847206234e-01 4.557725850022559810e-01 -6.239249392626524671e-01 6.348141625125075516e-01
-5.029597642232573607e-02 -7.996855014280054852e-02 -8.447011674300936024e-01 -3.284208943015650695e-01 -4.062012066496955565e-01 8.527252171142187809e-01
-1.279235586286721522e-02 -9.110752602315724813e-02 -8.272434550499055961e-01 -5.621540560348451399e-01 -2.789197711811429725e-01 7.785798472397231773e-01
2.072674677810293006e-02 1.590401803689870872e-02 -7.500879136243995271e-01 -8.544146165986054031e-01 -3.154562023065661802e-01 4.128717081236940034e-01
3.275952874715384877e-02 1.138537190615881989e-01 -6.417098271993514347e-01 -7.339822966758698941e-01 -5.325919264741748593e-01 4.214449288115140746e-01
5.020934209719259828e-02 -3.274593391405682726e-03 -7.234466639760596118e-01 -7.380290515636493964e-01 -3.322413225126851222e-01 5.873064129252140164e-01
-1.920874123963600133e-01 -4.739583863239711647e-02 -8.469168912754992951e-01 2.361991563915726566e-01 -6.873554519719059508e-01 6.868423699542758332e-01
-8.197788116582836737e-02 2.576338658813579624e-02 -7.932307420188695612e-01 -4.419807534937189031e-01 -7.639798169807784367e-01 4.700934511213068490e-01
-2.249864401427607852e-02 -4.052393791133523937e-02 -8.102264790528362903e-01 -2.798412083530941175e-01 -3.569299422573460334e-01 8.912294398344612345e-01
-2.373874415883301114e-01 -5.423516386102573278e-02 -8.356999514423064657e-01 4.557725850022559810e-01 -6.239249392626524671e-01 6.348141625125075516e-01
1.758878991203750505e-02 1.029170210870395397e-01 -6.819519789410434241e-01 -7.339822966758698941e-01 -5.325919264741748593e-01 4.214449288115140746e-01
5.817437666080114977e-02 1.464316281231267843e-02 -6.987555518691567213e-01 -8.112457307324123512e-01 -4.480704163522533090e-01 3.756504576842050191e-01
-2.022317963661554932e-02 -3.770319897888581295e-02 -8.070953157445404091e-01 -4.522455471911563940e-01 -5.037129442285391834e-01 7.360348054694071385e-01
1.490766748244861661e-01 -1.041581689980631553e-01 -6.470953567421663388e-01 -6.209200869250508514e-01 -6.918648299394056789e-01 3.684851458958750547e-01
3.043818055836534225e-02 7.419232537766158597e-02 -6.876245994007293971e-01 -8.112457307324123512e-01 -4.480704163522533090e-01 3.756504576842050191e-01
-1.004819907929437733e-01 -3.814712280910928684e-03 -8.167485947814848712e-01 -8.204213618542915976e-02 -4.841433885078876287e-01 8.711338974315210315e-01
1.237669777138497296e-01 -1.281528266572357910e-01 -7.176523628774985619e-01 -6.844697318589835211e-01 -3.657940043335926039e-01 6.306313761322748235e-01
3.303003131720568669e-02 3.667767024751403260e-02 -7.192621740176089462e-01 -7.453496171269741177e-01 -4.016320357374204009e-01 5.321143261725701512e-01
1.259839445903548905e-01 -5.981525927499977552e-02 -6.636646685055391792e-01 -9.661141890305210422e-01 1.439643484461903752e-02 2.577132445522794524e-01
1.488493799146338274e-02 1.213259092448645965e-01 -6.633971329075619705e-01 -7.339822966758698941e-01 -5.325919264741748593e-01 4.214449288115140746e-01
4.965579633407818383e-02 4.100009370462176506e-03 -7.199704292966330188e-01 -7.380290515636493964e-01 -3.322413225126851222e-01 5.873064129252140164e-01
1.083957166243260800e-01 -1.666599985328778288e-01 -7.644528929778151571e-01 -7.170800963593103594e-01 -5.450364080317990911e-01 4.344323299722479548e-01
-2.126122335267744967e-01 -3.820508858238579053e-02 -8.306609669483187020e-01 2.361991563915726566e-01 -6.873554519719059508e-01 6.868423699542758332e-01
1.598754408323662390e-01 -1.201988138792053074e-01 -6.590165626942644517e-01 -6.209200869250508514e-01 -6.918648299394056789e-01 3.684851458958750547e-01
1.956588612112251380e-01 -1.501622239406379955e-01 -6.604132492270282651e-01 -4.907881629296231840e-01 -5.261820666875478558e-01 6.944489987209905291e-01
5.990232067196469418e-02 -1.182289977945396170e-01 -7.857916603415350254e-01 -5.419862427809044592e-01 -4.231552919434901083e-01 7.260788604114970513e-01
6.147007493324412736e-02 3.919075539954185172e-02 -6.623582284941352816e-01 -8.112457307324123512e-01 -4.480704163522533090e-01 3.756504576842050191e-01
1.362253910645519310e-02 -9.254191972523752308e-02 -8.086396802143880347e-01 -5.204653767209843629e-01 -2.614661368687836163e-01 8.128660719365757847e-01
-3.767760595461489698e-02 1.077935764706974553e-01 -7.062435303805010278e-01 -2.161788673145883521e-01 -6.378486396208414844e-01 7.391994387581901638e-01
-1.849255275431638257e-01 -3.068132207232108707e-02 -8.305429075141786965e-01 4.966051857665999825e-02 -7.868755738989111626e-01 6.151102861243309405e-01
-4.143610965330708773e-02 -8.076398880971081065e-03 -7.991842955418435590e-01 -5.422067481919252696e-01 -6.641851135088499003e-01 5.146552022552323136e-01
-9.902466567826187505e-02 3.774229924133293973e-02 -7.897903689842949992e-01 -4.419807534937189031e-01 -7.639798169807784367e-01 4.700934511213068490e-01
-1.916752959279794666e-01 6.321145852179131663e-02 -7.723394834417151023e-01 1.807550361332723732e-01 -2.856230883319313407e-01 9.411413646866174654e-01
-6.487975567043290093e-02 5.656260960909943736e-02 -7.482229029411756605e-01 -4.007848480138496150e-01 -5.431079872380911722e-01 7.378382070621611888e-01
8.274423338819969498e-02 3.979809363920051857e-02 -6.318983133750718517e-01 -5.654365423906241306e-01 -6.317058647659672399e-01 5.303104910801006433e-01
4.045306663804699998e-02 6.074037015529154537e-02 -6.820419883436253938e-01 -8.112457307324123512e-01 -4.480704163522533090e-01 3.756504576842050191e-01
1.503787140529141697e-01 -8.439858246038653422e-02 -6.126822608358742928e-01 -3.751814090894748377e-01 -7.563991174604232093e-01 5.358164661325077738e-01
-4.803123720915987438e-02 7.675501294715446864e-03 -7.858039684606777930e-01 -5.422067481919252696e-01 -6.641851135088499003e-01 5.146552022552323136e-01
9.399956181950501477e-02 -2.242243590181645582e-02 -6.943638269264484908e-01 -5.611906685911968173e-01 -6.384732025086027329e-01 5.267039046414732084e-01
-4.596215074433845915e-02 1.238521786526979584e-01 -6.948095200120127934e-01 -2.161788673145883521e-01 -6.378486396208414844e-01 7.391994387581901638e-01
-2.141501352038976957e-01 1.095145794774423226e-01 -7.458179370763772242e-01 3.338137938459720400e-01 -3.969884653313051626e-01 8.549669639419136269e-01
1.346765123519525764e-01 3.034853730873281891e-02 -5.809153406332888681e-01 -8.433876914338117592e-01 -4.458797019379890370e-01 2.998140979634474901e-01
8.185519651499055527e-02 2.333633557377947851e-02 -6.524554836240069600e-01 -5.654365423906241306e-01 -6.317058647659672399e-01 5.303104910801006433e-01
1.063838067124121545e-01 -1.065888999801563319e-01 -7.275334914729876257e-01 -7.461189432466699412e-01 -2.698418442063618139e-01 6.086804593904601157e-01
4.200088060522942819e-03 3.885296877313098446e-02 -7.425394905932168887e-01 -1.472253487109374814e-01 -5.461336644904800641e-01 8.246591521393201729e-01
4.440502037943791502e-02 8.707894773468241589e-02 -6.464427215928133519e-01 -8.225933099845084140e-01 -3.950681832094177781e-01 4.089760102797475594e-01
1.167418063914656828e-01 5.227154238244288709e-02 -5.912755499892382582e-01 -5.285421301294963570e-01 -5.780349768907120378e-01 6.217063472163754101e-01
-1.304140578136923911e-01 5.827104959562703218e-02 -7.850626272217813284e-01 -8.204213618542915976e-02 -4.841433885078876287e-01 8.711338974315210315e-01
-3.586844659527151091e-02 7.393191565546686217e-02 -7.297408294692693254e-01 -2.265556782953770110e-01 -4.899013073952822594e-01 8.418249423986643443e-01
1.371675687785702813e-01 -6.981136508816131181e-02 -6.211811464883465472e-01 -9.661141890305210422e-01 1.439643484461903752e-02 2.577132445522794524e-01
4.593047365298312534e-02 -1.795741524696666327e-02 -7.371297588551521951e-01 -7.380290515636493964e-01 -3.322413225126851222e-01 5.873064129252140164e-01
-2.052583575953761119e-01 1.245354264874291850e-01 -7.422347043429892155e-01 3.268879865467398393e-01 -4.131330558281171017e-01 8.499796011867226664e-01
1.460242842099901406e-01 7.825012866315723264e-03 -5.523793302510030534e-01 -9.509440759532263865e-01 -1.946200124246586782e-01 -2.404753941119335270e-01
1.474061484192709659e-01 -5.611242505134707292e-02 -5.804740165689379339e-01 -9.722658866814778422e-01 7.020850207856160589e-03 2.337728668127210807e-01
5.705340135239427013e-02 -2.299580322951210246e-02 -7.260025466365677138e-01 -7.380290515636493964e-01 -3.322413225126851222e-01 5.873064129252140164e-01
1.396967969042043345e-01 -1.633710665893551434e-02 -6.137319226079946954e-01 -9.722658866814778422e-01 7.020850207856160589e-03 2.337728668127210807e-01
1.170957223975699901e-01 -2.040081939448994131e-02 -6.673047950172920073e-01 -5.611906685911968173e-01 -6.384732025086027329e-01 5.267039046414732084e-01
-1.688476395096319138e-01 2.663628335305350328e-02 -7.836833988991637190e-01 1.735230354037128886e-01 -1.823677643207534393e-01 9.677973727598829790e-01
1.497023524307461717e-01 -1.131230608739981908e-01 -6.628734624928547259e-01 -6.209200869250508514e-01 -6.918648299394056789e-01 3.684851458958750547e-01
6.392869150021608660e-02 -1.031377156510717985e-01 -7.740467232921995899e-01 -5.890862539661655406e-01 -2.669473197686065280e-01 7.627034245737116525e-01
2.017944565778853339e-01 -1.342796417234070894e-01 -6.347434262542607231e-01 -5.001394906125918860e-01 -7.302043337954596813e-01 4.654697850946994953e-01
1.506836521061180323e-01 -2.743660382880876505e-02 -5.654066998935639576e-01 -9.778297898797172483e-01 -7.960428472756549134e-02 1.936803032752695553e-01
5.224049169256075875e-02 -9.760800714139120093e-02 -7.811388862486752238e-01 -5.890862539661655406e-01 -2.669473197686065280e-01 7.627034245737116525e-01
1.258237376498853866e-01 4.617413449289872046e-02 -5.822828836076808789e-01 -8.433876914338117592e-01 -4.458797019379890370e-01 2.998140979634474901e-01
-6.244923384094300950e-02 -8.763527516192454181e-02 -8.530340001894739510e-01 -3.284208943015650695e-01 -4.062012066496955565e-01 8.527252171142187809e-01
-7.708990133704211878e-02 1.736453213286488079e-02 -8.022846062487262175e-01 -4.419807534937189031e-01 -7.639798169807784367e-01 4.700934511213068490e-01
1.811451292948862424e-02 -8.117244532695713777e-02 -8.021064398928664518e-01 -5.204653767209843629e-01 -2.614661368687836163e-01 8.128660719365757847e-01
9.286921201048492155e-03 1.626243345381336025e-01 -6.187445174258363600e-01 -7.267829892480077714e-01 -5.490825295847800991e-01 4.126679806388051097e-01
-1.057684228977226748e-01 -8.248518478496572048e-02 -8.623702562803922111e-01 -1.151523171524903300e-01 -3.242633398524898958e-01 9.389319625415467607e-01
1.838222635505457406e-02 -6.183533448823274464e-02 -7.957150607746340532e-01 -5.204653767209843629e-01 -2.614661368687836163e-01 8.128660719365757847e-01
-7.378945441605068434e-02 -3.438612552282545309e-02 -8.265727597175412944e-01 -3.481570379303343121e-01 -5.411272093504045921e-01 7.654854800975776641e-01
-1.914046843463841907e-01 3.593093722750537178e-02 -7.778875450407944925e-01 1.735230354037128886e-01 -1.823677643207534393e-01 9.677973727598829790e-01
9.503280022491923662e-02 2.777321642665670637e-02 -6.331198255383412299e-01 -5.654365423906241306e-01 -6.317058647659672399e-01 5.303104910801006433e-01
-1.181481884870571181e-01 -5.815845207041907099e-03 -8.114627321194289866e-01 3.159871410424520133e-01 -2.844005633627960106e-01 9.051344906999964079e-01
5.763041631675921983e-02 4.922680672249083594e-02 -6.586794068490546827e-01 -8.112457307324123512e-01 -4.480704163522533090e-01 3.756504576842050191e-01
1.466438893264599697e-01 -1.757685849935353151e-02 -5.817497268401445876e-01 -9.778297898797172483e-01 -7.960428472756549134e-02 1.936803032752695553e-01
-1.434824793786083560e-02 1.401895616100551079e-01 -6.683015867112638286e-01 -2.557565834194963639e-01 -6.626127616767456541e-01 7.039409762904147438e-01
-2.016653348046136551e-01 1.386817277073466304e-01 -7.329548942268976353e-01 -2.685606053835439266e-01 -8.262693534621341485e-01 4.951304441915194143e-01
1.659331165003468389e-01 -1.206217031672175283e-01 -6.529262907780301051e-01 -3.751814090894748377e-01 -7.563991174604232093e-01 5.358164661325077738e-01
-2.235234755870169066e-01 -4.740481096810819639e-02 -8.361152798045423662e-01 2.361991563915726566e-01 -6.873554519719059508e-01 6.868423699542758332e-01
2.016930026920997834e-02 6.509592436883235300e-02 -7.158269342536281998e-01 -7.453496171269741177e-01 -4.016320357374204009e-01 5.321143261725701512e-01
3.131690748666692697e-02 8.731359357448725822e-02 -6.725408122680711642e-01 -8.225933099845084140e-01 -3.950681832094177781e-01 4.089760102797475594e-01
-1.527919609358168174e-01 8.758286240226551000e-02 -7.713281472310460352e-01 -3.744756737019025450e-01 -5.810095127175104457e-01 7.226312447834422059e-01
1.938326851323928304e-02 1.272161971892691312e-01 -6.480759332643579729e-01 -7.267829892480077714e-01 -5.490825295847800991e-01 4.126679806388051097e-01
4.445287429842068733e-02 1.091574734748545633e-01 -6.250187574836945092e-01 -8.225933099845084140e-01 -3.950681832094177781e-01 4.089760102797475594e-01
4.591285722764732596e-02 -6.197890956051272521e-02 -7.734369774648813811e-01 -7.082125376805108452e-01 -7.012056651712165189e-01 -8.213170279448929467e-02
-9.580274704829812304e-02 -8.465833225289330632e-02 -8.618985515906181227e-01 -1.151523171524903300e-01 -3.242633398524898958e-01 9.389319625415467607e-01
-1.920877669729949833e-01 -2.933048053321967233e-02 -8.282366142077848270e-01 4.966051857665999825e-02 -7.868755738989111626e-01 6.151102861243309405e-01
1.510436841910284544e-01 -9.783468909517258061e-02 -6.319079087898521463e-01 -6.209200869250508514e-01 -6.918648299394056789e-01 3.684851458958750547e-01
1.392450774265935332e-01 -1.150570861872336065e-01 -6.841259235112715498e-01 -6.209200869250508514e-01 -6.918648299394056789e-01 3.684851458958750547e-01
-1.804410148292951155e-01 -1.365139815950090416e-02 -8.090012934972778957e-01 -3.517647334152544658e-02 -7.923611613182111046e-01 6.090372778063004588e-01
1.336680278660044852e-01 -6.325556051001371416e-02 -6.346664306856084625e-01 -9.661141890305210422e-01 1.439643484461903752e-02 2.577132445522794524e-01
-2.139543514052436313e-01 1.030568109353608708e-01 -7.488929271829734002e-01 3.338137938459720400e-01 -3.969884653313051626e-01 8.549669639419136269e-01
1.287332949072799437e-01 -1.715665791447286426e-02 -6.471746498856469909e-01 -8.050778245210743478e-01 -3.057463309324410239e-01 5.082999877884754047e-01
3.837509633760079371e-03 3.279667757233025588e-02 -7.466150231733272857e-01 -1.472253487109374814e-01 -5.461336644904800641e-01 8.246591521393201729e-01
3.823038042057035069e-02 -4.354161703043720605e-02 -7.612790295409584962e-01 -7.380290515636493964e-01 -3.322413225126851222e-01 5.873064129252140164e-01
-1.447428238190902605e-01 -3.313461377480672598e-02 -8.322872357598403159e-01 -3.517647334152544658e-02 -7.923611613182111046e-01 6.090372778063004588e-01
2.090535428102024418e-01 -1.467760203473094938e-01 -6.445109560656364645e-01 -6.542097222074643170e-01 -6.385694734670133155e-01 4.052637004782116414e-01
-4.963281319366763533e-02 1.113994370993867389e-01 -7.066283654437630624e-01 -2.161788673145883521e-01 -6.378486396208414844e-01 7.391994387581901638e-01
6.206660666177164776e-02 4.466125850582283729e-02 -6.545448361170935758e-01 -8.112457307324123512e-01 -4.480704163522533090e-01 3.756504576842050191e-01
-1.085917522688783499e-01 4.061517448010937281e-02 -7.928199038724036418e-01 -8.204213618542915976e-02 -4.841433885078876287e-01 8.711338974315210315e-01
-6.208542994276224081e-02 -3.539616296511434446e-02 -8.221247992711711028e-01 -3.397922703746928952e-01 -5.330974176900107331e-01 7.748214996022333434e-01
-1.439680706479778693e-01 -5.346843502692741334e-02 -8.539065236146069493e-01 -2.715367572576672661e-02 -4.302300962899239245e-01 9.023107791337431349e-01
1.339963528671166415e-01 -1.825147651537913085e-02 -6.359496356732183830e-01 -9.661141890305210422e-01 1.439643484461903752e-02 2.577132445522794524e-01
-4.448533591945883631e-02 -1.684358586493346947e-04 -7.921911858956922625e-01 -5.422067481919252696e-01 -6.641851135088499003e-01 5.146552022552323136e-01
-2.132740332299910835e-03 -8.271230071006500928e-02 -8.163911199055269297e-01 -5.664528384082717638e-01 -2.894812520839286085e-01 7.715774663318862858e-01
-8.277482035448581466e-02 4.604425828881555244e-02 -7.656856356526211549e-01 -4.007848480138496150e-01 -5.431079872380911722e-01 7.378382070621611888e-01
1.413483306986947075e-01 3.295890600262621831e-03 -5.999064245447769395e-01 -9.778297898797172483e-01 -7.960428472756549134e-02 1.936803032752695553e-01
9.743292750651445788e-02 -9.060146004395855379e-02 -7.314178617057344178e-01 -7.461189432466699412e-01 -2.698418442063618139e-01 6.086804593904601157e-01
-5.705765164173416670e-02 -7.909538020450906926e-02 -8.468894371124485732e-01 -3.284208943015650695e-01 -4.062012066496955565e-01 8.527252171142187809e-01
1.243653851770371577e-01 -1.484645187595490523e-01 -7.287845450979301143e-01 -6.844697318589835211e-01 -3.657940043335926039e-01 6.306313761322748235e-01
1.196095757589308167e-01 -1.373613735352292170e-02 -6.565473810602855398e-01 -5.611906685911968173e-01 -6.384732025086027329e-01 5.267039046414732084e-01
3.599103012747323360e-02 8.127531434011359135e-02 -6.689724611402361187e-01 -8.225933099845084140e-01 -3.950681832094177781e-01 4.089760102797475594e-01
-1.210084319223704297e-01 -5.571071419887907439e-02 -8.542847274521465639e-01 -2.715367572576672661e-02 -4.302300962899239245e-01 9.023107791337431349e-01
7.269004354715156990e-02 -9.499268895748253297e-03 -7.014030893071295791e-01 -5.611906685911968173e-01 -6.384732025086027329e-01 5.267039046414732084e-01
-1.145367615282101847e-01 3.129804336423513966e-02 -7.985579066107052482e-01 -8.204213618542915976e-02 -4.841433885078876287e-01 8.711338974315210315e-01
-1.494125714103984037e-01 -6.131430176899296119e-02 -8.578113491953128777e-01 -2.715367572576672661e-02 -4.302300962899239245e-01 9.023107791337431349e-01
-1.307689432155749020e-03 -3.025558944134180972e-02 -7.888806936942779346e-01 -1.484218877017786375e-01 -5.420777233158455832e-01 8.271170927599973410e-01
1.905241695468538193e-02 4.011587382233045701e-02 -7.362459618389668448e-01 -7.453496171269741177e-01 -4.016320357374204009e-01 5.321143261725701512e-01
1.694649852392744460e-01 -1.025900894014219050e-01 -6.249984662805195823e-01 -3.751814090894748377e-01 -7.563991174604232093e-01 5.358164661325077738e-01
-3.123540252682959276e-02 1.594834436075321937e-01 -6.562759030849572017e-01 -2.557565834194963639e-01 -6.626127616767456541e-01 7.039409762904147438e-01
-1.997863055913926544e-01 1.020252528303676187e-01 -7.549036925227388117e-01 3.338137938459720400e-01 -3.969884653313051626e-01 8.549669639419136269e-01
-1.395342764123857007e-02 -8.953726834797381962e-02 -8.275192460286506790e-01 -5.621540560348451399e-01 -2.789197711811429725e-01 7.785798472397231773e-01
4.547979223553512418e-02 2.803577387892725384e-02 -7.083461700369754199e-01 -7.453496171269741177e-01 -4.016320357374204009e-01 5.321143261725701512e-01
-9.071793831523454477e-02 6.623632303567902890e-02 -7.551372657746435735e-01 -4.007848480138496150e-01 -5.431079872380911722e-01 7.378382070621611888e-01
-1.790220841407720309e-01 -1.447635721539452212e-02 -8.099926162947989061e-01 -3.517647334152544658e-02 -7.923611613182111046e-01 6.090372778063004588e-01
1.201436620480609008e-01 -1.033677975901716242e-02 -6.518576057429754655e-01 -5.611906685911968173e-01 -6.384732025086027329e-01 5.267039046414732084e-01
-3.588569975875269269e-02 1.452761415704939274e-01 -6.713386485817967042e-01 -2.557565834194963639e-01 -6.626127616767456541e-01 7.039409762904147438e-01
-1.617068062008079898e-01 -8.151228276225079214e-03 -8.015686733966854716e-01 1.555707396023622291e-01 -6.605748198201604193e-01 7.344648748572911723e-01
1.247781359024607434e-01 -1.064496035409300267e-01 -6.975687948024714702e-01 -9.436990495921890876e-01 -2.227570232074646550e-01 2.445637185081790677e-01
1.350199183804214331e-01 -7.423186335586570705e-02 -6.289853092543347124e-01 -9.661141890305210422e-01 1.439643484461903752e-02 2.577132445522794524e-01
1.070969604234084903e-02 1.690581546395580892e-01 -6.076781226905443312e-01 -7.267829892480077714e-01 -5.490825295847800991e-01 4.126679806388051097e-01
9.684173548777037788e-02 -5.153379397984618818e-03 -6.704132336858755759e-01 -5.654365423906241306e-01 -6.317058647659672399e-01 5.303104910801006433e-01
9.998610997342556594e-02 2.788225714532653610e-02 -6.281964395825093694e-01 -5.285421301294963570e-01 -5.780349768907120378e-01 6.217063472163754101e-01
-1.231370444164165551e-01 1.206748560366917439e-01 -7.295091303585926612e-01 -3.652348624565780466e-01 -5.839169583545553710e-01 7.250134350426126195e-01
1.462854687431141276e-01 -1.847193212052155448e-02 -5.839271605386752162e-01 -9.778297898797172483e-01 -7.960428472756549134e-02 1.936803032752695553e-01
6.197796213682949147e-03 2.794766146752518041e-02 -7.493885052534187130e-01 -1.484218877017786375e-01 -5.420777233158455832e-01 8.271170927599973410e-01
-1.613913135713085367e-01 -7.439371710196215903e-02 -8.644082170772123819e-01 -2.715367572576672661e-02 -4.302300962899239245e-01 9.023107791337431349e-01
5.853267996119022182e-02 -1.312946425008812423e-01 -7.963995164007214855e-01 -5.411860516306129520e-01 -5.177189412668563584e-01 6.626347073418299427e-01
4.105784819916442202e-02 8.671030602743370896e-02 -6.535311570499791056e-01 -8.225933099845084140e-01 -3.950681832094177781e-01 4.089760102797475594e-01
1.338313577909344965e-01 -6.506824164225926722e-03 -6.326309946427949304e-01 -5.611906685911968173e-01 -6.384732025086027329e-01 5.267039046414732084e-01
7.198385926282145630e-02 4.347445270889612606e-02 -6.389921408935677061e-01 -5.654365423906241306e-01 -6.317058647659672399e-01 5.303104910801006433e-01
-1.939753193122744357e-01 1.276564003430007421e-01 -7.450570217221728075e-01 3.268879865467398393e-01 -4.131330558281171017e-01 8.499796011867226664e-01
-7.920383580911805055e-02 7.348580153883929600e-02 -7.435467471223795588e-01 -4.007848480138496150e-01 -5.431079872380911722e-01 7.378382070621611888e-01
9.206873620490839405e-02 -8.840772794792269018e-02 -7.369625749143333682e-01 -7.066044450434721957e-01 -3.458844225530471328e-01 6.173120154994162778e-01
-5.655772760178780049e-03 1.137392203869312529e-01 -6.905522232585870057e-01 -2.569013067264304673e-01 -6.718719983365124548e-01 6.946867901821321967e-01
1.755332593281218878e-01 -1.196978167963632794e-01 -6.429635188369231535e-01 -5.544842485729827297e-01 -6.560232473201342840e-01 5.120358552484391979e-01
5.643492410288871580e-02 3.883475518421895204e-03 -7.112307633280458008e-01 -7.453496171269741177e-01 -4.016320357374204009e-01 5.321143261725701512e-01
1.279414609387282686e-01 4.605234742409914511e-02 -5.765067730595115902e-01 -8.433876914338117592e-01 -4.458797019379890370e-01 2.998140979634474901e-01
-3.622177409111126262e-02 -7.276051613468074476e-03 -7.926579325416169830e-01 -5.422067481919252696e-01 -6.641851135088499003e-01 5.146552022552323136e-01
-3.811890681636483785e-02 -1.012587642654539655e-01 -8.491491259322707652e-01 -3.338991606932606437e-01 -4.630057685546971058e-01 8.210584685474050515e-01
-2.373915080875860575e-02 -1.010191528301760261e-01 -8.387994100630810079e-01 -5.414954886220232355e-01 -4.640594918469601593e-01 7.010216999699347973e-01
-4.066435494911788129e-02 1.124559412061936076e-01 -7.030938919104300355e-01 -2.161788673145883521e-01 -6.378486396208414844e-01 7.391994387581901638e-01
-2.085527683955755718e-01 4.907720170634222862e-02 -7.723357192051589770e-01 1.735230354037128886e-01 -1.823677643207534393e-01 9.677973727598829790e-01
8.948065688458442524e-02 -2.418216117026662088e-02 -7.013117623360062280e-01 -5.611906685911968173e-01 -6.384732025086027329e-01 5.267039046414732084e-01
3.844035229071215282e-02 6.081226386356353153e-02 -6.863028442667832296e-01 -8.112457307324123512e-01 -4.480704163522533090e-01 3.756504576842050191e-01
1.606658628179094203e-02 4.156766404062616632e-02 -7.386231624900997383e-01 -1.472253487109374814e-01 -5.461336644904800641e-01 8.246591521393201729e-01
1.276751624382150563e-01 -6.182173151507339842e-02 -6.572125530571468754e-01 -9.661141890305210422e-01 1.439643484461903752e-02 2.577132445522794524e-01
1.334876901247637748e-01 3.823531914472729637e-02 -5.105931869125935885e-01 -9.296912342794032558e-01 -3.546319570202697835e-01 -9.955091141729008331e-02
7.942436970476407510e-02 3.056660037508378627e-02 -6.464346290005826834e-01 -5.654365423906241306e-01 -6.317058647659672399e-01 5.303104910801006433e-01
-3.385508078642542051e-02 1.113804608722608613e-01 -7.020305422018481289e-01 -2.161788673145883521e-01 -6.378486396208414844e-01 7.391994387581901638e-01
-2.091300822891844768e-01 -6.055845018079647479e-02 -8.516439283902008661e-01 2.306589746860899792e-01 -5.477743828632043455e-01 8.042012576933694756e-01
1.406169629651531517e-03 1.629962090130417790e-02 -7.578822549721542234e-01 -1.484218877017786375e-01 -5.420777233158455832e-01 8.271170927599973410e-01
1.559249966548596072e-02 7.875916448910900980e-02 -7.119249938913790876e-01 -7.453496171269741177e-01 -4.016320357374204009e-01 5.321143261725701512e-01
2.013936351696332672e-02 -5.232689483463064811e-02 -7.915315130092575036e-01 -5.204653767209843629e-01 -2.614661368687836163e-01 8.128660719365757847e-01
1.449968885698937893e-01 -1.326145229133825765e-01 -6.956121408141250351e-01 -7.198797741102376246e-01 -4.109321400965355031e-01 5.593817006862796815e-01
-1.391602995808093601e-01 -9.336120796030136781e-02 -8.702215680552310983e-01 -1.151523171524903300e-01 -3.242633398524898958e-01 9.389319625415467607e-01
1.391663528518889692e-01 -1.167740267585079365e-02 -6.160779935956806064e-01 -9.722658866814778422e-01 7.020850207856160589e-03 2.337728668127210807e-01
-1.665443105462247053e-02 -2.178526679703776323e-02 -7.907678502094372952e-01 -5.422067481919252696e-01 -6.641851135088499003e-01 5.146552022552323136e-01
-6.041527518922612527e-02 4.986967687539697186e-02 -7.507243850776846861e-01 -4.007848480138496150e-01 -5.431079872380911722e-01 7.378382070621611888e-01
4.814038205828957695e-02 9.922047189077820573e-02 -6.272009733744886573e-01 -8.225933099845084140e-01 -3.950681832094177781e-01 4.089760102797475594e-01
-2.076589722230754720e-01 -1.983368412389107521e-02 -8.139792225265682912e-01 2.361991563915726566e-01 -6.873554519719059508e-01 6.868423699542758332e-01
1.375276509093036059e-01 -7.173783294684013545e-02 -6.197236555263352376e-01 -9.661141890305210422e-01 1.439643484461903752e-02 2.577132445522794524e-01
-2.175864058483497065e-01 1.551844459279292932e-01 -7.214268464305829687e-01 -4.669710161839212281e-01 -7.352346442813756378e-01 4.912922632126367484e-01
6.947752175548260745e-02 -1.106696619059743675e-01 -7.742386449580569430e-01 -5.419862427809044592e-01 -4.231552919434901083e-01 7.260788604114970513e-01
-1.247355347214236347e-02 -6.336253363232445535e-02 -8.167231515737592984e-01 -5.664528384082717638e-01 -2.894812520839286085e-01 7.715774663318862858e-01
1.298534327794702292e-01 2.601774550843794984e-02 -6.009235328565907253e-01 -8.433876914338117592e-01 -4.458797019379890370e-01 2.998140979634474901e-01
3.612435110800614989e-03 1.428629171126193365e-01 -6.552185085391050157e-01 -8.380542074844552491e-01 -4.362378170775306208e-01 3.276609715377044041e-01
-7.644923238714064484e-02 -1.052914229336284618e-01 -8.673419583108196163e-01 -3.609405331159649677e-01 -5.524654365372743126e-01 7.513347276584796397e-01
-1.626541113098060598e-01 9.046728882849967845e-02 -7.696415155824336551e-01 1.807550361332723732e-01 -2.856230883319313407e-01 9.411413646866174654e-01
-2.088216795957971716e-01 1.446953015659507291e-01 -7.287933560829048529e-01 -4.669710161839212281e-01 -7.352346442813756378e-01 4.912922632126367484e-01
1.182430838131452583e-01 6.205956681014020149e-02 -5.795435677123992324e-01 -8.417542338548155145e-01 -5.392784982375476988e-01 2.507012417495011955e-02
1.433558007102405107e-01 -1.424435446338787221e-02 -5.969805445881757322e-01 -9.778297898797172483e-01 -7.960428472756549134e-02 1.936803032752695553e-01
1.203963164678768238e-01 5.911813135083570508e-02 -5.705192882609110283e-01 -8.417542338548155145e-01 -5.392784982375476988e-01 2.507012417495011955e-02
-2.122942495921714967e-01 1.112803754524034766e-01 -7.457226346604594047e-01 3.338137938459720400e-01 -3.969884653313051626e-01 8.549669639419136269e-01
-1.491286159145809379e-02 -1.622360796084402340e-02 -7.821257622715414026e-01 -1.484218877017786375e-01 -5.420777233158455832e-01 8.271170927599973410e-01
-6.663195357393644769e-02 -8.327992343281968857e-02 -8.525702440292397544e-01 -3.284208943015650695e-01 -4.062012066496955565e-01 8.527252171142187809e-01
-2.265484696919657925e-01 -4.730099757806225519e-02 -8.349018969710437776e-01 3.523866497420825583e-01 -6.946358499244059681e-01 6.271400840987195746e-01
-5.332253850373795678e-02 4.377359804014002015e-02 -7.519888313003599833e-01 -2.265556782953770110e-01 -4.899013073952822594e-01 8.418249423986643443e-01
5.824834123702251482e-02 -7.672169419447910643e-02 -7.691272240417689199e-01 -7.066044450434721957e-01 -3.458844225530471328e-01 6.173120154994162778e-01
-9.892786095193545348e-02 -1.887997601276424423e-02 -8.245155945139932552e-01 1.555707396023622291e-01 -6.605748198201604193e-01 7.344648748572911723e-01
-3.912739221523902494e-02 1.688948001996464776e-01 -6.502844111764140012e-01 -2.557565834194963639e-01 -6.626127616767456541e-01 7.039409762904147438e-01
5.065435224250783297e-02 7.714452816825490000e-02 -6.434697220463264644e-01 -8.225933099845084140e-01 -3.950681832094177781e-01 4.089760102797475594e-01
3.339776979239082039e-02 -8.428242422697636294e-02 -7.914234648478388756e-01 -6.116450387717072834e-01 -2.369776951647946661e-01 7.548058813631078889e-01
-2.430641796871393923e-02 -1.883994891719736886e-02 -7.950284165885327381e-01 -5.422067481919252696e-01 -6.641851135088499003e-01 5.146552022552323136e-01
7.431148919876389737e-03 -6.448266942140305769e-02 -8.035784041979195935e-01 -5.204653767209843629e-01 -2.614661368687836163e-01 8.128660719365757847e-01
1.452503593446262120e-01 -1.536784510455234953e-01 -7.091408864282060520e-01 -6.844697318589835211e-01 -3.657940043335926039e-01 6.306313761322748235e-01
6.426018411783343542e-02 4.115471076653186983e-02 -6.539901980579725382e-01 -8.112457307324123512e-01 -4.480704163522533090e-01 3.756504576842050191e-01
-1.450842940319528040e-01 -5.141306499521156731e-02 -8.529600952901327249e-01 -2.715367572576672661e-02 -4.302300962899239245e-01 9.023107791337431349e-01
1.081380090560181244e-02 -7.550506425452020720e-02 -8.049580038573311835e-01 -5.204653767209843629e-01 -2.614661368687836163e-01 8.128660719365757847e-01
1.233639044130017404e-01 2.002509746611465333e-03 -6.336102268392855841e-01 -5.654365423906241306e-01 -6.317058647659672399e-01 5.303104910801006433e-01
1.419341167969909168e-01 -1.553697468677082139e-01 -7.137212698788116816e-01 -6.844697318589835211e-01 -3.657940043335926039e-01 6.306313761322748235e-01
1.483805998705517715e-01 -3.896277083765615351e-02 -5.769363059602073962e-01 -9.722658866814778422e-01 7.020850207856160589e-03 2.337728668127210807e-01
-1.151807777964926061e-01 -1.678328025893841349e-02 -8.191872216428398579e-01 1.555707396023622291e-01 -6.605748198201604193e-01 7.344648748572911723e-01
1.485126163066335103e-01 -1.252215741721796581e-02 -5.702375971252724440e-01 -9.778297898797172483e-01 -7.960428472756549134e-02 1.936803032752695553e-01
-1.807513472339392635e-01 2.090888843499311492e-02 -7.826283482046366702e-01 1.735230354037128886e-01 -1.823677643207534393e-01 9.677973727598829790e-01
4.585353928846742227e-02 5.184993920722164723e-02 -6.809836340224593165e-01 -8.112457307324123512e-01 -4.480704163522533090e-01 3.756504576842050191e-01
2.555105671591068051e-02 -2.936134408650103653e-02 -7.746894499025195335e-01 -8.544146165986054031e-01 -3.154562023065661802e-01 4.128717081236940034e-01
1.253125997490524279e-01 -8.065822993840773836e-02 -6.720147892029436631e-01 -9.436990495921890876e-01 -2.227570232074646550e-01 2.445637185081790677e-01
1.362478435629698725e-01 -5.217604389428111278e-02 -6.256141562675572310e-01 -9.661141890305210422e-01 1.439643484461903752e-02 2.577132445522794524e-01
1.133998320184056441e-01 3.175178662566010418e-02 -6.131950797795743258e-01 -5.285421301294963570e-01 -5.780349768907120378e-01 6.217063472163754101e-01
1.020064971773972096e-01 -7.950152780689608012e-02 -7.205971361796154051e-01 -7.066044450434721957e-01 -3.458844225530471328e-01 6.173120154994162778e-01
-3.461687043616215598e-02 -6.670426405252133373e-02 -8.316194553275415569e-01 -3.397922703746928952e-01 -5.330974176900107331e-01 7.748214996022333434e-01
-6.388069659888258311e-03 1.385148184261119630e-01 -6.669859056744059655e-01 -2.557565834194963639e-01 -6.626127616767456541e-01 7.039409762904147438e-01
1.214453099592521235e-01 4.885823377054580169e-02 -5.904504208386552877e-01 -5.285421301294963570e-01 -5.780349768907120378e-01 6.217063472163754101e-01
-2.000320924671051825e-01 1.348734735087598335e-01 -7.384241987613991975e-01 -2.685606053835439266e-01 -8.262693534621341485e-01 4.951304441915194143e-01
8.103786129522126680e-02 -1.149457271321803892e-01 -7.629013872310568267e-01 -7.425792310012857556e-01 -2.995380329861126456e-01 5.990434479070357865e-01
-5.163240545822223027e-02 1.160665533824398188e-01 -7.031859329311923590e-01 -2.161788673145883521e-01 -6.378486396208414844e-01 7.391994387581901638e-01
-4.901258837996488524e-03 1.719282473233736952e-01 -6.382971793288159112e-01 -8.380542074844552491e-01 -4.362378170775306208e-01 3.276609715377044041e-01
-1.338882910652177405e-01 -4.600093857413366932e-02 -8.483994709799668188e-01 -3.517647334152544658e-02 -7.923611613182111046e-01 6.090372778063004588e-01
-8.674710823748994770e-02 -5.017150543745257929e-02 -8.436249407113246557e-01 -3.481570379303343121e-01 -5.411272093504045921e-01 7.654854800975776641e-01
-2.184086861529467016e-01 -6.080928892649921369e-02 -8.491535191854793219e-01 2.306589746860899792e-01 -5.477743828632043455e-01 8.042012576933694756e-01
-1.595393024276515193e-01 -3.870265008717240635e-02 -8.403858921701942153e-01 -3.517647334152544658e-02 -7.923611613182111046e-01 6.090372778063004588e-01
-7.060341626988543909e-03 1.291598372303866538e-01 -6.761574697981080906e-01 -2.569013067264304673e-01 -6.718719983365124548e-01 6.946867901821321967e-01
-4.359520748919282207e-02 8.132447665946345924e-03 -7.805407510387616377e-01 -5.422067481919252696e-01 -6.641851135088499003e-01 5.146552022552323136e-01
1.651735883819941131e-01 -1.390435720954003307e-01 -6.743692307416400133e-01 -7.198797741102376246e-01 -4.109321400965355031e-01 5.593817006862796815e-01
-1.078601184666286433e-01 7.344421072387678773e-02 -7.591431096896609221e-01 -4.007848480138496150e-01 -5.431079872380911722e-01 7.378382070621611888e-01
1.599781343263804445e-01 -1.629537870992825710e-01 -6.985358735330123858e-01 -6.844697318589835211e-01 -3.657940043335926039e-01 6.306313761322748235e-01
1.046173258260782862e-01 -5.732411539744466933e-02 -7.070834746605622056e-01 -7.240286218119516004e-01 -2.742435619864487806e-01 6.329083847651811867e-01
4.595598194448781426e-02 7.464200978350199467e-02 -6.553371989757770244e-01 -8.225933099845084140e-01 -3.950681832094177781e-01 4.089760102797475594e-01
-2.427625391693553208e-02 -5.318865799427081875e-02 -8.177855642212499276e-01 -3.397922703746928952e-01 -5.330974176900107331e-01 7.748214996022333434e-01
1.359192509603141807e-01 -1.186130685659611689e-01 -6.964068299539546425e-01 -6.209200869250508514e-01 -6.918648299394056789e-01 3.684851458958750547e-01
2.747856137328684445e-02 4.967592909347427060e-03 -7.473482958211640215e-01 -7.380290515636493964e-01 -3.322413225126851222e-01 5.873064129252140164e-01
2.024649336597825200e-02 -5.628822158020539701e-02 -7.927371180377464910e-01 -5.204653767209843629e-01 -2.614661368687836163e-01 8.128660719365757847e-01
-4.946198973009083982e-02 2.410415530666664904e-02 -7.653559036111329261e-01 -4.419807534937189031e-01 -7.639798169807784367e-01 4.700934511213068490e-01
1.230844254308742225e-01 3.965126450225114896e-02 -4.675568850106845975e-01 -9.565295743604258494e-01 2.605699188619544152e-02 -2.904689424838823864e-01
5.339385151424786563e-02 2.055575763007465653e-02 -7.020270021467884813e-01 -8.112457307324123512e-01 -4.480704163522533090e-01 3.756504576842050191e-01
-7.287036239010832861e-02 2.588485225431157166e-02 -7.844704725053452954e-01 -4.419807534937189031e-01 -7.639798169807784367e-01 4.700934511213068490e-01
-1.489027393746937267e-01 8.757915891510720252e-02 -7.693156863618177965e-01 -3.744756737019025450e-01 -5.810095127175104457e-01 7.226312447834422059e-01
1.039717354322999832e-02 1.506604103714954956e-01 -6.327079686734663477e-01 -7.267829892480077714e-01 -5.490825295847800991e-01 4.126679806388051097e-01
1.254158840107743311e-01 -6.559931244212564849e-02 -6.654711012420955196e-01 -9.661141890305210422e-01 1.439643484461903752e-02 2.577132445522794524e-01
-1.485129728705265328e-01 -7.573253469909663194e-02 -8.646590234974483868e-01 -2.715367572576672661e-02 -4.302300962899239245e-01 9.023107791337431349e-01
1.214860994407444134e-02 -6.883587246791740555e-02 -8.019581373532098656e-01 -5.204653767209843629e-01 -2.614661368687836163e-01 8.128660719365757847e-01
-1.255235178107089455e-01 -4.181279611711265221e-02 -8.424675440256443881e-01 -3.517647334152544658e-02 -7.923611613182111046e-01 6.090372778063004588e-01
-4.271917480374377157e-02 1.161011789415880430e-01 -7.005493806414994085e-01 -2.161788673145883521e-01 -6.378486396208414844e-01 7.391994387581901638e-01
1.389502529901683048e-01 -5.092201758267026618e-02 -6.155534293204336649e-01 -9.661141890305210422e-01 1.439643484461903752e-02 2.577132445522794524e-01
5.870050738890952163e-02 3.516889106861804601e-03 -7.083339821059659869e-01 -7.453496171269741177e-01 -4.016320357374204009e-01 5.321143261725701512e-01
