-4.897847380376248866e-02 1.603933794512866357e-02 -8.601531594887160681e-01 8.530187662230053203e-01 2.676533094977061045e-01 -4.480186272760395272e-01
1.144044786006603344e-02 -1.745235882638213054e-01 -8.834848607347622895e-01 9.539716918807129575e-01 2.445108558039670588e-01 -1.736446154773060857e-01
5.762682429887586340e-03 4.933226047088834498e-02 -7.493839194854998720e-01 9.176998081608678248e-01 2.254733940909901257e-01 -3.270914408213630442e-01
-9.369716814160830923e-03 -1.052931606848677287e-01 -8.626638586401552677e-01 8.123731967708244239e-01 3.269416650071392816e-01 -4.828653402872386535e-01
8.005732258367672521e-03 -2.003245545191468802e-01 -9.129163691226327426e-01 7.075188433372942010e-01 5.863458720799038515e-01 -3.944814376083038421e-01
3.741225490007663718e-02 9.569725201945562115e-03 -7.039666549654319816e-01 8.588766195619680355e-01 2.857436667720384960e-01 -4.250664762945631225e-01
3.825630542018245567e-02 -4.688176701611358743e-02 -7.283750967619911920e-01 8.736611757561764113e-01 1.619629200430512395e-01 -4.587855299673947451e-01
1.262192005542842315e-03 -6.574480710750622847e-02 -8.211391585082600253e-01 7.829746914092494681e-01 2.974844267014697397e-01 -5.463091144056523296e-01
-3.434290510660376744e-02 -7.624458995959224050e-02 -8.859043651306439671e-01 8.100802608773642888e-01 3.225145070988996165e-01 -4.896471828241380497e-01
1.520407579602651299e-02 -1.197335791214666073e-01 -8.195313091738883893e-01 8.942096396970076189e-01 2.761532703253092857e-01 -3.523187357515694673e-01
-6.743968573429276643e-03 1.284643367281600775e-03 -7.974230362942247297e-01 7.727310282422112930e-01 2.990384121496961756e-01 -5.598774741411937095e-01
-1.466369116111628824e-02 -3.840640964123050866e-02 -8.313148706041620928e-01 8.203624012487138462e-01 2.800497640256431886e-01 -4.985756314608905670e-01
3.264470213166711238e-02 -1.798663710176370834e-01 -8.341936056508935105e-01 8.153637968517701839e-01 3.800339041617679658e-01 -4.367563513802964481e-01
1.129026156172170496e-02 -1.723520551934601130e-01 -8.812908237276093626e-01 9.463082396535856811e-01 2.582642315751611517e-01 -1.944229982605536755e-01
-2.459283888875141849e-02 1.949187938644219020e-01 -6.538483021530027139e-01 7.932501303080077282e-01 6.079765910942670493e-01 3.344690490498592600e-02
1.740009179136449077e-02 1.462634085403612984e-02 -7.430718058513128277e-01 8.913749361762929313e-01 2.195717514898496425e-01 -3.965336922688780796e-01
3.697353399275251501e-02 1.632726732969261166e-03 -7.096625148144518613e-01 8.598775165379943797e-01 2.598826093524340131e-01 -4.393992329404106112e-01
-8.498298365962808285e-03 7.295277592842210057e-02 -7.600506555718873347e-01 7.757938717053065592e-01 3.405978686008724332e-01 -5.311656620387210648e-01
-3.924956887746264972e-02 2.489176772296433290e-02 -8.364556438215852152e-01 8.446649405743057448e-01 2.753048217397660036e-01 -4.590734073015338423e-01
-1.663324278375268722e-02 1.446170810162802078e-01 -7.213170733033875681e-01 7.580691800930000612e-01 3.985528558705785929e-01 -5.162235361454688976e-01
-1.177806325850370983e-02 3.679653920129354050e-02 -7.859906643748888477e-01 7.852222073043150230e-01 2.858360166646235490e-01 -5.492939620398535894e-01
-5.142799786631802039e-02 -3.007011417758204130e-02 -8.872312616640046778e-01 8.244128870321237867e-01 2.344546502561217771e-01 -5.151450365369331097e-01
-2.146652724632182666e-02 -5.325109238319118699e-02 -8.510834100256774448e-01 8.220076119885584287e-01 2.832111453020232372e-01 -4.940596451943668477e-01
-9.106739017212114526e-03 7.505800758936430339e-02 -7.595639814702915826e-01 7.753257502478998475e-01 3.488662288345240059e-01 -5.264620930145953448e-01
4.937796102134428024e-03 7.954601120434984241e-02 -7.279814681246238317e-01 9.299309376680701122e-01 2.497393843908727873e-01 -2.699234911078536303e-01
-7.579718481476044843e-03 -1.675735387884052796e-01 -9.145439268058680460e-01 9.132630438488112956e-01 3.410117045147819104e-01 -2.228488952719466509e-01
-2.511797751035141704e-04 -8.964088717444340659e-02 -8.373846871279274628e-01 8.040041812191411896e-01 3.147134546544070322e-01 -5.045123566788296543e-01
1.371788310077428318e-02 3.864347690247333517e-02 -7.362349804328400804e-01 8.952264466723710568e-01 2.648872162202334790e-01 -3.583355576292359124e-01
1.408597751136351529e-02 6.990615654659013134e-02 -7.084477121170775771e-01 8.919127903372708888e-01 2.867130290721202068e-01 -3.496958870119472040e-01
2.238135117955928049e-03 -1.030717363768161865e-01 -8.423337727282613763e-01 7.747160262135928122e-01 3.504378128220136390e-01 -5.263158919055578311e-01
-2.117416907770386381e-02 -3.597518001660462289e-02 -8.407533799546661468e-01 8.248131751261302824e-01 2.801766399086577652e-01 -4.911051583804081355e-01
3.586264091874299953e-02 -4.802515770625148672e-02 -7.334749066104435666e-01 8.814015837227322514e-01 1.627108434277363402e-01 -4.434596144431799392e-01
2.198042646402505879e-02 -4.105954040992462056e-02 -7.591691964259629222e-01 8.953845321658738809e-01 1.717310389636539925e-01 -4.108466743379615704e-01
-1.310650411572756614e-02 -1.511910201084050998e-01 -9.101040447480055473e-01 8.951020749613866068e-01 3.787576778322612192e-01 -2.352337069446745199e-01
-4.847245087382123785e-02 -6.044431682454395188e-02 -8.989374551435082017e-01 8.100112299556250228e-01 3.076674125909258373e-01 -4.992219652372884564e-01
2.833609543706903586e-02 -5.508208357396822755e-03 -7.307001839563173062e-01 8.744558513324983684e-01 2.118384903310331635e-01 -4.364073992092985521e-01
1.429092594574890226e-02 -8.000996335093767120e-02 -7.951876893645575262e-01 9.047840425375694995e-01 2.015467507816889881e-01 -3.751596241851158919e-01
-3.036124147215496852e-02 2.633948750634267782e-02 -8.199453242900937022e-01 8.304508849727629816e-01 2.717049033482312748e-01 -4.863412106170759697e-01
7.970199421046998342e-03 -6.069660051809996210e-02 -8.009971587857264153e-01 9.178981505861725232e-01 1.756782484404053879e-01 -3.558091316638672397e-01
-1.803535948101080491e-02 -7.195863589647427672e-02 -8.562771773869203296e-01 8.198866231244330560e-01 2.952024066689040160e-01 -4.905522034590210634e-01
2.684900785907937473e-02 -4.232717049751005128e-02 -7.494234237211718774e-01 8.844055472729692724e-01 1.743553657984887040e-01 -4.329284402416576638e-01
7.712925263038779809e-03 4.571273005355010188e-02 -7.466349289398821476e-01 9.099815687575059098e-01 2.422317461912938952e-01 -3.365372574600691280e-01
-1.146334659987520432e-02 1.762389912909501088e-01 -6.712063738855659212e-01 8.796880780876537020e-01 4.752002147293837853e-01 -1.826584768352179991e-02
2.819991790467235235e-02 -1.039453303067217060e-01 -7.781389314767122034e-01 8.664930705182342097e-01 2.800988692819688097e-01 -4.132001720363204234e-01
-3.679220856362918485e-02 2.758597887333196289e-02 -8.305201203111791664e-01 8.449679421336843133e-01 2.594453331456834100e-01 -4.676722098599528921e-01
-4.730260878784073308e-02 -7.717958851826103167e-03 -8.700728725586059920e-01 8.472852382481836919e-01 2.376657680964235630e-01 -4.749975870695084534e-01
-1.272239548705212699e-02 1.437825870728113298e-01 -7.162496753002873806e-01 7.522315819848446328e-01 4.049408233068523266e-01 -5.197793538455968143e-01
-8.398842855783119829e-03 1.666807631879916041e-01 -6.813656513950068216e-01 8.878803346906940508e-01 4.382777864913525723e-01 -1.399324592000779355e-01
4.184723498131006497e-02 -1.353346860960652487e-01 -7.767264979230206201e-01 8.122315322494614298e-01 3.920611055602507555e-01 -4.319352121864641347e-01
-8.963307200217412313e-03 -8.425386163768597281e-02 -8.484307315181781606e-01 8.197063581455747983e-01 3.005274726589056700e-01 -4.876112433004078373e-01
-1.138676569102268490e-03 5.492682189721193042e-02 -7.608792767045488015e-01 7.600345052750758779e-01 3.293037332612280266e-01 -5.602736849536021912e-01
4.381188353169555155e-02 -1.142025773318825627e-01 -7.549021678897588350e-01 8.290207279667001217e-01 3.457922804912187953e-01 -4.394909912094273619e-01
-5.185324213577824533e-03 -6.736937543599066935e-02 -8.320443857024953926e-01 8.186765592277882586e-01 2.893656245990141040e-01 -4.960203893706101042e-01
8.379838245669592872e-03 -1.193230049097064316e-01 -8.380010634260222080e-01 9.164835434767722999e-01 2.558347460023380204e-01 -3.075816920334794591e-01
-8.713516640788903853e-03 -7.503519493835988929e-02 -8.424151635715988462e-01 8.231931400659452391e-01 2.873398500906835240e-01 -4.896824120776978040e-01
-4.202750556150593349e-03 1.391152739668456706e-01 -7.048509282083391669e-01 9.392156787345559144e-01 2.611833623689619466e-01 -2.228388656424880598e-01
-9.480084852956577931e-04 -1.576910178855166211e-01 -8.887040958158428650e-01 7.949636502907049262e-01 3.949363229522298568e-01 -4.604976607209309014e-01
4.146403175969708317e-03 -6.759324229879591639e-02 -8.151061783072381939e-01 9.301920857288862310e-01 1.766854677644647820e-01 -3.217529007300424237e-01
1.286123965675150648e-03 -1.046498509299113866e-01 -8.447329162159017413e-01 7.984393856693791092e-01 3.343837881853645722e-01 -5.006815650797514783e-01
1.318181642486039584e-02 -1.432891616794708736e-02 -7.671573398143680667e-01 9.002892833782915050e-01 1.769682111233003841e-01 -3.976951828800808220e-01
1.762536194491636703e-04 8.823690342685093502e-02 -7.389856569256150198e-01 9.464865895508218774e-01 2.052893913603137388e-01 -2.490369482533988654e-01
2.961011283084489035e-02 1.497548084497755776e-02 -7.163582142833724298e-01 8.646185300098773174e-01 2.809473323129998978e-01 -4.165373861129005317e-01
2.232129248974349181e-02 -5.300378270637770561e-02 -7.634353723380494783e-01 8.975016813363390078e-01 1.733821786932653874e-01 -4.054988928591803932e-01
-3.967755157323293869e-02 3.775445906382361022e-02 -8.302237381069504929e-01 8.442097890322721732e-01 2.346182151702733421e-01 -4.819378852221532505e-01
2.658536184484511233e-02 -1.258157191421495624e-01 -7.982139902618829996e-01 8.554893574332849138e-01 3.311752473181308054e-01 -3.980714946867711101e-01
1.170527908108846306e-02 -2.509616767235584370e-02 -7.754203533686501171e-01 9.033296981795204683e-01 1.768208603310121030e-01 -3.908066526285050579e-01
-9.728348252366918539e-03 -5.736528795381035106e-02 -8.338529388495912187e-01 8.229481290320066478e-01 2.815758138167783753e-01 -4.934282500993821818e-01
1.836991463721699205e-02 -5.946303516149981094e-02 -7.751719925843478798e-01 9.052168077873802288e-01 1.744997650142532386e-01 -3.874691767214464289e-01
-3.101339216288997828e-03 -1.797867648699033594e-01 -9.148256996671036978e-01 9.022814156214776782e-01 3.334069283841861187e-01 -2.733643486805191203e-01
-2.879527495853033067e-02 -5.576209144117538069e-02 -8.646281857492726930e-01 8.150614786928261912e-01 2.842498133987689801e-01 -5.048532752531456058e-01
3.546476724409453052e-02 -6.260477612629704314e-02 -7.399910116377657054e-01 8.827254917420510605e-01 1.798022159186173086e-01 -4.341277109094842657e-01
1.924660037924327133e-02 -3.600390817890793821e-02 -7.630139801688031742e-01 8.953845321658738809e-01 1.717310389636539925e-01 -4.108466743379615704e-01
3.602363448573946830e-02 -1.379359705290141569e-01 -7.899760477902821876e-01 8.088327291588971457e-01 4.005438242748358135e-01 -4.305278865261335519e-01
-1.941269611274801243e-02 -1.361054141362363357e-01 -9.087829041476557235e-01 8.746393793522024840e-01 4.041458748454227479e-01 -2.677163945891660179e-01
2.215206482974908103e-02 -1.118902116063122676e-01 -7.967432297657228712e-01 8.821119121521032724e-01 2.776554570929491428e-01 -3.805075841371176049e-01
-8.344221323287314210e-03 1.526727028838588962e-01 -7.028830619784965927e-01 7.081026451839053104e-01 4.474790449206562659e-01 -5.462171255466578002e-01
1.548068482599892180e-02 -2.008596391085482047e-01 -9.012297064778657107e-01 9.711672723373043770e-01 2.321989657011249986e-01 -5.401638148050660893e-02
-2.539473245064734989e-03 5.727226142967763167e-02 -7.613793064604006400e-01 7.536757905188684603e-01 3.357684036836198760e-01 -5.650065325936616256e-01
6.329750443727178572e-03 -7.940039659547061535e-02 -8.155703373215786867e-01 9.214008700281426378e-01 2.004919922523678288e-01 -3.329014835564091945e-01
3.729228651882765533e-02 -9.341417916736155513e-02 -7.527194269601593657e-01 8.622675183769084040e-01 2.927176581881808515e-01 -4.132929945413481576e-01
-2.282170703910212095e-02 -9.963524283407966531e-02 -8.819533711902699524e-01 8.253442722029025180e-01 3.267896637220420453e-01 -4.604512439187189998e-01
1.091806945218077619e-02 4.741891529284911894e-02 -7.367815004433814208e-01 9.023909438510070435e-01 2.594414246327064189e-01 -3.440650107759293252e-01
2.432577961841528736e-03 1.094628003859562659e-01 -7.107183569112542898e-01 9.302033419583126683e-01 2.466518053002395849e-01 -2.718172723572192528e-01
-4.065357847007518288e-03 9.033680646380032320e-02 -7.426910125090135928e-01 7.139985191424031985e-01 3.753374546901759867e-01 -5.910396854435032710e-01
-9.737473018169340343e-04 1.406622407209051628e-01 -6.922769754669269027e-01 9.176710398489205112e-01 2.686942122876735395e-01 -2.927170697204174443e-01
9.867323084060361862e-03 4.681263408643215884e-02 -7.400239466720911485e-01 9.098144227962065012e-01 2.423794920950056719e-01 -3.368826173666019663e-01
7.677300929200455912e-03 7.894682845295554474e-02 -7.195644083246989231e-01 9.221581867471830840e-01 2.456328369958299673e-01 -2.988122956046610490e-01
-4.550946684223465370e-03 -1.789125883516518856e-01 -9.189912043017953724e-01 9.127947564384117918e-01 3.196937516163025350e-01 -2.541685224335114568e-01
4.687923632376416599e-02 -3.894167956551849909e-03 -6.936723857156188444e-01 8.575411225988476271e-01 2.590332178435471588e-01 -4.444378641672259156e-01
2.146469759586346320e-03 1.036741013204844769e-01 -7.169011555917165213e-01 9.371323624360806681e-01 2.323420458734086202e-01 -2.603845406208457613e-01
3.332119786687837149e-02 -1.894106428783101093e-01 -8.411904845771170924e-01 8.211721780948988414e-01 3.696763054670076931e-01 -4.347593392891557773e-01
-3.671637060536678265e-02 -9.664331172761754518e-02 -9.062799121970128713e-01 8.254760683376115571e-01 4.006483682214866393e-01 -3.975803637547241087e-01
-1.125367326058415197e-02 -1.587308963639070258e-01 -9.154803932694071111e-01 8.934412293075139067e-01 3.854301315978678755e-01 -2.306650893176693251e-01
-1.968637687347957882e-02 9.751907286971300826e-02 -7.598303989341806952e-01 7.897411450765414731e-01 3.480109844617127468e-01 -5.051705439425207000e-01
2.851949308512750914e-02 -1.246932451790217222e-01 -7.931235371364154796e-01 8.554893574332849138e-01 3.311752473181308054e-01 -3.980714946867711101e-01
-5.115868862115459728e-03 1.444163406993909937e-01 -7.023282806304367298e-01 9.276827674209469077e-01 2.790399215724911897e-01 -2.480754022450252505e-01
-6.159431804428750108e-03 -5.637700561854611797e-02 -8.274348392839853128e-01 8.149612823510563597e-01 2.808275229086150682e-01 -5.069260406072398917e-01
4.459234083606248428e-02 -1.439699805548938505e-01 -7.797274674862474386e-01 7.997502177026901693e-01 4.153040742698977383e-01 -4.334998444974608733e-01
-1.711658978356871835e-02 -1.455134541171590190e-01 -9.159867220312992719e-01 8.946980259644932154e-01 3.978741460288753307e-01 -2.030064192508009568e-01
2.032858178589999967e-02 -1.274935412693125047e-01 -8.133114853845603287e-01 8.747199628924472448e-01 3.157015452656842247e-01 -3.676921549806233536e-01
-3.297109640547135623e-02 2.200729342895281406e-03 -8.386758858670773087e-01 8.343341493576361678e-01 2.875857632268086217e-01 -4.702987943902510182e-01
-5.159463991060093957e-02 -3.945331228251322542e-02 -8.920272555032554562e-01 8.139139911412764938e-01 2.643505423086440764e-01 -5.173613880119035668e-01
2.946169518890817338e-02 -1.650043843174214819e-01 -8.270098252162273456e-01 8.208877850195344106e-01 3.836478381391580372e-01 -4.230337819806743727e-01
-1.824807026982231545e-02 -4.751075276497059019e-02 -8.424360635083237847e-01 8.226500235775960901e-01 2.828403864363147613e-01 -4.932020422791622005e-01
5.213182799384053975e-03 -3.117759708663495055e-02 -7.939601137886894699e-01 9.207098246177836121e-01 1.644439672175785627e-01 -3.539090285624736376e-01
-2.625004292158725910e-02 1.278016878717257165e-02 -8.206262928985537108e-01 8.168260754399739865e-01 2.929938694505850316e-01 -4.969403937553309447e-01
-2.213886342174712848e-02 -4.018732096310888985e-02 -8.447638947580771163e-01 8.237865159979393948e-01 2.794202436850560245e-01 -4.932546030996166064e-01
1.969083034727578743e-02 -9.529552102288188498e-02 -7.912645045134462096e-01 8.883024033311016643e-01 2.406115971740484805e-01 -3.911839714783081901e-01
8.428555746565048398e-03 4.113605923661303038e-02 -7.479044830465542137e-01 9.107293746253599664e-01 2.268967671466179115e-01 -3.450939919107750553e-01
-1.403537912248482324e-02 -6.317749266719817347e-02 -8.444016696211427142e-01 8.235166340767697823e-01 2.863822646789690451e-01 -4.896994505573926126e-01
-1.977919756179779762e-02 -1.678273228787002455e-02 -8.273820788788455172e-01 8.100183600273670459e-01 2.961468421038401244e-01 -5.061297307316552363e-01
4.382044413027012114e-02 -1.262836845339712910e-01 -7.648091062947409702e-01 8.267017836604808600e-01 3.664142726845951992e-01 -4.269715935113232441e-01
3.720211903636368167e-02 -2.805247647051756221e-02 -7.234715813245228277e-01 8.686134328163530594e-01 1.790269085297813978e-01 -4.620173918298531301e-01
-4.673713157571014742e-02 2.240988737516185283e-02 -8.520855781253581229e-01 8.523304351984567484e-01 2.678158767482148872e-01 -4.492298803463476986e-01
2.569721865845099595e-02 -1.370947312469631973e-01 -8.095537462039451571e-01 8.428907562571834600e-01 3.550666546485040098e-01 -4.043053842986922830e-01
3.360225702855725721e-02 1.010840140067917510e-02 -7.113004688265244235e-01 8.655634266318638081e-01 2.572759356989355872e-01 -4.296615498128067978e-01
2.506164666230605367e-02 6.633954405221478834e-02 -6.851873532947089229e-01 8.702878260668182042e-01 3.318441097081680780e-01 -3.639760797798182734e-01
9.656548582576305814e-04 -1.239840423198562830e-01 -8.589303100381829870e-01 7.760340977374464710e-01 3.750205650371680743e-01 -5.070805211680196045e-01
-1.823104045430060799e-02 -1.406414571895416854e-01 -9.117789783005590953e-01 8.744916453053155347e-01 4.047341369276645229e-01 -2.673100085979210894e-01
1.472894746707873251e-02 -1.282986261154842392e-02 -7.629989754031508697e-01 8.923784165557615555e-01 1.920731774671420589e-01 -4.083731824729769366e-01
-5.257323219246578166e-05 1.279308276312084158e-01 -7.017023570532624488e-01 9.240831158243865140e-01 2.715517304665581722e-01 -2.689424710396463580e-01
-5.871865320158250155e-03 -2.631618960733134518e-02 -8.107704118131238147e-01 8.002436662990611849e-01 2.850344227181701995e-01 -5.276034992434716075e-01
-8.522451702492850681e-03 1.024519388371536166e-01 -7.404305912998024874e-01 7.403254631882234538e-01 3.726037186262284306e-01 -5.595397013805620823e-01
-3.452511843688070570e-02 5.909945869056647261e-02 -8.111767338550318618e-01 8.455631038724908954e-01 2.269528421359222892e-01 -4.832343580665039440e-01
1.263224748641467859e-02 -2.063568073642766121e-01 -9.149500671805259611e-01 6.050993025489356247e-01 6.778988437177159154e-01 -4.175020859121247874e-01
-1.741526605552187398e-02 7.880939767015950059e-02 -7.696946754253916056e-01 7.887064757614571375e-01 3.592730632871727892e-01 -4.988636698419652293e-01
1.550980137596889331e-02 -9.645037903635760024e-02 -8.018688440677868012e-01 9.026148036877831293e-01 2.220034102418337041e-01 -3.687831368225243933e-01
-2.479847171784677062e-02 6.306926325100742359e-02 -7.922921641798768011e-01 8.336553000883728526e-01 2.617563573002623101e-01 -4.863151756294080696e-01
8.634813915994245595e-03 -1.294302160658624412e-01 -8.459520783723515347e-01 9.135403744232182266e-01 2.720843758498354692e-01 -3.023476090811558215e-01
-2.830589183123150693e-02 -1.123430415765099694e-02 -8.385445534102703435e-01 8.344340807663563897e-01 2.843648486419808052e-01 -4.720766862623370641e-01
-7.785679044767936964e-03 1.684341307652152397e-01 -6.712745935417741006e-01 9.016956150817719839e-01 4.134439559323478952e-01 -1.265271237534295323e-01
1.374149274819434947e-02 -1.347209272147089354e-01 -8.359536869386350322e-01 9.020417228014832034e-01 2.874014841745655691e-01 -3.220576302769256882e-01
1.465605069491517955e-02 -1.671354011383352489e-01 -8.639236899776784329e-01 9.139228985087325396e-01 2.870052182124898654e-01 -2.870068645523965456e-01
-2.709211800387629696e-02 1.176259227438931215e-01 -7.575576858098244104e-01 8.046375222168667962e-01 3.460031363418607508e-01 -4.825352707132367081e-01
2.535085010443740433e-02 1.258433635266167569e-02 -7.267746349991111021e-01 8.733603518863916060e-01 2.518498777092378904e-01 -4.169092645297297062e-01
1.236221782426246904e-02 -1.376930079893615710e-01 -8.424691169643666599e-01 9.020417228014832034e-01 2.874014841745655691e-01 -3.220576302769256882e-01
4.702365366256140884e-03 1.217120880689889079e-01 -6.919139501326481145e-01 9.199025278006388584e-01 2.704265127332254326e-01 -2.839873950670016578e-01
4.036508516178478195e-02 -7.599553514835720447e-02 -7.362834491821809157e-01 8.737009027836235564e-01 2.271093728080435248e-01 -4.301953803306333701e-01
-1.186329388445696298e-02 3.809651872463626354e-03 -8.034090427621680686e-01 7.847088285064031110e-01 3.003841922673387566e-01 -5.422189516237942986e-01
1.532443723044112430e-02 -6.115130368371998054e-02 -7.830870605685203989e-01 9.054552258336922010e-01 1.866549754215738877e-01 -3.811964771096778004e-01
4.812530749383481243e-02 -7.053410498259445049e-02 -7.181747772487130366e-01 8.765771552336782957e-01 1.858923171412279196e-01 -4.439105060147787163e-01
-1.712844411918194865e-02 1.853453665841649778e-01 -6.648742817830004537e-01 8.159959208345604065e-01 5.771231629794147944e-01 3.285592692336650883e-02
4.587625016408500289e-02 -2.328698141785640052e-02 -7.054070285900333470e-01 8.586760343694525011e-01 1.983688126151722242e-01 -4.725730442811961196e-01
2.572871418442502361e-02 1.588160102296606521e-02 -7.239802404192783314e-01 8.740682304882553266e-01 2.528020262312314359e-01 -4.148443852633343920e-01
4.860709525188958678e-03 -8.473508723037798118e-02 -8.230550245590645408e-01 9.305844371281660754e-01 1.898895881030516486e-01 -3.129769156102532590e-01
1.028912931874665163e-02 2.073963455516579166e-02 -7.559614438394939295e-01 8.977933166970826218e-01 2.132779608765455470e-01 -3.853306007811921341e-01
-2.784885529506732002e-02 -2.553408730061696927e-02 -8.460540059309791250e-01 8.297871569805945757e-01 2.793890864823027620e-01 -4.831097312874645389e-01
6.614216747113911554e-03 6.938402660972120550e-02 -7.313120914282720264e-01 9.232400853917104300e-01 2.584055096796698536e-01 -2.843489709724599801e-01
-3.664600378968919936e-02 -3.940124978860141958e-02 -8.683867007997887466e-01 8.163230577449812619e-01 2.658863254695755240e-01 -5.127583517819778169e-01
2.169697320767621437e-02 -1.870007877775335947e-01 -8.635412098439121387e-01 8.598072924816004825e-01 3.499321665620870880e-01 -3.718587078456317974e-01
-1.040691425586016960e-02 -5.839894902591141745e-02 -8.355745236603837611e-01 8.229481290320066478e-01 2.815758138167783753e-01 -4.934282500993821818e-01
1.872619744148197249e-02 -2.490835911501306996e-02 -7.595060287936837851e-01 8.979153514214439635e-01 1.723908178597763907e-01 -4.050054661351402685e-01
4.930136285584979169e-03 -1.620957622372731499e-01 -8.833350466201661533e-01 7.377086088369310124e-01 4.257447758863677212e-01 -5.239536184180296763e-01
3.815555794040675647e-03 9.866878097982507978e-02 -7.154109142013276301e-01 9.310355533427164820e-01 2.371685327291898349e-01 -2.773515557823761912e-01
1.919230736829813811e-03 8.220116786999387415e-02 -7.364242310536095459e-01 9.498946313430770561e-01 2.012800642520424788e-01 -2.391370424678979090e-01
-1.801839685327270499e-02 -8.022642152210384889e-03 -8.194915225612784404e-01 8.101746939199494513e-01 2.875584836093814101e-01 -5.108102229164849239e-01
4.857630166798417894e-03 -6.764227318893092922e-02 -8.130778793745542243e-01 9.286362123089870746e-01 1.772735319216169891e-01 -3.258970390605798184e-01
1.207609494742389314e-03 8.522995961843470025e-02 -7.366991954259215492e-01 9.497174102241092708e-01 2.038203831289181200e-01 -2.376848588749226332e-01
-1.616362991682105885e-02 3.941587878344567086e-02 -7.910932933876326789e-01 7.982868924001883526e-01 2.687584584904053053e-01 -5.389869464207005523e-01
3.067780061274262213e-02 -1.077047313116527988e-01 -7.756287036539835089e-01 8.485363391946092460e-01 3.115929381359786587e-01 -4.276633278292620854e-01
-1.524353227224889591e-02 -5.646380594295231231e-02 -8.425494613060240390e-01 8.236255612597076503e-01 2.811642335250296165e-01 -4.925318351395306937e-01
1.541254084569896633e-02 -5.662293467419297205e-02 -7.808020342144939008e-01 9.052168077873802288e-01 1.744997650142532386e-01 -3.874691767214464289e-01
3.296775896399374572e-02 -1.305111288754516874e-01 -7.893631295500571632e-01 8.346896372815225673e-01 3.607307499323318956e-01 -4.161328339221714856e-01
1.479529696481801659e-02 -1.916973501946510339e-01 -8.898915149667813163e-01 9.430792630831942303e-01 2.604719135491638804e-01 -2.067749641385444592e-01
-1.978584741639227013e-02 -1.932730377390669274e-02 -8.288816021597898986e-01 8.100183600273670459e-01 2.961468421038401244e-01 -5.061297307316552363e-01
3.648534059433555105e-02 -3.677731369247842774e-02 -7.281280469044568715e-01 8.727928843863287378e-01 1.651363250927382620e-01 -4.593066242712573466e-01
6.986470852321482105e-04 1.006126730983890327e-01 -7.250765937757337465e-01 9.448767946599971879e-01 2.167252841949206810e-01 -2.454342969180957068e-01
-1.495736182404782365e-03 7.689454394583476737e-02 -7.480150213521786773e-01 7.141277905454953556e-01 3.666067045815066261e-01 -5.963396875326149038e-01
-1.110489789386328446e-02 1.739752921942345210e-01 -6.822975495290171111e-01 9.716038294163529265e-01 2.364894288417842549e-01 7.664770679210806091e-03
-4.726461265445257298e-02 6.145197540119428509e-02 -8.329666604755315840e-01 8.567123269371901273e-01 2.099985151727781774e-01 -4.711099791971013473e-01
-4.348046717511947629e-02 8.382084362250658005e-02 -8.145357957593212239e-01 8.565396519153776200e-01 2.748473176872052171e-01 -4.368051930286909745e-01
-3.992638445516245166e-02 1.019702052068140880e-01 -7.941645150356828609e-01 8.499161823430722018e-01 3.255715807048105148e-01 -4.143013743988164799e-01
3.480598240530704407e-02 2.047097296090597679e-02 -7.018017793129798232e-01 8.575106786242678858e-01 3.112798728733993658e-01 -4.096099080701876005e-01
3.038796181727590473e-02 -1.086087484840741607e-01 -7.768624407621430583e-01 8.485363391946092460e-01 3.115929381359786587e-01 -4.276633278292620854e-01
3.011451964244251517e-02 -4.474130439721384772e-02 -7.436335459521664637e-01 8.874129919658094723e-01 1.648094428289683111e-01 -4.305067121947053765e-01
3.134970533704438400e-02 -1.038244047109251611e-01 -7.715982283085536242e-01 8.603285909910014517e-01 2.862937049608804130e-01 -4.217471162002300877e-01
-3.294983626525621774e-03 -8.318273831179319455e-02 -8.382565650640998456e-01 8.188878422485423858e-01 3.010290063069072097e-01 -4.886760063471526916e-01
3.367741397768412876e-03 -3.282478971867719419e-02 -7.998580267026030866e-01 9.352257545785915838e-01 1.520288923241314705e-01 -3.197499083214903615e-01
-1.520764607617605506e-02 1.827229457078641539e-01 -6.693668561372049242e-01 8.431844217137380859e-01 5.371519646227093103e-01 2.253437110798571855e-02
7.987638373243502107e-03 -3.165005962888207264e-02 -7.872248038572998707e-01 9.119397987452166898e-01 1.736841531273358441e-01 -3.717520926867442510e-01
1.272014889132674735e-02 9.524272071094085079e-02 -6.916270529511489018e-01 9.032529770570626448e-01 2.775031055278481817e-01 -3.273012157935764610e-01
3.156294979733870881e-02 2.641736384289077380e-02 -7.040720937666536949e-01 8.575106786242678858e-01 3.112798728733993658e-01 -4.096099080701876005e-01
2.161852579334556240e-02 2.414970270607720570e-02 -7.275135221333874913e-01 8.838552047497206798e-01 2.674010889580938355e-01 -3.837924369510881117e-01
-3.148620145587383012e-02 1.393056548494290246e-02 -8.289862868887528657e-01 8.315452936135486750e-01 2.851688650017853432e-01 -4.766667002243291096e-01
-2.543297794313161692e-02 1.175852228801486793e-01 -7.548202194583353286e-01 8.046375222168667962e-01 3.460031363418607508e-01 -4.825352707132367081e-01
1.439709562566118470e-02 8.896184094296634426e-02 -6.923244426945779351e-01 9.032529770570626448e-01 2.775031055278481817e-01 -3.273012157935764610e-01
2.910269135735272898e-03 -2.228682113669417167e-02 -7.963061891029753481e-01 9.433195421916346080e-01 1.420619843912894198e-01 -2.999443846951856951e-01
2.469118471150655650e-02 5.178914870342126581e-02 -6.981906409015972148e-01 8.692800901731829732e-01 3.282882761483604250e-01 -3.695658704101886238e-01
3.337821256216784438e-02 -5.093903698472992264e-02 -7.394819899082623049e-01 8.814015837227322514e-01 1.627108434277363402e-01 -4.434596144431799392e-01
9.511251890380181123e-03 -4.737062912179083179e-02 -7.906688833194608357e-01 9.116428322896449332e-01 1.738602012426710142e-01 -3.723976057371636283e-01
-1.047936153698658841e-02 6.486065552160948100e-03 -7.999418537219552539e-01 7.847598988912021234e-01 2.891401688156058358e-01 -5.482242824515829449e-01
-1.811668440034999760e-03 -1.412927808213037817e-01 -8.766189018069446837e-01 7.848924461050776902e-01 3.896132524462724289e-01 -4.818146547848298211e-01
3.644177494278875301e-02 -8.627623379175540508e-02 -7.500113362985559862e-01 8.735459032733731144e-01 2.429638030784496971e-01 -4.217655098131695146e-01
-4.938342524567227408e-03 -4.610490054719826726e-04 -7.958633482581101148e-01 7.727310282422112930e-01 2.990384121496961756e-01 -5.598774741411937095e-01
-3.798544434364270472e-02 1.219021550531917270e-01 -7.738415310342191544e-01 8.127505578898380767e-01 3.815182385422584699e-01 -4.403184805448995265e-01
7.753215846950780275e-03 -1.202736205457562019e-01 -8.406588601914595227e-01 9.164835434767722999e-01 2.558347460023380204e-01 -3.075816920334794591e-01
1.079896977525377638e-02 7.776863841734385496e-02 -7.111666503924121141e-01 9.146213644769199957e-01 2.674426419680877576e-01 -3.032197106052078595e-01
-1.743349142031004953e-02 1.559583617126484301e-01 -7.138625959236805096e-01 7.680819221920516249e-01 3.762820805710976879e-01 -5.181331456709254990e-01
1.031976648883617051e-02 5.724972317965117130e-02 -7.305198343718866116e-01 9.061585299942078731e-01 2.808449533283214339e-01 -3.162322417286842491e-01
2.079925291159533812e-02 -1.786093149152200854e-01 -8.578901627101649385e-01 8.847164482467487767e-01 3.207810704520427381e-01 -3.381956697553936131e-01
-5.802094441374501012e-03 -2.783480224085368646e-02 -8.114850074745065811e-01 8.002436662990611849e-01 2.850344227181701995e-01 -5.276034992434716075e-01
2.669094047285544211e-02 -1.798240818468741231e-01 -8.458964207295674997e-01 8.287616130272265069e-01 3.782781798583133570e-01 -4.123830833285852537e-01
-4.011814843792473224e-03 -3.918804969273554512e-02 -8.147769424232831348e-01 8.085615165339714583e-01 2.724850145883194741e-01 -5.215172008717330332e-01
3.681392674495346379e-02 -5.011005316004010779e-02 -7.323540133458479318e-01 8.775042494315474784e-01 1.658677784698281421e-01 -4.499713016349602412e-01
-3.235786829798245612e-02 -9.733530805492865423e-02 -8.979091088721177227e-01 8.272280028742587943e-01 3.802320567800248630e-01 -4.136634069596887842e-01
8.439015868446766988e-03 7.457976581095913937e-02 -7.208753500227431665e-01 9.211730942409388501e-01 2.570118154145087375e-01 -2.922072161735790319e-01
3.125310961119998759e-02 3.033128497689232747e-02 -7.017431752922923538e-01 8.579506860082473096e-01 3.120369772692363486e-01 -4.081097220045799556e-01
1.671185218782485563e-02 -1.936005235536147895e-01 -8.844576986836966137e-01 9.194662060579094076e-01 2.928522282384596886e-01 -2.623346495094447950e-01
1.554396513400725655e-02 7.178647629852824169e-06 -7.550265726320308790e-01 8.925495638151452749e-01 2.047465773022621449e-01 -4.017886449570250984e-01
-4.615571218100470580e-03 4.131271717823834649e-02 -7.733900249502907442e-01 7.764875435886908761e-01 2.975847091492338503e-01 -5.554371571403615704e-01
3.658549978381298029e-02 -3.426917331939750150e-02 -7.270359587755191866e-01 8.727928843863287378e-01 1.651363250927382620e-01 -4.593066242712573466e-01
1.193989241959360001e-02 -1.700894363880685323e-02 -7.711778501921152662e-01 9.033955361163206188e-01 1.795566420789728168e-01 -3.894045680400129994e-01
-4.060863815449247682e-02 -9.007587467431563133e-02 -9.078311506327850777e-01 8.144991788305826486e-01 3.750929718396722734e-01 -4.426017963822438395e-01
1.590050105384685150e-02 -6.113744228850706564e-02 -7.817119500174635194e-01 9.054552258336922010e-01 1.866549754215738877e-01 -3.811964771096778004e-01
4.331160132189627171e-02 -2.785186842591679326e-02 -7.121555469002269767e-01 8.685147457337693000e-01 1.686978523523676443e-01 -4.660720663746164005e-01
1.516639797920425400e-02 8.675131714749528822e-02 -6.921049096013761615e-01 8.900393299223893218e-01 2.915522543052255777e-01 -3.504672227196791723e-01
1.852857542662198972e-02 -1.406815351362637467e-01 -8.288820267417073007e-01 8.692612100766620165e-01 3.274568232862241635e-01 -3.703471041325306912e-01
1.468652015393720305e-02 5.551906453157393756e-02 -7.196782464978136451e-01 8.937862962273486200e-01 3.034831379421492614e-01 -3.302181728206134981e-01
5.945694175038565739e-03 -7.480562347800143175e-02 -8.139030485473771614e-01 9.216016200445331652e-01 1.836080025932624038e-01 -3.419627981447750376e-01
2.460746540573513844e-02 -4.020129500330732464e-03 -7.374952795111202608e-01 8.839221123444124251e-01 2.052369086451466818e-01 -4.201898507084331214e-01
-3.667030920770207592e-02 -8.791649502780976566e-02 -8.984264645973618624e-01 8.320734441837457362e-01 3.536746940423046159e-01 -4.272797611381576321e-01
1.578109077925542170e-02 -1.458577659371460555e-01 -8.405640281722580598e-01 8.873490296306806302e-01 3.123980271790458563e-01 -3.391447658863824821e-01
-2.117897752589022534e-02 1.844633349722924753e-01 -6.815558634707996610e-01 6.129850146125638277e-01 7.146378299642223153e-01 -3.369601517159884763e-01
-4.391214113717623047e-02 2.158063491839495585e-01 -6.354766691024653635e-01 -1.033824570457085243e-03 8.250791826493925063e-01 -5.650161710653666125e-01
2.249688542404611191e-02 4.534807601359126805e-02 -7.088350566028287503e-01 8.744046755720386033e-01 3.168103452135956899e-01 -3.674883243089499540e-01
1.176304360402369818e-02 8.036976215624502817e-02 -7.061262510325860831e-01 8.999966604247773283e-01 2.714251481697792512e-01 -3.410782903751884976e-01
2.201709905405545981e-02 6.803295809016554618e-02 -6.908263257865198126e-01 8.762540109143646117e-01 3.169652714348298872e-01 -3.629213758663616396e-01
1.740618439816192173e-02 -1.522457934575940919e-01 -8.421545079057407568e-01 8.897447008664944867e-01 3.074671691849781285e-01 -3.373696891443690449e-01
3.866290914178296956e-02 -4.307030440484028305e-02 -7.263137372780454903e-01 8.730856015636395684e-01 1.540657435037783018e-01 -4.625854288895029365e-01
1.465744223275123638e-02 -1.097154052044423261e-01 -8.131875106402649545e-01 8.976978803834986254e-01 2.681074243771209842e-01 -3.496525769229222314e-01
1.309692869128219021e-02 -1.682684531472319056e-01 -8.698843855752861343e-01 9.058022998193382413e-01 3.037950001301491509e-01 -2.953485932553606141e-01
7.408022024357473504e-04 -6.909470449772790734e-02 -8.237105549718882758e-01 7.829746914092494681e-01 2.974844267014697397e-01 -5.463091144056523296e-01
8.396015302235083910e-03 8.106800620622839348e-02 -7.154326176890630773e-01 9.258706719692292308e-01 2.507534507570456372e-01 -2.826414791227248036e-01
3.757037238349743291e-02 -4.840349377873176540e-02 -7.302497736482264079e-01 8.775042494315474784e-01 1.658677784698281421e-01 -4.499713016349602412e-01
-4.324302886255382977e-02 2.530658768705274994e-02 -8.437187317206034098e-01 8.528751687117953617e-01 2.683294184000175608e-01 -4.478875638103101409e-01
-3.993841408979716817e-02 7.986538291421278746e-02 -8.101038942112153141e-01 8.526438956601321006e-01 2.795422047611673677e-01 -4.414233149152624880e-01
-2.939322416898874218e-02 -4.222943736279011206e-02 -8.580584662297948695e-01 8.187182118664341202e-01 2.754933501030991660e-01 -5.037895429712687667e-01
-1.903282117397683132e-02 8.535109469601274979e-02 -7.676182046112502988e-01 7.979517790622018270e-01 3.520825284961875967e-01 -4.891940835897324313e-01
-1.263749806591365696e-02 -1.161513063567187060e-02 -8.130431828767309410e-01 8.002891639750132624e-01 2.938737594317754054e-01 -5.226619055772184774e-01
1.494078374422163659e-02 -7.348982075823647098e-02 -7.900973838058609200e-01 9.056926686055264408e-01 2.020708880452090350e-01 -3.726769998790113725e-01
3.677987248487005201e-02 -2.946930782595761841e-02 -7.248144311285162900e-01 8.686134328163530594e-01 1.790269085297813978e-01 -4.620173918298531301e-01
-8.303206547970204410e-03 -1.418020981039479211e-01 -8.882994979431931837e-01 8.209138820362688049e-01 3.720041182820357784e-01 -4.332589690489370149e-01
-7.729691312585581890e-03 -1.619056103125435520e-01 -9.070765153393384184e-01 8.868067783895764444e-01 3.653983498697406240e-01 -2.829448421773598232e-01
1.331037547519239340e-02 -1.277111456086468255e-01 -8.310569602761634922e-01 9.040374007143232582e-01 2.746349916971703164e-01 -3.275545747584442946e-01
-3.846671046085060972e-04 -1.404006807954838454e-01 -8.735938885256960829e-01 7.859721976127528320e-01 3.803983025997328404e-01 -4.873857157929657458e-01
1.140666253985690888e-02 -8.485561461774918102e-02 -8.051705739694811070e-01 9.136817418088745146e-01 2.089646089316947730e-01 -3.485964241054756996e-01
5.875982893786717461e-03 -2.623338306192893321e-02 -7.899355205947937719e-01 9.207446168200120740e-01 1.663506026751486733e-01 -3.529260936606755106e-01
2.332619848165918761e-02 -4.679067453941507249e-02 -7.586279672497383553e-01 8.953667347829600276e-01 1.712806598450176687e-01 -4.110734068352703274e-01
3.051860070714445400e-02 1.520222864368149691e-02 -7.143195025864074177e-01 8.646185300098773174e-01 2.809473323129998978e-01 -4.165373861129005317e-01
-3.149789701687707999e-02 1.327849706755231396e-01 -7.533211704832235567e-01 7.954403008270072295e-01 3.806567061166148958e-01 -4.715667502153741975e-01
-3.387264277195412010e-02 -9.349725703857840464e-02 -8.977422831058506913e-01 8.322251063589428677e-01 3.373304518001239982e-01 -4.400108392235018706e-01
2.796186486675105234e-02 -2.569177707308101244e-02 -7.405309839706787356e-01 8.804322416466936474e-01 1.888418004709781772e-01 -4.349457923280292682e-01
2.372967842677262823e-02 -1.959117096027467309e-01 -8.667970779165755646e-01 8.626960635031929447e-01 3.442027579067024612e-01 -3.705131083585498919e-01
-1.706428666740131272e-02 1.231952773054277306e-01 -7.379626446063126677e-01 7.628058086173215013e-01 3.788821708252735343e-01 -5.239996173380303546e-01
-1.117536950831001961e-03 -1.453141675082489891e-02 -7.979102233962241941e-01 7.759892309010373301e-01 2.847388157840617939e-01 -5.628183724004632849e-01
3.564949044595502187e-03 1.142191044755812290e-01 -7.026762363164399394e-01 9.261154409775704810e-01 2.488490552387463972e-01 -2.835213178752225560e-01
-1.932325450771008339e-03 -1.305558899983618182e-01 -8.684059538052995020e-01 7.859721976127528320e-01 3.803983025997328404e-01 -4.873857157929657458e-01
2.346366658758405194e-02 -1.578897163451445929e-01 -8.328301578615280309e-01 8.433387584127745029e-01 3.608416886560850689e-01 -3.982122728980421744e-01
-2.741825871972693868e-02 -7.276125886603448945e-02 -8.722816448475415596e-01 8.147586758518714500e-01 2.973924434562988939e-01 -4.977208401294813678e-01
-3.180379950767817099e-02 1.973079503876654789e-02 -8.260807095788545995e-01 8.318596801708058042e-01 2.683229920465786678e-01 -4.858109142920689072e-01
2.976705102407926559e-02 -1.912081747808327403e-01 -8.496481999173026711e-01 8.276843187928185630e-01 3.687421475001230187e-01 -4.230459751391866807e-01
4.835165946749385261e-03 5.617859041313501452e-03 -7.773422993831804462e-01 9.136646070103018324e-01 1.810333443983517254e-01 -3.639284464186036683e-01
3.873508280691670413e-02 -1.419414417063660505e-01 -7.886085605249567587e-01 8.088327291588971457e-01 4.005438242748358135e-01 -4.305278865261335519e-01
3.929171021085655496e-02 3.711550378666769907e-04 -7.058652948499153368e-01 8.603731174682738292e-01 2.588423212096407910e-01 -4.390429950343459065e-01
1.750961414919442044e-02 -8.997585859113080287e-02 -7.929699550046581669e-01 9.044623389759093302e-01 2.228924668901894890e-01 -3.636850637266162978e-01
-3.391019664145719648e-02 1.075816957188536344e-01 -7.775542334142373502e-01 8.396500610318314850e-01 3.258314961156365541e-01 -4.345360872796268370e-01
1.553209859229217477e-02 3.740528376361838825e-02 -7.326178340830593605e-01 8.952264466723710568e-01 2.648872162202334790e-01 -3.583355576292359124e-01
-2.057758357149434836e-02 -5.639396111621480800e-03 -8.221493107039253845e-01 8.210555341881032865e-01 2.892008574794601161e-01 -4.921693548081119141e-01
-3.121573350250807927e-02 -1.147767559053262248e-01 -9.137343260666686007e-01 8.576141639798332550e-01 4.195287551802406867e-01 -2.974786871661384002e-01
5.480919665214298471e-03 -1.401623530975808218e-01 -8.648148996407113431e-01 7.292902002129197925e-01 4.216578983866647867e-01 -5.388324606049081922e-01
2.667751193427249715e-02 8.041242664124230097e-03 -7.267399122095477004e-01 8.733603518863916060e-01 2.518498777092378904e-01 -4.169092645297297062e-01
-4.671420057034345735e-02 -1.210407406501951173e-02 -8.712178885737590361e-01 8.472852382481836919e-01 2.376657680964235630e-01 -4.749975870695084534e-01
2.442394904885904910e-02 3.172785097940276910e-02 -7.156441435133771289e-01 8.729172992314356838e-01 3.026918463532253245e-01 -3.826134274352789855e-01
4.560725598809725612e-03 6.474685278818034795e-02 -7.416347485561990416e-01 9.250547166834752755e-01 2.329700735503394682e-01 -2.999978599450410233e-01
3.562769110413458590e-02 -1.831288112003367774e-01 -8.314715624268803618e-01 8.084295051320764536e-01 3.811971581851339996e-01 -4.484757092903512987e-01
-2.981750266586774556e-02 -1.103406802482329169e-01 -9.047914076745027234e-01 8.592309196364594781e-01 3.964726160299111846e-01 -3.233136116514158664e-01
2.040620170517064985e-02 -1.289971897925271949e-01 -8.144178687106680137e-01 8.747199628924472448e-01 3.157015452656842247e-01 -3.676921549806233536e-01
-1.327041146810866920e-02 5.263477378810060142e-02 -7.797456180182039676e-01 8.026051427621753165e-01 2.906302276514602934e-01 -5.209213525926619237e-01
-2.252433467730095146e-02 -1.397374611383184542e-02 -8.303373586847494492e-01 8.240025041109582116e-01 2.871524210453970105e-01 -4.884294834534843033e-01
-5.416268698316384009e-03 -1.691879765814809644e-01 -9.091260779398873115e-01 9.000233070329044516e-01 3.457991740303937855e-01 -2.652941349473288413e-01
2.255680741725787572e-02 -2.119584397289114297e-01 -8.875915387843253956e-01 8.376588149396598793e-01 4.547224892538670460e-01 -3.025808446029777388e-01
-3.071335552980611686e-02 7.826268502889226208e-02 -7.935469573600407722e-01 8.445205468609999766e-01 2.871265374617696375e-01 -4.520435791102587197e-01
-8.426384544253212247e-03 -8.021245315684796817e-02 -8.450539882582576157e-01 8.229414399734492624e-01 2.957587169570392582e-01 -4.850713016849704240e-01
5.400706975769864991e-03 8.841478892720815164e-02 -7.187920566837053826e-01 9.269720714581995979e-01 2.376960967045744777e-01 -2.902125847510820811e-01
1.827101900006186663e-02 -6.893872671483911030e-02 -7.799112246126985726e-01 8.978277709883236701e-01 1.943344894092887687e-01 -3.951447834252264091e-01
3.699173973811962363e-02 -1.858847126170530828e-01 -8.313551784783703713e-01 8.084295051320764536e-01 3.811971581851339996e-01 -4.484757092903512987e-01
-2.456088196273599131e-02 1.107992035843884115e-01 -7.582438047239519197e-01 8.029076134995339897e-01 3.478896910295452005e-01 -4.840579790271516414e-01
3.526970190556590751e-02 -1.400685464098487265e-01 -7.933434198302430351e-01 8.031380113249163566e-01 4.007342617267335427e-01 -4.408870447670106274e-01
-1.178852572412901999e-02 -1.860414805552864162e-02 -8.155912132604417053e-01 8.085950446618439535e-01 2.891962307715241765e-01 -5.123861764878649971e-01
2.972391200963638361e-02 2.233412453588858471e-03 -7.237384645671455230e-01 8.745690241359088679e-01 2.293515094793643905e-01 -4.272316785088635660e-01
1.064320778650298949e-02 -2.071057660299527314e-02 -7.758910120813450328e-01 9.033296981795204683e-01 1.768208603310121030e-01 -3.908066526285050579e-01
-4.609146868989880824e-02 2.186632196567099909e-02 -8.511846080442269091e-01 8.523304351984567484e-01 2.678158767482148872e-01 -4.492298803463476986e-01
-4.816840216132656227e-02 4.637309267053721373e-02 -8.415193413297114011e-01 8.569982036749951293e-01 2.218486837437226578e-01 -4.651206729645641635e-01
-1.725004285615977517e-03 3.602482457749067724e-02 -7.723331520623002433e-01 7.566602893761131821e-01 3.123482823353289084e-01 -5.743724897689880260e-01
-3.258374006079454988e-02 -6.288147510416389196e-02 -8.747851154399298723e-01 8.110496193294669531e-01 3.008680741499892286e-01 -5.016741142841669721e-01
2.880627367773229593e-03 -8.891388964205866607e-02 -8.323569723314502289e-01 7.783500344120088954e-01 3.323675529063739864e-01 -5.326378072441469991e-01
1.675264487832626645e-02 1.033313832999745163e-02 -7.469044787820664499e-01 8.913749361762929313e-01 2.195717514898496425e-01 -3.965336922688780796e-01
3.877046000200483344e-02 -1.000075153086270180e-01 -7.543052388236685113e-01 8.622675183769084040e-01 2.927176581881808515e-01 -4.132929945413481576e-01
4.292222366536247585e-02 -1.049901474448089733e-01 -7.494101017557519562e-01 8.451318016627280549e-01 3.093879642531400243e-01 -4.359258255639467117e-01
2.146741667598791106e-02 -2.169753459543927177e-01 -9.091174214098675099e-01 7.761457184343567572e-01 6.252339622600875391e-01 -8.173320128667267703e-02
-2.676270142299968374e-02 1.393014055380885630e-01 -7.406526834963028660e-01 7.779273107172616220e-01 3.819017754081969196e-01 -4.989790909249363082e-01
-5.812476358271580820e-04 1.834535114785777743e-02 -7.802741109248046980e-01 7.526855889692134483e-01 3.048091927121374112e-01 -5.835715553351132900e-01
2.066466396052860782e-02 2.645913493812327572e-02 -7.281011602161360230e-01 8.838552047497206798e-01 2.674010889580938355e-01 -3.837924369510881117e-01
-2.750632234922970043e-02 -1.085493987716155545e-01 -8.980780379822306259e-01 8.476698399032470688e-01 3.553375260661690849e-01 -3.939429972566813043e-01
2.306000532249341886e-02 -1.031913367960364258e-01 -7.884556530569366561e-01 8.747218464530920334e-01 2.611430754133227117e-01 -4.082474562093008630e-01
-1.806054626618078598e-02 1.158875238321632611e-01 -7.445398158499744179e-01 7.713546969235730577e-01 3.663043621356896762e-01 -5.204162236271157038e-01
-3.096590442143219366e-03 5.242057415989499064e-02 -7.650088811255598698e-01 7.717957500718175545e-01 3.256648823569555096e-01 -5.461443990104730695e-01
-4.517132587268330585e-02 8.491099401487504916e-03 -8.574519698444742488e-01 8.502207012101971051e-01 2.581684023392981642e-01 -4.587742748533475967e-01
-1.207521161691731126e-02 -1.208925190288417245e-01 -8.782598596974673377e-01 8.203371494355058413e-01 3.369524201701014077e-01 -4.620714531298595329e-01
-1.395840045099215262e-02 1.078718293108575921e-01 -7.442134567403162482e-01 7.553472265008223108e-01 3.715148008931103973e-01 -5.398400875582212155e-01
1.753260576094678447e-02 -4.668459447594579953e-02 -7.713948723444699063e-01 9.011974979636950822e-01 1.698351765243387712e-01 -3.987468902435760132e-01
3.119524930021875739e-02 -1.465232939575647764e-01 -8.069269305238918610e-01 8.191463623118665494e-01 3.853417931895135040e-01 -4.248657900240100371e-01
1.255551612542368627e-02 8.169178518713200721e-02 -7.029831224605461726e-01 8.999966604247773283e-01 2.714251481697792512e-01 -3.410782903751884976e-01
