1.117857153916873569e-02 -1.896409689479064131e-01 -8.892907901105771007e-01 3.859370530670820920e-01 5.338550509960567902e-01 -7.523638585125512757e-01
7.191057574757259152e-02 2.507845236451939491e-02 -7.509836279329694664e-01 1.855339799615295937e-01 4.615510628461046982e-01 -8.674951058451372266e-01
4.829535527522737376e-02 -3.266139359605172571e-02 -7.833564067677996068e-01 2.594746963958614594e-01 3.979031223245453330e-01 -8.799693103595451760e-01
3.066328391072985909e-02 -1.763585940530263546e-02 -7.818005842965255470e-01 2.647536634125432498e-01 3.979430488006493460e-01 -8.783773833728201197e-01
2.114282904301109309e-02 1.802067896089965676e-02 -7.675915559878491168e-01 2.611967121578530615e-01 4.427569957175677695e-01 -8.577543472936070001e-01
-6.735072633030815548e-02 2.714519827061327370e-02 -7.765289670100891106e-01 1.564351525880377514e-01 4.149835669384691617e-01 -8.962793550036631807e-01
-4.149631978774845874e-03 2.429495650393576761e-02 -7.720269764447585947e-01 -3.118929684671169211e-02 4.463900476132182660e-01 -8.942947797868869841e-01
-1.862185566441671922e-03 7.100093206819448055e-02 -7.464843931359989027e-01 3.901700606243795888e-01 4.700689285504093262e-01 -7.917086119298174518e-01
3.104907537251678715e-02 -6.787335622739351648e-02 -8.055639158426435298e-01 2.778512866227561551e-01 4.352979429019997459e-01 -8.563377624672210420e-01
4.658769716608963940e-02 9.090734666154381971e-02 -7.163801166603752657e-01 2.500365983614359910e-01 5.303470189924637257e-01 -8.100702061708290325e-01
-6.250757733219372385e-03 1.266234166506071124e-01 -7.139955183067325795e-01 4.253984894223055147e-01 5.118985995505624942e-01 -7.463216122928464369e-01
-1.743802299803040579e-02 -7.863353651558356583e-02 -8.243088122094581749e-01 1.167087645125175766e-01 4.657181688101575401e-01 -8.772033125371080375e-01
-1.543235924150030726e-02 1.951789518803637991e-01 -6.452429580623316729e-01 -9.233510143292623928e-02 8.657375754999691031e-01 -4.919071857686231342e-01
-1.186238666000855382e-02 1.289475472816394019e-01 -7.132196715599158354e-01 -1.114439160538000656e-01 5.393408898306724097e-01 -8.346805725133730203e-01
4.049478768453181748e-02 4.895222014973896890e-02 -7.448902790904267102e-01 2.209888138702479077e-01 5.112067045431644141e-01 -8.305610449415135044e-01
-6.366771863317409463e-02 -9.204378788941479372e-02 -8.372171268695223212e-01 9.647226740600800543e-02 4.722439368559956385e-01 -8.761727944442776472e-01
-7.172965217067538146e-02 -6.390895547797639797e-02 -8.236321075017735138e-01 1.029671950717295781e-01 4.396891497386289926e-01 -8.922282265996642758e-01
-2.577317193086728353e-02 1.695348535955904998e-02 -7.762755965385708112e-01 4.681333889826314737e-02 4.392458665374502358e-01 -8.971463537411055178e-01
-8.117890064447497167e-02 -4.884582067314657827e-02 -8.176834849942491434e-01 1.208730007146702617e-01 4.221393714874389635e-01 -8.984364578190386919e-01
-1.936129391335868200e-02 -7.607507499057952413e-03 -7.881406978687984788e-01 6.479386628119174207e-02 4.468917845104005693e-01 -8.922384702698290537e-01
6.049620625892766779e-02 -1.266471648324793975e-01 -8.332638439866976166e-01 1.205136977780896373e-01 5.654941681750395022e-01 -8.158999904448286378e-01
9.323811838907442029e-02 -5.974459037094478897e-02 -7.848525700137247707e-01 2.050719520134547669e-01 4.703177976616925160e-01 -8.583394804505073417e-01
1.242073802655711129e-02 1.199938922226646831e-01 -7.098286095214306757e-01 3.333810376776674134e-01 5.157300776115114616e-01 -7.892271984440135668e-01
2.921392340855195544e-02 -2.498227853952982719e-02 -7.856291087982244514e-01 2.718413951901064163e-01 4.039863611615601147e-01 -8.734399096998821665e-01
3.859957861718700534e-02 8.175733735808782265e-02 -7.242832861054129268e-01 2.243608551687980845e-01 5.188347360371936556e-01 -8.249077059581522153e-01
-5.341434865869135185e-02 9.764662154671049921e-02 -7.343152152219003526e-01 1.295614211585383313e-01 5.144407858854518345e-01 -8.476818483163000018e-01
3.738929553548842044e-02 -1.877591774463066854e-01 -8.790989538746998289e-01 1.559578916543607197e-01 5.652827720796218536e-01 -8.100200760602820349e-01
2.713470015669406862e-02 1.000340582401271633e-01 -7.166289769649148989e-01 2.896803987000715619e-01 4.919787686946436867e-01 -8.210007050926753092e-01
-4.363554684187275629e-02 7.655084005637408096e-02 -7.460310748048222251e-01 1.151128336660243584e-01 5.279772913160185599e-01 -8.414208313204387668e-01
1.506666429853905850e-02 -1.886643371053266793e-01 -8.867748756595226212e-01 3.271460035649445541e-01 5.441119819822389791e-01 -7.726044546951856828e-01
-6.804008099228427142e-02 6.374897456933410755e-02 -7.580088145122504395e-01 1.700876734499385534e-01 5.046437072438926252e-01 -8.464070605090247001e-01
3.168389684937019529e-02 2.405094993459261365e-02 -7.614035273688155581e-01 2.483474558889514627e-01 4.435311510664120549e-01 -8.611641302255854669e-01
-5.469765419611551799e-02 -1.364471344461940239e-01 -8.636585313675894104e-01 1.692515210432134209e-01 5.783085963181721079e-01 -7.980683492339891716e-01
-5.827175614635192111e-03 4.025518397065939308e-02 -7.639207696613565801e-01 -2.320050570527899467e-02 4.599053435819343560e-01 -8.876648080665372476e-01
4.183737467318163206e-02 -1.549453675692521459e-01 -8.558386428967232895e-01 1.631084358106671683e-01 5.539147187662201155e-01 -8.164399074650485755e-01
5.945007928206818421e-02 -3.177708294053860349e-02 -7.798440859602864261e-01 2.437414235345600200e-01 3.993789210692346159e-01 -8.837910363083123499e-01
1.018705532096871036e-02 9.218042373860312055e-02 -7.280676742798994905e-01 3.457433475276873169e-01 4.958331424504283103e-01 -7.966247752160876550e-01
-4.700130510855855120e-02 6.836183201362387718e-02 -7.515530641871832618e-01 1.256149293664296507e-01 5.068902216748848444e-01 -8.528090012955145127e-01
-6.887150885905622688e-02 -2.963956012599596943e-02 -8.060015491309872049e-01 1.485653093358254295e-01 4.630768318881925971e-01 -8.737781163604094736e-01
-5.357928889930915761e-02 -1.528866410757603322e-01 -8.767976459423514335e-01 2.626817752772161452e-01 6.558390361810001457e-01 -7.077241295578291513e-01
-1.697342188510936800e-03 -2.100529139883998975e-01 -9.106591493996920583e-01 -1.491306747167840396e-01 8.053818223660931253e-01 -5.736899529020772492e-01
8.325123095416749053e-02 -7.023303057452708054e-02 -7.930665699969174920e-01 1.909704801958385101e-01 4.978903759140763663e-01 -8.459523918436016032e-01
5.522658215272030491e-02 -1.580249962915596940e-01 -8.558450603634608633e-01 1.122222207738182709e-01 5.574579989967459737e-01 -8.225854074314329356e-01
6.270715554764391686e-02 -2.808894583074481380e-02 -7.773153675211958991e-01 2.250859188855409421e-01 3.869285106673571173e-01 -8.942162248316638529e-01
4.777873194196330386e-02 1.953341537803156627e-02 -7.593882890662594365e-01 2.117894564310160155e-01 4.429585576913224743e-01 -8.711675741857466404e-01
3.075507336124510063e-02 7.433523658158755487e-02 -7.315042330963347217e-01 2.772199770018333176e-01 5.269832169479612416e-01 -8.033914197987683803e-01
4.556079769335878021e-02 -6.450956609119647134e-02 -7.993041823001983959e-01 2.579815034069569690e-01 4.452084666172516081e-01 -8.574584334836308219e-01
9.391503797520620034e-02 -8.480518772421079265e-02 -7.999265980376707441e-01 1.567194633042713614e-01 5.432668577601700299e-01 -8.248030862460520307e-01
-1.533636615445121802e-02 1.821774504590061364e-02 -7.751515319772478430e-01 2.794051958208108866e-02 4.411615609953319916e-01 -8.969926445995224373e-01
-4.733115317182732401e-02 -1.234351973345442499e-01 -8.534331697035887343e-01 1.310496902239951800e-01 5.305771663485331358e-01 -8.374448335512949537e-01
3.587216748546186162e-02 -1.936227839832830588e-01 -8.835351814278127325e-01 1.841994071781742903e-01 5.667911358127567523e-01 -8.030058447852633785e-01
-6.090406345728236435e-03 -9.870907774424617087e-02 -8.338482913755362880e-01 6.236197287623766738e-02 4.954016567975844110e-01 -8.664226351966990425e-01
2.537313161015401428e-02 -1.402147137363901341e-01 -8.502822743640764402e-01 2.485672461757089946e-01 5.376169999133357802e-01 -8.057184902512842806e-01
-4.472996376819984160e-02 -4.562661260203304536e-02 -8.106518300117917519e-01 1.201558112881624119e-01 4.598018759023094759e-01 -8.798549971048643670e-01
8.045378696409738462e-02 -1.318978721789554505e-02 -7.666436576004150849e-01 2.068401730322044774e-01 3.761208587560900263e-01 -9.031889295316840593e-01
5.894396416633500280e-02 -1.072126280101173557e-01 -8.204041277822495815e-01 1.314694516611157604e-01 5.443062057089653738e-01 -8.285206923828970504e-01
2.978431755595789196e-02 -1.032111183574328751e-03 -7.743762939267125889e-01 2.574142525472427612e-01 4.107688509845214275e-01 -8.746467021868888914e-01
-4.249988367382367960e-02 7.341768812669233202e-02 -7.477940935455552607e-01 1.251065214012198612e-01 5.186016619336585309e-01 -8.458136169053640518e-01
3.344159863654387610e-02 -9.411868714437252731e-03 -7.772116261809620674e-01 2.647019914306029675e-01 4.008656785347541884e-01 -8.770630328006900900e-01
5.208894937186524243e-02 -1.533037461093763043e-01 -8.529747560230543924e-01 1.237308223333478119e-01 5.606564425612028391e-01 -8.187521218411163426e-01
-4.079385313569896393e-02 8.809372743386126303e-02 -7.385441493888992293e-01 8.524242284112236445e-02 5.121614271563281751e-01 -8.546487008598142587e-01
1.689272556036959527e-02 3.642807926743196756e-02 -7.592272290703414583e-01 2.666095454831555189e-01 4.576281059143903485e-01 -8.482310221481368373e-01
3.458459773493176986e-02 -9.539261342874809368e-02 -8.192559189914635498e-01 2.657123434863675748e-01 4.833510748289471248e-01 -8.341275016331041181e-01
7.795491304571522395e-03 4.713825657037341854e-02 -7.563233089841805423e-01 2.919506405051664477e-01 4.659406028059294713e-01 -8.352629395378861066e-01
-1.490259205838155750e-02 -4.411904202425256244e-02 -8.061770230215329347e-01 7.833391137744276367e-02 4.488061305887279806e-01 -8.901892245327871489e-01
1.788898405567012836e-02 -9.996884957580938480e-02 -8.275161384439236878e-01 2.916273245632164945e-01 4.933786274563622398e-01 -8.194699711016728561e-01
2.709720491058805695e-04 -1.735079040920565752e-01 -8.813358027028732611e-01 -5.707776254194660975e-02 5.686387473399613368e-01 -8.206047185136366995e-01
-4.098789437298180904e-02 1.138828150121034971e-01 -7.230024939462412759e-01 6.144706546915201795e-02 5.182880572002545039e-01 -8.529957490567087186e-01
-1.114006120225227367e-02 1.907591684116836106e-01 -6.558703894893429531e-01 -6.229140458145635550e-01 6.737420520610131192e-01 -3.975546991440889188e-01
-4.273982089819219898e-02 -2.380888667845558818e-02 -7.988307381389299078e-01 1.134929685738211153e-01 4.708318109165409160e-01 -8.748924230517444167e-01
-3.671877251960321137e-02 -6.206897439622739709e-02 -8.181496243722222728e-01 1.152467351794157907e-01 4.611090188809699453e-01 -8.798276324014352445e-01
-6.720805455158192221e-02 -4.009043158130773388e-02 -8.110881101630162959e-01 1.354913606182337193e-01 4.564201678262320705e-01 -8.793876969797189691e-01
3.444050769724908007e-02 -1.680778415193694419e-01 -8.664330340494095228e-01 1.758862929394366392e-01 5.594060170135704002e-01 -8.100178517076248585e-01
7.341584485913041358e-02 4.478541765255242973e-02 -7.396343543532151177e-01 1.769465287348582772e-01 5.134161848711658038e-01 -8.396986049059633750e-01
2.714080215188518705e-03 1.259256618438342294e-02 -7.762556766968198296e-01 3.281589878913983016e-01 4.258179593287677589e-01 -8.432026708800068882e-01
7.451209269378602194e-03 -1.731856965271772741e-01 -8.795136124318269077e-01 3.731761280027935390e-01 5.351855204814002231e-01 -7.578364178078904612e-01
4.831169294396392422e-02 -4.545476833004669093e-02 -7.892480389493850002e-01 2.631825201424077831e-01 4.107273188149980769e-01 -8.729478968819011087e-01
-3.983819351444591039e-02 -3.782586108591453472e-02 -8.058871554510637081e-01 1.189247820350992635e-01 4.612337685343496085e-01 -8.792726010638031164e-01
6.469253346328897314e-02 3.671384373140245544e-02 -7.462101078788853092e-01 1.968565422874503090e-01 4.894994928668573997e-01 -8.494926416642576417e-01
-4.073550932560513621e-02 -9.090137435946138433e-02 -8.339401424410497476e-01 1.101410431806321977e-01 4.708758421962000451e-01 -8.752970306376581799e-01
1.404118701634303815e-02 3.079838532257318795e-02 -7.631221524339276696e-01 2.618538268079056985e-01 4.540835260631934656e-01 -8.516106650013680612e-01
4.208359776461744611e-02 -1.493899749552130007e-01 -8.520157429423825812e-01 1.629498842975355133e-01 5.566896805175499674e-01 -8.145820614356101830e-01
-5.038209202240920975e-02 1.288389840003687815e-02 -7.805756126041383247e-01 1.316176933965187701e-01 4.305644838160418986e-01 -8.929115342861271287e-01
-1.634038674825805809e-02 1.884029198704104680e-01 -6.568742220374520491e-01 -1.215470609443501659e-01 8.619570080058380768e-01 -4.921955183922483434e-01
-8.205650039525580475e-02 2.348532650758320545e-02 -7.809834252717025027e-01 1.729431906668792984e-01 4.114253562097170414e-01 -8.948853720279859036e-01
-7.395948836556461015e-02 5.178816528140008091e-02 -7.659444850945399397e-01 1.715549179200181462e-01 4.770967578550068255e-01 -8.619440781058228529e-01
-9.431814801387308767e-02 -3.606977103233847265e-02 -8.137429447130896110e-01 1.427556256690787340e-01 4.147216618671374366e-01 -8.986805742409199604e-01
6.941899234516840655e-02 -2.986666137107200393e-03 -7.648455319228549820e-01 2.056991321998987432e-01 3.868919727472046599e-01 -8.988895752182161081e-01
-5.521414750933351621e-03 -1.838329282040850055e-01 -8.882282040999314177e-01 -2.021225217198259483e-02 5.695496081701587610e-01 -8.217084085582639918e-01
-4.722001867237708012e-02 -1.557477445676895000e-01 -8.771101212470396868e-01 2.526096650508185548e-01 6.301255063783341992e-01 -7.342548626562589442e-01
6.190659058260726370e-03 -1.551211214234661240e-01 -8.674655508531906589e-01 3.373819907291645270e-01 5.337036155764830481e-01 -7.754571832488339478e-01
2.490811776780659653e-02 -5.715130123004921042e-02 -8.022515143795183601e-01 2.943443682689053098e-01 4.188528739813761614e-01 -8.590248324850222605e-01
3.843762133077598814e-02 6.419285444253916562e-02 -7.358013120223396708e-01 2.289038206452427004e-01 5.287080551791146776e-01 -8.173560015579068860e-01
2.768787608443898374e-02 -1.071162305890950009e-03 -7.750016215790378471e-01 2.515234414953998465e-01 4.164894831972154043e-01 -8.736546621889147435e-01
-5.760970892404352478e-02 4.238197843389836933e-02 -7.676091963998562528e-01 1.582352539101684052e-01 4.416331058092716200e-01 -8.831318159104230014e-01
-3.107811662599629238e-02 -1.754599487520231427e-01 -8.876386325662680710e-01 3.287075602266809615e-01 6.174777437981404660e-01 -7.146135849280930152e-01
-1.628882316330196962e-03 -5.087255066862487324e-02 -8.084158589226498881e-01 3.594641433103410583e-02 4.413642699006401493e-01 -8.966077383961263969e-01
6.720488096422136404e-02 -6.659610041876622144e-02 -7.946438179320637341e-01 2.067810373582860406e-01 4.639285410989688052e-01 -8.614011326570295557e-01
-4.376360199310593002e-02 -1.188543353748279241e-01 -8.500852451805387400e-01 1.231493387912259291e-01 5.082539850299306883e-01 -8.523568073620807484e-01
5.286523330919436388e-03 4.988846811246158697e-02 -7.556489122713628825e-01 3.088245339166999504e-01 4.701784542779462450e-01 -8.267766496363661011e-01
-5.129039963719108502e-02 -8.099726485131605478e-04 -7.876208497273319287e-01 1.326739750437054832e-01 4.522505104320371783e-01 -8.819677387297474302e-01
2.107273651030055605e-03 3.449801591002407686e-02 -7.651829249083628159e-01 3.049568692574698425e-01 4.451458251467472760e-01 -8.419302240964533501e-01
5.237274664791640583e-02 -3.275449855296699159e-02 -7.822376362871146238e-01 2.437414235345600200e-01 3.993789210692346159e-01 -8.837910363083123499e-01
-8.043253448786640003e-02 3.734609367570027733e-02 -7.742604636673715568e-01 1.728448672901912175e-01 4.160365597609255728e-01 -8.927699775382964553e-01
-8.124358999718370514e-03 -1.548800886862367332e-01 -8.686243328321779922e-01 4.568390203286762374e-02 5.521338380008015134e-01 -8.325029765890067379e-01
5.434301360194085384e-02 -5.192864412591638446e-02 -7.905889275444591968e-01 2.405245323096704690e-01 4.133550503089428729e-01 -8.782286443411566612e-01
5.125525368270462262e-02 -1.260945465990193082e-01 -8.343679973753327372e-01 1.608296639199669475e-01 5.501554583165236822e-01 -8.194283317581388948e-01
-2.280115717547506055e-02 -9.235676573535091249e-02 -8.324224093027215998e-01 1.163516517364820840e-01 4.745370434187139441e-01 -8.725118266027219738e-01
-9.214713912915288574e-02 -9.815775612587111787e-03 -7.998233211707234114e-01 1.770872543560149392e-01 4.600960258973089689e-01 -8.700297416170040821e-01
-1.255810412987935255e-02 1.336609909736594659e-01 -7.101128145539027381e-01 -4.725820008680201717e-02 5.524147262012670812e-01 -8.322287142369789725e-01
-3.749957447613391781e-02 -4.766546506099238883e-02 -8.107299052562650932e-01 1.201558112881624119e-01 4.598018759023094759e-01 -8.798549971048643670e-01
-3.909405130448648930e-02 -6.817162063801114613e-02 -8.216590939916266212e-01 1.152467351794157907e-01 4.611090188809699453e-01 -8.798276324014352445e-01
4.137410276855353619e-02 -3.660087168688156345e-04 -7.707709577044981053e-01 2.373555317827643618e-01 4.115929978925144672e-01 -8.799167890306297535e-01
-4.546181167511768179e-02 2.064617526286816745e-02 -7.762404121202328700e-01 9.723386189860523665e-02 4.298707129762093238e-01 -8.976395413670280599e-01
-4.772280518369206859e-02 -9.528708861561062393e-02 -8.371354046230389256e-01 1.039425710991804946e-01 4.703603428909708950e-01 -8.763316094657206401e-01
2.111470573397440653e-02 8.974995780764592757e-02 -7.251623986920935350e-01 3.067394783443375128e-01 5.119193147045454362e-01 -8.024023352766815886e-01
9.316215114525548679e-02 -7.240345519130657326e-03 -7.613266711998241121e-01 2.029179332029923677e-01 3.656664068662681122e-01 -9.083569734824185060e-01
-3.403364144983799661e-02 -1.269358693706023056e-01 -8.536058252584532990e-01 1.103631435992317028e-01 5.175816019939256662e-01 -8.484864535231525506e-01
6.418807675953219945e-03 -2.154890676724200704e-01 -9.160169457856824904e-01 4.127102164756250580e-01 7.198767087859155867e-01 -5.580750857762786232e-01
2.059833008387356237e-02 -1.284929069269791268e-03 -7.772350002057057949e-01 2.690628807359292662e-01 4.195417220313745199e-01 -8.669428526062327167e-01
5.276990276204408803e-02 -1.043373135366898637e-02 -7.722230212993514975e-01 2.368169469898374901e-01 3.944438925043467492e-01 -8.878804814187729599e-01
-8.842645999336680787e-03 1.027423448245255444e-01 -7.295863637879278496e-01 -1.325054757381613491e-01 4.931022644640437602e-01 -8.598211765709402599e-01
-2.312739564799962122e-02 -1.843923306837577103e-01 -8.915809721849115022e-01 2.926692882853226263e-01 5.856178564355579708e-01 -7.559076755255136337e-01
-5.734560056723075547e-03 7.347567803993983182e-02 -7.462955345122495032e-01 -1.218482412529954123e-01 4.729236909087579099e-01 -8.726374898437435634e-01
-1.209054949008635596e-02 8.739821617548654276e-02 -7.380950766350141690e-01 -3.221330859308298156e-02 4.959759686807113654e-01 -8.677385212382340285e-01
5.129345123204238216e-02 -3.141436115880198027e-02 -7.819296974030278680e-01 2.437414235345600200e-01 3.993789210692346159e-01 -8.837910363083123499e-01
2.183623424451364842e-02 -1.050831768095571023e-01 -8.291906033875876547e-01 2.916273245632164945e-01 4.933786274563622398e-01 -8.194699711016728561e-01
-8.840618002135129661e-02 -5.449298504845595005e-03 -7.967294133013574919e-01 1.788878406080355310e-01 4.642047462485162090e-01 -8.674751258929243036e-01
2.403923829038551521e-02 -1.265503757431682141e-01 -8.417262493066776097e-01 2.490180439571103022e-01 5.293028579143906898e-01 -8.110662725002397710e-01
7.487316977610686784e-03 -1.326308376385544885e-01 -8.517627563491648734e-01 3.312801326281720193e-01 5.110497306506016635e-01 -7.931466740318643405e-01
6.848181043897362541e-02 6.318052555327403896e-02 -7.290968864684334028e-01 1.771227834127449552e-01 5.400603782594964875e-01 -8.227771918510694560e-01
2.874141222288592677e-03 -2.070737506580975218e-01 -9.078625539834391800e-01 2.730579891093780267e-03 7.226072486396140082e-01 -6.912534326474953916e-01
3.439713834620505145e-02 -3.044967912927951451e-02 -7.865291303833386038e-01 2.719024155160449374e-01 4.007389974207133942e-01 -8.749156144353475995e-01
7.420763055186224699e-02 -1.460092575114063929e-01 -8.453974769526317878e-01 8.350199202140423660e-02 5.690727158104629257e-01 -8.180364670652291448e-01
-2.909855358284035159e-02 -1.830905186028307374e-01 -8.930095479087332144e-01 3.359150936556355993e-01 5.967710687035153727e-01 -7.287148560395826369e-01
-6.938075413958451863e-03 1.424984918563136083e-01 -7.032602429316575643e-01 3.763611603975988706e-01 5.352599306510210653e-01 -7.562070375126358490e-01
-1.450117490601626237e-02 1.395012110884330525e-01 -7.061571400732493675e-01 -1.584072879037305703e-02 5.507047329245847722e-01 -8.345497998596917988e-01
1.053250981541609468e-02 -1.138655647271019644e-01 -8.386479503905120980e-01 3.094448536900966662e-01 5.011150399283035295e-01 -8.081631019060259158e-01
-1.806077675223674572e-02 1.062987698630082078e-01 -7.269455846237521390e-01 -1.500765412807093108e-02 5.116346381214866845e-01 -8.590720385345270715e-01
-1.656715461152639957e-02 1.165878033540784092e-01 -7.207831804407591747e-01 -1.875072616950069354e-02 5.239587641079951341e-01 -8.515372122124429399e-01
-6.814945854786039897e-03 -1.396873519691499421e-01 -8.586168942452931940e-01 5.151301275157482013e-02 5.388702414205207569e-01 -8.408122694327467839e-01
2.085602842267432824e-02 -2.091756557896746471e-01 -9.004923255795459491e-01 1.785489620657548515e-01 7.324061024233038397e-01 -6.570400058431349333e-01
-3.225071654595802750e-02 -1.222835776116229234e-01 -8.505359944934084426e-01 1.103631435992317028e-01 5.175816019939256662e-01 -8.484864535231525506e-01
-8.709127607784146463e-02 -2.046478232250474941e-02 -8.045013976941648437e-01 1.715440560602843612e-01 4.655530251558625543e-01 -8.682355772476794131e-01
-3.876872705669584529e-02 -1.744504024353666890e-03 -7.866373311446925864e-01 9.975404480706701049e-02 4.621391557527722016e-01 -8.811790574365375717e-01
3.295042469428588645e-03 -2.009995365103485754e-01 -9.022941378538971158e-01 -2.587128757874110896e-01 6.312889807638957240e-01 -7.311237040801573661e-01
6.061565902072884454e-02 4.646896077327708485e-02 -7.414159567973555021e-01 1.956636398308718161e-01 5.162539298790200792e-01 -8.337851161615941198e-01
2.980898689389748987e-02 1.794613297736433535e-02 -7.650872039642053757e-01 2.480507264529375200e-01 4.432659328673633770e-01 -8.613861792862688160e-01
2.638484569913099320e-02 9.331229021997625162e-02 -7.209717463732866483e-01 2.709085732516208211e-01 5.039304704197643536e-01 -8.201601221232879269e-01
-1.055408819422064097e-02 -1.851465637402948117e-01 -8.893434589998284734e-01 4.419085157505233535e-02 5.581182211993743758e-01 -8.285838640731053584e-01
-9.144896510505154397e-02 3.347449691503977254e-02 -7.782815759677901291e-01 1.802888497540306445e-01 4.141945716225628460e-01 -8.921540155672507133e-01
-3.303588709497914250e-02 1.930661579963851432e-02 -7.756659762081953291e-01 7.063590230914582047e-02 4.360840677785722819e-01 -8.971294528297834026e-01
-4.505737956314536351e-03 -2.507083800398976145e-02 -7.959876477158401853e-01 6.636933442295904137e-03 4.347140333298734061e-01 -9.005440912806860210e-01
-5.020462505860527613e-02 9.890101238580746579e-02 -7.330949313435471959e-01 1.116877918378747780e-01 5.213830649018377228e-01 -8.459819955459723095e-01
1.145906979302617305e-02 -2.170381948064458444e-01 -9.160260283858077113e-01 1.308254669614201116e-01 8.818933200346895651e-01 -4.529336256809814443e-01
1.701825339972096174e-02 -1.950987485889364437e-01 -8.903567221131190035e-01 3.539260090221214017e-01 5.208847589314639093e-01 -7.767982029141057287e-01
-2.489361872765557052e-02 7.387120754073715767e-02 -7.460828516773614361e-01 4.684759842295666693e-02 5.093886465268804287e-01 -8.592604432368072809e-01
3.584693394501649311e-02 1.083675100483922626e-01 -7.084481537680296093e-01 2.737105031744586081e-01 5.287271443907617385e-01 -8.034489201165033734e-01
2.265414131886939533e-02 1.124295639089141069e-01 -7.105909080867544025e-01 2.911789091217105718e-01 5.011796350741815065e-01 -8.148827009267044508e-01
-7.282869681848008758e-02 -1.154829304983961275e-01 -8.524430257921080667e-01 1.392205852010461042e-01 5.411226559571519212e-01 -8.293394358561253510e-01
-8.904209830913946411e-02 2.413891519358193558e-02 -7.820817636365547942e-01 1.803320507273723228e-01 4.097681728975204885e-01 -8.941870027911882346e-01
2.671427439954566010e-02 8.171151913143753776e-02 -7.281053912630391922e-01 2.928751470492798048e-01 5.169138784011032550e-01 -8.043781390348648808e-01
-4.027985149071241361e-02 -1.615806509515882450e-01 -8.796832461897672317e-01 2.967570140845209314e-01 6.194898593207027737e-01 -7.267513940753436152e-01
-4.979966013186450796e-02 7.092973031908993142e-02 -7.503992877035513542e-01 1.251065214012198612e-01 5.186016619336585309e-01 -8.458136169053640518e-01
-2.694032715046839818e-02 -1.393576422141542537e-01 -8.603990973466759673e-01 1.139574531755550985e-01 5.369588535042780775e-01 -8.358761203127605954e-01
-3.172669890059342385e-02 6.628836777921169598e-02 -7.510689581128422443e-01 6.224399183370921823e-02 5.081217826144381888e-01 -8.590331422671251271e-01
2.396536033369310939e-02 -1.656903471364161440e-01 -8.677999925154342709e-01 2.635464661363583483e-01 5.384880537051921490e-01 -8.003585922596394564e-01
-7.087025268555825763e-02 -1.152912152533920598e-01 -8.519891739860082636e-01 1.392205852010461042e-01 5.411226559571519212e-01 -8.293394358561253510e-01
-8.003375169041600234e-02 -1.994792833095730428e-03 -7.932138971693074581e-01 1.712830580634687183e-01 4.661487562972212451e-01 -8.679674250932348789e-01
1.066127279441298099e-02 -5.742725463879129466e-02 -8.074534466460449034e-01 3.138402236890884267e-01 4.214941092535537392e-01 -8.507920015252471435e-01
-2.595483143933076386e-02 -5.266429645810628141e-02 -8.118302783827787694e-01 1.123916450043609128e-01 4.568401836733888000e-01 -8.824200613735379006e-01
2.636550278086129823e-02 5.866771043343312064e-02 -7.431550173535372839e-01 2.876759077885189253e-01 5.190652283051564453e-01 -8.048688469822692371e-01
7.206481708435685807e-03 -1.410111988412721118e-01 -8.574349979171574931e-01 3.305774141636338426e-01 5.246178103573867491e-01 -7.845347196273129153e-01
3.041960849563120697e-02 6.722373990255763043e-02 -7.362793919054555491e-01 2.619582022816166478e-01 5.331917990470086410e-01 -8.044155677797379944e-01
-1.297379289748657339e-03 -2.140619861577137267e-02 -7.942438271330888311e-01 -3.131761300324551606e-02 4.296852783412565824e-01 -9.024354651123679405e-01
-7.473816108028678851e-02 -8.756424262884238141e-02 -8.359853394841308960e-01 9.629669552690219014e-02 4.752375363084830884e-01 -8.745720270589736334e-01
6.480717956488181442e-02 -2.445553359786158815e-02 -7.752145818640520103e-01 2.250859188855409421e-01 3.869285106673571173e-01 -8.942162248316638529e-01
2.768713248802035648e-02 -1.470534516872060160e-01 -8.541062006853591404e-01 2.531422462652024863e-01 5.342153712836147372e-01 -8.065562226157068082e-01
-4.711598237269389727e-02 2.707791424617373224e-02 -7.733715233843225789e-01 1.013865163984341011e-01 4.258653093410599277e-01 -8.990881561851615800e-01
-1.579933211931552894e-02 2.129436306129076362e-01 -6.018342095575180961e-01 1.473957808664708991e-01 9.659713988021776387e-01 -2.125411500837600665e-01
7.434808081656317513e-02 -1.263364719537898584e-01 -8.313472529583191273e-01 7.992031845550738589e-02 5.821994893057561571e-01 -8.091084583355233617e-01
-1.241668762201986013e-02 1.571193937630072091e-01 -6.943408912232941210e-01 9.535975419882903106e-03 5.572560631159645395e-01 -8.302859418858586915e-01
-4.571546990384459108e-02 -1.459275954812878917e-01 -8.686553564492333068e-01 2.096198011899030045e-01 6.000312413408096512e-01 -7.720246423295779037e-01
7.744780326606340651e-03 -1.054518874511215509e-01 -8.347038454430607546e-01 3.336854622523535707e-01 4.810765690221062152e-01 -8.106906604984122078e-01
-2.333598505483305829e-02 -1.532522232730125500e-01 -8.690490019242956832e-01 1.299881833407239839e-01 5.583709065311300845e-01 -8.193442517839386596e-01
-2.878059639298172646e-03 -9.960713314411518901e-03 -7.887376613570548090e-01 -2.189973307474381986e-02 4.315441152736575470e-01 -9.018259689451904038e-01
-7.763334268744175037e-02 -5.839186179951467298e-02 -8.217029824773789404e-01 1.207232257704167477e-01 4.278605562853570743e-01 -8.957461957132554220e-01
-6.681348293567408725e-02 2.165861687137261848e-02 -7.789755227125014780e-01 1.564351525880377514e-01 4.149835669384691617e-01 -8.962793550036631807e-01
-3.484674867125645698e-02 2.736943928780687443e-02 -7.719215585389631595e-01 7.566003006977592427e-02 4.317440895048831884e-01 -8.988173346278097720e-01
-1.015350627423743622e-02 1.649536982338838942e-01 -6.889520538666409344e-01 -7.827480881952529890e-01 4.264733167342419362e-01 -4.532393854690605073e-01
-7.545285075193494673e-02 -2.893899937862636634e-02 -8.067637151817720342e-01 1.563664005429440118e-01 4.628297036236561079e-01 -8.725469696382438523e-01
5.015866202006362407e-02 4.234625047186520858e-02 -7.463814098152499188e-01 2.155132885805952914e-01 4.895194850134818587e-01 -8.449406465766177154e-01
-5.166601933486936193e-02 -6.347479299719467616e-02 -8.208906347814328708e-01 1.193106902782791606e-01 4.590709093379152783e-01 -8.803515544286726335e-01
-1.214307234321415803e-02 1.918490007017590315e-01 -6.527007221288746441e-01 -3.461981473981607937e-01 8.183554400012644781e-01 -4.587387236308027028e-01
-7.531365807748720276e-02 5.727218381214370900e-03 -7.882654114623067754e-01 1.714475354214687886e-01 4.508698493989497513e-01 -8.759692468921912445e-01
-9.200136804610963004e-02 3.811620334357767453e-02 -7.762382320124723289e-01 1.802888497540306445e-01 4.141945716225628460e-01 -8.921540155672507133e-01
-9.380694535912614818e-02 -2.615701320739176328e-02 -8.086916351785355950e-01 1.722202035295465339e-01 4.436511787745802127e-01 -8.794963519356787662e-01
7.260695888663517943e-03 -1.133602934710175869e-01 -8.396759950989080012e-01 3.329817715974439651e-01 4.967045068361278237e-01 -8.015034452031423173e-01
-1.003336189385510210e-02 6.744740724738490512e-02 -7.494248677224386590e-01 -1.246073816342267368e-02 4.834071432634314269e-01 -8.753069540717193231e-01
8.032743600621276847e-02 1.725441842444443846e-02 -7.531329767670024156e-01 1.863298706091286172e-01 4.345831731744053683e-01 -8.811462108597246656e-01
-2.816284158288298589e-02 4.581761400515679122e-02 -7.621600473071994397e-01 8.215331472702207261e-02 4.565332776692254679e-01 -8.859052992616970323e-01
5.013034743108982227e-02 -4.668565106635804568e-02 -7.892788759500432016e-01 2.631825201424077831e-01 4.107273188149980769e-01 -8.729478968819011087e-01
2.918368302214904147e-02 7.295934343649701503e-02 -7.329467423799028714e-01 2.774874987828541695e-01 5.223741797275324172e-01 -8.063038536266731171e-01
7.825133666905786933e-02 3.773660110863129996e-02 -7.427217698261254775e-01 1.780610878820810261e-01 4.872053566560428650e-01 -8.549416292519086413e-01
7.855420923552368373e-02 -6.310489379565092753e-03 -7.642122456134149422e-01 2.068339693988135164e-01 3.766372270486924023e-01 -9.029751426832317573e-01
-3.267633919663118225e-02 7.133997685325089988e-02 -7.481008192977020022e-01 6.181175022178403422e-02 5.187712292185786556e-01 -8.526756237101921210e-01
-4.667834775568248384e-02 1.145383141523986792e-01 -7.229955367217505424e-01 7.135351863961435226e-02 5.356200828567440064e-01 -8.414391256759344850e-01
3.623321116475482911e-02 -5.316785798349452780e-02 -7.965991731279788990e-01 2.802962793267664288e-01 4.204057936352171287e-01 -8.629559458474777012e-01
-8.476438102445308948e-04 5.058734977861706165e-03 -7.814699688128545763e-01 3.054581684867313518e-01 4.220179888832749637e-01 -8.535784230893184166e-01
5.239682212168016856e-02 -1.221304626881211386e-01 -8.314824973534891139e-01 1.608296639199669475e-01 5.501554583165236822e-01 -8.194283317581388948e-01
5.750695473406535439e-03 9.748526168467187836e-02 -7.267795257497041694e-01 3.618342893158035256e-01 4.888557509471168072e-01 -7.937858664912460505e-01
-1.602669528579550584e-02 -4.473115891524201415e-02 -8.065845512255490624e-01 7.833391137744276367e-02 4.488061305887279806e-01 -8.901892245327871489e-01
-5.025021227423501907e-02 -4.747719758112255162e-02 -8.123673749525847088e-01 1.292817555644497352e-01 4.511364992795161566e-01 -8.830413844752674768e-01
-2.031500341757828260e-02 -1.321628869214370727e-01 -8.550536818789497007e-01 9.319467229609915138e-02 5.167055443254580105e-01 -8.510758682508599016e-01
6.822005695297204964e-02 -1.364232387226239629e-01 -8.392293937652206548e-01 9.340546735257654332e-02 5.775170888073525299e-01 -8.110175280498734818e-01
7.509288670042273128e-02 3.387436932204206108e-02 -7.455911159818886524e-01 1.836483887348079047e-01 4.882419065029282024e-01 -8.531665195315009109e-01
-2.225134026439715834e-02 8.466530480754386190e-02 -7.396133241080805609e-01 4.379399007641090850e-03 5.132124062039979950e-01 -8.582504570244252617e-01
-1.245558099674522537e-02 -1.328008803800204973e-01 -8.546764945523199763e-01 7.379102397414140369e-02 5.154639786222128262e-01 -8.537281602031216998e-01
3.020890377797665755e-02 -1.823187001353110126e-01 -8.771173419568232266e-01 2.183204884645059685e-01 5.447046242254699466e-01 -8.097116997203445132e-01
3.585046062811871742e-03 -1.677216929016460967e-01 -8.777935773739130587e-01 -1.121165695576245430e-01 5.664898792565276064e-01 -8.164062049804344801e-01
3.827224432602878597e-03 -1.937637732854241013e-01 -8.966177081077162381e-01 -3.263089442768171144e-01 5.824678548184218929e-01 -7.444821495430059555e-01
5.954368682305782867e-02 6.328518053387405251e-02 -7.310146186619765896e-01 1.858991917862168053e-01 5.389573175961105411e-01 -8.215634487383409734e-01
2.485224581396685076e-02 -2.131190641263833868e-02 -7.853099825589343608e-01 2.830394711154357590e-01 4.029790570846699671e-01 -8.703427700290528035e-01
-5.270208312208236878e-02 1.115745773410966799e-02 -7.817489562985341367e-01 1.308134001776305455e-01 4.299099184310514188e-01 -8.933450153040390918e-01
2.984020177110931205e-02 -1.100104918999582349e-01 -8.294833169124425920e-01 2.579962869292530270e-01 5.043227708765087858e-01 -8.240730906334455819e-01
-8.074662308765340191e-02 -2.388429961125253589e-02 -8.050693037447667066e-01 1.662118171456826998e-01 4.539740042841383105e-01 -8.753749112667986720e-01
1.142919377341672024e-02 -1.608762929494050309e-01 -8.691655811527264630e-01 3.185822950830176081e-01 5.424787039261355082e-01 -7.773172949614960414e-01
3.582063636211810231e-02 2.048630203270771985e-02 -7.620714898372149548e-01 2.328006167825031891e-01 4.436991990857547807e-01 -8.654102458119766750e-01
-5.106740314897628696e-02 -9.850365128174895513e-02 -8.393186761536216567e-01 1.033467982666993051e-01 4.868225389557395144e-01 -8.673656984529130032e-01
8.285265152316513559e-02 -2.882363221110661317e-02 -7.724892360213233555e-01 2.243245541389478070e-01 3.799512385518343249e-01 -8.973937545655694681e-01
-1.839823740749230510e-02 1.765131790037914039e-01 -6.748753986525333204e-01 -7.498377686229301675e-02 7.732680456532289304e-01 -6.296300205510392267e-01
2.823092634212387778e-02 9.450943654171929664e-02 -7.196264022722818066e-01 2.709085732516208211e-01 5.039304704197643536e-01 -8.201601221232879269e-01
5.499780419669350606e-02 -6.109337019711136296e-02 -7.949775433139778524e-01 2.295957291046535065e-01 4.308019264533684556e-01 -8.727516836655022647e-01
-4.691212381385429647e-02 -2.861758758495518487e-02 -8.019598273018029300e-01 1.134929685738211153e-01 4.708318109165409160e-01 -8.748924230517444167e-01
7.843997656584864031e-02 -2.000512168544930566e-02 -7.698898323083175343e-01 2.174914846317060058e-01 3.734868582821003202e-01 -9.017788092449626758e-01
-8.754562207758002923e-02 -5.164778024878925733e-02 -8.199460467888818327e-01 1.425464284903285583e-01 4.233558072545571815e-01 -8.946789235186518585e-01
8.143951770980199789e-02 -1.200151219187453183e-01 -8.260728587164989367e-01 9.087953653404715060e-02 5.855818511732870935e-01 -8.055028276895266348e-01
-6.012589619827668486e-02 9.439087673070133133e-02 -7.373658860918569369e-01 1.283871921336414423e-01 5.389744318365657927e-01 -8.324802044027778125e-01
7.005637448650009480e-02 -8.764354818725063334e-02 -8.059838920909473403e-01 1.655051198728341721e-01 5.080105880534179219e-01 -8.453007143741801954e-01
2.896122055090033162e-02 3.055702309051775561e-02 -7.587289773470731191e-01 2.477550409282034405e-01 4.617493285533841862e-01 -8.517071076814866082e-01
8.511582605778278410e-03 -1.008789369701310196e-01 -8.316772735810957773e-01 3.368644943920870438e-01 4.796158398438949977e-01 -8.102412965214739193e-01
5.311546153538091418e-03 1.497580776735238199e-02 -7.741470255988844862e-01 2.976623965588699461e-01 4.288797952625328924e-01 -8.529121988167351898e-01
-7.929508166381044401e-03 1.519284645760017594e-01 -6.970556181989726596e-01 3.761001198816067981e-01 5.390830700423742128e-01 -7.536167085586211734e-01
-3.589836547016702489e-02 1.094864736968601954e-01 -7.253829060820914387e-01 6.538757053020147203e-02 5.073965870722517701e-01 -8.592282403689889270e-01
-4.144139531482120276e-02 1.181845269583450680e-01 -7.203505780864084551e-01 3.582555404347222139e-02 5.391976673417679944e-01 -8.414169033307296042e-01
-4.759938492519943248e-02 -3.069626202328757172e-02 -8.031676390578265101e-01 1.134929685738211153e-01 4.708318109165409160e-01 -8.748924230517444167e-01
-2.919362531239674818e-02 -1.429219210323265654e-01 -8.630392553432428837e-01 1.217409048819144274e-01 5.418657842190206519e-01 -8.316012409630221258e-01
-3.618182289333058549e-02 2.676138501558726970e-02 -7.723260184663711669e-01 7.566003006977592427e-02 4.317440895048831884e-01 -8.988173346278097720e-01
2.611798489051040534e-02 1.196821776256322689e-01 -7.046189602502538341e-01 3.211898129284015968e-01 5.278521679618949358e-01 -7.862628013895521795e-01
-6.010168493096528647e-02 5.791999559942770034e-03 -7.855434118155387724e-01 1.301390331070045592e-01 4.547843497930322831e-01 -8.810420121908507651e-01
-2.906868994885256074e-02 1.323685255608753886e-01 -7.108785630680571899e-01 1.563732391242125125e-02 5.412915941793571273e-01 -8.406895290008244981e-01
2.252606352274125895e-02 -7.120196913338955325e-02 -8.101351139841018734e-01 2.988167250839284250e-01 4.322000868579799482e-01 -8.508299769813417734e-01
-2.752702211690262208e-03 1.626828045419070889e-01 -6.869580189258158720e-01 2.638687129050174551e-01 7.529139008136693789e-01 -6.029046029940339224e-01
8.312528462070863100e-02 -8.112793392817463367e-02 -7.995241335741113398e-01 1.668430273417213228e-01 5.241163218257728351e-01 -8.351439908322830785e-01
1.183828187801700370e-02 -5.455823781310596698e-02 -8.055979208740254860e-01 3.138402236890884267e-01 4.214941092535537392e-01 -8.507920015252471435e-01
4.801281683168024533e-02 2.544956310357057369e-02 -7.563071875890762241e-01 2.111484405223251204e-01 4.634677870021415291e-01 -8.605893018602589484e-01
1.258786129180305621e-02 -1.401399025713455371e-01 -8.546730556933601619e-01 3.034121070582729285e-01 5.268183436293434330e-01 -7.939795501812966227e-01
-2.859318937783915729e-02 -3.425113194248320669e-02 -8.026309341405905018e-01 1.052030030402818228e-01 4.559246790876088085e-01 -8.837788270546922398e-01
-8.900999347299236308e-02 6.203046474880928238e-03 -7.907342030848505399e-01 1.793234957443558542e-01 4.499260414219687365e-01 -8.748769291302525009e-01
-3.236585535125327540e-02 -1.334547588699592016e-02 -7.921125725758274561e-01 8.340728760131158048e-02 4.674887104285714856e-01 -8.800554130262613350e-01
-4.765958599942087676e-02 -1.257720607138519513e-03 -7.873888331693831288e-01 9.995706292236494761e-02 4.550836156574364910e-01 -8.848205966929619803e-01
-5.511180041822675429e-02 9.935920583536804462e-02 -7.335353248109498514e-01 1.295614211585383313e-01 5.144407858854518345e-01 -8.476818483163000018e-01
-1.673060802546366341e-02 2.131446253863325813e-01 -6.029253712584596858e-01 -7.017423011863919147e-01 6.582109401976761198e-01 -2.726097961000640280e-01
-3.133630669899801352e-02 9.317836525417563798e-02 -7.348416387665215321e-01 6.257351295878214870e-02 5.076601591038463201e-01 -8.592820947364460116e-01
9.733921027418507982e-03 1.133738612190986622e-01 -7.151354058366489186e-01 3.452479352907511512e-01 5.036342327127431018e-01 -7.919320821998057092e-01
-5.657023609683583393e-02 -1.357602838755761487e-01 -8.635600453455621883e-01 2.090306626103532739e-01 6.080461519287987393e-01 -7.658890645604342629e-01
-1.917016028701572228e-02 1.957092924075936047e-01 -6.448155449566141950e-01 1.344705625158134354e-01 8.481937832305830316e-01 -5.123328741215728011e-01
-5.861446968598404972e-02 -8.835827367594409343e-02 -8.346742949768434228e-01 9.647226740600800543e-02 4.722439368559956385e-01 -8.761727944442776472e-01
1.569684824130469173e-03 -2.089017351886869253e-02 -7.931565845064590947e-01 3.462148484682762151e-01 4.101670293176730153e-01 -8.437406513620188120e-01
-2.021364540537430587e-02 1.222070007344026599e-01 -7.172556418243191123e-01 -2.830974581564737764e-03 5.224892598050158155e-01 -8.526411665943214313e-01
4.934257317734828951e-02 -1.760582160745652325e-01 -8.689153579950565920e-01 1.442923762225277184e-01 5.488484736358730798e-01 -8.233741938824832296e-01
-1.761373789766517697e-03 -5.701199853806643986e-02 -8.114458175947280028e-01 4.504472992354743160e-02 4.430120747620335253e-01 -8.953833111696649638e-01
-3.931325311842486653e-02 -1.493298712233461500e-01 -8.696855677989053790e-01 1.908172714484549781e-01 5.962723704021273274e-01 -7.797743450588736636e-01
2.249892049417664616e-02 2.161414363352024900e-02 -7.653237292409090786e-01 2.611967121578530615e-01 4.427569957175677695e-01 -8.577543472936070001e-01
-9.309152639676391075e-03 4.919909964739696551e-02 -7.592959186403188676e-01 1.429715168890022779e-02 4.609601631916513398e-01 -8.873056516240110936e-01
1.898761050451506366e-02 -2.288489847429872950e-02 -7.879455029689047540e-01 2.830394711154357590e-01 4.029790570846699671e-01 -8.703427700290528035e-01
6.548893399936567272e-02 4.584637002135972389e-02 -7.407148165692538644e-01 1.833223544616537914e-01 5.139772853503508099e-01 -8.379858378866076318e-01
-1.064288059417835275e-02 -1.510034964961782557e-02 -7.913731556061999184e-01 4.653288211228471388e-02 4.400525180206119047e-01 -8.967655614852988455e-01
4.066747575563510464e-02 -1.152091321618734787e-01 -8.295839946504774964e-01 2.203794948393895947e-01 5.313128655124792488e-01 -8.180094847831862470e-01
-1.853225933571048950e-02 -3.026154282411945562e-02 -7.995068430251940361e-01 7.852218746015796058e-02 4.493953868036135169e-01 -8.898753015991074378e-01
-8.787050173970600841e-02 -3.319614706289502476e-02 -8.111947954354190582e-01 1.613236536359574647e-01 4.312470159908409761e-01 -8.876940294811839216e-01
6.686671459837864595e-02 -9.524640650595390945e-02 -8.113314992817919347e-01 1.643891686448167855e-01 5.309247435969244311e-01 -8.313213084414510234e-01
-2.863712819582688029e-02 -4.799690033358202518e-02 -8.097555450011486577e-01 1.123916450043609128e-01 4.568401836733888000e-01 -8.824200613735379006e-01
2.391024054185821382e-02 -1.118739412511709219e-01 -8.325350512683875603e-01 2.865617481256867438e-01 4.914067324853007013e-01 -8.224364946786291153e-01
1.786737860760650304e-02 -3.236761577878822377e-02 -7.927675531469955406e-01 2.829020909344972523e-01 4.097234427035990056e-01 -8.672330179623007895e-01
-1.689421571826444507e-02 -1.476615134944220253e-01 -8.645432972855369158e-01 8.743161331086284072e-02 5.507228134073423043e-01 -8.300964376423751734e-01
-2.701586715897604657e-02 -1.307228749272913160e-01 -8.549787922146474539e-01 1.150034449306384099e-01 5.155945267364301365e-01 -8.490797910994717368e-01
3.932017877668222278e-03 -6.685740727855749022e-02 -8.149636437378355858e-01 3.702892643023349972e-01 4.264942440914231692e-01 -8.252202860444726173e-01
-3.053447650400615762e-02 4.573132765346255707e-02 -7.624244438078693342e-01 8.215331472702207261e-02 4.565332776692254679e-01 -8.859052992616970323e-01
4.486517055507141527e-02 4.305434685567659236e-02 -7.473213465785816245e-01 2.155132885805952914e-01 4.895194850134818587e-01 -8.449406465766177154e-01
5.447249302424804485e-02 -3.697208921221733363e-02 -7.835629529955477901e-01 2.461229999626130538e-01 3.969714956163256647e-01 -8.842155283399750765e-01
-4.057978083377177664e-02 1.228263276884525995e-01 -7.173542560342909269e-01 4.320398493233459924e-02 5.320565406893809079e-01 -8.456058497879587188e-01
-7.580400437948722758e-02 7.606152150231970666e-02 -7.520197456510039347e-01 1.699279858602076587e-01 5.236889626277493326e-01 -8.347900035597963786e-01
2.995209456343772211e-03 -1.291153875829745556e-01 -8.516114102275154085e-01 3.686162437867572805e-01 5.044128673429146836e-01 -7.808263085190210173e-01
-3.859707944712018057e-02 1.195410097439366520e-01 -7.193602110729616639e-01 3.582555404347222139e-02 5.391976673417679944e-01 -8.414169033307296042e-01
1.600814588474798114e-02 1.199417836345112315e-01 -7.084046355254176586e-01 3.214325381339188659e-01 5.159013728990688996e-01 -7.940572377792691761e-01
2.439115668192563813e-02 -1.465516632898522000e-02 -7.823593248071353257e-01 2.758286127986590008e-01 4.120819486488069283e-01 -8.683933693663083986e-01
3.789518211543555642e-02 5.445178231238410882e-02 -7.422303129385384723e-01 2.497393883093840528e-01 5.136478432789362003e-01 -8.208508579649240744e-01
5.932020132681470326e-02 -7.656844399686400793e-02 -8.019247335789261300e-01 2.146572928555799398e-01 4.626956914235936802e-01 -8.601365843643419273e-01
-7.770546877945967712e-02 6.214885968755752554e-02 -7.609304841892648996e-01 1.773748939238534161e-01 5.040560464521671724e-01 -8.452606988619029149e-01
-3.501010945310477351e-02 1.215375721102956302e-01 -7.179207728111856035e-01 6.144706546915201795e-02 5.182880572002545039e-01 -8.529957490567087186e-01
9.605084659143763720e-03 4.389954743265146730e-02 -7.574974711582674880e-01 2.919506405051664477e-01 4.659406028059294713e-01 -8.352629395378861066e-01
1.517091050666392882e-02 1.351214126913756475e-01 -6.988057780085926707e-01 3.201664757451554988e-01 5.201868490254351052e-01 -7.917695813239582492e-01
1.025116646501641245e-04 1.492979003100080027e-01 -6.956124130779813841e-01 2.812616963701353168e-01 5.090352589787282556e-01 -8.134955213591855694e-01
-3.480380450168651246e-02 -1.288626236299370287e-01 -8.548869054192305139e-01 1.226686531211882009e-01 5.191573210494291324e-01 -8.458298159453909726e-01
6.860385954616253501e-02 -2.028860383437452314e-02 -7.724558719891481129e-01 2.250859188855409421e-01 3.869285106673571173e-01 -8.942162248316638529e-01
-5.541883115011930760e-02 -1.487994709134959070e-01 -8.737659235375108135e-01 2.171505790981459183e-01 6.223510044906500616e-01 -7.520138650362896415e-01
1.110122507302670723e-02 -2.120760743968925777e-01 -9.082916902177100571e-01 4.018609099602329926e-01 7.043535576339990945e-01 -5.851443197146002362e-01
-7.606504313260968597e-02 -5.545882586975055956e-02 -8.201026683830524577e-01 1.208730007146702617e-01 4.221393714874389635e-01 -8.984364578190386919e-01
6.924446922371757518e-02 -3.714247426834006022e-02 -7.796399308670245443e-01 2.329192439733819564e-01 3.973558090525264874e-01 -8.876130839499157821e-01
-3.154146307557122164e-02 -3.606731496410624238e-02 -8.039188241343768748e-01 1.052030030402818228e-01 4.559246790876088085e-01 -8.837788270546922398e-01
-2.623323500846171108e-02 1.152825891026664808e-02 -7.789558118363540951e-01 4.681333889826314737e-02 4.392458665374502358e-01 -8.971463537411055178e-01
6.412137464419379040e-02 7.358366351461942401e-02 -7.232312237825896384e-01 1.820162740631340315e-01 5.412130985331754518e-01 -8.209497292479568387e-01
