-1.778115520779144365e-02 1.104448797396271331e-01 -7.500973829145918259e-01 1.973358398373369349e-01 4.833883086677228103e-01 -8.528741462601920897e-01
-1.675639694435412594e-02 1.042832043146078858e-01 -7.533159123831161263e-01 1.977640463984396413e-01 4.753064578428414788e-01 -8.573057523923464096e-01
-1.457672887926557718e-03 -1.005152929389826859e-03 -8.027846752576144329e-01 1.527090698494943388e-01 4.077497968708835852e-01 -9.002333270533009468e-01
1.753069092276112254e-02 -1.591130164140339420e-01 -8.742981487633880722e-01 4.878931448957262718e-01 4.820263878280995895e-01 -7.277436640748943253e-01
4.613513586166172881e-02 -1.173087389936749159e-01 -8.314274413706049804e-01 3.750072612496685442e-01 4.833509421980859977e-01 -7.910381916736041186e-01
1.609647176967924503e-02 1.180680397678460052e-02 -7.864906211096538424e-01 4.604978346470908201e-01 3.766215326210025638e-01 -8.038021929875210914e-01
-3.569692095257414981e-03 1.711560809211300216e-01 -7.016844235711066080e-01 5.363687294478630685e-01 6.249419233166066956e-01 -5.672355582576130706e-01
2.945963425815108228e-02 -7.677513730920020041e-02 -8.183699991692449105e-01 4.754919517375937321e-01 3.799614701464885114e-01 -7.934334786463785871e-01
-3.536800406806349384e-02 6.101951376841531494e-02 -7.833008476471946535e-01 3.092527820491006163e-01 4.479994422520781061e-01 -8.388439762773041153e-01
-4.329029264642547670e-02 -1.310011810850167380e-01 -8.833630391535286508e-01 3.613940401072582853e-01 5.328717770514317387e-01 -7.651418280273289962e-01
-2.593618319442966488e-02 -7.612794487624224837e-02 -8.464692852699221559e-01 3.248804432895310290e-01 4.250979032639599642e-01 -8.448339897332391990e-01
-3.598543856250131789e-02 -8.842971189818939204e-02 -8.565506079163693887e-01 3.186743993933301988e-01 4.305437917699745376e-01 -8.444398560819078581e-01
1.333138802264006301e-03 1.431735771135412560e-01 -7.206209008188252385e-01 5.187599555662177897e-01 4.684609634127064881e-01 -7.151450442108752137e-01
2.755226436630240500e-02 3.322002620116351612e-02 -7.693968548952803133e-01 4.517792826665242845e-01 4.051548997726892587e-01 -7.948238716492497247e-01
-5.447191661811605357e-02 -7.632480636911320726e-02 -8.572921882238757618e-01 3.139697673815345369e-01 4.179150963030284771e-01 -8.525080395236256381e-01
6.771144596122729079e-03 1.193957008921053831e-01 -7.319216059649579220e-01 5.359527755922812720e-01 4.436535949952662428e-01 -7.182799662963642584e-01
2.165148433926798732e-02 -1.077610168080843783e-01 -8.396487966317494056e-01 4.877287454648765452e-01 4.376237247727081114e-01 -7.553847670977478224e-01
-5.537777294485197316e-03 -6.342891066833797331e-02 -8.325283214967799106e-01 2.890911866708788525e-01 4.165982146881990200e-01 -8.619003499870669938e-01
5.293911033984081277e-02 2.522338698501842835e-02 -7.600016257022402799e-01 3.995011474019490860e-01 4.156176173883615044e-01 -8.171051519486020043e-01
4.318894974817275717e-03 -5.189902062750958436e-04 -7.993107514553081661e-01 4.944635478787232641e-01 3.642114710058512728e-01 -7.892121414467341278e-01
1.974641575935908930e-02 1.219359952152656301e-01 -7.211289758597130284e-01 5.007169888639401156e-01 4.582055011964948354e-01 -7.343910509641971007e-01
5.067154533776725700e-02 2.801489986436717788e-03 -7.718437000086095789e-01 4.210258327759421326e-01 3.684936793501382701e-01 -8.288242614778613682e-01
1.285859553589897147e-02 7.177010170813395706e-02 -7.563223556125017177e-01 5.204308388982626932e-01 4.513639853870771712e-01 -7.248601897049836706e-01
-1.789007515489562938e-03 -1.514368154367397579e-01 -8.800801454736157936e-01 2.214485143254725785e-01 5.258327636313083753e-01 -8.212554171479794496e-01
6.680669572566301506e-02 4.662955529335523902e-02 -7.413042968176667413e-01 3.814550334081305283e-01 4.677293867334509359e-01 -7.973213143228721211e-01
1.951598380426590451e-02 2.671365360480743023e-02 -7.773231749553400904e-01 4.608176243572698061e-01 4.003087159703536124e-01 -7.920858848634337868e-01
9.199329258307407942e-02 -5.087385073077269060e-02 -7.727896341967137595e-01 4.219553691179458998e-01 3.483303307220937395e-01 -8.370302546333525662e-01
-7.171898027144314736e-02 -4.059607406438782429e-02 -8.469187864859636372e-01 3.471737320571098295e-01 3.956422876557108004e-01 -8.502573610314079211e-01
-6.540158762881997934e-02 -8.240410867193825525e-03 -8.283059255152488420e-01 3.626016951587636705e-01 4.279530500182215924e-01 -8.278745059778642723e-01
-3.750067925696551341e-02 7.451054562046181828e-02 -7.764695467460792644e-01 2.984308542355966765e-01 4.871831282626178927e-01 -8.207262788387258423e-01
2.669138061803933565e-02 -1.022659026807066079e-01 -8.333665765978888196e-01 4.641768848719527440e-01 4.296209286292203000e-01 -7.745745136746602366e-01
5.826898019691259534e-03 9.086563035618066414e-03 -7.939165695130846467e-01 4.943163270694611588e-01 3.719971722595214469e-01 -7.856649875255213855e-01
-3.064223004368971104e-02 6.740783233068355085e-02 -7.780865749324273883e-01 2.724727496190860743e-01 4.726258740559016736e-01 -8.380831604846322724e-01
7.295441248624538744e-02 2.220265284030866274e-02 -7.519025823309608558e-01 3.899623239179665357e-01 4.144181839739946582e-01 -8.223058766153841237e-01
-3.320298957797012535e-02 1.085119693881466535e-01 -7.553000479055588245e-01 2.447578332828238001e-01 4.827163881062262463e-01 -8.408795940563529303e-01
-8.325839170374853271e-02 -2.810487230498694838e-02 -8.459761217723081872e-01 3.671245476043554223e-01 3.859035985017481019e-01 -8.463438894502038901e-01
6.531433848624478011e-02 -5.347838863545472526e-02 -7.876513651460871346e-01 4.334523648502826565e-01 3.749415047092522491e-01 -8.194741700944936369e-01
-7.012570736939423288e-02 1.802750539699591106e-02 -8.172826271058647452e-01 3.772803832108498900e-01 3.770497244902975553e-01 -8.458682035081264150e-01
-3.928143723821043987e-02 3.192157385903657274e-02 -7.987345688950708844e-01 3.101693141005834042e-01 3.858277252543549918e-01 -8.688682080818838083e-01
2.917019948937934690e-02 1.068035773545702033e-01 -7.243012799935918400e-01 4.765850367912810581e-01 4.585691495244871851e-01 -7.500540232616861314e-01
1.138304022745138810e-02 1.294279477022648450e-01 -7.222423339806215425e-01 5.173497902469111898e-01 4.588669237480375585e-01 -7.223505664298256468e-01
-9.977513946666108705e-04 1.701091608908370523e-01 -7.005337587514168796e-01 5.073542390487647546e-01 6.496791990709800402e-01 -5.661348023339837221e-01
5.898427806208795393e-02 3.717951114566207110e-02 -7.506247399743748439e-01 4.003879104654773369e-01 4.417319436172523206e-01 -8.028464430644340899e-01
-8.419947895960353326e-03 1.443298170932083568e-01 -7.276823888596959389e-01 7.151609598764190334e-01 4.202190252692358796e-01 -5.585344861961635266e-01
-2.544975363761928927e-02 1.497413916357727692e-01 -7.285230185901890865e-01 2.306962741382978799e-01 5.063536051866136534e-01 -8.308942505597365358e-01
-1.176100735158665950e-02 -1.820758260842243459e-01 -9.032701763798360872e-01 3.424358388003831410e-01 5.298383403861026686e-01 -7.758924083672803507e-01
5.059425032861832733e-02 2.234970945558547792e-02 -7.626636365793815209e-01 4.152355400263048613e-01 4.155074929273356865e-01 -8.092792902455265835e-01
8.034485933282733972e-02 -4.559564491433277383e-02 -7.764617960584031531e-01 4.255090623817424089e-01 3.470559907580181291e-01 -8.357596407520412329e-01
3.047574385304647332e-02 5.098652229218277043e-02 -7.577669291315454192e-01 4.490498533166483730e-01 4.616902493012174924e-01 -7.649812696638239595e-01
-5.991377401877286818e-02 -6.623876513790752374e-02 -8.543520045844951172e-01 3.139697673815345369e-01 4.179150963030284771e-01 -8.525080395236256381e-01
-8.521889598946759403e-02 -4.713298382363787647e-03 -8.354117626125289187e-01 3.820421176457050039e-01 4.136849802219536576e-01 -8.263828153365406770e-01
-7.518059580543715037e-02 -7.054914146968183086e-02 -8.619180141636331172e-01 3.116654074780086936e-01 4.047452997563134036e-01 -8.596777978444826163e-01
2.718858520749203866e-02 4.338055590431751096e-02 -7.640920707109835064e-01 4.587575440316020714e-01 4.213369116742379239e-01 -7.823149766270030003e-01
-2.496675422870386907e-02 8.700937796220833964e-02 -7.650782773314516172e-01 2.422541138730141264e-01 4.790498317099678993e-01 -8.436967482752628644e-01
6.646739510410051843e-02 6.234424607513591428e-04 -7.650236040568594298e-01 4.081665264194190845e-01 3.637122978698006381e-01 -8.373251764332512170e-01
6.917511045883815990e-02 -9.409564782960429252e-02 -8.067286433262352841e-01 3.503109486465456612e-01 4.689487689432820794e-01 -8.107831346081009194e-01
1.608001585173222253e-02 1.003801903666727419e-01 -7.367173856756368266e-01 5.120779186938305694e-01 4.442172817086499914e-01 -7.351511489602480243e-01
5.597447598463854701e-02 -9.173674442224236114e-02 -8.115043660944015746e-01 3.907665519093023176e-01 4.429615014131474959e-01 -8.068993804525598224e-01
-5.459816847260426376e-02 -8.620744389031394228e-02 -8.622982464717586781e-01 3.084025794345608973e-01 4.312672329637894930e-01 -8.478775989315121553e-01
1.883798159492963004e-02 7.141632742686625061e-03 -7.870983932727867449e-01 4.625629260065934889e-01 3.745090017728894272e-01 -8.036034762712843671e-01
-6.849696549757694486e-02 -8.546501570618332544e-02 -8.669125534523038912e-01 3.054384055877698567e-01 4.362093836666440794e-01 -8.464211445806202327e-01
2.790780199924606034e-02 1.110557611175045367e-01 -7.224635343570595669e-01 4.762094073975633446e-01 4.641954484419776872e-01 -7.468247357659043573e-01
-2.926469674685371405e-02 1.207966588720212481e-01 -7.470852564200339829e-01 2.323301385038867017e-01 4.920020975257008433e-01 -8.390212409546469186e-01
-4.506302060778750312e-02 4.995272074907822386e-03 -8.132236008350323120e-01 3.089615221471547213e-01 4.154868925511017164e-01 -8.555193860753493862e-01
1.549970972925168375e-02 -1.487564081253969495e-01 -8.688449450999753410e-01 4.787534609360106774e-01 4.769674664249585194e-01 -7.370869416927342543e-01
2.556327303022736322e-02 -5.045868542368597831e-02 -8.084741713513605710e-01 4.748424138241064130e-01 3.555225032752031278e-01 -8.050642407278003621e-01
1.570669296899115594e-02 -1.707212325505514106e-01 -8.833082846419626488e-01 5.031484380283767210e-01 4.758789755436124702e-01 -7.213742786828254427e-01
-3.615376217596662917e-02 -5.679328375266588791e-02 -8.407705196621270138e-01 3.264986638484497772e-01 4.178196771415447208e-01 -8.478356797743961115e-01
-3.578312787633144976e-02 -1.290928346920522662e-01 -8.788134377271167308e-01 3.468888930469114507e-01 4.898746225674516230e-01 -7.998068204542179149e-01
4.121368867710048511e-02 -1.418864209834513612e-01 -8.495538064839226466e-01 3.619626327468561389e-01 5.131914434335035358e-01 -7.782143630656027655e-01
2.992193931484518274e-02 -4.641225052162954029e-02 -8.041164094388585371e-01 4.748424138241064130e-01 3.555225032752031278e-01 -8.050642407278003621e-01
-3.518721898713004365e-02 2.341504912093306245e-02 -8.011005525519871995e-01 3.062327494151717011e-01 3.902498057241956531e-01 -8.682894634382316568e-01
-3.877921490292640661e-02 -1.623029736317629923e-01 -9.048305595589590800e-01 4.983615760163267461e-01 5.880546943529835202e-01 -6.370458507830832895e-01
4.585961852394001420e-02 -9.944686945426681191e-02 -8.209183787539409138e-01 3.877188556426484634e-01 4.590701325391906007e-01 -7.993301585637846429e-01
-2.230418881183592397e-02 3.055592165007176963e-03 -8.065050912077502687e-01 2.639123608905183382e-01 4.087772923778369982e-01 -8.736425991247435130e-01
6.295776554376622536e-02 -4.286722518215538985e-02 -7.842571606830713860e-01 4.337382337941955712e-01 3.454462586723680007e-01 -8.321886966994656021e-01
2.708582454740179543e-02 -1.168606184930475467e-01 -8.415907613385052999e-01 4.558564670128226748e-01 4.663525635470898156e-01 -7.580964107260007578e-01
2.402639117614786541e-04 3.841810980544117099e-02 -7.833144211671640988e-01 5.305164951267797857e-01 3.795142737330770566e-01 -7.579717438211351910e-01
7.707643473690618807e-02 -8.396515476405232159e-02 -7.972537471611970128e-01 3.947952268639631779e-01 4.507470001248582991e-01 -8.006021925549996476e-01
1.135673865829796986e-02 -2.222834475126136689e-01 -9.313285834561886301e-01 3.894913809559770179e-01 8.000589965283471106e-01 -4.562916460281300490e-01
7.854328173250120504e-02 7.184477235235171497e-03 -7.564904890505674828e-01 3.887399753292261617e-01 3.870282464605331874e-01 -8.361162407361297788e-01
-4.615125212346683076e-02 8.197889202584103530e-02 -7.754173436350428883e-01 3.227744192500336951e-01 4.879655000623036587e-01 -8.109909648243619484e-01
-4.281103673920776814e-02 -2.327687047945771817e-02 -8.266773496986602465e-01 3.218694017469839186e-01 4.301973939480231990e-01 -8.434039900660703637e-01
9.638800485370314572e-03 -2.148981752952447699e-01 -9.229187048895399759e-01 5.767801982856025633e-01 6.369463629142239069e-01 -5.114918705472875082e-01
-7.974792318295199911e-02 -3.780448474820242294e-02 -8.488951195428886543e-01 3.287222152317315627e-01 3.803073967257223909e-01 -8.644697734500883524e-01
-4.029970404333247519e-02 -5.772705919072953357e-02 -8.428272793311782918e-01 3.264986638484497772e-01 4.178196771415447208e-01 -8.478356797743961115e-01
-2.202451377606258823e-02 -5.667425930972866399e-02 -8.353108952750901706e-01 3.207733418181945018e-01 4.107161039448068984e-01 -8.534733417858969551e-01
6.000827083956557922e-02 5.414231441064738803e-02 -7.399969718680671216e-01 3.897605093617556582e-01 4.863482316985544562e-01 -7.820179939526673563e-01
-5.935681671821056021e-02 -8.062321175201518988e-03 -8.255663095595439094e-01 3.626016951587636705e-01 4.279530500182215924e-01 -8.278745059778642723e-01
4.104196590658288485e-02 -3.245578081117294483e-02 -7.917230286553054164e-01 4.583033607303932944e-01 3.437338412750127747e-01 -8.196371611301865867e-01
-3.539124120999022349e-02 2.236960780921436742e-01 -6.118391469525841231e-01 1.552533297039224713e-01 9.767043516235001110e-01 -1.481384930919837639e-01
6.005958959570441985e-02 2.267263858399943058e-02 -7.578178160945601149e-01 3.994364389959051409e-01 4.155499143804355922e-01 -8.171712182038005645e-01
-2.776847510971094599e-02 1.281976707468934495e-01 -7.423017441360136859e-01 2.271987362095521656e-01 5.036797760320786965e-01 -8.334791044057779930e-01
-2.332811584994383403e-02 -1.711959575256769561e-01 -9.015052283886965112e-01 4.263276241411892986e-01 5.416649060880843747e-01 -7.244611006856861435e-01
4.827058996194471402e-02 7.864941645145270832e-02 -7.305770769444547286e-01 4.248846611099958981e-01 4.843732536840752445e-01 -7.647585082030448067e-01
-1.692868780196215769e-02 -1.196785648116612394e-01 -8.660349414006406343e-01 3.087072678571640139e-01 4.609540104510367886e-01 -8.319983311409169247e-01
-9.030248380009285591e-03 -1.115236560703329466e-01 -8.586235064818901197e-01 2.985951314673541135e-01 4.736148071583828889e-01 -8.285710361244358335e-01
-4.499777299594306945e-02 -1.344748121438364696e-01 -8.865886805792669856e-01 3.613940401072582853e-01 5.328717770514317387e-01 -7.651418280273289962e-01
4.316831510421824392e-02 5.076651422429883515e-02 -7.507413782041588712e-01 4.210876345416113553e-01 4.831239415197353115e-01 -7.676434466382070498e-01
-3.420629019633062221e-03 1.388604578332492678e-01 -7.270101923667827704e-01 5.372307938309045516e-01 4.703545936459376242e-01 -7.001068706961685040e-01
-5.288740201133434668e-03 -2.152819596042200578e-01 -9.290478843055318681e-01 2.766332972990440120e-01 8.465910339299661524e-01 -4.547061029883475158e-01
1.143857387392343411e-02 -4.729224747810279600e-02 -8.158297689874799419e-01 5.037017010948773299e-01 3.565833717770329203e-01 -7.868499827071545605e-01
3.308007141437915855e-02 -7.082495728220161713e-02 -8.133343466701219437e-01 4.773488090944125739e-01 3.810354601392714757e-01 -7.918018013193706128e-01
-4.494219488887327141e-02 -1.279704590166073352e-01 -8.821507486853832347e-01 3.634574677096947815e-01 5.081689149136408012e-01 -7.808092104231028063e-01
3.322140587999689726e-02 -1.131997464248905433e-01 -8.357846298079277814e-01 4.313121947704953718e-01 4.595733974287076751e-01 -7.763775389706311092e-01
8.418103828188262805e-02 -9.527956217040450815e-02 -8.008416556270191444e-01 3.618087623712657463e-01 4.997899082459425490e-01 -7.869589996225250239e-01
-4.557555457122033915e-02 -1.439657171905197597e-01 -8.938399585830821836e-01 4.091537722721867998e-01 5.529638996077530511e-01 -7.258265056926666015e-01
7.018943118403090861e-03 -2.342187060970013848e-02 -8.079279223067858950e-01 5.101527672264596358e-01 3.535275551525312032e-01 -7.840678681332757805e-01
-3.001068298785080496e-02 1.395931021773130498e-01 -7.360035828371082056e-01 2.322484611625332263e-01 5.087104178274095556e-01 -8.290201222416123672e-01
-2.773937097791010289e-03 7.350402915128197157e-02 -7.669787234603175907e-01 6.144722732273372179e-01 3.892174359781565562e-01 -6.862460294715142517e-01
1.818267638341700132e-02 -1.573513055471482125e-01 -8.727079294822959188e-01 4.784485291440038202e-01 4.810451884060844563e-01 -7.346308812398880672e-01
3.757179054667664220e-02 -1.415398515452772265e-03 -7.805405712919676331e-01 4.380254223987852802e-01 3.594388520332018611e-01 -8.239766022050746264e-01
3.645852361979746992e-02 -9.777567907658150925e-03 -7.847543910531639133e-01 4.445656397074361776e-01 3.492064063819266817e-01 -8.248734919570023250e-01
2.855383316089095402e-02 9.704508986052681058e-03 -7.804114121051183295e-01 4.484565395847929792e-01 3.739793068773328288e-01 -8.118042929987391298e-01
5.072649202325095474e-02 1.096757654403548478e-02 -7.681121057796821416e-01 4.161518649765642563e-01 3.915674185243218086e-01 -8.206659381421446131e-01
7.277177443524640577e-02 -4.298733970546186195e-02 -7.792342165223358208e-01 4.254453788222511967e-01 3.470030954895947373e-01 -8.358140231890287541e-01
-3.200816676577006303e-02 -7.985616505260946518e-02 -8.506761191993728044e-01 3.203697051066505819e-01 4.245123820014502503e-01 -8.468485635444703563e-01
3.343975203247966099e-02 4.764036183996998158e-02 -7.580465467165278248e-01 4.490498533166483730e-01 4.616902493012174924e-01 -7.649812696638239595e-01
1.010260174544638616e-02 1.142334762884245625e-01 -7.326441985094972464e-01 5.259830039620742026e-01 4.431017068599604758e-01 -7.259495553554821123e-01
5.860222935623389529e-02 -1.141126363204632843e-01 -8.236870531250199967e-01 3.511276916799700998e-01 5.080894812070949618e-01 -7.864823095417984300e-01
1.592068473592886391e-02 1.074815955473213402e-01 -7.325831011652608193e-01 5.123105920849831962e-01 4.404439965590632999e-01 -7.372563618800546115e-01
7.468277587833395403e-02 2.804064767381897819e-02 -7.480929278102598223e-01 3.828143160469916206e-01 4.410507411627025975e-01 -8.117434589507359632e-01
2.287670079637052489e-02 -1.476911001937089851e-01 -8.634516624008531371e-01 4.474144046529668906e-01 4.861292858954849860e-01 -7.506654833571189123e-01
9.266484752655695977e-04 -1.385913581808901895e-01 -8.713251569494184778e-01 1.602078322493789286e-01 5.203346067549251552e-01 -8.387999448612000197e-01
6.485542799093702016e-02 -8.912382075804037296e-02 -8.057854734535557784e-01 3.707835109733561008e-01 4.632337175015792674e-01 -8.049435452004931602e-01
2.948835806055670125e-02 -1.029618977297245969e-01 -8.320764770407734767e-01 4.641768848719527440e-01 4.296209286292203000e-01 -7.745745136746602366e-01
6.287758801974510647e-02 -1.128644357633140083e-01 -8.209719324335054136e-01 3.511276916799700998e-01 5.080894812070949618e-01 -7.864823095417984300e-01
-2.844526122899915591e-02 5.956832427385488904e-02 -7.816330956935172436e-01 2.849977875329601229e-01 4.489503165305411825e-01 -8.468883482422253639e-01
-5.653445215966709098e-02 8.116978503553391733e-02 -7.803654838061581112e-01 3.491991789813330138e-01 4.847155966795823057e-01 -8.019418456062257228e-01
-4.331415016737336088e-02 1.153227756690051869e-01 -7.547308981869599309e-01 2.705656245690880590e-01 4.990164366163813425e-01 -8.232720320697336502e-01
-1.686752612646215746e-02 9.988555636431208085e-02 -7.557813961604132880e-01 2.050608205471832479e-01 4.779221878700794512e-01 -8.541313963425020139e-01
-2.490666811506338577e-02 -1.897529213866476494e-01 -9.172276385686014555e-01 5.298518917127982286e-01 5.047330253632152930e-01 -6.815435026145176822e-01
1.882172106499964415e-02 -7.329979193249282210e-02 -8.232707336949658394e-01 4.946379696707516316e-01 3.750803485619119693e-01 -7.839949050106583828e-01
-2.545824650704015327e-02 -7.459882715343272609e-03 -8.125129677099086623e-01 2.842274934141659770e-01 4.178915787825566719e-01 -8.628912795770523614e-01
-2.307590162594081590e-02 -8.509518486479925037e-02 -8.499104258926416522e-01 3.245793471933401397e-01 4.336905651154118191e-01 -8.405716751743543824e-01
6.887551033986599736e-02 -1.799304820856830953e-02 -7.713802879470674778e-01 4.090964008915949912e-01 3.262778287998818194e-01 -8.521636657421969296e-01
-1.188875087365250799e-02 1.724958778972880691e-01 -7.082369782826959392e-01 -2.125197370113962869e-01 6.297253198101996352e-01 -7.471822956752582900e-01
5.321362147882827132e-02 -1.759657475401740778e-01 -8.668816025018547533e-01 3.277570944336732905e-01 5.138375250505109459e-01 -7.928091099996025237e-01
1.350213968956604643e-02 -1.493777421772917446e-01 -8.706025640891814632e-01 5.023659664463848706e-01 4.709442002394079729e-01 -7.251482579564364483e-01
-6.431093790868622206e-02 -5.018442591815525100e-02 -8.484035611031189861e-01 3.278482306050510831e-01 4.093788177422075791e-01 -8.514249945081067139e-01
-1.548154926257773976e-02 -1.015377809945429977e-01 -8.555719624574803506e-01 3.195698294994832600e-01 4.456900906804580620e-01 -8.362030059398952719e-01
-4.065750956650239500e-02 6.120672382495258995e-02 -7.851509226719100010e-01 3.092527820491006163e-01 4.479994422520781061e-01 -8.388439762773041153e-01
-6.521517398741689953e-02 -5.398567466583732710e-02 -8.505783486549655104e-01 3.144382258378141670e-01 3.996374557287228346e-01 -8.610566218958197737e-01
4.303802143502320071e-02 -1.329491578728230206e-01 -8.428399356206522919e-01 3.651869671146104057e-01 5.102019893484619484e-01 -7.786734932656333985e-01
5.629773117460258602e-02 -1.709008198801302836e-01 -8.623572254161741002e-01 3.072997028123938268e-01 5.163813948224752481e-01 -7.993229308187083104e-01
1.605334357966576447e-02 2.200163349264118440e-02 -7.816321600910153267e-01 4.611714675771553806e-01 3.879610405848699095e-01 -7.980019476674463652e-01
4.849000794382597734e-02 -1.250929843142440934e-01 -8.351879945953211148e-01 3.654913381690511054e-01 5.064275495897192503e-01 -7.809911771204263164e-01
-1.342114627236177735e-02 -8.600106792154477153e-02 -8.466457288673181480e-01 3.199333267605418696e-01 4.370082465583974285e-01 -8.406345572648603603e-01
-4.175905455453472748e-02 1.256911162285084815e-01 -7.479448248945314015e-01 2.534198306311560844e-01 5.028799156834327100e-01 -8.263716959365802195e-01
-6.552699336316781219e-03 -1.843145636183870228e-01 -9.028577126719848911e-01 2.744827777023056137e-01 5.351481005795778456e-01 -7.989215951461677845e-01
2.504061284747230703e-03 -3.790532070372455015e-02 -8.175613250121012143e-01 5.430768544804415177e-01 3.510591968670341290e-01 -7.627745213512984179e-01
-6.403313027645810875e-03 -7.127025520810538473e-02 -8.366070096542450596e-01 2.952811338479540137e-01 4.141351060412541418e-01 -8.609884818844361076e-01
8.242267737912109538e-02 -6.805526308249063017e-02 -7.859447010029572134e-01 4.081940206024667894e-01 4.215925927277031082e-01 -8.097143492007081722e-01
1.396180641307465456e-02 5.090500714358854595e-02 -7.678068869718386313e-01 4.872595472779590042e-01 4.254486640040179291e-01 -7.626083974646979957e-01
-6.628390230961467462e-03 -1.955080539681873231e-01 -9.102919446499830869e-01 3.008611922710525133e-01 5.240662203686718978e-01 -7.967666783028364286e-01
-4.425593458181681372e-02 -1.567159166158458017e-01 -9.038797288247291117e-01 4.549284316439660136e-01 6.023359850239257129e-01 -6.559203329880991529e-01
5.967325632765118487e-02 6.195568294239164192e-02 -7.352555896057151319e-01 3.858602614925779051e-01 4.919930106555362448e-01 -7.804195897509116353e-01
-8.690914365721798263e-02 -5.022953817629192963e-02 -8.570709469740372954e-01 3.289655124030045341e-01 3.714148580092857532e-01 -8.682353914114369076e-01
-5.193234544693708932e-02 -1.783187742429283990e-02 -8.275291498430806802e-01 3.445491888231563826e-01 4.275319280809152245e-01 -8.357645044824052460e-01
8.432213813337184616e-02 -1.167805245416625032e-01 -8.148767235959329946e-01 2.981858744631072922e-01 5.466832853612638710e-01 -7.824465283821554484e-01
3.221483994760522551e-02 -8.101823743703467917e-02 -8.187899105936108368e-01 4.748684589205854345e-01 4.018148878993370587e-01 -7.829717380498684154e-01
-5.550307644748633806e-03 -8.192333150106875794e-02 -8.416249409835722117e-01 2.949093553106273413e-01 4.272767673433894298e-01 -8.546713030392757426e-01
-2.560421299774489831e-02 -1.427251281750464007e-01 -8.830081489014270923e-01 3.287695101446762025e-01 5.014719679877421843e-01 -8.002727500807025329e-01
4.314894271477036358e-02 -7.734642809456536428e-02 -8.107356313792279945e-01 4.572611157423327466e-01 3.916571027202060962e-01 -7.984466080577280467e-01
-6.207015752354865662e-02 7.651924635264520380e-02 -7.856944948891945169e-01 3.719075765179529758e-01 4.800411196246299750e-01 -7.945094574629523176e-01
-8.311075035036530334e-02 1.176366276161391194e-02 -8.261739681056985418e-01 3.841391738933597755e-01 4.032017178816144631e-01 -8.305814046665396244e-01
-4.718721191636474077e-02 7.917933991679299011e-02 -7.775141193564955033e-01 3.227744192500336951e-01 4.879655000623036587e-01 -8.109909648243619484e-01
-6.349406408643502864e-02 1.068074764928540615e-01 -7.677013486800889908e-01 3.148878828787989859e-01 5.189228955682255728e-01 -7.947104187508783335e-01
-6.166061498449487005e-02 -7.153342102636166266e-02 -8.575616949735781480e-01 3.062845289715830366e-01 4.117514875131937924e-01 -8.582834612430372268e-01
-1.167236033176862094e-02 -1.730738230781068976e-02 -8.128628116882996579e-01 2.575251808711147561e-01 4.051791030405848537e-01 -8.772175760189298011e-01
-1.624349410671389882e-02 4.880630092336168610e-03 -8.038205961810606093e-01 2.383111420116123258e-01 4.115266375867202564e-01 -8.796895055357256688e-01
-4.299742867320295592e-02 -1.423972320788473578e-01 -8.911858772993878075e-01 4.082117955253969921e-01 5.611884529772283026e-01 -7.200212845735581846e-01
-4.496337959284928826e-02 -1.316919390087568364e-01 -8.846343447046346453e-01 3.613940401072582853e-01 5.328717770514317387e-01 -7.651418280273289962e-01
5.481775155757217383e-02 -5.467049542525605210e-02 -7.937101617409881849e-01 4.458103456871758685e-01 3.645429510122949468e-01 -8.175338357190659044e-01
-4.977879355261619065e-02 -1.372173266671599945e-01 -8.909932858107943998e-01 4.082117955253969921e-01 5.611884529772283026e-01 -7.200212845735581846e-01
-2.160222141904842574e-02 1.837669123867476662e-01 -6.968521322249642269e-01 1.315559123443964529e-01 7.920251297602134422e-01 -5.961453142947203965e-01
-8.582471512503284106e-02 7.497328670917861350e-03 -8.295290420204464166e-01 3.837250386973931060e-01 4.176846934803099542e-01 -8.235864201824504294e-01
4.844683120692640926e-02 -1.590959433609099583e-01 -8.577092985899190669e-01 3.301443025446037516e-01 5.203884594555638898e-01 -7.875281523620614177e-01
3.459832432391909268e-02 -1.268172058142102709e-01 -8.433723753136078694e-01 4.153211181800304796e-01 4.798803701005948108e-01 -7.728021733832050044e-01
3.405695652295930020e-02 -9.161584086239706048e-02 -8.231112821178250272e-01 4.748684589205854345e-01 4.018148878993370587e-01 -7.829717380498684154e-01
5.329747126168907917e-02 1.525807096350325492e-02 -7.647612470427623821e-01 4.161518649765642563e-01 3.915674185243218086e-01 -8.206659381421446131e-01
-3.878890188450541399e-02 4.364071089961983792e-03 -8.112643167295529034e-01 3.089615221471547213e-01 4.154868925511017164e-01 -8.555193860753493862e-01
9.610062277884726459e-03 2.112388183473364739e-02 -7.858661523847442210e-01 4.743297430827473904e-01 3.848400503570061360e-01 -7.917761239569377496e-01
-2.841416581963738044e-02 -4.804204279784417969e-02 -8.334936008856745904e-01 3.208335325208349631e-01 4.161407095965371505e-01 -8.508188727494784276e-01
1.383715784264191902e-02 6.600006454274907897e-02 -7.591424195276996745e-01 5.036549267193616286e-01 4.393413441130598618e-01 -7.438487064882511879e-01
6.606512059728149311e-02 -1.347006670619532998e-01 -8.342700618643107413e-01 3.012053902591619314e-01 5.346767598292595514e-01 -7.895543523895682814e-01
-1.076886272717464225e-02 -6.692645338445953052e-02 -8.360935631983924532e-01 3.182930490888202235e-01 4.167823525691975450e-01 -8.514587514898341869e-01
1.785078960606047496e-02 -2.080787325715065250e-01 -9.073733156011151157e-01 5.449109766930553267e-01 5.239207248120372196e-01 -6.546595310478953156e-01
1.292927675383170882e-02 -1.577713793861209024e-01 -8.765374418457418937e-01 5.019094059458020229e-01 4.770702625114290329e-01 -7.214505616120959752e-01
-2.272464575158620811e-02 1.179850243366312168e-01 -7.469853213382590118e-01 2.126555228589539215e-01 4.938759750271359827e-01 -8.431276000040448526e-01
-2.844956095259413079e-02 2.174451815966793045e-01 -6.357625088050105067e-01 2.421669141351613375e-01 9.378709806645325608e-01 -2.485019302251030848e-01
5.525368615187182392e-02 -1.443837170683353044e-01 -8.450689099230278556e-01 3.236144796666583501e-01 5.293454582547900689e-01 -7.842621082107081865e-01
6.476243853292909525e-02 -1.080915286109910764e-02 -7.705491883833239797e-01 4.082317982727330929e-01 3.372389095780624624e-01 -8.483022555349066796e-01
-1.601106440707821682e-02 -2.522037599890561074e-02 -8.179817408757882324e-01 2.884072384762369490e-01 4.116837812112547068e-01 -8.644869745011285467e-01
-2.780014293472351378e-02 -2.296995734223920144e-02 -8.209617876216253052e-01 3.038788710295762252e-01 4.277818267911041028e-01 -8.512698399503275670e-01
-3.467623227822198839e-02 -1.403490038131270934e-01 -8.855768133535918407e-01 3.451328702701773055e-01 5.140025192280963662e-01 -7.852927556562835365e-01
7.497017876527639624e-02 4.570267024183088944e-03 -7.593363463445100825e-01 3.937441131300398744e-01 3.581550859493236039e-01 -8.465757543091292359e-01
2.950052444903113798e-03 -5.741633445447548445e-02 -8.263230641399370580e-01 5.494223762553043233e-01 3.560568176252184580e-01 -7.558826596056936742e-01
-8.213135130843186860e-02 -4.615588991389785178e-02 -8.535538673541651633e-01 3.493138509172185602e-01 3.795973784700804599e-01 -8.566712694003607576e-01
-6.849491923593728493e-02 -1.610716140718793446e-02 -8.336971958759197276e-01 3.609884557309828712e-01 4.240954196849476276e-01 -8.305602987328544184e-01
2.237648941226567934e-02 -2.093489587857437773e-01 -9.051167205182588660e-01 4.785626441645183804e-01 5.514264864469216043e-01 -6.833056604880919371e-01
-2.374970474974075554e-02 -1.720864923779778233e-01 -9.024248002301608063e-01 4.603567213619336185e-01 5.441889686796588244e-01 -7.013772561640849723e-01
-3.017739344275183547e-02 2.209802113672340029e-01 -6.214656165675883637e-01 2.733910071708748890e-01 9.482702114118111147e-01 -1.613721269212690934e-01
5.354633875683491306e-02 -6.346159704974599358e-02 -7.984438861326971226e-01 4.405498758155685923e-01 3.858856479020348895e-01 -8.105603454784314765e-01
2.385827909564891200e-02 -1.033077994022202212e-01 -8.356576754398358231e-01 4.888145802702238973e-01 4.157083397035379879e-01 -7.669725434565262123e-01
-4.898620319467824474e-02 -6.874515567222293233e-02 -8.515444210155992399e-01 3.178302521629689514e-01 4.222836812336394630e-01 -8.489172064305151588e-01
-7.885180867349232681e-02 3.338939374206258831e-02 -8.144123876469713252e-01 3.848085409154535230e-01 3.625373352752285228e-01 -8.488162742137173034e-01
3.393892040424660583e-02 -1.221698846754191853e-01 -8.408409463371023795e-01 4.153211181800304796e-01 4.798803701005948108e-01 -7.728021733832050044e-01
2.347449574689127946e-02 2.605798624455715404e-02 -7.753681123614140080e-01 4.478126049523906693e-01 4.092600988479104807e-01 -7.949654346804978511e-01
-8.681752524938060600e-02 -3.544039649264066338e-02 -8.507251137430681398e-01 3.494220448866576789e-01 3.708597905572873499e-01 -8.604459601247667067e-01
-4.841436917715918192e-02 -1.461900996335447345e-01 -8.973507419596388202e-01 4.149424194557085888e-01 5.750969562419325776e-01 -7.050434592686520840e-01
8.388362036563554820e-04 1.442558113022383015e-01 -7.202705382194987127e-01 5.187599555662177897e-01 4.684609634127064881e-01 -7.151450442108752137e-01
-6.329429208254627737e-02 5.008537043909053188e-02 -8.001831775039022210e-01 3.646508403667556020e-01 3.961937987651344417e-01 -8.426507214972708271e-01
3.091512921642744841e-02 8.713211411255114558e-02 -7.349877767612913448e-01 4.532045391861236339e-01 4.613701698973108889e-01 -7.627209266763432804e-01
3.265417148158447636e-02 2.319528560131872696e-02 -7.716815230003429837e-01 4.337149200032014984e-01 3.919926142556230952e-01 -8.113156959751604003e-01
6.827537226770268204e-03 1.219912150015289021e-01 -7.302668501722959782e-01 5.250373207042672297e-01 4.568916401887259671e-01 -7.180430634671854939e-01
-4.428427769862203212e-02 3.901082215725680969e-03 -8.134737645991255706e-01 3.089615221471547213e-01 4.154868925511017164e-01 -8.555193860753493862e-01
-3.022952961853670947e-02 1.482311811471630492e-01 -7.307814307281620403e-01 2.319703338704580953e-01 5.039901002030682253e-01 -8.319758068004921014e-01
8.029119936124633899e-03 -4.512786864237004758e-02 -8.170668045566757964e-01 5.225826876427296375e-01 3.522292793625901308e-01 -7.764289209810590897e-01
2.860585585904632314e-02 -1.785902609095202376e-01 -8.801884412720950568e-01 4.437778227600950309e-01 4.874036964191731380e-01 -7.519965962311506713e-01
-6.340002035547893933e-02 -2.436881122104756978e-02 -8.356822115749834579e-01 3.551693072030821519e-01 4.192161448157922798e-01 -8.355313202667316030e-01
2.518979625200484448e-02 -1.657068617064925142e-01 -8.737708643704619194e-01 4.611289752074584358e-01 4.857560172979962232e-01 -7.425639096285977514e-01
6.977746013130699254e-02 -1.184048533674089132e-01 -8.217249287478901598e-01 3.117078789860135424e-01 5.313603741158186011e-01 -7.877146380495529954e-01
1.812666531056355071e-02 -6.320596968704662866e-02 -8.188798981514741060e-01 4.936761383459704056e-01 3.636581268051318205e-01 -7.899598959671263465e-01
5.921419511612096426e-02 4.297558411303144255e-02 -7.471567159171842443e-01 3.874047005402250221e-01 4.677256689261890532e-01 -7.944496816204834611e-01
-4.019551715006228904e-02 -5.022673463564422160e-03 -8.164143375033019456e-01 3.150224138394922546e-01 4.277972533637756647e-01 -8.472015042439133836e-01
1.338987081017450030e-02 6.151508898556415361e-02 -7.620520992960447826e-01 5.039831319712599900e-01 4.337496875551862252e-01 -7.469017413517110571e-01
1.579826006353642759e-02 -1.776160140748047067e-01 -8.878877811189983538e-01 5.021823498603469327e-01 4.884587728041315247e-01 -7.135971656049526768e-01
2.960598287834661016e-02 -1.207657372852383310e-01 -8.424776296538329934e-01 4.558564670128226748e-01 4.663525635470898156e-01 -7.580964107260007578e-01
-1.480052897604974133e-02 -3.980741165177284491e-02 -8.245192274497556983e-01 2.882243711924141749e-01 4.111052330828228185e-01 -8.648232184571919001e-01
4.779525661437337286e-02 -7.266275229331446706e-02 -8.058538878188554744e-01 4.305183817521912593e-01 3.987097618416945433e-01 -8.097434462751853523e-01
-1.535432770651351964e-03 -9.894317950551601015e-02 -8.491049450484489114e-01 2.861196364099504175e-01 4.620006318099745823e-01 -8.394587362508191264e-01
-8.008247327351837586e-02 1.202519480799411379e-02 -8.246566395342168621e-01 3.770340958473543669e-01 4.050809178186937087e-01 -8.329194082189061987e-01
-6.084780067707731832e-02 -9.280870116340851628e-02 -8.679838481699414521e-01 3.046683018836304213e-01 4.552082663439283583e-01 -8.366377113658577391e-01
-4.281100690236386980e-02 -1.503707171916215668e-01 -8.972952003622107764e-01 4.470154059113536360e-01 5.800578314341818809e-01 -6.809626561492064800e-01
-1.658716066004155276e-02 -1.176720565608173341e-02 -8.117694493896453478e-01 2.751505775429058387e-01 4.123274799372163568e-01 -8.684919164657953772e-01
-6.022609393264038297e-02 -8.381031340114442063e-02 -8.631086829985602504e-01 3.056167555066452435e-01 4.331634869116620101e-01 -8.479196850882294578e-01
3.466052552077226317e-02 8.789116700044594110e-02 -7.323741196089765815e-01 4.435056120578583227e-01 4.587482024541985615e-01 -7.699693882345104434e-01
-1.027979620912824327e-02 -4.224720386698560537e-02 -8.241289289151565445e-01 3.017352591713388654e-01 4.027210733587306413e-01 -8.641594589227136192e-01
7.171317608114317899e-02 -6.857627951333132577e-02 -7.915209285963781261e-01 4.141416509375575594e-01 4.050390902897730849e-01 -8.151257745255926501e-01
1.896647296246128586e-02 -2.114704889833173285e-01 -9.094813476791920870e-01 4.687805817216658677e-01 6.262146643423653902e-01 -6.229766932745361974e-01
3.711880692880917265e-02 2.560168640154178443e-02 -7.680287213795814472e-01 4.330723015374333129e-01 4.132500917011819319e-01 -8.010447823624066155e-01
3.571634004538744300e-02 1.060539941849227424e-01 -7.206123255305310060e-01 4.706826273530998472e-01 4.749894188829734687e-01 -7.435340720217187283e-01
3.781380212055684975e-02 -1.691672628844768655e-01 -8.691800114900360974e-01 3.793435273740096703e-01 5.145130658803060975e-01 -7.690089682688310280e-01
-5.902098252898675679e-02 1.798645437924138377e-02 -8.125537053034526114e-01 3.622264231327937400e-01 3.814445810639973122e-01 -8.504657841214624536e-01
8.528989259200356332e-02 -1.126517391872628587e-01 -8.116490577276352925e-01 3.155923182512460068e-01 5.311443135795719250e-01 -7.863124104405893045e-01
-6.212762540665708530e-03 -1.215725340406795382e-03 -8.039451245590827355e-01 2.227428352859308347e-01 4.033726801063901579e-01 -8.875111888154270101e-01
8.468441221848151124e-02 -8.843124875113506089e-02 -7.962813549044979178e-01 3.644329050014351590e-01 4.591192589909497412e-01 -8.101840308077024044e-01
-4.477475024012909921e-02 1.069056006608493925e-01 -7.601546331133813839e-01 2.970440074655321117e-01 4.771747913931775331e-01 -8.270846849553523672e-01
-2.988095158267828344e-02 -1.476095709454464111e-02 -8.176502814381366724e-01 3.041185147588977289e-01 4.189876852625398218e-01 -8.555473385962819588e-01
4.391079802613254146e-02 8.860521575790081261e-02 -7.267755467927338175e-01 4.173363073042750671e-01 4.661250887784363361e-01 -7.801011525545433756e-01
6.600642974369123894e-03 -7.339034174863753174e-03 -8.009775357461703660e-01 4.985170438686511440e-01 3.582457031561596117e-01 -7.893926609378949522e-01
-3.124856065952277828e-02 -6.088097700199346374e-02 -8.409155733673870925e-01 3.246237237840152723e-01 4.201319400498333412e-01 -8.474128810128878087e-01
8.875035701855685244e-02 -6.811429131197392628e-02 -7.827971841435372724e-01 3.882848497333655224e-01 4.429657557284128466e-01 -8.080941867873410178e-01
4.619274012068711605e-02 -2.905254158133159167e-02 -7.874490830455961321e-01 4.518937816487943460e-01 3.384151765460568506e-01 -8.253891072642364213e-01
5.610051793877432469e-02 1.602684266522065581e-02 -7.630253166482784399e-01 4.001514586392138084e-01 3.921385729017621835e-01 -8.283152478322968193e-01
1.542046129905052729e-02 3.633176907324651289e-02 -7.748290468848381130e-01 4.651775216334049778e-01 4.034951000830819812e-01 -7.879096252591073490e-01
3.987794572435658658e-02 5.087633400939987199e-02 -7.524650768815579482e-01 4.225422648558142535e-01 4.616594523657880367e-01 -7.799542194589627053e-01
-6.406211536365753224e-03 -5.827310959886503050e-02 -8.303373743069606405e-01 2.892775275086278408e-01 4.085567406479222452e-01 -8.656788675655895382e-01
-3.254547728325726114e-02 1.062663155093395290e-01 -7.564001773602132550e-01 2.447169790026875458e-01 4.834431571637572977e-01 -8.404738627579902976e-01
5.624796445871427936e-02 -6.729544213999975877e-02 -7.988007071032255935e-01 4.405498758155685923e-01 3.858856479020348895e-01 -8.105603454784314765e-01
3.599466546296120617e-02 4.350454080883642966e-02 -7.590165538518702792e-01 4.399611694307520304e-01 4.524227121519110439e-01 -7.757240868519131860e-01
-3.228418284181553549e-02 1.325836646862177670e-01 -7.409183831733520131e-01 2.324999800961651542e-01 5.048938775585551930e-01 -8.312796952044297916e-01
7.643871124291500008e-02 -1.425973933501963054e-01 -8.359144308093641174e-01 2.875063177026813133e-01 5.476913105002596538e-01 -7.857317262803846791e-01
-4.351704707501695413e-02 -7.326033909175833081e-02 -8.517428208194199879e-01 3.178302521629689514e-01 4.222836812336394630e-01 -8.489172064305151588e-01
-2.360460734259525045e-02 -8.074551584139091909e-02 -8.478961174686724389e-01 3.248804432895310290e-01 4.250979032639599642e-01 -8.448339897332391990e-01
-6.508379656846870198e-02 3.705680354700963304e-03 -8.220573699566658954e-01 3.621515686289554781e-01 4.233177533797886083e-01 -8.304506734376675414e-01
2.605318067521310288e-02 -6.805119240475911851e-03 -7.892604611180664698e-01 4.565537953511032421e-01 3.568980149837934768e-01 -8.149738884474342360e-01
-3.562686746598302950e-02 -1.685192772831456964e-01 -9.080254238831330094e-01 5.302775852558166969e-01 5.784164596080303422e-01 -6.198710203177532074e-01
-2.186438741404100536e-02 2.142747927420632637e-01 -6.409823957061331345e-01 2.518468456728667482e-01 9.285623425815282550e-01 -2.726630562876677932e-01
-6.799905752085311228e-02 -1.954980408338991699e-02 -8.352193100165620221e-01 3.551693072030821519e-01 4.192161448157922798e-01 -8.355313202667316030e-01
-7.697355378709723472e-02 -5.800564338397946884e-02 -8.567892869504016851e-01 3.286323432406396128e-01 3.860993960529937041e-01 -8.619327348138483558e-01
-2.570587359370482203e-03 1.803980972099651081e-01 -6.902476969100809212e-01 5.374145632329367928e-01 6.888449687957529655e-01 -4.864958336819854012e-01
3.610061248448778737e-02 -6.010273672995347649e-02 -8.065666166358823608e-01 4.617129840404984864e-01 3.685506807633344706e-01 -8.068404526777900321e-01
1.712242305584451424e-02 -2.036475016915846939e-02 -8.003635674372414632e-01 4.735295854194077614e-01 3.538498580717991393e-01 -8.065730033140778854e-01
3.924767273856771821e-02 -1.164946760231568290e-01 -8.344425391092805677e-01 4.225133596252415025e-01 4.683950536557270339e-01 -7.759436414128543236e-01
-1.731130366687243932e-02 1.895938635705662068e-01 -6.877633062068480019e-01 -3.269776358367212921e-02 8.455437751706934568e-01 -5.329039130337837049e-01
-1.414849940784295010e-03 -1.543743042628849538e-01 -8.818600682577141248e-01 2.214485143254725785e-01 5.258327636313083753e-01 -8.212554171479794496e-01
4.267094837305541663e-03 -7.694085781004819657e-02 -8.348819421630944149e-01 5.587451680040412816e-01 3.766009209624466281e-01 -7.389016061441285865e-01
6.523452957355881099e-02 4.588545623214775743e-02 -7.424957250440998857e-01 3.883094303417679583e-01 4.687666994989208580e-01 -7.933937028667041869e-01
7.008495625920377337e-02 -2.821455161040099802e-02 -7.747042696139783136e-01 4.254681833378935463e-01 3.286273282192233025e-01 -8.431968359254247147e-01
2.024146103044349720e-02 -3.751318074301705080e-02 -8.060003508877662259e-01 4.861301418872218671e-01 3.471845343962538522e-01 -8.019603383115441186e-01
7.312614323844576769e-02 -1.159834661466801614e-01 -8.187664460491572704e-01 3.117078789860135424e-01 5.313603741158186011e-01 -7.877146380495529954e-01
-5.787975132049717752e-02 -2.853148332838676988e-03 -8.222776753324686494e-01 3.396216020804642688e-01 4.269223019461150792e-01 -8.380898015733929673e-01
-6.300281003257721113e-02 6.378690053405564053e-02 -7.932697997109126042e-01 3.767866011014309180e-01 4.313776599398683187e-01 -8.197226187773731798e-01
2.824155087426893918e-02 -1.072629385237317545e-01 -8.352795291406626133e-01 4.633563171427819150e-01 4.451222412003503215e-01 -7.662683040245467092e-01
-2.786000885811183714e-02 1.029476092904896278e-01 -7.568767092580045430e-01 2.203291082528263944e-01 4.808691532306195726e-01 -8.486577293159954793e-01
-7.514844934404719956e-02 -2.404462629383394279e-02 -8.405688853771267066e-01 3.625364755222739710e-01 4.182751619432890089e-01 -8.328344330160726283e-01
3.092177165092834662e-02 -7.349711934190480966e-02 -8.159214212616729966e-01 4.773488090944125739e-01 3.810354601392714757e-01 -7.918018013193706128e-01
-6.140686508279138284e-02 -2.210520794244320505e-02 -8.336791819397303405e-01 3.609884557309828712e-01 4.240954196849476276e-01 -8.305602987328544184e-01
5.868560499172752187e-02 -4.177491579481751316e-02 -7.860251178425592400e-01 4.329339959848542141e-01 3.464150431803146857e-01 -8.322047662558575976e-01
-1.679582902122024601e-02 -1.958186650932902395e-01 -9.157488864660191519e-01 4.288226993364579465e-01 5.190033277695524916e-01 -7.394231794432227778e-01
-1.574947869839947445e-02 6.532118162869315903e-02 -7.744936186033105630e-01 2.430839867978057123e-01 4.587269216611494227e-01 -8.546811023450617828e-01
-2.344094848548604337e-02 2.107716966855910645e-01 -6.530963906914531991e-01 2.651251696384181455e-01 9.100807074489239978e-01 -3.185306113287488250e-01
-2.516808499224576848e-02 1.805517141217407029e-01 -7.019593245532287362e-01 2.088242893522794519e-01 7.278355465432496674e-01 -6.531828483392723150e-01
-1.222938958851875306e-04 9.671436719797946169e-02 -7.510934360646760455e-01 5.998387902609526590e-01 4.161690882366604338e-01 -6.833715795191833697e-01
7.348033525840592939e-02 -8.350552830239051094e-02 -7.986976115208456184e-01 3.739908097563376943e-01 4.390914496026809277e-01 -8.169024256933109518e-01
3.113309948292645318e-02 -1.249219499245742548e-01 -8.441160946582131341e-01 4.558564670128226748e-01 4.663525635470898156e-01 -7.580964107260007578e-01
-3.652678477898828324e-02 -1.302115657344697641e-01 -8.798211864063169019e-01 3.468888930469114507e-01 4.898746225674516230e-01 -7.998068204542179149e-01
6.647090404400818331e-02 -9.489629993445217182e-02 -8.083633127537289687e-01 3.707835109733561008e-01 4.632337175015792674e-01 -8.049435452004931602e-01
8.369912357923996182e-02 -3.139286110414152287e-02 -7.691707698118899206e-01 4.152907808296889547e-01 3.162639944205944964e-01 -8.529423504498985231e-01
8.824368174095693906e-02 -8.653590794889318150e-02 -7.935849517835937839e-01 3.867068621825155428e-01 4.711111504220305002e-01 -7.927875419612647745e-01
2.325737965887949774e-02 -1.905314358090188231e-01 -8.913355127451105808e-01 4.635294204334254320e-01 4.917192544051769976e-01 -7.371245832556867494e-01
2.406851245685790938e-02 -1.673982672037636621e-01 -8.755736275104490929e-01 4.611289752074584358e-01 4.857560172979962232e-01 -7.425639096285977514e-01
-7.673094839026045784e-03 -4.627594332426544776e-02 -8.251020926378502818e-01 2.789307830451306924e-01 4.049669929273631563e-01 -8.707464343361959180e-01
5.884479127800587572e-02 -8.194709981370140728e-02 -8.047845610998959343e-01 4.098118170130629623e-01 4.149773837458468617e-01 -8.123103136215271691e-01
-5.598950041891451179e-02 -4.000374017546219629e-02 -8.402851784887691577e-01 3.365856289828343950e-01 4.200705773784603192e-01 -8.427638010635939425e-01
6.637210002550865406e-02 -1.085527177323900444e-01 -8.167009988007580823e-01 3.487908054308077599e-01 4.929910865692517241e-01 -7.970600746557298111e-01
2.126915729562680116e-02 -4.786942696735548355e-03 -7.910892504519436708e-01 4.673498992076650094e-01 3.647749392632527177e-01 -8.053094531893164598e-01
-9.142018474176105691e-02 -1.461641300548478101e-02 -8.431774512802109323e-01 3.774499919729508157e-01 3.974802427540042316e-01 -8.363856527821585951e-01
4.385693605433434172e-02 3.274201393844358710e-02 -7.607387450467603118e-01 4.143799133545059132e-01 4.366385892620294751e-01 -7.985211517396250125e-01
-7.327769483559486152e-02 -3.505142750628813947e-02 -8.450091394311333159e-01 3.473283060712664683e-01 3.875253017884121576e-01 -8.539245799691357330e-01
-6.692606202822570793e-02 -8.714520614766832485e-02 -8.672115778653072260e-01 3.054384055877698567e-01 4.362093836666440794e-01 -8.464211445806202327e-01
