-1.586765172031686863e-02 -4.773380552656192322e-02 -8.252851235784890438e-01 -1.423659593822976244e-01 -4.862361163200523140e-01 8.621521749639972088e-01
7.459995681361161757e-02 -9.274293841357959811e-02 -8.523881898407849045e-01 7.455124667059954968e-02 -4.546415310363998707e-01 8.875489788607373587e-01
-6.926625272260239496e-02 -9.216168915909683790e-02 -8.526048339542909860e-01 5.318858314017858684e-03 -3.930456356592983980e-01 9.195035823940076458e-01
9.661839723459295093e-02 -1.433438588619194605e-02 -8.096395831145110078e-01 -6.859577216308798513e-03 -4.634755996554294488e-01 8.860831308203840351e-01
-8.360085661741739269e-03 1.061358621901945243e-01 -7.446784639944313833e-01 -1.813396819116457059e-01 -4.007850038101582468e-01 8.980463799186958473e-01
2.125709401352356143e-02 -5.740727565903727680e-02 -8.297533013151955350e-01 5.847138348132463470e-02 -4.781114564758380259e-01 8.763506903633573319e-01
-4.904547769423003856e-02 -4.663847598014941864e-03 -8.037575270115178139e-01 -8.449079662271229141e-02 -5.210170495947820113e-01 8.493541895567526812e-01
6.938063587947571054e-02 -3.194618672777354098e-04 -8.022677173422632091e-01 1.397452497983239263e-02 -4.758284767426670392e-01 8.794270710936418212e-01
6.252178183960525881e-02 -1.087145332456417729e-01 -8.592931944060751004e-01 7.513228501694425854e-02 -4.354936581188370570e-01 8.970509536734276868e-01
3.371169885595989846e-02 1.023579120633617140e-01 -7.478534109211673053e-01 1.366842292070813702e-01 -4.110152865358565055e-01 9.013233913085325621e-01
1.131533664850154289e-02 -1.073387595730678351e-01 -8.550027576465045742e-01 6.746525849251992779e-02 -4.388694909790500920e-01 8.960145137129905679e-01
7.629009525702745709e-02 -9.614956386320196169e-02 -8.542777072472438338e-01 8.081997026511571203e-02 -4.557782954420006027e-01 8.864165374192487512e-01
-2.653241506699935068e-02 -2.016154611334252875e-02 -8.107191749213183973e-01 -1.158020473029339192e-01 -5.071351193440843952e-01 8.540514367228184689e-01
8.014777163905079452e-03 4.215649969598245575e-03 -7.937860909777382235e-01 1.670758251547390938e-01 -4.889069017257373639e-01 8.561867261840744314e-01
-2.815620001478932183e-02 4.107550337599383088e-03 -7.965901971656215164e-01 -8.318090149860210558e-02 -4.996582750383972704e-01 8.622195461780794989e-01
-1.238724941361333751e-02 5.099520295345635890e-02 -7.701906061568948303e-01 -1.239698358981411730e-01 -4.276753050390537658e-01 8.953911509765664078e-01
-3.139700030849870704e-02 -1.618366539110154267e-01 -8.807726784067986259e-01 -5.875040720295013341e-02 -3.760309169740599922e-01 9.247427421359604161e-01
-3.250578482008448927e-02 -1.505214851414776456e-01 -8.763016165094658083e-01 -4.657662139999150380e-02 -3.672667025542935004e-01 9.289487539869236699e-01
-3.738941865983224505e-02 -7.754778406231201127e-02 -8.445851529883271480e-01 -1.095620732171873335e-01 -4.555412358814207585e-01 8.834468487260451752e-01
-2.665108339541005789e-02 -2.144022403478541006e-01 -9.002059298010681720e-01 -1.418219276198512922e-03 -2.267756834057580717e-01 9.739459831376358068e-01
8.945064100316081623e-02 -8.861186075042386256e-02 -8.515883622408033649e-01 7.598396243209183665e-02 -4.512705465917194458e-01 8.891464059601935643e-01
9.483769576458604689e-02 -3.692807282421087939e-02 -8.217215408157965140e-01 9.712461738419468291e-03 -4.731748686477995069e-01 8.809149855503182192e-01
5.391693370025348736e-02 -8.732818938627606720e-02 -8.478412836604162228e-01 6.804907168233782777e-02 -4.588198683649392651e-01 8.859196646630843608e-01
7.126244642682044717e-02 -9.778876159844338001e-02 -8.546925417883464160e-01 7.455124667059954968e-02 -4.546415310363998707e-01 8.875489788607373587e-01
-1.997393459232621807e-02 6.838443396505214551e-03 -7.941514384611327859e-01 -9.575434225532070132e-02 -4.858285973075613939e-01 8.687932320048414869e-01
-7.069063640707265450e-03 1.004400080228412262e-01 -7.469413092223786688e-01 -1.982250281077030107e-01 -4.019695099832362173e-01 8.939392324288815139e-01
2.669848739767454252e-02 2.568937512030236570e-02 -7.845894610025302418e-01 1.167919590208196523e-01 -4.880065006717407283e-01 8.649909211143210763e-01
-7.158575465903076196e-02 1.508147327337935537e-02 -7.930782100323645611e-01 -3.578249235088046265e-02 -5.090392201891742463e-01 8.599992357847515700e-01
8.460494249152818863e-03 1.239301876001215330e-01 -7.327601580478403376e-01 -3.238520813951307198e-01 -3.479196387444568606e-01 8.798134770233794200e-01
-6.280703762495183640e-02 -4.302679129655971602e-02 -8.281504046091340276e-01 -7.189962709935551755e-02 -5.043048623178878476e-01 8.605271927519257957e-01
-2.194113094450165276e-03 6.897620761423059466e-02 -7.600792658999583340e-01 -1.632207422332695723e-01 -4.158372943413571887e-01 8.946721935657104829e-01
1.384340882444482120e-02 1.596627227782567160e-01 -7.198696795176421359e-01 6.286448419854118175e-02 -4.122170461008118347e-01 9.089142773278308107e-01
1.075848872219718234e-02 4.277915490977220875e-02 -7.729460279035893500e-01 1.561489152561600091e-01 -4.666150781295643202e-01 8.705675649405193450e-01
3.689683223728314893e-02 -7.397318262033683589e-02 -8.395887985517564989e-01 5.561687631582854646e-02 -4.665864979355250908e-01 8.827252137631121931e-01
-3.870164848705384686e-02 4.041709646204490886e-02 -7.779225466867857319e-01 -6.509617419590447984e-02 -4.316791380618221208e-01 8.996752802357409484e-01
-1.982295217296167061e-02 -4.152639164364759633e-02 -8.223221701503199421e-01 -1.275824396669369976e-01 -4.957002251391101066e-01 8.590715964840579533e-01
7.953981334244113188e-02 5.772152087531082915e-02 -7.698584497407354732e-01 -7.493065177758292603e-03 -4.207569931055710755e-01 9.071424401531439363e-01
-6.531735473767079359e-02 5.394170888390453431e-03 -7.986827575946247038e-01 -4.602865596997066100e-02 -5.234484708693022403e-01 8.508131764225255189e-01
-5.157447856922362829e-03 -1.398624455503856383e-02 -8.041160717448124773e-01 -1.429722910651714807e-01 -4.924932882207799234e-01 8.584924490320575696e-01
7.362861904263262591e-02 3.692316323533963857e-02 -7.807227591487744256e-01 -2.404857883157945474e-03 -4.884798323293370603e-01 8.725718710032227543e-01
6.578916416496483066e-02 -2.321487216885352242e-02 -8.141098629133748377e-01 1.578608929666056732e-02 -4.568905965071778374e-01 8.893828097102131069e-01
-7.940422267957773783e-02 -6.078122868447335958e-02 -8.382312813485051084e-01 1.558162769183889847e-03 -4.419505729531098548e-01 8.970380500264205637e-01
-3.000997313617937215e-02 -3.050339522156774591e-02 -8.172959330340806572e-01 -1.099776626014857539e-01 -5.061259526753112414e-01 8.554188645086233667e-01
-1.972408337936682604e-02 -2.084258472341944390e-01 -8.981215582991195490e-01 -1.069216334646434508e-01 -3.409048110057277814e-01 9.339976842211129560e-01
-9.300831264097935216e-03 -9.701777403204266126e-02 -8.502915985151308087e-01 -1.724180687465004247e-01 -4.356573273257144385e-01 8.834447932480796739e-01
3.557761775336253096e-02 1.527032040836420919e-02 -7.915771608202702980e-01 1.001821515062955442e-01 -4.924103634783099648e-01 8.645782616158750322e-01
1.276275509328318042e-02 6.469577960799958484e-03 -7.933872110093755925e-01 1.437364935721732739e-01 -4.874397569147585485e-01 8.612446248276139915e-01
-7.148982589069768911e-02 7.404753142949051237e-02 -7.641934129080786287e-01 -7.797537600885378131e-03 -3.818786372117483618e-01 9.241795847391678365e-01
-8.493644551670148646e-02 -1.184714806424348038e-01 -8.615928981958814736e-01 7.817023628685618175e-02 -3.349838154523736011e-01 9.389756426786731724e-01
-3.491929080342377062e-02 -5.207101493228304123e-02 -8.304611112080853008e-01 -1.128390818837935877e-01 -4.909718956150203595e-01 8.638367550155622299e-01
3.454409677620915581e-02 7.652064665319778525e-02 -7.598241931397756721e-01 1.083664838730369617e-01 -4.094380665444055656e-01 9.058792275117990567e-01
-1.994910628096486713e-02 1.922524918088985499e-02 -7.872878122024981051e-01 -9.304044374982906040e-02 -4.724951090117163743e-01 8.764084936756613153e-01
5.324579588602196961e-02 -2.431836571483771831e-02 -8.142705762962711979e-01 3.336863596221278233e-02 -4.551355045573635683e-01 8.897967220805748090e-01
3.198935947127060780e-02 4.560715612388648033e-02 -7.741598925027105560e-01 8.872302191975180163e-02 -4.734119180668712179e-01 8.763614443901976969e-01
-7.043916745467215801e-02 -6.712919504447818764e-02 -8.412828256699699248e-01 -1.699974119484409796e-02 -4.432309054014998417e-01 8.962462682188835350e-01
-1.231417269031628153e-02 -8.216111404267685547e-02 -8.434103461055902917e-01 -1.518046626103294050e-01 -4.571813181490870237e-01 8.763221934569656035e-01
2.945298771563150883e-02 3.963082875815773093e-02 -7.771315317173328463e-01 8.872302191975180163e-02 -4.734119180668712179e-01 8.763614443901976969e-01
-7.402935311685257536e-02 -1.292212628041243261e-01 -8.664947723028555426e-01 9.291243278942069861e-02 -3.382822986140830990e-01 9.364466702794793651e-01
7.526852501262679129e-02 -8.138209085822140088e-02 -8.464440455626199844e-01 7.796378479529991745e-02 -4.792154846974873150e-01 8.742277549280533799e-01
5.552864009624391972e-02 1.730163407835362196e-02 -7.919235227725437420e-01 3.865738324827100447e-02 -5.078485995278432252e-01 8.605785302213881938e-01
5.729873528529168952e-02 -1.591802543752527110e-01 -8.781324164352407591e-01 -1.003362112454435073e-01 -2.287383990646318643e-01 9.683033561370418818e-01
8.424153369902974420e-02 -3.046584651589734696e-02 -8.181539091473356562e-01 4.101035296131267348e-03 -4.729642967844345236e-01 8.810720489702902336e-01
6.787366983668216731e-03 5.152060393801487920e-02 -7.675677378284517793e-01 2.040746014639744088e-01 -4.544816668487636213e-01 8.670639950636225279e-01
4.307495852947710452e-02 -5.536297776482779903e-02 -8.300469285989522383e-01 5.242878477559966693e-02 -4.711165052254698282e-01 8.805114769445618883e-01
5.612579664509142335e-02 -1.930919437406560316e-02 -8.118138079185821532e-01 3.517543592330984320e-02 -4.567892936551151695e-01 8.888791987158131125e-01
-9.865718357176850306e-02 -6.437058893174146812e-02 -8.400044930320368364e-01 -1.301847082294288992e-02 -4.061934061549312691e-01 9.136943888487482068e-01
2.667643260918853634e-02 -5.757367954424329193e-02 -8.302307172297500593e-01 5.842450004046209622e-02 -4.728023635409502323e-01 8.792294938325906362e-01
-8.735750586128684936e-02 9.029484356806260700e-03 -7.971954282811546388e-01 -2.273150601571694365e-02 -5.447599584106748161e-01 8.382838817170812362e-01
3.788631635209337156e-02 -2.431000190459808169e-02 -8.133187899667341236e-01 8.746871116598982365e-02 -4.625008976845303432e-01 8.822936836495908208e-01
-5.216590939758075640e-02 8.747776516737086616e-02 -7.581920077574865191e-01 -3.503017415918819460e-02 -3.883253672603009243e-01 9.208562841402178067e-01
4.272729756877855813e-03 2.074018729996030264e-01 -7.141220732188913178e-01 -2.184345816830926823e-01 7.100269038594329840e-02 9.732650982558093133e-01
1.236840773310732191e-03 6.524896006889813194e-02 -7.610659349385597849e-01 -2.143574117072969965e-01 -4.155164674107661993e-01 8.839666087339648204e-01
2.801181697402180606e-02 -1.599834235799843241e-01 -8.796944046407211282e-01 3.957501219060044484e-02 -3.649002636309084391e-01 9.302051472724752745e-01
5.715252847523771829e-02 -6.373464191386990496e-02 -8.353576819024558509e-01 6.121916044929152229e-02 -4.784750224738850699e-01 8.759645353908451781e-01
-2.311041814903055849e-03 1.643689316511222007e-02 -7.866059261924750468e-01 -1.305283504382178383e-01 -4.709261226723132077e-01 8.724625703815032107e-01
2.412900253099550460e-02 -1.013826540637177698e-02 -8.043136296192544554e-01 1.179691457073193533e-01 -4.738162406602411392e-01 8.726863415613205222e-01
-8.918128604144016924e-03 -9.581555287855482439e-02 -8.496240510773921395e-01 -1.724180687465004247e-01 -4.356573273257144385e-01 8.834447932480796739e-01
2.617522885399800603e-02 1.298566430389977988e-01 -7.343612032102869724e-01 1.623084937760293500e-01 -3.871303164461468160e-01 9.076266142728864894e-01
-1.265657054018594178e-02 -1.599872395044256435e-01 -8.780687517043057611e-01 -1.428155884866318115e-01 -3.672125393113540581e-01 9.191075337835745707e-01
6.754847626609720990e-02 -9.143576348527282516e-02 -8.511024093203130025e-01 7.864886963359510319e-02 -4.583206970877962694e-01 8.853002281295957454e-01
6.229653666546281637e-02 -6.842145240235966708e-02 -8.382334788973540007e-01 5.103427991916564821e-02 -4.775849360832237211e-01 8.771021212490113239e-01
-4.000356595796659975e-02 -1.632283426976103777e-02 -8.099933797121549039e-01 -9.151600513787365443e-02 -5.155871568734948784e-01 8.519358570166600808e-01
1.710650900587509793e-02 -7.711134438555408699e-02 -8.400326909083466465e-01 5.408345415288651897e-02 -4.638344242183497501e-01 8.842695329462191278e-01
1.286816652384053378e-02 2.110609797083041195e-01 -7.158089527154798404e-01 1.688952829968367597e-01 7.628662881468152579e-02 9.826773293637691697e-01
-2.207539507631999312e-02 -7.601146262032427992e-02 -8.417862372800829496e-01 -1.314376788251648276e-01 -4.583922787020826561e-01 8.789770505601184336e-01
-2.484085413422294688e-03 2.422172726261881404e-02 -7.824313171896447594e-01 -1.325009852474665906e-01 -4.699781074344765996e-01 8.726763818511181769e-01
9.574006083975600268e-03 9.463881098229975919e-02 -7.466377406584897569e-01 2.991961377904762687e-01 -4.140994910280898500e-01 8.596530013101446599e-01
-2.445796272216942645e-03 2.275621542581292636e-02 -7.832151278321194399e-01 -1.305283504382178383e-01 -4.709261226723132077e-01 8.724625703815032107e-01
-5.103795945957227860e-03 -2.130255653413613282e-01 -8.964394014439299729e-01 -2.940475906180254340e-01 -2.896763025003619707e-01 9.108367879161737291e-01
-8.562642550619860293e-02 -1.003895054100447382e-01 -8.550319149898772952e-01 6.066527962413560682e-02 -3.539512987863831506e-01 9.332942740291285677e-01
9.555213496832347386e-02 -3.809954678471099560e-02 -8.223856960562816454e-01 8.984209109643313471e-03 -4.955665099652882266e-01 8.685235277109643048e-01
1.580568476423746191e-02 -1.961135172105426400e-02 -8.085276782638564086e-01 1.087302969094020577e-01 -4.807568358454006874e-01 8.700865401337454230e-01
7.496749441734656266e-03 2.390945139660775598e-01 -7.174998961991140289e-01 7.819782961482472927e-02 1.083830452509333686e-01 9.910288668579059213e-01
5.959782276578772658e-02 -5.818853631822840794e-02 -8.325050819395950485e-01 4.142490092334576157e-02 -4.779006867384738011e-01 8.774365567939292898e-01
5.576653167843628744e-02 1.062236595528306477e-04 -8.016292627439125518e-01 3.800806790168526073e-02 -4.766601871468441054e-01 8.782655935214110920e-01
-2.141791415342408130e-03 -1.005893679552976178e-01 -8.504388052691738142e-01 -2.510180410935694550e-01 -4.111712843938244988e-01 8.763150791441853826e-01
3.192780892029595946e-02 -5.728594259039917341e-02 -8.304095181199723230e-01 5.438717965813005123e-02 -4.698009420452581852e-01 8.810954032011643067e-01
7.109985957689976543e-02 -1.028459296427094299e-01 -8.571555825017117547e-01 5.911975729281495479e-02 -4.208052167903437724e-01 9.052225272382864452e-01
-1.267323348157766393e-02 -1.937720872558122975e-01 -8.913255473552120778e-01 -1.679147822095845843e-01 -3.628377410411184334e-01 9.165988215089991842e-01
5.193372042700384467e-02 5.754130229750741010e-02 -7.696733153507606673e-01 3.862794364187404489e-02 -4.168020465946284947e-01 9.081761590817770680e-01
1.349646650270063409e-04 1.091734671164228294e-02 -7.891881227838414281e-01 -1.643872519956586231e-01 -4.749514535943660798e-01 8.645218031431681771e-01
5.770563529365573679e-02 -4.864920243837971524e-03 -8.043924807341938932e-01 3.852009741869585890e-02 -4.597213884976228959e-01 8.872273930919131191e-01
-9.889497601762628487e-02 -3.279951232664305577e-02 -8.245522953442124825e-01 -4.934612620434777192e-02 -4.837710711730797142e-01 8.738023292053391788e-01
7.259136458807739431e-03 2.328704441160311944e-01 -7.166943656579672917e-01 3.461988632805341193e-01 1.233226368929061789e-01 9.300203623002274433e-01
6.628537268818057715e-02 -6.959916203958139980e-02 -8.391775389223042891e-01 6.505248185474497846e-02 -4.895470972994019343e-01 8.695469016276625718e-01
-4.913567493250150381e-02 -1.640191459515880079e-01 -8.816327651833076873e-01 3.629470727284904441e-02 -3.646828262502960771e-01 9.304241669593898978e-01
-2.456825943034831455e-02 1.313423978730580421e-01 -7.365744452068015979e-01 -1.370541924566421599e-01 -3.849970285614635057e-01 9.126847409313367798e-01
-4.266444321672557133e-02 9.635372885076752547e-02 -7.538400643153222447e-01 -3.570098963570603884e-02 -4.091653332783684593e-01 9.117615748550894628e-01
6.644368557186607072e-03 -1.316258004130933523e-01 -8.657697867824881710e-01 9.861804166775527125e-02 -3.995052106930069846e-01 9.114110315805669105e-01
-2.577096611006116436e-02 -8.658266405730281889e-02 -8.477553167871531015e-01 -1.297578274872535353e-01 -4.345292131855565954e-01 8.912616165268925084e-01
-7.448141265160193591e-02 4.007932711102205753e-02 -7.794325760385054647e-01 -1.372930045382585520e-02 -4.367128651126528371e-01 8.994961810670163427e-01
-6.825140461623771526e-02 5.282376823354369838e-02 -7.732720059222685238e-01 -1.366891246682698340e-02 -4.096409683662418644e-01 9.121444172212763712e-01
-7.408768397165507724e-02 4.954924739541566314e-02 -7.748300415270213959e-01 -1.366891246682698340e-02 -4.096409683662418644e-01 9.121444172212763712e-01
2.115690480788580061e-02 -8.483653734596675877e-02 -8.443282522973989401e-01 5.344048522567885345e-02 -4.634477182900980652e-01 8.845113492491466500e-01
4.112510933593994250e-02 -1.340797891610358006e-01 -8.695868106944754095e-01 2.937008487096299386e-02 -3.934243674328092855e-01 9.188877326555004998e-01
5.517428041176623138e-02 7.264635089655569616e-03 -7.976957666433183158e-01 3.979621844992652091e-02 -4.985136775748061355e-01 8.659678829309594983e-01
8.252366598542328069e-02 6.327212894796836740e-02 -7.672749784932348938e-01 -5.634802746548614114e-03 -4.186994810880696472e-01 9.081073689463095011e-01
-3.791446343923914053e-02 -8.532119272455257475e-02 -8.485778704724232790e-01 -7.239747156477285839e-02 -4.297840718562708773e-01 9.000245872695210592e-01
4.888988108808652727e-02 -3.525827799268906743e-02 -8.197202618024844734e-01 5.730691554141383037e-02 -4.587811108101453317e-01 8.866993908844973404e-01
1.802630332012117309e-02 8.320809606011467241e-02 -7.541532888367783460e-01 1.656588134521845834e-01 -4.123563590761431530e-01 8.958344661013448729e-01
-7.817757932796214060e-02 -9.345466294141996366e-02 -8.528053759990552596e-01 4.815679956572607723e-02 -3.712375034933118045e-01 9.272883255253674406e-01
-6.445691676604617393e-02 -1.048167058827501330e-01 -8.579357771721763948e-01 3.839072999697026867e-02 -3.805208122420068451e-01 9.239751421445184798e-01
2.139625446056193578e-02 -1.419462970321726247e-02 -8.062208138883376618e-01 1.060242162197995303e-01 -4.826839948265128633e-01 8.693532232144169924e-01
-7.912551742631798724e-02 -1.203386968492446696e-01 -8.627978031116521063e-01 8.924673417129851127e-02 -3.389807909212236292e-01 9.365506093245467012e-01
4.883178528087687986e-02 5.978430160092027684e-02 -7.685119678901043416e-01 3.862794364187404489e-02 -4.168020465946284947e-01 9.081761590817770680e-01
6.928430756771085386e-02 -1.420678541617686197e-01 -8.726663011279103266e-01 -5.100077699661083319e-02 -2.669012767835656219e-01 9.623734354173771877e-01
2.912365575941246523e-02 -1.231762179566596588e-01 -8.639744282525881891e-01 5.940485982514000229e-02 -4.317369658427817058e-01 9.000412518068404699e-01
-3.694571438545352082e-02 -1.308959681910434047e-01 -8.685768498596152520e-01 -4.204553216164037821e-02 -3.783615977318067758e-01 9.247024789558417890e-01
6.273737740684901150e-03 1.874303389120216545e-01 -7.128843878788053701e-01 -3.829673442962249763e-01 -1.169995840696781836e-01 9.163226017785544020e-01
6.582889423899430936e-02 5.818986852807447874e-03 -7.988952442688666000e-01 1.528169519149768542e-02 -4.745830014864091395e-01 8.800780899966917925e-01
-6.939882131200227067e-02 -1.414900602539296282e-01 -8.714512844362292121e-01 9.267649737782102104e-02 -3.474229155773434496e-01 9.331175620282349259e-01
8.276251954166392866e-02 2.618452806032722097e-02 -7.870060008220948200e-01 -2.802507748394204769e-03 -5.092809367012487431e-01 8.605957665844162774e-01
-2.309214205030502357e-02 1.294358907222407928e-01 -7.371100146810752873e-01 -1.404923745922747325e-01 -3.884013683734962585e-01 9.107174477998210005e-01
8.102942038705976402e-02 -5.636798399090352241e-02 -8.325626806440072913e-01 4.974687786832782815e-02 -5.063002658965508607e-01 8.609211862275405469e-01
-2.268907207953642369e-02 7.807763176502212354e-02 -7.596357843803861476e-01 -1.393918819359949712e-01 -3.853019644635823915e-01 9.122018961999839304e-01
-1.622598025279495954e-02 -6.345553881315248168e-02 -8.341243722709246189e-01 -1.512029159539483580e-01 -4.735944142720606154e-01 8.676669919832880051e-01
-4.847408186234349742e-02 -2.736834061073006082e-03 -8.025222552165236500e-01 -7.612332347503684982e-02 -5.144113757154313848e-01 8.541581681150584027e-01
-3.856084304328166799e-04 6.252067772238489862e-02 -7.626923184471160466e-01 -1.904400658307693339e-01 -4.179834496079615769e-01 8.882693381965860446e-01
3.089742804542498084e-02 -3.530488671245385693e-03 -8.015595896962622868e-01 9.663610198332481249e-02 -4.771254005207843374e-01 8.735060480450892451e-01
6.172861119150222647e-04 -1.402383385598130472e-01 -8.685533767482376266e-01 1.956784663445115258e-01 -3.712206534425605553e-01 9.076922189083357351e-01
2.484243395102945368e-02 -9.308192884865423844e-02 -8.487897716957751859e-01 5.442299006069672984e-02 -4.549562830861935692e-01 8.888492102900519276e-01
-3.285679209698630365e-02 -1.329951264633902064e-01 -8.692498446643156518e-01 -4.204553216164037821e-02 -3.783615977318067758e-01 9.247024789558417890e-01
6.250047173754769148e-02 2.852028252530312835e-02 -7.855438749701818546e-01 1.270654813911880482e-02 -5.059540657123616780e-01 8.624668266220559820e-01
1.294015823886084625e-02 -2.007842396090085690e-01 -8.945096114527997244e-01 4.792489495239777436e-02 -3.411355873328966726e-01 9.387916251750659802e-01
5.173592286444474164e-02 -1.554659780956770820e-01 -8.774332707420129385e-01 -4.274825152668187966e-02 -3.088548739651258423e-01 9.501480167949613032e-01
-9.220235384487555919e-02 1.995381331507791248e-02 -7.906232316295390694e-01 -1.430530494928976964e-02 -4.907165912332268065e-01 8.712018051741802216e-01
-3.220192390693166901e-02 -1.847315174584865105e-01 -8.899516691887402464e-01 -5.022255037601415506e-02 -3.798591292584614920e-01 9.236799972678484405e-01
-8.370122247389326364e-02 -5.776359740278997831e-03 -8.066800414366421812e-01 -4.901612106109242556e-02 -5.517203500476212108e-01 8.325875781078256876e-01
3.050331887651470258e-02 -9.285956856054296271e-02 -8.490360225776679703e-01 5.810499970946830101e-02 -4.575393719998577247e-01 8.872888661978907132e-01
9.363994582195566546e-03 -1.229032881455850434e-01 -8.621709978899928517e-01 9.779239212824497596e-02 -4.238439035272356104e-01 9.004404441630947664e-01
1.148136081723186500e-02 8.243703753529914302e-02 -7.530955107537186111e-01 2.226368660243637498e-01 -4.326237153472283214e-01 8.736529899256398890e-01
-2.053615545011520591e-02 1.344321764172250744e-01 -7.346490250657815579e-01 -1.565543443426114789e-01 -3.792028368655423476e-01 9.119736541044263234e-01
-5.165146414514795031e-02 -1.006056257529498593e-01 -8.563517636139926781e-01 -7.277116626954214596e-04 -3.954383464683915994e-01 9.184922343591590543e-01
-1.354766996947523970e-02 -1.066796358236369313e-01 -8.555511817023351284e-01 -1.440225703936953705e-01 -4.193407894403849978e-01 8.963318590392221896e-01
-2.613832069045356633e-03 2.124755948881574263e-01 -7.159960153386378812e-01 -1.844403733959820157e-01 7.430495494781758081e-02 9.800308782542280772e-01
-1.333416149263280497e-02 -1.458090457365508186e-01 -8.724598330934704160e-01 -1.376325816836166949e-01 -3.759057616923508482e-01 9.163799052716051774e-01
7.149214564133898886e-02 -8.798114171271982642e-02 -8.496642988579564681e-01 7.864886963359510319e-02 -4.583206970877962694e-01 8.853002281295957454e-01
-3.790592578151770475e-02 -1.367670863327868636e-01 -8.710165618003150589e-01 -4.184010960688139963e-02 -3.719189906289834258e-01 9.273217724380261595e-01
9.095925508449337338e-02 -7.122374285422038154e-02 -8.419806509298259911e-01 6.869598369336198107e-02 -5.030101199051879579e-01 8.615460992293854092e-01
4.615194837733576499e-02 3.709017186231960278e-02 -7.799665065495010596e-01 6.600876784257507512e-02 -4.783167507653464656e-01 8.757031052275575655e-01
1.047101721673993589e-02 -1.705175615511065612e-01 -8.824439535648954669e-01 1.401580330276600284e-01 -3.678476657831987739e-01 9.192626504735573745e-01
-8.537660700577638651e-02 -8.118570535061465920e-02 -8.475189000233963599e-01 3.793140714283449455e-02 -3.954265689368797743e-01 9.177140278599711376e-01
7.823908996431774843e-03 -1.788327840050541948e-02 -8.063500423846594600e-01 1.466077574302385722e-01 -4.879214827790038234e-01 8.604875316377424976e-01
-5.867631412043741029e-03 3.916517978212438744e-02 -7.751291040596158810e-01 -1.142378474175995695e-01 -4.510948281133940196e-01 8.851345492447691976e-01
-5.433206035630010894e-02 -1.715758888561758067e-01 -8.843221050985632381e-01 4.873243250710369845e-02 -3.702418910949445974e-01 9.276562359518636391e-01
1.894867467731584446e-02 -9.506946971076872185e-03 -8.033196086147698090e-01 1.060242162197995303e-01 -4.826839948265128633e-01 8.693532232144169924e-01
-8.867067025426175753e-02 1.848539182097480235e-02 -7.914588362524901388e-01 -1.536965876382073888e-02 -5.238866371359056640e-01 8.516493204482206147e-01
-4.196028692315589836e-02 3.763243927046162896e-02 -7.795143299754301314e-01 -6.596082510689317557e-02 -4.577093310428981265e-01 8.866517567948989376e-01
1.064868599487095967e-02 -2.081050969656263461e-01 -8.969260453675469424e-01 1.567531960874537778e-01 -3.292426674838513367e-01 9.311432228312067627e-01
4.469258955325281640e-02 -6.880616933231234467e-02 -8.373284211982020553e-01 5.244905861704362432e-02 -4.704666994132863933e-01 8.808576394590412750e-01
5.192679871985381862e-02 1.197532576420708844e-01 -7.423892077372208353e-01 9.396713351565465222e-02 -3.803738722886418899e-01 9.200466809347204178e-01
6.141101684689071610e-02 8.440684907599683984e-02 -7.580290103272065982e-01 2.027174331850807587e-02 -4.093288837954936477e-01 9.121616749861638507e-01
-7.302155738381989336e-02 4.331055323065242935e-02 -7.778415066840770331e-01 -1.372930045382585520e-02 -4.367128651126528371e-01 8.994961810670163427e-01
1.525721826470916725e-02 -2.005678151200870618e-01 -8.945540010296407774e-01 7.669378144047532542e-02 -3.624669373474869727e-01 9.288357137935070451e-01
-3.865829010929623666e-02 1.172012016791564165e-01 -7.444551065947525581e-01 -1.067852770132968060e-01 -3.802043615954215916e-01 9.187173384872039383e-01
-3.120330914628440325e-02 -1.328906245297950817e-01 -8.690808032955208429e-01 -8.345405908717912213e-02 -3.830072097208661042e-01 9.199678784195186587e-01
-3.385070362824160045e-02 9.320007878128633294e-02 -7.544996266058803247e-01 -8.639255486528406303e-02 -4.002619365749175429e-01 9.123194114964043866e-01
-8.021996304031991931e-02 5.444083823702485642e-02 -7.726786013860257318e-01 -7.187301343758173075e-03 -4.108326567472248558e-01 9.116824396956493270e-01
-4.266052241798987121e-02 -1.050583325618129199e-01 -8.580197729704898135e-01 -5.232704709237439439e-02 -4.009754071991918911e-01 9.145931352049582186e-01
-5.004784369021493540e-02 6.180685482082599186e-02 -7.688635256760780745e-01 -3.429591662577319289e-02 -3.906608827763338732e-01 9.198955727533498772e-01
-2.921705260347203653e-02 5.827285880158124265e-02 -7.688583453653545785e-01 -8.159509432495339054e-02 -3.973983947451426024e-01 9.140113546538062295e-01
3.644774688868993723e-02 1.236478449010423447e-01 -7.386727212029740031e-01 1.340673463420088973e-01 -3.905413034656390892e-01 9.107707927531335512e-01
8.798156099438082800e-02 3.504922401034457624e-02 -7.816818342141523823e-01 -1.033659109956038338e-02 -5.104458922628810624e-01 8.598477457994476714e-01
2.993789010095588383e-04 -3.587356707041625820e-02 -8.154602014912324393e-01 -1.712622527507599024e-01 -4.862856568098907761e-01 8.568520880313639232e-01
-1.194771464261071454e-02 3.534089474572858075e-02 -7.778726122400092535e-01 -1.144825133400508427e-01 -4.585850885783533393e-01 8.812454088804826391e-01
-3.637033926372077591e-03 -1.700822973295681717e-01 -8.802694735449055896e-01 -2.377526055678128303e-01 -3.470841812202976051e-01 9.071969299398845443e-01
7.914896264770622525e-02 -9.779463774087174266e-02 -8.553685658473525466e-01 7.598396243209183665e-02 -4.512705465917194458e-01 8.891464059601935643e-01
2.348445258400003166e-04 -1.337897082401441895e-01 -8.657294466166927105e-01 1.951215374907813993e-01 -3.884271453362373450e-01 9.005842205885995488e-01
-2.468551247780147867e-02 1.153460845031692023e-01 -7.434237499195157639e-01 -1.244460333652287615e-01 -4.066066305997349528e-01 9.050879696095794902e-01
7.859661942779029575e-02 -5.205647030344045384e-02 -8.299651388801049245e-01 3.041264827124626202e-02 -4.892767507487372769e-01 8.715981482322502361e-01
-3.212734692651674634e-02 -2.097394160479881253e-01 -8.991161482077383305e-01 -3.714290145295418791e-03 -2.990762879047007550e-01 9.542219752562089985e-01
-5.051001454334039242e-02 -1.265421816757126561e-01 -8.670274375951798618e-01 1.200946871699658768e-02 -3.652610408110971707e-01 9.308276665026290475e-01
7.699985089675774955e-03 -1.648555357051016690e-01 -8.798443156141405597e-01 1.592002732188765590e-01 -3.552394778590924895e-01 9.211189860042156008e-01
-5.534917359456013874e-02 -9.515899861318999342e-02 -8.540991535597726170e-01 -1.375706639090674803e-02 -4.186888050370780601e-01 9.080255655326781028e-01
9.350414963075280583e-03 1.230460455303951234e-01 -7.334792353619659089e-01 3.346895655811337189e-01 -3.671089575415645845e-01 8.678789708155498772e-01
1.835494626314994673e-02 4.471150380940017849e-02 -7.730666629051541339e-01 1.112471387751057805e-01 -4.705383550513790869e-01 8.753386376368261779e-01
-1.427585819499447607e-02 7.644401694107852419e-02 -7.589892788773429100e-01 -1.636791503501985878e-01 -4.036601979271443597e-01 9.001486434750962662e-01
4.905686360791970332e-03 2.815053738456268495e-01 -7.319946517961420929e-01 1.627181632648700554e-02 4.253994816100463150e-01 9.048593863354353894e-01
6.536764158531095659e-02 2.255641682394450911e-02 -7.891093137918377964e-01 1.255769113044765718e-02 -5.104565721252974919e-01 8.598118354428272436e-01
7.730728647523385511e-02 1.041277811103671555e-02 -7.963633923637081224e-01 -2.061606763729641710e-03 -5.022843486847790029e-01 8.647000536855883324e-01
6.451824881082944552e-02 9.929954399169606261e-02 -7.517952416361559642e-01 6.214583546179714563e-02 -3.664133971931365363e-01 9.283744489655777477e-01
1.902985208446112547e-02 1.547411436442395483e-01 -7.226642214218025329e-01 1.094847500658885087e-01 -4.107477483819117481e-01 9.051515766445970002e-01
8.760501907986615114e-03 7.620346712353023855e-02 -7.554805344165801406e-01 2.440041607016592839e-01 -4.310833846474190767e-01 8.686938960538425070e-01
-8.534476105312764627e-02 -9.380276040180718367e-02 -8.525539458419834071e-01 6.069892209252399778e-02 -3.526629187123544451e-01 9.337796884822934240e-01
-9.976510523594346591e-02 -1.030182898064746846e-02 -8.105686822711634099e-01 -4.502253077408437110e-02 -5.508867605645648702e-01 8.333647153301947386e-01
-1.759033406684095899e-02 -8.983260054231916036e-02 -8.481656464180593602e-01 -1.255624059339972565e-01 -4.371875704620301062e-01 8.905622440063208911e-01
6.604587442504659955e-02 -6.604237732943654682e-02 -8.371571837422688844e-01 6.505248185474497846e-02 -4.895470972994019343e-01 8.695469016276625718e-01
2.936486372655727067e-02 1.353303310533220394e-01 -7.325719917580001406e-01 1.485877647655223233e-01 -3.847462307357091271e-01 9.109840910228073074e-01
5.274419274568450250e-02 1.001699056722739692e-02 -7.960010738434157851e-01 3.898988512118351651e-02 -4.978513500283238691e-01 8.663854927993730470e-01
-9.666704631972251882e-02 -3.607345328633809051e-02 -8.262249377298548358e-01 -3.617663280197750547e-02 -4.732432847054283132e-01 8.801886415538022757e-01
6.343344334001138618e-02 -9.314331036942158359e-02 -8.516304783088629593e-01 7.438367589040700834e-02 -4.576663393388728518e-01 8.860071052746625320e-01
-6.038773022346331266e-03 1.169577490064356989e-01 -7.394345823215061619e-01 -1.818191062817749726e-01 -3.908392478003440695e-01 9.023228330092052385e-01
2.223386228871980161e-02 4.278530545048593592e-02 -7.745920782694427631e-01 1.095513726204180860e-01 -4.717682971425068983e-01 8.748903763147940493e-01
-4.860317677934831299e-02 3.860403663069457425e-02 -7.793925010885778271e-01 -4.247133867416121727e-02 -4.361827212051225811e-01 8.988552826308132682e-01
6.958350716701623695e-03 -2.408880325459371585e-01 -8.995876188018810948e-01 2.635175176059305069e-01 4.964248233730529647e-02 9.633764279149655829e-01
-5.311952270928497338e-02 4.804017789235427022e-02 -7.750698576616289470e-01 -2.507242069254903699e-02 -4.365536795121685021e-01 8.993287822732034531e-01
1.550493541690260713e-02 -1.038016044324382853e-01 -8.535912128160364487e-01 6.940243599828971321e-02 -4.389270823864277471e-01 8.958383326388982271e-01
-9.528846034250602892e-03 -1.986887228875312914e-03 -7.979160048541843464e-01 -1.143112188988489042e-01 -4.898777018066262645e-01 8.642643013028583621e-01
-1.131666842121993935e-02 -8.170771869055205860e-02 -8.430021007165604541e-01 -1.506728355115433404e-01 -4.567305514918584275e-01 8.767524736052100254e-01
6.317434871852019643e-03 1.520474629569336100e-01 -7.227982569610703623e-01 -1.725056627945067422e-01 -3.511441624449468946e-01 9.202931997383577700e-01
-8.612855055408748239e-02 -9.862330031513651118e-02 -8.543294440094522102e-01 6.066527962413560682e-02 -3.539512987863831506e-01 9.332942740291285677e-01
2.470823722930138092e-02 1.008737354637055383e-01 -7.470644759265691048e-01 1.616137273028550314e-01 -4.146449548361055837e-01 8.955169259015949290e-01
5.621593089967150819e-02 8.602861374648156090e-02 -7.571807888097856765e-01 3.951719313328636712e-02 -4.030206693411710894e-01 9.143373182423765178e-01
-5.783275242031743479e-02 -5.092993164000231276e-02 -8.321254594253417736e-01 -6.058079876860082702e-02 -4.890399657767037778e-01 8.701550888742066725e-01
-4.558094708052810168e-02 7.406855164302370009e-02 -7.635127592130298568e-01 -3.419645572800820293e-02 -3.876317976730628279e-01 9.211797825877380275e-01
-9.509557872419884678e-03 -1.446726409149603869e-02 -8.050815323330439144e-01 -1.208625976822837039e-01 -4.947718956226723752e-01 8.605771341276957642e-01
-4.686576581140057540e-02 2.070131669858527729e-02 -7.887800848848864899e-01 -6.351209544016345188e-02 -4.763041625697922443e-01 8.769837846000851922e-01
-1.513470690170757617e-02 1.408739519737657320e-01 -7.310516148917023393e-01 -1.606505838434353628e-01 -3.747571223789372130e-01 9.130982910601803670e-01
1.408017944786170948e-02 5.931454930620839311e-02 -7.649960882416517727e-01 1.539404578774913046e-01 -4.435835777835828719e-01 8.829133281071165351e-01
-7.882951135172182322e-02 -2.015046710368813970e-02 -8.157092142521514821e-01 -5.567887299126360323e-02 -5.376710908946208400e-01 8.413142463542451210e-01
9.417290710439748733e-03 1.576835970193059822e-01 -7.197071840629590822e-01 -5.769862235479522594e-01 -2.706262845219205571e-01 7.706155409552374325e-01
3.235890455262012411e-02 1.839835013953309770e-02 -7.894193850662977185e-01 1.001530839321708305e-01 -4.932934496005148550e-01 8.640780823282696588e-01
-7.642381432168601774e-02 -6.134375590266488015e-02 -8.385136029152593373e-01 1.558162769183889847e-03 -4.419505729531098548e-01 8.970380500264205637e-01
3.839529996404178469e-02 -1.052346182104829941e-01 -8.558606577984932962e-01 6.099297058446914027e-02 -4.466812369407988648e-01 8.926117465641600912e-01
-4.759235742180716738e-02 2.484354409443526382e-02 -7.865550844177282563e-01 -4.231475925440281866e-02 -4.794169705909164247e-01 8.765665003059783800e-01
-1.857065885316079318e-03 1.738256402480958529e-01 -7.177317569085501781e-01 -1.467040895537121414e-01 -1.138191984457390393e-01 9.826103501253109496e-01
-2.126898908885801673e-02 7.128971202711663346e-02 -7.623281467846793058e-01 -1.209301198292911939e-01 -3.836537609836854212e-01 9.155248209639902379e-01
4.264274089067359580e-02 1.284811163875728135e-01 -7.375000963860284253e-01 1.239446965972170606e-01 -3.903978787327918587e-01 9.122648784571070202e-01
2.616218635922377619e-02 8.824733277190903447e-02 -7.532273449945702248e-01 1.391047002214280404e-01 -4.231487193608227670e-01 8.953184035188834766e-01
-6.956874044759360498e-02 -7.934970493383115830e-02 -8.470508508635503642e-01 4.521331597097941364e-03 -4.175952013978135868e-01 9.086219265074494400e-01
1.939967346433573228e-02 -1.862530998112616742e-01 -8.893429906574860100e-01 3.208902881881892794e-02 -3.502262693458419451e-01 9.361152997839309320e-01
-5.431412191243000648e-02 -1.298912435029655754e-01 -8.682071624395076848e-01 4.897697616061386788e-02 -3.564520923378972639e-01 9.330290250973427568e-01
-8.660427514966316520e-02 9.763670619778386933e-03 -7.966980834951858936e-01 -2.183619775854912098e-02 -5.167855644216128308e-01 8.558363516893194856e-01
-2.549218658288371700e-02 -1.769328987558013988e-01 -8.863978351525608756e-01 -7.693492678574871679e-02 -3.746418947836808178e-01 9.239721141427185147e-01
-4.375142944755805452e-02 -1.467707498784106834e-01 -8.750586248117143695e-01 6.243407189333847508e-03 -3.645907037029209596e-01 9.311469479303883245e-01
-2.352340096689878660e-02 1.329322209238259500e-01 -7.357475856484859689e-01 -1.544199531621631150e-01 -3.634198335929844648e-01 9.187385387675011117e-01
1.632711744243467780e-02 6.300611581873780120e-02 -7.635331772441295017e-01 1.539404578774913046e-01 -4.435835777835828719e-01 8.829133281071165351e-01
6.330751175327616054e-03 2.191302309826917150e-01 -7.146554442583300526e-01 -5.051137802598935078e-01 9.078111383556389247e-02 8.582650280433977708e-01
5.139080400203345500e-02 3.344121225437266670e-02 -7.823112048449454292e-01 3.395071138147540135e-02 -5.034783141916961968e-01 8.633405679888902506e-01
-3.362832927378717196e-02 -1.616167784259250062e-01 -8.808250297287716357e-01 -5.875040720295013341e-02 -3.760309169740599922e-01 9.247427421359604161e-01
1.874351618666217703e-02 7.418402554401630489e-02 -7.585565130665762323e-01 1.488395854539608099e-01 -4.242822276920847901e-01 8.932140667648126309e-01
2.123647185985969715e-02 -1.224138072074306971e-01 -8.630158972276732454e-01 7.078302023213706162e-02 -4.291436085431333258e-01 9.004585094791403010e-01
1.549677322690611037e-02 1.502651448036001480e-01 -7.240259855028151614e-01 1.534833083028367962e-01 -3.710477326585797653e-01 9.158419373239815586e-01
2.407017310690808681e-02 1.327597236312212103e-01 -7.327528620147855110e-01 1.625139300614840132e-01 -3.787882527173976333e-01 9.111030030349323017e-01
3.379704679181667892e-02 -1.636719316782158373e-01 -8.809873653529457505e-01 -2.053154495589249937e-02 -3.514309412675836186e-01 9.359886479982032492e-01
-5.146593333437790574e-02 -1.429405762889359929e-02 -8.099010282519150117e-01 -6.831879453296896276e-02 -5.238704301336422064e-01 8.490537761208972745e-01
-4.313581027514226673e-02 1.099461111919981804e-01 -7.479832043959762089e-01 -1.068088979389156395e-01 -3.808825963939341808e-01 9.184336160470663035e-01
-7.183368349660247676e-02 5.486789272620185010e-02 -7.724134604749164357e-01 -1.468973481329777057e-02 -4.083526164387631385e-01 9.127060602070807827e-01
1.523666852816077215e-02 1.316419652140494653e-02 -7.900133039137197111e-01 1.426049189702003339e-01 -4.868818557489550392e-01 8.617481625323933914e-01
-1.965210394942661087e-02 -1.828822539328019692e-01 -8.881420967549616963e-01 -1.139965206756990979e-01 -3.708174696924469993e-01 9.216828073934797416e-01
7.139076152663254016e-02 -9.894437005661685380e-02 -8.552928671300643604e-01 7.513228501694425854e-02 -4.354936581188370570e-01 8.970509536734276868e-01
7.031189719452730913e-02 1.990448021318843089e-02 -7.907638389742567275e-01 1.381409699810994679e-02 -5.114406885275067927e-01 8.592075377012452497e-01
-4.591233140295289394e-02 -2.386667564963936353e-02 -8.151945939472884373e-01 -9.152912578788044429e-02 -5.160179702996158246e-01 8.516735721274738546e-01
4.760662267254445190e-02 -1.373843693243797515e-01 -8.711403591035429272e-01 1.066203533092927730e-02 -3.705576517682167004e-01 9.287482692950911334e-01
2.129370537194681667e-02 1.531463202308988025e-01 -7.236763540945017059e-01 1.407310259260269869e-01 -3.972911658454725270e-01 9.068376414127023999e-01
-4.018626434358329308e-02 -1.849891777784188340e-01 -8.901535363815684665e-01 1.272016989668524681e-02 -3.686558907820180475e-01 9.294789031868966322e-01
-3.017155932751313871e-02 -8.488294998039040695e-02 -8.474762122704829759e-01 -1.044072216790155744e-01 -4.348390070581128475e-01 8.944351122367589779e-01
-1.747427250383497624e-02 -2.094222909074221484e-01 -8.982261206217048155e-01 -1.486843046641429800e-01 -3.450540927713902084e-01 9.267311641507762765e-01
-6.397561553504357845e-02 -1.578761613676578357e-01 -8.781907806362827529e-01 7.032721305683663215e-02 -3.695807315204255872e-01 9.265334133168029451e-01
-8.577390496895959116e-02 -2.958849342017223424e-02 -8.219376860834982645e-01 -5.508571501352466787e-02 -5.209044181463635681e-01 8.518357536268639230e-01
2.947304616912356252e-03 -1.230666802640674878e-01 -8.614944947688515375e-01 1.275958894134202048e-01 -4.122089042473665588e-01 9.021103636828390337e-01
8.554947754669091353e-02 4.396672083691711974e-02 -7.766907672564177245e-01 -9.676948114191480377e-03 -4.898081541652817839e-01 8.717765360391359630e-01
-4.478336367886361427e-03 8.108745984196264953e-03 -7.915149613273554374e-01 -1.316412240963261981e-01 -4.789169945652099747e-01 8.679338110910576054e-01
-6.332941204971370523e-03 -1.284350769337302273e-02 -8.036562805632879725e-01 -1.429722910651714807e-01 -4.924932882207799234e-01 8.584924490320575696e-01
1.553393031838412770e-02 -4.825753048150935309e-02 -8.243483739218531170e-01 7.838328467471941674e-02 -4.878845392064890540e-01 8.693818131792694359e-01
-4.594969987486038215e-02 -4.578609635444676890e-02 -8.281879009172993245e-01 -9.486820553333479011e-02 -4.917727919265078018e-01 8.655400306743141758e-01
-5.958629570662102304e-02 -2.171571245733412009e-02 -8.152024879628163578e-01 -7.533251881098185221e-02 -5.170525961572425278e-01 8.526321741622520101e-01
8.207781083532214583e-02 2.725956624592376296e-02 -7.863720474912985203e-01 -2.802507748394204769e-03 -5.092809367012487431e-01 8.605957665844162774e-01
-8.035368259845321326e-02 -8.137606882694486954e-02 -8.477532837394287091e-01 2.641229605760170990e-02 -4.151256814290047448e-01 9.093805909711678570e-01
-2.712835925902616976e-02 1.251569340900075267e-01 -7.395575469607945651e-01 -1.404923745922747325e-01 -3.884013683734962585e-01 9.107174477998210005e-01
4.823174417008181843e-04 1.485416530571033455e-01 -7.251833457043924680e-01 -1.463315090898059667e-01 -3.725607494033164602e-01 9.163981544348175357e-01
8.948150469702854937e-02 4.206991791423724675e-02 -7.777128511952391410e-01 -9.673414909166915335e-03 -4.898105906228601980e-01 8.717752063219509351e-01
7.014478383510006076e-02 -2.894584413827276659e-02 -8.171428762524856060e-01 1.571191651896578292e-02 -4.593002936565766525e-01 8.881420921937455137e-01
9.640537722325068226e-02 -3.192655167274702221e-02 -8.190197778362764414e-01 -2.011890296395477291e-03 -4.826812758732132447e-01 8.757937760790736048e-01
7.802451992481379550e-02 -7.568306794965395934e-02 -8.434914196659186736e-01 6.800800240919714634e-02 -4.849242817423098373e-01 8.719078807907495454e-01
5.179484271942581125e-02 -3.243132626916246652e-02 -8.183989568357430411e-01 3.327177188459559676e-02 -4.584093671584372198e-01 8.881181460239739867e-01
2.429166029399698612e-02 -4.562924723884418526e-02 -8.235985697100212111e-01 7.858511885244981454e-02 -4.740057612858121772e-01 8.770079346065259296e-01
-4.814798660234378969e-02 -1.230924985858377618e-01 -8.656860278282539900e-01 8.678342074007071652e-03 -3.679775561041115917e-01 9.297941732353950384e-01
6.113784709860472372e-02 -2.521055173832260216e-02 -8.150228970266739648e-01 3.336863596221278233e-02 -4.551355045573635683e-01 8.897967220805748090e-01
-2.804795468100620970e-02 -1.931616983452145164e-01 -8.931207889984370540e-01 -7.144754319839514978e-02 -3.677414350484400352e-01 9.271793168095520121e-01
8.387196191505211229e-02 -3.403117105272763371e-02 -8.200660746591217354e-01 4.101035296131267348e-03 -4.729642967844345236e-01 8.810720489702902336e-01
-2.657854867123827028e-03 -2.187468792435686427e-01 -8.970501855401789015e-01 -3.719065624981968687e-01 -2.379701546115271515e-01 8.972489700662469314e-01
-2.832164471187452741e-04 -1.443478616149485860e-01 -8.700399278567140238e-01 1.956784663445115258e-01 -3.712206534425605553e-01 9.076922189083357351e-01
4.377223191245588341e-02 9.494990555190996329e-02 -7.524261321872394159e-01 8.546599679430200158e-02 -4.126220320991564883e-01 9.068840179528577794e-01
-1.740584517498873496e-02 1.194561640587070289e-01 -7.404512234301893203e-01 -1.410226264031872734e-01 -4.050335968637709949e-01 9.033606169487042870e-01
2.443360888851729522e-03 9.327735022432687151e-02 -7.478483797997612648e-01 -2.479772116018235106e-01 -3.953724947383367438e-01 8.844138697072589927e-01
7.873239147613120921e-04 -7.365094163385162152e-02 -8.367800950581760766e-01 1.632466207389166868e-01 -4.619105214428271822e-01 8.717736007689956823e-01
-3.984211924377693836e-02 -1.920956634708936156e-02 -8.117230721695661844e-01 -9.151600513787365443e-02 -5.155871568734948784e-01 8.519358570166600808e-01
-3.085016650379839021e-02 -2.535183391305141989e-02 -8.143429551147889356e-01 -1.043142783692159875e-01 -5.112621111971514809e-01 8.530706799454201850e-01
-6.924283814462520170e-02 -3.332665853531106316e-03 -8.043447650473181110e-01 -4.661320649562434443e-02 -5.423317182366049760e-01 8.388703811523734455e-01
-3.199424907309587202e-02 -1.468564881963203839e-01 -8.747974714990609524e-01 -4.683164803239400764e-02 -3.755844177656421645e-01 9.256042036822292873e-01
4.936685781707506743e-02 1.225701949710318595e-01 -7.409397570462563642e-01 1.243191188754871890e-01 -3.765118467391888601e-01 9.180324536458766005e-01
7.986760196307145232e-02 -6.162360022007581234e-02 -8.355795676812970418e-01 4.993975508745289449e-02 -5.008367011412852010e-01 8.640998898574863141e-01
-6.610105640471086730e-02 -5.304940029590574785e-02 -8.338676994012749200e-01 -3.793028124223268849e-02 -4.804627966968687547e-01 8.761944959625739271e-01
-5.244404823085959538e-02 8.568448735879270056e-03 -7.959964733586819552e-01 -4.976704549143665807e-02 -5.018053115903672312e-01 8.635477233151321874e-01
3.006681410597739079e-02 4.677042834755779782e-02 -7.733737430527783951e-01 8.949390288231172386e-02 -4.491046442193558641e-01 8.889858603417138960e-01
-4.559568057428355775e-02 -7.248566342009091223e-02 -8.427475600929170696e-01 -8.189498474241826975e-02 -4.492319835607689882e-01 8.896537733411219451e-01
4.634976409653967372e-02 -1.582505617555864663e-01 -8.785807562767167234e-01 -4.274825152668187966e-02 -3.088548739651258423e-01 9.501480167949613032e-01
-3.603212776349446270e-03 1.997790677467834175e-01 -7.153424601681795947e-01 -2.141601050683765717e-01 6.191054997119453673e-02 9.748346183837370837e-01
2.929997838817637035e-03 2.182252130425004488e-01 -7.154216618207389633e-01 -1.786979218235333344e-01 9.885667105967933799e-02 9.789251306013900811e-01
-2.559943520731362138e-02 9.602739743326492439e-02 -7.522703806323558506e-01 -1.415203461774122984e-01 -4.120505936928581248e-01 9.001034939689926961e-01
7.642076190849218797e-02 -6.704492059349922983e-02 -8.385161617056374750e-01 6.783862090262519906e-02 -4.898192327291202575e-01 8.691806721060275631e-01
