3.504056614073087703e-03 -8.365028528977364042e-02 -8.157641069793323263e-01 9.791958827599864801e-01 -7.169043220815431161e-02 1.898312543173512057e-01
9.062326302315725293e-03 -6.001490294649842322e-02 -8.304546541431593321e-01 9.721793663375312144e-01 -1.072770751299690350e-01 2.082280212150015852e-01
1.744935383135095414e-02 8.954262832429839281e-02 -7.887948592706385265e-01 9.610732627386616711e-01 -7.162546564655701553e-02 2.668482271250408044e-01
-2.132340112681305883e-02 2.120943557787937084e-01 -6.800029753276810585e-01 8.370113920621908843e-01 3.869383594264265147e-01 3.868987407093733566e-01
-2.848531148260970841e-02 -2.478336636629872164e-02 -6.761896864870583501e-01 9.521428592618418341e-01 -1.922184684797238197e-01 2.376468723379162040e-01
1.593597029393644532e-02 -1.361398659688905222e-01 -8.794646584536978118e-01 9.380605367378920256e-01 9.580528784532853226e-03 3.463389133251228436e-01
-5.246737934255947360e-03 5.221008092534434875e-02 -7.162792088446606753e-01 9.211771845488773147e-01 -1.149115792082108650e-01 3.717901607499569105e-01
-1.348309961904563432e-02 -1.292595415006390080e-01 -7.872935987991116491e-01 9.383456815037113374e-01 -7.098859354717583503e-02 3.383312010287100602e-01
-1.334501408518854078e-02 -1.612356393997026460e-01 -7.912633047166234279e-01 9.649140846474973943e-01 1.485137361924574817e-03 2.625616187029222171e-01
2.131238179110379535e-02 -3.296043463534388540e-02 -8.752401917640472151e-01 9.750789792411950208e-01 -1.346411057262653643e-01 1.763313837374327619e-01
5.120369015220962126e-03 1.469031307096531347e-01 -7.265378766179989567e-01 9.863862353166096275e-01 1.544623431748103418e-02 1.637180766541543042e-01
-1.527083768494150000e-02 7.229048682400879278e-02 -6.865470868231166035e-01 9.382075491464707540e-01 -8.548767468094607691e-02 3.353482551053715288e-01
-1.742430031041148145e-02 9.859396956787250255e-02 -6.739709764980210682e-01 9.180590178854968197e-01 -9.053781632486759823e-02 3.859670238430242262e-01
8.260414323606957848e-03 1.741219710628819431e-02 -7.836195702004939978e-01 9.860882006050667448e-01 -9.859463953661859459e-02 1.338251010913345529e-01
3.717631291272062780e-03 -1.175163726942479725e-01 -8.263732371856528092e-01 9.910843111015951168e-01 1.224098788275979283e-03 1.332305890943701332e-01
-2.546879789223492618e-02 -1.260990627872981273e-01 -7.466556829652760685e-01 9.654518445409755456e-01 -1.230529458223086903e-02 2.602908288773779222e-01
-4.306528198346827249e-03 -5.496314425483789928e-02 -7.774260539255932745e-01 9.078460064206217428e-01 -2.129720844689634296e-01 3.611904205029158876e-01
1.884735261053906152e-02 -6.150111490003853931e-02 -8.792393103377037500e-01 9.769479149818129926e-01 -8.328701447850338224e-02 1.965605368123150565e-01
-2.262275702668841565e-02 -1.242644074691367229e-01 -7.566062391690843159e-01 9.564786873856963023e-01 -5.192348937931164088e-02 2.871453844790336496e-01
2.595354572754896005e-02 2.742956098419399927e-02 -8.568564349369116595e-01 9.564738750164356595e-01 -1.269607528814077346e-01 2.627521524913354889e-01
-3.319644239004089156e-03 1.028807230103627318e-01 -7.045287879445871759e-01 8.885875872735801151e-01 -1.469472905222348191e-01 4.345326150607008997e-01
6.859564333625131280e-03 -4.819173727014176151e-02 -8.137751090372196128e-01 9.734663635377698299e-01 -1.135909694305178436e-01 1.986462451806871865e-01
-1.496621308612479731e-02 -2.658946187255449220e-02 -7.274207332843363183e-01 9.291975657567973501e-01 -2.208451717003793724e-01 2.963432029392144562e-01
1.810666153772604037e-02 2.955172249199434012e-02 -8.264166421829421960e-01 9.623512093235024878e-01 -1.302730572917145946e-01 2.385562417071957486e-01
1.675960815378579882e-02 -8.240563308659994146e-02 -8.765382581908606197e-01 9.765225957624240616e-01 -6.395975280407190100e-02 2.057006805692660756e-01
7.694305735364115328e-03 1.172032542240319525e-01 -7.428425746700980659e-01 9.866577294937310949e-01 -1.492591344829249760e-02 1.621226139007432010e-01
5.166987163113458126e-03 -1.024347900884375884e-01 -8.306378808693407612e-01 9.749808333456160270e-01 -7.049647812827289362e-02 2.108141863826957507e-01
1.926611341653011733e-02 -6.421211695638483208e-02 -8.824807680621065131e-01 9.782898231329713035e-01 -8.183786754929507634e-02 1.903984910377279904e-01
-7.451394868354148208e-03 -3.191696975359556432e-02 -7.540783092559234513e-01 9.179864791601527463e-01 -2.214339413647245791e-01 3.290407781580118041e-01
5.738673779288707040e-03 9.000902727076849977e-03 -7.691194299745216512e-01 9.922436996141222876e-01 -8.112215356741511729e-02 9.418936657958836001e-02
-6.899207573858030622e-03 -7.826120016715553199e-03 -7.395669419643950970e-01 9.308289268328727717e-01 -1.983099342366214657e-01 3.069701597130073956e-01
-1.200307977269393081e-03 4.674961609856584377e-02 -7.280317026006534187e-01 9.148191875808477924e-01 -1.452988009214974119e-01 3.768210616256641443e-01
-4.252869949932710884e-03 -1.750916195662628183e-01 -8.211139922837746852e-01 9.349729470233795192e-01 -6.408637973835426549e-02 3.488818199139190335e-01
-5.886040890380283760e-03 -1.646543978837539390e-01 -8.149780328563109855e-01 9.380528121036848521e-01 -5.005317039608035701e-02 3.428579907741247657e-01
-1.333444240973610112e-02 -9.547504457810282452e-02 -7.760719487822458351e-01 9.213814805159386001e-01 -1.661561438578562921e-01 3.513521071810221108e-01
4.350054094628863673e-03 -2.233518562780451855e-01 -8.486867163957266813e-01 9.256822381555991353e-01 1.022365694521296803e-01 3.642253119017133667e-01
2.189709817640275030e-02 -5.124189460256525774e-02 -8.903611716305742663e-01 9.771886413733167354e-01 -7.932290789623792915e-02 1.970031356447313198e-01
2.540714469061162301e-02 3.879964782076074977e-03 -8.670905569656044420e-01 9.611986584434805136e-01 -1.294501897920291578e-01 2.435975931105655301e-01
1.435557989237517748e-02 -6.462952995667228806e-02 -8.580775924246596409e-01 9.755984413645079067e-01 -9.017032828002696787e-02 2.001923902275381528e-01
1.822021407080814601e-02 -6.793247984249319027e-02 -8.788474081534435323e-01 9.769479149818129926e-01 -8.328701447850338224e-02 1.965605368123150565e-01
-3.733613481372194919e-03 -1.184339061449392848e-03 -7.446875423340214573e-01 9.265719990917229421e-01 -1.901450629503545486e-01 3.245137678662859959e-01
-2.298860987878704847e-03 9.794502064546699305e-02 -7.082472291233042894e-01 8.808320008860852646e-01 -1.566083972420604653e-01 4.467760021848630192e-01
9.169065976412186028e-03 3.815431513636443478e-02 -7.748718952822175599e-01 9.849467111229350813e-01 -9.978247629556333265e-02 1.411503938090111210e-01
-2.125810079780128536e-02 -1.655601907446167462e-02 -6.978956292583294863e-01 9.466943695191621932e-01 -1.860985101604417657e-01 2.629393755921313192e-01
3.539930200089346293e-03 1.289269275837660322e-01 -7.085484157637612634e-01 8.087011409910587201e-01 -1.703404129731099781e-01 5.630156376761753512e-01
-2.223681653146284201e-02 -7.246534670219489938e-02 -7.373530026662580283e-01 9.347082741277820128e-01 -1.977975024231279910e-01 2.952906878183524930e-01
2.156690616989578521e-03 6.949606793837807828e-02 -7.271455606477926770e-01 8.976833939130207662e-01 -1.527425732191312613e-01 4.133209777148973973e-01
-1.235470763891037842e-04 1.654173859242731304e-01 -6.972798905424422156e-01 9.725702143709143987e-01 -4.606905973615954553e-02 2.280017979173410148e-01
6.771611615424252655e-03 4.913216633173778797e-02 -7.513038520652781660e-01 9.912471239269152745e-01 -6.271380897036794855e-02 1.161727914403661577e-01
1.046469929058090401e-02 -5.831130188383524399e-02 -8.361439513188392292e-01 9.728510349311561001e-01 -1.031671193136550063e-01 2.071651740179814849e-01
-1.047776730348422107e-02 2.390431811723118735e-02 -7.120270798780724553e-01 9.370360117806392219e-01 -1.215306671897976448e-01 3.274046572036452551e-01
-5.725349973992446828e-03 -5.055309901273775247e-02 -7.709844758942742127e-01 9.137207352487759504e-01 -2.154165247570859754e-01 3.445433772952484763e-01
2.226338060021625792e-02 9.291638172559565922e-02 -8.042814476330395479e-01 9.548567357313131332e-01 -8.473172853607982558e-02 2.847264448691571026e-01
-1.984606261516774772e-02 -2.369297613185640528e-02 -7.084605528539661412e-01 9.424953571388574591e-01 -2.055669708346438140e-01 2.635236654905329101e-01
1.446747700256120631e-03 -1.530703801588639661e-02 -7.676266586249339552e-01 9.073970355917528874e-01 -2.196386183500342315e-01 3.583148017157359866e-01
2.076010547919916044e-02 6.943965581842549695e-02 -8.099498355938251626e-01 9.575827932901670447e-01 -1.502431326633564546e-01 2.458906160919979988e-01
1.738273728953821165e-02 5.024128076074883473e-03 -8.350888933054636531e-01 9.627552727917992881e-01 -1.104456553937419039e-01 2.467874427847470409e-01
-2.749632714308352169e-02 -9.782373821235128275e-02 -7.327054008462744461e-01 9.584410922134379840e-01 -1.017409936224905193e-01 2.665322550338334873e-01
-9.345964688230349454e-03 -4.418241862861817248e-02 -7.569541342623209434e-01 9.203493270492629774e-01 -2.176083452410877139e-01 3.249672664768012420e-01
5.395321408087647673e-03 -2.146233008364548667e-01 -8.519677138928142268e-01 9.132358448312926091e-01 -5.273113713945699194e-02 4.040046025619697390e-01
-1.377775992518889695e-03 -1.013339948074792052e-01 -8.080613783216527013e-01 8.944950123967972955e-01 -1.769449488015095162e-01 4.105717451200024404e-01
1.048529567680018225e-02 3.112656745822015014e-02 -7.884771114750849241e-01 9.818457817499046669e-01 -1.109279460825522284e-01 1.538630938133798975e-01
6.414296770151084286e-03 1.311359581799591105e-02 -7.723461744872884838e-01 9.892057099963069700e-01 -8.860191858999445780e-02 1.167123101171169269e-01
-2.336935970400914539e-02 4.210473858117683849e-02 -6.684712376961060576e-01 9.516615630933892289e-01 -4.682361973706535702e-02 3.035585906630970943e-01
-2.283800324673717838e-02 -1.561218978905497823e-01 -7.547090459722141098e-01 9.675593613025503803e-01 3.508026543603892655e-02 2.501964374901006760e-01
-1.216324913711434690e-02 -6.856598464115916391e-02 -7.647059181307845899e-01 9.198251149219496270e-01 -2.034994419062179927e-01 3.354247085452711219e-01
9.448825553631199151e-03 9.209131286561116070e-02 -7.561793230937873256e-01 9.817257798050034179e-01 -2.465111218649207112e-02 1.886976839662501126e-01
-3.502516292176524951e-03 1.138120085760899181e-02 -7.381609245242346518e-01 9.277791190033540802e-01 -1.753702061064855433e-01 3.293496578888903681e-01
1.416720753216257206e-02 -1.467277609172281316e-03 -8.247883285060155778e-01 9.673283201507274498e-01 -1.011131316230778759e-01 2.324909797126458177e-01
1.052452257159632205e-02 6.048216816716266153e-02 -7.691171630597786191e-01 9.799841684582153434e-01 -9.632518223774566568e-02 1.742196568649053146e-01
-2.466052471081571842e-02 -1.001790787973090985e-01 -7.434938859175538317e-01 9.530563099148416928e-01 -1.112146539273274615e-01 2.816291371348672579e-01
-3.111175859363035038e-03 -8.800832646524853198e-02 -7.982341663340699611e-01 9.040477261989564584e-01 -1.882531241824212942e-01 3.837427132729097079e-01
9.980691445715434915e-03 5.341367433901795386e-02 -7.699662524514486739e-01 9.799841684582153434e-01 -9.632518223774566568e-02 1.742196568649053146e-01
-1.902997484436608905e-02 -1.619075675708646911e-01 -7.692202760007217366e-01 9.711103798588902603e-01 3.800003023249516609e-02 2.355857122846190810e-01
1.894655083012747668e-02 -4.979888761181418960e-02 -8.739575750148735889e-01 9.777264960200944266e-01 -1.066056757469679706e-01 1.807930553942839191e-01
1.496611945661652232e-02 4.150299862509101989e-02 -8.050464020105134733e-01 9.678751399803487976e-01 -1.522203549009613355e-01 2.001166583816689770e-01
2.207598187308340218e-02 -1.330884768740846213e-01 -8.947583302871664479e-01 8.935860071436950713e-01 5.542192664066786928e-02 4.454575825871914252e-01
2.249129794360211002e-02 5.771689357197482516e-03 -8.546532650183581437e-01 9.596364736613876012e-01 -1.316892161448505461e-01 2.485071201593466728e-01
6.249517512180197132e-03 5.640959295829005987e-02 -7.430652100321266662e-01 9.964819071683883589e-01 -3.246023961854012374e-02 7.726669094738190802e-02
1.191149549261790418e-02 -3.696840598396333721e-02 -8.319079358798282531e-01 9.721107056742332997e-01 -1.090691138154758905e-01 2.076167245793332505e-01
1.480933337561733502e-02 4.778251561329781988e-03 -8.247339912569038312e-01 9.678126690939291565e-01 -1.019960856662519427e-01 2.300770219949117290e-01
-3.286896658841004931e-02 -1.098528244613262567e-01 -7.181060817121247553e-01 9.522605012623188703e-01 -7.285696359243089282e-02 2.964655133261346887e-01
8.076073253440230193e-03 -4.609664826093517326e-02 -8.186490761190182708e-01 9.734957108127717529e-01 -1.082495997787749908e-01 2.014649477623128015e-01
-2.651111657048007067e-02 -2.984842219708477504e-02 -6.879939103945145185e-01 9.481439184313366075e-01 -2.171525342684511861e-01 2.320945643535409497e-01
1.058867200579693968e-02 -7.918464288410382440e-03 -8.112829276367429232e-01 9.797276826580003650e-01 -8.585163599445476412e-02 1.810059789914685857e-01
-1.883453310097729302e-02 6.376863617162878417e-02 -6.784668707195546933e-01 9.439898492184873868e-01 -6.524360523230898767e-02 3.234601003968624044e-01
-1.950435650311476213e-02 2.033349562984770875e-01 -6.729837710432649001e-01 7.290276694690267512e-01 2.586003170985466948e-01 6.337543160761041072e-01
3.980097594528548069e-03 6.755163636968142260e-02 -7.315650297751363773e-01 8.739005017172127854e-01 -1.781708078094207670e-01 4.522754430023173122e-01
1.276513800361927901e-02 -1.471039851465551218e-01 -8.707233102871901886e-01 9.626162028778613156e-01 -9.831450295010327189e-03 2.706905771210085798e-01
1.520603278688583207e-02 -3.947361046212458785e-02 -8.486213081126270374e-01 9.740871013576365423e-01 -1.128084580618726462e-01 1.960320656382018023e-01
3.360559660956626612e-03 1.697592244287810664e-02 -7.536831181435397209e-01 9.130440239903400146e-01 -1.917025011791835820e-01 3.600010573556313709e-01
7.896858448749611778e-03 7.514594420958073395e-04 -7.915653904144513975e-01 9.853973256338096620e-01 -8.493358905193258701e-02 1.475750523784186696e-01
-1.245728592585761260e-03 -9.994697300897203984e-02 -8.077512966806327244e-01 8.944950123967972955e-01 -1.769449488015095162e-01 4.105717451200024404e-01
4.566329740547071629e-03 1.412363691559556378e-01 -7.226523937120379326e-01 9.885330412792192600e-01 1.844014745381458709e-02 1.498745717629883789e-01
2.545044300677130975e-03 -1.644778489888242545e-01 -8.353643079691085438e-01 9.022599081367603802e-01 -9.525543051059026656e-02 4.205394881902137505e-01
1.733515179555342872e-02 -6.310352222656344379e-02 -8.722944665520560026e-01 9.778721288983217574e-01 -8.527982621759555570e-02 1.910325908429251762e-01
1.635229307422272557e-02 -4.204890963649227792e-02 -8.556035099636309926e-01 9.717439790449811099e-01 -1.161847795500189212e-01 2.054622500381536321e-01
-1.240877793598264139e-02 -3.436707435164992192e-02 -7.411881682865512078e-01 9.269311783574842867e-01 -2.185565672195121101e-01 3.050108481907298219e-01
5.860003235647052999e-03 -6.979253217084446792e-02 -8.203743565672022564e-01 9.724799244130019060e-01 -1.010454108723618377e-01 2.099348031063870135e-01
-2.012924329166805235e-02 2.096950843168852163e-01 -6.800033469312710688e-01 8.450595674888238262e-01 4.360421931850543276e-01 3.094212874996967177e-01
-7.292152754563335955e-03 -8.660233410917317354e-02 -7.874508448485993961e-01 9.126471209527799999e-01 -1.795285276331988755e-01 3.672121190571702720e-01
3.334395892355472915e-03 2.474816256362409594e-02 -7.494816249206628367e-01 9.122351525377606629e-01 -1.917023168358395202e-01 3.620459200076422412e-01
5.318192564398811772e-03 1.004397103565610599e-01 -7.239473829207652145e-01 9.991393182118636362e-01 4.123599747516099728e-02 4.496144499557829660e-03
3.342700309849906681e-03 2.328815686336436694e-02 -7.502765239817191789e-01 9.130440239903400146e-01 -1.917025011791835820e-01 3.600010573556313709e-01
1.306029914726395368e-02 -2.115836226609603132e-01 -8.649964642486130950e-01 8.171963067182911322e-01 -9.859525122432626076e-02 5.678636920265254240e-01
-2.563329054887915348e-02 -1.391443892162073093e-01 -7.460817074816218364e-01 9.663093260223061254e-01 9.628214300522644487e-03 2.572033902025780971e-01
2.557697168002555366e-02 3.001868641152137009e-03 -8.683250539321424322e-01 9.605995063392787081e-01 -1.524602625161869951e-01 2.323885900259075044e-01
6.227648635660463193e-03 -1.219259494230279586e-02 -7.890275993189228565e-01 9.836913125643721445e-01 -9.564912777374455499e-02 1.523241475981543525e-01
-3.572472227870469863e-02 2.305375540687688296e-01 -6.681727533652974671e-01 8.117967982955972550e-01 4.258827837388907689e-01 3.995119682710775999e-01
1.581707335756368793e-02 -3.284505905619519717e-02 -8.478696341983177343e-01 9.694289699335846278e-01 -1.205713451409502895e-01 2.137054584806175328e-01
1.457271424612565335e-02 2.412534994661493307e-02 -8.144167103840689315e-01 9.685968997217123677e-01 -1.207719272863755217e-01 2.173342757804699599e-01
2.148713038058095316e-03 -1.012553007825344742e-01 -8.152438212838205578e-01 8.550155340682503713e-01 -1.929125868257498821e-01 4.813867160051074623e-01
9.292634265969742027e-03 -4.360082588526750791e-02 -8.231192624066043795e-01 9.725702622638955352e-01 -1.069194371491101192e-01 2.065800545058864846e-01
1.836931007604717531e-02 -7.302695489516485006e-02 -8.812332092738925926e-01 9.722496756305031296e-01 -5.609551405624513265e-02 2.271208082478282098e-01
6.551156221228658476e-03 -1.970746265047699508e-01 -8.508096959222755107e-01 8.910089169282260357e-01 -1.033380395709879579e-01 4.420682747404685586e-01
1.462905069019487629e-02 8.069470830037614451e-02 -7.807333941031588953e-01 9.671007596746654666e-01 -6.081606691561135952e-02 2.470172598050602852e-01
4.361096285504159446e-03 1.260002741850450164e-02 -7.584754609095507583e-01 8.984855046889870245e-01 -2.123817639279169389e-01 3.842105987796834987e-01
1.502843273882532339e-02 1.993592906790836450e-02 -8.187002651645125528e-01 9.686904735604202621e-01 -1.035070559843535715e-01 2.256658055504658089e-01
-3.409284443124560582e-02 -7.857615793960573414e-02 -7.021113297305902057e-01 9.431158887602477670e-01 -1.665054344409247211e-01 2.877644186997535547e-01
-3.230617323253766326e-02 2.254120256343084550e-01 -6.693921243372007446e-01 8.298785443725962274e-01 5.377730434979018925e-01 1.486665909914677008e-01
1.722187771903367984e-02 -4.157877945652380114e-02 -8.597522281145585366e-01 9.747409878073123313e-01 -1.224323430442804950e-01 1.867895287887210432e-01
-9.055262636604182250e-03 -1.849892520647081207e-01 -8.070023838143176587e-01 9.617680776504990980e-01 -1.102203972150161623e-02 2.736433435200666953e-01
-1.244549318609408997e-02 1.195357647560270770e-01 -6.799711430249262278e-01 9.064841978885732621e-01 -1.097120007657115259e-01 4.077372632790560170e-01
-1.644361901974329687e-02 7.676678243479895247e-02 -6.821181343632947147e-01 9.454966294007531857e-01 -8.591840119367867568e-02 3.140925852804182794e-01
5.671846603570884597e-03 -1.282883957755890925e-01 -8.383153415178192791e-01 9.791491775520521079e-01 -1.885696963818574504e-02 2.022654265938801099e-01
-8.631479835402825970e-03 -9.897368117027420531e-02 -7.899395051533911749e-01 9.127641089530658114e-01 -1.548881662855058350e-01 3.779832500942725826e-01
-2.180589122783089390e-02 7.446398899630052651e-03 -6.823050963670450608e-01 9.538007446113522247e-01 -1.032813115715572327e-01 2.821295983389351947e-01
-2.056122927384128676e-02 2.282719639321269256e-02 -6.812715157534072752e-01 9.523175020990214401e-01 -7.652789493828800194e-02 2.953554747963790250e-01
-2.206782531761194641e-02 1.702245782768744067e-02 -6.779178167618037376e-01 9.523175020990214401e-01 -7.652789493828800194e-02 2.953554747963790250e-01
6.862638584574910078e-03 -7.584789481592721372e-02 -8.279151433742463206e-01 9.723268654544321432e-01 -1.009275398653258493e-01 2.106990707437778332e-01
1.338133692951154648e-02 -1.163743739381567777e-01 -8.700664526722768910e-01 9.629868479320479180e-01 -4.186633028164718495e-02 2.662771884684206336e-01
1.450534270992687169e-02 3.111062443870061048e-02 -8.101426714645907357e-01 9.685521106594516816e-01 -1.421931537949471525e-01 2.041761885014207190e-01
2.279830348109011112e-02 9.970385881145626961e-02 -8.041054857667737643e-01 9.552756798094852453e-01 -8.188314343921435090e-02 2.841540539655182940e-01
-1.335862702646614664e-02 -1.034892018121952306e-01 -7.795955898096413872e-01 9.343954484452203779e-01 -1.230288564292002368e-01 3.343187796259410871e-01
1.324510759571093273e-02 -1.428339954027356765e-02 -8.265915192460447924e-01 9.731773345073965187e-01 -9.461982859786116640e-02 2.096973143299413478e-01
6.522089713648440701e-03 9.220902060360394725e-02 -7.377093745813202430e-01 9.908812355145724116e-01 -4.994785502443116476e-03 1.346455688944096230e-01
-2.475087616028846804e-02 -1.293328660396385887e-01 -7.494714247459057788e-01 9.654518445409755456e-01 -1.230529458223086903e-02 2.602908288773779222e-01
-2.005793160149576745e-02 -1.344698018955614305e-01 -7.666546077605855825e-01 9.640477647550962370e-01 -2.544993281086697923e-02 2.645074822961062111e-01
7.332249138220556413e-03 -4.457132789318230502e-03 -7.912320160682029258e-01 9.831677881770385374e-01 -9.868975100478753759e-02 1.537577098479374071e-01
-2.135876014528682518e-02 -1.555136343832942969e-01 -7.607212862238327267e-01 9.704677703867647942e-01 3.583056893652993014e-02 2.385549768297161588e-01
1.371611064826184362e-02 8.158099093471876673e-02 -7.769409253792061154e-01 9.671007596746654666e-01 -6.081606691561135952e-02 2.470172598050602852e-01
2.240601513608092912e-02 -1.116949988378607012e-01 -8.976869436306272876e-01 9.198363544595108410e-01 4.301530285803417675e-02 3.899368727559228143e-01
9.792975334517700636e-03 -1.107243055625526384e-01 -8.542670229975379836e-01 9.728743859902078128e-01 -6.678507404634421996e-02 2.214840467591298878e-01
-9.461784030428301365e-03 -1.476661584808842964e-01 -8.022046349959510714e-01 9.407527751660701432e-01 -5.873289388566211439e-02 3.339680571449205604e-01
-8.886558288434192460e-03 1.876945653781900980e-01 -6.798422406026254361e-01 7.186635847334951199e-01 1.007486361374567395e-02 6.952849409423210725e-01
1.718042273714320486e-02 3.420459168895340768e-02 -8.201586963601570357e-01 9.627134034935458384e-01 -1.284484003734422397e-01 2.380838322427144271e-01
-1.637344499581421323e-02 -1.717515052636943707e-01 -7.788417087449547305e-01 9.723461385736019702e-01 2.915713415506753642e-02 2.317171731418906644e-01
2.288892691048427519e-02 6.246662673810077226e-02 -8.235538987527571964e-01 9.567124983658692461e-01 -1.716369001970153296e-01 2.350361035273018651e-01
-1.161844785381752586e-02 1.184093628649385971e-01 -6.820077435001469235e-01 9.053737434370663362e-01 -1.146970808516111634e-01 4.088312174221436224e-01
2.105935142304304897e-02 -2.190923463989024461e-02 -8.656335687289146152e-01 9.706295259448479706e-01 -1.459361873739296045e-01 1.912614769859333763e-01
-7.414067438063518499e-03 6.832721015475259896e-02 -7.068943803620791888e-01 9.055465490975096454e-01 -1.111428063685044182e-01 4.094297546712073466e-01
-4.801075166989032111e-03 -7.109391993488593797e-02 -7.854875124520871443e-01 9.042942088839411863e-01 -2.044913435712746863e-01 3.747469468633223832e-01
-1.462673152514373624e-02 -2.433468865220550156e-02 -7.268153236954515428e-01 9.326706090486979184e-01 -2.101287500688071852e-01 2.932088733501282407e-01
3.371137238371735290e-03 6.403908983066758376e-02 -7.316753628790468866e-01 8.854723300728482016e-01 -1.684506704421023793e-01 4.330855854250601489e-01
9.178865328364082046e-03 1.014706969826389797e-02 -7.942370938968577043e-01 9.814986836460404263e-01 -9.685473667622838956e-02 1.651650507355242048e-01
5.479692050996542475e-03 -1.390631440375182104e-01 -8.368600801158015967e-01 9.909346144247965782e-01 4.657473487155243397e-02 1.260134278814131481e-01
7.855267788152212743e-03 -8.255376141763447195e-02 -8.353663715833371528e-01 9.724498871285633950e-01 -9.200065203624341326e-02 2.141893952756545316e-01
-7.919104702800003684e-03 -1.478494980706303585e-01 -8.065824426696136529e-01 9.407527751660701432e-01 -5.873289388566211439e-02 3.339680571449205604e-01
1.729524453882990212e-02 5.598525256913466225e-02 -8.049838516728310411e-01 9.612185894066832548e-01 -1.614446565503922792e-01 2.235943788433689128e-01
1.432161380134750438e-02 -1.927195532645793186e-01 -8.760288891348818607e-01 9.615512340742451425e-01 1.653638650173817545e-02 2.741272919133765362e-01
1.940727484098938443e-02 -1.321783760002464836e-01 -8.886526563532589629e-01 9.307542382411635451e-01 7.452728716327692952e-03 3.655694254595047155e-01
-2.725611884045118366e-02 -2.074703436577003679e-02 -6.778639056974842259e-01 9.540382791319633737e-01 -1.577766870827882750e-01 2.547890872154887076e-01
-1.929586259594947596e-03 -1.975890421291548182e-01 -8.309904735171134149e-01 9.382309324475394119e-01 -6.390055546724363045e-02 3.400579897746831559e-01
-2.681953597063766251e-02 -4.363641065597180513e-02 -6.994976300571531524e-01 9.389666307282339419e-01 -2.363086295050713104e-01 2.499997960005230502e-01
9.161008434516740295e-03 -7.995378324107348111e-02 -8.402336969864704352e-01 9.733439799260382719e-01 -9.304055612574621548e-02 2.096305122293785350e-01
5.560887631625606453e-03 -1.186266786304785575e-01 -8.365635488988399926e-01 9.806016494477854950e-01 -4.312690389333333207e-02 1.912079372328931437e-01
5.898017670251182870e-03 8.900214812009769882e-02 -7.318890480400512821e-01 9.974986396056891857e-01 -3.824148265728847217e-03 7.058214983153596189e-02
-1.105934011926100816e-02 1.245029547628751648e-01 -6.816791944849326379e-01 8.977108436167758887e-01 -1.135908167984206463e-01 4.256904598319347088e-01
-1.696409142274990858e-02 -1.248039503282237228e-01 -7.756668981500899340e-01 9.549771954085272130e-01 -5.690926465938254963e-02 2.911698676813795905e-01
-2.683913539901850668e-03 -1.129635954965774597e-01 -8.095094184080885436e-01 9.061407613086208679e-01 -1.467716993240799073e-01 3.966950831212241457e-01
-2.533983148371087707e-02 2.040350395810227035e-01 -6.664925337343107214e-01 7.429566668549160147e-01 2.783718570005012105e-01 6.087072370244385189e-01
7.071538248399817685e-04 -1.510851442204318440e-01 -8.282792607860107736e-01 9.053481237063194520e-01 -1.011577622895026979e-01 4.124462171362797691e-01
1.811944002871844484e-02 -5.801400220358645526e-02 -8.740371022964366077e-01 9.778721288983217574e-01 -8.527982621759555570e-02 1.910325908429251762e-01
-9.153596637204599804e-03 -1.537924245122943012e-01 -8.041328760483309468e-01 9.401237233027855966e-01 -5.240039462842727147e-02 3.367812101737452934e-01
2.261876790418229297e-02 -3.296379043407990372e-02 -8.824668206209120846e-01 9.750789792411950208e-01 -1.346411057262653643e-01 1.763313837374327619e-01
1.348932918681423031e-02 5.774134802275310285e-02 -7.861621781314271917e-01 9.751604294008633378e-01 -1.106499702729824425e-01 1.918820497318911023e-01
1.018449821110021906e-02 -1.645509951094733525e-01 -8.599925190851760437e-01 9.833701337762661421e-01 2.854291248995111455e-02 1.793557418747432630e-01
-2.786078448122056989e-02 -1.205170992561845345e-01 -7.375168911135433492e-01 9.653376181205816087e-01 -4.015477187281836502e-02 2.578970285542744323e-01
5.014933396748352118e-03 -1.357772594690853651e-02 -7.807784894469136372e-01 9.896011225452602256e-01 -8.797735435764264533e-02 1.137963240943689336e-01
1.812418509722615130e-03 3.811201578719881217e-02 -7.391294036522888522e-01 9.194720334465862344e-01 -1.639380230551635287e-01 3.573450773501213873e-01
-9.406601999929011665e-03 -1.944775323054634963e-01 -8.059122312088717877e-01 9.654785445666430599e-01 -1.109896334988740713e-02 2.602460239735363001e-01
6.976003197847384894e-03 -6.890733359469876839e-04 -7.865355466476948720e-01 9.831677881770385374e-01 -9.868975100478753759e-02 1.537577098479374071e-01
-2.629414052958566408e-02 -2.069079179612602626e-02 -6.816584702650251293e-01 9.521428592618418341e-01 -1.922184684797238197e-01 2.376468723379162040e-01
-1.149862880300118149e-02 1.963590081035104795e-02 -7.107443992229538487e-01 9.375029988520702240e-01 -1.478697166003151986e-01 3.149963080036297658e-01
1.492319699546439636e-02 -2.006498203633849120e-01 -8.772263496759514778e-01 9.807551537886233239e-01 7.208228034628370862e-02 1.814482658421774641e-01
1.227133810392217958e-02 -4.983256185883943451e-02 -8.403186594541752763e-01 9.721164803851733982e-01 -1.084058047552737547e-01 2.079368415142061055e-01
9.671624542081170076e-03 1.415716497876149949e-01 -7.509983661879791050e-01 9.765065167065967167e-01 -2.103812617638833350e-03 2.154776016248997339e-01
1.507487136895552596e-02 1.111059424219060510e-01 -7.760297068530260800e-01 9.618699806020146736e-01 -6.135115046219070251e-02 2.665373834073669901e-01
-2.149982168190950338e-02 1.130228162808424169e-02 -6.819282792401499815e-01 9.538007446113522247e-01 -1.032813115715572327e-01 2.821295983389351947e-01
1.484726445925779736e-02 -1.915322052626239335e-01 -8.779605913027669351e-01 9.709459689988615416e-01 8.115966509905765680e-03 2.391611514700326402e-01
-1.675714713035600031e-02 9.900070754666595585e-02 -6.754624532027219130e-01 9.180590178854968197e-01 -9.053781632486759823e-02 3.859670238430242262e-01
-7.351694123488392886e-03 -1.469837052283191892e-01 -8.078870305338217150e-01 9.270331262528942462e-01 -8.228272896076214982e-02 3.658403139958134598e-01
-1.306703934958241414e-02 7.777077127833301184e-02 -6.908160222013040030e-01 9.275009816821228048e-01 -1.004832267766119364e-01 3.600625641680321176e-01
-2.420094058637011630e-02 1.911773836587031192e-02 -6.703533722392700511e-01 9.543120342375710496e-01 -7.482883999389645935e-02 2.892908329251326349e-01
-1.380463472210754182e-02 -1.251261185929123942e-01 -7.853291922486053123e-01 9.394600424352276269e-01 -8.543641368767221356e-02 3.318364776268416527e-01
-1.568927384849559681e-02 3.975522777694083520e-02 -6.922808743590682656e-01 9.444390386406926741e-01 -6.718737966308212239e-02 3.217464192581681037e-01
-8.152181596525491861e-03 4.591678751991784546e-02 -7.110328991542258503e-01 9.290098326136224660e-01 -9.544188934503497479e-02 3.575354201550653976e-01
6.646402809334834433e-03 1.391917874341489225e-01 -7.350683499822401323e-01 9.846767123689437184e-01 4.101980279482262716e-03 1.743414634448008649e-01
2.488617467173990030e-02 7.386846625750845274e-02 -8.231331434861295371e-01 9.544562939195940787e-01 -1.761578024668822851e-01 2.407937117686259343e-01
3.270027645105434786e-03 -3.485698870016696455e-02 -7.835010469075341932e-01 8.951447604326381313e-01 -2.273095706436275010e-01 3.834660571208418633e-01
-5.187753528932824865e-04 3.137646251470855435e-02 -7.362454371901994143e-01 9.194878195925830777e-01 -1.715581790443480581e-01 3.537088362253121843e-01
7.804749977336795409e-03 -1.697214622642176096e-01 -8.468945042316891048e-01 8.560412552320175728e-01 -1.235313704110548305e-01 5.019296463301989863e-01
1.989991305289114804e-02 -6.467805227168869908e-02 -8.858646365005672374e-01 9.771886413733167354e-01 -7.932290789623792915e-02 1.970031356447313198e-01
4.853398657135063465e-03 -1.329218365112028455e-01 -8.334545295866820913e-01 9.925170590777611102e-01 2.962460858517318441e-02 1.184578828352398222e-01
-1.106420230031096921e-02 1.038807081928943277e-01 -6.874424216468486559e-01 9.133915995824695155e-01 -1.247521567615978155e-01 3.874954002249669793e-01
2.061996283209963782e-02 -1.854476210435871894e-02 -8.611903541016854291e-01 9.664764678872903580e-01 -1.367976404544151148e-01 2.172778004910119742e-01
1.609013602580746868e-03 -2.214831767089229797e-01 -8.422126334240922496e-01 9.409247180928160814e-01 3.410165150483374791e-02 3.368942745826906116e-01
-1.398112636169639850e-02 -1.494722765034196821e-01 -7.887265098762991089e-01 9.554448018684674748e-01 -2.205570685326892905e-02 2.943446557655285400e-01
9.041822896576453411e-03 -1.601920595131809955e-01 -8.548749760420734090e-01 9.846886555705660626e-01 4.813355330276376104e-02 1.675452554896166568e-01
-1.856750969203786739e-02 -1.211392376773926666e-01 -7.699737456430191251e-01 9.528855231448813967e-01 -8.546635282450945614e-02 2.910406884196469202e-01
3.583850837312567775e-03 1.283523410886164562e-01 -7.098745604004566001e-01 9.950428804812276873e-01 9.906341191283610237e-02 -8.723899575826454464e-03
7.964954157754389197e-03 5.406676736140258316e-02 -7.572771542089581365e-01 9.842469506524533784e-01 -8.431080750961542081e-02 1.554015053608669705e-01
-3.731865755900060869e-03 7.083624242327921094e-02 -7.142438689478848302e-01 8.966977433258734864e-01 -1.409863922385551915e-01 4.195902695700201579e-01
-6.783764032556879875e-02 2.608888346461435970e-01 -6.602321711915125624e-01 5.783808036794816365e-01 6.407728585707145319e-01 5.048621491597403699e-01
1.778435925441993262e-02 5.112099606911529176e-02 -8.106935352479294199e-01 9.609592650707997619e-01 -1.661219956542428766e-01 2.212708146919520058e-01
2.052517371022102508e-02 4.389808748868313792e-02 -8.275150174944959636e-01 9.572426917746101882e-01 -1.641512828095854915e-01 2.382032438823331599e-01
1.452284989437774114e-02 1.269544825012410838e-01 -7.716907929257103005e-01 9.681857543891362328e-01 -1.751678162600304100e-03 2.502264506832834745e-01
1.209348872281780290e-03 1.626867216218627066e-01 -7.043295330988721403e-01 9.820193328427901935e-01 -2.548795891916145334e-02 1.870518480880000722e-01
5.913740627278964677e-03 8.181251582689196000e-02 -7.323967403011939492e-01 9.987025424478263025e-01 5.363347745940272304e-03 5.064055893455100127e-02
-2.642510764863843439e-02 -1.326992381484215777e-01 -7.433544507721189243e-01 9.661489360431911866e-01 1.087969377531096751e-02 2.577554376651733370e-01
-3.265042347754273933e-02 -5.569669274501264783e-02 -6.888111865143788926e-01 9.403871887851051881e-01 -2.336142851608168369e-01 2.471766593706765935e-01
-5.181212258004285615e-03 -9.825380552113342769e-02 -7.980160533568830816e-01 9.145668476247298395e-01 -1.555057321683533944e-01 3.733436064653428699e-01
1.725979173856105262e-02 -3.806401596165964740e-02 -8.576463050276075251e-01 9.747409878073123313e-01 -1.224323430442804950e-01 1.867895287887210432e-01
4.522709594061998135e-03 1.478088449777696378e-01 -7.230224850168367468e-01 9.863862353166096275e-01 1.544623431748103418e-02 1.637180766541543042e-01
1.400561751085076592e-02 3.288423329559898162e-02 -8.065430385980412176e-01 9.683769664948028710e-01 -1.418607001111727994e-01 2.052354563088243655e-01
-3.339706039714662733e-02 -8.087309268030437592e-02 -7.056778501737507314e-01 9.475293152274412156e-01 -1.498834003094928757e-01 2.823529052378963566e-01
1.648450732849483791e-02 -6.651512020398285541e-02 -8.695078068254058490e-01 9.769589471452567730e-01 -8.638580308459929691e-02 1.951632870656273833e-01
-3.098638944764376020e-03 1.146410929105951271e-01 -7.011163286990255150e-01 8.875863868424986869e-01 -1.374508977287987876e-01 4.396562937175191310e-01
8.648715537448729146e-03 5.367957626359955159e-02 -7.618010546404812011e-01 9.839384630623839723e-01 -8.623165704636662210e-02 1.562984396258373931e-01
-1.372770878886511031e-02 1.757691621739582155e-02 -7.047545232465932674e-01 9.448235969396875378e-01 -1.156509618036947462e-01 3.064852781127198611e-01
2.639302536841390059e-02 -2.308068497828265342e-01 -8.846033427330497467e-01 8.677220625417756406e-01 4.492245378267278322e-01 2.127339577796876213e-01
-1.561134591521991244e-02 2.488309490941046850e-02 -6.963168071597625186e-01 9.503527944576656283e-01 -1.081794723333555502e-01 2.917649187825413493e-01
5.961738227259896078e-03 -9.717547573456673804e-02 -8.325781505440762453e-01 9.754101559010402989e-01 -6.974764761022428372e-02 2.090700682019019374e-01
3.749595735310033825e-05 -5.200937134128132307e-03 -7.577567415935294592e-01 9.192738945755375424e-01 -2.030911060038686211e-01 3.371787499443715808e-01
-2.685703656677823452e-03 -8.706315251729039584e-02 -7.987753373077013386e-01 9.045313263975366391e-01 -1.872445090195282436e-01 3.830960367943642142e-01
-1.315199581304333848e-03 1.547840104866950173e-01 -6.943268712342489657e-01 8.875552404142368346e-01 -9.434514380510169995e-02 4.509375666914667291e-01
-2.597817788083712706e-02 -1.376583679927956827e-01 -7.448415989657404257e-01 9.663093260223061254e-01 9.628214300522644487e-03 2.572033902025780971e-01
6.463107255894350034e-03 1.122319773276497928e-01 -7.352492831446113541e-01 9.904904800218335970e-01 -8.803466209528629932e-03 1.372993371026074994e-01
1.358012579083521520e-02 1.104526238034426316e-01 -7.707687726367958847e-01 9.663556521530386467e-01 -4.690374140388822027e-02 2.528968022616976397e-01
-2.061940652471489638e-02 -7.816846393380647018e-02 -7.455908810393353514e-01 9.392013327401960154e-01 -1.770004311899447402e-01 2.942306984962868022e-01
-1.541486867487376795e-02 5.370825296079878575e-02 -6.902386045329865771e-01 9.441886914661909991e-01 -6.419285024673136719e-02 3.230897597952661071e-01
-3.942402929160454430e-04 -1.791759751570895162e-02 -7.644802165333394184e-01 9.164921924325978297e-01 -2.112242143347910217e-01 3.397445989103292097e-01
-1.310562323166807042e-02 3.558486244406889069e-04 -7.154643574138531692e-01 9.384026361389163906e-01 -1.654486454662370820e-01 3.033599152836771728e-01
-9.378899880867038602e-03 1.334129164547824542e-01 -6.828633321274554246e-01 8.954906569065209654e-01 -1.112891036004570733e-01 4.309422453333328074e-01
6.992220899527413873e-03 6.698371130045834010e-02 -7.459253660771378858e-01 9.906818357805704522e-01 -4.046618223584107915e-02 1.300461008630962867e-01
-2.659065599259300555e-02 -5.638754912533856106e-02 -7.117136267490207224e-01 9.381175129729371065e-01 -2.247104737691472676e-01 2.635160997584710674e-01
-3.563442464129970241e-04 1.618483699506430562e-01 -6.940024226845887823e-01 6.093112527953576940e-01 -2.491810861894070139e-01 7.527606415736805001e-01
9.983123555928234000e-03 3.301168866700397025e-02 -7.838951007743822919e-01 9.818123400900310438e-01 -1.118390485112289168e-01 1.534162836045774025e-01
-2.663175424905949232e-02 -9.707593252453237953e-02 -7.355289228812931235e-01 9.584410922134379840e-01 -1.017409936224905193e-01 2.665322550338334873e-01
1.121515520052926776e-02 -8.902033264992544048e-02 -8.534843206737624532e-01 9.737770655761666116e-01 -8.097673184221335085e-02 2.126052573621465269e-01
-1.329732370076593811e-02 4.213810388867977874e-03 -7.126865899288999939e-01 9.454970681591579051e-01 -1.588976361260027170e-01 2.842302505645825650e-01
-9.174699297803397963e-03 1.711485444492343300e-01 -6.789252095079393312e-01 8.406779757640530093e-01 1.365942110489318517e-01 5.240253453538046280e-01
-6.227681871851339056e-03 6.239446528447607776e-02 -7.112229289614602212e-01 9.128793032959681142e-01 -1.006343454145996047e-01 3.956312754786238117e-01
7.226806650983632133e-03 1.463560031981301635e-01 -7.384522318915507366e-01 9.829893936017587430e-01 2.292629657447445518e-04 1.836621885553449685e-01
7.354464413967766109e-03 1.003253064249318566e-01 -7.427963116054199233e-01 9.877360991514815280e-01 -2.594329560260079381e-02 1.539621506938984030e-01
-2.378447066003697846e-02 -1.118792366062470733e-01 -7.502546148952800031e-01 9.581094387460259432e-01 -7.633253914893434189e-02 2.760428351775348066e-01
1.398573281496212281e-02 -1.760273358238890473e-01 -8.751176306160879381e-01 9.588682201494912460e-01 1.081387025704734408e-03 2.838495499194023108e-01
-1.455461170120869036e-02 -1.543330254091526965e-01 -7.869591860951463680e-01 9.638788918157451535e-01 2.298778418624394283e-03 2.663309924320358957e-01
-2.620646836525900025e-02 -2.874606120379614646e-02 -6.882077503377704852e-01 9.506406879168732837e-01 -1.877851092000699385e-01 2.470203134150135982e-01
-5.243995940750705411e-04 -1.869698909253378061e-01 -8.329212358354256551e-01 9.285095858427243609e-01 -7.113165370368440543e-02 3.644313883840843982e-01
-9.731639690409117291e-03 -1.660449382118535933e-01 -8.037818132297199769e-01 9.537685526192426488e-01 -2.392465828904128192e-02 2.995883154603123377e-01
-1.216453175647843298e-02 1.215896935472541712e-01 -6.800446308892972302e-01 8.969294750651624071e-01 -9.725576620247194937e-02 4.313453751922028956e-01
7.206869117764714075e-03 7.153592071673474384e-02 -7.461440389545778151e-01 9.906818357805704522e-01 -4.046618223584107915e-02 1.300461008630962867e-01
-2.465408387367655843e-02 2.139984334371674290e-01 -6.716255070315552134e-01 5.410830435281701600e-01 1.146188738871802559e-01 8.331216320292775812e-01
1.464419965455204982e-02 5.624631296023975546e-02 -7.926958806757825604e-01 9.669000006821250048e-01 -1.497551337302525654e-01 2.065860319632983610e-01
-5.032528642205600852e-03 -1.759015206086400607e-01 -8.191733461371754066e-01 9.349729470233795192e-01 -6.408637973835426549e-02 3.488818199139190335e-01
7.068499785846083308e-03 8.355835959293886339e-02 -7.428283712315328913e-01 9.892427957595341104e-01 -2.326304164435380462e-02 1.444213347511845436e-01
8.011133793567463621e-03 -1.132536013004036973e-01 -8.469093449986675459e-01 9.753032545296492772e-01 -5.946756795418144115e-02 2.127138219897548033e-01
1.067013146821507979e-03 1.569366677192495785e-01 -7.031945291756430683e-01 9.857184014415915074e-01 3.065376737974125770e-02 1.655885853700737320e-01
4.018318829537757819e-03 1.432541094360218759e-01 -7.193245856905228219e-01 9.877730433706606306e-01 2.663872027114263727e-02 1.536059678937589101e-01
1.498333132504548609e-02 -1.480742688624519798e-01 -8.772718896245903508e-01 9.442986801851995793e-01 -2.308814817718150142e-02 3.282787535224274689e-01
-1.651353556976096343e-02 -3.765754576398541026e-02 -7.308038487626200563e-01 9.348409262208687842e-01 -2.162465976836989434e-01 2.816200483856441394e-01
-1.774896511001539459e-02 8.982955190134223056e-02 -6.752670046624821287e-01 9.181179201955532720e-01 -9.120775084183253834e-02 3.856690690244239939e-01
-2.177767025908845452e-02 2.324265515549096828e-02 -6.772595421057346909e-01 9.519209174949898600e-01 -7.571652047137214514e-02 2.968393089926009698e-01
6.956908876784555912e-03 2.088396788616976585e-02 -7.710623113835037845e-01 9.890575687864039400e-01 -8.847465275809708596e-02 1.180566027194656642e-01
2.346520126130309265e-03 -1.899650655401059762e-01 -8.403596892843964161e-01 9.142810233606051273e-01 -8.486760057726880357e-02 3.960905208344954742e-01
1.826974765545533522e-02 -6.903528190063526471e-02 -8.795500177419777188e-01 9.765225957624240616e-01 -6.395975280407190100e-02 2.057006805692660756e-01
1.898974994760744411e-02 5.054876588245698493e-02 -8.163887499748951893e-01 9.612498416649688515e-01 -1.665854518780822413e-01 2.196543400928999690e-01
-1.509394307500592190e-02 -4.491735432406564199e-02 -7.405905379257073928e-01 9.268997088536293782e-01 -2.190061115560421323e-01 3.047839445052176743e-01
1.540462605271877491e-02 -1.167929180308550641e-01 -8.772131232127623468e-01 9.556884676187947791e-01 -2.775705804888071657e-02 2.930684196376519002e-01
1.717425401059167935e-03 1.620257687672633784e-01 -7.071575899474956683e-01 9.862915915607914918e-01 1.291124672927911792e-04 1.650117563886017158e-01
-4.261052150319835988e-03 -2.013749838380891055e-01 -8.243506133085475307e-01 9.560363996059300096e-01 -2.502332374131845463e-02 2.921784316089532929e-01
-1.041622880469553029e-02 -9.938430112460489019e-02 -7.855831063757678923e-01 9.228172538910056621e-01 -1.430554312259303407e-01 3.576918499460484124e-01
6.397473857213095520e-03 -2.145096526205032272e-01 -8.542145465079868938e-01 8.970497101215926250e-01 -7.678276285401405832e-02 4.352082546313553735e-01
-1.314368769172222055e-02 -1.852695558907665185e-01 -7.910959836986058979e-01 9.703887329594800271e-01 -1.394491914901671873e-03 2.415445348949013804e-01
-2.958651207447362402e-02 -6.930579564456261499e-02 -7.112252027315177916e-01 9.396311933705767672e-01 -2.070836474249085069e-01 2.724143597796960803e-01
4.377010653949680620e-03 -1.213785617777492498e-01 -8.308465708497867475e-01 9.852697261987510835e-01 -1.968928312229915184e-02 1.698702409675343916e-01
2.439605316488306988e-02 8.185362983460107988e-02 -8.163254660201623158e-01 9.554348955618570116e-01 -1.548014675572602084e-01 2.513576455666743370e-01
2.342924101421566593e-03 7.493950825786336103e-03 -7.563683479702987267e-01 9.124967603587297305e-01 -2.003209875608158164e-01 3.566807596121249757e-01
9.855192246202065711e-04 -1.471759070104210025e-02 -7.660973253606616629e-01 9.073970355917528874e-01 -2.196386183500342315e-01 3.583148017157359866e-01
5.676391918325683107e-03 -4.133041435336901048e-02 -8.039156957438332585e-01 9.776535138989083107e-01 -1.152207472204298810e-01 1.758345420305211793e-01
-1.621801147522277525e-02 -6.740662848567018084e-02 -7.525177104477170920e-01 9.267514683953306243e-01 -1.957683222440738391e-01 3.206344957000710205e-01
-1.996922406821824772e-02 -4.910618568162145731e-02 -7.283312829792066845e-01 9.327955003812241630e-01 -2.124773189401187312e-01 2.911115652195235826e-01
2.274548807455620270e-02 6.326706872232915058e-02 -8.223855033278728577e-01 9.567124983658692461e-01 -1.716369001970153296e-01 2.350361035273018651e-01
-2.654093147644301376e-02 -1.185428575321363781e-01 -7.419532523749774455e-01 9.638807531992958921e-01 -6.439901614400880825e-02 2.584311520146941876e-01
-1.291153953933497911e-02 1.122764738823680414e-01 -6.808647123994813199e-01 9.053737434370663362e-01 -1.146970808516111634e-01 4.088312174221436224e-01
-3.416862490328709170e-03 1.485338947611787030e-01 -6.914033437030959739e-01 9.013755403953747081e-01 -1.021434935087596890e-01 4.208192508794868503e-01
2.550749567935852585e-02 8.166692499176114728e-02 -8.206651885061229112e-01 9.554358762360983803e-01 -1.548023790046187120e-01 2.513533565629655353e-01
1.864173925199963389e-02 1.171732935743940215e-03 -8.417663627424312178e-01 9.627704946564034083e-01 -1.128919826590005088e-01 2.456183520634890594e-01
2.588574522616559834e-02 9.616749402992098850e-03 -8.658128222816907638e-01 9.578072310816696522e-01 -1.441907242564669511e-01 2.486249044767250282e-01
1.966189337049518981e-02 -4.287425272121414555e-02 -8.733830435221999755e-01 9.754977296277134169e-01 -1.165094421915074535e-01 1.866272471302098945e-01
1.391724882828093181e-02 -1.021638752276031285e-02 -8.276796113169290203e-01 9.673561109688284532e-01 -1.044328994393920323e-01 2.309024124732036165e-01
7.623589851705840463e-03 -3.503370047445105578e-02 -8.102975236967621120e-01 9.779077444573847089e-01 -1.010847058477954141e-01 1.829708325770399435e-01
-1.372743554040558797e-02 -1.451108868993075396e-01 -7.891655898983414019e-01 9.548448355595643422e-01 -2.612939989633555546e-02 2.959537032481359686e-01
1.618335985085164394e-02 1.016773203291622581e-03 -8.320966166853955848e-01 9.673283201507274498e-01 -1.011131316230778759e-01 2.324909797126458177e-01
3.731782415703299802e-04 -2.038544288172007002e-01 -8.383259309522386182e-01 9.296777365969260964e-01 -6.191401516361420138e-02 3.631335302644694840e-01
2.237507079308679106e-02 2.014919223841362978e-03 -8.561952341216502171e-01 9.596364736613876012e-01 -1.316892161448505461e-01 2.485071201593466728e-01
1.581942043049810662e-02 -2.155337287372807997e-01 -8.689805613196148748e-01 7.601982570095342506e-01 -9.316617776020844066e-02 6.429764174223028261e-01
5.817348241819626786e-03 -1.433846664366803525e-01 -8.379180740893044099e-01 9.909346144247965782e-01 4.657473487155243397e-02 1.260134278814131481e-01
1.003339419865398145e-02 1.139721301512529317e-01 -7.555347442253379509e-01 9.774803145780533997e-01 -3.709881588621040394e-02 2.077400117267516055e-01
-8.325995149045700358e-03 1.114541925242475834e-01 -6.911662342632064471e-01 9.064945079782849024e-01 -1.312250143190021312e-01 4.013074913606585192e-01
2.874245234691431318e-03 9.578981070128542163e-02 -7.187926881606357954e-01 8.556139221512835125e-01 -1.757624531228220432e-01 4.868597090468106403e-01
2.398455830370849629e-03 -7.304903374731272492e-02 -8.040561931886214264e-01 9.921712139164157174e-01 -5.525187080847302618e-02 1.119978260851078600e-01
-1.252502890450418391e-02 -3.726138157402537898e-02 -7.429088061159178080e-01 9.269311783574842867e-01 -2.185565672195121101e-01 3.050108481907298219e-01
