1.373255139926751484e-03 4.249259500412080198e-02 -6.765646231364456087e-01 8.821508544566281085e-01 -2.044813519952964620e-01 4.242608238661874642e-01
1.687302222431105725e-02 -7.893619216333232214e-02 -7.979234869552077614e-01 9.525034514620404069e-01 -1.157535082415324379e-01 2.816705527432317169e-01
-2.591499581062224264e-02 1.948508797706694287e-02 -6.243163546724300739e-01 9.230849907249473185e-01 -1.178632769556575005e-01 3.660906279100812899e-01
2.813477849888725707e-02 7.105684744516391205e-02 -7.500425091960075674e-01 9.292095905267521161e-01 -1.912398449133657641e-01 3.162227989734728850e-01
-9.723227106251284765e-03 7.811966084351674999e-02 -6.424785045388260452e-01 8.740981044175664127e-01 -1.672903470136286042e-01 4.560333799730857951e-01
-3.019861835816188382e-03 6.438328636727212728e-02 -6.591928420010153555e-01 8.662520822326125192e-01 -1.752405039588382785e-01 4.678654676292270387e-01
2.128111001423659693e-02 -4.579171933277333822e-02 -7.963482306500253571e-01 9.519366067336488824e-01 -1.635639553633170817e-01 2.589662705186387970e-01
6.261557812823724187e-03 1.310516037717125715e-01 -6.591859059248471597e-01 9.762341804285823432e-01 -1.701944056009130346e-02 2.160489842742974453e-01
-4.252492384274923765e-02 -8.641307820985191790e-02 -6.492175923344777333e-01 9.164111733473381260e-01 -1.908335631327839621e-01 3.518140311957445587e-01
-7.407214411027490328e-03 6.619365354610358756e-03 -6.758626310484615596e-01 8.981740624794015693e-01 -2.113510408851938527e-01 3.855049818173467702e-01
9.647538320597131081e-03 2.775772424091623933e-02 -7.128092238791912116e-01 9.678445028807955985e-01 -1.422359503494487476e-01 2.074751856767808045e-01
1.402632508786325234e-02 -1.903530584870897213e-01 -8.134857515432926123e-01 9.603992426994283349e-01 6.950737934352982372e-03 2.785408082571246835e-01
-1.783563463085875364e-02 1.895039540579787629e-01 -6.087612074626427283e-01 7.174104465987722890e-01 1.721604964793721215e-01 6.750429723824447059e-01
2.620096319266483967e-02 -9.916082421039271177e-02 -8.319677780589609384e-01 9.308766982035878712e-01 -2.249640774848284813e-02 3.646402122366652621e-01
1.857715250398105089e-02 2.265487545336174538e-02 -7.516586240971934174e-01 9.435383079637731374e-01 -1.619577828047264467e-01 2.889725557796736788e-01
-1.503711106381658107e-02 8.941587413740473278e-02 -6.281875918201654807e-01 8.873900845575224405e-01 -1.566599970715676360e-01 4.335856122457588113e-01
-1.597681678838358543e-02 8.396693867241213083e-02 -6.282331299354732002e-01 8.873900845575224405e-01 -1.566599970715676360e-01 4.335856122457588113e-01
-1.928998355926440792e-03 -1.123897689291796786e-01 -7.545982971947766682e-01 8.665299866782639748e-01 -1.871790194661433759e-01 4.626983864884993691e-01
-2.153160225989343701e-02 -1.803532100939108651e-01 -7.247740917127837301e-01 9.481872214541320343e-01 -4.299479914858478358e-02 3.147895174831357723e-01
-2.149735133946265812e-03 1.293419889925191413e-01 -6.373034522290581538e-01 8.359598606615248340e-01 -1.642123674239460984e-01 5.236462639490391258e-01
-2.301119476722809920e-02 6.905584614115896358e-02 -6.175752375958744045e-01 9.041996048302693989e-01 -1.106931919968306283e-01 4.125167776834504640e-01
-7.571440849036478737e-03 -1.210326737478679832e-01 -7.471921128960027358e-01 8.775526422453728825e-01 -1.574277622281268219e-01 4.528993925454180003e-01
-1.913135575687230014e-02 8.793599638344834490e-02 -6.202642029243504718e-01 8.937766260569370846e-01 -1.364919447137049879e-01 4.272391505264339084e-01
-1.116227813567579816e-02 1.983646314503579311e-01 -6.237485182671158590e-01 8.608384279362584213e-01 3.857265772142294824e-01 3.319219917673821851e-01
-4.597785377438390829e-04 -7.489066443718174482e-02 -7.399195990335110107e-01 8.370175504467262106e-01 -2.609894264385252405e-01 4.809221761693378561e-01
1.340104536421689307e-02 1.425292579315567132e-01 -6.860262356905000303e-01 9.562534749353476249e-01 -4.369378230509012723e-02 2.892579213469316235e-01
-3.137584060076904074e-02 -1.245867372240390264e-01 -6.915567930931566520e-01 9.413994434510676301e-01 -5.388143567510279841e-02 3.329622782833057681e-01
-3.212292798682269031e-03 1.276731625099217782e-01 -6.360758152625001216e-01 8.457448824705112722e-01 -1.623013731200411980e-01 5.083048869116739699e-01
2.242421199775842047e-02 8.001289382073623058e-02 -7.288277360437754870e-01 9.351606650615770233e-01 -1.431128380367825692e-01 3.240266132752783745e-01
-2.259341984813964532e-02 -4.738906607984802455e-02 -6.751021472257257017e-01 8.985852956943962688e-01 -2.528641441564464243e-01 3.586142648610654016e-01
2.212860361195126413e-02 -2.153858169408534584e-02 -7.851527704605119062e-01 9.421991722158546967e-01 -1.764603832301952502e-01 2.848200362088496584e-01
2.469815085090868584e-02 9.498971061797845117e-02 -7.296097777884131830e-01 9.284476279797586606e-01 -1.008493417280420523e-01 3.575114157223236999e-01
-2.198390459826145629e-02 -1.522065187317071279e-02 -6.531243139899273187e-01 9.102560173479430361e-01 -2.257242094862980386e-01 3.471059840072582836e-01
1.289385325052320834e-02 3.583322135917006712e-02 -7.217764766768268725e-01 9.604361819993929572e-01 -1.592808928897760101e-01 2.284555481196823556e-01
-8.787027021759851939e-03 3.564309977289718823e-02 -6.584515417282084115e-01 8.923323702161848336e-01 -1.834141941864896597e-01 4.124344486524934017e-01
-3.512309811116529762e-02 -2.620526552838851886e-02 -6.236681243879240721e-01 9.227623609603479160e-01 -2.328777027031379565e-01 3.070465775392933749e-01
-1.176906222685608280e-02 -5.163642552966458271e-02 -7.033025734994263756e-01 8.837205517643389463e-01 -2.520223106739980512e-01 3.943637170327302099e-01
1.653019585058685542e-02 -1.886728138514840447e-01 -8.207703790638192221e-01 9.093056536859330796e-01 -5.213502638581519327e-02 4.128500541341230679e-01
6.370266400233210585e-03 1.369747480583924926e-01 -6.591648710679448575e-01 9.735308710710026681e-01 -2.673719744833754144e-02 2.269862668628728486e-01
-3.963245935891589883e-02 -5.415721575860679704e-02 -6.344183957439833987e-01 9.086826368245224383e-01 -2.738565037571262240e-01 3.151166147373953286e-01
2.302413840330866726e-02 2.209893229013824498e-02 -7.659246130060429758e-01 9.354440832382998616e-01 -1.552477861826376815e-01 3.175570689180869377e-01
7.988312778812745865e-04 -1.501670687934178183e-01 -7.722683263757662564e-01 8.634769898730971782e-01 -1.422965733550354550e-01 4.838999619457623469e-01
4.872534727127657977e-03 -1.628775231310284344e-01 -7.828355146291523514e-01 8.383549664015630398e-01 -1.538191088652846872e-01 5.229728788930873007e-01
-1.196367408711766084e-02 4.321365960044853266e-02 -6.490106766326682042e-01 8.945793459983505391e-01 -1.401086278247684891e-01 4.243788002742638343e-01
-1.848918261394465190e-02 2.281647202697255350e-02 -6.416380432586465954e-01 9.114898432932434513e-01 -1.541323759529788506e-01 3.813521682858878603e-01
8.278281234850233192e-03 -7.777746655871471682e-02 -7.683530487338002812e-01 9.485309794576546327e-01 -1.335946880234399059e-01 2.871261749493105864e-01
2.303101537662148243e-02 8.063352551315498828e-02 -7.303048933785494246e-01 9.351606650615770233e-01 -1.431128380367825692e-01 3.240266132752783745e-01
7.971511093131256748e-03 -2.739732430912509772e-02 -7.398278315247091008e-01 9.562655837058733344e-01 -1.394592058859527861e-01 2.571133277629232272e-01
-3.814534878275346180e-02 -3.761735616729897091e-02 -6.238473966125873682e-01 9.129015136261640073e-01 -2.711796823966975412e-01 3.050777053051976218e-01
-1.790974417481317263e-02 -1.588065711493896193e-01 -7.336536679794537497e-01 9.412348524122040594e-01 -4.010359502116032926e-02 3.353634659156468634e-01
1.734779263112526046e-02 -4.125805266941900973e-02 -7.801320285175109559e-01 9.479430140294861085e-01 -1.499915679365553534e-01 2.809031357970695475e-01
2.928635339964214684e-02 -6.230955508355998399e-04 -7.955596196220650063e-01 9.353506140436884664e-01 -1.603557827180035478e-01 3.152859840795197988e-01
-9.622920893547255369e-03 -1.979339592368818956e-01 -7.618503331898994757e-01 9.290704080115752550e-01 -6.652228043504455901e-02 3.638721797045307293e-01
2.075589144740288758e-02 -1.455117513850173738e-01 -8.239696349071339299e-01 8.925371182838173212e-01 -4.861953953564482345e-02 4.483454392106167585e-01
-1.297622649840344915e-02 -1.366388841903399265e-01 -7.410910837814038699e-01 9.093290565212539533e-01 -1.128984554862678263e-01 4.004679833831674696e-01
4.207797500058987374e-03 -1.717233510313607991e-01 -7.841416858529867140e-01 8.558995611378475976e-01 -1.288885011596866415e-01 5.008230181539673476e-01
1.178636660964832395e-03 -8.322065719610573231e-02 -7.468891250897627954e-01 8.085187482129293501e-01 -2.653933543828672637e-01 5.252273805102010140e-01
-2.429359419754996766e-02 6.371545290005276030e-02 -6.161973545266155039e-01 9.041996048302693989e-01 -1.106931919968306283e-01 4.125167776834504640e-01
1.926476307061768603e-02 6.697666930951953757e-02 -7.253807366483482344e-01 9.420474100698006392e-01 -1.699387998067882488e-01 2.892533171823777338e-01
-2.200153269750305604e-02 2.020370631132450412e-01 -6.082917919496562131e-01 6.894252952564238202e-01 2.394101206915367763e-01 6.836487083078971461e-01
-2.051719338460690056e-03 -1.731507317559139447e-01 -7.733077935068962683e-01 8.852599398768012939e-01 -1.179702017892606397e-01 4.498865082875048715e-01
2.023931336651624627e-02 -1.376557470454234551e-02 -7.748733953616671055e-01 9.423701987292252280e-01 -1.591742637928793558e-01 2.942821134439458364e-01
1.184446423917447609e-02 1.158555420357274962e-01 -6.861863596763311257e-01 9.624035836258918453e-01 -7.741397350999990046e-02 2.603582511260856269e-01
1.009796590619534834e-02 -5.177538522488850554e-03 -7.355132637119572436e-01 9.638511104956092312e-01 -1.379682766471203303e-01 2.279381307184132899e-01
-2.424732374433807500e-02 -1.548641484502499832e-01 -7.151595489427442498e-01 9.467617582377284569e-01 -1.636243784132063867e-02 3.215189633077552012e-01
-2.635677528673204505e-03 1.328068929916497495e-03 -6.898188819114360326e-01 8.843194475729579951e-01 -2.339423770097839583e-01 4.040421746343695886e-01
-1.676619289908085411e-02 -5.634431643532221423e-02 -6.951207415963747138e-01 8.901810757317888401e-01 -2.485225362829127094e-01 3.818562574693561973e-01
-2.090817094197579273e-02 -9.372251874651496562e-02 -7.074046642265746643e-01 8.969101897861085915e-01 -1.875938113349832348e-01 4.004505879714266858e-01
-2.353837771572455176e-02 9.089603262342225987e-03 -6.348976256920335626e-01 9.204522549447443636e-01 -1.737325599409809407e-01 3.501208990955676503e-01
2.836815541501301260e-02 -6.859075896349173251e-02 -8.325895644502024906e-01 9.482434638511145764e-01 -8.494931351189380364e-02 3.059705008615992150e-01
3.195996989784580244e-02 6.468403669586522686e-02 -7.658059729305687346e-01 9.254474763150681849e-01 -2.169439015583370378e-01 3.106160204476219877e-01
2.167692384826648208e-02 4.355791035598090971e-02 -7.489565491114514861e-01 9.342290432170972103e-01 -2.074575716235031175e-01 2.901335051071248228e-01
1.681955701720705409e-02 6.465642436940334525e-02 -7.185667952414290793e-01 9.519866072446681038e-01 -1.513689220977766092e-01 2.660995096758789757e-01
-2.190708314818497551e-02 -8.210484509407353637e-03 -6.487670358989594543e-01 9.102560173479430361e-01 -2.257242094862980386e-01 3.471059840072582836e-01
2.824996079094778054e-02 -3.655472856562999584e-02 -8.162642935796273758e-01 9.525926927677385025e-01 -1.756727053946715023e-01 2.484074521121012180e-01
-1.026706179848805786e-02 -9.655548090231846903e-02 -7.318637180871869763e-01 8.742428696400244004e-01 -1.953716812881901577e-01 4.444426971322638087e-01
7.618463729549750270e-03 -1.184085946030558334e-01 -7.824040796016823451e-01 9.553075088437789075e-01 -7.293388000193321008e-02 2.864755010372735389e-01
2.393262766736469968e-02 -4.733616931091405577e-02 -8.069223998997727687e-01 9.559967636819473036e-01 -1.478125377092888992e-01 2.534198917322452727e-01
2.124553292819895620e-02 -2.946312469092050509e-02 -7.867932175210450296e-01 9.477454116365016112e-01 -1.583772848564899693e-01 2.769391094869844139e-01
2.617583376986913971e-02 -4.409878714260700994e-02 -8.132724347859247027e-01 9.529371897097267397e-01 -1.576751675428599841e-01 2.589387070494854060e-01
-8.757359328737853929e-03 1.139606690830410329e-01 -6.311138313223406682e-01 8.671434236851824906e-01 -1.717055635272344838e-01 4.675248466267165615e-01
-6.923325497493272628e-04 -5.889744694432749034e-02 -7.306363183179759302e-01 8.574102853540377378e-01 -2.568432163018360415e-01 4.459587030307129996e-01
1.979685405735621961e-02 -9.328506495764572748e-02 -8.131353399576822794e-01 9.492416025578943595e-01 -9.868247491380202630e-02 2.986672883296847547e-01
8.428003027471701880e-03 -1.614244492919567342e-01 -7.916570674160995358e-01 9.777732844050152083e-01 2.179150778279322423e-02 2.085294571334742053e-01
-1.246348174077426159e-02 -1.682741068244078819e-01 -7.494013597647813940e-01 9.266074594003310683e-01 -6.844624916533026404e-02 3.697481942604469718e-01
-2.306345110511756960e-02 -9.576443645964941714e-03 -6.465060625267683436e-01 9.182525571015167642e-01 -2.195321633906750780e-01 3.295722540104603637e-01
-5.400406509565105345e-03 9.378100525603327853e-02 -6.443730638718543346e-01 8.528258017281975523e-01 -1.875059093386155507e-01 4.873701733485091836e-01
-2.079353705490946669e-02 7.413280773611001517e-02 -6.210738107948639009e-01 9.041996048302693989e-01 -1.106931919968306283e-01 4.125167776834504640e-01
2.008897951374879684e-02 -3.183475602525234066e-02 -7.842799711475307856e-01 9.446535374066413748e-01 -1.617552286924556493e-01 2.854206374034129468e-01
3.269416027017809506e-02 2.338452983523292908e-02 -7.928690896144241496e-01 9.277186277465937492e-01 -1.706361434580491998e-01 3.319961660587976704e-01
1.308942687223110454e-02 -2.227218695431751327e-02 -7.556461320077828558e-01 9.523548183488740326e-01 -1.475382647293965177e-01 2.669321269692384591e-01
2.403009818622097934e-02 3.633310567626309162e-02 -7.612251698776755227e-01 9.349240749637180992e-01 -1.963988720099987539e-01 2.955409567664621928e-01
-2.195686625429864661e-03 -1.820325929145692190e-01 -7.753535238508612037e-01 8.852599398768012939e-01 -1.179702017892606397e-01 4.498865082875048715e-01
7.820816159610246426e-03 -4.353523382757158028e-02 -7.485495174271554752e-01 9.501069499500728321e-01 -1.547956113198240280e-01 2.708045464402170088e-01
-3.256798678845932576e-02 -1.255197294998710578e-01 -6.883371647321440134e-01 9.413994434510676301e-01 -5.388143567510279841e-02 3.329622782833057681e-01
5.783098498872731724e-03 -6.653068161486147547e-02 -7.542111313490831304e-01 9.509649841217617805e-01 -1.480364596232528751e-01 2.715709954993540953e-01
8.665095649096305613e-03 9.008372036783744707e-02 -6.797326758692401327e-01 9.766600879436493354e-01 -4.636633707822424011e-02 2.097265729559601444e-01
-3.840876473239045880e-02 -6.686505256639785344e-02 -6.479957356526773182e-01 9.089187971092904661e-01 -2.456620107169104339e-01 3.369225382071153185e-01
3.850308366085292058e-03 -4.614049204848208463e-02 -7.348277293444950287e-01 9.626471077875016213e-01 -1.464568929361637628e-01 2.277299373816339401e-01
1.107670225449847211e-03 1.368744575433094857e-01 -6.401496695574209195e-01 8.232944399142755332e-01 -1.572530141772207068e-01 5.453968781891019857e-01
1.049649969021989974e-02 5.977808758864920635e-02 -6.977047553437305538e-01 9.648494744864904993e-01 -1.028702872165364046e-01 2.418329911139710242e-01
8.357516608161594598e-03 5.882982661971087462e-03 -7.212296196464873521e-01 9.731846326752339182e-01 -1.256894610400058343e-01 1.926495006695910783e-01
-2.218445909474942718e-02 -1.450953143974267334e-01 -7.202271622432238063e-01 9.400405866406922328e-01 -4.008877482309329554e-02 3.386983696468089944e-01
-1.819773635097092154e-02 -4.422588610001307319e-02 -6.835776453855108015e-01 8.914046456700276400e-01 -2.592837861474314720e-01 3.717118183740535375e-01
1.713809748750279305e-02 -7.641883123868498107e-02 -7.976414855443795249e-01 9.526959652501963971e-01 -1.326170378969583896e-01 2.734650234590033646e-01
4.887506327397477847e-03 1.580042939939292016e-03 -7.052599420024870946e-01 8.701036929796166497e-01 -2.495262486582133787e-01 4.250367215827264844e-01
5.378213271939512319e-03 -4.481509488198939101e-02 -7.402477371161116926e-01 9.562145543323262720e-01 -1.466637354602366994e-01 2.532656210066425717e-01
1.417496027467189668e-02 6.944966787436502621e-03 -7.446561396552685563e-01 9.540240446885204229e-01 -1.391638895801388942e-01 2.654647509427246477e-01
4.743771859973685071e-03 3.610157245662037277e-03 -7.038174254655857887e-01 8.352549889451202914e-01 -2.739176546582702265e-01 4.767790074120288324e-01
6.558275788765138836e-03 8.530357771911698320e-03 -7.102729487728530744e-01 9.781100670893322357e-01 -1.220840201291767402e-01 1.685116870949922019e-01
1.285627832513857455e-02 -1.926442314595411265e-01 -8.084413831148316021e-01 9.831984485845687294e-01 5.497615092041450297e-02 1.740644522321338483e-01
-2.784488650631049972e-02 -7.885061405779374144e-02 -6.826771631490865522e-01 9.156463206028919721e-01 -1.988641039134307342e-01 3.493492289115496807e-01
-1.814569305939774113e-02 -1.019997036341589447e-01 -7.176452100075775276e-01 9.008151260121360915e-01 -1.899154172688345132e-01 3.904666990043368924e-01
-2.077857844326155487e-02 -1.252959845058827515e-01 -7.197608255185142800e-01 9.268316047789343370e-01 -9.832786348474582827e-02 3.623738506645178270e-01
2.400102460603902033e-02 5.294439872518707374e-02 -7.497344309441239529e-01 9.338338935960310838e-01 -2.069987087262071535e-01 2.917289731188164592e-01
1.956235716219918014e-02 -3.481143847524387387e-03 -7.676583072395076757e-01 9.419075836107146937e-01 -1.457165154359746084e-01 3.026165908634584345e-01
1.490507988258706062e-02 -2.701030289905488949e-02 -7.643181803887627579e-01 9.476917866052576578e-01 -1.471939520986917938e-01 2.832211469267478798e-01
2.843909820754749948e-02 3.897341937165732517e-02 -7.727510681666467374e-01 9.298332104201776360e-01 -1.777991294196027694e-01 3.221764584468218562e-01
1.694805819087010987e-02 1.303352432897540714e-01 -6.995515276467180188e-01 9.466805117584016216e-01 -5.710287682921759422e-02 3.170729728543224546e-01
7.163066291881611813e-03 6.183149121593378011e-02 -6.819533209972630239e-01 9.781735835847970018e-01 -8.146189082709766327e-02 1.911554360193554736e-01
5.844714362425857540e-03 5.623159536577390996e-03 -7.081927392506645047e-01 9.829736588759777627e-01 -1.110435729813217531e-01 1.463970998876497065e-01
2.699849348328008103e-02 1.004019858547743893e-01 -7.339968956042223214e-01 9.254605840429801500e-01 -1.025208543679268086e-01 3.647083517037915668e-01
1.584234580429150913e-02 -6.386394516736736138e-02 -7.869347000232901346e-01 9.492527165533229949e-01 -1.444399013100674534e-01 2.793857459242942154e-01
1.409258855173711050e-02 -4.104603943543798372e-02 -7.689945555791571907e-01 9.476720509924057012e-01 -1.495938997034987894e-01 2.820272131184268227e-01
1.251189846238973287e-02 -6.495394256094930152e-02 -7.761241889058396737e-01 9.483750116341040926e-01 -1.432087455170434898e-01 2.829771943380728350e-01
1.931592566254860741e-02 7.879555135853080761e-02 -7.202568092634601404e-01 9.421419691414685271e-01 -1.022859945051022984e-01 3.192273254443264707e-01
3.034144015647788697e-02 -3.690928069422162727e-02 -8.243847256336970242e-01 9.530748873903236440e-01 -1.649453070246200970e-01 2.538529194562775815e-01
-1.913521817440831663e-02 -2.782100766766894273e-02 -6.695866862152823895e-01 8.942686135793747049e-01 -2.611309119381791111e-01 3.634477866174975480e-01
2.547910933371592621e-02 -1.777274924483356333e-01 -8.342143628013884982e-01 8.197238567174572887e-01 -6.737181663863636705e-02 5.687827678921603125e-01
2.431543043683033825e-02 -8.120040648429903765e-03 -7.845974113946800887e-01 9.378457490904080762e-01 -1.749377353233339816e-01 2.997367839838724346e-01
1.198888838245501347e-02 -3.759580993544595767e-02 -7.600047701941582412e-01 9.501312132758429341e-01 -1.494878407533108411e-01 2.736860665541588356e-01
4.083239926810217774e-03 -1.042813864324677736e-01 -7.653051847589993351e-01 9.638989385275799071e-01 -9.015251362819232117e-02 2.505421333666722483e-01
4.936947699010150667e-03 -1.071145955096682173e-01 -7.695046420544260357e-01 9.561100058193251483e-01 -1.015663452518728305e-01 2.748416531101991467e-01
2.302251887946992967e-02 -8.909581350303880098e-02 -8.214053142299105881e-01 9.471514916859632427e-01 -6.881539513153797638e-02 3.133185171513878653e-01
-2.685429121813532813e-02 -2.743576935631318603e-02 -6.487007344309033696e-01 9.106382329928772723e-01 -2.460798370456499795e-01 3.319378291355121746e-01
-3.042199279277127758e-02 -5.589417279768753993e-02 -6.612107460380466373e-01 9.036179045794910936e-01 -2.501427922648030155e-01 3.477114694705031872e-01
1.587320599441599848e-04 3.978630633841283293e-02 -6.753577618193926657e-01 8.768752219308955098e-01 -2.018343332912989063e-01 4.362943353614616715e-01
1.417101244480601166e-02 -1.854641058690103816e-01 -8.137929477283459834e-01 9.632001976690223177e-01 -1.679767365151490360e-02 2.682596081601804072e-01
1.935662324371123511e-02 -6.783780388941412776e-02 -8.012551125822841014e-01 9.540780713905766541e-01 -1.305149606178679089e-01 2.696310047946156585e-01
1.295300181439022411e-02 1.363419868949558404e-02 -7.363144685406147749e-01 9.613391459838077635e-01 -1.380684291901007887e-01 2.382522932945266292e-01
-7.071044638226102463e-03 5.398783096685623450e-02 -6.552399483431669003e-01 8.846804197551151328e-01 -1.557086789828320827e-01 4.394261737668053169e-01
1.964230582572035894e-02 -3.363480904474440425e-02 -7.837953802117173518e-01 9.479353216460484344e-01 -1.506690512694661421e-01 2.805663254301227760e-01
-2.715633949288574767e-02 -4.234234810163092777e-02 -6.594943332027520810e-01 9.057730370626765337e-01 -2.586546180634185510e-01 3.356679816198177568e-01
-2.735515075538519705e-02 -8.393472836724247266e-02 -6.867600954468586760e-01 9.061309028473711891e-01 -2.177076252206003593e-01 3.626708932707644051e-01
2.835542579560245552e-02 5.814327066282096168e-02 -7.595796484132377735e-01 9.280532620606607441e-01 -2.169696145772794793e-01 3.027231889511490248e-01
-1.252710275737106867e-02 -5.008111063100254695e-02 -7.006099575091353504e-01 8.837205517643389463e-01 -2.520223106739980512e-01 3.943637170327302099e-01
3.208637905103304665e-03 6.935558599655783363e-02 -6.682352375730049587e-01 8.420480110409686025e-01 -2.016148371019730601e-01 5.003065106135373696e-01
-3.201168671222086055e-03 -1.954922047577004746e-02 -7.014982475300064468e-01 8.786621909049269208e-01 -2.514326518283537815e-01 4.058748278333058068e-01
-2.826200227095168258e-02 -1.342052761958423268e-01 -7.018393755730965022e-01 9.410761251426794649e-01 -5.075467867214268625e-02 3.343646053028448417e-01
1.678352503010533195e-02 1.225325985200293455e-01 -7.004623838630975596e-01 9.491852436137152571e-01 -5.683217695963266314e-02 3.095439822836180133e-01
1.116327121984226831e-02 -3.952370814533050225e-02 -7.581915712174081001e-01 9.501312132758429341e-01 -1.494878407533108411e-01 2.736860665541588356e-01
3.417850251594509864e-02 -2.921410108434613871e-03 -8.126199412861013771e-01 9.389717876051256740e-01 -2.025627767967929094e-01 2.780293213637854421e-01
-1.180571095966212632e-02 -1.390579609263058458e-01 -7.443669698777111154e-01 8.922611569528048348e-01 -1.232860986633444456e-01 4.343622516628422026e-01
1.990833072511984450e-02 -2.191069784421298128e-01 -8.218516602980615593e-01 8.876982957446150069e-01 3.689783992699331439e-01 2.754027534435769531e-01
-4.066845080944540836e-02 -7.849263562216328427e-02 -6.497083641253664776e-01 9.109418390560450884e-01 -2.073161799289214846e-01 3.566580538791596644e-01
7.925613049604490409e-03 -3.890961573121045920e-03 -7.253494214033459064e-01 9.715664800341511365e-01 -1.262941882783694958e-01 2.002706990080098948e-01
-2.884059639942536737e-02 -4.048744561602758696e-02 -6.535101286387892117e-01 9.056678569482692343e-01 -2.598416616728261852e-01 3.350343918910919094e-01
1.284962844551999425e-02 -1.463300028510815254e-01 -8.055739040478492319e-01 9.415515312899571665e-01 -5.366696238524856083e-02 3.325666415530527664e-01
1.106287207521026647e-02 -1.389686569888096412e-01 -7.987672496934294930e-01 9.539242686901224788e-01 -6.064571233251721954e-02 2.938547041986845909e-01
2.796263651420632587e-02 -1.479225452070423441e-01 -8.363148726112434872e-01 8.591783512778004006e-01 1.107641545831880223e-02 5.115563250670989159e-01
-1.431755427666958798e-02 -9.068036014956563917e-02 -7.204676986843541187e-01 8.844251270317672331e-01 -2.067156437464294227e-01 4.184027214363472136e-01
5.673179679874105130e-04 -9.937163848073000960e-02 -7.535117806775843974e-01 8.333779665600329345e-01 -2.316231485310122906e-01 5.018285383642955289e-01
-2.532945195961387296e-03 -5.975919177272348559e-02 -7.276333810595855267e-01 8.543205752747643489e-01 -2.609169638305919858e-01 4.495093910560948869e-01
-4.106606257297302012e-03 -1.592143764698294162e-01 -7.656533449399666180e-01 8.899032548719358893e-01 -1.097494433867350905e-01 4.427496545957274598e-01
-2.317612957759415324e-02 -8.179866186992935939e-03 -6.452753392824420731e-01 9.190820659464836728e-01 -1.998308560140401591e-01 3.396406704743102911e-01
8.345988692456561206e-03 1.166400445851051154e-01 -6.715321607406924409e-01 9.757770382077239901e-01 -4.752905235568230524e-02 2.135419417555540766e-01
2.532546353972602374e-02 1.169528213890747188e-02 -7.777241132895528208e-01 9.358677517819976588e-01 -1.516947194966625223e-01 3.180255701218657194e-01
-2.291123373917907172e-02 5.515851709956466620e-02 -6.217339537175449182e-01 9.174337046059414247e-01 -9.716759517920971201e-02 3.858417500739223516e-01
-2.400273239555739254e-04 -6.711970759543120502e-02 -7.360848789109668555e-01 8.370175504467262106e-01 -2.609894264385252405e-01 4.809221761693378561e-01
2.977088208931506080e-02 3.105388138774984284e-03 -7.950399076351545302e-01 9.317886252116366341e-01 -1.728107901480394892e-01 3.192278006919485600e-01
-4.718838335412233950e-03 8.457962379590737434e-02 -6.490507184586293832e-01 8.459812490827174347e-01 -1.853437766236472606e-01 4.999634093284514025e-01
2.649680054704256146e-02 -3.334930998268230418e-02 -8.076096461874974208e-01 9.468589173476303911e-01 -1.813010849158341042e-01 2.656842246871542468e-01
-2.187714272508031049e-02 -4.514539428301519303e-02 -6.752787261654814577e-01 8.975480151145227570e-01 -2.659339706362414124e-01 3.516911767810260159e-01
2.441185897157945733e-02 9.231170555125008115e-02 -7.297601233797339493e-01 9.295387236696155409e-01 -1.194776241756907720e-01 3.488307018024567330e-01
5.560272768081964134e-03 -2.270452415946639171e-02 -7.267756344189020279e-01 9.701246036799607841e-01 -1.350523080117491115e-01 2.015418751413671494e-01
7.497393558530534956e-03 6.846993329435241415e-02 -6.810538621034739615e-01 9.813618901077149070e-01 -6.908701143258660915e-02 1.793204547605391219e-01
2.936895609166504263e-03 -1.385348319063882949e-01 -7.724151510010408561e-01 8.299825661645654495e-01 -1.831880511601284844e-01 5.268501473616924446e-01
-2.642742208314255783e-02 -1.511763843157794274e-01 -7.085121819881422534e-01 9.436978931299727646e-01 -2.273367106726342096e-02 3.300264636386839312e-01
1.238545405540228579e-02 -5.420996337991605685e-02 -7.701649112060094948e-01 9.488821502272388742e-01 -1.467739722534764923e-01 2.794281053313484864e-01
-6.871161946460196436e-03 -1.755197677896864206e-01 -7.640190567605255056e-01 9.019545113881860532e-01 -1.027494999504302703e-01 4.194288970092965307e-01
-3.103548531933315174e-02 -2.782645202728101577e-02 -6.368172070934413620e-01 9.174317219498985265e-01 -2.490585932312175399e-01 3.103044516240958117e-01
-9.479033890863127615e-03 -1.861676112662448077e-02 -6.866818949681432471e-01 8.928836629258247726e-01 -2.488788556127754792e-01 3.752573513057901877e-01
1.699931708250509640e-02 -5.660483234011843418e-02 -7.871659437705624818e-01 9.511195038546987890e-01 -1.424665843307437452e-01 2.739981053517023812e-01
-1.975299801966363261e-02 -1.694949554514299517e-01 -7.293772477916337094e-01 9.472904628249149139e-01 -2.835987659291322113e-02 3.191183110393275291e-01
2.189782412883005402e-02 -2.201439825233930669e-01 -8.261924119022910906e-01 8.449420178668261006e-01 3.835298293344729381e-01 3.727973396549473795e-01
7.593619924364031736e-03 -2.112519695946539211e-01 -8.003018158527344106e-01 8.202726023836808267e-01 -1.392928205051967294e-01 5.547525285516153870e-01
2.169739712956226391e-02 1.006016823769515095e-01 -7.201359875535595645e-01 9.308877416879431932e-01 -1.016802425382056230e-01 3.508691218282007918e-01
-1.249678864644818664e-02 -1.437291376277561872e-01 -7.439754124405667524e-01 9.093054995835133658e-01 -9.999693979966810253e-02 4.039357875428698508e-01
2.948286221938308665e-02 -3.168530447939894856e-02 -8.175485867277421104e-01 9.525926927677385025e-01 -1.756727053946715023e-01 2.484074521121012180e-01
-1.691944166938531141e-02 -1.019220136727317233e-01 -7.203565876703704740e-01 9.004024480859688095e-01 -1.639837524424438975e-01 4.029699249518371440e-01
1.257108824116123444e-02 -1.924885410840354305e-01 -8.068796673994652613e-01 9.831984485845687294e-01 5.497615092041450297e-02 1.740644522321338483e-01
2.193780985551806173e-02 -7.849740529182906712e-03 -7.771682630569249906e-01 9.358758481178769406e-01 -1.541280183962604189e-01 3.168295296447069531e-01
6.136034099394471232e-03 1.568566126378394820e-01 -6.560958446321523141e-01 9.713160308909948304e-01 -3.081112670392161315e-02 2.357877066460396798e-01
2.056075994878580476e-02 1.119500548289931730e-01 -7.140602945954360736e-01 9.354123444295017187e-01 -1.028016453425116272e-01 3.382832653321409255e-01
2.282718133793721488e-02 -1.317775982832149750e-01 -8.271267092571518154e-01 8.995376913935485552e-01 -3.377605400905499961e-02 4.355354405073626478e-01
-9.948236044891315549e-03 4.109966561952073383e-02 -6.540172284289992310e-01 8.846948654174850990e-01 -1.559786560948631662e-01 4.393013247723915327e-01
2.284953356993962847e-02 7.081690453625215376e-02 -7.344107517682163522e-01 9.343876801039019409e-01 -1.826833550302205955e-01 3.058536497492719275e-01
2.762616237332128979e-02 2.410905371292207389e-02 -7.782619483041954833e-01 9.298530135403225705e-01 -1.624836491462757215e-01 3.301097347399656878e-01
-1.497213804841497978e-02 -9.569478270959477784e-02 -7.215670237463176484e-01 8.865007261561285157e-01 -2.078163744708007021e-01 4.134353843425458974e-01
-2.894966887408566281e-02 2.262402669000336819e-01 -6.132062635408773721e-01 7.970797940127093417e-01 3.153851288520677643e-01 5.149718657127019261e-01
-4.857352934828755749e-03 -1.577066757319935675e-01 -7.637299146900407010e-01 8.908128129451456934e-01 -1.194150978388174023e-01 4.383977266146603102e-01
-9.504220423055249542e-03 -9.078063039165558401e-02 -7.305652861197358128e-01 8.744209206039099680e-01 -2.189451651592108639e-01 4.329561967031033132e-01
1.955441599041863460e-02 -4.928997152664904569e-02 -7.922319684748679869e-01 9.511195038546987890e-01 -1.424665843307437452e-01 2.739981053517023812e-01
1.447527379877466824e-03 -1.319140913197053844e-01 -7.676643914745389097e-01 8.528019158018209644e-01 -1.657496394088234792e-01 4.952332273187944889e-01
2.435097362158954084e-03 5.068045926216765279e-02 -6.748592801130149921e-01 8.548443154263305477e-01 -2.108999985036035252e-01 4.740911167850208052e-01
-1.088856764224047959e-02 -1.026315768917939325e-01 -7.333121613644550951e-01 8.742428696400244004e-01 -1.953716812881901577e-01 4.444426971322638087e-01
1.786141108083796544e-02 -7.985948501089946971e-02 -8.016452753113528784e-01 9.525034514620404069e-01 -1.157535082415324379e-01 2.816705527432317169e-01
-2.930164519781550163e-06 2.715954307227746306e-02 -6.812514684218230476e-01 8.849412729017722690e-01 -2.134756405342734531e-01 4.138926121755162613e-01
-4.167563221379041311e-02 -7.266060491789982922e-02 -6.434084194527907030e-01 9.089187971092904661e-01 -2.456620107169104339e-01 3.369225382071153185e-01
8.837828225862163004e-03 -1.167863855408738695e-02 -7.341197297126427213e-01 9.638511104956092312e-01 -1.379682766471203303e-01 2.279381307184132899e-01
-1.716242957458602794e-02 -1.906959639939166118e-01 -7.393540097570558967e-01 9.482493044088964318e-01 -4.359966684296655293e-02 3.145191977276207140e-01
-1.581851038744195789e-02 -1.657178945895744493e-01 -7.402849233501379578e-01 9.390509354036756795e-01 -4.111975938773701489e-02 3.413099853584364851e-01
2.846994173714477439e-02 -4.215991736725532672e-03 -7.951243674611671031e-01 9.350862833078242842e-01 -1.778273059612659468e-01 3.065796666840733820e-01
1.067352958198090028e-02 -2.144603423414428722e-01 -8.052438185780859126e-01 7.889116175864738789e-01 -1.282076583030161421e-01 6.009835738100915981e-01
5.645771849789912866e-03 -1.188537239253749100e-01 -7.755400562831676892e-01 9.605725915757908906e-01 -8.460760408710887859e-02 2.648430660674505055e-01
-6.282641477884740727e-04 5.724994629324437617e-02 -6.663801129104686138e-01 8.673471342874524703e-01 -1.805175665889331149e-01 4.638128467347080175e-01
9.744908519294000475e-05 1.080388635206137038e-01 -6.481045980666457762e-01 8.238273619158443806e-01 -1.963759387248950050e-01 5.317376876324422241e-01
-3.291476984877521328e-02 -1.263903381281732963e-01 -6.874975749184961682e-01 9.413994434510676301e-01 -5.388143567510279841e-02 3.329622782833057681e-01
-2.865709972583452628e-02 3.212832527877455824e-02 -6.135991492204855291e-01 9.244543586727347328e-01 -9.871225879702420769e-02 3.682934002859296063e-01
1.612850164459402394e-02 2.275580172463373754e-02 -7.431450835024092649e-01 9.551697844274281701e-01 -1.481414390705173556e-01 2.563294695250163957e-01
-4.372549425535515732e-02 2.392542496603653757e-01 -6.028496535682528190e-01 6.587903039960666396e-01 5.140253209759725328e-01 5.493389707241955744e-01
1.064175927641129900e-02 -2.164445841023791492e-02 -7.466038081804102777e-01 9.523894477849513818e-01 -1.448300048431587495e-01 2.682882953932316239e-01
7.180301433782517763e-03 4.698110699361863346e-02 -6.892490461578278937e-01 9.761590197357525867e-01 -1.038680616090567055e-01 1.905911696960584378e-01
-9.781982557310803239e-03 -6.779892283034601175e-02 -7.175548039252338528e-01 8.739634187326182913e-01 -2.485303280245861890e-01 4.176369461256817517e-01
1.059064730383864859e-02 9.354603322230869988e-02 -6.873483339901187428e-01 9.708714979286352520e-01 -5.997290202413838728e-02 2.319736742231990334e-01
2.482980408782119522e-02 -1.517204176250370930e-03 -7.827057809434982971e-01 9.381151860110120699e-01 -1.572031985502305440e-01 3.085888075434704003e-01
1.262641735548073775e-02 1.090374319752844892e-02 -7.365790253893996775e-01 9.613391459838077635e-01 -1.380684291901007887e-01 2.382522932945266292e-01
-3.629360766243250585e-03 -1.012537350936318636e-01 -7.468311871463123586e-01 8.648654791457953683e-01 -2.072229571214294352e-01 4.572377379698265853e-01
2.134724982251365311e-02 1.029852572141321809e-01 -7.185758187919953910e-01 9.300948146541575534e-01 -9.059085713004470797e-02 3.559732185964163964e-01
-5.224751319493932747e-03 3.683910150950642920e-02 -6.655639473659420435e-01 8.846144001242021160e-01 -1.885819975741005461e-01 4.264905547416726339e-01
7.971741949182367323e-03 1.297105735001655435e-01 -6.671770084150163704e-01 9.745582010498816672e-01 -4.106867800547164826e-02 2.203399111674982092e-01
2.990520286618452567e-02 4.517236080858468006e-02 -7.732631335995653332e-01 9.288486042177774848e-01 -2.052606967930903081e-01 3.083963631346867129e-01
-2.778515064266878776e-03 -9.084534266762900323e-02 -7.437119580395866736e-01 8.526701562326264305e-01 -2.169922663365358995e-01 4.752556796297775499e-01
2.507835804311344535e-02 3.686399852486715867e-02 -7.641573999947004481e-01 9.357817018407030840e-01 -1.695943803397139127e-01 3.091122007577599695e-01
-2.479606269451617353e-03 3.899395761563759222e-02 -6.703170374004866483e-01 8.894657274449198070e-01 -1.929338810004589400e-01 4.142791779259248908e-01
1.218625137248661484e-02 1.411104679547626750e-01 -6.817754088429451853e-01 9.640437686418280583e-01 -2.767673523373600716e-02 2.642983361083897642e-01
1.598006640496675915e-02 -9.232805646112871023e-02 -8.005733517319661985e-01 9.503128286274531433e-01 -1.226621985194904924e-01 2.861110148184686786e-01
-2.137246185293069020e-02 5.778960705954293287e-02 -6.245531712349557951e-01 9.040891881739236968e-01 -1.068608207926616677e-01 4.137674525703224360e-01
1.980945216779485436e-03 -1.123899679292411219e-01 -7.613210614170837776e-01 8.065902357228915687e-01 -2.324046758319892603e-01 5.435073672802586131e-01
2.105970827883373031e-02 -4.063770823147226652e-02 -7.925209889348833192e-01 9.477656307277513292e-01 -1.573847591718496031e-01 2.774353019924576946e-01
-3.130077901073310964e-02 -1.879923321188058105e-02 -6.294640856596537271e-01 9.213299847640851192e-01 -2.280346096612770601e-01 3.148829559872038941e-01
3.879755515468017585e-03 1.324258549294597687e-01 -6.458818009931743820e-01 9.959175926730303718e-01 5.884700767338477828e-02 6.844836223201077041e-02
2.486178122525666348e-02 5.149192708881597871e-03 -7.794820281468081147e-01 9.358677517819976588e-01 -1.516947194966625223e-01 3.180255701218657194e-01
-1.170413483746231276e-02 -2.223671374104104273e-02 -6.838025396946206813e-01 8.891649271025277024e-01 -2.580573729553153339e-01 3.778784522490768460e-01
1.502166111337679619e-02 -5.466186968557108089e-02 -7.793825276914624345e-01 9.492380539042255538e-01 -1.463631312437086718e-01 2.784330275535847887e-01
1.064287928930566065e-03 1.351604826058057651e-01 -6.405787578118325998e-01 8.227275018111377403e-01 -1.577577765005944432e-01 5.461061634125665698e-01
-2.375504600794055635e-02 -8.564405682528759833e-02 -6.965025260678279206e-01 9.066279228323345096e-01 -1.987835061536385728e-01 3.721705620034890249e-01
-2.975639983338376066e-02 -9.949989615822638078e-02 -6.881609542417487235e-01 9.235021925027940837e-01 -1.524145429092907955e-01 3.520135047867962719e-01
1.987665991025976478e-02 3.118254433839990486e-02 -7.511588222078302568e-01 9.436558271932666830e-01 -1.832289323335277997e-01 2.755736528772424476e-01
1.039857405056561837e-02 9.531044099929057711e-02 -6.860882983294533943e-01 9.708714979286352520e-01 -5.997290202413838728e-02 2.319736742231990334e-01
1.861111036185434525e-02 -1.969001013598069005e-01 -8.261428000051155296e-01 8.717323630721388605e-01 -5.433546233371105982e-02 4.869603112222253838e-01
2.312501310383500985e-02 -1.578458343026550026e-01 -8.288642130865776503e-01 8.498558917045451189e-01 -2.945634058884339518e-02 5.261913029822770094e-01
-4.047760398248012592e-02 -7.349379955491010252e-02 -6.472478617638801612e-01 9.089187971092904661e-01 -2.456620107169104339e-01 3.369225382071153185e-01
1.963582132672999497e-02 -1.375685979956598783e-02 -7.729361383011658093e-01 9.423701987292252280e-01 -1.591742637928793558e-01 2.942821134439458364e-01
1.358362643550693749e-02 6.686838288177243683e-02 -7.064154754491097643e-01 9.608032803046898662e-01 -1.051288718566596586e-01 2.565248074902178876e-01
-1.387502354863192136e-02 1.183514944946023745e-01 -6.205741364406406335e-01 8.564984700160805930e-01 -1.453080638603862218e-01 4.952735985667509611e-01
-1.268701495416718616e-02 -1.572421574523597265e-01 -7.468404706664104609e-01 9.070755433049143557e-01 -9.945453094446855824e-02 4.090510420628583055e-01
2.262339364402236874e-02 -1.847116890258715671e-01 -8.310849609819712658e-01 8.517651964042287638e-01 -1.008633214228087938e-01 5.141231764723553921e-01
-2.552418811355172679e-02 -1.469337237853910461e-01 -7.108732901868028975e-01 9.475398826643798289e-01 -2.243289401009846903e-02 3.188493939569352342e-01
-2.062802764407011338e-02 -7.192852134010055236e-03 -6.514920109501376455e-01 9.124823605518067593e-01 -2.195737277498467921e-01 3.452004052196906980e-01
2.043844068073740611e-02 -6.573930600308813474e-03 -7.718905272559204445e-01 9.424419138005405427e-01 -1.464471423207715783e-01 3.005935355559962163e-01
2.002073362346210722e-02 3.792183567181241222e-02 -7.471719171013895266e-01 9.434132369044471167e-01 -1.829001306634520096e-01 2.766206909050108464e-01
1.231258665427994309e-02 4.558318484183767477e-02 -7.128238555976849078e-01 9.593203236018205127e-01 -1.516807287907528112e-01 2.381123122352230559e-01
3.117772441497370164e-02 1.857171261029485002e-02 -7.910420573444134629e-01 9.297624990800821276e-01 -1.631759210605613075e-01 3.300232023515887181e-01
2.424379062911901153e-02 -1.056767304120318079e-01 -8.279629526802808615e-01 9.350057193530159072e-01 -4.477849994910731990e-02 3.517942448640355990e-01
-2.852143963144983946e-02 1.275061242525958073e-02 -6.202419751916117274e-01 9.245191832233438101e-01 -1.445230904647851478e-01 3.526717399715330048e-01
1.115961963855783938e-02 5.682788408579787787e-02 -7.016568035847824403e-01 9.648699779224180206e-01 -1.274657417265969983e-01 2.297355226996491973e-01
1.712573442128888235e-02 -1.835159085566861192e-01 -8.212543650172909881e-01 8.982643000394844313e-01 -6.325162527801128642e-02 4.348798445252032296e-01
2.258363516710066871e-03 -4.411122076964869854e-02 -7.274387027299975550e-01 8.180581212013783299e-01 -2.873559522240356490e-01 4.982042423122153840e-01
-4.288038971634509228e-02 2.385126932563746138e-01 -6.031911580286337671e-01 6.664806451493030526e-01 5.040665426118735581e-01 5.492908794624945523e-01
-3.229331498687771501e-02 -2.114063257841918356e-02 -6.282602575575725323e-01 9.207221619224156273e-01 -2.284798781838593973e-01 3.163347053517864271e-01
1.588318242916490980e-03 1.257920391719181685e-01 -6.442571064220538046e-01 8.236900430157871877e-01 -1.681329792681846846e-01 5.415404087591753068e-01
1.647953833316148642e-02 -5.716391203163696116e-02 -7.856523510702108082e-01 9.511195038546987890e-01 -1.424665843307437452e-01 2.739981053517023812e-01
-2.251836747103402522e-02 -1.176614907195768084e-01 -7.132593519385292957e-01 9.236283730243193268e-01 -1.267744160210663162e-01 3.617165685823170440e-01
-3.658740861938424883e-03 -3.166569419000630353e-02 -7.081863486306764210e-01 8.750279833395717688e-01 -2.557026032668469617e-01 4.110257985275855841e-01
1.099019792775833906e-02 5.192265979127480557e-02 -7.036668459380571727e-01 9.648699779224180206e-01 -1.274657417265969983e-01 2.297355226996491973e-01
9.375904784542064135e-03 -1.095616339937401096e-01 -7.853575782330762811e-01 9.529982741963278770e-01 -1.009319961199443422e-01 2.856694270272269742e-01
1.569787137656099632e-02 -1.292190516498901709e-01 -8.102638761134588474e-01 9.272737693233029654e-01 -7.578887264532530033e-02 3.666325183451467074e-01
7.858107969176027219e-03 -1.140365503509893075e-01 -7.817077724836343222e-01 9.564633577077351623e-01 -9.686508169832776238e-02 2.753089197792567555e-01
-4.137391622919654038e-02 -8.883924552445314482e-02 -6.533557271949749223e-01 9.165278018628094658e-01 -1.701465747174570886e-01 3.619764239898000113e-01
1.190734541213460049e-02 4.044580985297964448e-02 -7.144648420097357011e-01 9.606822017234866173e-01 -1.532876333996782969e-01 2.315007748117481612e-01
-3.338804698618205290e-03 1.493074089837509999e-01 -6.293922383199991311e-01 8.616970028638453183e-01 -1.426346868712594085e-01 4.869636756028155045e-01
-2.177219412296982782e-03 2.913382199778411299e-02 -6.756492934028316411e-01 8.917948313702561691e-01 -2.048624866405222289e-01 4.034022066235606330e-01
1.981460666077647023e-02 -4.092577679700132309e-02 -7.883533904728914354e-01 9.509568243421734346e-01 -1.540130933650606382e-01 2.682556342542942174e-01
-2.913240402744698282e-02 9.771533077218202967e-03 -6.198498107726437834e-01 9.267240022370275554e-01 -1.436028399457424665e-01 3.472187322672887211e-01
-3.244849214346420124e-02 2.307853328471738963e-01 -6.106212587290821281e-01 7.946005618639939705e-01 3.207099898009010408e-01 5.155143543368418957e-01
-8.534412193425681189e-04 2.636236536393942245e-02 -6.798478573416610882e-01 8.821441485907958180e-01 -2.120597003609857589e-01 4.205382082401414312e-01
-1.806388198646436544e-02 -1.862232657164575866e-01 -7.360210669667007766e-01 9.481872214541320343e-01 -4.299479914858478358e-02 3.147895174831357723e-01
-1.978676902633774107e-03 1.313344056683200534e-01 -6.369517231006457392e-01 8.359598606615248340e-01 -1.642123674239460984e-01 5.236462639490391258e-01
-8.261132629255282453e-03 -1.202240762263222379e-01 -7.455675948977983358e-01 8.783899350826734898e-01 -1.742136100310348601e-01 4.450626248354394021e-01
5.345392093251179373e-03 5.221171515015061299e-02 -6.793785478002580813e-01 8.459026748669089546e-01 -2.277058666683848820e-01 4.822848773679389578e-01
1.970459357538799708e-02 2.213667091189939345e-02 -7.556303199432647943e-01 9.435383079637731374e-01 -1.619577828047264467e-01 2.889725557796736788e-01
-7.998562263988883564e-03 -1.565812496038985480e-01 -7.570405041121133216e-01 8.908128129451456934e-01 -1.194150978388174023e-01 4.383977266146603102e-01
-1.255575765053178541e-02 9.816730380959272362e-02 -6.297735273049721583e-01 8.666836380081444080e-01 -1.637295043808220385e-01 4.712240666648702669e-01
-7.324579496161050945e-03 -2.069727945674643965e-01 -7.692853499555405428e-01 9.323102200844960441e-01 -4.969842698353339749e-02 3.582285860750933915e-01
3.012697238338181774e-02 3.111669513687955954e-02 -7.818612551395647259e-01 9.302537906146133295e-01 -1.630051002468793642e-01 3.287205839929218665e-01
2.772889077185012804e-02 -1.356078614708022545e-01 -8.362158687353304920e-01 8.582775751656543939e-01 1.486625059716911203e-02 5.129703681119860414e-01
1.220719480727735888e-02 1.442512399498797337e-01 -6.813625012975931261e-01 9.652446789762910706e-01 -4.131108656089028941e-02 2.580622092347406582e-01
-7.841603741983919559e-03 -3.878916433761519372e-02 -7.036183916172896735e-01 8.809565929830343034e-01 -2.550066534875377045e-01 3.986064324077213117e-01
-6.336546325321155623e-03 6.588304468804548342e-02 -6.527403734298820037e-01 8.669580076865127660e-01 -1.603415259540056370e-01 4.718838924597589246e-01
1.093372150521512709e-02 1.308135936575802738e-01 -6.788879291089745527e-01 9.628139892320037863e-01 -6.619355817018532373e-02 2.619305919436004104e-01
-2.463028446289157805e-02 -1.347690292203517493e-01 -7.119321367027795500e-01 9.391573873488011648e-01 -6.699951608754255161e-02 3.368893982187755598e-01
-6.341693521190064874e-03 7.576532833656129950e-02 -6.493888323887588854e-01 8.583750511138318329e-01 -1.682033142132947079e-01 4.846647467198227921e-01
4.016345348843715357e-03 1.044303417288589553e-01 -6.552592813961054530e-01 7.707437337463488580e-01 -2.338825520051436291e-01 5.926660516330409800e-01
2.558494960076209204e-02 7.655461647410310988e-02 -7.393183044065940734e-01 9.295366776167816036e-01 -1.515451829840170905e-01 3.361482150473149577e-01
1.702456385793870916e-02 -1.498004389111369794e-01 -8.167647624964041730e-01 9.133406530302425885e-01 -5.390993865072515878e-02 4.036119052220399350e-01
-2.544257573586694576e-02 3.261699061232908869e-02 -6.214153765832916010e-01 9.215744632051529051e-01 -1.016248415718841724e-01 3.746637163425671768e-01
-2.658406862443885021e-02 3.581529894462670560e-02 -6.177806910327658940e-01 9.202134105518470220e-01 -9.936236374821225126e-02 3.785952980570487791e-01
2.264469620917297990e-02 -7.636275366454207958e-02 -8.164367253756048548e-01 9.545733363560165996e-01 -1.054004336097756345e-01 2.787122066092804773e-01
2.880454052159578046e-03 1.498784670609153713e-01 -6.432873440464329517e-01 9.763616738406759588e-01 1.027856542667871312e-02 2.158986636081904331e-01
-6.621866195907319397e-02 2.644179186104637092e-01 -6.037161456834923001e-01 4.365647330364914036e-01 5.134493978814961279e-01 7.387698895352369233e-01
-3.424587052300964718e-02 -7.914068850455656390e-02 -6.666723337807030081e-01 9.137657250871608072e-01 -2.042402879814090022e-01 3.511667757935059697e-01
-6.822894102872816002e-02 2.670948461553235842e-01 -6.048162859391605917e-01 5.467213607636828288e-01 6.269571755721815576e-01 5.549959042040396584e-01
