1.115104236879967819e-02 -1.819931355604489931e-01 -7.722778122755608043e-01 7.261358420380964462e-01 -2.353427653123139063e-01 6.460189793827870730e-01
-4.125488770779223158e-02 4.757326822580829756e-02 -6.135439258085696457e-01 5.806581484715177544e-01 -3.214777470300629325e-01 7.479894202313984719e-01
9.232619572752219853e-03 -1.034359521605593690e-01 -7.379097763940684063e-01 6.718779914682369014e-01 -3.296205694484294901e-01 6.632723760093590659e-01
-5.641623125763532004e-02 -5.230044660323120848e-02 -6.604315635826559783e-01 5.589058337756237504e-01 -4.308609659167996764e-01 7.085076548780662176e-01
2.026445881786539255e-02 -7.300960345197514412e-02 -7.326997616735484442e-01 6.525101767747737425e-01 -3.665660515288066135e-01 6.632192692254453847e-01
-2.126005392842283265e-02 1.151234507341925006e-02 -6.468491045335736933e-01 5.456285250620747096e-01 -4.173092301821499928e-01 7.267341460557402710e-01
-7.251173457970402914e-02 -5.698039614017737925e-02 -6.504398500813337591e-01 5.649066274208512928e-01 -4.561424090547169241e-01 6.876151575974446262e-01
4.988871588677386976e-02 -1.033107683154846079e-01 -7.768485736333201608e-01 6.346729618510265070e-01 -3.128663702806465663e-01 7.066150761501334143e-01
-5.044869046207870605e-02 -7.401707552719800909e-02 -6.782351626246944098e-01 5.619466494247529198e-01 -4.077536867916597418e-01 7.196894428210705019e-01
9.783769873118550869e-03 -1.115570616348402627e-01 -7.423767907553611156e-01 6.843129043660720612e-01 -3.146954328983947446e-01 6.577861608691408790e-01
6.988112705801116653e-02 -2.863154978661054326e-02 -7.560901027305939603e-01 6.474524444160876246e-01 -4.269301828245687380e-01 6.312970388121691423e-01
2.311746311180967002e-04 -2.155750299311166573e-01 -7.755892951631979670e-01 3.912821010470458050e-01 -2.916333103092935142e-01 8.728392347495916859e-01
3.746702150623969912e-02 1.789483143649707106e-02 -6.989703845328704146e-01 6.651377124636784766e-01 -3.727567352860025052e-01 6.470272326243355909e-01
-6.091535965544462444e-02 2.709102224033011451e-03 -6.198825815495491165e-01 5.973163037148864207e-01 -4.141236527934409883e-01 6.868149922019779474e-01
4.726429056991011263e-02 6.874257670353994820e-02 -6.776849319886549816e-01 6.216278666800469921e-01 -3.627952102147125601e-01 6.942322599909028780e-01
1.229981449665797436e-02 6.932474087001082308e-02 -6.417979464682183055e-01 7.250212797277268972e-01 -3.100672155682185349e-01 6.149816792163333989e-01
-7.054179947815818717e-03 -1.758400606811504063e-01 -7.560585599721515448e-01 4.864160492967924965e-01 -3.330622146351922552e-01 8.077555250004800902e-01
2.948523350027968531e-02 -1.065899478149455598e-01 -7.593805672406639395e-01 6.575244257434617046e-01 -3.321330342174736439e-01 6.762760361954468502e-01
-4.445725713624965741e-03 -6.593991358536543945e-02 -7.058369207086184760e-01 4.637803302026429764e-01 -4.407315522193550050e-01 7.685463578701321463e-01
1.529833133822138848e-02 1.119892835738531267e-01 -6.249556706345364976e-01 7.474958188207304621e-01 -2.753882257887183549e-01 6.044926186004818680e-01
5.265727538952717779e-02 -4.528165320243157654e-02 -7.492032103295770407e-01 6.605970321927395750e-01 -3.890805477841547955e-01 6.420497553882613673e-01
-1.369486399033908487e-02 -7.431147111511134107e-02 -7.048335873024259568e-01 4.837326719948295550e-01 -4.389243488795364079e-01 7.571975422605500272e-01
-3.676427989671631619e-02 -7.516029906444682274e-02 -6.892677864761610484e-01 5.428529064268226012e-01 -4.201626794392464004e-01 7.271685119629316407e-01
6.634779574512120193e-02 4.883935013525909918e-02 -7.068734832370547894e-01 6.014195297236296645e-01 -4.363853516471531968e-01 6.692252043481317081e-01
-3.992597611780551031e-02 -1.757346593538861024e-01 -7.307843500578564688e-01 6.511459601342095560e-01 -2.705097683259063968e-01 7.091074698810913013e-01
-2.765079555000088678e-04 -2.133005502893018657e-01 -7.745922808448708619e-01 4.144387826495388172e-01 -2.906208375290978418e-01 8.624268225361814144e-01
6.729731663030524835e-02 -5.142664404200088940e-02 -7.681158513195954773e-01 6.635593481507165992e-01 -3.908824473525087662e-01 6.378870619737548875e-01
1.061042955605939753e-02 3.903095928117406022e-02 -6.561666164118516997e-01 7.270852765985976740e-01 -3.398461687574675927e-01 5.965329681873514645e-01
-5.437722105403205997e-02 -9.579079553132406610e-02 -6.865955028010930494e-01 5.967329303245809680e-01 -3.594704031526965715e-01 7.174195697940476402e-01
3.582088578672580625e-02 -1.778656089376547400e-01 -7.898920773869464451e-01 4.519664278763059206e-01 -2.616731641045529910e-01 8.527915942715684761e-01
3.583546578354602358e-02 3.302824391653882280e-02 -6.879520714189460984e-01 6.635150340925289880e-01 -4.012837062991381765e-01 6.314421482543093322e-01
2.267809332491488999e-02 -2.060464570353574554e-01 -7.912983807409426085e-01 5.956248175702490988e-01 -2.350617421035794408e-01 7.680996381288286434e-01
5.237907208901795841e-02 5.819127536376775267e-02 -6.882445475617676722e-01 6.196940232321985764e-01 -4.015042940902026625e-01 6.743690528170900311e-01
-6.877973057301793418e-03 -2.176935637052110073e-01 -7.722938365002011141e-01 5.449685873069226583e-01 -2.066328530270662711e-01 8.125959038160307513e-01
2.630967875473427808e-02 4.236989655890489870e-02 -6.719610408989505901e-01 6.792392642336634312e-01 -3.801803680718325862e-01 6.277713832726669052e-01
-9.855744825165256920e-03 -2.736496177560326926e-02 -6.790009393472613564e-01 5.032722445260225941e-01 -4.585082590167940397e-01 7.324528819679307912e-01
-3.153760153324405933e-03 3.459370589489838693e-02 -6.469478836193554017e-01 5.159622251056681375e-01 -4.052691188209489592e-01 7.546786889757117756e-01
-5.109346202076774784e-02 -8.240233211540425387e-03 -6.350519324801779941e-01 5.811874250341502179e-01 -4.385204147136231856e-01 6.855078576220450248e-01
-2.559083042091520998e-03 6.885103535013321896e-02 -6.299939924281711123e-01 4.520195449912979835e-01 -3.763829640019589751e-01 8.087114413404572488e-01
-2.345254037473960829e-02 -1.906062069274180870e-01 -7.506812047405752031e-01 6.146502326769915925e-01 -2.764967429746998384e-01 7.387520846633889304e-01
6.497745416904465721e-02 4.395078340095385366e-02 -7.088162803324451477e-01 6.074391061557865568e-01 -4.331743130392263774e-01 6.658661628553091960e-01
1.773544222397034631e-02 -1.357287182681578552e-01 -7.613535803646449551e-01 6.681630441160251177e-01 -2.876379578177679086e-01 6.861651052771704506e-01
6.529605104815446211e-03 -2.944441276182926579e-04 -6.747649326839517681e-01 7.508631930508101737e-01 -3.500563279535464090e-01 5.600580617946864237e-01
5.564975862825716039e-03 -1.487852319016914199e-02 -6.826906277859535743e-01 7.423868701818253646e-01 -3.577104450168091532e-01 5.664847504633374609e-01
2.487112332207769283e-02 -1.157548368646817497e-02 -7.025681022496466088e-01 6.689424776414157892e-01 -3.683701865123148456e-01 6.456154949316553759e-01
-2.283191635897290420e-02 -1.135296097156274914e-01 -7.191663653761386499e-01 5.294793326776804365e-01 -3.641129603605510190e-01 7.662071445533994440e-01
3.864912621855991909e-02 -6.972036598120754346e-03 -7.139793551154423046e-01 6.604236937621879022e-01 -3.565563650154880415e-01 6.608389389892593835e-01
3.311308202816664464e-02 7.060841401527072347e-02 -6.635523712548216935e-01 6.712585972551093905e-01 -3.120136235309192152e-01 6.723536229858574353e-01
-6.198178531268892094e-02 1.516153281863222291e-02 -6.119229070643500412e-01 5.981450067755281763e-01 -3.876465578828240943e-01 7.013933967689612858e-01
2.250853175050362975e-02 -2.252786257273280135e-01 -7.911304961227887400e-01 5.351651055797824741e-01 1.747794170907534250e-01 8.264686715969314923e-01
-2.621817396288891183e-02 -1.707609472095257264e-01 -7.407276491049309408e-01 6.007464033022580363e-01 -2.873373288780172730e-01 7.460167681444210830e-01
3.118873865311876277e-03 1.600291053656382467e-01 -5.929493155292363538e-01 5.036308903159107953e-01 -3.272487360562698622e-01 7.995399871608527276e-01
-7.044226777386002059e-02 -1.012171156363088492e-01 -6.751873062262273573e-01 6.380539637437347977e-01 -3.044802233795937396e-01 7.072332945511131674e-01
-4.778063424236824591e-02 -1.504630428519487528e-01 -7.143342820504403612e-01 6.660203548273702090e-01 -2.432529236809936601e-01 7.051559416726718155e-01
-3.795164028808293427e-02 -1.070366678644531222e-01 -7.052111971033281357e-01 5.591755131572092585e-01 -3.609447495422986041e-01 7.463522179663025780e-01
3.065586970489375673e-02 1.314401289321580901e-01 -6.337187243694240024e-01 7.040361084846986639e-01 -2.728350500054940730e-01 6.556631707197081438e-01
-7.773237690999504346e-02 -3.683436850313879379e-02 -6.320859671081321407e-01 5.704473703770687187e-01 -4.938464179327673453e-01 6.562815806685889930e-01
6.469223024900283732e-03 1.311464033126794604e-01 -6.059144811979209067e-01 2.804613426730242498e-01 -3.713068608362608547e-01 8.851399044004093497e-01
-3.115219345990859895e-02 5.750960208413222197e-02 -6.168221636824259280e-01 5.589920087722113351e-01 -3.268593433623568911e-01 7.620307761406601710e-01
-3.197527039497388007e-02 -1.712311335639921106e-01 -7.361802795617126138e-01 6.308070570555159851e-01 -2.715673900327568169e-01 7.268656061747285069e-01
-5.484201488792762175e-02 -2.950538547134544734e-02 -6.463322870065761894e-01 5.632834170986690259e-01 -4.678598209392141327e-01 6.810425683996361723e-01
-6.027093985996419961e-02 -2.086039237502370844e-02 -6.357193088059772679e-01 5.871779398169060249e-01 -4.612635087144039692e-01 6.651751968623385025e-01
3.298098623061760520e-02 1.302655492869110310e-01 -6.366885147228851238e-01 6.836482554929076416e-01 -2.823667006845448357e-01 6.729740775884526238e-01
9.427550652351705460e-03 -2.402996201812089561e-02 -6.930949270420400099e-01 6.926796049028660640e-01 -3.753820214470430794e-01 6.158598078507324658e-01
3.561743961908886424e-02 -1.241282056570346543e-01 -7.728916760115696061e-01 5.859854779746606068e-01 -2.816036631090051423e-01 7.598160280794281629e-01
-1.255712791818605449e-02 1.960147904668113339e-01 -5.802589064079706205e-01 3.356213901715611181e-01 5.836965484520242192e-02 9.401868249728670968e-01
2.630748233564306378e-03 -1.417026453278995568e-01 -7.475252269776382352e-01 7.463919782751442522e-01 -2.356620239642432946e-01 6.223844673733374133e-01
9.629687801884834197e-03 -5.863852512398853856e-02 -7.140253911400111786e-01 6.627793146899985111e-01 -3.744745567776777140e-01 6.484538428795205700e-01
-4.604745537878911915e-02 3.454777474436428880e-02 -6.155337347048872587e-01 5.879525542660745119e-01 -3.339885458888092740e-01 7.367248096454180883e-01
-3.892611217882951079e-03 -1.480201481143214592e-01 -7.466247378437187443e-01 4.878442919592212990e-01 -3.383358308526507874e-01 8.046967207364850161e-01
4.917493292748765545e-03 -1.994558246590200090e-01 -7.716810994917870925e-01 3.596737729394808292e-01 -3.308956007907368213e-01 8.724350282037143245e-01
4.008076321102418483e-04 1.814381493172995685e-01 -5.854713079810289766e-01 8.829868663725780331e-02 -2.872295226344854235e-01 9.537832789818140311e-01
5.479880247313297786e-02 -2.342009864663559260e-02 -7.383659882239402839e-01 6.272947904394156060e-01 -3.950997123471998163e-01 6.711165794336554358e-01
2.808990645282774534e-02 1.053416676804512786e-01 -6.427506093850156033e-01 7.119080703619176109e-01 -2.907572790078862268e-01 6.392551165673225899e-01
-6.289301137274537490e-02 -6.417344742067684904e-02 -6.625426239216950508e-01 5.589058337756237504e-01 -4.308609659167996764e-01 7.085076548780662176e-01
5.008231925177593358e-02 3.373097349515395693e-02 -7.016184726890483114e-01 6.213245163744413047e-01 -4.151225209049076992e-01 6.645518324326711301e-01
5.079949074073985930e-03 9.519594166378231304e-02 -6.214008260897750935e-01 3.369526970593253457e-01 -3.997194883504590623e-01 8.524595067082620936e-01
1.608841274132787741e-02 -5.691443471181739655e-02 -7.195583478748837081e-01 6.559269728293536383e-01 -3.740514082613759506e-01 6.556259225294570614e-01
2.649799888416163804e-02 3.505348349329542000e-03 -6.957766584832321133e-01 6.842453729129636120e-01 -3.651310875747403317e-01 6.312587096695670974e-01
3.760856338929833426e-02 -8.726573232696074878e-02 -7.575492129719937351e-01 6.622799026023611368e-01 -3.421922054594313534e-01 6.665506920946202563e-01
-4.889963038436589277e-02 2.001745406142098685e-02 -6.203322380180368301e-01 5.898226513490554268e-01 -3.877848849800057951e-01 7.083305181457412170e-01
3.059736505217607386e-02 -2.822195856293773300e-02 -7.177426572155570783e-01 6.507834896626488730e-01 -3.719510452935780309e-01 6.619163613988697792e-01
-5.573673133330608875e-02 2.247254478961202562e-02 -6.134460700857071735e-01 5.985315093232590478e-01 -3.612223933151147981e-01 7.150373521117073805e-01
-1.392202359269244759e-02 -1.180305053265410797e-01 -7.271865075510013376e-01 5.103402895892584779e-01 -3.576028171479264661e-01 7.820952716835835039e-01
-7.029049005491556749e-03 -1.290971223030462078e-01 -7.365572379071999576e-01 4.922699716082093446e-01 -3.504726107632920029e-01 7.967679864035793758e-01
1.599766653903278088e-02 -1.123599969090779277e-01 -7.490031875564467923e-01 6.730988308049746793e-01 -3.251468288981395061e-01 6.642420519859157935e-01
3.868418209374438130e-03 6.073171897403528696e-02 -6.376418944423000168e-01 4.131524244879683505e-01 -4.106845869239195701e-01 8.127996334908392795e-01
-9.977546200231449808e-03 -9.174671656058309976e-02 -7.167096504284466985e-01 4.835135755868207874e-01 -4.019342330982003109e-01 7.776011152814850114e-01
-3.381902268006411333e-02 3.683070419096564491e-02 -6.239882189443441973e-01 5.669944306700943626e-01 -3.440237311163191203e-01 7.484417064928317043e-01
2.041667717452230399e-02 4.379623074086887169e-02 -6.646674125814499012e-01 6.948469721730776705e-01 -3.567462819951734976e-01 6.244355655666374849e-01
-9.121854480254352332e-03 1.299736951259267137e-01 -5.982778720477911483e-01 4.698246224436553597e-01 -3.462347261558453293e-01 8.120260701168796613e-01
1.871078925470208085e-02 -2.165280616883636378e-01 -7.894124707134154706e-01 6.709492995361535650e-01 4.315635767026897857e-02 7.402462875587965119e-01
-1.818958290186304186e-02 -2.046710203284808349e-01 -7.602458433638651369e-01 5.805589094323134747e-01 -2.829023413295295719e-01 7.634904177191966790e-01
-8.049464642259200609e-02 -8.390918243096504026e-02 -6.587646287561561564e-01 5.986269238769291734e-01 -3.302816662450490104e-01 7.297669675670717115e-01
5.967704125469844995e-02 1.917883237889115786e-02 -7.191452937274048773e-01 6.093123383318422848e-01 -3.948790645209560024e-01 6.876110810331936829e-01
4.529422187847591263e-02 1.070344150234702613e-01 -6.585018607893725617e-01 6.403631426449347686e-01 -2.946872896458768709e-01 7.092915104969677031e-01
7.449133324831150316e-02 -2.807527159188315247e-02 -7.604420910132655420e-01 6.474524444160876246e-01 -4.269301828245687380e-01 6.312970388121691423e-01
4.075828888376651499e-02 7.578688226607283029e-02 -6.683638004057318449e-01 6.396021826477968908e-01 -3.252407890795143142e-01 6.965109310492613170e-01
3.667070667720852967e-02 1.321405077482937507e-01 -6.397681198124121060e-01 7.012141315685825882e-01 -2.605334169013447387e-01 6.636422834375677038e-01
6.799028110482450982e-02 5.518872680068716285e-02 -7.042444935298114439e-01 6.016624838510163942e-01 -4.322323778226702107e-01 6.716974222728457899e-01
-4.040203841253421635e-02 -7.002455047241760988e-02 -6.836533428289842673e-01 5.363548433156281048e-01 -4.347957415267316161e-01 7.233782863772506566e-01
3.453654172023516017e-02 6.247574722566088395e-02 -6.690324740646869106e-01 6.645206501495367624e-01 -3.409285524603661854e-01 6.649661853373569631e-01
2.210505638474824508e-02 -1.199658269962728015e-02 -6.999423608266637231e-01 6.689424776414157892e-01 -3.683701865123148456e-01 6.456154949316553759e-01
-2.634526779150504414e-02 -1.674496431788528306e-01 -7.393499154405038798e-01 6.007464033022580363e-01 -2.873373288780172730e-01 7.460167681444210830e-01
-3.007711501385642097e-02 -2.009698808677796988e-02 -6.597075545755040071e-01 5.301313882172530301e-01 -4.604735313754012571e-01 7.119865435031167422e-01
1.525521282111062284e-02 -1.524621768162038038e-01 -7.657358690113478250e-01 6.705209000336597169e-01 -2.709392906703262938e-01 6.906472496065638733e-01
-2.106456300142810385e-03 -7.345763043998744524e-02 -7.115075730956450517e-01 4.339502024302896999e-01 -4.339118840996893933e-01 7.895617130077725587e-01
-2.746391440196662218e-02 1.190643210173206040e-01 -5.920763271413057582e-01 4.770779576982118741e-01 -3.316813656167927893e-01 8.138698261891041952e-01
-4.866379801631204316e-02 -7.079606087409100190e-02 -6.777168445631847060e-01 5.612789009406150553e-01 -4.262620550780263362e-01 7.094128951178942932e-01
1.715973779802552543e-02 -1.049573347545600110e-01 -7.465550772524067735e-01 6.644528082022995719e-01 -3.278434491081289592e-01 6.715810736977061435e-01
-2.499412041170443952e-02 -8.663861656111419840e-02 -7.041196155517800426e-01 5.238005913325384233e-01 -4.099700191605149535e-01 7.466977460185681981e-01
3.323121142485013866e-03 2.117292913216650696e-02 -6.586712279043305251e-01 4.738804152099782008e-01 -4.369796045722438294e-01 7.645169568219557510e-01
-1.345523139845245485e-02 4.114657281085488949e-02 -6.364605358765264009e-01 5.208815016326757696e-01 -3.710272896369206097e-01 7.687790395175778668e-01
-4.064001428873783434e-02 -1.057529458244118314e-01 -7.025544776331755781e-01 5.985742512336866827e-01 -3.427676116721660171e-01 7.240298544594624408e-01
-5.968712160203503390e-03 -1.508880672161863612e-02 -6.740809220242255373e-01 5.100207176062274694e-01 -4.504388056099757898e-01 7.327917507812756748e-01
1.124651570599906857e-02 -1.941239096449636770e-01 -7.765010307245399090e-01 7.608224642042810126e-01 -1.960255751554649817e-01 6.186462251134283719e-01
-1.922494361046707401e-02 -1.463208938536978143e-01 -7.359816946020444339e-01 5.411338115907468049e-01 -3.203501981311767111e-01 7.775281014282285907e-01
3.510901955960481213e-02 1.098284978097629483e-01 -6.478245036260551482e-01 6.727402822550143657e-01 -3.090244355765464079e-01 6.722532341670365286e-01
-5.077162128795253970e-02 7.914076321354568747e-03 -6.254631934395645798e-01 5.891320221922252687e-01 -4.105706959802896128e-01 6.959562946262933814e-01
6.234749703346884747e-02 -5.333227277221343210e-02 -7.640641441816269364e-01 6.716574017536854901e-01 -3.818426685294772915e-01 6.348799186931146643e-01
4.825278727330421791e-02 -9.992759931211642188e-02 -7.738812445522011974e-01 6.346729618510265070e-01 -3.128663702806465663e-01 7.066150761501334143e-01
3.947121833701203869e-02 -1.317099424205490921e-01 -7.787227838957757609e-01 6.136280641455619245e-01 -2.612958989731915538e-01 7.451074097556417142e-01
4.637171730033146609e-03 -7.301171628757438525e-02 -7.170857149002883846e-01 6.760825393109178849e-01 -3.583689703989906827e-01 6.438043810771005848e-01
-2.160241742914361524e-02 -6.656841642524682912e-02 -6.950555978687020797e-01 5.018270690716005733e-01 -4.339846647840484017e-01 7.482158134383981585e-01
-2.215850189048501270e-02 -1.884896113728921907e-01 -7.508809122774187106e-01 5.669829090340222644e-01 -3.157290657402408995e-01 7.608189915545696680e-01
-2.895697861950773458e-02 -7.564654072906376592e-02 -6.952033923140473748e-01 5.194557584915532322e-01 -4.294952572773136912e-01 7.387147886337861458e-01
-2.284221631497936750e-02 9.693869036712257636e-02 -6.048611542243050865e-01 5.077264870504689664e-01 -3.740947490098693873e-01 7.760585887100488467e-01
-5.521503386644193573e-02 -2.478333955710188691e-02 -6.427653206276087161e-01 5.707813296743227127e-01 -4.748443358060290276e-01 6.698742646557959146e-01
-4.657297965219540231e-02 -9.007224843744246479e-02 -6.900631454364091200e-01 5.742084016245103673e-01 -3.809644973349204933e-01 7.246728663846718765e-01
4.265244779007521664e-02 -1.570199016455891064e-02 -7.225071858987283102e-01 6.364957084248269448e-01 -3.677638273704040839e-01 6.779549988270970884e-01
-1.208034694279091006e-02 9.147853660996135491e-03 -6.550062747034336441e-01 5.337701558577986338e-01 -4.316791641200639074e-01 7.271468352266579060e-01
2.910249316153649263e-02 -1.143632435297303462e-01 -7.627614397957778181e-01 6.557048412494314027e-01 -3.125515162175120931e-01 6.872864838422126921e-01
-2.597764486023883962e-02 8.202726492958344051e-02 -6.097737047092707252e-01 5.239240222188600304e-01 -3.576042737157942297e-01 7.730606718506711772e-01
2.281984869638348581e-02 -1.510589726648478293e-01 -7.723402816952869010e-01 6.373236423918082760e-01 -2.741146858185446455e-01 7.201942195456992879e-01
1.753172581483670653e-02 6.135805487801277575e-02 -6.518613290459305265e-01 6.990338672058034053e-01 -3.139327839093385975e-01 6.424934705397646884e-01
-1.181957786852828353e-02 8.286957911928423404e-02 -6.181987039398750827e-01 4.770958752851825468e-01 -3.740104331806818894e-01 7.952959962541394923e-01
-4.142028956753047997e-02 -1.543583555207148419e-02 -6.477879790038834074e-01 5.622381939085658864e-01 -4.506250094645071758e-01 6.934156864071843174e-01
-1.273589461927365774e-02 -2.695540802071808711e-02 -6.767541626514899100e-01 5.206278862418377562e-01 -4.541699163079897517e-01 7.229635476205903410e-01
-6.189272101640110046e-02 -1.096301669728087375e-01 -6.863210763391167646e-01 6.294375325194119242e-01 -3.021128937191123742e-01 7.159163303798418143e-01
2.057782155837094284e-02 -2.365624400312291709e-01 -7.867754371066862928e-01 6.928625651191162582e-01 1.729999629114069293e-01 7.000089132926883284e-01
-4.985147602622967689e-03 1.808204071919897737e-01 -5.841359475240938126e-01 3.391252020175246629e-01 -2.203578777872425010e-01 9.145690258551705254e-01
8.408267074522114692e-03 1.445151663303407830e-01 -6.033020048122588186e-01 7.649868805760764445e-01 -2.136601965465508568e-01 6.075725413135231179e-01
4.637977807938947761e-02 1.380611487108778478e-02 -7.100131086102289268e-01 6.401768569258270425e-01 -3.843592212998951929e-01 6.651628228173211976e-01
-1.702276509732108742e-02 -1.029790344732813279e-01 -7.179798232049426909e-01 5.058879132459942474e-01 -3.728662071262241473e-01 7.778484497734227121e-01
-1.586631464418718218e-02 -1.433639548916179063e-01 -7.370869648995005408e-01 5.153155679831313840e-01 -3.320781750345090377e-01 7.900468030819266518e-01
-6.018911634694659729e-02 -1.019864974587519207e-01 -6.845548535025403059e-01 6.130579735099389582e-01 -3.362020535968762713e-01 7.149322347419578838e-01
-4.664095352988756327e-02 -2.968904718125612782e-02 -6.531132696146552119e-01 5.537785310837776143e-01 -4.631195695373723220e-01 6.919895973367029551e-01
1.602563040759647298e-02 -1.052803976812834580e-01 -7.455864045658301409e-01 6.636212705376651755e-01 -3.221112420306458390e-01 6.751675029557108187e-01
5.323558886617767855e-02 -8.328410699436879228e-02 -7.710688791816189269e-01 6.553890851888317659e-01 -3.230949692024124853e-01 6.826967027102430752e-01
-1.445785622210969158e-02 -1.897424731224881533e-01 -7.570077974602281712e-01 5.248790508165321889e-01 -3.194196301657826198e-01 7.889696330523063850e-01
5.381289333535110159e-02 3.754651568209839418e-02 -7.026977611823773673e-01 6.207301735728563141e-01 -4.259732824989692079e-01 6.582103115367192725e-01
-1.147423803251726784e-02 -1.910254645849299437e-01 -7.595039454448562211e-01 5.246592331126070929e-01 -3.152032409256362855e-01 7.908094625253710985e-01
-5.036657025170172136e-02 3.383057029330575893e-02 -6.124048856404695762e-01 5.982662366640052465e-01 -3.338597399429665824e-01 7.284333765781898506e-01
3.005395917314306400e-02 8.408767801734597092e-02 -6.543867276815453771e-01 6.807767096011997365e-01 -3.035732626375773346e-01 6.666230913163301297e-01
5.378363214387645030e-02 6.152324391375808138e-02 -6.875514519824620363e-01 6.196940232321985764e-01 -4.015042940902026625e-01 6.743690528170900311e-01
-3.491129096422062456e-02 2.719346546416185895e-01 -5.904506919281670152e-01 3.848141901297374434e-01 4.582358966530571398e-01 8.012102733323899217e-01
-2.403916095197842703e-02 6.516288861229729834e-02 -6.184736864536038992e-01 5.167518011760379171e-01 -3.406444373475321918e-01 7.854482435434584353e-01
3.701484432530421920e-02 -9.406407944955751110e-03 -7.136758344339556581e-01 6.548097258888505579e-01 -3.652031958033573056e-01 6.617029912705421069e-01
5.576113089246806376e-02 3.608296914317931509e-02 -7.054586826006318256e-01 6.213245163744413047e-01 -4.151225209049076992e-01 6.645518324326711301e-01
-5.833118078366405362e-03 1.509031767045690073e-02 -6.560261777621717583e-01 5.220414978003197204e-01 -4.234509964325098852e-01 7.403795838586536560e-01
-4.417769520962881030e-02 -3.544094333402193070e-02 -6.589340438865052274e-01 5.537785310837776143e-01 -4.631195695373723220e-01 6.919895973367029551e-01
-2.439851231283171953e-02 -1.602632523827853539e-01 -7.379428747985634640e-01 5.690947348232362479e-01 -3.023046038109872269e-01 7.646849739017710368e-01
-3.561714296763785620e-02 -1.344711871774303402e-01 -7.189561112676311483e-01 6.135157030772040443e-01 -2.863426743272051156e-01 7.359390973014192650e-01
3.549314439297659995e-02 -4.599592621770796919e-02 -7.325846807259867033e-01 6.512167425697905632e-01 -3.746079569847949320e-01 6.599891156378785428e-01
5.369519705893253253e-03 -3.690648436512992958e-02 -6.963302617049491605e-01 7.112932493462938988e-01 -3.701857877480438930e-01 5.975151847306905406e-01
-6.499213145195982533e-02 -4.529779276133270166e-02 -6.488677443288185520e-01 5.648526313420194622e-01 -4.561008755274427728e-01 6.876870627030123861e-01
-3.094442167469782165e-02 -1.322690369584455794e-01 -7.216252417848040279e-01 5.720727578416513470e-01 -3.243866736584321564e-01 7.533299713195173997e-01
-3.470064203541774195e-02 -1.082424130493977454e-01 -7.082107028329687193e-01 5.590024633997624504e-01 -3.469693110760458388e-01 7.530793736947066774e-01
2.278851834833158646e-02 -4.611812581253751236e-02 -7.200969132224736002e-01 6.557584382399473943e-01 -3.744972991684349939e-01 6.555399633833569606e-01
5.680054845693053699e-04 1.589900932049728155e-01 -5.916153769899896719e-01 5.143383937439230946e-01 -3.551132371498976203e-01 7.806091246724198296e-01
2.385287453237160127e-02 7.651552245943296637e-02 -6.514052104940980525e-01 6.916889183622580983e-01 -2.971648633780659132e-01 6.582244937620789216e-01
6.204362374198520852e-02 -7.762306355707244976e-02 -7.770134604346644602e-01 6.687850847837817359e-01 -3.218066786869312468e-01 6.701992031651754500e-01
1.367245718002919191e-02 -2.491175442610029170e-02 -6.983652103637274511e-01 6.811460238059243721e-01 -3.719774226979304932e-01 6.306131074251345447e-01
-2.364827060739852632e-02 -8.393474147449043804e-04 -6.523853783596851308e-01 5.427297524069832901e-01 -4.312985415941855694e-01 7.207121366197346557e-01
3.104412043744478669e-02 -7.421223875621994759e-02 -7.440037562401691229e-01 6.562468159840522119e-01 -3.593125821467574310e-01 6.635017594715354461e-01
2.136563417320652691e-02 -2.143018086395759858e-01 -7.916267392922745616e-01 5.949262063942668544e-01 8.710943521022312605e-03 8.037331201389550372e-01
-6.082250213810525691e-02 -5.019824816180894211e-02 -6.554990378505360926e-01 5.573201969991359306e-01 -4.585009466427660829e-01 6.922218430131568123e-01
5.695262943613742940e-02 8.785033292144124595e-02 -6.768878622074330220e-01 6.085545434530579278e-01 -3.207805051101872973e-01 7.257831874491811330e-01
5.853345851046369043e-03 1.606504781642054125e-02 -6.636290073869748340e-01 7.812584431497963111e-01 -3.238533971719926297e-01 5.336236709023653990e-01
-7.212907335682867960e-02 -9.897342467563650936e-03 -6.178661174329743710e-01 5.971169453415354766e-01 -4.470733510422026380e-01 6.660155946927137638e-01
6.210838856562427707e-02 -8.686824424881502138e-02 -7.812569989123843150e-01 6.536383784086269300e-01 -2.756641225687185282e-01 7.048164029020317356e-01
5.026924189865723813e-02 -1.280479545701903865e-01 -7.857321457586345925e-01 5.547909064513887323e-01 -2.059206713933013633e-01 8.061040424236678437e-01
-7.553566382141793656e-02 -2.365150228147456721e-02 -6.242645795976372591e-01 5.803437591418498798e-01 -4.816971960820022325e-01 6.566345501965638043e-01
-1.984749402062078658e-02 8.301190859804696842e-02 -6.132437616507309119e-01 4.908502980774549496e-01 -3.549687622669229770e-01 7.956526646043247109e-01
-6.722587419418335486e-02 7.600477136576137133e-03 -6.115879657261672486e-01 6.025972093400958629e-01 -3.881969424573299410e-01 6.972659013334219225e-01
-1.784739982811392456e-02 2.192802633639897858e-01 -5.803211456230902288e-01 3.889840704823810946e-01 1.043741175601373972e-01 9.153127533769538360e-01
-1.675321879951808049e-02 1.308581773406465587e-01 -5.934469849192846036e-01 4.723586039676065940e-01 -3.447115696064791401e-01 8.112036014695763741e-01
-3.985242106417498896e-03 6.599892086236909539e-02 -6.305242625731377615e-01 4.520195449912979835e-01 -3.763829640019589751e-01 8.087114413404572488e-01
-6.956110800715227527e-02 1.204003602663152560e-02 -6.071001370394378815e-01 6.034616220693812538e-01 -3.871874284722289783e-01 6.970795979817897559e-01
1.571964096312430254e-02 -2.254135152031509770e-01 -7.846722844062830049e-01 7.097081571617197548e-01 1.744605640206426111e-01 6.825524472593407221e-01
6.492232901938483659e-03 -2.186986458082735285e-01 -7.787757465487854525e-01 2.821534548856245994e-01 -2.333330331605957542e-01 9.305617247298441086e-01
1.169469871271055714e-02 -2.042643746657521742e-01 -7.800725356329852866e-01 7.598678911039331574e-01 -1.720198949608410244e-01 6.269050516680516605e-01
3.934781805304980729e-02 -6.601171895712600046e-02 -7.477424386994653283e-01 6.626865917568318665e-01 -3.710458385859588537e-01 6.505163078461264625e-01
-4.177091286835805245e-02 -5.132344009770060944e-02 -6.711638553761343218e-01 5.318377143268196994e-01 -4.509587607503046103e-01 7.167878638217681786e-01
4.271285124902633734e-02 -5.289046308094459692e-02 -7.436757316230051540e-01 6.578408585376235296e-01 -3.792718560442617237e-01 6.506906054733103684e-01
1.846156320957264424e-02 -1.524517696979252324e-01 -7.688592461181723570e-01 6.732487484208057316e-01 -2.719229685373660832e-01 6.876001904680112409e-01
7.441402194362429535e-03 -1.115553922051097518e-01 -7.400245473378962435e-01 6.717461738949365158e-01 -3.129747546812564618e-01 6.714193032596849076e-01
-1.084615697171534970e-02 -3.169252244730916268e-02 -6.810027650197770788e-01 5.035412288659394386e-01 -4.534715990846824862e-01 7.353976744971122415e-01
-5.143976000930667453e-02 -2.206409337987504191e-03 -6.309454786221300182e-01 5.862442511294950753e-01 -4.322414783021624740e-01 6.851897419348734752e-01
-4.536070367890908395e-02 -9.845988107205851797e-03 -6.408838041783644357e-01 5.686663911503905267e-01 -4.567324742071601773e-01 6.841154745951861793e-01
-7.808293396622935367e-02 -6.448525804871080291e-02 -6.503945108530344577e-01 5.706294615609784904e-01 -4.176361740385325372e-01 7.070799415434469992e-01
-4.642265206079892103e-04 -7.564855730276967560e-02 -7.135957014144728161e-01 3.976567366548595661e-01 -4.406237713044581228e-01 8.048104198843627488e-01
-5.659872751964006160e-02 5.373796439825272164e-02 -5.987577908464418730e-01 5.974691704516721380e-01 -3.083923629789476206e-01 7.402193869496069834e-01
2.534092430519711489e-02 -1.573953037180932657e-01 -7.768451953112478492e-01 5.882607973246217759e-01 -2.682418118867804790e-01 7.628863379866605010e-01
2.504017391500030706e-02 6.704529487846346003e-02 -6.570879637623755487e-01 6.833300870864023047e-01 -3.221254673771625221e-01 6.552062082654089847e-01
1.502591127749743592e-02 -2.924264371621766549e-03 -6.867605751998424601e-01 7.129965216148417273e-01 -3.600422728586976651e-01 6.016689471128449096e-01
-5.063534559953639103e-02 -5.593355104867309135e-02 -6.672123557522440240e-01 5.471900590781948459e-01 -4.419004821990351606e-01 7.108494939706028193e-01
1.606368433120408321e-02 1.548350565070540641e-01 -6.079955638993396194e-01 7.139340250631817097e-01 -2.699226373363077802e-01 6.460959508544346086e-01
2.581826768947973957e-02 2.083492500228396188e-02 -6.847220558886563113e-01 6.876791200481854327e-01 -3.798913009458445011e-01 6.186921910897429377e-01
-5.689074728910270551e-02 -5.070861074214561698e-02 -6.590026084727184097e-01 5.573201969991359306e-01 -4.585009466427660829e-01 6.922218430131568123e-01
-1.480480534355995380e-03 -5.677948928125875483e-02 -7.022522062579024116e-01 4.375982756812852315e-01 -4.566063626113487373e-01 7.746085325786177256e-01
-1.796089203915028285e-02 1.047549920349332836e-01 -6.042878112544829428e-01 4.911926693065302163e-01 -3.603152925499553683e-01 7.930338275093729017e-01
-1.571930074513422371e-02 -6.124601563360492634e-02 -6.958491634220315136e-01 5.013544751583358661e-01 -4.460355954376511445e-01 7.414148217032685562e-01
2.258494453469660906e-02 -6.838010081779449800e-02 -7.324224960076757274e-01 6.515490617619756897e-01 -3.676568466905367205e-01 6.635602935669524527e-01
6.273429042094912089e-02 -5.347998857328303476e-03 -7.353048098492737106e-01 6.137741401593665991e-01 -3.908332286671279410e-01 6.859523979411826788e-01
2.425837769260960966e-02 9.147998537643294015e-02 -6.450391116408062953e-01 7.139649248349030364e-01 -2.946193930811275008e-01 6.351798952470073534e-01
-2.908380478288612875e-02 6.644891635635624856e-03 -6.437273638683730370e-01 5.587191564610812788e-01 -4.143300505477798823e-01 7.184452055769401380e-01
-2.942543053454250730e-03 7.726944546598715768e-02 -6.258205863452361850e-01 4.344284430016187026e-01 -3.779973808239071031e-01 8.175511653722081773e-01
4.707924170684571474e-02 -1.118164159943415559e-01 -7.776357403385725231e-01 6.054044716925780500e-01 -2.885346559693833246e-01 7.417770405986288118e-01
-1.693973592148913937e-02 1.091935009614159319e-01 -6.028726597243347918e-01 4.913477414537668064e-01 -3.682741674124456743e-01 7.892727884482984013e-01
-3.752871668302943525e-02 6.571637700901120094e-02 -6.086887712412480944e-01 5.739149249612616188e-01 -3.281870995618257902e-01 7.502765400756614689e-01
-2.323608130009597456e-02 1.068372924130183144e-01 -6.000172377954201552e-01 5.058585534500972258e-01 -3.646825090534543401e-01 7.817376743459739652e-01
-5.846889364456166714e-03 8.935206512276892832e-02 -6.185766047057302819e-01 4.451318366595190534e-01 -3.825887729330492704e-01 8.096193419241581868e-01
5.425028309628207764e-03 -1.381085157665905803e-02 -6.818334553664350262e-01 7.424230305955571430e-01 -3.569051991177240590e-01 5.669450788956952314e-01
7.622185010639649823e-03 -1.048466886696404476e-01 -7.369795284449067729e-01 6.718779914682369014e-01 -3.296205694484294901e-01 6.632723760093590659e-01
-3.208980567631306707e-02 -5.870322075682957857e-02 -6.829277896467748077e-01 5.170408652784573844e-01 -4.442000011491305522e-01 7.316796447976509077e-01
9.947146147476862779e-03 1.783826884837708404e-01 -5.968130525563175581e-01 6.901597446894677246e-01 1.068552873659093724e-02 7.235781549257744860e-01
-2.906409143065783601e-02 -9.473212050053486655e-02 -7.056319844765812643e-01 5.240931721760521134e-01 -3.862368519737254258e-01 7.590437675495858016e-01
5.594343868897605487e-02 6.802343200061314495e-03 -7.225808431482865224e-01 6.214398368128941641e-01 -3.703433666958706461e-01 6.904044611431269240e-01
4.626627105534060480e-02 1.128005652636819844e-01 -6.569351446708672215e-01 6.342785870892255762e-01 -3.101335486248339990e-01 7.081721937336027395e-01
3.522413415857798998e-03 -5.860982254943750830e-02 -7.074613137827201470e-01 7.050606722558476758e-01 -3.677086603067382664e-01 6.063660524580476441e-01
3.033544198152103924e-02 2.521820194157481029e-03 -7.004252590332906703e-01 6.773724613842964093e-01 -3.603998431855360840e-01 6.413099886872344335e-01
-6.492651626051686164e-02 -5.721936518776256364e-02 -6.566922811927620174e-01 5.665120291727983037e-01 -4.282170428597897316e-01 7.040555979515648044e-01
-3.789847306355879214e-02 -1.396044132837669094e-01 -7.190515401607584511e-01 6.135157030772040443e-01 -2.863426743272051156e-01 7.359390973014192650e-01
1.146015358366414202e-02 -6.635838168865207387e-02 -7.203096075272392707e-01 6.577811914713973529e-01 -3.733779736224890344e-01 6.541504360313710187e-01
-4.642377563995684492e-02 6.906567727707046966e-02 -6.004821987016394358e-01 5.799238703612916712e-01 -3.194122989820324943e-01 7.494425180387035423e-01
-1.812599488196518392e-03 -1.687467351532902782e-01 -7.562866053762156149e-01 4.768917075247957604e-01 -3.228663939495720614e-01 8.175154989063413424e-01
1.216380051526812917e-02 9.608215989350901709e-02 -6.284529668500652422e-01 7.572753390818380836e-01 -2.793240027277390514e-01 5.903491867688488437e-01
6.120475642505866787e-02 -5.935607239153779108e-02 -7.664781653032295416e-01 6.716574017536854901e-01 -3.818426685294772915e-01 6.348799186931146643e-01
2.021636879681617312e-03 -1.335034254056882697e-01 -7.435853784661473620e-01 7.320859746105708998e-01 -2.593740223901885300e-01 6.299009781605555691e-01
1.756449809998085476e-02 -9.426405745431874761e-02 -7.414655209067665398e-01 6.563867004164597452e-01 -3.452495940563254928e-01 6.707899949465072620e-01
-6.209946189416751944e-02 -1.028535386240160276e-01 -6.832555003249937142e-01 6.300953014493366755e-01 -3.272322693726559817e-01 7.042009322435545116e-01
-7.575137306069640135e-03 -7.834281712919304030e-02 -7.109726564386132930e-01 4.842072450677227247e-01 -4.221188294916510819e-01 7.663935265987863454e-01
-5.163791126894955175e-02 -2.103327032533654564e-02 -6.431550290740954967e-01 5.707813296743227127e-01 -4.748443358060290276e-01 6.698742646557959146e-01
-5.550587967484146845e-02 5.100575624251782632e-03 -6.231261247335844189e-01 5.871264073055268984e-01 -4.130454116405212206e-01 6.961868066598337901e-01
-5.597047968071919982e-02 4.246847139389458431e-02 -6.040086636708967838e-01 6.030436796874079075e-01 -3.156074169045412492e-01 7.326187813480583566e-01
1.264888157126651570e-02 -1.076228872306262824e-01 -7.433849654735122936e-01 6.636212705376651755e-01 -3.221112420306458390e-01 6.751675029557108187e-01
-2.678352875852665904e-02 2.766369512640185283e-02 -6.337771238871695578e-01 5.571436805673366521e-01 -3.710869976984390028e-01 7.428898702654656017e-01
3.111196323897651508e-02 -5.957089050939839286e-02 -7.359250720983973038e-01 6.535913143856838525e-01 -3.710840750384065134e-01 6.596324757108948944e-01
-3.368045649054773882e-02 7.915905217246535855e-03 -6.394196498462848544e-01 5.587191564610812788e-01 -4.143300505477798823e-01 7.184452055769401380e-01
-5.626446661354223000e-02 -1.138774611298032785e-01 -6.930341099673493765e-01 6.269492542640358046e-01 -3.170256761025578296e-01 7.116384990073859607e-01
-2.070324925357943172e-03 -8.133207392022304139e-02 -7.158541421477923050e-01 4.318866383847760337e-01 -4.339929633268836406e-01 7.906478605342885935e-01
5.864863509118747875e-02 5.095142273005029421e-02 -6.985165584326153976e-01 6.076980575145213281e-01 -4.288134385475740329e-01 6.684475340773452512e-01
5.182985200641489903e-02 -9.643657262155616583e-03 -7.277437767044907524e-01 6.228571322607885374e-01 -3.738800187566008737e-01 6.872137399429889548e-01
-2.876545776991758577e-03 -1.193730752383809213e-01 -7.345960117513764542e-01 4.691900969387570730e-01 -3.732689584273471972e-01 8.003317672123000381e-01
-3.768320158322958219e-02 1.413297824997509609e-05 -6.409961498093651455e-01 5.579460610801317832e-01 -4.338060841166875292e-01 7.074662354547467391e-01
3.722006925116441017e-02 7.463042036774387988e-02 -6.656290216709384033e-01 6.445611862998650299e-01 -3.276949208814571857e-01 6.907654565365917154e-01
-1.851128895258842555e-02 -1.219017042618615876e-01 -7.259453723637145917e-01 5.142861378800898109e-01 -3.535695121414501041e-01 7.813439501707544199e-01
-4.476895526464499953e-02 6.048733515800828325e-02 -6.053906633056533870e-01 5.894638380200685202e-01 -3.124741770597023183e-01 7.449109157057051123e-01
1.755084093384079100e-02 6.498459575086713846e-02 -6.500865975287428711e-01 7.090089449164127533e-01 -3.179394017441860565e-01 6.294607635485027775e-01
2.321335549320415262e-02 -2.387609389567144358e-01 -7.886752945458505026e-01 5.142302011940398376e-01 1.803613868209715809e-01 8.384730587943497460e-01
2.572165899583065546e-02 1.196968493523091898e-01 -6.335111390455769875e-01 7.041667782631209072e-01 -2.854480869393706266e-01 6.501296317298499439e-01
-1.839486150923327901e-02 1.289729340649217737e-01 -5.932921792827193785e-01 4.723586039676065940e-01 -3.447115696064791401e-01 8.112036014695763741e-01
1.890994068360759119e-03 2.204757244415279926e-02 -6.572903793859056210e-01 4.708590186550146717e-01 -4.369567288374162084e-01 7.663945470023525441e-01
1.475857153924044034e-02 -8.009976641400939901e-02 -7.311999700243239086e-01 6.521122516316567586e-01 -3.582533850542961584e-01 6.681348092780595715e-01
-3.222733229544472167e-02 -1.756076687887686005e-01 -7.375847569353968236e-01 6.306266557286417385e-01 -2.684708494500979148e-01 7.281712875965736798e-01
-3.135991433017781133e-02 -1.480656144944087482e-01 -7.277834097726495477e-01 6.113439728227800796e-01 -2.837613210321104917e-01 7.387408609108958579e-01
-5.977385821768524746e-03 -9.208156315272217340e-02 -7.193364946791254155e-01 4.645421362884401550e-01 -4.081502709413424856e-01 7.858841899052815272e-01
4.240902325554501279e-02 -5.178086635200904869e-02 -7.427218077862347556e-01 6.578408585376235296e-01 -3.792718560442617237e-01 6.506906054733103684e-01
-5.912644125743193174e-02 2.314557775005666312e-02 -6.102664094471434986e-01 5.991741776413449516e-01 -3.604731691162924578e-01 7.148771916875477084e-01
-2.943951712963228592e-02 -2.935838795757153563e-02 -6.662030352652285048e-01 5.299572276253335934e-01 -4.632152096794964202e-01 7.103358405777161488e-01
6.046193689626683937e-02 5.819919920118084983e-02 -6.955219107563828107e-01 6.084951244195010434e-01 -4.081105158725344406e-01 6.805729133545866949e-01
3.201362283218785881e-02 -4.230350519071333915e-02 -7.270593223879411315e-01 6.498423506853604481e-01 -3.736878013762089390e-01 6.618627851438241283e-01
2.475558988320353954e-02 -2.096953007195532515e-01 -7.935039486312271961e-01 5.775014734205836664e-01 -1.339125464323010495e-01 8.053319055551391159e-01
-5.462759751108352962e-02 6.203612851401453521e-02 -5.969194231784790139e-01 5.973221506865457053e-01 -3.046693689775947789e-01 7.418779036377843861e-01
-1.209854796876171784e-02 -4.544384290505155966e-02 -6.886922104907859943e-01 4.970884985756514052e-01 -4.552576475775488851e-01 7.386768568907252641e-01
4.100880081773990160e-02 1.157927573494934026e-01 -6.507604201028917013e-01 6.609540842600176713e-01 -2.833984389125366321e-01 6.948561169925315806e-01
-5.850594684184856620e-02 -6.289349641273313252e-02 -6.652890825144907039e-01 5.660363418640064204e-01 -4.356148098755887599e-01 6.998875603311350835e-01
3.744772688468234884e-02 2.722769849929457253e-02 -6.932709006472779212e-01 6.669454371043478380e-01 -3.921037378297683174e-01 6.335917003130758784e-01
6.123345424245568453e-04 2.064152848871995960e-01 -5.908381510685644100e-01 5.528323736090104967e-01 9.360892006932657050e-02 8.280179567939824903e-01
3.044738347069061296e-02 -1.836434014195648112e-01 -7.888159868741912994e-01 4.575560602966505241e-01 -2.657112381367786602e-01 8.485517012024829109e-01
4.622161515913490726e-02 6.738204070968642490e-02 -6.774622973485603383e-01 6.216278666800469921e-01 -3.627952102147125601e-01 6.942322599909028780e-01
-5.555044052650933567e-02 5.890091309427042399e-02 -5.974639461071729052e-01 5.973221506865457053e-01 -3.046693689775947789e-01 7.418779036377843861e-01
-4.471321391347776036e-02 -5.028272408009717975e-02 -6.682581867350779747e-01 5.471900590781948459e-01 -4.419004821990351606e-01 7.108494939706028193e-01
1.874072409623844110e-02 8.657349964327827607e-02 -6.410506697565723222e-01 7.322829450362733361e-01 -2.836993034394049151e-01 6.190932027061829546e-01
-6.233180568818832284e-02 -2.560386436779351488e-02 -6.372589572581935924e-01 5.778839021654602615e-01 -4.730511567555236718e-01 6.650359379088334189e-01
3.571590503722297388e-02 -1.255881786306797254e-01 -7.735087109584538601e-01 5.859854779746606068e-01 -2.816036631090051423e-01 7.598160280794281629e-01
-2.876733052776882064e-03 -1.549262861454940021e-01 -7.500929375611463668e-01 4.773342559506221772e-01 -3.314172234287031671e-01 8.138271512494988924e-01
2.517574038208647558e-02 -1.213059458526993678e-01 -7.621791852935373424e-01 6.522751384421384691e-01 -3.158730695865214488e-01 6.890292792619757689e-01
7.327309550371990943e-02 -2.520375457096903776e-02 -7.572507434090866019e-01 6.474524444160876246e-01 -4.269301828245687380e-01 6.312970388121691423e-01
1.708564022428650866e-02 -4.130511548333764410e-02 -7.115646857562192285e-01 6.623041982322930288e-01 -3.799821146012650197e-01 6.457296195676875961e-01
1.550281557808188019e-03 1.131573682368838818e-01 -6.114549879546286038e-01 4.188766270992020924e-01 -3.669793807852158030e-01 8.305832320414947567e-01
7.562702997911807798e-04 2.075918105893872698e-02 -6.572877848944168599e-01 5.019248244074712151e-01 -4.298646186078217135e-01 7.505250697429641793e-01
2.967117318911304327e-02 -9.923447785308517344e-02 -7.559463362079381632e-01 6.575053168335706077e-01 -3.479876037678230061e-01 6.682749329127306570e-01
2.759400867253698070e-02 7.062136012232746174e-02 -6.580807820605754088e-01 6.919128795094506845e-01 -3.083381107904069607e-01 6.528278307510664291e-01
1.658515944167295378e-02 1.083027833851922389e-01 -6.282298620745474516e-01 7.453958729886497325e-01 -2.782291337990734914e-01 6.057834114903660749e-01
2.236456683527935849e-02 -1.277049488346303496e-01 -7.624514728514308892e-01 6.522751384421384691e-01 -3.158730695865214488e-01 6.890292792619757689e-01
2.510743700614493160e-02 -3.941076333565876263e-03 -6.985352530696145035e-01 6.773724613842964093e-01 -3.603998431855360840e-01 6.413099886872344335e-01
3.786400066127101199e-02 7.601313692481347084e-02 -6.655739291662159385e-01 6.445611862998650299e-01 -3.276949208814571857e-01 6.907654565365917154e-01
5.318858890276640522e-02 8.796991820286864661e-02 -6.736645254232748181e-01 6.108439556399980486e-01 -3.190584083020056583e-01 7.246181021406177258e-01
-4.971716505947840897e-02 -2.031725998855111667e-02 -6.442554263465514186e-01 5.609966995861748185e-01 -4.684327722994705567e-01 6.825345712044564861e-01
-1.321154167617434594e-02 -3.044333965263221545e-02 -6.786079298337851506e-01 5.144253585074629598e-01 -4.547280741032403983e-01 7.270412155764115480e-01
3.197447664358064184e-02 -1.318846389645404737e-01 -7.727520101135322284e-01 6.302129802408441561e-01 -2.793089493897619180e-01 7.244433106370302689e-01
2.509516589372629697e-02 3.445202645063616398e-02 -6.754829191434138513e-01 6.827472757437077489e-01 -3.881497691705936282e-01 6.190282014232958430e-01
-2.758468835378469208e-02 2.055865723261028795e-03 -6.476661915632795363e-01 5.450295882160640648e-01 -4.332086965434326364e-01 7.178251689709462813e-01
8.172893733977382863e-03 1.458778628833119206e-01 -6.025264405810700774e-01 7.649868805760764445e-01 -2.136601965465508568e-01 6.075725413135231179e-01
-2.261888919305898860e-02 -1.757879251840955004e-01 -7.455275407392755183e-01 6.005404610843313451e-01 -2.835802030812639152e-01 7.476185009889788624e-01
-1.517273748579113686e-02 1.067387957231441392e-01 -6.050833843592304806e-01 4.716133196204940758e-01 -3.753932781126810281e-01 7.979102477749943079e-01
-4.026951987587278070e-02 6.848653999749532151e-02 -6.054611064451237423e-01 5.629984854824605645e-01 -3.167611502934679080e-01 7.633446659335575424e-01
-5.353254602784877567e-03 -2.557597779111009384e-02 -6.809873785579270145e-01 4.906151240934886748e-01 -4.573420493517060259e-01 7.417108937487116860e-01
2.316472219415010442e-02 1.021015330913735281e-01 -6.388795942420724128e-01 7.295651308683644976e-01 -2.871120883898352627e-01 6.207264844691690042e-01
2.200334173070511712e-02 1.473097716904386012e-01 -6.177249716414150438e-01 7.200904255333935300e-01 -2.578077113570721446e-01 6.442087883752944943e-01
3.088685273998868080e-02 -1.340918842964763380e-01 -7.726878856740150292e-01 6.117227240643763331e-01 -2.942078083002363509e-01 7.343276342331330753e-01
