7.756958042012413942e-03 1.320690135902795326e-01 -6.289210221054571948e-01 -7.549506775124541491e-01 -1.937853447168026988e-01 6.264955823439430915e-01
-1.776872049042596546e-02 -1.833665613455677801e-01 -8.130352678778948183e-01 -9.188794300569295137e-01 -6.503200241160253525e-02 3.891419171466751203e-01
-9.498237285809246798e-04 8.124284072143408975e-02 -6.594359730505131578e-01 -9.851551475453700357e-01 -2.122701859303727928e-02 1.703489035670932850e-01
4.447490259068712787e-02 -8.126733799365835897e-02 -6.586483754675132030e-01 -8.775597562287389408e-01 -2.381931044760146055e-01 4.161164731512492221e-01
1.953162920457013688e-02 -8.901172572335297808e-03 -6.713555434204140360e-01 -8.442251039081355435e-01 -2.633212810466827314e-01 4.668467381049496989e-01
1.732266817366366965e-02 2.022298889690069823e-01 -6.203161235334503365e-01 -8.328201300030573240e-01 3.642948505102366896e-01 4.167731912604445421e-01
-1.375411534009196059e-02 -6.107266952499620927e-02 -7.716989294612252026e-01 -9.283982858793109472e-01 -1.526948109341784710e-01 3.387638078221059668e-01
3.340573426509177435e-02 -8.613872107558594171e-02 -6.835662105858706372e-01 -8.569871197510379179e-01 -2.375949431774977416e-01 4.572982829153215967e-01
3.958818242307631657e-02 -8.412700379480150814e-02 -6.702664893191437878e-01 -8.672545516553470391e-01 -2.402518393348821724e-01 4.360603127197988371e-01
-3.436545315208576479e-02 -3.942065925075376349e-03 -7.934587678912944364e-01 -9.060935754399996878e-01 -2.112405350726706266e-01 3.665676866399563694e-01
2.053885510323270533e-02 6.178418454545711591e-02 -6.360075538915889171e-01 -8.316023934533937068e-01 -1.770864205624713694e-01 5.263818565024426244e-01
1.405320969992334031e-02 -1.482613909885115988e-01 -7.461018428207192299e-01 -8.503990503040208537e-01 -1.725891510709869348e-01 4.970255930780780873e-01
-5.046541630976790656e-03 -4.523182270824827045e-02 -7.365381401790578320e-01 -9.471975944284448667e-01 -1.669132421991721127e-01 2.737821884044459031e-01
-3.800616050394837325e-02 -2.040710678250096111e-02 -8.097560116119962847e-01 -8.880338966495880948e-01 -1.680719888346940694e-01 4.279574803301127717e-01
-8.341595996411408503e-03 -2.125454953945100645e-01 -7.979588860143964624e-01 -7.670910956632001065e-01 -1.352667652511747032e-01 6.271157414486697723e-01
-3.595951852030099261e-02 1.994484521007164682e-02 -7.809203762936368642e-01 -9.007941753853849765e-01 -2.663864520109380241e-01 3.429403909964356956e-01
1.406836464751017902e-02 -9.634141404292331790e-02 -7.242979286212275492e-01 -8.553849118565397536e-01 -2.235484295539608146e-01 4.672716043289356636e-01
2.008526009655497296e-02 -8.632549702836595992e-03 -6.702028670247047737e-01 -8.442251039081355435e-01 -2.633212810466827314e-01 4.668467381049496989e-01
-1.356743779068599921e-02 1.077831543028682226e-01 -6.907728442173757255e-01 -9.129524858483060168e-01 -1.145892517024830193e-01 3.916466034292437892e-01
1.715852227001040536e-02 -1.474532414807777636e-01 -7.404217589052730641e-01 -8.566751736357399727e-01 -1.654866738352789302e-01 4.885916573777235872e-01
-3.836956666404813671e-02 5.527235940580470935e-02 -7.616262515983422965e-01 -8.885999635604958646e-01 -2.241359909686300722e-01 4.001914070951494429e-01
1.313530069024457757e-02 -1.632974136403916032e-01 -7.519806827164831065e-01 -8.746191227208803820e-01 -1.159669748085240537e-01 4.707367108317731530e-01
4.411347980350177611e-02 -1.471897428622938667e-02 -6.241806755894308001e-01 -8.859451918528025161e-01 -2.501909457147338811e-01 3.905196636729932891e-01
2.491851612249583112e-02 4.725482148093549523e-02 -6.332218244456412348e-01 -8.579580675904774356e-01 -1.649944146184205152e-01 4.865026180825122171e-01
-9.596454055881617831e-03 -1.727761066289915104e-01 -7.885047704452178285e-01 -6.837702825542049112e-01 -2.092231772086093344e-01 6.990592698866652244e-01
4.510793239418851852e-02 -4.897821278352881835e-02 -6.408785348528726056e-01 -8.853814312847917423e-01 -1.992944849852466838e-01 4.199778915497323073e-01
-3.149371958060437349e-02 3.184564505300292031e-02 -7.604748944155692580e-01 -8.964309396296717969e-01 -2.596575323748429032e-01 3.591511330285219739e-01
-3.534599551276589730e-02 -3.279450449374263915e-02 -8.088126204384424867e-01 -8.909378722102747616e-01 -1.558817826354078062e-01 4.265332082075617426e-01
1.708839933261730891e-03 -1.595818567206836458e-01 -7.699149546072282524e-01 -8.201499485460312933e-01 -1.605405704733091632e-01 5.491637161466937922e-01
-2.249600317792446388e-02 9.823472658669907265e-02 -7.127056764556420898e-01 -8.888751787650371883e-01 -1.144936284295497292e-01 4.436125850609508037e-01
-1.537552599157244321e-02 -2.077388974377085418e-01 -8.071689385033341546e-01 -9.677964087982794394e-01 7.345362897062980567e-02 2.407793087210741145e-01
2.464475886809986555e-02 -1.461498698731087398e-01 -7.267547017575780588e-01 -8.608705604676434309e-01 -1.575496091684475963e-01 4.838181463845634411e-01
-3.058195694673490270e-02 1.390228621510042339e-02 -7.712576715273914418e-01 -9.050833182428736912e-01 -2.497820083259434387e-01 3.441411561483563863e-01
2.962370011472425721e-02 3.521114801070475420e-02 -6.286853984347636759e-01 -8.733883427171631464e-01 -1.618083942068998249e-01 4.593591692455388786e-01
-1.891595096974177381e-02 -6.964623849829740081e-04 -7.498933146796605831e-01 -9.202723080931138888e-01 -2.206228692003728564e-01 3.231476884379151926e-01
-7.235043422493657277e-03 -1.420253302473905577e-01 -7.786425721434951930e-01 -9.597098902525524888e-01 -2.736617897456327178e-02 2.796569662993678151e-01
1.146319117452100980e-02 1.406672448973554923e-01 -6.214463712878938173e-01 -8.015274801036419428e-01 -1.754078121764914011e-01 5.716518154140353136e-01
-6.240855400830662078e-03 -1.992712011325632193e-01 -7.920618494463591563e-01 -7.704685454045374637e-01 -1.659655809181189712e-01 6.154946356327790635e-01
4.022437520881420175e-02 -1.021515806541394011e-02 -6.301177063793749200e-01 -8.859240693266168254e-01 -2.501585293683222244e-01 3.905883428522235468e-01
1.681014486330934324e-02 1.374754218145078366e-01 -6.150191778981644042e-01 -7.981323776411184401e-01 -1.874728488280414107e-01 5.725719506867525954e-01
-2.862693047866398874e-02 8.543056152733578823e-02 -7.283293570317654897e-01 -8.855471484873806975e-01 -1.256169059244333919e-01 4.472433797741904860e-01
1.999801825582481554e-03 -6.191529143460418327e-03 -6.985446318047514591e-01 -7.953641973951977029e-01 -2.915710021706304778e-01 5.313964096558304595e-01
-1.441735669866867032e-04 -2.215359530513394681e-01 -7.853396860756403086e-01 -9.123991760192493583e-01 7.505291413769077033e-03 4.092327139906936639e-01
1.253798273890155239e-02 -6.715477187865650198e-03 -6.821110326458471596e-01 -8.294674370583178247e-01 -2.614310342828251588e-01 4.935965814040020883e-01
2.307665305575672468e-02 7.233476180280449174e-04 -6.594294847314960961e-01 -8.467475705190936619e-01 -2.702402884896900614e-01 4.582452818055211541e-01
2.928090291340520665e-03 -2.001863219506603009e-01 -7.770793155840614030e-01 -8.999719472958788158e-01 -5.078012653175935365e-02 4.329802222156138858e-01
3.331340249405690540e-02 -1.440654817325227322e-01 -7.109173060306933634e-01 -8.491342709529621224e-01 -1.540094753374506853e-01 5.052247731450472124e-01
3.607629819064104432e-02 6.188721221169341674e-02 -6.083292260812546148e-01 -8.608882641094006694e-01 -1.251081684256137028e-01 4.931727313141826552e-01
-2.404873288963199044e-04 1.052188493846497735e-01 -6.522897114285783893e-01 -9.617377178699563212e-01 -4.898212011971518620e-02 2.695576263711826348e-01
-2.866276420026642440e-03 -1.279939444637180623e-01 -7.664195705179368545e-01 -7.865034197617835066e-01 -2.017901805971470952e-01 5.836892098690796837e-01
-3.606425466851557755e-03 -2.258365705380873112e-01 -7.921600299537210343e-01 -8.577989673804377047e-01 1.107712230160327327e-01 5.019070309455597734e-01
4.512973807056166325e-02 -7.437405283753834029e-02 -6.533313254650308100e-01 -8.775771632724780336e-01 -2.156270854346402088e-01 4.282093909871576010e-01
-2.075688774366011083e-02 -1.857729565274852113e-01 -8.205501152884212557e-01 -9.072512778562237257e-01 -7.244783615978840630e-02 4.143023411278451973e-01
3.657164277092741361e-02 -1.083712081895392559e-01 -6.897469491090512106e-01 -8.479874773437959812e-01 -2.510123628971354659e-01 4.668083460488917646e-01
-1.128573426112279565e-02 -1.542662479952441879e-01 -7.918889503959505305e-01 -9.351848375444801187e-01 -5.268406719266657823e-02 3.502195150058646234e-01
1.397398299281236815e-02 -1.699502371658791477e-01 -7.518814616784579297e-01 -8.706815066973579986e-01 -8.617299767454776604e-02 4.842395361461108716e-01
-8.364712963026921938e-03 -3.641499770255340884e-02 -7.418929605828384899e-01 -9.345623799979170254e-01 -1.871394939222083831e-01 3.026086048134923878e-01
-1.570832801178654800e-02 -2.250255609374500476e-01 -8.058127858240595742e-01 -6.365606316265827180e-01 7.813384102718539878e-03 7.711870806049783145e-01
3.767706210584676613e-02 2.330683936085804764e-01 -6.098027419504291613e-01 -7.004556536609483075e-01 3.671669484986487819e-01 6.120051545408781157e-01
-2.758545339623136305e-02 -3.370484116161343718e-02 -7.928657551086077948e-01 -8.990382458964638612e-01 -1.831874908513081157e-01 3.977091595764558618e-01
-2.720171430483134603e-02 9.270516187214293546e-02 -7.234924987889208570e-01 -8.865038689947997153e-01 -1.210214669908677709e-01 4.466147050698501264e-01
-2.580072396481563821e-02 -1.332830093890804979e-01 -8.185313274975225539e-01 -8.535604186048388886e-01 -1.196060942598876631e-01 5.070788834166011227e-01
3.555869668017646451e-02 -6.909767415701570208e-03 -6.383862304368747020e-01 -8.823208617918529839e-01 -2.518654390368360585e-01 3.975848305276042383e-01
2.918074110761678316e-02 5.956848257697605273e-03 -6.440841359413206346e-01 -8.753998100191869858e-01 -2.503227009940002801e-01 4.135380490177893442e-01
2.198698089230571862e-02 6.762245317430611025e-02 -6.315901088648192552e-01 -8.448802122868189768e-01 -1.610715766557591355e-01 5.101307421434310152e-01
3.906766539936525756e-02 -7.134465572752500366e-03 -6.307335921755324870e-01 -8.824800181594161241e-01 -2.520947855226766676e-01 3.970859310799512709e-01
-2.959311131403299868e-04 6.565017433219626219e-02 -6.651082054249680686e-01 -7.547928236254817236e-01 -2.701863530246329526e-01 5.977349981745426755e-01
-3.632611566009445736e-02 -3.505644785227261806e-02 -8.116865395095289593e-01 -8.909378722102747616e-01 -1.558817826354078062e-01 4.265332082075617426e-01
-2.244297237483224017e-02 -4.307790366560390475e-04 -7.596308674050010756e-01 -9.105409869799481193e-01 -2.377453289427577665e-01 3.382192626026518378e-01
-1.213191903579389358e-02 -1.713235019077943844e-02 -7.411255876297790923e-01 -9.324435608691117316e-01 -1.984916619986435149e-01 3.019106919450642024e-01
-6.876137740925271705e-03 -1.520500424450571542e-01 -7.793982976453537326e-01 -7.105503167929724251e-01 -2.090750814370745669e-01 6.718674405174631659e-01
-4.093223122680855058e-02 -7.379095914901408204e-02 -8.295596501817974477e-01 -8.335691742608060117e-01 -1.079514451621363946e-01 5.417646326676965884e-01
2.852173281651001688e-02 -1.579019417694453586e-01 -7.228617736019455897e-01 -8.585815285114375417e-01 -1.081872955396231684e-01 5.011319865891477043e-01
-2.766222979910165289e-02 -7.026783601361027976e-02 -8.065847288270390214e-01 -8.687174872024095995e-01 -1.510600168119299036e-01 4.717105031155344186e-01
1.407325418473646603e-02 1.972803344880809662e-01 -6.227513474255703674e-01 -8.577246437280895419e-01 3.256606176298941779e-01 3.978110074726912138e-01
2.278474746946433996e-02 3.379445524457504180e-02 -6.421377900686381368e-01 -8.635002076149180805e-01 -1.997924388867140244e-01 4.630878672700156629e-01
-1.464965001381052755e-02 -2.195404363882120791e-01 -8.048793483778700075e-01 -6.040584706146694405e-01 -7.493377631966659236e-02 7.934092848241319773e-01
1.406096442754455056e-02 -1.431409618131797290e-01 -7.443105363972807309e-01 -8.503990503040208537e-01 -1.725891510709869348e-01 4.970255930780780873e-01
1.383012813821211419e-02 -8.524737247957787922e-02 -7.193955908343636629e-01 -8.561484821312281834e-01 -2.290299669281542772e-01 4.632008752078113356e-01
1.663107176956219943e-02 6.810420021507444799e-02 -6.399605492312804289e-01 -8.241231694653301521e-01 -1.916138458330917116e-01 5.330151364037146733e-01
4.583079850645359159e-03 -7.101084751022408714e-02 -7.292889777864246525e-01 -8.482393700217485399e-01 -2.413762631811137982e-01 4.714100876284139652e-01
5.250363437412038786e-02 2.495560193429414431e-01 -6.076731729136007898e-01 -6.142031801858178763e-01 5.357460954484387639e-01 5.794226218067257683e-01
-3.399590215656413811e-02 -9.866394088997414158e-02 -8.240063893005830087e-01 -8.356886215834051779e-01 -1.138709992678515054e-01 5.372689487414743503e-01
-1.587026462909411906e-02 7.432714343579951977e-02 -7.041683664895683759e-01 -9.149100792291329221e-01 -1.046803348735111661e-01 3.898481427629367224e-01
4.453087678061454224e-02 -4.775555468865892716e-02 -6.415183941710140836e-01 -8.862550953819489097e-01 -1.967497463328883034e-01 4.193345242494069258e-01
-1.219058643567147091e-02 -1.678699739781517597e-01 -7.960538048364235175e-01 -9.446234956738521760e-01 -3.627026819845730055e-02 3.261455488976102157e-01
-3.790396348357781553e-02 -4.916627675753221238e-02 -8.189711135128568964e-01 -8.606924960971635841e-01 -1.487982610491601076e-01 4.868957841990214641e-01
-1.801442042595945495e-02 7.071222625460803213e-02 -7.102074668774457367e-01 -9.152388621021287918e-01 -1.083103371061303888e-01 3.880807856284005930e-01
2.200887860248542435e-03 -5.818788895402738498e-02 -7.268272971040582453e-01 -8.353276793751067686e-01 -2.590985398380741267e-01 4.848665947697123890e-01
-3.352011118409793048e-03 7.762335707462211798e-02 -6.696003686259939247e-01 -9.525942761482416588e-01 -7.922895456946885129e-02 2.937463494367824612e-01
-1.732180130138178537e-02 -2.269474717754964288e-01 -8.070273944145326395e-01 -7.340348944977278522e-01 1.415579230571472336e-01 6.641943451125253972e-01
-9.344928773776768963e-03 -1.303459322004188181e-01 -7.825407936565775824e-01 -9.353629208514890880e-01 -7.408909418703978067e-02 3.458424676333357040e-01
-2.922355033773990640e-02 6.294582478716098661e-02 -7.376076944405896008e-01 -8.940269582072971621e-01 -1.891748282472127396e-01 4.061141247928286568e-01
-4.167967882686992448e-02 4.795293225868643011e-02 -7.738631884883316880e-01 -8.909955181950299785e-01 -2.480167993596512910e-01 3.802823343146039536e-01
-5.156929867967294592e-03 -1.985848083548985843e-01 -7.904712420120344474e-01 -8.215593451205970288e-01 -1.337846599960172966e-01 5.542038498555977855e-01
3.201913987490910551e-02 -1.151348161930012964e-01 -7.012359567366011071e-01 -8.446568333662248795e-01 -2.259227650049739078e-01 4.852975768538813073e-01
-1.318702988498498749e-02 1.306695753079949451e-01 -6.835388110058874256e-01 -9.233754354817169663e-01 -7.908305843571607208e-02 3.756643116099833701e-01
-3.634616562526549882e-02 2.457640886478257639e-02 -7.782456433795149620e-01 -9.001828220600582853e-01 -2.739661592267623180e-01 3.385460536862386349e-01
-2.655792575681518303e-02 -1.250951435895026644e-02 -7.788864021637973423e-01 -9.060213848342457688e-01 -2.186430755942880000e-01 3.623816437372425758e-01
-2.245570352597681119e-02 -1.368072023195667231e-01 -8.133495862582349467e-01 -8.736647162220525509e-01 -1.088160652393335009e-01 4.742035718702143354e-01
-1.139330353710620199e-02 -1.417224410721951988e-01 -7.900680885874822312e-01 -9.263587346665809186e-01 -7.031028175596469587e-02 3.700215655692625782e-01
-3.878802049612132315e-03 2.863588054727479043e-02 -6.897527425293257242e-01 -9.479220622666928442e-01 -1.359484843089942829e-01 2.880308550869982720e-01
-2.005656779491729255e-02 9.344473398636680972e-02 -7.087799768362966768e-01 -8.941213487987731412e-01 -1.128338430457698077e-01 4.333769000371215374e-01
-4.478610235069474359e-03 2.540173890783654909e-02 -6.933257722293577618e-01 -9.480197783282178214e-01 -1.444705937336017987e-01 2.835255675327663649e-01
-3.635812662691844527e-02 4.667421613960649751e-02 -7.622508121795721348e-01 -8.902535822076288463e-01 -2.489072883354898902e-01 3.814363920497856331e-01
-9.462642422533452946e-03 1.130379045889833879e-02 -7.153837004199226079e-01 -9.249418368582429384e-01 -1.946962733238569998e-01 3.264597365420450759e-01
2.980390399066144835e-02 -4.192947086254674577e-02 -6.687091758999232916e-01 -8.658708490817551562e-01 -2.067314334606298043e-01 4.555543734064613215e-01
-3.580273892225215721e-02 -1.161620608856884888e-02 -8.010513637392121522e-01 -9.011585407385451774e-01 -1.904221047893706886e-01 3.894261245237170543e-01
1.331620976027726201e-02 -6.608934688046638750e-02 -7.108535483429134771e-01 -8.531728057052587744e-01 -2.347480264681057194e-01 4.658213473793856862e-01
-1.774189561243731325e-02 -9.606821106685421718e-02 -7.942759996117199073e-01 -9.016762856211885113e-01 -1.049125594171651799e-01 4.194916337960943875e-01
-1.942901656070316480e-02 -1.596594822125383950e-01 -8.123636000602039164e-01 -9.033596527046029445e-01 -8.957526766587019240e-02 4.194253321963360981e-01
-4.155661298126277908e-02 -8.943153412516315071e-02 -8.335763536602024404e-01 -8.332284775680722788e-01 -1.057449268438481332e-01 5.427230551730610753e-01
-7.513889501102735033e-06 -1.740535930464402747e-01 -7.766064451273313463e-01 -8.023224840363500920e-01 -1.638896377602544474e-01 5.739501879471364809e-01
-2.971147692301049845e-02 4.139959408176474565e-02 -7.498702815089425266e-01 -8.951115294392930632e-01 -2.323832404421821984e-01 3.804909715439254714e-01
1.870969700032582006e-02 -5.494317274804209894e-02 -6.954510017108942455e-01 -8.565903366266384156e-01 -2.274598772605831709e-01 4.631576399396454269e-01
3.139647501835966803e-02 -7.906529230129218100e-02 -6.836565201027322569e-01 -8.569871197510379179e-01 -2.375949431774977416e-01 4.572982829153215967e-01
2.373369852398305585e-02 -1.346170148859399951e-01 -7.242159029148065308e-01 -8.512836040426846607e-01 -1.842196434949024131e-01 4.913037232086771566e-01
-2.095728998633037202e-02 -8.403334836249004569e-02 -7.976939411075184561e-01 -8.795070956183271838e-01 -1.335036711289756262e-01 4.567756982941418853e-01
1.617468474824926630e-02 3.186032488218662473e-02 -6.547617867552277815e-01 -8.499407407564276706e-01 -2.417218094079170154e-01 4.681573496795471412e-01
2.152269360979049140e-02 1.867750154958609243e-01 -6.081150162191139019e-01 -6.435748637986090648e-01 1.864858718147253402e-01 7.423169230861597079e-01
3.421403748688416763e-02 -8.467778472834353032e-02 -6.812301279344106231e-01 -8.651475162094109939e-01 -2.423010347179718471e-01 4.391013365628563259e-01
-3.865253536652188404e-02 8.547724755428787180e-02 -7.483101661608183575e-01 -8.836319797281553257e-01 -1.462817562902845869e-01 4.447428157692157047e-01
3.792802354592313824e-02 -3.307666737083218150e-02 -6.483174547028155432e-01 -8.829009575642463581e-01 -2.134321024415684054e-01 4.182494910690371936e-01
3.971303241161665276e-02 8.574842082209896063e-03 -6.198454036196191508e-01 -8.864912456404167029e-01 -2.250021029318088617e-01 4.043603900967129849e-01
-4.773194152088396265e-03 1.463496185488441792e-01 -6.582729942920003685e-01 -9.405471589499861951e-01 -6.020728941919411409e-02 3.342844957396360339e-01
-2.510642088099883026e-02 -1.919416593745331412e-01 -8.299285555532464054e-01 -8.668350395255517427e-01 -3.926003087230132971e-02 4.970469436850417089e-01
-2.265843277222549454e-02 -2.082694199569491422e-01 -8.254181620197590386e-01 -8.397208890593755859e-01 1.178453912766492806e-01 5.300766852373204330e-01
-1.623267890298267860e-02 4.859129908404567766e-02 -7.139998882421327853e-01 -9.166282683835444978e-01 -1.639436080220161296e-01 3.645752473617872025e-01
-2.403254440456421837e-02 -1.222161099446025523e-01 -8.129241957391795115e-01 -8.707509148411055611e-01 -1.099357968637926508e-01 4.792775447184026150e-01
-2.969654542582193454e-02 -5.910462090312978978e-02 -8.070215260812559910e-01 -8.764548671515243194e-01 -1.335010294867516045e-01 4.626060321400719544e-01
-2.827269516864371925e-03 -8.910194365906061453e-02 -7.505829366427188010e-01 -8.193558435543979446e-01 -2.319283063516272836e-01 5.242759410330846137e-01
3.479687670723580900e-02 -3.297788489111251782e-03 -6.377887151776354679e-01 -8.823208617918529839e-01 -2.518654390368360585e-01 3.975848305276042383e-01
-2.391264885890778333e-02 -7.772789971146860932e-02 -8.017085022470386013e-01 -8.845221606535498271e-01 -1.219455142449658580e-01 4.502775131719399249e-01
4.297539333080331288e-04 -1.040952595618182541e-01 -7.521114664120002180e-01 -8.330136536822473348e-01 -2.066955026661267680e-01 5.131912138341321317e-01
-6.242834770165489600e-03 -1.357226456718847729e-01 -7.745866184597708370e-01 -9.577070345427259879e-01 -4.578875545160516342e-02 2.840785557932370420e-01
6.894846003456221034e-03 -1.297981924107971807e-01 -7.515412620206705085e-01 -8.395958590018280931e-01 -2.011987139951106618e-01 5.045769228112755300e-01
2.137167934796295812e-02 -1.412643767360636238e-01 -7.308337903370206723e-01 -8.575494311448357276e-01 -1.768897693054513887e-01 4.830310369512840762e-01
-1.950920945115670532e-02 -2.086186020896257654e-01 -8.196939248524993671e-01 -9.164572291622984368e-01 1.600937248316027309e-02 3.998122648304544002e-01
7.767198806055177797e-03 -4.759038201841658822e-02 -7.113472834687949442e-01 -8.484909300247226449e-01 -2.466433321040230331e-01 4.682202562837342041e-01
-4.400427265080953526e-02 5.762711665983566434e-02 -7.728167166796613419e-01 -8.869294287987609104e-01 -2.294402222662692004e-01 4.008907241844199554e-01
1.792707045896673942e-02 -1.503123438426998970e-01 -7.399792653449051016e-01 -8.648072186044529763e-01 -1.433908835547790805e-01 4.811938581933579706e-01
-7.327471059305189563e-03 -1.178172485633923183e-01 -7.742004685370870165e-01 -9.384552642758061669e-01 -8.746602193353825161e-02 3.341428017482172552e-01
-3.120632354359966637e-03 1.003006842359085299e-01 -6.634099218676238197e-01 -9.543099679070349284e-01 -6.817196705761274789e-02 2.909382547221484039e-01
3.086851369440773291e-02 -5.791055986780609816e-02 -6.739938914374632439e-01 -8.746242322437166594e-01 -2.039214732959208909e-01 4.398277902780927673e-01
2.846378546425437639e-02 -7.547746693962750775e-02 -6.873386859606296362e-01 -8.618962936992666801e-01 -2.330580308024415570e-01 4.503540087375213496e-01
-8.253509807958376437e-03 -1.319154813102669521e-01 -7.799237476323827023e-01 -9.357277459067897540e-01 -7.412122342270074937e-02 3.448472557213122514e-01
4.442607016390902851e-03 -6.322934136864111210e-02 -7.254941298277779449e-01 -8.482739222677557756e-01 -2.492660440129061961e-01 4.672234926698713986e-01
-6.551266013838136400e-03 -4.703277919724140749e-02 -7.424911508372128432e-01 -9.399966218556079500e-01 -1.722106861763418595e-01 2.945332417006927828e-01
2.712420516017611041e-02 3.521031452930956790e-02 -6.334380294181715110e-01 -8.733883427171631464e-01 -1.618083942068998249e-01 4.593591692455388786e-01
-3.319381174267098389e-02 -3.919268424200268719e-02 -8.070383019691196314e-01 -8.810189769516824088e-01 -1.808473694259907227e-01 4.371496210940942762e-01
6.745255016477626035e-03 -1.944823287182635696e-01 -7.685975397845612456e-01 -9.108050378997398777e-01 -6.578188009740081575e-03 4.127843388247205425e-01
-4.881405229100935390e-03 7.180112072897054665e-02 -6.759381509381729991e-01 -9.459365696168593463e-01 -9.373843393772968158e-02 3.105110501486061936e-01
-3.469385994879591040e-02 -4.839318641346602307e-02 -8.128050530080246361e-01 -8.677990599601641541e-01 -1.637868816307215536e-01 4.691467243176057345e-01
-3.055456529819424675e-03 5.856495502579128765e-02 -6.743047571499638515e-01 -9.594924361762080522e-01 -9.229318586968816851e-02 2.661883407714705774e-01
-7.764610387590637451e-03 1.039741806030646532e-01 -6.767781653568792910e-01 -9.367142584812024886e-01 -7.741053459413030358e-02 3.414293588604554452e-01
-2.320912354002746536e-02 -2.411413971281188215e-02 -7.771490416392679013e-01 -9.133744593716344173e-01 -1.922167257741743962e-01 3.588869282938993432e-01
2.741566730439906011e-03 1.267404103212383115e-01 -6.388199885707680492e-01 -9.722270549005878060e-01 7.384260676292308742e-03 2.339231207332741480e-01
-2.761833518134987689e-02 -1.634854697024491418e-02 -7.838539040885187381e-01 -9.060213848342457688e-01 -2.186430755942880000e-01 3.623816437372425758e-01
4.006357238755378636e-03 1.396313946540458928e-01 -6.339484298011415220e-01 -9.566024222364833962e-01 -1.398668699710162514e-02 2.910604376381953906e-01
3.834123407348334622e-02 2.344462275237454152e-01 -6.100209367289179951e-01 -6.455599074761574352e-01 4.456750639524784674e-01 6.201823467580553917e-01
-1.519748742004810652e-02 -5.733858916401521170e-03 -7.426529517084187182e-01 -9.223965710911828930e-01 -2.181442479124475198e-01 3.187438669871800467e-01
3.742234732237741113e-02 -9.851208175972470116e-02 -6.828196754990702999e-01 -8.479741712644944807e-01 -2.559458065620841549e-01 4.641460427188598969e-01
-9.625614952790472606e-03 -2.321520022054814614e-01 -7.990508891125051028e-01 -7.265717412094412353e-01 2.133216223579337822e-01 6.531365786039393662e-01
-7.889957318731728036e-03 -1.103900134401388095e-01 -7.738360658975049766e-01 -9.384552642758061669e-01 -8.746602193353825161e-02 3.341428017482172552e-01
3.892064185900120238e-02 1.635650249637857212e-02 -6.175913536820855088e-01 -8.859136312855055984e-01 -1.855093819306970759e-01 4.251391620613416134e-01
-1.743489433461943919e-02 -3.085881626421508369e-03 -7.473068351560340217e-01 -9.202723080931138888e-01 -2.206228692003728564e-01 3.231476884379151926e-01
-2.304408677251130327e-02 -1.341630807759507105e-01 -8.138268639363213097e-01 -8.736647162220525509e-01 -1.088160652393335009e-01 4.742035718702143354e-01
3.670844705327538232e-02 2.255286470083191219e-01 -6.069584666317036081e-01 -6.687238041396929011e-01 2.712158174679308864e-01 6.922791735507716204e-01
2.366127509901873316e-02 -6.927367863786663971e-02 -6.933056698805335483e-01 -8.568013454260098305e-01 -2.301482144869817226e-01 4.614360777449392770e-01
5.759958315866099687e-03 -1.826310745733483731e-01 -7.693261515274530948e-01 -8.556787263734021431e-01 -1.095683552566511371e-01 5.057753382267115017e-01
-4.102596134041797647e-03 1.790526137175690868e-02 -6.959016903561126011e-01 -9.469189595536773307e-01 -1.467560343126129985e-01 2.860194930955168302e-01
4.282140422351462389e-02 -1.348798338123619912e-02 -6.263232703080777730e-01 -8.859451918528025161e-01 -2.501909457147338811e-01 3.905196636729932891e-01
1.850681413886955465e-02 -1.539832730222074897e-01 -7.400312428561938161e-01 -8.648072186044529763e-01 -1.433908835547790805e-01 4.811938581933579706e-01
-4.034587676160188152e-02 3.521645474849593310e-02 -7.801161266258718197e-01 -8.935848209706501732e-01 -2.810300658913133520e-01 3.500403830931156368e-01
-1.720663323357030788e-02 -1.100442987754507440e-01 -7.967526941273032071e-01 -8.989989447561776981e-01 -1.115103284174804588e-01 4.235166395591845045e-01
-1.949231220876243217e-02 -4.333661547056739949e-02 -7.780923332586284769e-01 -9.208851061179054165e-01 -1.751948978207822638e-01 3.482490044605724422e-01
4.052293591816666374e-02 -1.079437189238368761e-01 -6.823393004923570260e-01 -8.479874773437959812e-01 -2.510123628971354659e-01 4.668083460488917646e-01
-1.489727021657510572e-02 8.778514085659930299e-02 -6.988906237048847503e-01 -9.055027251842556746e-01 -1.032417475286556974e-01 4.115895482773045400e-01
2.937815491087269332e-02 -3.805531921690966796e-02 -6.677371075983546955e-01 -8.651535678572706001e-01 -2.153088341750745704e-01 4.529364303630315503e-01
-4.266593555076441530e-02 2.560594654766701339e-02 -7.940816685371492323e-01 -8.985616431311268526e-01 -2.746025490841422223e-01 3.423162478322941404e-01
3.076713995674478647e-02 2.135757630291400533e-01 -6.079607646568546686e-01 -5.774227902434243553e-01 2.206532895062305599e-01 7.860630045597983839e-01
1.285635854600408051e-02 5.134018077434771704e-02 -6.519024517070777236e-01 -8.247620606449773684e-01 -2.026703473655172005e-01 5.279131307510650517e-01
-9.973116100879522369e-03 -1.185298398286064869e-01 -7.816080976626683663e-01 -9.265686236498079653e-01 -8.254230391304707981e-02 3.669568826612012447e-01
-1.563942473203976460e-02 3.839974650021248798e-02 -7.172006238029670078e-01 -9.169463489995475225e-01 -1.821193563850782571e-01 3.550238486162369811e-01
-2.028745407684461044e-02 -6.248596021213566852e-03 -7.575923228652341468e-01 -9.202529651141186928e-01 -2.210630487500041819e-01 3.229018561049562530e-01
-4.631824894446781929e-03 -5.020677057393783255e-02 -7.379514531606210515e-01 -9.473189628886572455e-01 -1.579635421531770390e-01 2.786293270673068090e-01
-2.047257409664256234e-02 1.182012868915908142e-02 -7.455173737639897436e-01 -9.142668102671945851e-01 -2.250706381040004367e-01 3.368373606168227341e-01
-1.295614653096955650e-02 2.597319419585680800e-02 -7.166940462380072541e-01 -9.230498777048481429e-01 -1.885040127488550044e-01 3.353284366805835415e-01
4.516653346531196433e-02 -8.361156827182464335e-02 -6.586796642203113228e-01 -8.677979499826455889e-01 -2.629455000000346376e-01 4.216472246269969970e-01
1.621700162051365260e-02 7.853956306858764225e-02 -6.366884416521343404e-01 -8.249698150098344618e-01 -2.030269802456400041e-01 5.274512770057304678e-01
-3.896724264443347796e-02 -7.035304089518323346e-03 -8.060459639142384392e-01 -8.986482551042986877e-01 -1.979119101562589189e-01 3.914871510232486029e-01
-2.772672073005511689e-02 -7.613950860961966882e-02 -8.083046096699146865e-01 -8.655787754264464562e-01 -1.209392036866875769e-01 4.859496810811622103e-01
-3.975626153470700891e-02 3.481985495173617329e-02 -7.789293642692552977e-01 -8.935848209706501732e-01 -2.810300658913133520e-01 3.500403830931156368e-01
-1.379646287252606768e-02 -1.943943158859202380e-01 -8.025664826199575552e-01 -9.594756559104273830e-01 2.528057580735090012e-03 2.817801885160201580e-01
4.484534325847974734e-02 -2.881991984028594786e-02 -6.312429466671497513e-01 -8.862708334942892563e-01 -2.385944155674917522e-01 3.969845268487737222e-01
-3.566800447196457995e-03 4.163995325111138207e-02 -6.827401662137404514e-01 -9.541846277872092497e-01 -1.196293859845448670e-01 2.742635705002497981e-01
-1.497696952297337264e-02 5.258782617330703957e-02 -7.091969068993930758e-01 -9.175204536200552985e-01 -1.413774338833184985e-01 3.717104227452008303e-01
9.970200015442980471e-03 -2.049630855692368692e-01 -7.593120585072822282e-01 -9.273873110312256252e-01 9.286737409004110211e-02 3.623926408853982983e-01
3.269376106894355399e-02 -4.108594689968383951e-02 -6.626753857287368543e-01 -8.755675757423718730e-01 -2.043927163262783397e-01 4.377271271253260765e-01
-1.843536401220693260e-02 8.944412290515450781e-02 -7.063150495549442853e-01 -9.087684965023385963e-01 -8.591558964600543025e-02 4.083605407243191543e-01
8.440999023042257312e-05 1.335149878123178813e-01 -6.465257369056126580e-01 -9.479898028447829583e-01 -4.987329955812307841e-02 3.143691901148945034e-01
-7.871174261127234298e-03 -4.753223623304760753e-02 -7.469956377494612054e-01 -9.399966218556079500e-01 -1.722106861763418595e-01 2.945332417006927828e-01
4.424674963876037113e-03 6.620047309186867512e-03 -6.877894585621732171e-01 -8.057628618861758518e-01 -2.843394865282329875e-01 5.195163778032988455e-01
-5.768291317678836622e-04 9.814078565607103899e-02 -6.547877828293784397e-01 -9.712112912650850971e-01 -3.787681562536404645e-02 2.351892313803675416e-01
-3.980329182474131450e-02 -7.068560423635039669e-02 -8.272038732285279528e-01 -8.335691742608060117e-01 -1.079514451621363946e-01 5.417646326676965884e-01
-7.828494270728977508e-03 -9.016057846245700835e-02 -7.673124850049505286e-01 -9.427630423825028583e-01 -1.182756184022635965e-01 3.117831361848317773e-01
1.982613305311742985e-02 -1.658642120179818213e-01 -7.401242618454964006e-01 -8.682380614477503977e-01 -8.685880783626070967e-02 4.884856355664060623e-01
1.357869101333035976e-02 -1.755396170180405502e-01 -7.533183216152674611e-01 -8.988233385258966868e-01 -3.959158448550039594e-02 4.365193152187982206e-01
2.139781224479484281e-02 -6.558681175612446346e-02 -6.956906590985624250e-01 -8.571904238839725965e-01 -2.259930388206853880e-01 4.627653007802199348e-01
-1.093161842818026613e-02 1.325033842407408735e-01 -6.774505342171641686e-01 -9.263732282037852039e-01 -8.620876599511151372e-02 3.666069976594796276e-01
2.968524405091927179e-02 -1.108064557561252994e-01 -7.032500859338115529e-01 -8.450441624271016750e-01 -2.469883116955558233e-01 4.742332099649467225e-01
-3.519009060617007273e-02 3.615081459018414101e-02 -7.664820286973922370e-01 -8.921463778505459574e-01 -2.644964134297558278e-01 3.662191799605073461e-01
-6.097775556342760646e-03 8.630483077623586630e-02 -6.760535188401685103e-01 -9.497362476501404194e-01 -5.931138586381285577e-02 3.073812281294108217e-01
-1.937432708090883540e-02 -1.896775701222482013e-01 -8.181668707430165277e-01 -9.144091500547089080e-01 -6.218057657099052699e-02 3.999868525258350460e-01
-1.013810226620982628e-02 3.717591937014651238e-02 -7.034899775805175670e-01 -9.224180639724237629e-01 -1.640701266685648252e-01 3.496082218603080993e-01
-3.050824514759290298e-02 -8.465694091389060205e-02 -8.153966828823226987e-01 -8.574957071543067855e-01 -1.202523381901800109e-01 5.002404295653538613e-01
2.729971730405999879e-03 -1.202885982010830634e-01 -7.547934141593638513e-01 -8.396350587218540662e-01 -1.879240630326538264e-01 5.096052537979248731e-01
-2.022416519791336506e-02 2.395467981848695138e-02 -7.369321792321048559e-01 -9.116349790431544919e-01 -2.196193060123270702e-01 3.474032605080885072e-01
-3.281934706317408967e-02 -6.893679529396126715e-02 -8.153974200532287941e-01 -8.529176715477210236e-01 -1.259072491395136495e-01 5.066347897408292056e-01
-6.495473004323988088e-03 1.462222319516491911e-02 -7.050396678265224981e-01 -9.276241300255476663e-01 -1.799680500848463705e-01 3.272995177860855143e-01
-4.438861010317300508e-03 9.627327459708909241e-02 -6.687056211109874138e-01 -9.507495108971497633e-01 -7.072042047319490599e-02 3.017846743241361929e-01
9.141664915736032876e-03 9.121635115162141094e-02 -6.418186243450141326e-01 -7.837266599102689080e-01 -2.296330712578919520e-01 5.770971972991735255e-01
-2.363049530020723543e-02 4.086073634650511793e-02 -7.357288214141338711e-01 -9.012791121556211760e-01 -2.018602198727696417e-01 3.833385104902615748e-01
-8.674549914636861189e-03 7.769484912561674950e-02 -6.854613313602604396e-01 -9.365269254934137644e-01 -8.028287027954074395e-02 3.412799123381453636e-01
3.808925282278893820e-02 -2.669177024582316746e-02 -6.447137149665713718e-01 -8.827511357562448646e-01 -2.138405220995889811e-01 4.183571003690924051e-01
-1.013662981485535450e-02 -1.837648780936906590e-01 -7.922965422008469982e-01 -6.760624912240916773e-01 -2.060483274551263566e-01 7.074486516439336681e-01
-2.848769267519073514e-02 -3.576086223872800007e-02 -7.958523218808026822e-01 -8.990382458964638612e-01 -1.831874908513081157e-01 3.977091595764558618e-01
-7.089374408863197488e-03 -1.478495847128078085e-02 -7.242831259386433018e-01 -9.321346195462066886e-01 -1.908410204942704302e-01 3.077413783360209432e-01
-3.172718744075164743e-02 -9.977704387473616821e-02 -8.207134595144772726e-01 -8.356886215834051779e-01 -1.138709992678515054e-01 5.372689487414743503e-01
-2.450154889851018786e-02 2.044754756536920539e-03 -7.634966121172194198e-01 -9.131332128350457822e-01 -2.409961421506603418e-01 3.287987151526681195e-01
-3.046025345675180268e-02 2.544083182495218351e-02 -7.623487795822581070e-01 -9.012398654788353891e-01 -2.456709863796728288e-01 3.569488357214927743e-01
-3.844416980561555369e-02 -1.471816952803947122e-02 -8.083177176749655191e-01 -8.981829152258087312e-01 -1.775057991968378435e-01 4.021929164567167314e-01
4.295893707232630379e-03 -1.299079313405623326e-01 -7.559095730106303312e-01 -8.395958590018280931e-01 -2.011987139951106618e-01 5.045769228112755300e-01
3.715381952335561344e-02 -3.288397220236267265e-02 -6.498526226244902837e-01 -8.827511357562448646e-01 -2.138405220995889811e-01 4.183571003690924051e-01
-4.940650425588739153e-03 9.026938882786267326e-02 -6.716934248131957164e-01 -9.507495108971497633e-01 -7.072042047319490599e-02 3.017846743241361929e-01
-1.736655998964674666e-02 -1.862783590037312212e-02 -7.575964881077061897e-01 -9.221562301408040563e-01 -2.152119498229726202e-01 3.214213805363522747e-01
-1.058382199355516022e-02 -2.590021713894187158e-02 -7.421087769371048637e-01 -9.324435608691117316e-01 -1.984916619986435149e-01 3.019106919450642024e-01
-2.059078594920098551e-02 6.696834217557547098e-02 -7.171250756672111759e-01 -9.002672623062659696e-01 -1.245991923697451903e-01 4.171257576323811889e-01
-8.694338917676441153e-03 1.251683771065952855e-01 -6.733948755882692705e-01 -9.304982735970398489e-01 -8.149047782947377305e-02 3.571165984045718833e-01
-1.301119565775654512e-02 -3.498761804176460204e-03 -7.347919361264775295e-01 -9.255059174938362609e-01 -2.083844306006797931e-01 3.162510486419338740e-01
3.360991878211489620e-02 -1.314238686677213219e-01 -7.058329457170385846e-01 -8.437062211980916882e-01 -2.038790543532757182e-01 4.965814570718991572e-01
3.949896530974813386e-02 -7.984622913686878487e-02 -6.680480993710460336e-01 -8.671754731578266151e-01 -2.480818109275873262e-01 4.318125911091387770e-01
3.425584166062817931e-02 -3.523914417466225690e-02 -6.568253462483075733e-01 -8.752335088461247192e-01 -2.040217116427750499e-01 4.385674932906596935e-01
1.497220024925322718e-02 -1.416141097199592469e-01 -7.422212432131352067e-01 -8.503990503040208537e-01 -1.725891510709869348e-01 4.970255930780780873e-01
-1.879427486973729577e-02 -1.829076377624520577e-01 -8.154455005501125564e-01 -9.299770241658694703e-01 -7.411172844215006827e-02 3.600696963518461580e-01
1.917189899189581173e-02 -8.177798622766627168e-02 -7.078556784019625070e-01 -8.562854035312323919e-01 -2.299477280081027863e-01 4.624925405704029546e-01
-3.677855994279681517e-02 6.502853443912577636e-02 -7.529785363691526845e-01 -8.893810818725012002e-01 -1.962108719412786473e-01 4.129195865290749001e-01
3.622574354436308708e-02 -9.649263111077212296e-02 -6.838922240635675331e-01 -8.479741712644944807e-01 -2.559458065620841549e-01 4.641460427188598969e-01
-5.539915837111477649e-04 1.308024648231109477e-01 -6.488811860943358711e-01 -9.479898028447829583e-01 -4.987329955812307841e-02 3.143691901148945034e-01
-2.658335281475695394e-02 -5.140551781224752398e-02 -7.982277274784631560e-01 -8.892517721766542982e-01 -1.665306970914949281e-01 4.260267745188093813e-01
-2.320235494573056820e-02 -7.806333529523495907e-02 -8.004040492711694821e-01 -8.845221606535498271e-01 -1.219455142449658580e-01 4.502775131719399249e-01
1.624908600610449607e-03 -1.088274357017026128e-01 -7.520964385107804517e-01 -8.407295323939599774e-01 -2.044847867845319411e-01 5.013579812213202480e-01
-5.328073499876153502e-03 -1.840965941469925038e-01 -7.867590598110228983e-01 -7.585385140250909819e-01 -1.801675143162291548e-01 6.262259891809969226e-01
-1.352429014084719459e-02 -1.871436552635815376e-01 -8.015990409794332416e-01 -9.515452178710267495e-01 -1.889926649522099406e-02 3.069275420563016277e-01
5.850203641847300136e-04 -2.003101195970665716e-01 -7.818798089911143112e-01 -8.526303355979135690e-01 -1.184988232523152552e-01 5.089003239397725809e-01
-2.026512920977591864e-02 -1.680959128635600430e-01 -8.158608420875773648e-01 -8.880247206626693535e-01 -8.962183979741808471e-02 4.509767414438508037e-01
2.884621526473927708e-02 -1.473598159775392769e-01 -7.196316291597062431e-01 -8.636667035172271856e-01 -1.538752040891188111e-01 4.800023404132712224e-01
1.288471902770833323e-02 1.952218032259830927e-01 -6.236287825023738574e-01 -8.577246437280895419e-01 3.256606176298941779e-01 3.978110074726912138e-01
-8.925907660001087922e-04 9.727364013910848317e-02 -6.562313692273965549e-01 -9.712112912650850971e-01 -3.787681562536404645e-02 2.351892313803675416e-01
-2.658756603122709380e-02 -8.889564017049240985e-02 -8.096949205969349306e-01 -8.574957071543067855e-01 -1.202523381901800109e-01 5.002404295653538613e-01
1.081098638152243850e-02 1.767794122500254972e-01 -6.160048622197840107e-01 -9.805671076959722177e-01 1.951392480968022758e-01 2.021932632335242397e-02
-6.268761349243237059e-03 -2.262790609232242112e-03 -7.141181996172524249e-01 -9.321853034370786162e-01 -1.885851692171466032e-01 3.089760411541028207e-01
3.035760780730485317e-02 -6.345353098416477633e-04 -6.456157873478025611e-01 -8.752702880545150110e-01 -2.548980620472696690e-01 4.110096115828831831e-01
-3.676916742284886547e-02 -9.849892655718199205e-03 -8.024197387153712002e-01 -9.012810730157667649e-01 -2.062682263857481546e-01 3.809801126138027683e-01
2.795423499847103643e-02 -9.441511968361077090e-02 -6.980297085581925742e-01 -8.516676793165343096e-01 -2.416598999573150997e-01 4.650404893772253079e-01
2.014657686845734361e-02 1.885258303549533221e-01 -6.094688075196771360e-01 -5.292377154621241697e-01 1.385919887845150356e-01 8.370780735255131111e-01
2.873726901918012555e-02 6.609801132115265820e-02 -6.204119458832139111e-01 -8.704514616988512365e-01 -1.555707304717922901e-01 4.670246253109212042e-01
3.131233694760555269e-02 -1.598109701951818951e-01 -7.181633142304092443e-01 -8.767036186302723522e-01 -7.866559508175069437e-02 4.745550434154292563e-01
-2.797696886008848010e-03 -1.491834724424090652e-01 -7.733138070464140590e-01 -8.048787547314057989e-01 -1.759216121533916932e-01 5.667643042388724739e-01
-1.567071295198458128e-02 4.416500251312645980e-02 -7.145774073002194582e-01 -9.166282683835444978e-01 -1.639436080220161296e-01 3.645752473617872025e-01
-2.334732404414108231e-02 -2.723235652938163498e-02 -7.791708545844038269e-01 -9.133744593716344173e-01 -1.922167257741743962e-01 3.588869282938993432e-01
-2.119164205111020299e-02 -1.015879204861823704e-01 -8.029121036379525123e-01 -8.778417269646022758e-01 -1.177010755397901315e-01 4.642632434477031445e-01
8.170168354566253316e-03 9.735024290546856474e-02 -6.406463590220927706e-01 -7.786251614100687668e-01 -2.273764613563065695e-01 5.848442551998167538e-01
2.131300244664963844e-02 6.739795188790435876e-02 -6.327772394930579747e-01 -8.448802122868189768e-01 -1.610715766557591355e-01 5.101307421434310152e-01
-2.121030184278928366e-02 3.565510937381206197e-02 -7.326013218774382052e-01 -9.103128224273296931e-01 -2.099352605775461622e-01 3.567320446646565224e-01
-2.953408694095258080e-02 2.902700259079674799e-02 -7.575421627123278823e-01 -9.012398654788353891e-01 -2.456709863796728288e-01 3.569488357214927743e-01
4.572167002233928218e-02 -1.246056136067495296e-01 -6.820315469420991095e-01 -8.436946849587175778e-01 -2.201166157957535341e-01 4.896202140670202763e-01
2.143336243912713490e-02 3.792177130198989832e-02 -6.428769904176231398e-01 -8.635002076149180805e-01 -1.997924388867140244e-01 4.630878672700156629e-01
4.577378651011006216e-02 -9.076035917526190100e-02 -6.617788555884652757e-01 -8.680270797929471316e-01 -2.546217745443859481e-01 4.262590065605605383e-01
5.304976937148386112e-03 -7.435557094336400774e-02 -7.296691610931891336e-01 -8.517719867592827843e-01 -2.355002342615695188e-01 4.680001305928129796e-01
2.712842545156724308e-02 -4.286160721536497881e-02 -6.742152356023295434e-01 -8.649916426248877022e-01 -2.091263712879499470e-01 4.561311423494703865e-01
1.589480338277063365e-02 1.672062942510198907e-02 -6.632665788869062107e-01 -8.329766051420272044e-01 -2.692266763535915985e-01 4.833911170322243156e-01
3.234556232234095385e-02 -9.587177495381560277e-02 -6.906685587083599698e-01 -8.494583782340772160e-01 -2.545272212585344973e-01 4.622081319993625037e-01
-3.399237312898967939e-02 9.543581931839620336e-02 -7.360562240477208640e-01 -8.826026232942161265e-01 -1.264580850601903506e-01 4.527924050567515013e-01
5.060792913519212254e-03 -9.384185366064760891e-02 -7.395493087120699194e-01 -8.518088541735028274e-01 -2.148535837733236420e-01 4.777652284243629754e-01
2.051842559879322667e-02 1.284251691052047117e-01 -6.127842238528063978e-01 -7.980435841512102391e-01 -1.796135255335274405e-01 5.752090222175821888e-01
1.996362207272975309e-02 -1.353998359155964837e-01 -7.311291903481910159e-01 -8.512777587314892536e-01 -1.929418753133629871e-01 4.879545165685579833e-01
1.039294080821632354e-02 -1.110492702794430436e-01 -7.377139114720869806e-01 -8.527268787874945355e-01 -2.050762480081148031e-01 4.804171132424943091e-01
3.428740761794272368e-02 9.947109326183924474e-03 -6.308332277765567042e-01 -8.831352484149890270e-01 -2.264765337544848434e-01 4.108290552840066501e-01
3.113083319230628039e-03 -1.233864855741351012e-02 -7.002021671026410488e-01 -8.166180674754955904e-01 -2.784340184185281064e-01 5.055783116984921000e-01
-8.497440057085647175e-03 -2.335989777138107459e-01 -7.971119460814456437e-01 -7.566074127645999736e-01 2.731394702905381999e-01 5.940875800074113533e-01
7.080265386932363403e-03 -1.391120512177844715e-01 -7.547131891296532391e-01 -8.413448294825859319e-01 -1.808813560180236035e-01 5.093336950840767763e-01
2.313307162972317796e-02 6.243478965006644260e-02 -6.313299319502448936e-01 -8.448802122868189768e-01 -1.610715766557591355e-01 5.101307421434310152e-01
-8.558958977380862199e-03 -8.345723867037715960e-02 -7.668589452719171140e-01 -9.338597714124010629e-01 -1.284280372100717882e-01 3.337846110831751978e-01
4.519244000801656870e-03 1.555880141857740318e-01 -6.305385508002471218e-01 -9.375039027960470062e-01 -5.820014156205294276e-02 3.430731347166912082e-01
-2.078077566641804361e-02 5.896552935562066750e-02 -7.205878499245498281e-01 -9.007740672032437113e-01 -1.580663214250099535e-01 4.045010727863297406e-01
1.477344939395803039e-02 -6.265958839457166918e-02 -7.064561408943234033e-01 -8.531728057052587744e-01 -2.347480264681057194e-01 4.658213473793856862e-01
-2.754213385314770515e-02 2.897119472915690198e-03 -7.712722118232754331e-01 -9.087550548531394545e-01 -2.353455648678000334e-01 3.446399793638615927e-01
-1.098422433135308116e-02 1.029715882086806589e-01 -6.857813997491006841e-01 -9.240692873942347729e-01 -1.052325595478588866e-01 3.674534807369738143e-01
-2.335044940973585517e-02 -4.969998708781104765e-03 -7.652540839995936039e-01 -9.138018293123844060e-01 -2.280905909937449016e-01 3.360668074140379935e-01
-2.382865383912483731e-02 -1.733751314137309263e-01 -8.241364240042206024e-01 -8.823266472572492969e-01 -1.008265182335348342e-01 4.597104531775236813e-01
-1.241567278354593733e-02 1.336214700991794069e-01 -6.810279804683204707e-01 -9.233038987442322432e-01 -7.842188174792630306e-02 3.759786151190181447e-01
-1.828156855999542654e-02 6.703381325993301720e-02 -7.118641180941133184e-01 -9.152388621021287918e-01 -1.083103371061303888e-01 3.880807856284005930e-01
-2.203860113294920861e-02 -5.429853059277714444e-02 -7.895011727802253576e-01 -9.021686790096566932e-01 -1.690243841829081328e-01 3.968909575255649136e-01
-6.101520231008287186e-03 3.933627135885961468e-02 -6.914313313918341031e-01 -9.302637153699833128e-01 -1.539992108665035331e-01 3.330070013055710376e-01
3.606040950078931440e-02 2.206003559084424859e-01 -6.055960344212304447e-01 -7.431975094299657636e-01 2.836811108859822461e-01 6.059558476519479875e-01
1.930817270072790991e-03 -1.176779740632300508e-01 -7.551474117012825227e-01 -8.396350587218540662e-01 -1.879240630326538264e-01 5.096052537979248731e-01
-2.470704546885829980e-02 2.190817156856691289e-02 -7.500465739925465947e-01 -9.071104069469034803e-01 -2.314226642955979352e-01 3.515597531842203360e-01
-9.387672904017355449e-03 -6.042338140951732106e-02 -7.587529904125688285e-01 -9.365751943286518832e-01 -1.652487030207031027e-01 3.090627307169586668e-01
-1.165131622171356775e-02 1.272454563437870612e-01 -6.805426881035356867e-01 -9.269193673990009374e-01 -9.204257435722060232e-02 3.637975410119360653e-01
-3.938218345488003758e-02 6.063212630576740592e-02 -7.608709750533858562e-01 -8.869294287987609104e-01 -2.294402222662692004e-01 4.008907241844199554e-01
