6.998413381197879368e-02 -6.040067605700050191e-02 -7.045708705987582254e-01 2.352480895311199749e-01 -4.467955240003759765e-01 8.631524176558781347e-01
-5.878088568635645578e-02 -1.760074413695329187e-01 -7.269662817394728638e-01 2.366966090841319814e-01 -3.250432778763054920e-01 9.155990294640445892e-01
-6.722934523357650127e-02 4.227568897840271872e-02 -6.270769454412588040e-01 1.543469226797001270e-01 -3.992282393820152375e-01 9.037664744497014846e-01
-8.568291485808036956e-02 1.190499642121559641e-02 -6.386801566990240042e-01 1.533260778645685052e-01 -4.876230856607216557e-01 8.594852181261669610e-01
-3.500301818073762311e-02 -2.028009722906754519e-01 -7.415605357377402784e-01 1.519371092720366578e-01 -3.119271605496022892e-01 9.378787562033378267e-01
6.100792430998908111e-02 3.706905290539864312e-02 -6.536093113768974838e-01 1.811876836906862465e-01 -4.672283400128569020e-01 8.653720018394597258e-01
3.295884450907029389e-02 8.260305148929343588e-02 -6.261763242333716617e-01 2.742819847313328063e-01 -3.621778288022721171e-01 8.908403971396408050e-01
6.197740815404890330e-02 -1.380753335215896549e-01 -7.360841879075022964e-01 1.604241351495787893e-01 -2.730522982124993225e-01 9.485286180724237237e-01
6.680549090583008665e-02 7.216893631601190018e-02 -6.383156014399621325e-01 1.710232759350734932e-01 -3.597165617737460019e-01 9.172540729122495851e-01
-4.003851934309854421e-02 -1.193487559745049775e-01 -7.109836314815790592e-01 1.167883272425331437e-01 -3.504414104310106248e-01 9.292746119823864781e-01
-4.299997713025037471e-02 3.314862490107117125e-04 -6.513649610910031695e-01 1.005899743186585288e-01 -4.738451861356126060e-01 8.748442127845837968e-01
-1.043068132418716390e-02 -1.447085997695186921e-01 -7.230503960365793903e-01 3.071669397201308091e-02 -3.465170795232468404e-01 9.375406115524326234e-01
6.012786991886259758e-03 -1.409855545324011639e-01 -7.241546931282301092e-01 2.838702942523747552e-01 -3.389891959715896630e-01 8.969414591017662586e-01
-6.762962579634934634e-02 6.304476857568618031e-02 -6.186823011938842320e-01 1.616630486981440185e-01 -3.539202570889292687e-01 9.211978670772787980e-01
-3.042809813877818056e-02 -1.291906193315562057e-01 -7.158754413750160195e-01 8.521585734705408588e-02 -3.494375180260306801e-01 9.330764591674222119e-01
-2.842022524240481879e-02 -1.866764371368662134e-01 -7.369142319775373595e-01 1.414406600862307961e-01 -3.228567949692736638e-01 9.358194428502432105e-01
9.624887235930312812e-02 -3.223409931672631401e-02 -6.956685513306305468e-01 1.775966887049422738e-01 -4.569009590391598374e-01 8.716082433009314512e-01
-6.810504034639107418e-02 -6.774517939346262618e-02 -6.851644921121617937e-01 1.320247491659962691e-01 -4.231967949451245770e-01 8.963670779071650774e-01
-6.100076736555708895e-02 -1.544714795028976143e-02 -6.581743737511170922e-01 1.008014477785861840e-01 -4.903800040902343005e-01 8.656595865085783270e-01
6.719419531038603455e-02 -9.754434983366253031e-02 -7.220737661422194087e-01 2.422775652049134476e-01 -3.909647027823163756e-01 8.879460471091212836e-01
4.614163904663005217e-03 1.962916168560582819e-01 -5.797082209581048140e-01 -3.382657989961237455e-01 -2.257040288242650322e-02 9.407799031352863661e-01
-5.570108143397786010e-02 1.609939640545421033e-02 -6.413487360560935491e-01 1.251178575875066257e-01 -4.457817576497015155e-01 8.863544134596811341e-01
-9.014880621293701671e-03 1.953092206241124895e-01 -5.812877570504144664e-01 -5.727757514437242098e-02 -3.423401162671037973e-02 9.977711720798126960e-01
6.453840282527099903e-02 -3.165678108211370662e-02 -6.887675552747223318e-01 1.904275124000264774e-01 -4.248745993986154379e-01 8.849965747430912355e-01
1.129895445881583249e-02 -7.878185276017903027e-02 -6.985973272400302081e-01 2.289684812460253405e-01 -4.214095214321713634e-01 8.774892875939834802e-01
-2.955367563453261542e-02 -5.700083855547338763e-02 -6.837281950867997171e-01 5.687422099997222619e-02 -4.612155992231161128e-01 8.854634346029814918e-01
-2.227562640141084443e-03 -9.633296492594445315e-02 -7.033041604708819561e-01 -8.326834247506470499e-02 -4.086760719952123866e-01 9.088730666710391759e-01
-6.549801643267688656e-02 4.423280541024455365e-02 -6.265080917723978571e-01 1.543469226797001270e-01 -3.992282393820152375e-01 9.037664744497014846e-01
7.041159976173920476e-02 -1.218367393789245579e-01 -7.325283029824628533e-01 1.981556373973111795e-01 -3.414867483065895382e-01 9.187606565905275247e-01
-7.365406245735549307e-02 -1.043405498847874702e-01 -6.990396884176729442e-01 2.151193036594939156e-01 -3.244278995342499972e-01 9.211244341547177861e-01
-7.313371174109159489e-02 5.041711560539117662e-03 -6.445865519739113481e-01 1.426726099749661136e-01 -4.747295110917381655e-01 8.684908851919693751e-01
2.236087831025625541e-02 -1.324418376886396520e-01 -7.255150474079939960e-01 2.383328399239111883e-01 -3.696308653373207576e-01 8.980926905413422201e-01
7.782589724797697728e-02 7.848203238174181195e-02 -6.378569994350360428e-01 1.633679753549208968e-01 -3.585174209336218221e-01 9.191170564816749655e-01
2.987476470020821590e-02 -1.105786899628846826e-01 -7.181228964155927930e-01 2.286413313804652181e-01 -4.033958535452682459e-01 8.859993944281524536e-01
3.882196763322542932e-02 -1.953385453262126425e-01 -7.483290630075869476e-01 -3.155697087111591220e-02 -2.422905665436399236e-01 9.696903830364624888e-01
1.705417723467257327e-02 -1.000095244037705472e-01 -7.100377363226230143e-01 2.271840542665992668e-01 -4.001849127427920538e-01 8.878284975714818561e-01
-4.062268589925979029e-02 1.043360928017161848e-01 -6.067220030808954112e-01 8.633535335741442107e-02 -3.491559926044453532e-01 9.330789353474093772e-01
-4.474725302779253289e-02 1.260725113338209170e-02 -6.446600709412045882e-01 1.048677357419270512e-01 -4.623355794022924181e-01 8.804820100485346579e-01
7.043175247976615760e-02 6.505070891152647805e-02 -6.419324595903347364e-01 1.706870010403362392e-01 -3.788161413494389729e-01 9.095956677166939786e-01
6.799552168486081016e-02 9.812675186666240668e-02 -6.285977509025132415e-01 2.008192070728976875e-01 -3.307478483555317816e-01 9.221049326832596593e-01
9.245157312233491520e-02 -5.858658762796076398e-03 -6.820010975160717415e-01 1.620494196653308461e-01 -4.253651625570093464e-01 8.903956783750572868e-01
-6.084067236855398436e-03 -2.216263443709116099e-01 -7.493394600328053823e-01 -9.181366506751013901e-02 -1.987765308546651788e-01 9.757346676675250352e-01
1.067446626665415933e-02 1.600914875873313825e-01 -5.877407127947418264e-01 3.913965104807468620e-01 -2.919663690870860639e-01 8.726765786393021473e-01
6.475813815841703625e-02 4.201877814774809122e-02 -6.517312817879852282e-01 1.807641659490122343e-01 -4.465912422145350558e-01 8.762879542057144810e-01
5.010197159465768629e-02 1.192613522594960507e-01 -6.163392364046323957e-01 2.598932475944100706e-01 -3.336924623936247669e-01 9.061483545184585431e-01
9.754306860543165980e-02 -3.291032771747724045e-03 -6.817011131773215160e-01 1.620494196653308461e-01 -4.253651625570093464e-01 8.903956783750572868e-01
-1.746786629158224649e-02 -2.482944514993970161e-02 -6.672616425362852821e-01 6.088765408576886362e-02 -4.728769274697539049e-01 8.790222437724183324e-01
9.490016270614068383e-02 -9.322818205876444442e-03 -6.841041433358017176e-01 1.619736747681962963e-01 -4.279215273901275651e-01 8.891837240290595412e-01
-5.370625750286780326e-02 -4.632791049182619081e-02 -6.762133263673326677e-01 9.737595866622965335e-02 -4.719214618657465721e-01 8.762465728916316587e-01
5.405678423243037711e-02 8.662005089415641956e-02 -6.300643623728887643e-01 2.073291998420557780e-01 -3.493555175632399035e-01 9.137643707438879437e-01
6.571380191542995630e-02 -8.484515355720698149e-02 -7.157402054639309119e-01 2.458047490779745048e-01 -4.139392952697525940e-01 8.764897518866346937e-01
9.026207011516866607e-02 -2.184218167765400107e-02 -6.892809004632427516e-01 1.668188953942577324e-01 -4.445721133634603084e-01 8.800722084914319732e-01
3.206142769135586490e-02 -8.036905936985886886e-03 -6.694483319356624440e-01 2.542596922752741739e-01 -4.223215746420050376e-01 8.700554559773647778e-01
-8.942980771391888239e-02 -8.359657610526750882e-02 -6.878401054728564556e-01 2.055090429864277757e-01 -3.529311885385896796e-01 9.128009692192166069e-01
2.631979351018975174e-03 1.233121672822138637e-01 -6.001488967566434019e-01 -5.073546630521201528e-02 -3.568769544698808249e-01 9.327726152857915842e-01
-4.636521466458168317e-02 -4.317954180268132602e-03 -6.535641080496786826e-01 9.315489231258348990e-02 -4.803461025471997825e-01 8.721179896126133313e-01
3.277375098059084890e-02 -4.009921299521628651e-02 -6.852384410705806284e-01 2.262438124108798465e-01 -4.256534667615006762e-01 8.761465993654866669e-01
4.087985270817960648e-03 2.037493032489868378e-02 -6.448268510004514509e-01 3.475604386706192539e-01 -4.266746060374361216e-01 8.349554012244517764e-01
7.015045375541693884e-02 2.607683849018880076e-02 -6.615053149732840199e-01 1.822292127812322748e-01 -4.727491676579305135e-01 8.621489073749767362e-01
4.721354225268738908e-02 -5.265253857814660571e-02 -6.949900317744414080e-01 2.202631556914549649e-01 -4.288272142612774562e-01 8.761229152086790206e-01
4.736843539099524353e-02 9.522311420985465902e-02 -6.251047112166417952e-01 2.258934705539063226e-01 -3.674035392069874284e-01 9.022121587183864477e-01
4.607840500980919102e-02 6.039350394509838266e-02 -6.388417616013333244e-01 2.064711442195508728e-01 -3.745756992731703594e-01 9.039152129036687189e-01
-9.146373097057527990e-02 -4.981201214523883064e-02 -6.731502298436771170e-01 1.330502011631952142e-01 -4.375109702233601627e-01 8.893153517760993276e-01
-2.707848809526261502e-02 -7.828777705795493536e-03 -6.573852145162057958e-01 7.989409720387280478e-02 -4.758138527832960207e-01 8.759098759184611449e-01
4.089065342028841248e-03 -1.148482995834781972e-01 -7.130016601857041003e-01 2.749041461383461282e-01 -3.699085812710068977e-01 8.874656905695104125e-01
-8.296889649619797191e-02 -8.816319997801992658e-02 -6.910167667248703349e-01 1.944772225137412214e-01 -3.737583504539854773e-01 9.069086532773059650e-01
5.638164747479724320e-02 -1.602912176044233028e-01 -7.410608013163144658e-01 6.353281580444014587e-02 -1.949583522191813689e-01 9.787516652429975039e-01
2.676201962000402876e-02 -1.181820675489513306e-01 -7.206509615251642797e-01 2.316662139736831161e-01 -3.884312086560070543e-01 8.918811363882147569e-01
2.604994673502216904e-03 -2.326731902203810765e-01 -7.500584150249435256e-01 3.912213806708187552e-02 -6.950710039782852234e-02 9.968140354686757520e-01
9.708929218190413823e-02 -3.533079342446818899e-02 -6.975607043958368392e-01 1.957929423694363125e-01 -4.727841144944979201e-01 8.591509208514950258e-01
2.761679073471835777e-02 -1.059144821811089099e-01 -7.154083324420442702e-01 2.312734780178403171e-01 -4.034511484478189303e-01 8.852907709796072888e-01
-3.439452546243530751e-02 -1.151548400313804899e-01 -7.100859715024282481e-01 7.927432168214283703e-02 -3.611987311615341700e-01 9.291130493805014323e-01
7.012568414386448172e-03 -1.623331681633118639e-01 -7.323017063301240359e-01 3.222365171832594632e-01 -3.152376183923757957e-01 8.926303103434847230e-01
3.161974624728318417e-02 -7.762723286971411063e-02 -7.031898458585470468e-01 2.207004872011515961e-01 -4.217565128143884179e-01 8.794388772665334697e-01
-4.560313632642306464e-02 1.067760522976541476e-01 -6.053342517909081621e-01 9.389730143695769471e-02 -3.498394511276835539e-01 9.320920851597969126e-01
6.957761796521441666e-02 -3.794019854121173131e-03 -6.766844957016119322e-01 1.830503632206335329e-01 -4.201367391957361863e-01 8.888068884199582520e-01
1.487254765496983343e-02 1.975225279523202537e-01 -5.847267202890336080e-01 2.898344073908077911e-01 7.714356404834296632e-02 9.539627282123438468e-01
-7.390884428008287488e-02 -1.425516900526880848e-01 -7.114626320082644284e-01 2.579562239107091037e-01 -2.911469890167471819e-01 9.212448194330377094e-01
-5.607364198172441749e-02 4.457356801367690080e-02 -6.278639116395088315e-01 1.418102853969634147e-01 -3.969453037813288065e-01 9.068209684174601826e-01
5.761882112146207713e-02 -9.466550505717037656e-02 -7.181501242342558378e-01 2.388236761581184753e-01 -4.154004666040631011e-01 8.777275796347343562e-01
4.771370562742120042e-02 5.784700274897569550e-02 -6.403626548042803401e-01 2.058275972819096078e-01 -4.048539915541763401e-01 8.909142751801695237e-01
4.594734148983348285e-04 1.537088835443373436e-01 -5.892089026636886384e-01 2.183654866993824106e-02 -3.462451340748869955e-01 9.378899041314224805e-01
-8.348189148260348746e-02 -7.319951329867950551e-02 -6.848862869121604691e-01 1.702700417738536309e-01 -4.028386796501981504e-01 8.992936734193204273e-01
5.658046749575589007e-02 7.196437005407800569e-02 -6.363743970273896267e-01 1.876335466243560790e-01 -3.653276565271436072e-01 9.117726446639814464e-01
-5.383761467246908627e-02 -2.621915751796619065e-02 -6.651524484592262754e-01 9.328597379069684947e-02 -4.981150752313364127e-01 8.620783600817280012e-01
1.437540088817229351e-03 1.747062463386605813e-01 -5.833944181953421015e-01 -1.554145049875841483e-02 -1.302850251330079923e-01 9.913547677509227940e-01
4.873088053043950901e-02 -8.862376758110887542e-02 -7.128926726670693492e-01 2.354890045905248808e-01 -4.151945518543559421e-01 8.787254479229699156e-01
9.524866431678753395e-03 -1.781980773387463121e-02 -6.670800999038637435e-01 3.114407811619628319e-01 -4.394431508292929722e-01 8.425522874091849745e-01
4.036499727930899228e-02 4.401722628993962050e-02 -6.450317981025086578e-01 2.320557154222180618e-01 -4.341780907307662973e-01 8.704249137457343855e-01
-2.190527263316148672e-03 2.492826666186894191e-01 -5.876507175549624540e-01 -3.138593961551660455e-02 2.882198169654240916e-01 9.570497687700825207e-01
2.935407502064919100e-02 -4.367814761573441534e-02 -6.860941259556126992e-01 2.262438124108798465e-01 -4.256534667615006762e-01 8.761465993654866669e-01
-1.424968846319746253e-03 9.620814168714257597e-02 -6.110700211416190131e-01 -4.828294403853069378e-02 -3.749875280593027993e-01 9.257716301091460931e-01
3.028724511491532462e-02 -2.137891762635787951e-01 -7.539649148896725439e-01 3.184906969728670129e-02 -2.777378156059405745e-01 9.601288155981247963e-01
-3.269123815963578122e-02 -1.996060465372113402e-01 -7.408964746384809619e-01 1.803989210533077925e-01 -3.141942709882578622e-01 9.320612583735897738e-01
-4.934756577773349862e-02 -1.245170152410464554e-01 -7.114490559627029143e-01 1.762518293772470102e-01 -3.314267338686689990e-01 9.268719505510566448e-01
-6.732409032265201931e-02 8.988915172724664532e-03 -6.433358275847840257e-01 1.332718274833800121e-01 -4.739903646305475560e-01 8.703859800322159002e-01
1.472721421089853190e-02 -8.672847599692377896e-02 -7.032951799000202175e-01 2.214971050786932183e-01 -4.122414681127044567e-01 8.837397831998061726e-01
8.037429103984927714e-02 -1.835658482348023063e-02 -6.856787694789544529e-01 1.733435123941708955e-01 -4.178129359926079922e-01 8.918432470048134331e-01
3.343231497609427949e-02 1.323976778532877929e-01 -6.060406025403821673e-01 2.988428681591536185e-01 -3.412450763197219517e-01 8.912040944912437146e-01
-1.866343476538926890e-02 -1.257531252238154292e-03 -6.545636502898449782e-01 6.809353236116331975e-02 -4.635235430086671049e-01 8.834643150276482171e-01
5.078062944247369731e-02 -3.641282427791359133e-02 -6.879635874949222574e-01 2.098390824747216887e-01 -4.253348378648082462e-01 8.803736906363593961e-01
-4.430242173592589122e-02 6.922629039907668425e-02 -6.199155280122580214e-01 9.709112792541194081e-02 -3.399778611636140035e-01 9.354081284641404537e-01
-4.201415167333535927e-03 1.079121243502945415e-01 -6.064552223253917296e-01 -3.015330140312967241e-02 -3.719937015072132813e-01 9.277453661719117228e-01
-5.944625398116450132e-02 -1.185277830847555475e-01 -7.072661031403737475e-01 2.058576076607931682e-01 -3.231852460494048507e-01 9.236741536408608066e-01
-3.366198092890736876e-02 -7.838196026505313274e-02 -6.941351253440295466e-01 5.979843265183890089e-02 -4.251628361097896658e-01 9.031393636883865428e-01
6.355049970264006753e-02 -3.593607353716538749e-02 -6.906832388601210626e-01 2.033807548993726011e-01 -4.313800423093649417e-01 8.789468286726631607e-01
-3.794150532213029763e-03 -2.165941169574691905e-01 -7.477774047614601516e-01 -1.453737569620520698e-01 -2.825725880618514818e-01 9.481662318722204885e-01
-5.987981472901239555e-02 -4.463508188849155817e-02 -6.746219723719646399e-01 9.212129331592409931e-02 -4.676527276426049595e-01 8.790987394179525793e-01
-3.759464254772141439e-02 -1.691394194856321309e-01 -7.293102368108261846e-01 1.607057660709914071e-01 -3.206675204561230674e-01 9.334591571547508071e-01
6.104361932076234065e-02 -7.688716268427769895e-02 -7.105147119508353759e-01 2.331618535113866020e-01 -4.286330726614800968e-01 8.728741255690380951e-01
4.794351815069848935e-03 -9.172130525354763031e-02 -7.029399633032670236e-01 2.529316818924952637e-01 -4.026804633630747254e-01 8.797010905533384495e-01
-8.232708688093444416e-02 2.204645221826610074e-02 -6.339429247560671721e-01 1.546555416639224245e-01 -4.536788238059563660e-01 8.776429731175899862e-01
-2.681726528231767603e-02 -4.624675709549288388e-02 -6.782542982627398631e-01 4.665707002154072941e-02 -4.710622148860328373e-01 8.808652039464777150e-01
4.120778734444700830e-02 -1.685057251592803063e-01 -7.418226596043075993e-01 6.683007506469845760e-02 -2.485455845379125339e-01 9.663119752303364063e-01
2.890676315141137501e-02 -1.476786323206953910e-01 -7.331363447655784293e-01 2.154153524993958901e-01 -3.402479190311161750e-01 9.153292191897710595e-01
-1.491307615046043138e-02 -1.558568725453511050e-01 -7.269673068837745333e-01 5.241852834207774703e-02 -3.398139101596547862e-01 9.390307792338103976e-01
4.984835819821140795e-02 7.430321355004565476e-02 -6.339904129558672219e-01 2.224206074197581373e-01 -3.553690092083064966e-01 9.078777124091835793e-01
6.641631330064132199e-02 2.702546052032941959e-02 -6.601958778899655877e-01 1.822292127812322748e-01 -4.727491676579305135e-01 8.621489073749767362e-01
5.001219739907722395e-02 -9.847153814658249349e-02 -7.178616377187699849e-01 2.348232863841545892e-01 -3.988623354514628239e-01 8.864349166915470590e-01
5.570577854256708594e-02 -8.488453544655791272e-02 -7.130016219106113384e-01 2.416541560472976746e-01 -4.135731804774006592e-01 8.778157513139507317e-01
5.138531981556206107e-02 1.080952050001236925e-01 -6.209417036373503507e-01 2.356413753056892380e-01 -3.384083241397340958e-01 9.110175346265185770e-01
2.263369596011064258e-02 -2.053189566259101123e-02 -6.727754971112021032e-01 2.593568692221712713e-01 -4.264128067247951459e-01 8.665484017920499493e-01
-7.926231847752085447e-02 -1.223194323714815734e-01 -7.035882781980382639e-01 2.544140677985683441e-01 -2.921096563666538692e-01 9.219248509306716688e-01
3.378179642205444283e-02 -1.206780677519033868e-01 -7.235293158889150034e-01 2.269232322141307434e-01 -3.882597230603758720e-01 8.931742462311438313e-01
-6.700729208179419250e-02 1.700807283662461589e-02 -6.391355725117012776e-01 1.400285145490672012e-01 -4.492975052583991213e-01 8.823399383920917938e-01
5.874237252179494856e-02 7.801835830600817312e-02 -6.344412447118769061e-01 1.949269062094937666e-01 -3.569230669780754650e-01 9.135696062668456907e-01
1.038583013444393036e-02 -1.729259857980831316e-01 -7.371513027709163390e-01 2.890892819613464226e-01 -3.117893262552497435e-01 9.051048575100957283e-01
-6.168108734058402876e-02 -1.413601383290510327e-01 -7.144061733880265885e-01 2.451568183929757339e-01 -2.993000266019675837e-01 9.221266878642516707e-01
-9.821145977599732291e-02 -3.462340660770563128e-02 -6.643500519004682525e-01 1.178218288694986571e-01 -4.868148960100848743e-01 8.655225437067118888e-01
3.981185221556832188e-02 4.764420961673209061e-03 -6.653796320901226302e-01 2.423796619954605436e-01 -4.346163258663346407e-01 8.673873118402264382e-01
-2.566640848147809170e-03 5.049698132473037782e-02 -6.303389671920798243e-01 7.130068858331382571e-04 -4.055818180421953967e-01 9.140584666720003026e-01
-7.316500481741164408e-02 -4.433266248702692064e-02 -6.728549610705542028e-01 1.059690016324571216e-01 -4.595571396760483873e-01 8.818037230958990502e-01
4.570104417892933285e-02 -1.020457367443315250e-01 -7.183278355467471732e-01 2.348232863841545892e-01 -3.988623354514628239e-01 8.864349166915470590e-01
-8.122201462203045008e-02 2.600014149446051512e-02 -6.321582596774911744e-01 1.600493730699572847e-01 -4.273894059934495449e-01 8.897878926038945702e-01
3.100803472660672300e-02 -1.199991424731857437e-01 -7.225294770402418409e-01 2.269232322141307434e-01 -3.882597230603758720e-01 8.931742462311438313e-01
-3.032739552216385040e-03 1.955932442920246817e-01 -5.808535389738307408e-01 -8.650847917964195333e-02 -3.842003039383010826e-02 9.955100121518430933e-01
-4.081715749511440755e-02 -1.089805934593142123e-01 -7.068784938197966161e-01 1.165215029319205398e-01 -3.652635369146005062e-01 9.235828538659229814e-01
-3.775983443271462708e-02 -5.537862120319893278e-02 -6.823581605163026031e-01 5.645892328252548331e-02 -4.615255514946677851e-01 8.853285013481272392e-01
2.628850824944406819e-02 -1.485659953969867553e-01 -7.328500118735296054e-01 2.154153524993958901e-01 -3.402479190311161750e-01 9.153292191897710595e-01
7.351088365554792059e-02 8.324121214586820139e-02 -6.352446368174229363e-01 1.683455175961945660e-01 -3.461335089430856993e-01 9.229579517464574501e-01
-4.979145748648629993e-02 -5.351551223509627003e-02 -6.803873221388234693e-01 7.907405048927930447e-02 -4.572038483719712554e-01 8.858396782562172334e-01
1.308400732802266798e-02 -1.627489956084062495e-01 -7.344553560721328589e-01 2.889566547287361620e-01 -3.236048008423289546e-01 9.009905574198736611e-01
-1.127012077300564713e-02 1.036121308032844218e-01 -6.083485275120221747e-01 -9.133532809354050555e-03 -3.734734048606435652e-01 9.275959219618304941e-01
-4.318418031016510450e-02 1.138047891309597742e-01 -6.029227240270246257e-01 6.179899223777751693e-02 -3.491113226032501737e-01 9.350412659281966965e-01
-8.196160181533483635e-02 1.513572729597143472e-03 -6.451438794306384450e-01 1.416207065144638177e-01 -4.994825993181515322e-01 8.546699412432421372e-01
5.781378590369562476e-02 -1.772330822688097593e-02 -6.807273453358558823e-01 2.015915576863211989e-01 -4.139259894050602573e-01 8.877083525373886674e-01
4.486080722468853421e-02 1.233793063817587542e-02 -6.629295933223241510e-01 2.418303829770417079e-01 -4.508896313382660948e-01 8.591953248364541107e-01
1.339014256672387253e-03 -7.136546361086687496e-02 -6.920493326089752761e-01 3.270226182415024163e-01 -4.261358041132550789e-01 8.434835408063525719e-01
-3.347083671432488083e-02 -2.066359350528448324e-01 -7.430726667696172516e-01 1.766768528056268661e-01 -2.954796293026702436e-01 9.388701072831404648e-01
-1.330037160361014457e-02 7.487188913189926631e-02 -6.198971594863865731e-01 5.191472306190185980e-03 -3.613707085401089425e-01 9.324077753990007711e-01
1.448731748032240467e-02 9.087048174847466020e-02 -6.159676788761861976e-01 3.641179308143808191e-01 -3.737719475298460492e-01 8.530607620206195341e-01
-2.566776110493505791e-02 2.925564660248635915e-02 -6.385375398737382913e-01 8.580123426665148267e-02 -4.263724273134295584e-01 9.004691562875285493e-01
-8.422501760409399629e-02 -1.200267722100300249e-01 -7.015605950202411512e-01 2.435406131295200505e-01 -2.888449549609761191e-01 9.258815052424846925e-01
6.046213415067084457e-02 -1.586757867694202906e-01 -7.410038952314276228e-01 6.353281580444014587e-02 -1.949583522191813689e-01 9.787516652429975039e-01
7.174541076698984221e-02 4.134692258226731892e-02 -6.534753689770776974e-01 1.656243657756142351e-01 -4.715854946957752647e-01 8.661268328910994851e-01
-1.108793459674953588e-02 -2.296277437347284903e-03 -6.556471397130502199e-01 5.498476753021739466e-02 -4.605263252488106529e-01 8.859414083857208855e-01
9.129116656009148012e-02 -3.405871129203772579e-02 -6.956148515492449613e-01 1.775966887049422738e-01 -4.569009590391598374e-01 8.716082433009314512e-01
6.677825001171616703e-02 8.800394692360627436e-02 -6.321655826664006605e-01 1.795886858656618457e-01 -3.503966734984859666e-01 9.192225384041885494e-01
1.128258891525112106e-02 3.955065264948622733e-03 -6.563773074159570120e-01 3.240268033441322526e-01 -4.373333101842835635e-01 8.388958257840125610e-01
-2.985927274249030802e-02 -9.422638589455337166e-02 -7.016960067946917956e-01 6.487327564523220902e-02 -4.036960384686081871e-01 9.125902512254938648e-01
-9.148024683734354290e-02 1.530328384974697373e-03 -6.435471592856727430e-01 1.457353077794789620e-01 -5.095226516697031194e-01 8.480258766699839690e-01
4.870033778056116064e-02 -2.377122494889032447e-02 -6.814638376623349814e-01 2.250141299355748192e-01 -4.159176632948898278e-01 8.811249279691585334e-01
9.562707439638136811e-03 -1.078688186673246521e-02 -6.634265271359376381e-01 3.114437381456665044e-01 -4.393551982808993062e-01 8.425970613011922739e-01
-7.429469231813709551e-02 -8.174103829556310374e-02 -6.902301368717539409e-01 1.944772225137412214e-01 -3.737583504539854773e-01 9.069086532773059650e-01
-6.855956432517740229e-02 -5.250547780640457685e-02 -6.776454973170192853e-01 1.158694485493224346e-01 -4.337343963329799990e-01 8.935595919302424806e-01
2.210288790843251833e-02 1.194234665910794274e-01 -6.070513232799100711e-01 3.325813178049990548e-01 -3.497052766637114285e-01 8.758401032840681388e-01
9.829352524205127624e-04 1.283770292654643486e-01 -5.983639956225764722e-01 -2.370195297416281821e-02 -3.449605002915537288e-01 9.383178942468334283e-01
5.391310490054819493e-02 1.597803679702883284e-02 -6.633437135142707941e-01 2.070344932461083420e-01 -4.570481770813403233e-01 8.650107990267814628e-01
7.539824461501065667e-02 -4.977281505112481769e-02 -7.003412672493398716e-01 1.986764257109364384e-01 -4.489213567847764041e-01 8.712045071561798082e-01
2.009232787858543715e-02 -3.398256369003722910e-02 -6.787364403526835455e-01 2.458326651224849446e-01 -4.270340939567888738e-01 8.701770988467120160e-01
-2.027734661377061584e-02 -1.851702073240241442e-01 -7.371783633860230500e-01 5.439973663115652003e-02 -3.394784767010712856e-01 9.390394201050247247e-01
-9.311744222849614467e-04 1.428993834130214968e-01 -5.931237562830913301e-01 -2.330994320645313981e-03 -3.432042823731213943e-01 9.392578916496937547e-01
-4.060453222273432625e-03 -1.257873918779020828e-01 -7.158414882509145372e-01 -3.744031958836387813e-02 -3.759530033770276947e-01 9.258820452524790801e-01
3.732386918538735388e-02 -1.002637862287411169e-01 -7.153488355703537804e-01 2.286413313804652181e-01 -4.033958535452682459e-01 8.859993944281524536e-01
2.191415101083011782e-02 1.138002931971494490e-03 -6.615833901068657319e-01 2.835603812530609891e-01 -4.384154117164212883e-01 8.528689447700270598e-01
3.389572832079444653e-02 -1.059866432711146778e-01 -7.170697872092312020e-01 2.286413313804652181e-01 -4.033958535452682459e-01 8.859993944281524536e-01
2.577318136726029774e-02 -1.588178428386138319e-01 -7.364357103405094751e-01 2.155578498006472388e-01 -3.276251675127727081e-01 9.198894297694419908e-01
-1.923044970712802643e-02 4.118198466736409935e-02 -6.335813903680658221e-01 6.104850465945187155e-02 -4.071188768764581467e-01 9.113327055305850966e-01
-2.779469377686265980e-02 -1.602689298123887718e-01 -7.275618039889526489e-01 1.216527135594172443e-01 -3.306527690831188027e-01 9.358789257063629963e-01
-5.058468073475152343e-02 -2.535893461308654645e-02 -6.650139021056257205e-01 8.456207275164359660e-02 -4.915543063345472752e-01 8.667315730812555907e-01
-6.087146129971368613e-02 -2.649170429034184912e-02 -6.645487915294298054e-01 9.328597379069684947e-02 -4.981150752313364127e-01 8.620783600817280012e-01
-1.899548161735417628e-02 -2.162897057162055936e-01 -7.479672391022570421e-01 1.112921858764947397e-01 -2.168459131667610784e-01 9.698411722058953854e-01
3.845205116522720790e-02 6.337045656312961794e-02 -6.355989771520880183e-01 2.381148950982616974e-01 -3.805082802464997416e-01 8.935965227082048878e-01
-1.506485188065342712e-03 -1.556402314728561609e-01 -7.269681096357026862e-01 -1.104404089412980572e-01 -3.319253719329693930e-01 9.368182660153668850e-01
-3.608881732400348250e-03 6.033454657288669226e-02 -6.260219826785011765e-01 5.264149353772830560e-03 -3.957738018227517918e-01 9.183329388203096411e-01
-7.708776398315191070e-02 -7.958549706051855355e-02 -6.887428422570589515e-01 1.944772225137412214e-01 -3.737583504539854773e-01 9.069086532773059650e-01
4.455752660433723311e-02 3.540977642331936265e-02 -6.505894637459062047e-01 2.368571407245665672e-01 -4.545128069274581017e-01 8.586715339562073224e-01
3.086160508022178089e-02 6.780140622865432620e-02 -6.315564151889737632e-01 2.743925980481278226e-01 -3.734317051186696323e-01 8.861475406209519123e-01
-4.726544616343023031e-02 8.568338159337483828e-02 -6.133587783211826849e-01 1.131471943430356480e-01 -3.639759414846980845e-01 9.245102630217941764e-01
2.748966192252319876e-02 4.558841852023856611e-02 -6.405674732682877792e-01 2.556003220855248559e-01 -4.286039009933952371e-01 8.665836205485423216e-01
-2.556859286826320896e-02 -3.575051333031441236e-02 -6.726933476264767009e-01 4.644309920529983426e-02 -4.766791756926820334e-01 8.778496465780185609e-01
-9.062969857779854671e-03 -7.208405844821307029e-02 -6.920953068368034256e-01 -6.460965568499757190e-04 -4.447538017556245671e-01 8.956526326557399109e-01
-6.843079864402779044e-02 1.139776912719522341e-02 -6.418545691152320876e-01 1.332718274833800121e-01 -4.739903646305475560e-01 8.703859800322159002e-01
-9.537768943066876615e-02 -8.667996075202831496e-02 -6.877538134991244556e-01 1.806511655068032685e-01 -3.392007866291989471e-01 9.232052766049195780e-01
5.476117174633977208e-02 -6.330325209729793789e-02 -7.021063104184275261e-01 2.288339657085909917e-01 -4.356988259575738653e-01 8.705179775267546383e-01
3.268291929172607857e-02 -9.325033162710326395e-02 -7.108764117483185041e-01 2.267955852142935214e-01 -4.146056340294214659e-01 8.812865202409302379e-01
-8.140946314496126657e-02 -1.855414780713042500e-02 -6.573079866098633373e-01 1.198879169760939251e-01 -5.111135134888473708e-01 8.511109585078898698e-01
7.699472841603399731e-02 -4.888944447329966747e-02 -7.002501517622224947e-01 1.986764257109364384e-01 -4.489213567847764041e-01 8.712045071561798082e-01
-1.456913566092191484e-02 -1.102088747704648569e-01 -7.093365728731808595e-01 2.063167139114980425e-02 -3.893105558338073036e-01 9.208754667445427922e-01
-2.438521299555474094e-03 2.077956446387518308e-01 -5.814990792942273945e-01 -6.196304929420651947e-02 9.159382263835069704e-02 9.938667678198411792e-01
-2.386173906945587148e-02 3.899897308003318075e-02 -6.341912824012618799e-01 8.649155666271986231e-02 -4.017743516010067739e-01 9.116449862866851106e-01
2.999471647086679460e-02 6.626062595264117783e-02 -6.319372867396739757e-01 2.743925980481278226e-01 -3.734317051186696323e-01 8.861475406209519123e-01
3.173924714713971529e-02 1.043313933580953951e-01 -6.167397388408238923e-01 3.016396768160961583e-01 -3.618455899435584211e-01 8.820891533222020575e-01
-4.711557437513830271e-02 2.296717020667503675e-02 -6.391217435131323343e-01 1.269505237552498722e-01 -4.442672315627250734e-01 8.868540981908241694e-01
5.522463728087169572e-03 -3.185889547295445851e-02 -6.730485245239725689e-01 3.277333518147753089e-01 -4.422150410574279267e-01 8.348872424290781913e-01
6.146245764690411173e-02 6.800803996607107660e-02 -6.390067822259908326e-01 1.835572035009372105e-01 -3.770560856134135830e-01 9.078190686170927171e-01
7.971250814924470129e-02 2.981922448480264776e-02 -6.612945744525385861e-01 1.657065283547836942e-01 -4.762292159257037749e-01 8.635664886732199452e-01
-4.859009551600346200e-02 6.137010392312278184e-02 -6.223131247601260130e-01 1.342651649837646177e-01 -3.534319928121633647e-01 9.257746442459445779e-01
-1.451582056206253586e-02 -7.854302470319088347e-02 -6.951249524597525875e-01 1.837470113058894614e-02 -4.296665727325268413e-01 9.028006461199757915e-01
3.098310989420598183e-02 1.226389557949687931e-01 -6.089773906073551180e-01 2.914612051689943195e-01 -3.619961177440244593e-01 8.854429267997412367e-01
5.547869670879018722e-02 2.113863465171823830e-02 -6.609840590038584818e-01 2.066350760885798943e-01 -4.672760492194237281e-01 8.596249409805146735e-01
1.771215541038227009e-02 1.298084911107785788e-01 -6.012981318565288058e-01 3.518821972430518641e-01 -3.283944474854636475e-01 8.765477774337911976e-01
3.602227412949974075e-03 5.539740633754647314e-03 -6.523010645096407600e-01 3.981631839756213931e-01 -4.253370120972845281e-01 8.127450430894980204e-01
8.679763108223402523e-02 -8.596103849853063694e-02 -7.221637298501208946e-01 2.431915544108948224e-01 -4.069512586083004479e-01 8.804819935582629542e-01
1.792610729959206659e-02 1.133964373083225230e-01 -6.078338675579838535e-01 3.507941586884393836e-01 -3.578303740357671736e-01 8.653905948457569774e-01
-6.827114787161676912e-02 -1.432908637222071735e-01 -7.132761919532449868e-01 2.579531820660831976e-01 -3.004108672352405751e-01 9.182665553688388327e-01
4.001792527285903851e-03 -1.394552483583386127e-01 -7.228708078124240766e-01 3.134591999792148975e-01 -3.437108711623479973e-01 8.852153223895360412e-01
-5.305249222688045857e-02 1.020026379014234985e-01 -6.063213698338002500e-01 9.415565612460195799e-02 -3.323389938423625400e-01 9.384484565449462412e-01
1.007985309741222212e-02 1.346224736160949731e-01 -5.961707506766472653e-01 5.184633118982101552e-01 -2.863688303681289349e-01 8.057224628922350362e-01
5.824255603663260408e-03 2.087178833346788054e-01 -5.822074902705678401e-01 5.262654563429219889e-01 1.678438119464837341e-01 8.335905015362456982e-01
-4.719434603633169967e-02 -1.792533932124454679e-02 -6.611288214734964974e-01 8.456207275164359660e-02 -4.915543063345472752e-01 8.667315730812555907e-01
1.633716165279281915e-02 1.041254628263390929e-02 -6.548684538328655158e-01 3.086852954561468132e-01 -4.391438885779429535e-01 8.437215378866385063e-01
-6.845863966333524953e-02 7.525493907578131858e-02 -6.139830496425247031e-01 1.553494747567518430e-01 -3.411322503811362594e-01 9.270897089509209099e-01
-6.495671867378609299e-02 5.856218113079341564e-02 -6.208314208786651633e-01 1.541907786397599123e-01 -3.540612059437242554e-01 9.224239080965650484e-01
-5.731664686534481551e-02 2.890978774385013356e-02 -6.347801945523647849e-01 1.432028105220194691e-01 -4.239181658624095461e-01 8.943077455274808241e-01
-2.012762015037395345e-03 -2.363617979368163313e-01 -7.508049758482397973e-01 -1.132989162330508455e-02 1.077937510539299891e-02 9.998777118368732397e-01
-5.952134677271948837e-02 7.068524719102053933e-02 -6.171665197920204182e-01 1.515223385032011538e-01 -3.435465093963441241e-01 9.268315795310974048e-01
-1.311803568168761879e-03 2.318664626926373040e-01 -5.843576788409620137e-01 -2.047561058939393122e-02 1.376708630149293400e-01 9.902663696439036878e-01
3.732857474258612779e-02 8.321884246416949571e-02 -6.272438064941453506e-01 2.601694877219009050e-01 -3.545141196645193449e-01 8.981267040997134021e-01
-7.054248728903336763e-02 -5.010858957791384377e-03 -6.507863463729105513e-01 1.229477679738398971e-01 -4.894881883622022589e-01 8.632989979167936534e-01
5.213216727486941204e-02 -1.257287244402143511e-01 -7.299980076043478538e-01 2.066248478781416154e-01 -3.530168731950272809e-01 9.125158954664520650e-01
-9.746322602526051593e-02 -6.664734900665489348e-02 -6.796334653163386141e-01 1.555461492055688344e-01 -3.675938305685720331e-01 9.168861277144741972e-01
7.691389099448751876e-02 3.717012132876998474e-03 -6.745271793456918408e-01 1.673094037077072216e-01 -4.370666786323508801e-01 8.837308876916416533e-01
-2.407414089311542965e-02 8.409762381175847623e-02 -6.160482558836751776e-01 4.219431267316871292e-02 -3.591066682667964916e-01 9.323422337234111845e-01
-8.093121141250268769e-02 -9.583180480453501460e-02 -6.943155821108177861e-01 2.150942096388306080e-01 -3.276741941954379178e-01 9.199804907921782515e-01
-5.794429481407123439e-02 -4.448066022646831458e-02 -6.747474832685544932e-01 9.737595866622965335e-02 -4.719214618657465721e-01 8.762465728916316587e-01
3.542210844968363137e-02 -5.174763412851755146e-02 -6.915961129851537770e-01 2.221760223511412002e-01 -4.273472551858309987e-01 8.763630175773972075e-01
8.315243595684421868e-03 -7.469313180519591977e-02 -6.958551835811426223e-01 2.289684812460253405e-01 -4.214095214321713634e-01 8.774892875939834802e-01
4.708172185950078303e-03 -6.453079154406861362e-02 -6.897354319349718876e-01 2.521704382409640233e-01 -4.329533257301472760e-01 8.654256107930740072e-01
-1.671153129435464652e-02 5.477002307155644581e-03 -6.511714001712094468e-01 7.362869369051880386e-02 -4.549309679951852314e-01 8.874776784936009300e-01
5.273246733107025963e-02 -1.760584058323926351e-02 -6.795153913924093514e-01 2.033669859960614834e-01 -4.154784768714802623e-01 8.865774101923826755e-01
-4.020079678542625053e-03 2.630422251957823532e-01 -5.923846960575496201e-01 1.292626352203908036e-01 3.634296787445280286e-01 9.226104485336861227e-01
-6.844577899030841739e-02 -1.177143651751800524e-01 -7.048869607417065364e-01 2.309774385225309146e-01 -3.011280365193014785e-01 9.251871856633124835e-01
3.613243951210518261e-03 -1.492234468543063297e-01 -7.263281754915391630e-01 3.353729700975459638e-01 -3.283889648610406886e-01 8.829981079738761229e-01
5.251335063601773184e-02 -1.118469187728042685e-01 -7.244625409997875742e-01 2.271279395524497813e-01 -3.785197500065845544e-01 8.972935405593931435e-01
1.350557433334253349e-02 3.464224455307548384e-02 -6.414080094072641680e-01 3.024492435280432545e-01 -4.291970586018631906e-01 8.510665896255258378e-01
-4.640309335493688833e-03 1.886841666731470524e-01 -5.815182991827457792e-01 -6.863605299924732672e-02 -1.221939239759644441e-01 9.901301617323051696e-01
1.886249029410966976e-02 -8.955276714090766588e-02 -7.056490872925039737e-01 2.214971050786932183e-01 -4.122414681127044567e-01 8.837397831998061726e-01
3.108424411723199193e-02 -1.215021224288092283e-01 -7.232021792202661947e-01 2.269232322141307434e-01 -3.882597230603758720e-01 8.931742462311438313e-01
-3.754196211627245511e-02 -1.209813314369826281e-01 -7.119276060236459092e-01 1.238321398800193707e-01 -3.539427219369453703e-01 9.270329825419379999e-01
-5.011625232632534871e-02 8.131507797482440125e-02 -6.146150660585448788e-01 1.334992082060397212e-01 -3.511191383632132901e-01 9.267649713295358360e-01
7.145456775726764798e-02 3.649391938072808067e-02 -6.560620977810498466e-01 1.656243657756142351e-01 -4.715854946957752647e-01 8.661268328910994851e-01
-3.802412034569131044e-02 -6.947666750916862977e-02 -6.895133732285074757e-01 5.701036879519316009e-02 -4.455186396827299222e-01 8.934556281903909269e-01
4.515818736307565529e-02 1.035261369638986878e-01 -6.211668327562178682e-01 2.493739260977864136e-01 -3.681321634030812473e-01 8.957071816451751545e-01
2.268852601195931948e-02 -1.332374230421762631e-02 -6.691654631096383143e-01 2.723449625358492221e-01 -4.368555264084608147e-01 8.573129361136067050e-01
5.993668517902651927e-02 -1.327113735428585295e-01 -7.339555151801958610e-01 2.011973761351666945e-01 -3.129309974323713495e-01 9.282207747525937913e-01
2.296771919073936630e-02 -9.858102881866154243e-02 -7.108941144717293437e-01 2.257900263474902081e-01 -4.145968203257304197e-01 8.815488305124076218e-01
-2.807353709950765816e-02 -1.991034005002712270e-01 -7.414257433613866688e-01 1.366458315105989474e-01 -3.272530648049343238e-01 9.350044643243979881e-01
-1.965082561803613986e-02 -1.827178798116221581e-01 -7.363281010711234531e-01 5.439973663115652003e-02 -3.394784767010712856e-01 9.390394201050247247e-01
-2.165624424444920996e-04 1.894768798067662519e-01 -5.809967919024505711e-01 -1.253003347272871881e-01 -1.215304919193444522e-01 9.846472290374213010e-01
-2.991214211220829394e-02 -1.804622830410395340e-01 -7.345448651102179927e-01 1.414406600862307961e-01 -3.228567949692736638e-01 9.358194428502432105e-01
-4.096076802490123542e-02 -1.393544678367021894e-01 -7.182903990271399808e-01 1.762969904130493315e-01 -3.272404383666832617e-01 9.283496467758696191e-01
3.543513469990130366e-02 1.373755264469723181e-01 -6.048396462667084972e-01 3.086634572248331265e-01 -3.271029161868022617e-01 8.931576302065069584e-01
-7.658505353211475519e-02 -7.063358461979649117e-02 -6.850427091900183063e-01 1.702700417738536309e-01 -4.028386796501981504e-01 8.992936734193204273e-01
3.189273589249553426e-02 9.680049180224591099e-02 -6.199631860546516160e-01 2.884794204049067612e-01 -3.592506223427806011e-01 8.875351341491636292e-01
8.252172938474817976e-02 -8.821177142497571566e-02 -7.220229835497778970e-01 2.431915544108948224e-01 -4.069512586083004479e-01 8.804819935582629542e-01
-7.144736102691226498e-02 -9.671405071266982872e-03 -6.534087818111010693e-01 1.220910271475108971e-01 -5.088444552415415378e-01 8.521567352664677353e-01
-2.240312347245014893e-02 1.074988299113254081e-01 -6.066687635515440880e-01 4.626835252436492518e-02 -3.867407842804949092e-01 9.210270383266654370e-01
6.043834526735301915e-02 2.852842992319019541e-02 -6.581190576977427042e-01 1.810027642954964711e-01 -4.718363015097501445e-01 8.629070076752124452e-01
-5.053057532460035473e-02 -5.286806113498074451e-03 -6.536281395045081544e-01 1.105181330304930432e-01 -4.810558813709105430e-01 8.696959131040634672e-01
-6.486960923620359309e-02 -1.107061340918450015e-01 -7.032449591678295864e-01 1.914423428914831526e-01 -3.310680304874626945e-01 9.239825693904470949e-01
4.978955186463100008e-02 -7.291177419756045275e-02 -7.055782224540917413e-01 2.292041453381522542e-01 -4.240946181121189595e-01 8.761331032714967382e-01
-7.174973004958401512e-02 -9.659329916847629594e-02 -6.966378271613008488e-01 1.949001152893312105e-01 -3.479505593773261074e-01 9.170301812313549350e-01
-9.215652556695586072e-04 2.440459212122481070e-01 -5.858672626401443262e-01 -8.246841796828013882e-01 1.866629993267516358e-02 5.652853907786121734e-01
7.897610386685145756e-02 6.206003228184337611e-02 -6.447354521086372525e-01 1.611720110897135738e-01 -3.819695076159129177e-01 9.100125702939241279e-01
6.145254555270811964e-02 -1.280618508617162032e-01 -7.327165937170032617e-01 2.011973761351666945e-01 -3.129309974323713495e-01 9.282207747525937913e-01
-2.074704829546718254e-02 -6.546982646815163731e-02 -6.884838219433008222e-01 3.862458990653852564e-02 -4.467318225715701807e-01 8.938337763568988681e-01
2.731424301752321399e-02 1.584049954674285679e-02 -6.558306679884168267e-01 2.895617846297491305e-01 -4.426929645804019708e-01 8.486323774126519615e-01
1.765129478439206312e-02 1.367112987822533265e-01 -5.986881289174110776e-01 3.362243977129762418e-01 -3.216815418939341642e-01 8.851407458632142289e-01
7.083320132037403127e-02 3.893377031715720277e-02 -6.546148366118276218e-01 1.656243657756142351e-01 -4.715854946957752647e-01 8.661268328910994851e-01
-6.671299294589078110e-02 3.119365395224290780e-02 -6.321924090870100210e-01 1.432732124343101265e-01 -4.239950014598498074e-01 8.942600434637650864e-01
4.191249801273438241e-02 -7.708520613623112694e-02 -7.055569630141114157e-01 2.233757596897882336e-01 -4.239855381216469099e-01 8.776898845530278770e-01
-4.016233074773734035e-02 5.975375016371481385e-02 -6.239864752294412842e-01 1.081041677434646520e-01 -3.557031444780908713e-01 9.283257843693082378e-01
1.488370273721794507e-02 -6.657485832434656414e-02 -6.935888054360282995e-01 2.287270391806934255e-01 -4.295882639347505250e-01 8.735776239334205329e-01
-6.169160391464205417e-02 -1.355304936383969483e-01 -7.125112157386862544e-01 2.451568183929757339e-01 -2.993000266019675837e-01 9.221266878642516707e-01
-2.700959875418756928e-02 -1.190080059914521288e-01 -7.122215624931429456e-01 8.496863589975145459e-02 -3.640916988682122990e-01 9.274791457108857440e-01
-6.523498101533703290e-03 -1.976076771796310416e-01 -7.417793076948484554e-01 -3.087396336276934661e-02 -3.275311575723375834e-01 9.443358190842912059e-01
-3.177684468184328176e-02 -1.796160852835257948e-01 -7.339578980840750777e-01 1.413134502735609588e-01 -3.380397436205128114e-01 9.304620575309665576e-01
1.156230306060826787e-02 1.759278710005579005e-01 -5.844348060308705017e-01 3.559594540852922817e-01 -1.113992566943610846e-01 9.278378482554181517e-01
5.253296949445451260e-03 -1.787906943923753267e-02 -6.655099339903424172e-01 3.428310904326494213e-01 -4.408789626049380850e-01 8.295134620759051503e-01
-3.885127865368220162e-02 -2.981705708137545596e-02 -6.685323982064145243e-01 7.331763229220188138e-02 -4.815377786114412029e-01 8.733532461524512458e-01
3.512857258528066340e-04 -1.407965722418856591e-01 -7.219772670394846159e-01 4.094300555757751092e-01 -3.272343635120634198e-01 8.516364840282926174e-01
-2.389661174123857215e-02 -1.364736186854481892e-01 -7.192108646876722577e-01 8.742870979498178208e-02 -3.504183616046087080e-01 9.325037225415921949e-01
-6.291023954557270481e-02 -5.240320416291970040e-02 -6.783611808924769893e-01 9.828068533837033827e-02 -4.476537094420887097e-01 8.887896620191745312e-01
-6.261963129869925482e-02 -1.534762508107729295e-01 -7.181818218555308109e-01 2.388279239395460496e-01 -3.099446447082676026e-01 9.202692757901852483e-01
-2.200889485399288616e-03 2.248161999541019862e-01 -5.834270933385795610e-01 -3.812418965892451495e-02 1.261034757307249454e-01 9.912842476159302585e-01
8.722542024579635345e-02 2.292149869270902751e-02 -6.665050639580383240e-01 1.582790757131189718e-01 -4.777677193931234578e-01 8.641097965520900814e-01
-7.226414825176775969e-02 -3.256730600796479969e-02 -6.666128211604697151e-01 1.048466498361411842e-01 -4.878372028002565530e-01 8.666152800303943415e-01
2.180124224027273159e-03 2.093957410616087977e-01 -5.812228127777556708e-01 -1.784755894794493869e-01 9.441248831554828469e-02 9.794042811883302280e-01
-1.395492750792786578e-03 1.530842870486808505e-01 -5.894008476940675312e-01 2.069752229995956011e-02 -3.537398829972108194e-01 9.351148099285789828e-01
-3.962668875591607819e-03 1.369666867004879496e-01 -5.952990835625114885e-01 -2.330994320645313981e-03 -3.432042823731213943e-01 9.392578916496937547e-01
-6.444674407935183959e-03 -2.346883142764619179e-01 -7.507550006251898500e-01 6.783406776358381907e-02 7.817326941928108563e-02 9.946293174841298601e-01
4.007553970787705935e-03 -1.185300965059076991e-02 -6.617828559232550312e-01 3.545185045986128380e-01 -4.409608058603724512e-01 8.245424170969826161e-01
9.351292751527455482e-02 1.441947267566860875e-02 -6.722151184313273076e-01 1.587451207357980509e-01 -4.661277278633420007e-01 8.703590798972198339e-01
-5.789292601244537539e-02 -5.215968823140541138e-02 -6.787933351118116132e-01 9.828068533837033827e-02 -4.476537094420887097e-01 8.887896620191745312e-01
1.515073903921456550e-02 -6.940935706773929126e-02 -6.950526087455166646e-01 2.287270391806934255e-01 -4.295882639347505250e-01 8.735776239334205329e-01
7.354269372823200868e-02 -7.567551795955125560e-02 -7.134003887750562933e-01 2.354328489293152082e-01 -4.417920056866609935e-01 8.656738400554702118e-01
9.012636655704902786e-03 6.949454928888661176e-02 -6.231103590902673517e-01 3.842483962676686571e-01 -3.836972358154110418e-01 8.397199540283281083e-01
-1.011745747656437461e-02 8.736421579571584939e-02 -6.149447981238405081e-01 -1.319408561925088791e-02 -3.735433976654731203e-01 9.275188656653868824e-01
-2.076404628499721808e-02 2.700127246707398343e-02 -6.400488444307240732e-01 7.569444391100622893e-02 -4.295593029161801635e-01 8.998606316753549050e-01
1.007707328034817065e-02 9.269524986738336692e-02 -6.131698417856181749e-01 3.840404537398481311e-01 -3.744212748141456659e-01 8.439914921714801732e-01
-6.194724042226344707e-02 -1.547039005232347386e-01 -7.187697901657686961e-01 2.388279239395460496e-01 -3.099446447082676026e-01 9.202692757901852483e-01
6.059536846588747111e-02 1.052395431984340796e-01 -6.242501904833563930e-01 2.286613788124287616e-01 -3.217879097650951925e-01 9.187853476022622701e-01
