-8.202134741718018415e-03 9.647974273377296628e-02 -8.064799618371863987e-01 -9.834168677443864137e-01 1.518589557959219016e-01 -9.914697060622719438e-02
-9.754047223689223459e-03 -1.119785503832542162e-01 -9.365815664554139053e-01 -9.738611725910829575e-01 1.203944959783246060e-01 -1.926125173960557546e-01
-1.058632271464407526e-02 -1.751344256048234516e-01 -1.004079837693066413e+00 -9.902056365854041697e-01 1.391494785856523253e-01 -1.141139272111296385e-02
1.924441987214742592e-02 1.279895573606791848e-01 -8.887460692800356332e-01 -9.301054774854060625e-01 2.542275751751754131e-01 -2.650889299314383996e-01
1.840664123380757319e-03 2.511798293902123627e-02 -9.140678080821197371e-01 -9.276351919697481963e-01 1.768334871874209235e-01 -3.289724432659746345e-01
-1.174964098262160431e-02 -1.391368569415299128e-01 -9.465604486235335013e-01 -9.729771323422877760e-01 1.479582347914924767e-01 -1.772677655310286593e-01
6.700328047320212171e-03 -1.113115194700289440e-01 -1.002452100638300703e+00 -9.268931412700708306e-01 2.588480430116856246e-01 -2.717844647795767399e-01
2.722297260729267254e-02 -4.771903594868018988e-02 -1.028588964050718202e+00 -9.632086050230806995e-01 2.128995761486315863e-01 -1.640211988897293249e-01
-1.501379755269618629e-02 -1.315367928025850675e-01 -9.227356236451729199e-01 -9.731036967352086897e-01 1.381487017089723934e-01 -1.843478549275696099e-01
-9.207019661395877616e-03 -9.583699886250914013e-02 -9.292225731606638117e-01 -9.721103455009704186e-01 1.189809752639893053e-01 -2.021014688101343548e-01
-3.555070595421296460e-05 -1.771468169439085194e-01 -1.046079553330501399e+00 -9.473340476252078979e-01 2.640497872752458619e-01 -1.812068212014585344e-01
7.499928268307493734e-03 1.144737851528363909e-01 -8.646699490885454420e-01 -9.010424745836149718e-01 2.674285706718926292e-01 -3.414738915124026497e-01
-5.415058457478649084e-03 1.096869691145642423e-01 -8.150942612539167076e-01 -9.862578147608622725e-01 1.416487143834852802e-01 -8.503625424861019355e-02
-1.474797173182487361e-03 -9.338506302092697275e-02 -9.662591138394461820e-01 -8.775664674719209080e-01 2.586448141169886417e-01 -4.037077597709044507e-01
2.924547701680534420e-02 1.348801621680473413e-02 -9.951631963009500703e-01 -9.394820450435995562e-01 1.119672276346089235e-01 -3.237851555839391104e-01
-9.507173988818716850e-03 7.587738481425190806e-02 -8.211083127975001839e-01 -9.774024921308079872e-01 1.524108317884726171e-01 -1.464763009159899265e-01
1.993842692344994019e-02 -8.680424929821517477e-02 -1.039814226922583407e+00 -9.683246287709087463e-01 2.205822807202071079e-01 -1.170079943762537683e-01
6.465771180220292180e-02 2.308377661184598251e-01 -7.521557118960812138e-01 -4.094429576725101549e-01 9.056735486273517211e-01 -1.100540218671129944e-01
-1.324326199599846696e-02 -1.271894853394123781e-01 -9.290175478817408461e-01 -9.750196234160662945e-01 1.327134595933683880e-01 -1.781119636530669459e-01
-1.602397429672431511e-02 -2.438900294158488635e-02 -8.558566275632757403e-01 -9.691514763708338753e-01 1.150941866015669640e-01 -2.179420658311669590e-01
-1.036760061080740404e-02 -1.408524262084005496e-01 -9.561312447212564347e-01 -9.717247268320390319e-01 1.674360719610070436e-01 -1.664818821057339471e-01
1.351929067068614182e-02 8.628043373576947672e-02 -9.073013745975614386e-01 -9.354363506862687361e-01 2.444831417685403019e-01 -2.553171110711930369e-01
-1.554127931049161838e-02 -4.614623866770532074e-02 -8.706427270215395531e-01 -9.672307052669208982e-01 1.374743274322809128e-01 -2.134609380797732048e-01
-1.090523912829235303e-02 -1.011893578693135037e-01 -9.240549995116108528e-01 -9.735123194999244500e-01 1.155753173751330187e-01 -1.972716649585397330e-01
-1.592648649621871207e-02 -5.526712184678582440e-02 -8.747425182190246007e-01 -9.672584539283819449e-01 1.343105302811254953e-01 -2.153410429056174802e-01
2.987277147668463556e-02 -3.177718992809281523e-02 -1.024938676002352445e+00 -9.572184885129465526e-01 2.187435893672146081e-01 -1.894307455502856619e-01
1.047517885994103670e-02 3.717506080561640280e-02 -9.327465709301726582e-01 -9.381622133141837017e-01 1.611982561422551363e-01 -3.063768655204368030e-01
5.118811910447151892e-02 2.217787467330463447e-01 -7.593878477145232786e-01 -6.515866317409211295e-01 7.317345146380140886e-01 1.999986535554462430e-01
-1.354285118727415090e-02 -4.012805798282599243e-03 -8.581834302002827597e-01 -9.673237524528225384e-01 8.495399352417450090e-02 -2.388882101002160752e-01
-5.171417950453554603e-03 -1.938435592498762849e-01 -1.048045085470665327e+00 -9.226754307227501561e-01 3.586524276184248072e-01 -1.415573583534184554e-01
5.814775550744857814e-04 8.321672272890191790e-02 -8.715893740892417529e-01 -8.773509607291237744e-01 2.936556713890924875e-01 -3.795018292033713325e-01
-1.963971593934417392e-03 -6.772578415466687374e-02 -9.498823323498766236e-01 -8.616047569000461204e-01 2.437036887006094610e-01 -4.452479702378537296e-01
4.974327637075976784e-03 -2.473092474194684212e-02 -9.445535327783669555e-01 -9.151571724802985974e-01 1.558351235168038140e-01 -3.717563233307103476e-01
7.970592646630988640e-03 1.735331372523726545e-01 -7.985922455227405514e-01 -9.057179989529636766e-01 2.170110951824097967e-01 3.641168643998383136e-01
1.063304430516944128e-02 1.102636758647603443e-03 -9.482695045811433410e-01 -9.247499792526597817e-01 1.353206460069417694e-01 -3.557046508502093585e-01
-8.372597494674095808e-03 -2.149574417346034050e-03 -8.844730953189177125e-01 -9.860248431871718733e-01 5.679675855543905166e-02 -1.566178049753866042e-01
1.057037808042446056e-02 1.352686409085847863e-01 -8.559349687910198234e-01 -9.052132992853231253e-01 2.766192396026857514e-01 -3.225998745793491884e-01
1.783615358244401358e-02 -8.815998676074666973e-02 -1.026191283788761677e+00 -9.638869803559099170e-01 2.222736196306945022e-01 -1.466844474258770237e-01
-2.259453804105700930e-02 -2.203193480326785525e-01 -1.041323385904135312e+00 -7.639352460424715385e-01 5.769189626532452708e-01 -2.890803528175716619e-01
-2.572607883707578313e-02 -3.530227686122892894e-02 -8.250472861266486824e-01 -9.547513365933646412e-01 1.099830541858376198e-01 -2.763215754607999952e-01
3.187579540399009242e-03 1.264025305313878356e-01 -8.440264643194921312e-01 -8.861729503417619114e-01 3.044452614579237770e-01 -3.493001357835314180e-01
-2.120137491075105990e-02 -8.195441571557381122e-02 -8.675986231368791879e-01 -9.660852635448113901e-01 9.732032283137583006e-02 -2.391819774262874954e-01
1.118175132643427824e-03 -1.677181168885786278e-01 -1.039874209545692541e+00 -9.373181812926811851e-01 2.549152137792474182e-01 -2.375981077409100028e-01
-5.175901983667950158e-03 -1.115107633049127744e-01 -9.605188149892813776e-01 -9.748960564581051758e-01 1.364337809433900373e-01 -1.759644922134176448e-01
-3.749707492045707691e-03 -1.889750837047835530e-01 -1.045704097660639098e+00 -9.290134331550811142e-01 3.004523860015455017e-01 -2.160148253324010725e-01
-6.925706513527547098e-03 -1.486572433725493192e-01 -9.950522213276359329e-01 -9.915078996770291253e-01 1.300333808764725652e-01 -1.845192640466957953e-03
-6.599502968606191927e-03 1.705991237064849323e-03 -8.947947754860843261e-01 -9.891499827113348076e-01 4.810689404135694291e-02 -1.388093600873497313e-01
-2.182027580715027032e-02 -1.110901281393714690e-01 -8.756653070894290236e-01 -9.749946861848419744e-01 7.215116595821023660e-02 -2.101893697649626636e-01
-8.684295581157894239e-03 -1.356417674391689199e-01 -9.609553185938614073e-01 -9.744936166095908847e-01 1.581326913339434759e-01 -1.592364377855884638e-01
2.844188106884729811e-02 5.467667917485674600e-02 -9.825731304933776888e-01 -9.505227807375616900e-01 1.014595622394726254e-01 -2.936194825434912392e-01
-1.411345572737209356e-02 -8.401452716562377021e-02 -8.990827529320200018e-01 -9.717894659836036064e-01 1.129071633221349347e-01 -2.070681198877588891e-01
1.212010263712039702e-02 -9.832178532887549116e-02 -1.009716947454646130e+00 -9.409072400750996268e-01 2.354558286869266326e-01 -2.434216882523231595e-01
3.081919247492585366e-04 -1.800953896444534852e-01 -1.052328584268890976e+00 -9.418589630362644849e-01 2.979387693892888711e-01 -1.553518054064663978e-01
-1.489740682626611128e-02 -1.552970130607844723e-01 -9.462563266567176612e-01 -9.555830544284883432e-01 2.285744001930744562e-01 -1.860504492483063266e-01
-1.304270141776620213e-02 -1.630023120729199582e-01 -9.657777941892786711e-01 -9.547241610749573892e-01 2.266733420524260079e-01 -1.926680364318439920e-01
-8.043837963101048427e-03 -6.520754145854981872e-03 -8.882770282044768484e-01 -9.862938885952028389e-01 6.623623266790389097e-02 -1.511195778240429222e-01
3.108704414266998464e-02 1.117068178821249876e-02 -1.001324505766940209e+00 -9.410171240301367090e-01 1.097889432817396038e-01 -3.200518086421780817e-01
1.703343935568389644e-02 -3.551231041460906177e-04 -9.656544121394514679e-01 -9.267564907407576102e-01 1.321818327777977420e-01 -3.516395454913713303e-01
-5.552338319996218303e-03 9.840680481383273781e-02 -8.314712345929601289e-01 -9.913212996750626615e-01 1.060646510247468810e-01 -7.766833726521385484e-02
-1.442546695118828576e-02 -7.638314326454915398e-03 -8.558780998715148636e-01 -9.677795898896230931e-01 8.218088439047772920e-02 -2.380104359768111522e-01
6.062139103122317352e-03 1.144498608102922643e-01 -8.609988476946651703e-01 -8.967681938266883757e-01 2.694144757923525590e-01 -3.510308345065297764e-01
1.242631151754437259e-02 -1.064319417751916491e-01 -1.019961615708899760e+00 -9.547387212069092799e-01 2.318777324319432065e-01 -1.862973199764704491e-01
-3.213141258558337154e-03 -5.848794013431794780e-02 -9.385671297061924934e-01 -9.823036260500461747e-01 7.160738510835612525e-02 -1.730663706410757730e-01
-2.571690813607746887e-02 -2.858803875377270362e-02 -8.224438215585752054e-01 -9.540802881705784388e-01 9.853277893200083903e-02 -2.828817689429338755e-01
-2.849823803738544496e-03 -7.253276041907938398e-02 -9.472676216041673314e-01 -9.866335917028706826e-01 6.867886889769717063e-02 -1.477747227722853163e-01
1.202460918711532357e-02 6.756476827794626050e-02 -9.188079319135412648e-01 -9.418614340877795588e-01 2.231257139037424175e-01 -2.512209282147018774e-01
-6.159948192203909198e-03 -4.668995137091180858e-02 -9.176463362932416601e-01 -9.752989317546179038e-01 9.515359516120577843e-02 -1.993433897730205462e-01
-1.272695975217309587e-02 -1.286711220234657005e-01 -9.327931156100008891e-01 -9.734521365153638861e-01 1.327456247728376337e-01 -1.864659138216483436e-01
-2.076008275551485815e-02 -1.006923784849479975e-01 -8.767435235246524572e-01 -9.708199650373912082e-01 8.376896532616982805e-02 -2.247028169226659988e-01
-9.922030392126579557e-04 -1.234437768042429828e-01 -9.899355628898606207e-01 -8.943850998510077810e-01 2.875545303208839609e-01 -3.426188629606356506e-01
-1.501090280846832659e-02 -1.166016682486396838e-01 -9.123763181804516176e-01 -9.762685225694819335e-01 1.145122360211857510e-01 -1.838116417461883589e-01
3.428259722450128361e-02 1.441724357796102078e-02 -1.009606394857961220e+00 -9.410171240301367090e-01 1.097889432817396038e-01 -3.200518086421780817e-01
-5.254716474244093202e-03 9.357153577378307663e-02 -8.449123666430761181e-01 -9.958749034826114288e-01 7.707391356588509657e-02 -4.788307071542215188e-02
-1.116451670029185508e-02 8.160248711532189225e-02 -8.032154902813556374e-01 -9.765402271914151999e-01 1.772275669824110167e-01 -1.223093380671900765e-01
-1.257018607316215224e-02 5.091160657253848525e-03 -8.595613033205801168e-01 -9.751286718883871441e-01 7.167137468600776051e-02 -2.097314647634161144e-01
2.284969483248042513e-02 1.947582255778921856e-01 -7.850524329993976425e-01 -7.819133741239469026e-01 2.081608630983481090e-01 5.876057610679589205e-01
-1.125298170404314541e-02 3.061805091244997144e-03 -8.664808976310168775e-01 -9.761870836215139624e-01 7.339475103648189502e-02 -2.041371800795142855e-01
-6.099073519550821630e-03 9.973513506446257670e-02 -8.226239000198042328e-01 -9.878966550581053108e-01 1.279448808799797388e-01 -8.769439196216910481e-02
-2.117021205913599199e-02 -1.231402653179789058e-01 -8.835002938729406008e-01 -9.778970785889732342e-01 8.306179035725445858e-02 -1.918802821287243776e-01
-1.215040196029031766e-02 -3.468611861014238990e-02 -8.795778993127389978e-01 -9.747660873584892416e-01 1.153496629712860017e-01 -1.911165356222031819e-01
5.069466470767097083e-03 -4.045575013991910274e-02 -9.518623273499381421e-01 -9.124329861082975945e-01 1.772028734570675335e-01 -3.688701499173573373e-01
4.619575913421271676e-03 -2.824545043470163067e-02 -9.451923144744033278e-01 -9.135645263758129797e-01 1.672466928949728204e-01 -3.707133661785491641e-01
-2.128105435295562110e-03 -1.195563766748116846e-01 -9.837082012590575575e-01 -8.939087803122974796e-01 2.882198495142376804e-01 -3.433022150038808062e-01
-7.801086876806857633e-03 -1.143431398336233890e-01 -9.484350002426806814e-01 -9.730396808606661674e-01 1.364938633612365892e-01 -1.859118197837270614e-01
-1.976546809591778198e-02 -1.476416871112924412e-01 -9.104048111495096629e-01 -9.683723130195588391e-01 2.025198610688865586e-01 -1.457421327200491556e-01
2.922623286008677393e-02 2.243947648606381406e-02 -9.924027862364317443e-01 -9.396805164935130295e-01 8.466180907142623058e-02 -3.314104781192619420e-01
-1.730672644619457926e-02 -2.131873665754979719e-01 -1.022334036963798320e+00 -9.568470636689088149e-01 2.815997868983539654e-01 7.173044518883880949e-02
2.213874892946019867e-04 6.975481450368878344e-02 -8.810495957939580292e-01 -8.977668101219719032e-01 2.530549983066995301e-01 -3.605245102283831660e-01
-1.355544845162832274e-02 -1.450353779704583179e-01 -9.423015098485092444e-01 -9.686571882866502614e-01 1.755677197280896829e-01 -1.757248626975705663e-01
-1.267847087439371960e-02 -1.795605334831191502e-01 -9.911504503568477897e-01 -9.588590048219695072e-01 2.368116523875558321e-01 -1.565555817123664983e-01
-2.504365068499065164e-02 -3.148998174873555989e-02 -8.258878333405792471e-01 -9.547513365933646412e-01 1.099830541858376198e-01 -2.763215754607999952e-01
2.937749852709243756e-02 4.266734335821626561e-02 -9.882865799028890397e-01 -9.435947035665214200e-01 6.904299536078450927e-02 -3.238241809884173650e-01
-1.617117034107444160e-02 -1.681116196791947182e-01 -9.569957418863396237e-01 -9.432002595918697052e-01 2.608245656644987975e-01 -2.057761313946661619e-01
6.577976191929990699e-04 1.418683507255456833e-01 -8.234361851457563386e-01 -8.672177037707038405e-01 3.424154664500290712e-01 -3.615039454867352564e-01
-7.657707202256997317e-03 4.484099082486488891e-02 -8.674962668221913864e-01 -9.871637821733458829e-01 9.218657452016322529e-02 -1.304197172342171918e-01
-1.959077930279352290e-03 1.313863204647536809e-01 -8.246890547101981550e-01 -9.942717793273943006e-01 8.192020096846795718e-02 6.864917702655462528e-02
-1.124187714970481186e-02 5.685097622480450585e-02 -8.300435222754458664e-01 -9.703891623481637474e-01 1.717604970202049608e-01 -1.698328744990240946e-01
-6.906685927106611181e-03 -1.592142388583056289e-01 -1.006803602064185066e+00 -8.691550640804490691e-01 3.389306679947581835e-01 -3.601325823581328911e-01
1.296933229942037746e-03 9.426221395759002211e-03 -9.202330969356492529e-01 -9.207383516946543445e-01 1.631463474919806200e-01 -3.544349827805330366e-01
1.643530774447172702e-02 1.235283983651297296e-01 -8.834794877886049669e-01 -9.283936961221752604e-01 2.456120459575820703e-01 -2.788545640313900287e-01
7.197321453041918664e-03 1.032370101666353901e-01 -8.725721643952782935e-01 -9.065984820215207129e-01 2.547239113300490132e-01 -3.364445294442984791e-01
2.054825329003558826e-02 -7.512564796705936687e-02 -1.024685027074397459e+00 -9.594348966017681724e-01 2.201266648864543540e-01 -1.761503068084784296e-01
3.929404389386911660e-03 -5.565028544453729659e-02 -9.566568950893267198e-01 -9.058285889232075005e-01 1.985318418163168619e-01 -3.742454746211523187e-01
-9.865221043270162166e-03 7.572960106987315643e-02 -8.188779380933757235e-01 -9.768764903896143270e-01 1.529938976348821089e-01 -1.493492209907928969e-01
1.918536580393519556e-02 7.436534756264179258e-02 -9.399192485308807132e-01 -9.494699770329406707e-01 1.862340371149469320e-01 -2.526334224383930960e-01
-1.390236008415761046e-02 -9.847237212381433624e-02 -9.077626959869358192e-01 -9.741332745723401132e-01 1.117602891289776884e-01 -1.964026505543578494e-01
-1.792446781618678778e-02 3.737025655798339313e-02 -8.152085228672160122e-01 -9.562097063672286845e-01 2.053044108740414986e-01 -2.085979298189725994e-01
-3.897316170163446763e-03 6.031354445589755947e-02 -8.775668016052672327e-01 -8.961074963365057711e-01 2.476219760238873302e-01 -3.683404837912124807e-01
-6.185861674960791215e-03 -1.320092330781766077e-01 -9.739201822795863217e-01 -9.831955977352343501e-01 1.408880912001365393e-01 -1.160903198033198247e-01
3.373088104176717814e-03 -1.384284508150218085e-01 -1.017526010293129390e+00 -9.212596705929634311e-01 2.715156859756692187e-01 -2.784956940566692962e-01
4.559433370499250959e-03 -2.660424427524667786e-03 -9.340640587862184541e-01 -9.211584403129119414e-01 1.555252668085677081e-01 -3.567618522549840243e-01
-1.428501665185887351e-02 -1.547495300558542064e-01 -9.488578452211583469e-01 -9.655405251925318622e-01 1.917287859625050050e-01 -1.759874053569562002e-01
-7.617387078968097455e-03 9.169909999048606042e-02 -8.183236111992168160e-01 -9.843304408679697248e-01 1.403817657624875925e-01 -1.067077458391586658e-01
-4.435392403720069335e-03 -3.820918469999600581e-02 -9.235493986182720105e-01 -9.844757800129507741e-01 5.728766729625687365e-02 -1.659082931732036581e-01
3.370393147435103709e-02 2.686660987474894999e-02 -1.003899584842363302e+00 -9.402611311743023226e-01 7.615492612567023589e-02 -3.318274136198139934e-01
-1.552792675440673766e-03 -1.767491150955746715e-01 -1.039316863774142785e+00 -9.287893935514195398e-01 2.741384906939214328e-01 -2.493959709908017686e-01
2.155864399803166312e-02 9.262741658113189669e-02 -9.338195226667201920e-01 -9.495464635038688428e-01 2.240981864541894408e-01 -2.194117509962472123e-01
1.831988744787845652e-02 1.224149700028925591e-01 -8.909319922834411098e-01 -9.284717794683142733e-01 2.698880178231487514e-01 -2.551482168592082989e-01
2.051623250348351760e-02 -6.373633673634300500e-02 -1.011164987068025045e+00 -9.620820498339696103e-01 1.918637093211862654e-01 -1.938722425536527350e-01
-2.143806849661964234e-02 -1.143302892796660697e-01 -8.785504744108365571e-01 -9.749946861848419744e-01 7.215116595821023660e-02 -2.101893697649626636e-01
5.903989690848091693e-02 2.281960591731665433e-01 -7.586076563360913960e-01 -6.138376934824090192e-01 7.555913321736316135e-01 2.286591891970942980e-01
-1.561990593592410201e-02 -9.335336778707511995e-02 -8.969025208574586960e-01 -9.716529638436789407e-01 1.066263753195587638e-01 -2.110007913255461109e-01
-1.139403148182640060e-02 -8.441551842257347116e-02 -9.121144611232419042e-01 -9.720259915633007175e-01 1.130019431478779257e-01 -2.059029688231464039e-01
2.180642211869079916e-02 3.044093925304698980e-02 -9.691937589049364199e-01 -9.406089207471588498e-01 8.587657035962333041e-02 -3.284510205101113800e-01
-1.869254952344693091e-02 2.304361476577681395e-02 -8.244598590871419219e-01 -9.578134042030009843e-01 1.599065053896753796e-01 -2.387957124052277613e-01
-1.500029229410068145e-02 -6.119816768059049145e-02 -8.825723431266474517e-01 -9.676666477497641861e-01 1.321967047926565220e-01 -2.148145480983468247e-01
7.451321330626986192e-03 -6.105669804014667024e-02 -9.681674860613252998e-01 -9.122391342941140735e-01 1.889460937006238184e-01 -3.634819604018889039e-01
-9.484418347238357527e-03 6.785283280860598260e-03 -8.745998460314883260e-01 -9.817399287090318172e-01 6.574362857016613493e-02 -1.785062679034356004e-01
3.499380571581780022e-03 -3.230785952537695328e-03 -9.315756454400777598e-01 -9.211584403129119414e-01 1.555252668085677081e-01 -3.567618522549840243e-01
1.238224334917525926e-02 -2.652266299680226466e-02 -9.639701308908317223e-01 -9.192566131895326675e-01 1.545373329209432378e-01 -3.620573046369751635e-01
-1.155845068144167528e-02 3.069456754294086140e-02 -8.526698941025837586e-01 -9.747095276536923425e-01 1.296034622492997501e-01 -1.820557037670347822e-01
-1.228919838346870068e-02 -1.805625604892395208e-01 -9.954660728744956222e-01 -9.738258804278523417e-01 1.977124485909268203e-01 -1.121291321695574161e-01
-2.229928230797538838e-02 -1.246978617343755674e-01 -8.786269145539108427e-01 -9.754567948854409032e-01 8.254656525461945282e-02 -2.041325693672800534e-01
-5.030955026002601263e-03 -1.306643717964328655e-01 -9.824632469896253939e-01 -9.872378102269870892e-01 1.359794480026585706e-01 -8.289207307768023392e-02
3.308385083528510556e-03 4.799829092135234759e-02 -9.052420410675866558e-01 -9.253860725651772423e-01 2.041177896909085188e-01 -3.193689788224497450e-01
1.834631898117725785e-02 -7.377560999850098222e-02 -1.011387675708127709e+00 -9.507341147467642806e-01 2.228442738183587790e-01 -2.155111892293637144e-01
-1.412524113004765339e-02 -7.570492536272961648e-02 -8.945381372321047353e-01 -9.693343548000206145e-01 1.110490344415805686e-01 -2.192236769922912554e-01
-1.603912460007349272e-02 -1.404228605233468208e-01 -9.242632697314915324e-01 -9.723730756553189414e-01 1.563937066452001368e-01 -1.732963076998184915e-01
-3.298353536380085275e-03 -7.678363173489327620e-02 -9.471393567214482223e-01 -9.792845368702872699e-01 1.020361643255670164e-01 -1.749011635652342189e-01
2.012789110252532349e-02 1.959441599090201019e-02 -9.675109228913694182e-01 -9.372746886412983702e-01 1.020748533279800391e-01 -3.333119895089710072e-01
-7.142905203350803818e-03 5.419329309680417234e-02 -8.643158062599642921e-01 -9.906300439125591550e-01 8.591215638617727413e-02 -1.061659902364131269e-01
-3.899966966147498746e-03 -3.308218006798932867e-04 -9.120495824594058165e-01 -8.980803514888873185e-01 1.948876693634780388e-01 -3.942974493953365633e-01
-1.571085948189302264e-02 4.609176697613618506e-02 -8.169504650120672506e-01 -9.609525124140084751e-01 1.987632347958437906e-01 -1.925186883881584710e-01
-1.666832210486922719e-02 -3.653140286659536246e-02 -8.597278479268856133e-01 -9.621599304914189021e-01 1.415726797659591918e-01 -2.328206273091653344e-01
-8.784784436035872682e-03 -1.138793013833083040e-01 -9.429459040553497262e-01 -9.730396808606661674e-01 1.364938633612365892e-01 -1.859118197837270614e-01
-1.086606135454179847e-02 -1.578399964192193639e-01 -9.718993535890345647e-01 -9.666908103842227762e-01 1.983632586387674424e-01 -1.617432989057164816e-01
-4.272832659917352380e-03 -1.388527751321195491e-01 -9.947289007115034387e-01 -8.671692789909914989e-01 3.236881290116035426e-01 -3.784751467549899995e-01
-7.807153127248706199e-03 3.540719294560470964e-02 -8.724288527964455531e-01 -9.872088313851336006e-01 7.418163329000039552e-02 -1.411233804783131318e-01
-1.650501891777419322e-02 -7.706427765399422036e-02 -8.847086068826948146e-01 -9.678154727362665577e-01 1.195696113402864719e-01 -2.214414567695252856e-01
1.586138640688372625e-02 -7.645612472625251677e-02 -1.003280727533590877e+00 -9.393311527832418628e-01 2.288129418194440323e-01 -2.555418225395553744e-01
-7.012477077593621232e-03 8.339602234692919391e-02 -8.337877619741691504e-01 -9.904417969288304979e-01 1.095171229134558749e-01 -8.385133681193357447e-02
1.918886562625240003e-02 1.151060358554673452e-01 -9.008325530939466086e-01 -9.366225779351100567e-01 2.469540139814793978e-01 -2.484992182696436347e-01
-1.939631945072615646e-02 -1.373240078157919597e-01 -9.024293776410113876e-01 -9.762957046238120995e-01 1.452675828958992221e-01 -1.604494515187797066e-01
-2.376667255953045232e-02 -1.026263184294076702e-01 -8.647986786507556589e-01 -9.693950080874069730e-01 6.154599291071623235e-02 -2.376665922081818427e-01
2.677297191573419291e-02 5.382493187202578439e-02 -9.774647560505838051e-01 -9.505227807375616900e-01 1.014595622394726254e-01 -2.936194825434912392e-01
-6.594821637037449544e-03 -2.479779741368766041e-02 -9.051322248862307962e-01 -9.836221359471074566e-01 7.382000173953567890e-02 -1.644326640848002841e-01
2.983730785027752588e-02 4.401325457093984567e-02 -9.893394595839281047e-01 -9.435947035665214200e-01 6.904299536078450927e-02 -3.238241809884173650e-01
-1.520740123570929123e-02 5.552237547068897966e-02 -8.098723760270434280e-01 -9.653488032790928930e-01 1.989358154789069022e-01 -1.688970968589028898e-01
6.190169048787356673e-03 -6.895673687470188495e-02 -9.695131735242722426e-01 -9.124894844297346541e-01 2.060202376565572757e-01 -3.534382583720845905e-01
-9.685901882558299245e-03 -1.483752248448629851e-01 -9.680199375633506964e-01 -9.741000976292469860e-01 1.771889855810650505e-01 -1.404744218263398181e-01
-9.546787343536838888e-03 -3.010643918273421885e-02 -8.907762387989945907e-01 -9.796504078917744884e-01 1.031163506289898973e-01 -1.721978413059779833e-01
1.699178992225870363e-02 -2.927366109190066359e-02 -9.774884243276139584e-01 -9.284129366080570156e-01 1.597265078745182254e-01 -3.354651424828149486e-01
-4.041674851516577176e-03 -3.489243702347426257e-02 -9.247403978934308766e-01 -9.844757800129507741e-01 5.728766729625687365e-02 -1.659082931732036581e-01
3.343805249450854805e-02 -1.621331507850176309e-02 -1.026246290359217994e+00 -9.521459553494695527e-01 2.063716783004259925e-01 -2.254524564228821137e-01
-1.339973417874617927e-02 -6.951470813950166860e-02 -8.944894160027911933e-01 -9.694544928529488237e-01 1.217666051920387876e-01 -2.129104979732985015e-01
-9.567341333181319379e-03 -1.151938709443453140e-01 -9.397530784005307947e-01 -9.737085051805408620e-01 1.320136084916747610e-01 -1.856452372458912981e-01
-7.022709280033221681e-03 -1.269908425769065985e-01 -9.630899675606973132e-01 -9.777219972182761287e-01 1.375443755933654089e-01 -1.585598968785500718e-01
-1.254047413747726505e-02 -1.762121928400296397e-02 -8.682287091879484775e-01 -9.770557898343601444e-01 9.371034095658462015e-02 -1.912599162107817830e-01
-8.663814773275010581e-03 5.850055240200514048e-04 -8.816479839069956137e-01 -9.860248431871718733e-01 5.679675855543905166e-02 -1.566178049753866042e-01
-1.467049354735148808e-03 9.547879872361803022e-02 -8.577064029987194749e-01 -8.694693855231870883e-01 2.956646858987456716e-01 -3.957339777556726501e-01
-1.393051206514672215e-02 -1.747036216535133857e-01 -9.771076895022844377e-01 -9.427691177814375711e-01 2.701417408494820593e-01 -1.954733496117080638e-01
-1.644631774985310518e-02 -9.535553369363099219e-02 -8.941086839658919372e-01 -9.716529638436789407e-01 1.066263753195587638e-01 -2.110007913255461109e-01
-1.541796590892262645e-03 -1.452833617018384205e-01 -1.008289543390896270e+00 -9.085640606927302132e-01 2.914640652914577967e-01 -2.992658454640519383e-01
2.322781846043313336e-02 -6.191835031171129961e-02 -1.022997888107144204e+00 -9.653603940508775905e-01 2.098839410353131041e-01 -1.550098090232339687e-01
5.913197642688997752e-03 4.945788221584492689e-02 -9.120334646632867193e-01 -9.310797232060988859e-01 1.865661946207229083e-01 -3.135021595766075975e-01
2.091636191090990443e-02 -6.655856107871528649e-02 -1.015984116836510243e+00 -9.594348966017681724e-01 2.201266648864543540e-01 -1.761503068084784296e-01
2.496600490334829545e-02 -3.278078462094401874e-02 -1.004539079457391848e+00 -9.529400710631645843e-01 1.727431627646063839e-01 -2.491285224140568078e-01
3.369519289196241246e-02 2.865908852913760796e-02 -1.003463446588173547e+00 -9.402611311743023226e-01 7.615492612567023589e-02 -3.318274136198139934e-01
2.590727583680390092e-02 -4.418914119677387620e-02 -1.017797721277095668e+00 -9.637807356550497362e-01 1.794273358145594688e-01 -1.973132655010822467e-01
2.215453795778820831e-02 9.324817131878783416e-02 -9.358322364858177034e-01 -9.529636127419625069e-01 2.156582150404310338e-01 -2.129598250266047932e-01
2.369399522762053161e-03 1.516008692801570912e-01 -8.187136724792708486e-01 -9.274442350682495784e-01 2.508886299905138118e-01 -2.773122539307495416e-01
1.168727890311900552e-02 -5.472960218098640167e-02 -9.758410254160234665e-01 -9.209890667623736871e-01 1.793790102599890079e-01 -3.458356684645452761e-01
-7.784038155233784229e-03 9.849580600864077384e-03 -8.837736876968715904e-01 -9.848806334524486950e-01 6.223116256431736326e-02 -1.616707155182930400e-01
-2.805731282383031565e-03 -8.824653668564559628e-02 -9.570245089232256586e-01 -9.874369339449897698e-01 9.494053061110431513e-02 -1.263115082983332638e-01
-8.539568801641162291e-03 -1.605641370539819812e-01 -9.972323053473628462e-01 -9.846396675755613170e-01 1.662742256493334736e-01 -5.326919298621272253e-02
-1.927043001545426792e-02 1.254106444834183522e-02 -8.289361786107214414e-01 -9.614994975479611572e-01 1.171385416911870786e-01 -2.485905836219062526e-01
1.760622901262917303e-02 -9.059486682581098516e-02 -1.028370030832012727e+00 -9.638869803559099170e-01 2.222736196306945022e-01 -1.466844474258770237e-01
-7.788798540528663918e-03 -8.897576013634957148e-02 -9.320195413259507733e-01 -9.724029062748315022e-01 1.190645661337520339e-01 -2.006395199347389136e-01
-5.623186445379635585e-03 1.036176093244833493e-02 -9.001430645359720373e-01 -9.958342596492878451e-01 2.033935314890418164e-02 -8.888440820660854780e-02
2.120152039482243317e-02 -6.050920739761458250e-02 -1.011372000580168073e+00 -9.620820498339696103e-01 1.918637093211862654e-01 -1.938722425536527350e-01
-1.296744522293855235e-02 -1.218275183968892394e-01 -9.265321538189980055e-01 -9.750196234160662945e-01 1.327134595933683880e-01 -1.781119636530669459e-01
-2.350859186034686202e-02 -3.915171836001007932e-02 -8.345687986774619205e-01 -9.556780253134277148e-01 1.370759960138041300e-01 -2.605564876372314376e-01
2.305070589064854396e-03 -1.300814971091159566e-01 -1.005667141649113638e+00 -9.157687253606565658e-01 2.755504308061305085e-01 -2.923005332425416269e-01
-8.632203301280349378e-03 4.818723198850802941e-02 -8.575758787357556923e-01 -9.844649860354840465e-01 1.197567983941227737e-01 -1.284017153644895215e-01
1.293640025326885448e-02 4.975198808333693157e-02 -9.337230709689788855e-01 -9.453715132761696394e-01 1.484440321890506398e-01 -2.902362334261200938e-01
1.231738387718878981e-02 4.618646564133610521e-02 -9.336536657183577281e-01 -9.382693683343226176e-01 1.607209295333913435e-01 -3.062994862147727648e-01
-8.574912770635489956e-03 -1.388847548022729321e-03 -8.829234968641576087e-01 -9.860248431871718733e-01 5.679675855543905166e-02 -1.566178049753866042e-01
1.737205018618591737e-02 -8.889594894087912702e-02 -1.024256803013994244e+00 -9.638869803559099170e-01 2.222736196306945022e-01 -1.466844474258770237e-01
-1.885763053982203105e-02 -6.878955037921874460e-02 -8.704171743300710418e-01 -9.643955864532871569e-01 1.331901177212219123e-01 -2.284765751030668757e-01
2.463094772612669722e-02 4.916927723588495475e-02 -9.721280842318457127e-01 -9.495009365530859835e-01 1.099462029368857424e-01 -2.938703863007869899e-01
1.740737946991130491e-02 -7.732444979467970048e-02 -1.010915109999909856e+00 -9.507341147467642806e-01 2.228442738183587790e-01 -2.155111892293637144e-01
-2.085486773183162570e-02 -1.978641129035581259e-01 -9.836470009261892855e-01 -8.796258914644250471e-01 3.748326151521418348e-01 -2.928460375071201272e-01
1.955374413363473660e-02 -6.852442452185124322e-02 -1.011353626366130909e+00 -9.527706083636573453e-01 1.948614150628811270e-01 -2.329317427016711073e-01
1.483584007187573398e-02 6.610116780804325964e-02 -9.298286862564879574e-01 -9.432681925823919178e-01 1.968495174287082095e-01 -2.673862082277849161e-01
-8.317546978849285361e-04 9.388776159442543956e-03 -9.147280202403121896e-01 -9.191223870203898416e-01 1.679611638673928209e-01 -3.563749221118843180e-01
-1.028236833280589402e-02 6.086660418298930897e-02 -8.314997083064640249e-01 -9.782647622767933759e-01 1.591170916556436665e-01 -1.329654317128256824e-01
-1.847760864384928939e-02 2.011014077064415817e-02 -8.273407351955840427e-01 -9.616692612460645551e-01 1.554813900496385404e-01 -2.258711343281393780e-01
-9.797985128196649851e-03 -1.703143861706011009e-01 -1.005260222333029363e+00 -9.908044636288266815e-01 1.351821221689555041e-01 5.684074162993428547e-03
-9.005409870785066259e-03 3.915174780226019641e-03 -8.782935535949670802e-01 -9.857377644694326202e-01 5.553755381426380561e-02 -1.588604413160586148e-01
-1.703755131548331803e-02 -2.091336882121983543e-01 -1.034965355921606323e+00 -7.953289404255109440e-01 4.885151301142433011e-01 -3.588939177125988200e-01
-8.272073217792871858e-03 -1.193144087624791252e-02 -8.891589554188191746e-01 -9.862938885952028389e-01 6.623623266790389097e-02 -1.511195778240429222e-01
-1.497459121512233551e-02 -1.883278256396375971e-01 -9.912985175810262728e-01 -9.333614252226141161e-01 2.904753506467071533e-01 -2.108566351175198694e-01
2.169433624184306450e-02 -8.289426592224138912e-02 -1.048107735110680006e+00 -9.701636365757080327e-01 2.199610079897676151e-01 -1.019787881391166495e-01
-3.683318320170125750e-03 -2.220476287935535965e-03 -9.134715102482574567e-01 -8.965053793503275914e-01 1.958291474325377368e-01 -3.974028809807124141e-01
-8.662189099433866349e-03 3.784272514240007851e-02 -8.653972146998377690e-01 -9.837777648986593126e-01 1.059092187276607644e-01 -1.447913902118984353e-01
-8.733368145895403431e-03 6.883194527330861734e-02 -8.344336752314162053e-01 -9.823099077594524831e-01 1.326391316124989617e-01 -1.321896587585353888e-01
-4.986908209605898576e-03 -1.081043822540423693e-01 -9.589247652037385938e-01 -9.748960564581051758e-01 1.364337809433900373e-01 -1.759644922134176448e-01
3.030871813461698955e-02 2.033466107339657880e-01 -7.845862631459487035e-01 -7.516233573090466136e-01 6.560948958923982222e-01 -6.783668868260149531e-02
1.792759839248956807e-02 -7.595639749911481386e-02 -1.011795469192208641e+00 -9.507341147467642806e-01 2.228442738183587790e-01 -2.155111892293637144e-01
2.096333565829363449e-02 1.621815419266913263e-02 -9.709087433890977170e-01 -9.383105521378261038e-01 1.017731883380198071e-01 -3.304777237308466620e-01
-4.301804794881352798e-03 5.226350486915529864e-03 -9.083876084444436616e-01 -8.980803514888873185e-01 1.948876693634780388e-01 -3.942974493953365633e-01
1.091339315948372177e-02 7.621658100020126114e-02 -9.076097522531051398e-01 -9.225536619721362852e-01 2.649543287168611982e-01 -2.805244097685593574e-01
-1.961254018717217829e-02 -1.709133990452189333e-01 -9.444961601311798738e-01 -9.289870796828728627e-01 3.167359527549192255e-01 -1.914715175025286376e-01
-1.791022372531739237e-02 4.094405566761877280e-02 -8.117813487900649161e-01 -9.573212755432793930e-01 2.095527208052962442e-01 -1.990568576946947776e-01
-9.206434676513757659e-03 -2.979995356064690099e-02 -8.925290072885252446e-01 -9.796504078917744884e-01 1.031163506289898973e-01 -1.721978413059779833e-01
6.311581103004866924e-03 -9.617354815498156684e-02 -9.883365326742473700e-01 -9.159345844691936245e-01 2.405582691007408791e-01 -3.212406514445224626e-01
-1.061084861667057483e-02 2.313679881285581399e-02 -8.620083371738239686e-01 -9.802559907419309271e-01 8.947315714461280545e-02 -1.763313550255052875e-01
-1.887220270339850028e-02 -1.320599105725580868e-01 -9.012767013902404090e-01 -9.768657628528807368e-01 1.174786708822813525e-01 -1.786953923681067480e-01
2.659448330916951153e-02 -3.557991409187198639e-02 -1.013103781330471964e+00 -9.563133123449220063e-01 2.046067076132508378e-01 -2.088083902326459962e-01
1.858787579573851698e-02 -2.474132595446534508e-02 -9.797991357561858239e-01 -9.390691524587653216e-01 1.467159833686195181e-01 -3.108432838659291875e-01
2.421991690094708535e-02 6.347745451683102502e-02 -9.651016020569371801e-01 -9.539230114813889161e-01 1.245760222057885336e-01 -2.729683184138056995e-01
-1.551506085598715681e-02 -1.892562306551119344e-01 -9.902904283068096891e-01 -9.260662278233134925e-01 3.086742036004917478e-01 -2.170750508849441929e-01
5.428871605884284628e-03 -1.147432011819297798e-01 -1.001363223700020288e+00 -9.277974528612890071e-01 2.568770308842421302e-01 -2.705662164206763531e-01
2.777884597236082026e-02 -5.029553801600400442e-02 -1.035753033797871314e+00 -9.660624509907841384e-01 2.206413644530752227e-01 -1.343157811947794933e-01
3.449921337519020002e-03 -1.280549043043734125e-01 -1.007420759570490487e+00 -9.269689023612569523e-01 2.652185342782683586e-01 -2.653069601997903870e-01
-2.349819423061207113e-02 -8.758535071168202513e-02 -8.608408126816189387e-01 -9.604928544593834827e-01 1.088929376455565756e-01 -2.561167793475980781e-01
2.982541182008008676e-02 -1.714216822355300526e-02 -1.012124149784155103e+00 -9.516095986160291176e-01 1.662609251841535019e-01 -2.584501433134624993e-01
-1.245794700720543810e-02 -1.944596595934457162e-01 -1.027609193217190242e+00 -8.057491510640598653e-01 4.023525876476390928e-01 -4.346040735805357658e-01
-3.819569211211179278e-03 1.145332910676942900e-01 -8.384971349422933873e-01 -7.694059877312000584e-01 3.877075298472545950e-01 -5.076389438795217979e-01
-9.968844915939802445e-03 -1.702820107828482421e-01 -1.000008256246845972e+00 -9.884064208789539174e-01 1.469828314880290698e-01 -3.806303210488804628e-02
-1.878490972218238228e-02 -1.545832831347032921e-01 -9.243397227779966974e-01 -9.600534653864120083e-01 2.308773865885211107e-01 -1.580916694882941453e-01
-7.492486620585156638e-03 -4.667308061252937318e-02 -9.107667019053393709e-01 -9.778576885679027830e-01 9.906317370810158174e-02 -1.843388958508666853e-01
-1.188772406732393344e-02 6.753844041006770715e-02 -8.149810130590565693e-01 -9.711127784699943311e-01 1.720084141146084877e-01 -1.653876566315174712e-01
2.727976953844193919e-02 4.158417308999836498e-02 -9.823323335164467762e-01 -9.480259376877880895e-01 7.274520683823341993e-02 -3.097659702957260008e-01
4.791914792177683242e-03 -7.456743708102921142e-02 -9.692507827257422770e-01 -9.038828835420448238e-01 2.149284981058073307e-01 -3.698668321730135822e-01
-7.787151708504785191e-03 8.498378047466056268e-03 -8.842506261770203269e-01 -9.857377644694326202e-01 5.553755381426380561e-02 -1.588604413160586148e-01
8.939143145713701610e-03 -1.041817280313746819e-01 -1.003448837692968665e+00 -9.280260387510597120e-01 2.455897208056158076e-01 -2.800952702825166840e-01
2.933139526893265101e-03 -1.673821651499997620e-01 -1.048005765513611021e+00 -9.514112918255099860e-01 2.334231796825855521e-01 -2.008237360816339523e-01
-5.852861994679748291e-03 -8.746528413600939897e-03 -9.037479547782389933e-01 -9.882576775322104989e-01 5.806363198823386029e-02 -1.413342755278283458e-01
-8.486605263486473455e-03 -1.140567103992775194e-01 -9.446367885254559615e-01 -9.730396808606661674e-01 1.364938633612365892e-01 -1.859118197837270614e-01
1.328831459422919262e-02 -7.950591705513181118e-02 -9.968236370132155244e-01 -9.366667968115897080e-01 2.261407337286120700e-01 -2.674241580325181222e-01
-2.011220649800107146e-02 -6.987904602682376565e-02 -8.657831660239191374e-01 -9.622764326182990935e-01 1.371859263637603688e-01 -2.349555039472729367e-01
-1.642151518616638030e-03 -3.735492892587334319e-03 -9.189565391988879783e-01 -9.100013584528020560e-01 1.756516293931466577e-01 -3.755582946835118729e-01
1.557004578690350007e-02 8.509483207455847617e-03 -9.586323722535500247e-01 -9.289325859601814672e-01 1.225591394143281804e-01 -3.493758836659298095e-01
-1.027149651239757031e-02 -3.686699098508616074e-02 -8.907016838412599169e-01 -9.796504078917744884e-01 1.031163506289898973e-01 -1.721978413059779833e-01
2.720809711580299620e-02 1.996317625149811592e-01 -7.868975303377109265e-01 -7.324385595017053330e-01 6.750854961562753331e-01 -8.827983594514797472e-02
1.017751233770272136e-02 6.794644455373141656e-02 -9.122909345324110575e-01 -9.337547505685286353e-01 2.251382423428190671e-01 -2.782352199587444508e-01
-1.933935468601719748e-02 -1.117348206693192202e-02 -8.382779732078466939e-01 -9.611450581053776476e-01 9.046088557530550245e-02 -2.608007006519376669e-01
2.313242047689487157e-02 1.048656558976397979e-01 -9.280584015988789792e-01 -9.515491862134947132e-01 2.267193295088129334e-01 -2.077317786076797457e-01
1.019021019574395566e-02 -3.496551568233841056e-02 -9.621096565217204244e-01 -9.198452582029694735e-01 1.663871465015458184e-01 -3.552464193212729326e-01
2.093492450042254774e-02 6.377887322722969321e-02 -9.533441805376907663e-01 -9.537950912089315780e-01 1.520005933454466884e-01 -2.591731923027105200e-01
1.113968297642512449e-02 3.491214833746669743e-02 -9.357956725693443722e-01 -9.375424101092283413e-01 1.418717997850236778e-01 -3.176265443446713022e-01
4.587237369379964201e-03 3.613438717462632427e-02 -9.158909055340186400e-01 -9.276351919697481963e-01 1.768334871874209235e-01 -3.289724432659746345e-01
2.800196748423071369e-02 -6.084359690898865150e-03 -9.993878028456123497e-01 -9.452606463358117495e-01 1.441303379857266920e-01 -2.927605782220748520e-01
-1.241718121976912066e-02 6.376823140663979983e-02 -8.157949064940456241e-01 -9.662606223675526129e-01 1.845328102474695642e-01 -1.796887631546304487e-01
-3.206000820034666122e-03 7.332078368044656069e-02 -8.701056508501360254e-01 -8.737139558493074443e-01 2.775293944996936601e-01 -3.995013874103416907e-01
-1.164032417782450562e-02 -1.511136024099050783e-02 -8.715974076371006962e-01 -9.770557898343601444e-01 9.371034095658462015e-02 -1.912599162107817830e-01
1.895723732983283991e-02 8.784547233519597598e-02 -9.273557432975090276e-01 -9.506950946025102267e-01 2.195164876254110387e-01 -2.190692784470861243e-01
2.855040604170850510e-02 5.665589540975750349e-02 -9.822886664631295117e-01 -9.520273810150413629e-01 9.120193298379215829e-02 -2.921062704182521008e-01
-4.483507162532487759e-03 -1.920864640241407850e-01 -1.048080765123286850e+00 -9.233968572015709420e-01 3.576727764746807092e-01 -1.393141381165404480e-01
1.567051817257569118e-02 1.196090932426299297e-01 -8.844014778278099786e-01 -9.272807973230062784e-01 2.585574707579761378e-01 -2.707366935442034883e-01
1.457197137151036194e-02 5.617944850651853360e-03 -9.569929935160466083e-01 -9.289325859601814672e-01 1.225591394143281804e-01 -3.493758836659298095e-01
3.121375719362552703e-02 -5.710931779404545931e-03 -1.009838592575978744e+00 -9.474611819320322148e-01 1.716823262518414051e-01 -2.698934745130251445e-01
-8.124661748223849234e-03 -1.528221601609712210e-01 -9.859043168035098725e-01 -9.793227121713320438e-01 1.724988699857421814e-01 -1.056937333952600866e-01
1.706693680851273029e-02 -5.311719774949404116e-02 -9.904581394500885372e-01 -9.315384896979184148e-01 1.951558858853286726e-01 -3.068390822819572761e-01
2.080263584123089732e-02 9.057362173039844311e-02 -9.326305018013572035e-01 -9.506950946025102267e-01 2.195164876254110387e-01 -2.190692784470861243e-01
-8.083265322192990238e-03 -2.392132366205223376e-02 -8.959836600503512383e-01 -9.830975830500066071e-01 7.332507755346763523e-02 -1.677574892605775692e-01
1.180481447621613798e-02 3.183887660767449612e-02 -9.391413853203982587e-01 -9.363545995425268664e-01 1.474963827353962809e-01 -3.185669176099861222e-01
7.314722670524115462e-03 -1.365527825475456314e-01 -1.031611782561640211e+00 -9.497967683408286010e-01 2.427200394475650391e-01 -1.974160107485987137e-01
-9.782803484887466622e-03 -2.344122103860497505e-02 -8.857364394769192684e-01 -9.814622020394023760e-01 8.618729527121159195e-02 -1.711832237744123353e-01
1.188434115920438371e-02 -1.306003469927631833e-01 -1.051867720555345276e+00 -9.703713075297034640e-01 1.997858713619475035e-01 -1.358864641060354983e-01
-5.349279955052095754e-03 -1.054706077191627511e-01 -9.548750242895936990e-01 -9.748960564581051758e-01 1.364337809433900373e-01 -1.759644922134176448e-01
3.029108594217399045e-02 5.319780662391499805e-03 -1.001181470728582656e+00 -9.411486196604103016e-01 1.399823080733136049e-01 -3.076430222478189758e-01
-5.031996194745614985e-03 -1.290314085894206098e-01 -9.797720690715744363e-01 -9.872378102269870892e-01 1.359794480026585706e-01 -8.289207307768023392e-02
4.912091480392608879e-03 5.099564333599305999e-02 -9.079365094598341734e-01 -9.277190492553937240e-01 2.076552666536878589e-01 -3.101880975789593764e-01
-1.419097994744323438e-02 -1.168800604160834949e-01 -9.168761902858180157e-01 -9.755138284393984893e-01 1.166798276454945604e-01 -1.864365531330306747e-01
-1.072782815591755146e-02 -4.971829150722531510e-02 -8.957918902263724004e-01 -9.718976993349649485e-01 1.205253974232842890e-01 -2.022090270076033480e-01
-1.063608566228180230e-02 8.013925111228513420e-02 -8.088207727766437705e-01 -9.724254874725084541e-01 1.780517980744008300e-01 -1.506194825257587133e-01
-2.057043637249118470e-02 -5.434078432547415072e-02 -8.545825215882411063e-01 -9.595687014561335992e-01 1.494509934704606746e-01 -2.385210844694484744e-01
-4.057363684043885366e-03 1.124736682194093368e-01 -8.309064970052701948e-01 -9.947044185921811721e-01 9.833099644889277402e-02 -2.990208639139598293e-02
-2.078209696429082765e-02 -2.149123203165871632e-01 -1.004183812523816277e+00 -8.968914015459548139e-01 3.472578295815373361e-01 -2.738572869712485591e-01
8.264172327125613240e-03 6.420969133544965346e-02 -9.088934341266876604e-01 -9.337547505685286353e-01 2.251382423428190671e-01 -2.782352199587444508e-01
-1.422775196881538584e-02 -1.188034559848531596e-01 -9.178875254823845031e-01 -9.755138284393984893e-01 1.166798276454945604e-01 -1.864365531330306747e-01
-5.568671836159962314e-03 -2.771618288331431212e-03 -9.040476914074030423e-01 -9.921970125686473407e-01 3.352182922824929051e-02 -1.200890303693199074e-01
-2.054996365105579009e-02 -8.070793246035919133e-02 -8.696276800956667108e-01 -9.620552327339668697e-01 1.203694546293698764e-01 -2.448691968407233632e-01
-5.262710811456917590e-03 -2.995731503346704336e-02 -9.153895171440865619e-01 -9.834099625379545406e-01 6.607525646604120451e-02 -1.689346206792604888e-01
-1.522280442827280041e-02 -1.532020968431742867e-02 -8.555138103010080375e-01 -9.684569409916981009e-01 9.112264381128939994e-02 -2.319220067821146924e-01
2.440534429205772418e-02 4.829795593974568757e-03 -9.842622884109872849e-01 -9.363701386886710276e-01 1.162436159692958743e-01 -3.312074653725993745e-01
2.107869120808985447e-02 1.037765242924371251e-01 -9.200369370007752678e-01 -9.502376422605177675e-01 2.272099136631585692e-01 -2.131292527185141839e-01
-5.833291920737072520e-03 1.028762101744322977e-01 -8.210352040357310477e-01 -9.878966550581053108e-01 1.279448808799797388e-01 -8.769439196216910481e-02
-1.556100317231403143e-02 -1.712902122910427705e-01 -9.646784197725181143e-01 -9.265569992014968115e-01 3.037861742236009910e-01 -2.218244521717685214e-01
1.929288612870825800e-02 -8.853716061997311815e-02 -1.037738783102867934e+00 -9.683246287709087463e-01 2.205822807202071079e-01 -1.170079943762537683e-01
-1.350236195633084356e-02 -1.847993287884052149e-01 -9.940287405137898658e-01 -9.588590048219695072e-01 2.368116523875558321e-01 -1.565555817123664983e-01
2.713759227799345409e-03 -2.891672176326204671e-02 -9.408874666391863206e-01 -9.100219431018039540e-01 1.671318917218700684e-01 -3.793771129663544017e-01
-1.597379513745921138e-03 -1.261466142187880890e-01 -9.906242357773700213e-01 -8.943850998510077810e-01 2.875545303208839609e-01 -3.426188629606356506e-01
2.374842082202287957e-02 -1.615727019914715845e-02 -9.910731087511795989e-01 -9.417287241380142282e-01 1.644151616114136738e-01 -2.934530026523508028e-01
-1.362717462276191727e-02 -1.687699904394730221e-01 -9.707605543118897895e-01 -9.441820258341505623e-01 2.604542332877499144e-01 -2.017024899554036022e-01
-1.560868739929120383e-02 -1.051250017781332757e-01 -9.029240079254281515e-01 -9.750428935713498779e-01 1.050207741167387826e-01 -1.956067296897786023e-01
2.725363386684264561e-02 -3.637968034745233531e-02 -1.016906272181880233e+00 -9.563133123449220063e-01 2.046067076132508378e-01 -2.088083902326459962e-01
2.716306888406801526e-02 -5.137721477638172024e-02 -1.033100951639657872e+00 -9.660624509907841384e-01 2.206413644530752227e-01 -1.343157811947794933e-01
1.094161559355722249e-02 1.008506312532193999e-01 -8.849088263245100672e-01 -9.214398864096193797e-01 2.454853061056466168e-01 -3.011403331001095141e-01
