1.671083618838355850e-02 -1.960725919652612226e-01 -8.455787505650181890e-01 -1.652766809651986801e-01 5.804674682081927273e-01 -7.973337676789429285e-01
-6.294602964062120942e-02 4.679129810357398472e-02 -6.854683833303208962e-01 -2.680498548631566891e-01 4.594102762645475013e-01 -8.468125373247450405e-01
8.330822082231797987e-02 -5.743966279709777217e-02 -7.761491862685891974e-01 -2.346486121404161573e-01 4.834292927209513646e-01 -8.433481770656156007e-01
-1.936007435938401702e-02 -1.808340205451262617e-01 -8.242924854613722374e-01 -2.842706215436887063e-01 5.467026897472918590e-01 -7.875953166126885563e-01
-9.246972204698054301e-04 6.840747888437238855e-02 -6.973781076471552431e-01 -6.648199629412369915e-02 4.945217445849562354e-01 -8.666189406546566110e-01
2.296156235062625853e-02 -6.475130827550013013e-02 -7.664868254955478077e-01 -1.257270924329159378e-01 4.390864159348000229e-01 -8.896043039295036259e-01
-3.253462807386338362e-02 1.399242619441195927e-02 -7.121810841315594498e-01 -3.510166758722885749e-01 3.976464286014088079e-01 -8.477408867573353879e-01
1.022813075578649609e-02 9.754316294023286649e-02 -6.810391135468110146e-01 -6.395343401934749927e-02 5.111599181693786687e-01 -8.571029671715103548e-01
-7.029449798041213088e-03 1.096245870226085911e-01 -6.731358451006349553e-01 6.623361528998972236e-02 5.212249944823511560e-01 -8.508452346534537414e-01
7.962821421943443168e-02 1.406109963928448350e-02 -7.426162015364695668e-01 -2.178806382145178355e-01 3.647247454151665291e-01 -9.052645401058612151e-01
-1.690646301467153487e-02 -4.363643900056318053e-03 -7.277296634729322200e-01 -3.851094929013796908e-01 3.949507150219369045e-01 -8.340890906737139510e-01
6.454203874810771936e-03 1.070677273358972004e-02 -7.285661960601034215e-01 -1.500441580297104949e-01 4.329668936192301310e-01 -8.888343038333239576e-01
-4.030842487886924196e-03 4.587046534482940030e-02 -7.094968805506297604e-01 -2.779814797428873524e-02 4.669715402910342705e-01 -8.838353033950493431e-01
6.340453513184256262e-02 -3.467306855216598094e-02 -7.594742057083120335e-01 -2.023000913328677486e-01 4.114613346421201467e-01 -8.886924345020826843e-01
-7.609556358327210224e-02 -1.301696874699937723e-01 -7.704212416418804166e-01 -3.118743130645809103e-01 5.221979935910862070e-01 -7.937529013111950249e-01
-2.701775720893973692e-02 -1.264544633847671518e-01 -7.863020453995622772e-01 -3.169647774538488227e-01 4.657843160051113318e-01 -8.261829705442268468e-01
-6.981319110954391227e-02 -4.184288101062186294e-02 -7.270585058202816420e-01 -2.767554149208888425e-01 4.399418928736035794e-01 -8.543170203190133538e-01
2.629351362688943025e-02 -1.571820103686243919e-01 -8.218734234263436189e-01 -1.969832531484776161e-01 5.353691568075130691e-01 -8.213266487325584508e-01
-5.057550886726403655e-02 -1.510488224511720434e-01 -7.935962069647933825e-01 -2.522354172254036020e-01 5.605336378162127930e-01 -7.887834526494895693e-01
3.390893048729333448e-02 4.654865978104699709e-02 -7.155085703434297395e-01 -1.851289117849822530e-01 4.769253395931781769e-01 -8.592261090511857935e-01
1.233738658213306104e-02 1.396589366235982399e-01 -6.554498974052280769e-01 -9.671679139967773176e-02 5.341291557886681529e-01 -8.398523127299439839e-01
5.851516403342295509e-03 -1.434828462161553408e-01 -8.094573835154327268e-01 -8.241756870171007554e-02 5.372486613929017274e-01 -8.393874076973242282e-01
-2.871184526042900795e-02 -2.755000338043954444e-02 -7.341514299912933472e-01 -3.283015182150363920e-01 4.244480847204532559e-01 -8.438376244958748496e-01
-1.859938611095674627e-02 -2.098048238458924686e-01 -8.457373503845554419e-01 -2.826550983590500055e-01 6.873719184026866325e-01 -6.690485342357804788e-01
8.779541797770949729e-02 -8.538493067827113148e-02 -7.952452675743001409e-01 -3.116962520706831885e-01 5.400956055993314520e-01 -7.817558335294854110e-01
-5.620718732877397900e-03 7.555610029073978051e-02 -6.931679231355053483e-01 4.426468775933898453e-02 4.950279518090331954e-01 -8.677487910365082602e-01
1.388021035366356895e-03 7.640854154332755999e-02 -6.929267155854231808e-01 -9.398368446300653378e-02 4.977777314542869980e-01 -8.621974235191043334e-01
5.708569649672531887e-02 -2.344595051622684265e-02 -7.531589432628499337e-01 -1.791597431867977264e-01 3.929835867119467752e-01 -9.019233265617728756e-01
7.244511638440971624e-02 -1.028042414600931070e-01 -8.011257513286265119e-01 -3.155430401274826879e-01 5.450663199448704255e-01 -7.767466103491291740e-01
-2.356269775540290393e-02 5.415232281424842142e-02 -6.960866474000783066e-01 -3.670328938057144108e-01 4.363586280474865409e-01 -8.215095876452802592e-01
1.091072200101697587e-02 -2.207722774596594661e-02 -7.446179877658259949e-01 -1.290853602706954761e-01 4.134660283299365635e-01 -9.013228129703877434e-01
-2.644475937949240796e-02 -1.794269190883768794e-01 -8.210206133815485252e-01 -2.086132808980301345e-01 5.725785358783910262e-01 -7.928646285995596399e-01
-1.673576644993651774e-02 1.760036518784472148e-01 -6.157878399377710865e-01 -3.098307873947355739e-01 7.558342044995544073e-01 -5.768184623353208584e-01
4.261994405719071038e-02 5.556638607496482835e-02 -7.123586066244564918e-01 -2.108001720893830644e-01 5.065041878812890364e-01 -8.360722427552551572e-01
7.673493596429376007e-02 -8.597692558221854686e-02 -7.913862107322822137e-01 -3.003385057429466820e-01 5.255211543729335633e-01 -7.960052124669996232e-01
-3.150064774942752926e-03 -1.971879364838056148e-01 -8.453135507005721250e-01 -6.758259215618737104e-01 4.782496681266555361e-01 -5.608356075373497340e-01
-3.221683639020476303e-02 -6.506823777247180973e-02 -7.518128260465015700e-01 -3.077863652737275468e-01 4.303025471834429072e-01 -8.485913452534313839e-01
-3.968849777413702845e-02 6.822893651645824120e-02 -6.809325331969471318e-01 -3.322501102010432805e-01 4.908140898840631094e-01 -8.054262184971839877e-01
-2.753930715762042004e-03 -1.871779177623458523e-01 -8.378209019765248122e-01 -5.886340387382452688e-01 4.754551421731014194e-01 -6.537984217018713018e-01
5.367273217825148379e-02 1.170714629533885914e-02 -7.373210977858185577e-01 -2.060252776465821833e-01 3.872114453434855053e-01 -8.986772955659099171e-01
2.287842117721056168e-02 1.177692846580896679e-01 -6.704304326183458951e-01 -1.327108338879934568e-01 5.070472239638359468e-01 -8.516401512606840418e-01
-8.892160208085540807e-02 -6.887210980792700388e-02 -7.338434197092069677e-01 -3.021654290122655628e-01 3.757320553043937972e-01 -8.760830303838612609e-01
1.533987919982203636e-02 9.693907802788807870e-02 -6.819153269268776185e-01 -8.753612665285508132e-02 5.057922825763668806e-01 -8.582025363612042490e-01
-6.801125194659157769e-02 2.969142393959381052e-02 -6.926903183316754919e-01 -2.529993726314834768e-01 4.193289676436983693e-01 -8.718684157273653978e-01
5.113867774125256671e-02 -9.090595370048878965e-02 -7.860401888347863242e-01 -2.418380126200582458e-01 4.895860624507344938e-01 -8.377468968047365738e-01
3.710271424748644992e-02 -8.953780440320894055e-03 -7.429998587739087279e-01 -1.602542423840773445e-01 3.977307318656052026e-01 -9.033984960843999268e-01
3.112201340642814160e-02 -1.020794268468321886e-01 -7.879895019907181553e-01 -1.668773668642392904e-01 5.034310237505774666e-01 -8.477671547977685407e-01
-5.361623101063495156e-02 -5.582230355458635274e-02 -7.395140920111293870e-01 -2.957397014713032402e-01 4.352055171599362171e-01 -8.503729692359799364e-01
-4.035524680001655040e-02 -1.160169879506706136e-01 -7.753805014056389666e-01 -3.130149228332203548e-01 4.525530046457576505e-01 -8.349954706882007915e-01
-8.957509148877776384e-02 1.315336219020833697e-02 -6.941046270961754860e-01 -2.450721706410708967e-01 3.926036644867070269e-01 -8.864547330850475193e-01
-3.853178041953461003e-02 4.399053494091002825e-02 -6.954070167924109036e-01 -3.182628661519893432e-01 4.512275084760718480e-01 -8.337280633535117946e-01
-1.057960923693894960e-02 1.621788909837448833e-01 -6.361730351041825493e-01 -3.650291069295682478e-01 6.781231187946664685e-01 -6.378893217874057608e-01
-1.489901305374049384e-02 1.158920842803597001e-01 -6.649659110008599994e-01 -4.551972982599811202e-01 4.654320410540885300e-01 -7.590575965083539156e-01
-3.177219705911504127e-02 -6.353360957549281096e-02 -7.511959207463310140e-01 -3.077863652737275468e-01 4.303025471834429072e-01 -8.485913452534313839e-01
-6.724987302302153080e-02 -1.435672761577598544e-01 -7.830181013650631128e-01 -2.464938156072428166e-01 5.587782223897922451e-01 -7.918381760500604605e-01
3.261096955830747324e-02 -8.978932758174595907e-02 -7.811838771152221916e-01 -1.595273890783624748e-01 4.838280653057150937e-01 -8.605006771388208353e-01
2.552322798671708207e-02 -1.275280224808255369e-01 -8.025234815453842208e-01 -1.750584777153662563e-01 5.268707133243092366e-01 -8.317221776657829357e-01
8.910445540848641044e-02 2.746314133612779915e-02 -7.393302755480307686e-01 -2.402035648018909231e-01 3.832162168778567302e-01 -8.918786792934828567e-01
-1.702996078399411292e-02 5.410482210251382762e-02 -6.990515504052426943e-01 -3.787857010036838057e-01 4.342710471401157180e-01 -8.172698760696952558e-01
-5.191143099618264478e-02 9.455668481081047627e-02 -6.602384214774915661e-01 -3.204766966727015665e-01 5.007815323365568672e-01 -8.040600374103935577e-01
5.679755650251562538e-02 7.973121784763835540e-02 -7.010582606890658486e-01 -2.321634651486264023e-01 5.220376445038223956e-01 -8.207172614068033445e-01
5.453178932188764566e-02 5.760967702662606743e-02 -7.142071441222689332e-01 -2.294337066560032945e-01 5.029151951890230565e-01 -8.333285550718120271e-01
6.917257371525140086e-02 -5.254645870952232706e-02 -7.695313636706604399e-01 -2.187107678931124732e-01 4.308367736490097410e-01 -8.755257132028261280e-01
-7.707485125460174398e-03 -1.326346036236287773e-01 -7.980295292004261354e-01 -3.672486093210897140e-01 4.795284205847029635e-01 -7.969824043247540901e-01
-4.007993924204842490e-03 1.198145382333840325e-01 -6.666719412676037626e-01 7.422414548396248125e-03 5.333420116941758327e-01 -8.458671327840333598e-01
-7.207741794363999033e-02 -5.641584272138851219e-02 -7.336055050601393290e-01 -2.686090374997672225e-01 4.238633672460955237e-01 -8.649792083514205032e-01
3.724758134607006332e-02 -7.094444169954787494e-02 -7.718699732343827780e-01 -1.480992277879185914e-01 4.594505030221261443e-01 -8.757692926800627609e-01
3.549923577533199009e-02 -2.366497603489315163e-02 -7.492291389305906213e-01 -1.530166197037370890e-01 4.019882024297196099e-01 -9.027687407092498395e-01
5.811531066722250283e-02 -1.968059445169063199e-02 -7.517159307368566079e-01 -1.816327247727888283e-01 3.949166344960844954e-01 -9.005833693167437648e-01
-4.860428448466322209e-03 7.048584540121925757e-02 -6.960215875907509453e-01 4.426468775933898453e-02 4.950279518090331954e-01 -8.677487910365082602e-01
4.079899142267853773e-02 -6.944573945737689269e-02 -7.717732832651442720e-01 -1.754893392619947534e-01 4.649167652074516210e-01 -8.677879310260242507e-01
-5.411997935767488138e-02 -5.846882721133319499e-02 -7.406600425997789117e-01 -2.954026065095763931e-01 4.241468490707406280e-01 -8.560588475628942984e-01
-2.015714772910420782e-02 -1.473991150166449778e-02 -7.313233524852301715e-01 -3.566078092978645642e-01 4.073830711110171254e-01 -8.407555552715268998e-01
3.250687560913067403e-02 1.266980931247991271e-01 -6.662473458860321829e-01 -1.016219279548461335e-01 5.466125254158005209e-01 -8.311965656914740430e-01
-7.154840607942508819e-03 -8.461648901800500333e-02 -7.709807966788668754e-01 -3.374010827538077018e-01 4.299650637815116694e-01 -8.374309244850699496e-01
1.962166080936351628e-02 -1.400206851992940871e-01 -8.093147538346024961e-01 -1.448370819399702469e-01 5.340007211863772030e-01 -8.329858639061910042e-01
-6.381644517468142153e-02 -1.390216937515721396e-01 -7.808792126666742606e-01 -2.464938156072428166e-01 5.587782223897922451e-01 -7.918381760500604605e-01
-3.203411378376355700e-02 -8.914838899564109242e-02 -7.642076375554923695e-01 -3.063447330506791633e-01 4.361875519600577622e-01 -8.461047949558021530e-01
-2.825466981190919921e-02 -1.098548168446791123e-01 -7.765970811176595712e-01 -3.166315565091006867e-01 4.514802651765112973e-01 -8.342122197491301794e-01
8.946860551412369814e-03 2.406028075826559948e-02 -7.224252131408471778e-01 -1.503917595193827728e-01 4.431493862889880897e-01 -8.837425756974467417e-01
-2.808677998430702052e-02 1.183296377150866024e-01 -6.563741993547910214e-01 -3.917080505945658708e-01 4.884211361805903540e-01 -7.797497013987668701e-01
3.346304900041562058e-02 -9.940838662093692824e-02 -7.868641709911127213e-01 -1.668773668642392904e-01 5.034310237505774666e-01 -8.477671547977685407e-01
-1.178295371110432178e-02 1.175660282680780766e-02 -7.224554683489360363e-01 -3.907625172643806044e-01 3.945859445655729436e-01 -8.316288760333535590e-01
6.573423655120387565e-02 -1.190024752703966182e-01 -8.096934144850441717e-01 -3.258179568583486896e-01 5.448346080699473237e-01 -7.726563976554636781e-01
1.994023545491000957e-02 -1.218345719493776347e-01 -7.978671967699599854e-01 -1.428442366180759648e-01 5.252558966160115750e-01 -8.388693385355724397e-01
2.297571599551965355e-03 2.034066046960828211e-01 -5.813750852989740814e-01 -3.332454032980143310e-01 8.370586466187209806e-01 -4.339128061046125251e-01
5.277344559569161625e-02 -8.181417146089425829e-02 -7.811513981370324933e-01 -2.278359541744200967e-01 4.996126481827770083e-01 -8.357499505002822238e-01
-5.011665361444730266e-02 -7.165880067075255933e-02 -7.487010659460104911e-01 -3.050057721724654392e-01 4.301803257398860159e-01 -8.496566166915923146e-01
2.699239562152945526e-02 -9.838604851754735245e-03 -7.415957178725369747e-01 -1.603799380832765242e-01 4.006513544940546456e-01 -9.020846787317052806e-01
-7.410890871533951096e-02 1.095870411022872339e-02 -6.994127592222817436e-01 -2.527908616378406470e-01 3.931977021721209664e-01 -8.840205581766537035e-01
-5.914896392178225874e-03 4.195293458707562845e-02 -7.108535754327872658e-01 -4.753716650291004986e-01 3.932207470795275328e-01 -7.870192018964206060e-01
-6.089974168405123955e-02 -9.725946290406745076e-02 -7.574702383530103056e-01 -3.267684590032223779e-01 4.389989939864769597e-01 -8.369601289664404531e-01
-4.964437333687199416e-02 9.837945940153565438e-02 -6.587611241212844027e-01 -3.204766966727015665e-01 5.007815323365568672e-01 -8.040600374103935577e-01
6.403940231965336849e-02 -2.231715585232994792e-02 -7.540678148464351471e-01 -1.934016988190097319e-01 3.914177323634158712e-01 -8.996599033442592708e-01
-7.713506476049053484e-02 -3.353050553381119181e-02 -7.204718009770074705e-01 -2.600103990484800565e-01 4.503431512895025302e-01 -8.541578533697915532e-01
-1.291850006650139063e-02 -8.508930771125257364e-02 -7.690676286002968709e-01 -3.134596158965154977e-01 4.351415636506691942e-01 -8.440348860003710207e-01
7.052319660782777055e-02 -1.009778944081803631e-01 -7.990752473089423047e-01 -3.156154667786232326e-01 5.391492671758360000e-01 -7.808360550293965696e-01
4.735176097493152408e-02 -9.531712350738036355e-02 -7.875899202385581166e-01 -2.540016322777633451e-01 5.100239927311351895e-01 -8.218021036957880998e-01
7.389926276126877747e-02 2.109544312566275295e-02 -7.381067640696608034e-01 -2.298093360040083799e-01 3.986011300968012594e-01 -8.878653097012798590e-01
3.801511870915973146e-02 1.001737942170493612e-01 -6.836082668840381960e-01 -1.813302356715355002e-01 5.064963527607088123e-01 -8.429595424878971732e-01
5.864448465405491806e-02 8.137259946097606667e-02 -7.005366757636032338e-01 -2.321634651486264023e-01 5.220376445038223956e-01 -8.207172614068033445e-01
2.698759811634335315e-02 -1.102461019796113356e-01 -7.920762114288981692e-01 -1.670846528992956381e-01 5.179862042188398963e-01 -8.389118016838721381e-01
-6.423164907172443372e-02 -1.729798737548445334e-02 -7.159680950989065762e-01 -2.688773535109622026e-01 4.455901653829717479e-01 -8.539053655311676927e-01
-9.445637400669540731e-03 -1.663392568298311391e-01 -8.189775973535502462e-01 -3.722385556920604355e-01 5.203098210625214382e-01 -7.685806058977651123e-01
2.251361401415382518e-02 -6.248261010687552325e-02 -7.653023231501548951e-01 -1.271047178361116581e-01 4.398629811891536789e-01 -8.890247175884326003e-01
-2.713398905608859976e-02 -1.595748588270877732e-01 -8.068931393402386520e-01 -2.919381616989770722e-01 5.325468657142116147e-01 -7.944595304745177833e-01
-5.280942328623715321e-03 1.072237281914829310e-01 -6.744978087196058514e-01 7.612625308385847708e-03 5.209059389748610380e-01 -8.535801372317847191e-01
2.600469418529351845e-02 3.132538837745532656e-02 -7.219616741532581816e-01 -1.776116021975867598e-01 4.401879520342800167e-01 -8.801640106529422525e-01
6.179384324492822461e-02 2.269134268949146282e-03 -7.432083408556569015e-01 -1.999801369721823097e-01 3.774441937477757136e-01 -9.041813011905734943e-01
-7.003971718021123616e-02 -1.292586750544336138e-01 -7.721482033322795147e-01 -2.839060298853524622e-01 5.168848479569996268e-01 -8.076059807524995637e-01
5.575588742553086452e-02 -2.064058358748611238e-02 -7.516610409894954881e-01 -1.816327247727888283e-01 3.949166344960844954e-01 -9.005833693167437648e-01
-4.935712673155050884e-02 2.139300384881287140e-02 -7.024090509688578621e-01 -2.907100007667476338e-01 4.010389946697396346e-01 -8.687090538313054777e-01
-2.949769021003200917e-02 -1.515323689070428859e-01 -8.006889386988003121e-01 -3.007759473311245602e-01 5.142096194546391663e-01 -8.031950552433572144e-01
-3.898869153142263313e-03 4.233151707409445186e-02 -7.113642408636089431e-01 -4.126739968878486570e-02 4.649880740007420465e-01 -8.843546193467902716e-01
-1.583662730073529673e-02 2.078709195515900457e-02 -7.162619922668784778e-01 -3.907842035571995054e-01 3.951823234952022146e-01 -8.313354542223605481e-01
-1.801846956148986725e-02 -1.716393848613111395e-01 -8.185172208675091099e-01 -3.418001511273967008e-01 5.244931180485904454e-01 -7.797946048857713475e-01
2.590927563418370799e-02 1.682888926769502899e-02 -7.290824505542874423e-01 -1.746072127208422309e-01 4.265303222599458044e-01 -8.874594105978510505e-01
-8.968049696257096581e-02 -7.851935440555704582e-02 -7.377617157123228520e-01 -3.026024491988357212e-01 3.846394118553572161e-01 -8.720574984405735641e-01
5.191231010910843380e-02 7.165106239790214326e-02 -7.048477003827976484e-01 -2.212907842307115236e-01 5.178143916632913513e-01 -8.263768175602048682e-01
6.505692855083532178e-03 1.252900751618303832e-01 -6.639389004801764527e-01 -7.490886883696888654e-02 5.355008309647888431e-01 -8.412059922549210977e-01
-3.281735335649694357e-02 -3.990440194691807080e-02 -7.388649532232890449e-01 -3.185669469853987246e-01 4.269631971813384608e-01 -8.462963597588564202e-01
7.640553592171668573e-02 -9.144121971820352857e-02 -7.948820027979646152e-01 -3.003286084502737596e-01 5.283919370052555520e-01 -7.941062195035095694e-01
-4.091802378169343539e-05 6.351792960799386434e-02 -7.002262442727098524e-01 -8.940097394075426085e-02 4.842198864167505112e-01 -8.703669154195796676e-01
-6.528022287475775121e-02 -5.554337735604480270e-02 -7.353878581070503184e-01 -2.894278974998141241e-01 4.306767512884326909e-01 -8.548385976595105351e-01
4.232100136274472707e-02 7.000155563897532407e-02 -7.034139961790254469e-01 -1.955245789880666607e-01 5.195226925733971157e-01 -8.317850148402692323e-01
-1.454035622247871161e-02 1.749749797837194532e-01 -6.185683064143041587e-01 -3.983884244640459316e-01 7.224993805812924830e-01 -5.650498281680154111e-01
-1.992349007562370378e-02 -2.020809266892804601e-01 -8.390411471885005357e-01 -2.671433784023600766e-01 5.538471524730470552e-01 -7.885985969257558459e-01
-3.437344489910944961e-02 -1.377953343304801348e-01 -7.902143097685184747e-01 -3.008031505028966324e-01 4.914215872262487905e-01 -8.173263046394421139e-01
-3.137444614568307699e-02 6.347310494854932483e-02 -6.873399081634309349e-01 -3.585837930340742274e-01 4.792408450752250748e-01 -8.010904292181254549e-01
5.773627346211084900e-03 1.323202780101780662e-01 -6.594231006415425256e-01 -8.674611850797284140e-02 5.399407846174751890e-01 -8.372210341543420142e-01
7.609810264252328624e-04 1.446402142355691922e-01 -6.509357354928689832e-01 -1.100122559216054063e-01 5.384784795741367480e-01 -8.354269750149114770e-01
9.494196749222773291e-02 -5.148644212305648893e-02 -7.761164357310665896e-01 -2.423292492372361995e-01 5.013297572112435097e-01 -8.306292852401926385e-01
7.333136160984668472e-02 -3.232004743402447366e-02 -7.605875653218437948e-01 -1.937225940512619371e-01 4.198364649461932552e-01 -8.866842161984916926e-01
2.563921754895855457e-02 -1.680464900373440651e-01 -8.288442817839680732e-01 -1.790625217098522903e-01 5.353415618700552159e-01 -8.254368694536478035e-01
-5.132895362158933911e-02 -2.360181802869566400e-02 -7.235624318162806601e-01 -2.894049164030865207e-01 4.463576260417105868e-01 -8.467642316702629346e-01
4.878826719127707205e-03 6.207019542331214390e-02 -7.015396932964013121e-01 -1.155439941488005523e-01 5.002964205812806542e-01 -8.581101776402025871e-01
-6.869440960517357586e-02 -1.029906859601927849e-01 -7.574026060347341938e-01 -3.308111741239492809e-01 4.375558965144411006e-01 -8.361272657318248314e-01
-5.683901829447930015e-02 -1.414498013887977301e-01 -7.849285607475025017e-01 -2.524787771179595741e-01 5.360045161242829037e-01 -8.055765797237360859e-01
4.939185276436589001e-02 -7.364032917032195535e-02 -7.757582322559062327e-01 -1.754893392619947534e-01 4.649167652074516210e-01 -8.677879310260242507e-01
-3.278740607771104404e-02 1.294190428765233658e-01 -6.470157751106285771e-01 -3.898569285210072288e-01 4.925311227197158304e-01 -7.780903986277061257e-01
9.177196251518399128e-02 1.209300996237697677e-02 -7.464140417756554013e-01 -2.213108231568404194e-01 3.529650930591288205e-01 -9.090858939810925188e-01
-7.404406952375161555e-02 6.766891977691687730e-03 -7.012957489764946040e-01 -2.527908616378406470e-01 3.931977021721209664e-01 -8.840205581766537035e-01
5.725185268788022391e-02 -1.104933099683198389e-01 -8.004415058942236927e-01 -2.912584690654946851e-01 5.315436970250722037e-01 -7.953802878815532384e-01
-4.589869467464086777e-02 2.997255583596792478e-02 -6.996123206258159088e-01 -3.220541789081525774e-01 3.992204378151479327e-01 -8.584312132480257374e-01
-1.108099480511234337e-02 1.767874529040400211e-01 -6.188609740175441409e-01 -5.074586146869631831e-01 7.352744897071522567e-01 -4.492851868978938179e-01
-7.116173081427562552e-02 -1.217231042423177617e-01 -7.668810461731675465e-01 -3.118831053462282621e-01 4.897738538398989649e-01 -8.141563121995719632e-01
-1.277040159808355731e-02 2.257617532377050821e-03 -7.265040924472880857e-01 -3.851094929013796908e-01 3.949507150219369045e-01 -8.340890906737139510e-01
4.046190527531665776e-02 6.322891371487593393e-02 -7.072288369488879400e-01 -2.044932682478793895e-01 5.239689623470417112e-01 -8.268246668661168863e-01
6.615891830456292755e-03 -1.521989321038603460e-01 -8.152142561247276431e-01 -1.019229356873395387e-01 5.467742571003765262e-01 -8.310533237724313516e-01
5.367277525753619272e-02 -1.122577006366855534e-01 -8.003102602543281652e-01 -2.623445683749457968e-01 5.302976280918724195e-01 -8.062008143659356030e-01
4.845396686722034524e-02 -2.590490335764507324e-02 -7.525349034850028485e-01 -1.656334943930796721e-01 3.966195132488545827e-01 -9.029166668333126200e-01
-3.084797241023647107e-02 -1.032341772134698216e-01 -7.720318502261085403e-01 -3.137542443692271088e-01 4.402758226693124777e-01 -8.412582683772893422e-01
-4.962707702050480479e-02 -1.751068572231063714e-01 -8.134891322628061694e-01 -1.003201175630595438e-01 6.548749692580106974e-01 -7.490491630403531831e-01
4.052434329742343744e-02 9.462312326954970543e-02 -6.874872458024360311e-01 -1.813391850170650021e-01 5.071832526742483527e-01 -8.425445081324286489e-01
7.207397145067540034e-02 7.550607729935494838e-02 -7.082719593381598955e-01 -2.467753948243329443e-01 5.147480870263204666e-01 -8.210580438751197141e-01
-3.651788307518690629e-02 -9.558474693556620605e-02 -7.659091426206183773e-01 -3.122853397717944013e-01 4.417338168073329241e-01 -8.410404875227116550e-01
-6.477160397280545823e-02 -2.613483524334104385e-02 -7.204253816059746907e-01 -2.690135423305461404e-01 4.508859406308637352e-01 -8.510778945456125566e-01
-3.230987323226154617e-02 1.005413770525066808e-01 -6.649795690051550912e-01 -3.848411072570381286e-01 4.705304410826560702e-01 -7.940393102232017331e-01
-1.695396214106357005e-02 -1.929795276947218474e-01 -8.335918490972040740e-01 -2.990918184107448363e-01 5.523106123362376829e-01 -7.781369234656098088e-01
5.908981529403739379e-03 -1.505080333976281104e-01 -8.140312201633526090e-01 -6.633223663067948361e-02 5.461292052055166657e-01 -8.350706111492383066e-01
-8.130267959570085246e-02 5.009255358358095239e-02 -6.780534367591111167e-01 -2.497102461061444234e-01 4.887061812243224668e-01 -8.359491978719451044e-01
4.845038276276113914e-02 1.049827071282030261e-01 -6.830704921757433379e-01 -2.096764234666010362e-01 5.057560961108212849e-01 -8.368073665360483693e-01
-6.165350773790686384e-02 6.404281446526645383e-02 -6.756814874754756284e-01 -2.633287805246387059e-01 5.017525095282546754e-01 -8.239553219255917327e-01
-8.621693179793478434e-02 3.460761440439352049e-02 -6.851273637463438648e-01 -2.461555800435724917e-01 4.185749946541452715e-01 -8.741867101847834443e-01
6.689886473970686753e-02 1.069452829334383015e-02 -7.408325019785511056e-01 -2.193827719211378646e-01 3.747672580910911266e-01 -9.007889329066401940e-01
-2.741362469771920374e-03 7.352142783334826570e-02 -6.943309448238048631e-01 -4.209199181722125815e-02 4.952568101318250426e-01 -8.677263141353434017e-01
1.332664869281087114e-03 -1.546587358989839067e-01 -8.164376576678371578e-01 -3.526840298457381562e-02 5.510420848765780200e-01 -8.337318276555067964e-01
2.588474666774426974e-02 -2.598336388908957170e-02 -7.486726992777018586e-01 -1.347811938548367228e-01 4.087343604898517335e-01 -9.026462498332428197e-01
4.479212912788872736e-02 -1.080655540894339961e-01 -7.947637856368271470e-01 -2.040457575983414817e-01 5.231082942912328448e-01 -8.274799340466425512e-01
-8.788503110254693163e-02 -6.377981328561953267e-02 -7.318986569855857605e-01 -2.822788141783945659e-01 3.988342951049850260e-01 -8.724963473357059129e-01
6.757794831127970914e-02 -8.076934089127256466e-02 -7.849241385439935659e-01 -2.597879797637947519e-01 5.115299377551996152e-01 -8.190527018149734717e-01
-7.154863833716819388e-02 -6.625802509004720398e-02 -7.384955519695508563e-01 -2.848061703712758685e-01 4.141056300733889084e-01 -8.645241306406485915e-01
1.659713752149137578e-02 6.672471297428597681e-02 -7.004450896742148158e-01 -1.339991013484067850e-01 5.108544910447951892e-01 -8.491595432056232573e-01
3.886036535780366258e-02 5.490897535210329666e-02 -7.118783350258613973e-01 -1.749938651268117262e-01 5.111774398535655628e-01 -8.414717892791970799e-01
2.592426996877096948e-02 -1.444251320687106425e-02 -7.434707822538305644e-01 -1.531539079406329107e-01 4.052333973775253395e-01 -9.012933895976276144e-01
5.019744449460061125e-02 -1.238198631147280765e-01 -8.068458366240706114e-01 -2.654719324529634106e-01 5.360272780634330880e-01 -8.013734524250202274e-01
-1.276416747167453177e-03 -4.005793109506859684e-02 -7.517836446915386883e-01 -3.734931123041577150e-01 3.903123230111449904e-01 -8.415219459806128066e-01
-7.577799047453264922e-03 7.389079455823745202e-02 -6.933583801233954569e-01 -5.240824783069175652e-01 3.986862344265387770e-01 -7.525867673633825916e-01
-5.788432980902219471e-02 -1.570548187226445680e-01 -7.962275965845788672e-01 -2.001863679997557544e-01 6.149911420223119762e-01 -7.627000152754415119e-01
-6.982378640363344491e-02 -1.441440013579767532e-01 -7.825326345648365711e-01 -2.833986267856827279e-01 5.632043619866387019e-01 -7.761997584225419633e-01
6.089468313861493010e-02 -4.743046002391026333e-02 -7.650250803759298668e-01 -1.861592342329759786e-01 4.328967502747176344e-01 -8.820119858093657950e-01
-1.578746425050395197e-02 -5.706353039067920546e-02 -7.538310864826573976e-01 -3.308344181052343402e-01 4.173106208302465037e-01 -8.464044148864331429e-01
-7.124023596798914268e-03 -1.513976497773400764e-01 -8.102163264863638803e-01 -3.854307693775383403e-01 5.062853262942635935e-01 -7.714391034917467138e-01
3.029278378618041959e-02 -5.527613937387645254e-02 -7.629545475008115973e-01 -1.447652275071679151e-01 4.234399208887487109e-01 -8.942827641761459390e-01
-1.132107730373351460e-02 9.189016826820411987e-02 -6.811589255573555768e-01 -4.770576195436695421e-01 4.304393786806734457e-01 -7.662492864050987063e-01
-2.781470906480352015e-02 9.777964641142850022e-02 -6.687803242172649654e-01 -3.718991698854166583e-01 4.629289467455717233e-01 -8.046041248362909570e-01
4.854611933837987836e-02 -1.268579272676097769e-01 -8.083309179859747839e-01 -2.654719324529634106e-01 5.360272780634330880e-01 -8.013734524250202274e-01
-6.069909549665641196e-03 6.288854094121865135e-02 -7.001023163242613423e-01 -4.294188381480454897e-01 4.193408107434081211e-01 -7.998454512520801751e-01
-8.993099551167511863e-03 -8.859189965018468560e-02 -7.723641785182644437e-01 -3.137779613522718725e-01 4.468065261738345950e-01 -8.377990923473734863e-01
3.194900148834612361e-04 1.962435846969243225e-01 -5.953911400763601813e-01 -7.824596868987662157e-01 5.995130630935544547e-01 -1.683476330646444252e-01
6.565520706975833121e-02 -5.910046992379981712e-02 -7.720603504973081455e-01 -2.194244120605196025e-01 4.523491939613077384e-01 -8.644264769860130482e-01
3.890209596726947050e-02 1.209197591593023507e-01 -6.709655539911202338e-01 -1.496866991543416847e-01 5.313288430789340211e-01 -8.338366462375464971e-01
-1.940032601207623136e-02 -1.646332969095433141e-01 -8.132287985053309187e-01 -3.364895968559302730e-01 5.239631543921353662e-01 -7.824559821786633007e-01
1.893657857317581836e-02 -7.591381952983429493e-02 -7.715533388914761481e-01 -1.262845245746513634e-01 4.567236117434238518e-01 -8.805996600777201699e-01
1.886289753780770809e-02 -1.844442806380006128e-01 -8.381897894249714653e-01 -1.324152419806234049e-01 5.297422439850507647e-01 -8.377585324118733690e-01
5.628695508108102347e-02 6.340694323957803309e-03 -7.402481113828649484e-01 -1.981234731259295112e-01 3.970286186819006469e-01 -8.961670409829078920e-01
-2.798747222563966602e-02 3.697542944725165648e-02 -7.031370035317425771e-01 -3.403478859224703390e-01 4.204187579014490583e-01 -8.410775139977931802e-01
9.361980451941312453e-02 -7.541908273368549964e-02 -7.906823707306945836e-01 -3.116962520706831885e-01 5.400956055993314520e-01 -7.817558335294854110e-01
9.325316268571144651e-03 -1.361138616135975921e-01 -8.051578979940424707e-01 -1.188201137903415333e-01 5.355131546903159068e-01 -8.361264507910726174e-01
-6.203155603701271392e-02 -1.076876600534766026e-01 -7.624967290190662883e-01 -3.308111741239492809e-01 4.375558965144411006e-01 -8.361272657318248314e-01
2.393284179555227320e-02 1.796659017548954407e-03 -7.357630731472231123e-01 -1.612889270839114042e-01 4.154630748721832023e-01 -8.951962440816380040e-01
4.530702927201589458e-02 8.954557795154836908e-02 -6.917536804328718869e-01 -2.007263997189465965e-01 5.297190507248042968e-01 -8.240792678833036566e-01
3.825436349119206575e-02 -1.513356046802606658e-01 -8.212805898182504727e-01 -2.598950597015823316e-01 5.345591593936648289e-01 -8.041772584766678778e-01
-5.511852062822557297e-02 -6.081983597074782505e-02 -7.414803147871577016e-01 -2.954026065095763931e-01 4.241468490707406280e-01 -8.560588475628942984e-01
5.396920127330295108e-03 -1.493883560448423520e-01 -8.132546267012090713e-01 -8.242823396776687017e-02 5.495660371214331485e-01 -8.313740175682653444e-01
3.209806288466830748e-02 -1.071188410649688005e-01 -7.911741948754545950e-01 -1.668773668642392904e-01 5.034310237505774666e-01 -8.477671547977685407e-01
-1.875084744612502338e-02 4.782374876147592324e-02 -7.015980075872632060e-01 -3.670328938057144108e-01 4.363586280474865409e-01 -8.215095876452802592e-01
5.755140450499444948e-02 -9.306673326758312104e-02 -7.891998229198970982e-01 -2.421933144414273875e-01 5.177637444881760809e-01 -8.205261137425539086e-01
-4.272596772473442883e-03 3.618358752859499039e-02 -7.145247054846064483e-01 -1.026383903756375865e-01 4.527628090116132542e-01 -8.857037877287257110e-01
-6.121283531393287985e-02 6.837230391586598954e-02 -6.731501854445122168e-01 -2.634102848310431733e-01 5.121485233968774420e-01 -8.175077442004000661e-01
3.849400040912446391e-03 1.885052407257792051e-01 -6.087780288691780894e-01 -1.186299388620795647e-02 8.487246647547502798e-01 -5.287019130029630976e-01
-2.733794851514681837e-02 -1.751201182737989123e-02 -7.296283870527100479e-01 -3.390453365823687948e-01 4.270313281701291208e-01 -8.382675614044741152e-01
-6.684867427036585152e-02 -1.294919698043389966e-01 -7.734192969961791730e-01 -2.839060298853524622e-01 5.168848479569996268e-01 -8.076059807524995637e-01
4.128092246150281974e-02 -1.054312954463335894e-01 -7.922579410880788986e-01 -2.039019252479132016e-01 5.096338365110980595e-01 -8.358811862718132923e-01
-6.414554287776721986e-03 -1.405260097162016608e-01 -8.035405630063905402e-01 -3.854019790392084754e-01 4.989379077349809233e-01 -7.762256622772152337e-01
2.001583357758900117e-02 3.513506168592840651e-02 -7.188032827411698911e-01 -1.589546710768952043e-01 4.580834509632744078e-01 -8.745815939616002899e-01
-1.563982738921861201e-03 -9.387231966740690325e-02 -7.783013947973732582e-01 -3.718338419636803560e-01 4.411275945005717070e-01 -8.167900827879022163e-01
1.603749683882005946e-04 1.771958514659797423e-01 -6.245436939616128003e-01 5.885067453274966248e-02 7.129950400083504558e-01 -6.986949771041232049e-01
-1.351505037944108513e-02 -1.843470555404073119e-01 -8.291903028626269601e-01 -3.524303657743085294e-01 5.318858253753332432e-01 -7.699937051982879144e-01
-7.278801646967572071e-03 1.857260976841206782e-03 -7.293738860491785214e-01 -4.134095125023074524e-01 3.860986719878162221e-01 -8.246334885643736845e-01
-5.485986483999191060e-02 -1.304094424365976612e-01 -7.783277770552590180e-01 -2.922501798321687771e-01 4.969155403129484339e-01 -8.171075683063738770e-01
-1.078071781372500447e-02 -1.997623990867875565e-01 -8.413946828121255939e-01 -4.291907204062240799e-01 5.423981524923789932e-01 -7.222185055023447875e-01
4.203475436329951256e-03 2.035325771496415137e-01 -5.826418454899751076e-01 1.281530060302994711e-01 8.574889228572614153e-01 -4.982866185464865927e-01
1.689311481844784843e-02 1.971328586580801609e-02 -7.259997782970486480e-01 -1.641030455351174255e-01 4.298982828774565168e-01 -8.878387560954487112e-01
5.386929731982268571e-02 -1.538708274192455427e-01 -8.287349679376979639e-01 -3.008583689985988019e-01 5.263296182833949732e-01 -7.952744021538469266e-01
5.450254092599684380e-02 -1.045798872003188273e-01 -7.955486994539109347e-01 -2.540016322777633451e-01 5.100239927311351895e-01 -8.218021036957880998e-01
-1.908726872807456343e-02 7.586242078793381527e-02 -6.859263651776185133e-01 -3.963654220363181380e-01 4.555961178341956241e-01 -7.970737918338433037e-01
-5.002604031844715832e-02 -1.653875524545775633e-01 -8.049847406955114026e-01 -1.628938531878328932e-01 6.301600085667146134e-01 -7.591863777734813024e-01
-2.897907995470920192e-02 -1.362090864146301983e-01 -7.913201149223760833e-01 -3.082842102520621519e-01 4.863248350723110569e-01 -8.175873045131950567e-01
6.841050306035013906e-02 7.428861875433771800e-02 -7.079341398582380540e-01 -2.467753948243329443e-01 5.147480870263204666e-01 -8.210580438751197141e-01
5.032127830745988795e-02 -1.074060816923030209e-01 -7.960626429185093667e-01 -2.540975043688138424e-01 5.248506899691556260e-01 -8.123830448208787525e-01
-1.842994039969936574e-03 1.013129963393887278e-01 -6.780677554866033629e-01 -3.518356327370777969e-02 5.106856009236417915e-01 -8.590473408867660421e-01
1.967620138310391571e-03 2.005291760772636156e-01 -5.876460588576296606e-01 -7.813527660025931798e-01 6.024285809698933791e-01 -1.629958891834309143e-01
-2.123928628495302603e-02 -2.114519367099441938e-01 -8.465159396468124875e-01 -1.929583496831766831e-01 7.064938723237923490e-01 -6.809063692288962466e-01
-1.474459586197630163e-03 -1.248140941791728714e-01 -7.962312235542955419e-01 -4.155507464476007606e-01 4.796287665599114902e-01 -7.728349263685355686e-01
7.604259127605653146e-02 -1.078658411774142262e-01 -8.062226935396730187e-01 -3.382767821829045229e-01 5.469781022308299878e-01 -7.657569942977600075e-01
4.610961114466188837e-02 -2.310645427215818337e-02 -7.508755882905898682e-01 -1.656334943930796721e-01 3.966195132488545827e-01 -9.029166668333126200e-01
-2.716662786916431566e-02 -3.949428362889691874e-02 -7.407851185645770720e-01 -3.185669469853987246e-01 4.269631971813384608e-01 -8.462963597588564202e-01
-8.383231365028789850e-02 5.328557097136102372e-03 -6.991583251788087150e-01 -2.451229499960174141e-01 3.926523290819214362e-01 -8.864191377964447671e-01
-5.874880866670245672e-02 -1.063116018219440878e-01 -7.630526658866996215e-01 -3.240130931895496835e-01 4.379384108323166047e-01 -8.385853944348216071e-01
3.008836570509653557e-02 1.161713647724110510e-01 -6.724946408032458356e-01 -1.098445712612250991e-01 5.301126699810861931e-01 -8.407822115684665532e-01
9.503366799608954640e-02 5.625573004166396426e-03 -7.497025465332948224e-01 -2.099920799054187381e-01 3.440019627331313834e-01 -9.151863067227072879e-01
2.733878868026919789e-02 -1.772550747545840744e-01 -8.353039513324247434e-01 -2.054487514058023767e-01 5.289836324163709191e-01 -8.233875923168739730e-01
6.124803582121272905e-02 -5.432774988506559833e-04 -7.442616449303760540e-01 -1.999801369721823097e-01 3.774441937477757136e-01 -9.041813011905734943e-01
-1.618178850216531531e-02 -1.080389242432262809e-01 -7.801592528242833335e-01 -3.219184389207671027e-01 4.583863061479566126e-01 -8.284023859326141714e-01
-9.122070090918178720e-02 -2.138318461204639920e-02 -7.100026832142759536e-01 -2.470787676959103341e-01 4.470686716937714578e-01 -8.596986014550895838e-01
4.906519913729388144e-02 6.549691543310848241e-02 -7.079415268221509461e-01 -2.212907842307115236e-01 5.178143916632913513e-01 -8.263768175602048682e-01
-2.000698624169335027e-02 -8.127223208967279677e-02 -7.645103648754889569e-01 -3.068781965868636052e-01 4.368563582561668102e-01 -8.455662568425692527e-01
3.342502336846440991e-02 7.245507923387807525e-02 -6.998646291353090021e-01 -1.615894469475152584e-01 5.334462089655330752e-01 -8.302553780467170075e-01
-3.670061163189474590e-02 -1.366745172319870361e-01 -7.886839383667918479e-01 -3.008031505028966324e-01 4.914215872262487905e-01 -8.173263046394421139e-01
5.258186884862391108e-02 -1.354294106895752026e-01 -8.156868573243695186e-01 -3.037306674773276871e-01 5.361576486028918342e-01 -7.875802546270411764e-01
-2.543615168696769166e-02 -1.466172269045962762e-01 -7.990888961046669348e-01 -3.084834755604813905e-01 5.077225416600391616e-01 -8.043977660314551859e-01
-3.332182965972026178e-02 -1.554648452027267702e-01 -8.020419327352971139e-01 -2.595652883273254496e-01 5.552025085255969383e-01 -7.901746867765612192e-01
5.031441733218613294e-02 8.027464153141046499e-02 -6.989222389462274032e-01 -2.131443023315221785e-01 5.306944799528686696e-01 -8.203248596325499742e-01
-2.310712878362374337e-02 -1.847393680085653578e-01 -8.257411789930562129e-01 -1.928467598213509104e-01 5.697189389775642043e-01 -7.988932705916883537e-01
-2.158305378270503408e-02 -8.991513746562189435e-02 -7.684162420537361537e-01 -3.071115325661450401e-01 4.453273232386191771e-01 -8.410505821542483273e-01
-9.396027772605482220e-02 -1.134243656874147840e-02 -7.041309365251106067e-01 -2.466466047590190058e-01 4.328007411522786230e-01 -8.670922504664002606e-01
-2.906948611952778899e-02 -1.943630667753643015e-01 -8.315270424489507040e-01 -1.260593085674304725e-01 5.809334789879500027e-01 -8.041301783383451030e-01
3.732823071155170341e-02 3.932618509291476577e-02 -7.201736962385474339e-01 -1.912358165824520617e-01 4.557279490335217620e-01 -8.693335947297461397e-01
7.170279380352106990e-02 -1.305914863437272200e-01 -8.204536680569517459e-01 -3.357832690011991472e-01 5.343453241073407023e-01 -7.757091406342260242e-01
6.291242520804432581e-02 -6.374361551763803313e-02 -7.737938580995111781e-01 -2.194244120605196025e-01 4.523491939613077384e-01 -8.644264769860130482e-01
-3.732880005487893005e-02 -5.412708217108443826e-02 -7.444176677228665495e-01 -3.041951696339824096e-01 4.310806424759074384e-01 -8.494908936851010006e-01
-5.334081109446686675e-02 -1.032420932086466764e-01 -7.635392070307569501e-01 -3.240130931895496835e-01 4.379384108323166047e-01 -8.385853944348216071e-01
-1.516322396774487553e-02 -1.153994747912199248e-01 -7.846833706608715708e-01 -3.222347437535811876e-01 4.736395802791886767e-01 -8.196525592658256976e-01
2.439329923279039928e-04 -1.507207941416866814e-01 -8.138458362716561867e-01 4.952907190624888240e-02 5.495086047904079729e-01 -8.340186834222629297e-01
6.051408382659304031e-02 -1.104396193879139954e-01 -8.016275498437254177e-01 -3.006549341585181279e-01 5.379148090939411819e-01 -7.875622316512935761e-01
3.502750973844385995e-03 -1.786458199381776579e-01 -8.326100521774363328e-01 -8.303968467342220938e-02 5.602499420189819279e-01 -8.241507224028054024e-01
3.185180150523671955e-02 -1.426518974796184835e-01 -8.137276618121176419e-01 -2.086473919564295065e-01 5.326259876650987213e-01 -8.202291284108107483e-01
1.044566945261245217e-02 8.600343227019714709e-02 -6.879862864564457725e-01 -7.552537435406500577e-02 5.238521405259858321e-01 -8.484543904624579636e-01
-5.522470209588277446e-02 8.692559140888803104e-03 -7.062083249150103992e-01 -2.929531000879498914e-01 4.039307642719995872e-01 -8.666131886969514753e-01
3.526196788676298072e-02 -1.391837967700456646e-01 -8.123430752316390668e-01 -2.086473919564295065e-01 5.326259876650987213e-01 -8.202291284108107483e-01
9.637157431616829445e-03 1.281475697612787235e-01 -6.624516395773270006e-01 -8.665063797135953705e-02 5.312723078735226423e-01 -8.427582107733494476e-01
-1.088122957769556073e-02 -2.100250954611767029e-01 -8.505284251949077889e-01 -5.021008841665356437e-01 6.859595575115309263e-01 -5.266442704309692857e-01
-7.460648831196795006e-02 3.339401903764475672e-03 -7.026982990073645796e-01 -2.532691065279362719e-01 4.046092757460096334e-01 -8.787184382148985895e-01
-6.587255964394911345e-03 -1.610751825660785008e-01 -8.169537537070693523e-01 -4.043797916474385912e-01 5.170060137631365960e-01 -7.544413601068842290e-01
1.054365271775829262e-02 6.274576174571293297e-02 -7.019056099602564158e-01 -1.138949910378973529e-01 5.005515114557084200e-01 -8.581818661541872340e-01
-3.277763131135318087e-02 1.282854402192394050e-01 -6.477435081494123947e-01 -3.969992150139569076e-01 4.954827511199669243e-01 -7.725855723613346271e-01
3.812160375102052051e-02 -8.145683980271935243e-02 -7.775588384120950547e-01 -1.840333013809096752e-01 4.582682597849916384e-01 -8.695527275884300522e-01
4.236808446952754215e-02 -6.228247489715875440e-02 -7.685041906237914944e-01 -1.746631007381897749e-01 4.380914233518917733e-01 -8.817985631798423984e-01
-9.054745438887838727e-03 -4.444624225894736741e-02 -7.503166482779051183e-01 -3.528998729312482485e-01 4.030790978199929042e-01 -8.443867127008389817e-01
-1.678048865986214375e-02 9.940486334157142001e-02 -6.736605797995038891e-01 -4.293014997163496216e-01 4.494983774696408307e-01 -7.833590690056848604e-01
-2.417577245103737227e-02 -1.175345995395610937e-01 -7.823635429979225453e-01 -3.169647774538488227e-01 4.657843160051113318e-01 -8.261829705442268468e-01
7.377044791461859208e-02 -1.050612586651500507e-01 -8.032479661928673131e-01 -3.155430401274826879e-01 5.450663199448704255e-01 -7.767466103491291740e-01
-6.023594781929296482e-02 -1.420999749112672982e-02 -7.156148658567995646e-01 -2.688773535109622026e-01 4.455901653829717479e-01 -8.539053655311676927e-01
-4.887171853574558827e-02 -5.261012030520621080e-02 -7.395201844327832230e-01 -2.957397014713032402e-01 4.352055171599362171e-01 -8.503729692359799364e-01
-7.810861069244426358e-02 4.700198304003833094e-02 -6.808061481579995577e-01 -2.479432899594951889e-01 4.869479721185270837e-01 -8.374997297991897405e-01
-8.816569056072820487e-02 -9.350883002365233121e-02 -7.451081642545215322e-01 -3.216581514674206055e-01 4.044425972257411073e-01 -8.561321271531974197e-01
-2.695956421334209582e-02 -1.916143083152064830e-01 -8.298527987747255086e-01 -1.258787888095173335e-01 5.930061056197449831e-01 -7.952976104739362118e-01
-5.801665524387603079e-02 5.662122086104352109e-02 -6.813664285263323350e-01 -2.736333076347848281e-01 4.842503283900089217e-01 -8.310393687467615420e-01
-4.596483208343787592e-04 1.312604002800359937e-01 -6.595401944475343115e-01 -6.461749141262032592e-02 5.392569734252050662e-01 -8.396585594250961515e-01
7.678611461795065152e-02 4.856553501413335416e-02 -7.255817248601754699e-01 -2.469767963687814483e-01 4.434550593824544418e-01 -8.615973957501944502e-01
6.964930074814983108e-02 -2.985737427947472711e-02 -7.586170572861898886e-01 -1.937225940512619371e-01 4.198364649461932552e-01 -8.866842161984916926e-01
-2.942564784883885259e-02 -1.335068747575698100e-01 -7.895443749359527530e-01 -3.082842102520621519e-01 4.863248350723110569e-01 -8.175873045131950567e-01
-1.366902777259426140e-02 -1.113910100820075244e-01 -7.829905511121729722e-01 -3.219184389207671027e-01 4.583863061479566126e-01 -8.284023859326141714e-01
-2.146727324813512902e-02 -1.677065111735183411e-01 -8.144881539117569957e-01 -2.846847440979106691e-01 5.407211862247034428e-01 -7.915650290694103974e-01
6.338916095879568169e-02 2.768577531091048066e-02 -7.324017409643290843e-01 -2.272920339372567766e-01 4.250946957008713278e-01 -8.761465807703916475e-01
9.407256876557920644e-02 -3.994895034136510502e-03 -7.531272861083425640e-01 -2.106556328032779812e-01 3.562247586341483196e-01 -9.103450585927806982e-01
-6.279584016497254118e-02 -4.707357401115251638e-02 -7.319934283329032620e-01 -2.762049653556624129e-01 4.223043652776370949e-01 -8.633480411631971885e-01
-2.119592758312731362e-02 -2.498486790613850192e-02 -7.358992578495897607e-01 -3.440016954587807874e-01 4.215637792815589702e-01 -8.390153833627446156e-01
-7.036569827834447677e-02 -5.105430362277996181e-02 -7.315188191527874917e-01 -2.762049653556624129e-01 4.223043652776370949e-01 -8.633480411631971885e-01
-6.213686280795112371e-02 2.603520898920006280e-02 -6.961710538983383323e-01 -2.664130946019110935e-01 3.980081993833419207e-01 -8.778459638503005591e-01
4.516064987129261854e-02 -1.116814145514283402e-01 -7.972106341281984809e-01 -2.540975043688138424e-01 5.248506899691556260e-01 -8.123830448208787525e-01
-1.320517051960435652e-02 5.663555322381629009e-02 -6.995351888232136384e-01 -3.868233097446392987e-01 4.281629298096233938e-01 -8.167277591554253924e-01
7.442140385834536409e-02 -4.087947095245283990e-02 -7.649126499642513455e-01 -2.035182876210320513e-01 4.443966912588682150e-01 -8.724058043146968311e-01
-2.687553266605708507e-02 -1.158148826917010030e-02 -7.268675774251582844e-01 -3.678422424857641371e-01 4.138405180944873529e-01 -8.327233095250368144e-01
1.388811907117824297e-02 1.348804416210561685e-01 -6.586675052290655863e-01 -9.671679139967773176e-02 5.341291557886681529e-01 -8.398523127299439839e-01
1.944057382027755037e-03 -9.677539053826259008e-02 -7.809460412770270477e-01 -4.031627815643764635e-03 4.798330935950017584e-01 -8.773505275932798053e-01
-6.324122026276367270e-02 6.162978782958974250e-02 -6.766434956644179488e-01 -2.633287805246387059e-01 5.017525095282546754e-01 -8.239553219255917327e-01
-3.890958924969813160e-02 -3.625581883791995086e-02 -7.346984552449352668e-01 -3.055141829331038394e-01 4.374620063157714234e-01 -8.457470526445233228e-01
-5.513976376458096934e-02 -2.181555178363262307e-02 -7.213257376344051064e-01 -2.892484199183289473e-01 4.402116517894592573e-01 -8.500288543358667237e-01
-1.217580215717359131e-02 -1.527915994765889907e-01 -8.086617784274597875e-01 -3.599022532199702695e-01 5.086505928948753530e-01 -7.821412548094367478e-01
