4.118192276160081294e-02 1.373875194657507015e-01 -6.839794409445679735e-01 -2.601440035043824928e-01 3.831312650194660385e-01 -8.863044235505628254e-01
2.955454378178367161e-02 -8.739845911316776461e-02 -8.135381128854368704e-01 2.551124361891525250e-01 -4.699555100907260030e-01 8.450203923202098677e-01
4.967146723844573231e-02 -1.663542604121039103e-01 -8.533030050890927365e-01 -7.514570481215405717e-01 2.200246341446756848e-01 6.220140393897570785e-01
-5.285569112094912203e-02 -1.199659045518539358e-01 -7.924000056247550994e-01 4.830165339135692459e-01 -4.244092769913686558e-01 7.658797513773201171e-01
-5.417580848715578684e-03 -7.643174831760629617e-02 -7.739560851436294575e-01 -4.123724085058990685e-01 4.426811159840464138e-01 -7.962301339777108078e-01
-1.555702545441787869e-02 3.612328700284844155e-03 -7.479672844526131792e-01 4.405757835710195636e-01 -4.110717063555688333e-01 7.980683123421850045e-01
-2.554707908047205295e-02 1.295620002573608376e-01 -6.618313496982231037e-01 -4.661311013414659032e-01 3.400766700711746471e-01 -8.167433224921361035e-01
3.110856114984527146e-02 9.313054833820315348e-02 -7.013955372237301589e-01 -2.762876577244647858e-01 4.097755871919565585e-01 -8.693383106309167108e-01
-5.416680594988123459e-02 1.151547064223188040e-02 -7.025284428426838979e-01 -4.047419798559519499e-01 4.091347632361242992e-01 -8.177974536852049559e-01
3.545378923141297156e-02 -1.394433993467578299e-02 -7.557955933260586123e-01 -2.816251176618202456e-01 4.409136636471799320e-01 -8.522220569260030576e-01
-8.087819281381988454e-03 -2.584217489800861856e-01 -8.887033914351665231e-01 6.489305053648021238e-01 4.287227997080189090e-01 -6.285586370558443603e-01
5.187333923960034399e-02 -1.764729859025959994e-03 -7.751133249929403890e-01 2.524440361893832141e-01 -4.411166533230187481e-01 8.612131598817526212e-01
-7.514434311298616442e-02 -1.007146399126183228e-01 -7.646635080780720406e-01 6.603432174215432271e-01 -3.052087586177791856e-01 6.861446267867721271e-01
2.259838635019626590e-02 -1.673478174101624416e-01 -8.374236831097446876e-01 -2.589164847854331652e-01 5.002911931908816667e-01 -8.262390549483838997e-01
7.752911415417905461e-02 6.250382366911103049e-02 -7.321225961428231566e-01 -3.277022180712322319e-01 4.087705567864611811e-01 -8.517733784145177234e-01
-1.238968739680081609e-02 -1.006933440823144371e-01 -8.055754948661586479e-01 4.043145346285718089e-01 -4.444326853053388038e-01 7.993806010408103235e-01
7.308998335889094200e-02 1.222971683583538860e-01 -7.021732428517584168e-01 -4.221699868304252812e-01 3.636521310907299132e-01 -8.303792084179186794e-01
7.889169072815070682e-02 1.691671878767629297e-02 -7.721826648254463965e-01 1.438599136119777244e-01 -4.406560258118485951e-01 8.860736945487445171e-01
3.729192733354460415e-02 -6.708677400712086125e-02 -8.048678918335897547e-01 2.768805644265295296e-01 -4.601458069819370778e-01 8.435656402200060189e-01
-1.691658307307217918e-02 -1.591009643757447523e-01 -8.147354513040804269e-01 -4.513174196608679689e-01 4.638853616265221635e-01 -7.623142121063249954e-01
6.328836853703323322e-03 1.874499398905161152e-01 -6.543367731652268704e-01 -3.072656034285534132e-01 3.166466117893130261e-01 -8.973977781296514911e-01
-9.867401886906167902e-03 1.978682489076776796e-01 -6.609519528440950253e-01 3.953930647606638815e-01 -3.831532584939231212e-01 8.347801536001310252e-01
4.495967570844308647e-02 -1.331628964446561481e-01 -8.430040804000971111e-01 7.071882448066296734e-02 -4.504716031859476999e-01 8.899854957172927961e-01
-8.695476188800922712e-02 -9.099017054586319014e-03 -7.122836460039662088e-01 6.641450352124882439e-01 -3.124334342121762309e-01 6.791882812512216594e-01
7.660079514147734303e-02 -9.111830893278421994e-02 -8.119514217599674843e-01 -4.209130429449578492e-01 4.521403454117355891e-01 -7.863849682755722492e-01
4.718410289028947963e-02 2.606955750433563937e-02 -7.393671527500410567e-01 -2.904932294032397389e-01 4.290951966640381698e-01 -8.552724687903423550e-01
-8.421594435694261527e-02 -7.788961735219895877e-02 -7.373559326313436912e-01 2.015233629919687408e-01 5.410080006100719263e-01 -8.165161832102899586e-01
5.845752621750514161e-02 8.303109851025435029e-02 -7.342742693211335991e-01 2.523628382092296674e-01 -4.313650649664927950e-01 8.661623280987438278e-01
6.790220901192851877e-02 7.909650029664157256e-02 -7.204037294065405161e-01 -3.332251010321814477e-01 4.088178228120286639e-01 -8.496052140808253439e-01
1.210111235886989281e-02 -2.065159654167124728e-02 -7.720065109420484184e-01 2.665457976069189883e-01 -4.423489775627139631e-01 8.563181183574904987e-01
6.690700493273542271e-02 7.772046639366479714e-02 -7.386545870416001414e-01 1.232485225329611050e-01 -4.618689571439784092e-01 8.783432518783167442e-01
-5.049620538223657806e-02 9.560589166534072536e-02 -6.844808403366132721e-01 4.882404768279168250e-01 -3.715585791645136249e-01 7.896616104611496878e-01
1.114035981001892765e-02 -5.606514299671693652e-02 -7.701640430911149693e-01 -3.051547308073802034e-01 4.493615969290927215e-01 -8.396158320751289095e-01
2.641028604896827892e-02 -8.168330551525432304e-02 -8.094103933578615795e-01 2.551124361891525250e-01 -4.699555100907260030e-01 8.450203923202098677e-01
-1.814058100771870677e-04 -3.793355698455022074e-01 -9.835890252796049005e-01 -8.884453746568223842e-01 -2.710005390307354545e-01 3.704369367327582929e-01
-8.242405286740692172e-02 -9.459712877422711552e-02 -7.509532137004454322e-01 9.225213899669523210e-01 3.259140526204520882e-01 -2.067227983507275157e-01
-1.419087465880940375e-02 -1.465963994018483207e-01 -8.313066120152944327e-01 4.475117237797268110e-01 -4.651785051923681968e-01 7.637684304726738427e-01
8.923985602598820399e-02 -3.211805079840857752e-02 -7.853176521204805471e-01 -4.202007136305080381e-01 4.400156417285914223e-01 -7.936104808396798882e-01
-5.576260752756309613e-02 1.091128892721082433e-01 -6.548522363333070251e-01 -3.845048555581003780e-01 3.866837098892924041e-01 -8.382313073123062175e-01
6.995847782452904728e-02 -5.341636536970279653e-02 -7.884934599272362954e-01 -3.264859049970908478e-01 4.442357599433351401e-01 -8.343030285368729926e-01
-1.041391419394283036e-02 1.433853500767355571e-01 -6.642619504378693973e-01 -4.021552763915800521e-01 3.518522442825450236e-01 -8.452639421291721078e-01
-3.668299408873111622e-02 1.041679661099611104e-01 -6.669364412285317956e-01 -4.303260250595203895e-01 3.813292876869705528e-01 -8.181732619125490213e-01
3.747005156150702565e-02 1.345533362242747749e-02 -7.423964058019357770e-01 -2.904932294032397389e-01 4.290951966640381698e-01 -8.552724687903423550e-01
-3.453782832035889178e-02 -1.733092811405331779e-01 -8.347041346363910375e-01 5.040053042651251314e-01 -4.353566305564754990e-01 7.459512433819861510e-01
-6.570863154230913161e-02 1.380154526621925892e-01 -6.389536862251407046e-01 -2.864824109790402029e-01 3.467608236803177979e-01 -8.931319943659973282e-01
8.032580133252552324e-02 -2.973884640098333268e-02 -7.954283993004521713e-01 3.121281736637790318e-03 -4.198565890445598581e-01 9.075850936612985809e-01
5.851200951153906482e-02 6.987026357188248771e-02 -7.215648481567957795e-01 -3.013604157492648650e-01 4.185007315871792088e-01 -8.567607819458274987e-01
5.616557823912449871e-02 5.742002081657946594e-02 -7.268210576993504590e-01 -3.013604157492648650e-01 4.185007315871792088e-01 -8.567607819458274987e-01
-4.472037313393336516e-02 1.002805857561862857e-01 -6.857290349547540131e-01 4.302612620804556198e-01 -3.801131309061138719e-01 8.187730174264934435e-01
-9.039032578071249519e-03 -7.914297029430840402e-02 -7.952888153576802566e-01 4.043145346285718089e-01 -4.444326853053388038e-01 7.993806010408103235e-01
1.186593193205543253e-02 -2.231790948531126029e-01 -8.716126776977471957e-01 -6.674713006011786520e-01 5.898079073358911684e-01 -4.545422921113368986e-01
-6.668104972601827940e-02 -4.586745146290898550e-02 -7.454102626504961471e-01 4.535707217505945965e-01 -4.052658741537578102e-01 7.937462891989072178e-01
3.359749516090558552e-02 1.757885896153974503e-01 -6.657308507187789104e-01 -2.187594665293539908e-01 3.396187681433949779e-01 -9.147695819869370304e-01
1.267881945769168753e-02 4.734175949446139259e-02 -7.176477255712626624e-01 -3.048682409257810755e-01 4.221150448234877173e-01 -8.537413218349484412e-01
3.215957540504554846e-02 -1.464127943731869108e-01 -8.275922783762265089e-01 -2.418943231430074892e-01 5.024113615918449627e-01 -8.301023793331848699e-01
-6.091117423790229357e-02 -2.023905232616523067e-02 -7.151761781358805248e-01 -4.048270949893953974e-01 4.141938155250718401e-01 -8.152045794420135216e-01
5.055927778976365694e-02 1.022525407163343836e-01 -7.225980492711980840e-01 2.369360860529917678e-01 -4.255896066967076452e-01 8.733468828579117327e-01
3.274565669385696293e-02 -3.228978796766531628e-02 -7.847799639751958933e-01 2.866434079485207231e-01 -4.465280153690423526e-01 8.476132892836462096e-01
8.878471603773614718e-02 -4.412467776946035064e-02 -8.017361100208664215e-01 -2.779711702447035804e-01 -3.662677026165911398e-01 8.880202692127889819e-01
1.236034663337836834e-02 -3.419769670064818495e-02 -7.589040054923409384e-01 -3.051547308073802034e-01 4.493615969290927215e-01 -8.396158320751289095e-01
6.779047381680240736e-02 -1.224215491450114657e-02 -7.849946895412025505e-01 1.363541930193373219e-01 -4.432893445624326301e-01 8.859470023897897395e-01
-9.448432824326405410e-03 -6.596118317414115251e-02 -7.877530514060188116e-01 4.043145346285718089e-01 -4.444326853053388038e-01 7.993806010408103235e-01
9.389534595702077671e-03 8.804592137213046454e-02 -7.170679740800698365e-01 2.607325048342652440e-01 -4.158028649001167532e-01 8.712786801383959334e-01
9.348512240311196431e-02 -3.414634374718454601e-02 -7.891976436423566721e-01 -7.852726441834895210e-01 3.638755941962517615e-01 -5.009405416268435385e-01
3.037930205520915014e-02 -7.739884167042176966e-02 -8.082258514720861431e-01 2.551124361891525250e-01 -4.699555100907260030e-01 8.450203923202098677e-01
-8.160296095381203152e-02 2.117055353936852027e-02 -7.010528310998318524e-01 5.493932301710146016e-01 -3.833001596362946573e-01 7.424608179998791746e-01
-9.956852226189256971e-03 2.390827975585283205e-01 -6.323496673589291683e-01 -3.705297311087800693e-01 2.399503305527596886e-01 -8.972912332303689675e-01
8.530538302419746199e-02 -8.110145077291663895e-02 -8.167565684968012274e-01 -9.223054397248569014e-01 -3.805432449921078777e-03 3.864430029613780682e-01
-1.881492023909681760e-03 -3.734922373315128219e-01 -9.823165958136599318e-01 -7.608755459958929102e-01 -3.816565505277011994e-01 5.247920359006490454e-01
5.838051971212850078e-02 -3.580607450982730561e-02 -7.749818391433784814e-01 -3.017049554558419722e-01 4.448952076148470214e-01 -8.432332856895122797e-01
5.797957115790449562e-02 -1.273654197717521974e-01 -8.253685070144421987e-01 -3.368867786660590391e-01 4.821001802022839011e-01 -8.087562763953867195e-01
3.804855015253510997e-02 -1.352767479714437893e-01 -8.228691893498146781e-01 -2.617963752939384547e-01 4.797470288519797288e-01 -8.374398164588623406e-01
3.560821863859612441e-02 -8.524858885874606051e-02 -7.938572140667733423e-01 -2.618157494221236004e-01 4.670049435487834133e-01 -8.446057636883194109e-01
-1.416582439757569506e-02 -2.162665386508036691e-01 -8.729974244906325564e-01 5.827025027179036920e-01 -3.318179266012369899e-01 7.418589198172033106e-01
4.255450419160597755e-03 -1.080580906164375909e-01 -7.963842075550212618e-01 -3.051901893249542863e-01 4.627380001663374265e-01 -8.323055277612046998e-01
4.238127035705554352e-03 -2.859319347799845201e-01 -9.135302005383210133e-01 -9.930888331947538283e-01 1.021884842230623702e-01 -5.772419835801402554e-02
-1.698932405920900932e-02 -2.009453535852157302e-01 -8.409575118156328299e-01 -4.093600733125130064e-01 5.219086365830285512e-01 -7.483553336735285777e-01
-7.077812346335754512e-02 3.449268933731567538e-02 -6.831454890560745286e-01 -3.813685341423126429e-01 3.988599862792666650e-01 -8.339476917118046062e-01
-7.228640020357218754e-02 -6.787531386194886607e-02 -7.344886354701851694e-01 -3.819231077033182764e-01 4.337267410465412421e-01 -8.160979438176438894e-01
1.062724078865577224e-02 -1.754060590577320375e-02 -7.699379747645528349e-01 2.690503491313154805e-01 -4.428650141927288342e-01 8.552674954868748625e-01
-3.271878633030288197e-02 -1.495139427591456183e-01 -7.996826534100099915e-01 -4.315817193552334285e-01 4.512051775270487508e-01 -7.811216981310691310e-01
-3.358264272843438725e-04 -2.291980766734881270e-01 -8.699343302107748199e-01 -3.521139264587105910e-01 5.661252663132568808e-01 -7.453307759884694184e-01
-3.226523516352384352e-02 2.822577696529061236e-02 -7.053709421953194836e-01 -4.261689145034756598e-01 3.996588985079078671e-01 -8.115742856660597138e-01
-2.255814191400400386e-03 -1.341465008950973011e-03 -7.359476110168053919e-01 -4.121800744229020541e-01 4.157839074327085438e-01 -8.106980501818910056e-01
1.023235153822985369e-02 5.159734494662262562e-03 -7.580593149090997240e-01 2.690503491313154805e-01 -4.428650141927288342e-01 8.552674954868748625e-01
1.513502798877062712e-03 -1.878211333128751437e-01 -8.425631206072207169e-01 -3.946968077146685294e-01 5.005858983325679468e-01 -7.704727044940826719e-01
6.931491743618752033e-02 -8.880542087109500118e-03 -7.835473085308900520e-01 1.363541930193373219e-01 -4.432893445624326301e-01 8.859470023897897395e-01
-1.029294252834088083e-02 -2.633192040901639608e-01 -8.967779031838186699e-01 9.452751915166661689e-01 1.936521835333447350e-01 -2.625902589889765881e-01
5.409270282530851022e-03 4.510669312749922971e-02 -7.161568764145820332e-01 -3.048682409257810755e-01 4.221150448234877173e-01 -8.537413218349484412e-01
-6.073406566069706330e-02 -3.279402714310623856e-02 -7.216431330659744958e-01 -4.048270949893953974e-01 4.141938155250718401e-01 -8.152045794420135216e-01
3.635836785044901237e-02 7.685972249994757477e-02 -7.108628626553882279e-01 -2.764102658001426072e-01 4.163534393171230974e-01 -8.661681006185215637e-01
5.897258680035542822e-02 -4.250887666177100704e-02 -7.981113906864037988e-01 2.524558411045892403e-01 -4.424058038267453252e-01 8.605481700826432823e-01
-2.626320896972231950e-02 -1.694554783980439794e-01 -8.380940391941804624e-01 4.631447711762038955e-01 -4.622710707849437273e-01 7.561761554343561231e-01
1.114360884007506783e-02 1.936565410504989260e-01 -6.699773155287952475e-01 2.585070292501524536e-01 -3.867312196529735790e-01 8.852192268438278111e-01
-3.990944829510401776e-02 8.522765698794979028e-02 -6.740670425864457860e-01 -4.303260250595203895e-01 3.813292876869705528e-01 -8.181732619125490213e-01
7.171621105923497996e-02 -9.172699466610621799e-02 -8.244321112900818704e-01 -7.086669150782227175e-05 -4.267489280926118345e-01 9.043701384663909160e-01
-1.036376354943073161e-02 2.114935647388217418e-02 -7.418038276036700296e-01 4.119276103195901872e-01 -4.035661607434459786e-01 8.169761304708891281e-01
-7.432566848838861873e-02 3.415897204250658431e-02 -6.816827887182782542e-01 -3.813685341423126429e-01 3.988599862792666650e-01 -8.339476917118046062e-01
-3.979996488868992044e-02 6.932820250247122285e-02 -7.028076048496667561e-01 4.304571365168761155e-01 -3.867055487232135547e-01 8.155767727249041421e-01
7.108861821693672478e-02 2.024646015527749397e-03 -7.783638132029031542e-01 1.363541930193373219e-01 -4.432893445624326301e-01 8.859470023897897395e-01
-6.793630245013718150e-02 6.328659588831517246e-02 -6.706515488489196430e-01 -3.759963572527181275e-01 4.009192454270358863e-01 -8.353984067371104105e-01
1.834194832728977889e-02 -9.681952576375783825e-02 -8.153977574645242532e-01 2.542010448743876605e-01 -4.699587699152860676e-01 8.452931937289456243e-01
8.433118381619855372e-03 -3.091472818155700450e-02 -7.557361123460401009e-01 -3.050477014323962344e-01 4.358176739810746270e-01 -8.467637538868427738e-01
-3.586682908737253567e-02 2.379480283449806818e-02 -7.056617237929979636e-01 -4.261689145034756598e-01 3.996588985079078671e-01 -8.115742856660597138e-01
-3.036072742201576663e-02 1.318538090183370148e-01 -6.791607427534110952e-01 4.668095151236483220e-01 -3.544289695764858417e-01 8.102277347233768356e-01
7.159047437456604775e-03 -1.164724598164301045e-01 -8.231990454087985132e-01 3.051479309919823968e-01 -4.772179235861068736e-01 8.241042371080719020e-01
3.014452058288990318e-03 1.721910201526273554e-01 -6.585860468801203460e-01 -3.072656034285534132e-01 3.166466117893130261e-01 -8.973977781296514911e-01
-5.318299869854921369e-02 -1.225523234092933816e-01 -7.936268368393639694e-01 4.830165339135692459e-01 -4.244092769913686558e-01 7.658797513773201171e-01
-7.808475183541359408e-05 1.505097419078631205e-01 -6.854919065090182562e-01 2.957125858118723749e-01 -3.885837966237344898e-01 8.726721604325076154e-01
-3.909432365853594826e-02 -9.808658477011228741e-04 -7.163513452286454086e-01 -4.177761482534109172e-01 4.055898317726719382e-01 -8.129944515881764033e-01
-3.065693014135881592e-02 2.008691225929973637e-02 -7.102234607860924420e-01 -4.261689145034756598e-01 3.996588985079078671e-01 -8.115742856660597138e-01
4.368248315096524143e-02 -6.507141967932579540e-02 -7.854888882887327561e-01 -2.768208017416611821e-01 4.520949299277967626e-01 -8.479271301572349762e-01
-1.395818784710731349e-02 -1.936422730936796233e-01 -8.376862797100372848e-01 -4.467869876372676519e-01 4.920554652894510439e-01 -7.471698647274246374e-01
3.868825568612328444e-03 -6.264495894999382898e-03 -7.414046841598557203e-01 -3.050477014323962344e-01 4.358176739810746270e-01 -8.467637538868427738e-01
-4.272012368222277701e-02 1.916582895121561325e-01 -6.301502665237680434e-01 -2.599370388464603554e-01 1.897623395004556512e-01 -9.467961714873205370e-01
8.973341928838154957e-03 -5.886789563576572820e-02 -7.915263732525525953e-01 3.051644047590461040e-01 -4.513379885821758863e-01 8.385515524585551717e-01
4.713381225445690409e-02 -2.607929781455144147e-02 -7.862084300577858453e-01 2.371833581229819410e-01 -4.493624662035846096e-01 8.612882378141115680e-01
-2.864368062071070628e-02 1.875633144913765871e-01 -6.559073424937701402e-01 4.866166789199086185e-01 -3.478116110082798418e-01 8.013933435241296088e-01
2.486653395983860412e-02 1.410414628745249033e-02 -7.580445998308535938e-01 2.865870603549510731e-01 -4.396931199580667582e-01 8.511978718832942103e-01
1.271542215857556293e-02 -1.901894201460376244e-01 -8.483533792169328791e-01 -2.585832923988248822e-01 5.226431534757144393e-01 -8.123908019033355687e-01
1.247094869567509298e-02 1.127837709091529250e-01 -6.868066199407557582e-01 -2.535023262601763805e-01 4.037063856221870251e-01 -8.790663938455101079e-01
4.535666999671549710e-02 -4.850695971965713477e-02 -7.974202874503969474e-01 2.371833581229819410e-01 -4.493624662035846096e-01 8.612882378141115680e-01
-2.770459249377510424e-02 7.435634126771670238e-02 -7.068427818406536334e-01 4.400119063266665353e-01 -3.847073749087536743e-01 8.114121997983445578e-01
9.170395606311367021e-02 5.753877311837578973e-02 -7.515972617456768701e-01 -9.435338743843590600e-04 -4.740338690103046426e-01 8.805061049049853761e-01
-5.522441585188408997e-02 -1.446487175676537951e-01 -8.028193276620452234e-01 6.091280182205955906e-01 -3.510427854407072168e-01 7.111483812880960986e-01
-7.225772419088354829e-04 -3.259314312482956000e-01 -9.478047714360763321e-01 -7.625952794881257768e-01 -3.494640684716916468e-01 5.443558620513241353e-01
5.417174863850318656e-02 1.423795085047879216e-01 -7.031894608453679307e-01 1.084694868307892190e-01 -4.659411746828055478e-01 8.781418975096636492e-01
-6.894695913607451487e-02 5.365932935249492775e-02 -6.937661520895390677e-01 5.667760059934759953e-01 -3.799626382736455699e-01 7.310221286296428866e-01
2.799958681188733853e-02 -1.690138445683845303e-01 -8.600444137676043210e-01 -2.002552070892499661e-02 -4.245359005006607567e-01 9.051896197518118914e-01
-3.701684080905490865e-02 -8.007045223949578461e-02 -7.585012387678901069e-01 -4.311564123001014326e-01 4.235937384507357795e-01 -7.966633497769523009e-01
-2.986011332753419484e-02 -9.071722864958997601e-02 -7.681888736828039743e-01 -4.312056134817474073e-01 4.317984159672906830e-01 -7.922195698605081216e-01
4.818051701097360306e-02 8.910131973940081662e-02 -7.283912059805406347e-01 2.369713650158202234e-01 -4.282069880004012452e-01 8.720569635007585640e-01
2.211057897770739994e-02 2.010599791236585554e-01 -6.538112714139803217e-01 -2.109089615401102680e-01 3.090497005502432226e-01 -9.273649187519859005e-01
2.585682209642671189e-02 4.407761335531115710e-02 -7.233914722485722537e-01 -2.663821080586141199e-01 4.278173904519873005e-01 -8.637203557477968197e-01
1.101969731208971535e-02 3.621830814649892871e-02 -7.426567065654127164e-01 2.664017832093313887e-01 -4.292846081896730115e-01 8.629859877624476150e-01
-2.003037325280396241e-02 -1.596164016159323518e-01 -8.131769151252701278e-01 -4.631588517843296393e-01 4.615503919486786955e-01 -7.566076352415712636e-01
-4.269491023024277188e-02 1.068798868075514080e-01 -6.625329470694771850e-01 -4.259777869611328649e-01 3.819049700265263469e-01 -8.201777361552397005e-01
-7.827480970978940855e-02 4.399233741182410895e-02 -6.917039995389336893e-01 5.557943242881486778e-01 -3.858766972727231126e-01 7.363367732165598811e-01
-9.996703077601977808e-03 -2.235373055935683390e-02 -7.641602482359404203e-01 4.041178244215107851e-01 -4.169562685619960241e-01 8.141475628482109927e-01
3.804845175321105999e-02 1.219187492332599598e-01 -6.900313816521963517e-01 -2.762876577244647858e-01 4.097755871919565585e-01 -8.693383106309167108e-01
1.783579231622689325e-04 9.288789703624636407e-02 -7.116701274605820027e-01 3.043628830427773657e-01 -3.971732073352065573e-01 8.658040649020735113e-01
8.618008973086829783e-02 -2.210563116921423696e-02 -7.918776083086586093e-01 -7.941643789769929976e-03 -4.206847506183459817e-01 9.071721285903225906e-01
8.435153411159583559e-02 -3.090689156300281334e-02 -7.959750421408047227e-01 -7.941643789769929976e-03 -4.206847506183459817e-01 9.071721285903225906e-01
-4.470998261802287821e-02 6.321830510768930433e-02 -6.820018150825478687e-01 -4.199173124743300067e-01 3.916846473101190385e-01 -8.186895551708740504e-01
-9.013049434211954994e-03 -2.168255442542275646e-01 -8.558709943878318738e-01 -4.069989108918764531e-01 5.050894710666338216e-01 -7.610758915840486472e-01
-6.343568148414811814e-02 1.306981902588561784e-01 -6.582913618350580975e-01 5.790220353443219503e-01 -3.790443802104105364e-01 7.218440554694792732e-01
-1.757005515882570715e-02 -4.027784244221017662e-01 -9.918415065065865344e-01 9.796513831825524043e-01 5.567031129754616836e-02 -1.928314908632557945e-01
-2.567784219653003464e-02 -1.614003491414472691e-01 -8.335282463670440345e-01 4.631447711762038955e-01 -4.622710707849437273e-01 7.561761554343561231e-01
4.134374607187232820e-02 -4.145265688273766513e-02 -7.721606455333136498e-01 -2.816908021906294746e-01 4.495560256413410061e-01 -8.476730925131231720e-01
1.076638707688058229e-02 4.287501540319437615e-02 -7.392671912008900170e-01 2.664017832093313887e-01 -4.292846081896730115e-01 8.629859877624476150e-01
3.317178344673491625e-02 -1.809271499780559511e-01 -8.494638745236827715e-01 -4.123527441920499803e-01 5.319110959812517470e-01 -7.396186857626770861e-01
-2.463065087884155555e-02 2.090529587231117897e-02 -7.343555792457170384e-01 4.380165464059461167e-01 -3.985517038889204167e-01 8.057903228519477379e-01
4.578580736591016109e-02 1.277357131526973000e-01 -7.089563645601871800e-01 2.132876572882393129e-01 -4.223341774111074587e-01 8.809893403662599765e-01
-3.854038556328397147e-03 -5.739185517224765914e-02 -7.859460032449048228e-01 4.042803753563198321e-01 -4.330342202800576690e-01 8.056294074623864265e-01
8.891233402870724056e-02 -2.800164441993447870e-02 -7.828619030870692663e-01 -4.202007136305080381e-01 4.400156417285914223e-01 -7.936104808396798882e-01
7.934627981182718059e-02 1.372205813046774858e-01 -7.039220449270258140e-01 -8.726718295262616554e-01 -3.764277851517016105e-01 3.110401911603573599e-01
5.702927511757472506e-02 -9.483812021426196726e-02 -8.246743967795828745e-01 1.008084935103880087e-01 -4.483287840353937792e-01 8.881660593838921480e-01
-3.331191750490013204e-02 1.722606194404808500e-01 -6.597562679257137352e-01 4.668690858993590487e-01 -3.558151910258526840e-01 8.095855769878392838e-01
-8.959131028539335517e-02 -2.539191938707943685e-02 -7.172003929399591859e-01 6.641450352124882439e-01 -3.124334342121762309e-01 6.791882812512216594e-01
9.496498606563388845e-02 3.592044099108230443e-02 -7.629273966198070189e-01 -2.753685390432022984e-01 -4.770113669033682058e-01 8.346450284703028633e-01
-6.136011990663953891e-02 -1.271141243686482736e-02 -7.316148550287895347e-01 4.488322821948987351e-01 -4.029419842708543698e-01 7.976135278263436490e-01
8.202689125101428336e-02 7.912515213590631813e-02 -7.395067157307131378e-01 -6.963083196395145925e-03 -4.906588013964114925e-01 8.713239673534963758e-01
-1.451557693118044404e-02 -2.040469523379380146e-01 -8.662878041745892821e-01 4.076021588086813918e-01 -4.839422167243878636e-01 7.743774344635747653e-01
-6.635127010615030074e-02 1.139054390929062216e-01 -6.481116800217354701e-01 -2.807804609353246605e-01 3.473421820506509827e-01 -8.947154527140117608e-01
1.456512652336939065e-02 -5.009836240214876613e-02 -7.682153443773636070e-01 -3.051547308073802034e-01 4.493615969290927215e-01 -8.396158320751289095e-01
-4.621179527849318680e-02 -1.261137858843383308e-01 -7.787886805588241090e-01 -4.268308011749349928e-01 4.517722974966307814e-01 -7.834010839812379778e-01
7.986181942938055944e-02 8.768627841428225378e-02 -7.209348628840290818e-01 -3.277022180712322319e-01 4.087705567864611811e-01 -8.517733784145177234e-01
2.456094461824174374e-02 1.651171423990313858e-01 -6.861657384492897416e-01 2.357192478245409006e-01 -3.971060914101100514e-01 8.869854499201315079e-01
-5.229396997083599757e-02 -1.465828644886071723e-02 -7.166199372704272763e-01 -4.048270949893953974e-01 4.141938155250718401e-01 -8.152045794420135216e-01
3.182746435804302554e-02 1.192407598137727315e-01 -6.894621184659854851e-01 -2.544148708753929955e-01 4.058019184873090102e-01 -8.778370443479113217e-01
-7.806830277263922258e-02 4.735000557894110396e-02 -6.901002897118226898e-01 5.557943242881486778e-01 -3.858766972727231126e-01 7.363367732165598811e-01
1.697164957552708964e-02 -4.767220408831880640e-02 -7.878940062452158832e-01 2.538767789626906746e-01 -4.586455745075647128e-01 8.515813631639403969e-01
3.561440859129284819e-02 -2.216773101924301298e-02 -7.804177468805153506e-01 2.866434079485207231e-01 -4.465280153690423526e-01 8.476132892836462096e-01
5.784499757803356068e-02 1.182507276394048346e-01 -7.162266585075079961e-01 1.084445258813297314e-01 -4.575304791443127739e-01 8.825563129117309780e-01
2.920378440790602145e-02 -1.330099982879619780e-01 -8.189414133442450838e-01 -2.420159748448292014e-01 4.858458587685034469e-01 -8.398702694091525478e-01
-7.813427557877260232e-02 -6.713593745864452136e-03 -7.002170625931449788e-01 -3.807353064774805507e-01 4.128481123386344431e-01 -8.274038086327165642e-01
-6.136320731171869547e-02 8.829909665240820438e-02 -6.618847781682187792e-01 -3.845048555581003780e-01 3.866837098892924041e-01 -8.382313073123062175e-01
6.143536905258613345e-02 -8.454493059801672372e-02 -8.021376343967441258e-01 -2.937778129558586970e-01 4.552070409555563080e-01 -8.405243283090377826e-01
-2.830426963605732135e-02 -1.033247204180644807e-01 -7.979722449006605434e-01 4.514655493064520519e-01 -4.336958656768641340e-01 7.797991753549236016e-01
-1.065259424173598500e-02 7.969258283855026881e-02 -7.133141424816771270e-01 4.035820157451669443e-01 -3.910401858441585610e-01 8.271693476078728624e-01
-4.835335121332651892e-02 6.880436552001785444e-02 -6.986053638733245030e-01 4.672450155865309207e-01 -3.856823018097668143e-01 7.955697690839330649e-01
-4.858948389664866085e-02 -4.217926825313488698e-02 -7.539146694799441217e-01 4.676630100672286572e-01 -4.067997376935498788e-01 7.847326184295631002e-01
7.246551111577503868e-02 -7.303254468488522277e-02 -8.156106241004321689e-01 -7.086669150782227175e-05 -4.267489280926118345e-01 9.043701384663909160e-01
7.919127904184510014e-02 4.047078388348753636e-02 -7.600880962388717466e-01 1.439607466784308953e-01 -4.581714664023178174e-01 8.771283890004578643e-01
3.949147515632933647e-02 1.893643429509791476e-01 -6.625477161851657248e-01 -3.131098685804735160e-01 3.070494754411757232e-01 -8.987117612609826223e-01
3.101539425028233127e-02 5.146233922547472500e-02 -7.213745155819925037e-01 -2.813414558023696332e-01 4.175363160502382764e-01 -8.640083390952884024e-01
-1.291965107834667538e-02 -2.791661435548191059e-02 -7.655583533646176386e-01 4.041178244215107851e-01 -4.169562685619960241e-01 8.141475628482109927e-01
2.074661247573122980e-02 2.001013315008650373e-01 -6.690748226013357725e-01 1.239142068010377351e-01 -4.887336811127140912e-01 8.635882458086640012e-01
-1.080846967418259801e-02 2.278511222387516466e-01 -6.352965565481291099e-01 -3.418903148072538478e-01 2.648979454635866926e-01 -9.016319044544551797e-01
1.385369890313401138e-02 -5.335822157500260537e-02 -7.697014526331498185e-01 -3.051547308073802034e-01 4.493615969290927215e-01 -8.396158320751289095e-01
1.624324005590070674e-02 1.779103319326047206e-01 -6.782323387951441074e-01 2.136477728421923572e-01 -3.982208395152608826e-01 8.920621010531339934e-01
1.574702506324553229e-04 8.101668903559908555e-03 -7.530517289069045272e-01 2.966704243957983267e-01 -4.365506478201848228e-01 8.493586940607567026e-01
-2.654586527359032756e-03 -1.156104779378755720e-01 -7.973355993745544490e-01 -4.042608901571815294e-01 4.586106465731267789e-01 -7.913592152361037524e-01
7.393326384214091163e-02 2.508144917670839663e-02 -7.493269201109646893e-01 -3.279460173206396600e-01 4.223254639138500632e-01 -8.450400063035370390e-01
-2.171646329094288966e-02 1.442932865903785999e-01 -6.578274070601006773e-01 -4.499981416069320783e-01 3.430456954145917337e-01 -8.245127794084374795e-01
8.892724986174141422e-02 5.507569323372232123e-02 -7.405104733335694522e-01 -4.202077786183737729e-01 3.975278845609755973e-01 -8.157187038342860186e-01
-1.070847493595546802e-03 1.988125041543237492e-01 -6.479537872923645248e-01 -3.175393514666192130e-01 2.785108494165188797e-01 -9.064217931114895155e-01
-2.204593004008946304e-03 2.253474324807318296e-01 -6.502424051849954312e-01 2.213791459626376912e-01 -5.029778986454920275e-01 8.354666403914750017e-01
6.483773145863146181e-02 -7.713143221239794221e-05 -7.780934011545314055e-01 2.574931161334542695e-01 -4.382766305604962054e-01 8.611683286375678703e-01
-2.683532314773329555e-02 1.305229816957224898e-01 -6.606959893372741366e-01 -4.661311013414659032e-01 3.400766700711746471e-01 -8.167433224921361035e-01
2.141287325761277293e-03 1.780390983510761471e-01 -6.562228684159860936e-01 -3.199561888083511385e-01 3.183693398922858298e-01 -8.923390614894010087e-01
-6.857236719759676746e-02 1.310620317477771135e-01 -6.407542023181290736e-01 -2.807804609353246605e-01 3.473421820506509827e-01 -8.947154527140117608e-01
-1.458741484424133129e-02 -3.699648836037366939e-01 -9.705588907620833483e-01 9.666959100921008741e-01 7.155928617355504506e-02 -2.457199340174418822e-01
2.224095549175217172e-03 -3.770770675574606351e-02 -7.570100944061253223e-01 -4.042819221617732217e-01 4.332961130980513276e-01 -8.054878061071458761e-01
3.692275577375744855e-02 2.052085165270354228e-01 -6.654066320390717992e-01 -1.317733780498148433e-01 -6.251027546729935880e-01 7.693388869266752916e-01
-7.686713768676317615e-02 1.886613472926855148e-02 -6.880366757297050606e-01 -3.807353064774805507e-01 4.128481123386344431e-01 -8.274038086327165642e-01
-6.461113990342094889e-03 -2.743195150757278822e-01 -9.119632682461994433e-01 3.540247320390114694e-01 -5.252427762758856700e-01 7.738129716376602740e-01
-2.140300623528023196e-04 -2.543684006646458329e-01 -9.015645706363129008e-01 3.543731252839857904e-01 -5.145427918447726956e-01 7.808107347091532979e-01
7.022812053074881100e-02 1.120252002306347007e-02 -7.736391669096358559e-01 1.363541930193373219e-01 -4.432893445624326301e-01 8.859470023897897395e-01
-1.491015067420809262e-02 -1.762867537835096157e-02 -7.377025064030393597e-01 -4.382550571505165471e-01 4.121463632536738753e-01 -7.987915123101699821e-01
-8.786313441151524795e-02 -3.326264729514202129e-02 -7.225111354733158020e-01 6.689029775981841786e-01 -3.113547330013879955e-01 6.750015087375119682e-01
6.018973271827792598e-02 -1.019049810110884274e-01 -8.111256709397316467e-01 -3.246528255134727425e-01 4.549627840306937898e-01 -8.292221704906104218e-01
3.309226966739518133e-02 -1.902012449020297757e-01 -8.629810703293594454e-01 -7.104738047757828134e-01 2.682432874338705475e-01 6.505939682121968382e-01
-5.799830048106793118e-02 -3.196242796488180798e-02 -7.432860317985089393e-01 4.535495126397784404e-01 -4.039784603249231276e-01 7.944144026751555066e-01
5.469736393962725679e-02 -1.458514232681603906e-01 -8.490767621078653127e-01 -3.328626507374114751e-02 -3.791677974421713837e-01 9.247290446072802261e-01
7.095228623196724038e-02 -1.132050346019533027e-01 -8.343330061191228664e-01 4.079045721055626748e-05 -4.176824215481480529e-01 9.085930844254835881e-01
3.095061726936202198e-02 1.747001070114688470e-01 -6.654919584293742529e-01 -2.338142796678505386e-01 3.340287393845106090e-01 -9.131022307981723207e-01
-3.045334121445337008e-02 -8.399490383955408174e-03 -7.459907893207823326e-01 4.217514103662759473e-01 -4.147322894238425484e-01 8.063019756662608284e-01
-2.681502003732284117e-02 -5.489581340135774035e-02 -7.506368893680092080e-01 -4.311564123001014326e-01 4.235937384507357795e-01 -7.966633497769523009e-01
1.851609094577068640e-02 1.752582278041601715e-01 -6.621612095233355699e-01 -2.475907623867259488e-01 3.242624116329756445e-01 -9.129910748647691587e-01
-5.855633196770268500e-02 -8.585605405750255936e-02 -7.707124368672177983e-01 4.677429201253496815e-01 -4.136980249038275104e-01 7.810701024000873405e-01
-5.126781582861453072e-03 -2.605939337139560052e-01 -9.034374394133954933e-01 3.543731252839857904e-01 -5.145427918447725846e-01 7.808107347091532979e-01
-7.286289419473039597e-02 -3.181773386998792280e-02 -7.154192675990376227e-01 -3.808544590776455907e-01 4.203698032165626985e-01 -8.235527363468246875e-01
6.349326541126637524e-02 -8.395891879899530785e-02 -8.025727288503384793e-01 -3.246528255134727425e-01 4.549627840306937898e-01 -8.292221704906104218e-01
-3.282714756858303579e-02 3.790432712017179767e-02 -7.215615941663150457e-01 4.215575897198855504e-01 -4.021342766718721262e-01 8.127590184520570027e-01
-1.655648457588107525e-02 -1.208732790331812357e-01 -7.925926960384410691e-01 -4.594464549855163948e-01 4.462533069533789476e-01 -7.679628513374948673e-01
1.870760109294519746e-02 -1.848837152317465149e-01 -8.468521002773569117e-01 -2.585002418455945028e-01 5.268264204499850667e-01 -8.097107802676365429e-01
7.376958581298120876e-02 3.343477062920591214e-02 -7.450886616986797106e-01 -3.279460173206396600e-01 4.223254639138500632e-01 -8.450400063035370390e-01
6.255356416584705037e-02 -4.568763204591166915e-02 -8.007174138932989793e-01 1.231252081616132504e-01 -4.376061524315948414e-01 8.906969397439150615e-01
2.058908509895684275e-02 8.885726514887446956e-03 -7.392261476604519155e-01 -2.690478176084352135e-01 4.425742171104519174e-01 -8.554188063102241557e-01
-3.546008890951177911e-02 9.473870674504514255e-02 -6.931680716963353195e-01 4.302612620804556198e-01 -3.801131309061138719e-01 8.187730174264934435e-01
4.152905257638925957e-02 1.400589855006737806e-02 -7.434988235477048013e-01 -2.904932294032397389e-01 4.290951966640381698e-01 -8.552724687903423550e-01
4.388728606937245674e-02 1.199657893136754500e-01 -7.122215269198746146e-01 2.132876572882393129e-01 -4.223341774111074587e-01 8.809893403662599765e-01
2.988831861598642559e-02 -7.173927084480899788e-03 -7.707267285420765779e-01 2.865870603549510731e-01 -4.396931199580667582e-01 8.511978718832942103e-01
-5.140671109031114822e-02 -7.751203227525094164e-03 -7.135511557871336841e-01 -4.048270949893953974e-01 4.141938155250718401e-01 -8.152045794420135216e-01
5.823871492732610178e-02 -1.513891377617875844e-01 -8.418763422499595528e-01 -4.378622301417441354e-01 5.708031939991564663e-01 -6.945936806044664680e-01
-6.271540163662465972e-02 1.606594351095640971e-01 -6.400404807306974142e-01 8.163509351802663572e-01 -4.423090899854760227e-01 3.713944258420210920e-01
3.866792889392883098e-02 9.504364829474104548e-02 -7.028962399235761938e-01 -2.762876577244647858e-01 4.097755871919565585e-01 -8.693383106309167108e-01
-1.393560139527786484e-02 -9.664493233930534360e-03 -7.556529354571566159e-01 4.121632660975434459e-01 -4.175216905688182711e-01 8.098129907480872136e-01
-2.208708371496883455e-02 -2.016220929112859939e-01 -8.391058045451624814e-01 4.500280102286386558e-02 7.065211138953714221e-01 -7.062596289751665868e-01
-1.562403353285064106e-02 -1.651961267678684897e-01 -8.192097306492012176e-01 -4.513174196608679689e-01 4.638853616265221635e-01 -7.623142121063249954e-01
-9.402576346445179131e-03 1.510733513955235530e-01 -6.615408041608717982e-01 -3.964375746370598086e-01 3.548043744427581414e-01 -8.467296530133858745e-01
-8.344301160214551150e-02 3.987200237661501362e-02 -6.756172966481639452e-01 -2.870337695933285471e-01 4.024137810103684543e-01 -8.692955561637153439e-01
5.426306460971765111e-02 5.664726191315428913e-03 -7.521196147776206820e-01 -3.016079802721489678e-01 4.343014761977351812e-01 -8.487725572900099991e-01
6.607937672133841478e-02 1.720471580426597147e-01 -6.851284926158272004e-01 -6.520112262930350955e-01 -6.717677410579844244e-01 3.515813744522107154e-01
-2.947286879250179265e-02 1.542136880128286980e-01 -6.698847943102788083e-01 4.506622999694238629e-01 -3.574273625360829820e-01 8.180153861002669169e-01
-2.970563778588992260e-02 -1.376212536963619393e-01 -7.945299308926722093e-01 -4.452281422873978767e-01 4.458719847904979994e-01 -7.765114773744782317e-01
4.413209829408874102e-02 -1.602225808641107585e-01 -8.554261841341217476e-01 -1.611483459633793192e-01 -3.305501305597664530e-01 9.299289337256846366e-01
-6.488827433072215378e-02 2.160872961360087163e-02 -6.921938741017211738e-01 -3.816522592965662097e-01 4.124075202809407426e-01 -8.272010578991977336e-01
4.633895007084731787e-02 -4.293882719042257240e-02 -7.746087825059920773e-01 -2.816908021906294746e-01 4.495560256413410061e-01 -8.476730925131231720e-01
-2.441337633051104267e-02 3.272143072678804221e-02 -7.072801822398522287e-01 -4.261689145034756598e-01 3.996588985079078671e-01 -8.115742856660597138e-01
7.660521119012014823e-02 3.764750192763915287e-02 -7.611384042512855386e-01 1.439607466784308953e-01 -4.581714664023178174e-01 8.771283890004578643e-01
-7.274688636335172043e-02 -1.347172552098398202e-01 -7.801446755776075825e-01 8.938657336959254796e-01 4.299278780584449011e-01 -1.271458603038559954e-01
-1.034460180343022354e-02 -3.947075485607796641e-01 -9.940257799428292573e-01 3.543493605388695622e-01 -5.153364715391445250e-01 7.802979250179243875e-01
-1.964713158391899819e-02 6.925351939914457799e-02 -6.923509875324438401e-01 -4.450287829402117534e-01 3.830176775091964081e-01 -8.094731873695479862e-01
-5.226817165311660983e-03 -1.465407723211653024e-01 -8.139566940768441228e-01 -4.094633470383607365e-01 4.587625041179904106e-01 -7.885916130973837923e-01
5.336667633537117532e-03 1.701544843941943386e-01 -6.785490271281550134e-01 2.585070292501524536e-01 -3.867312196529735790e-01 8.852192268438278111e-01
-4.378226023422949337e-02 1.977282395866853670e-01 -6.334093253328257900e-01 8.096942637125883468e-01 -5.098886210283883891e-01 2.905319146956116816e-01
-8.778252557539398607e-03 -3.792778778739396284e-01 -9.844843222764236845e-01 3.530005604486866622e-01 -5.495894401096250714e-01 7.571935364508217692e-01
1.237838583045286489e-02 -1.200617989643582018e-01 -8.269495290859633085e-01 2.549403312521145160e-01 -4.829836537981572753e-01 8.376945849561425739e-01
2.254810812621503395e-03 -3.178213495775690789e-01 -9.331131326861793474e-01 -5.864831258731985075e-01 4.698673253083922585e-01 -6.597440713439867155e-01
-2.537413960032762136e-02 2.000549382092715323e-01 -6.361621302579816284e-01 -4.803786019098947313e-01 2.592866822186715159e-01 -8.378584697018516270e-01
1.157803873355045358e-02 5.548243686691060883e-02 -7.332834112731451137e-01 2.662121382112723200e-01 -4.168030166845055340e-01 8.691411523749628110e-01
-4.852075803380360292e-02 1.242620456949408703e-01 -6.722047328917096776e-01 4.882894616933831089e-01 -3.731048802103202888e-01 7.889018633280242554e-01
3.435892564486676959e-02 -1.778112738615904576e-01 -8.478848882711912394e-01 -4.123527441920499803e-01 5.319110959812517470e-01 -7.396186857626770861e-01
-2.258067666635088858e-02 1.051203804749191173e-01 -6.742216821295836660e-01 -4.446347743983643519e-01 3.708347277614102988e-01 -8.153413531042298379e-01
-5.556365848471971070e-02 -6.045249416193022168e-02 -7.592311045661652713e-01 4.676630100672286572e-01 -4.067997376935498788e-01 7.847326184295631002e-01
4.314508046867115282e-02 1.131655032608624017e-01 -6.957775622357905698e-01 -2.808877043404518492e-01 4.086987878060516222e-01 -8.683705421052784201e-01
-8.660046558931137894e-02 6.621018900689258635e-02 -6.700266573186842711e-01 8.260437225646063419e-01 -3.147612186849360061e-01 4.675223455874401024e-01
6.440225983470761195e-02 -1.527737154534816039e-02 -7.857071047763349858e-01 2.524440361893832141e-01 -4.411166533230187481e-01 8.612131598817526212e-01
-3.841924397219503157e-02 -1.698398582341844043e-01 -8.093467551000927962e-01 -3.719280183311440280e-01 5.252145127887073439e-01 -7.653883097724898388e-01
1.823758243504619223e-02 3.302005272022008608e-02 -7.265186274613592010e-01 -2.663821080586141199e-01 4.278173904519873005e-01 -8.637203557477968197e-01
-1.908894126127263363e-02 -2.907867070140753712e-02 -7.412917408618118209e-01 -4.405713026098647123e-01 4.107577642083445890e-01 -7.982324138114220702e-01
8.428793589609555326e-02 5.166795550437117135e-02 -7.547426231718247225e-01 2.823434259960767856e-03 -4.745128299763843871e-01 8.802440584331046036e-01
8.720117146047980106e-02 5.787342049969200486e-02 -7.382578755155989603e-01 -4.202077786183737729e-01 3.975278845609755973e-01 -8.157187038342860186e-01
5.224869548695151855e-02 -6.312589086661704596e-02 -8.070124891945186230e-01 2.372238858866171363e-01 -4.562680261509310387e-01 8.576388029218283693e-01
-7.004247878470794275e-02 6.838122089946845061e-02 -6.852647911045354201e-01 5.667760059934759953e-01 -3.799626382736455699e-01 7.310221286296428866e-01
4.347208575491124521e-02 -4.953105157143970760e-02 -7.974356091747857311e-01 2.371833581229819410e-01 -4.493624662035846096e-01 8.612882378141115680e-01
-4.622656132624399644e-02 4.124067473273915208e-02 -7.129609091630798590e-01 4.215575897198855504e-01 -4.021342766718721262e-01 8.127590184520570027e-01
-1.380291153486660951e-03 6.823322946241618114e-02 -7.228867141700463517e-01 3.046842185194087449e-01 -4.116641973678796806e-01 8.588947057647270400e-01
3.325564468998156321e-03 2.477824515302441341e-02 -7.255232159600152331e-01 -2.964931492110725042e-01 4.257044934162750871e-01 -8.549078878780410617e-01
-4.114976389529104162e-02 9.209176078926893660e-02 -6.914070124101466819e-01 4.302612620804556198e-01 -3.801131309061138719e-01 8.187730174264934435e-01
3.997930341771543938e-02 -1.197502507704371055e-01 -8.145780542045926165e-01 -2.617963752939384547e-01 4.797470288519797288e-01 -8.374398164588623406e-01
-2.574815277230889030e-02 -1.770406843572433220e-01 -8.205196423008487283e-01 -4.105662458628687728e-01 4.878261244624331194e-01 -7.703642190873311035e-01
-3.260167056723801970e-02 1.849476293325476306e-01 -6.546392283246088573e-01 4.866166789199086185e-01 -3.478116110082798418e-01 8.013933435241296088e-01
-2.810818903179264361e-02 -2.055652953514249814e-01 -8.433754057474107668e-01 5.025217096124724447e-01 8.089407990557364592e-01 -3.051011553423300660e-01
-5.458363426257378109e-02 -1.580097112192468678e-01 -8.095355561939913125e-01 6.840361381213093672e-01 -2.467011315050086362e-01 6.864642113455249328e-01
-2.435445649355356002e-03 -3.276190473750831278e-01 -9.373045473344200351e-01 -3.535771760619321191e-01 5.368520840117123605e-01 -7.660111098804970320e-01
7.547011750856191803e-02 1.487378480736910313e-01 -6.940978121619156838e-01 -7.995884261847807650e-01 4.510117090878092844e-02 -5.988524301478640455e-01
5.832856273341256725e-02 -4.549007220455366513e-02 -7.994550813863059435e-01 2.524558411045892403e-01 -4.424058038267453252e-01 8.605481700826432823e-01
-9.438554939816755363e-02 -1.881861932269619439e-02 -7.074409583219249953e-01 9.242178681426878040e-01 2.488932534536539287e-01 -2.896091859576295224e-01
4.120824807817474733e-03 -1.158529673375029573e-01 -8.008022447251539333e-01 -2.997028629159776969e-01 4.790319970967504282e-01 -8.250494165305892746e-01
4.465164877886367706e-02 -1.643701834592365407e-01 -8.437405966331258389e-01 -3.357409409251548293e-01 5.318971884097869474e-01 -7.774081306163804772e-01
3.269754562779298573e-02 1.886411766251196998e-01 -6.607439640346413068e-01 -2.187594665293539908e-01 3.396187681433949779e-01 -9.147695819869370304e-01
-1.228213221659324624e-02 1.109948523679451515e-01 -6.981883064454692533e-01 4.112556838822153393e-01 -3.772043768268693031e-01 8.298105931941485158e-01
1.902756288681001218e-02 1.890506144994934801e-01 -6.573135982900447649e-01 -2.118556395760898825e-01 3.338501578699074601e-01 -9.185103483739548436e-01
-3.858470583160191619e-02 7.805660174696102405e-02 -6.781060459362152626e-01 -4.303260250595203895e-01 3.813292876869705528e-01 -8.181732619125490213e-01
-1.241943394976264756e-02 1.697341116564700381e-01 -6.530392758343791515e-01 -3.933996729256096780e-01 3.007402140464245921e-01 -8.687876731384568396e-01
-5.283343707770636610e-02 1.126504186856473466e-01 -6.750158096695089149e-01 4.882404768279168250e-01 -3.715585791645136249e-01 7.896616104611496878e-01
-3.225014279788072924e-02 6.689842772088255840e-02 -6.867488405787168793e-01 -4.305169906867264418e-01 3.878945162079153741e-01 -8.149803464046678769e-01
-2.116356376958899305e-02 1.466553837811557792e-01 -6.571463945514222083e-01 -4.499981416069320783e-01 3.430456954145917337e-01 -8.245127794084374795e-01
2.514787418543038000e-02 1.032165533904163546e-01 -6.949227810740680189e-01 -2.605597812352406506e-01 4.048267316903155222e-01 -8.764838376784711560e-01
3.952838877005707824e-02 -1.177266524300625422e-01 -8.132778257101884734e-01 -2.617963752939384547e-01 4.797470288519797288e-01 -8.374398164588623406e-01
-1.291273201380208242e-02 -1.291046402759570000e-01 -7.995557690093472170e-01 -4.594464549855163948e-01 4.462533069533789476e-01 -7.679628513374948673e-01
-4.645304309129254239e-02 1.112282821875862776e-01 -6.796299045813110062e-01 4.882404768279168250e-01 -3.715585791645136249e-01 7.896616104611496878e-01
5.153599163101811598e-02 -7.025814113043203635e-02 -8.106097464095417537e-01 2.372238858866171363e-01 -4.562680261509310387e-01 8.576388029218283693e-01
-7.030910904174687837e-02 1.181111920534171633e-01 -6.452368897816515014e-01 -2.807804609353246605e-01 3.473421820506509827e-01 -8.947154527140117608e-01
-4.223216475852115126e-02 -1.116485477151573646e-01 -7.729043505535960756e-01 -4.268628861218132231e-01 4.331862401917175864e-01 -7.938121678081783150e-01
5.943514401883465094e-04 9.009053048297276101e-02 -7.131110969850844583e-01 3.046842185194087449e-01 -4.116641973678796806e-01 8.588947057647270400e-01
2.086630592108984841e-02 -4.765202376482582242e-02 -7.688771041825118724e-01 -2.611723178501508258e-01 4.557210630925861983e-01 -8.509449647553848362e-01
4.401594433608978230e-02 -8.305564527625815263e-02 -8.154586877799866462e-01 2.204256982359721895e-01 -4.624190991871252043e-01 8.588254119808936826e-01
6.420165525706253429e-02 2.805973527926469008e-02 -7.443458545587046116e-01 -3.041695472510226317e-01 4.277074967006508910e-01 -8.512033739307961477e-01
