-6.233915875481956664e-02 1.760321363541371975e-01 -7.951895334059130294e-01 5.551438222563030989e-01 -6.576487583368016698e-02 -8.291503589321077561e-01
4.415213570186914127e-02 8.212692161530256441e-02 -8.419439222878808415e-01 9.923675729677968946e-03 4.213541786230650121e-01 -9.068418697969863329e-01
6.728166032419793940e-02 -1.090164056388139152e-01 -9.529636410447214212e-01 -1.881258919120591122e-01 -4.285415428165259555e-01 8.837198622146748006e-01
-8.900733356691872822e-02 -5.469920259869757995e-02 -8.957622151087303308e-01 -2.235487217634117302e-03 4.714474307254456487e-01 -8.818913326817972020e-01
1.249069954217242595e-02 -1.336816941196895259e-01 -9.517069780488577324e-01 -1.966911476574776524e-02 4.865835006128619300e-01 -8.734126303504345934e-01
-1.504348418771050966e-02 1.866047907487115853e-01 -8.137347499471743184e-01 1.630254135965305828e-01 -3.846933632100612011e-01 9.085338358167033279e-01
-1.307216298604205532e-02 -1.887886597439955294e-01 -1.001268535407002780e+00 1.728378906695017259e-01 -4.975397315374484042e-01 8.500478098851624864e-01
6.900610293952288976e-02 -5.008305937781903222e-02 -9.243589319455424169e-01 -1.658852861076136609e-01 -4.208596752627166704e-01 8.918291347510217681e-01
-4.392866007348866092e-02 -1.047599895779979529e-01 -9.468757193494469204e-01 2.119921340300893742e-01 -4.499979806232962676e-01 8.675028256693602113e-01
-5.864037017476836366e-02 -1.543753017678119524e-03 -8.724193780205673487e-01 -1.261712309967297774e-01 4.382564841236246678e-01 -8.899506023327189430e-01
1.640834782400548558e-02 5.235708949060313699e-02 -8.562232771007005638e-01 2.050293050359472749e-02 4.215234155306894492e-01 -9.065857047185922335e-01
6.576485885673495450e-03 1.958688530208846923e-01 -7.963359155181191085e-01 -3.858962669788447430e-02 2.891005527933473429e-01 -9.565206276322005818e-01
2.960799531649692048e-02 5.572880960753743423e-02 -8.543686751697755488e-01 9.923675729677968946e-03 4.213541786230650121e-01 -9.068418697969863329e-01
1.339878184062509407e-02 1.948162202346981620e-01 -7.966910880751839619e-01 1.857064829404249384e-02 2.910280338592363680e-01 -9.565342725328592755e-01
8.187174384459450227e-02 1.093870694774059377e-01 -8.310773154666601936e-01 -1.326023324026597561e-01 3.904908762507828257e-01 -9.110068589238341508e-01
9.154333517553964183e-02 -5.601237089166437311e-02 -9.217370559367340510e-01 -2.932309006978650601e-01 -3.858320451791535377e-01 8.747281130664492643e-01
2.943289873489117470e-02 9.258148365984676664e-02 -8.373195610257641031e-01 3.245016459486178839e-02 4.075478245117140075e-01 -9.126071211389574778e-01
-1.841368282596044306e-02 1.420216111409443871e-01 -8.133130034826098198e-01 -1.770215818958534304e-01 3.736074977964601862e-01 -9.105387400508325735e-01
8.207624202959183657e-02 1.280586948723426710e-01 -8.236257156839550397e-01 -6.099173707428902080e-01 1.332426018287917180e-01 -7.811832114964927243e-01
3.996781418653019141e-02 1.570954764544957027e-01 -8.270467802795207213e-01 -1.137972096684433110e-01 -4.120543783677572680e-01 9.040251016092627490e-01
9.932059693134802358e-02 -1.799995319634958455e-03 -8.946681179764922609e-01 -2.872985459570802091e-01 -4.014567331723200572e-01 8.696505257179784065e-01
1.017921539090177463e-02 -6.568697733193595324e-03 -8.846589006950335010e-01 -1.084111478692154247e-02 4.474939541690009515e-01 -8.942212428769343857e-01
-1.288633790388591521e-02 -1.633297840764952047e-01 -9.864374856703460592e-01 1.728475828777289725e-01 -4.962026502397346439e-01 8.508270347070492345e-01
3.730876511159453984e-02 3.034041019009218673e-02 -8.663624856449591016e-01 4.825433060315004359e-03 4.321814522532538838e-01 -9.017737562848283650e-01
-5.483258335563264557e-02 -3.143356422666614136e-02 -9.070104720204560378e-01 1.794867770879620128e-01 -4.367120409662120784e-01 8.815140895786645059e-01
8.294959232247781089e-02 1.279938980568183227e-01 -8.311752741570080927e-01 -5.171944211482893961e-01 -4.853551522570363486e-01 7.049399314201424405e-01
1.359040014583426034e-02 -7.221002447102137234e-02 -9.181741154893643397e-01 2.619143450593727773e-02 4.587751778121962887e-01 -8.881662822815945546e-01
8.201490778441136720e-02 -7.236486056369606512e-02 -9.320852611956211842e-01 -2.827674285752607708e-01 -3.932538356365746779e-01 8.748679912387106183e-01
-1.095518923211648288e-02 -3.999109264842900524e-01 -1.128998023846708110e+00 9.832429101658621828e-01 5.301811100322358083e-02 -1.744203529242389084e-01
-4.221689173747511514e-02 1.017276408858834719e-01 -8.261888128658692043e-01 -1.544325776077805912e-01 4.090644470078695916e-01 -8.993424582257654176e-01
-7.322753739001006124e-02 2.105823972789101425e-02 -8.775555970184480969e-01 1.742909414443790939e-01 -4.320442397883730301e-01 8.848505199162846058e-01
-7.104247126096874428e-03 1.253502542210815918e-01 -8.412336671033971980e-01 1.338221574786785106e-01 -4.020189060015498250e-01 9.057993317424499757e-01
2.482461043174149368e-02 1.198554183232140719e-01 -8.252902511942393771e-01 2.608822165299637050e-02 4.074577452163758995e-01 -9.128513518389349546e-01
5.868790057207378189e-03 2.292059863080655180e-01 -7.862193730625879340e-01 2.608927433854358181e-04 2.922056565889428192e-01 -9.563554706239734138e-01
-3.378059856240825626e-04 4.384882286589461553e-02 -8.599189349901726898e-01 -1.253148060086531346e-01 4.299802766596202419e-01 -8.940990778871937827e-01
3.688948612978329433e-02 1.868342362895827891e-02 -8.911888304703936559e-01 4.523295284383547187e-03 -4.354834630854079180e-01 9.001853660101961641e-01
2.202777950221816369e-02 1.159487764490684941e-01 -8.460561579180068126e-01 -2.612834979670426716e-02 -4.084471906191606272e-01 9.124079141547470906e-01
-1.494372182437676833e-02 -9.582345222861564371e-02 -9.281775956737630118e-01 -1.858920378810603180e-01 4.663751009127131142e-01 -8.648343283549070337e-01
-2.228187192226519647e-02 -1.592645775605889269e-01 -9.618786293839838297e-01 -1.728455320810924067e-01 4.964904893686014065e-01 -8.506595182598799543e-01
3.601191472253018055e-02 1.741430939049895821e-01 -8.026890076036858890e-01 6.664618503327170151e-02 3.359766850403798633e-01 -9.395094215226309498e-01
6.148698302940318328e-02 -9.155022707972694518e-02 -9.277526525827816117e-01 -7.728192915623832010e-03 4.630182847553960257e-01 -8.863150359868831041e-01
-7.120269983227994759e-02 1.469859825356781002e-01 -8.139808850176950550e-01 4.490303865150818696e-01 -4.401853096026207557e-01 7.775658204912054838e-01
-6.728266021296773480e-02 -3.543454499569077126e-02 -8.878916017005376027e-01 -1.289225786810684893e-01 4.392224155066956626e-01 -8.890796580862073695e-01
-2.216383964345619920e-02 -5.232185554866056187e-02 -9.038697191460096647e-01 -1.651894180712205062e-01 4.507544551141772216e-01 -8.772302305278886214e-01
1.655493623563382768e-02 1.330920056021517306e-01 -8.386618418175927347e-01 -3.331175575388439086e-02 -3.953998585827167012e-01 9.179048309935847749e-01
2.101503414487165822e-02 -1.204180164839734057e-01 -9.636812024469091353e-01 -3.343349293604282180e-02 -4.855179660579166390e-01 8.735871485919876056e-01
-5.665611963403873602e-02 7.695982364986481139e-02 -8.539690742951930869e-01 1.948572051471276767e-01 -4.191094115668596021e-01 8.867795502481613523e-01
-7.542051202784405550e-02 -1.164112989957445249e-01 -9.294924951720940909e-01 -1.410964432982628062e-03 4.838429355288568212e-01 -8.751537138801318561e-01
-4.497187248566283935e-02 2.157240634022939557e-03 -8.726348594954848048e-01 -1.403661565881781093e-01 4.380854435395857838e-01 -8.879068004263666047e-01
4.201029789064994469e-02 -1.676619810338581540e-01 -9.704670691519451386e-01 -1.359194216494986340e-01 5.583192335249855809e-01 -8.184164858399045617e-01
-6.667498259990592424e-02 -1.381257880352936007e-01 -9.556316747341073725e-01 4.509549452699583294e-01 -3.501271959561975122e-01 8.210058367566088755e-01
6.776402530864521212e-02 -1.309681730531803701e-01 -9.628148173544748278e-01 -3.173524168357332309e-01 -3.765667385234616749e-01 8.703361045977133781e-01
-6.667366934819644875e-02 -1.566815818547000472e-01 -9.577313343755959885e-01 8.635389531258375051e-01 4.400306568361157522e-01 2.463199088151613592e-01
4.165782078415106865e-02 8.632073280727559084e-02 -8.590916973259179468e-01 -9.893259852710159161e-03 -4.201467081984684993e-01 9.074022630561806579e-01
-3.534837858436119373e-03 2.005398423500976135e-01 -7.943295612658157756e-01 -1.037917097752473206e-01 2.868568524259488273e-01 -9.523341993219650581e-01
6.788752650256305032e-02 -7.821858684868533695e-02 -9.209358609180798849e-01 -4.215580814979402041e-02 4.670208599300448848e-01 -8.832408528988223706e-01
9.800902074509092177e-02 3.434791998351226228e-02 -8.670161283127135743e-01 -1.439273389787428525e-01 4.238674335744573307e-01 -8.942154773037095383e-01
-3.271280896018490675e-02 -1.360064846848078324e-01 -9.464468818294298202e-01 -1.701567369108270833e-01 4.763581601949722910e-01 -8.626294616459148079e-01
2.581254952144002718e-02 4.623230356072367125e-02 -8.588607019701233192e-01 2.051445972132741671e-02 4.314299323812764708e-01 -9.019131723108545495e-01
-6.915147789087371100e-02 1.429036134778108313e-01 -8.049294996560885096e-01 -2.662122471812053241e-03 3.529193642137532505e-01 -9.356499534905696747e-01
3.855601532752287591e-02 -1.122429965717282041e-01 -9.584344752594244898e-01 -3.249329004991512171e-02 -4.822323576226413278e-01 8.754405401644597129e-01
-1.224285426887527367e-02 1.136302842719982692e-01 -8.265234605218707564e-01 -1.251271789543696722e-01 4.015617842798417936e-01 -9.072438054309938105e-01
-1.815194826649725590e-02 2.030248948289735400e-01 -8.060405070501771574e-01 1.632873256199670609e-01 -4.029748595616392537e-01 9.005267968545722646e-01
-3.939948212061748084e-02 1.705637176123064314e-01 -8.151139117441916770e-01 2.564541124083968282e-01 -4.098048607158200074e-01 8.753806397005297057e-01
6.476871684072453561e-02 -4.305830286415463642e-02 -9.028169052734810185e-01 -1.608025043696950651e-02 4.537906431327790036e-01 -8.909632303024762612e-01
5.052111329203710921e-03 -3.182823891680857664e-01 -1.077691670522209488e+00 -9.695236640419147012e-01 -1.159312439103320352e-01 2.158328324146808475e-01
2.530267618350298675e-02 -1.424880046499031605e-01 -9.560874109080081951e-01 4.596556345688806305e-02 4.863774663148318633e-01 -8.725388972631854534e-01
-7.332077271057023393e-02 3.890372111655935466e-02 -8.687512201645395393e-01 2.944434534857543473e-01 -4.265459820029475213e-01 8.551968065518740225e-01
-9.059600061945385918e-02 -3.642214335190005481e-02 -8.988951096097715920e-01 4.282834433272114105e-01 -3.610036666616824874e-01 8.284018619176373166e-01
6.140246221222962937e-03 -9.238067334184926760e-02 -9.289550957836216760e-01 -1.967172481111701191e-02 4.722888261566726142e-01 -8.812243119265991131e-01
-5.004842991829370341e-02 1.778919243001124695e-01 -7.937895412917616023e-01 -9.940459641866679352e-02 3.137789963524536541e-01 -9.442782787181376314e-01
4.071637374352044675e-02 -1.471724240527478300e-01 -9.772543160786557603e-01 -9.227601809267792221e-02 -4.861772847170056644e-01 8.689745590695734379e-01
-1.178415199214359957e-02 2.060662186462029200e-01 -8.057980213008794079e-01 1.463551247034897418e-01 -4.066419819259062263e-01 9.017884874006748541e-01
1.313599733532236705e-02 -7.929306573491418098e-02 -9.415889779275796734e-01 -3.343739035650097891e-02 -4.721160867284540097e-01 8.809020045262457854e-01
7.197037050460786123e-02 -1.055680814887934305e-01 -9.355923691371106354e-01 -4.017293999881051125e-02 4.673232601413227494e-01 -8.831733156197245638e-01
5.207037476533887300e-03 -1.362341962146475238e-01 -9.529834204280203114e-01 -1.396297376252954650e-02 4.879192650754196059e-01 -8.727770769973106635e-01
4.523391342120026970e-02 -4.552540116940578807e-02 -9.232733500332510612e-01 3.260170808352465428e-04 -4.532265828327413648e-01 8.913952873594404025e-01
-4.697677754031735764e-02 -1.453836202404246714e-01 -9.678543986852026215e-01 2.355847674772959255e-01 -4.748970019323142111e-01 8.479225524116975610e-01
1.312895595200847063e-03 -1.064107378144564520e-01 -9.559981872184631913e-01 1.966900095456369096e-02 -4.868904332935509172e-01 8.732415681635110616e-01
4.126041362543095281e-02 1.321988689695161312e-01 -8.193745118238289216e-01 3.238763019202084426e-02 3.863925678465334190e-01 -9.217656019420050750e-01
4.846680819122407141e-02 1.142733294283325568e-01 -8.272325217278579945e-01 5.119820447025073828e-03 4.143077207545082796e-01 -9.101224642660982189e-01
-4.654344423072886983e-03 -2.084873136405202831e-01 -1.014074324467461707e+00 1.002838796969905827e-01 -4.393604090305386900e-01 8.926956785206463518e-01
-9.528282288794473476e-02 -1.515512895288195598e-02 -8.753222152151175495e-01 -1.117236215484717710e-03 4.501534042183266138e-01 -8.929505386379981147e-01
-4.602947861310755645e-02 4.066460483732211445e-02 -8.732508299872456803e-01 1.444913383943567109e-01 -4.286578029002929280e-01 8.918378446453713027e-01
-2.637329414438801048e-02 8.107749884649238792e-02 -8.383422440157821676e-01 -1.649475403940752483e-01 4.151417898210686963e-01 -8.946784915611331046e-01
-1.634995547111669709e-02 -4.031924068892675517e-02 -9.184285190573880930e-01 1.782216063693418950e-01 -4.533692170995832771e-01 8.733232002011867001e-01
6.929085552502950440e-02 1.018782999944934931e-01 -8.331626664097265822e-01 -4.966770116662414664e-02 4.108418205113544830e-01 -9.103527437096783359e-01
-4.555908004389223886e-02 -6.792832465285859878e-02 -9.077333774865768978e-01 -1.497013245189931785e-01 4.502345999612754612e-01 -8.802717298851359118e-01
8.169843088823640354e-02 1.248441415319560821e-01 -8.341310943376506470e-01 -5.283575668362464617e-01 -4.458173504443461166e-01 7.225546149666920437e-01
-2.676540959254380611e-02 2.249864230430025092e-01 -7.831050352650570368e-01 9.797636090210955218e-02 9.714443135455301526e-02 -9.904360616219405333e-01
7.863153813211598564e-02 8.253534394540282260e-02 -8.424622345154617609e-01 -4.970583550429517189e-02 4.221202698186206081e-01 -9.051761197275781656e-01
-8.144642030875005878e-02 1.124528087301858853e-01 -8.168867078012483907e-01 -1.189892624959947368e-02 3.946444594485855051e-01 -9.187568591203226775e-01
9.883193728035237491e-02 5.341239825659032520e-02 -8.657755058008953508e-01 -5.332513681256625393e-01 -4.449435248527007225e-01 7.194916525462705659e-01
-3.827488851771911754e-02 7.352172543306563501e-02 -8.590622773961696934e-01 1.544599347456602212e-01 -4.144910710516315766e-01 8.968496421233818072e-01
3.828779389592112253e-02 5.415493580239378463e-02 -8.550381435809313313e-01 4.823050913956610647e-03 4.232633441252421358e-01 -9.059938629481980588e-01
2.089076904610199029e-02 2.229467419709177112e-01 -7.872175921471137316e-01 1.534309804667641497e-01 3.580499524365838293e-01 -9.210098619413192855e-01
-8.721222345629385184e-03 -1.489988485874622626e-01 -9.586348401103962358e-01 -1.310723608280970620e-01 4.838893574040180612e-01 -8.652578378830646511e-01
-6.879756673895852316e-05 6.317991664427696774e-02 -8.509796836225488326e-01 -1.252600067635136760e-01 4.160118520279409982e-01 -9.006908846423877790e-01
5.726344482776445088e-02 1.671022176122675257e-02 -8.730859299955029407e-01 -1.604425231092308432e-02 4.357263682967881246e-01 -8.999361721470447995e-01
3.232299902480403886e-02 1.966790488368596324e-01 -7.950038309512323931e-01 6.624696075066437151e-02 3.020425033180919594e-01 -9.509898350564218727e-01
3.507078707744172574e-03 2.403360986435678914e-01 -7.828317134485005546e-01 -4.447560652106384571e-02 2.601910076114379855e-01 -9.645323011608932795e-01
-6.298389261099979208e-02 6.571423199354542444e-02 -8.394741088986040767e-01 -1.288530484442768353e-01 4.232816977318140661e-01 -8.967884345105539001e-01
9.834426243938237944e-02 4.209972773751870928e-02 -8.634588563618195156e-01 -6.097916489189397771e-01 3.034576223226712610e-01 -7.321663857095542793e-01
-5.751554848769650091e-02 3.153380976728923507e-02 -8.565204574453038067e-01 -1.289091430489134049e-01 4.318425200382171036e-01 -8.926894592888600100e-01
-8.502772883692089056e-02 4.917917228793446810e-02 -8.446055886799617163e-01 -1.011376511852312837e-01 4.192849524446974341e-01 -9.022035824392310444e-01
3.197994931181332573e-02 4.329200873344343087e-02 -8.601838551573203207e-01 4.825433060315004359e-03 4.321814522532538838e-01 -9.017737562848283650e-01
-2.536991861841660784e-02 6.165835516690140738e-02 -8.475379522692383372e-01 -1.649475403940752483e-01 4.151417898210686963e-01 -8.946784915611331046e-01
8.382814343606931340e-02 1.296707457859834767e-01 -8.258211281943523829e-01 -9.372287213548670115e-01 -3.418247791810716807e-01 6.897930273156323289e-02
-8.794416264564032526e-02 6.743166361797366115e-02 -8.483825231736262795e-01 4.285239208666448141e-01 -4.315996078200592390e-01 7.937814735647644726e-01
5.935455089745070301e-02 4.631617004232022744e-02 -8.587887581633987244e-01 -1.604425231092308432e-02 4.357263682967881246e-01 -8.999361721470447995e-01
-6.601337936824961880e-03 2.102549971058647327e-01 -8.046243217577608853e-01 1.165521817547110206e-01 -4.056012393912206693e-01 9.065887841422495264e-01
-7.977204120835468260e-02 6.166424953565347034e-02 -8.550159804758029614e-01 2.944969644414873744e-01 -4.332197786588662947e-01 8.518169764177704328e-01
-8.858051429689943468e-02 -1.906308480192431959e-02 -8.773049312325535976e-01 -1.954326429433465937e-03 4.502543939304023413e-01 -8.928981808440273893e-01
-5.309297868983603452e-02 -1.483937805383582775e-01 -9.499533739524091969e-01 -9.198239091233481601e-02 4.951881081003725038e-01 -8.639027592026918834e-01
-6.410278678522224327e-02 -1.604816211583508789e-01 -9.600888547859679489e-01 8.672124265823992761e-01 3.967961127093273532e-01 3.008246202022595295e-01
-2.400177594898513997e-02 1.440715549681249041e-01 -8.301622499679051082e-01 1.772828504502919900e-01 -3.881516226757396604e-01 9.043832753597391694e-01
-3.760193977644616520e-02 1.901079186657192999e-01 -7.912417335871633206e-01 -2.089526903087102205e-01 3.264929190520183266e-01 -9.218140523021141064e-01
-4.612717462577223260e-02 -1.455462418398272284e-01 -9.492517800873293554e-01 -1.499843641322617938e-01 4.794866529769284957e-01 -8.646370568815701096e-01
-5.314353327970119771e-03 -3.428772599597692539e-01 -1.084510605051820509e+00 2.456934605426328300e-01 5.358534741070715146e-01 -8.077721075488853986e-01
5.067975694019971611e-02 3.701736013211875953e-02 -8.631423908220133834e-01 -4.523449932349399641e-03 4.362336830812924560e-01 -8.998220447099748442e-01
-7.401630267133242624e-02 -9.712716294297669972e-02 -9.189556468701211012e-01 -1.030830717998451052e-01 4.649242624383051470e-01 -8.793288977990577626e-01
-5.432800203999298833e-02 -2.053297355333849952e-02 -9.017301787726282880e-01 1.794783842293343479e-01 -4.354124286464675642e-01 8.821584475447779017e-01
-1.111084623635283895e-02 3.112152031276252395e-02 -8.644947045166254673e-01 -1.340441281653201588e-01 4.271610773806534533e-01 -8.941843130336153411e-01
6.814428033979043342e-02 1.670167775327578152e-01 -8.143433605455193680e-01 -4.749516627834515226e-01 -5.719668233511233657e-01 6.687861175329969932e-01
7.261871046144600939e-02 1.349439643957133228e-01 -8.316564089843225815e-01 -2.865099641375074002e-01 -4.693919150811644569e-01 8.352145056848336857e-01
-3.555310586612266122e-02 1.494620926898813928e-01 -8.254407300343997722e-01 1.696579494506349761e-01 -3.960200244843758988e-01 9.024324464443863603e-01
-6.549725681876068795e-02 1.683839292259451115e-01 -7.967382515917313945e-01 5.363565802715284381e-01 -4.944486952792728068e-02 -8.425418824466818224e-01
6.099130033950259100e-02 1.173585061669374374e-01 -8.258291529155938893e-01 -4.011769610950344928e-02 4.097359543673397830e-01 -9.113215777965266717e-01
-5.540727160405160140e-02 -1.712972753882803789e-01 -9.711188843452411845e-01 8.635389531258375051e-01 4.400306568361157522e-01 2.463199088151613592e-01
1.853870178862406307e-02 -3.365275029439420557e-02 -8.981428718791555355e-01 2.053299582735175488e-02 4.571454387857255552e-01 -8.891549043219413306e-01
-4.352136851280473395e-02 1.188989219923653889e-01 -8.181595754105995821e-01 -1.496846228902972142e-01 4.089806702984859488e-01 -9.001829397363577678e-01
-4.230296876034572717e-02 2.151155486635820957e-02 -8.830915294289674033e-01 1.403236711811924609e-01 -4.308103707713019648e-01 8.914660351029233265e-01
-1.072685695765856172e-02 5.471082200078106195e-02 -8.534095782491195603e-01 -1.252159249498221716e-01 4.160260680995020999e-01 -9.006904478235732148e-01
2.169759785328694707e-02 4.684784654481092409e-02 -8.777383116413648434e-01 -2.051597493227706390e-02 -4.329095587223624753e-01 9.012038663584327480e-01
7.391206138313821672e-02 6.173584230676083806e-02 -8.519027240761198883e-01 -4.970583550429517189e-02 4.221202698186206081e-01 -9.051761197275781656e-01
-8.829069655481081892e-04 -2.723949982042198070e-01 -1.050529876577463773e+00 7.240347149075392064e-02 -5.427058438347108771e-01 8.367963338732680167e-01
6.086294409337054956e-02 7.650594203458188636e-02 -8.629116104182905644e-01 -3.505144751610559523e-02 -4.329665211472262798e-01 9.007282540215413302e-01
-7.009139686309533157e-02 1.852054758395427214e-02 -8.610332035891610225e-01 -1.261447034216343355e-01 4.331503221155928451e-01 -8.924507337942113594e-01
5.078825889966080004e-02 9.936698786394046121e-03 -8.762716395570915306e-01 -4.523449932349399641e-03 4.362336830812924560e-01 -8.998220447099748442e-01
7.270656998557101236e-02 -1.115430069018170517e-01 -9.526580374511610660e-01 -2.855207036735823989e-01 -3.838923801204220942e-01 8.781255993644758728e-01
-5.318768177418193438e-02 9.413552406281023091e-03 -8.871886199881773294e-01 1.742909414443790939e-01 -4.320442397883730301e-01 8.848505199162846058e-01
-8.974492290123839422e-02 2.274854233701682077e-02 -8.568683071257641171e-01 -1.670464874740182392e-03 4.286835342092359391e-01 -9.034531736869274576e-01
-8.207887101029556765e-02 1.294571924962313880e-01 -8.147752371564290774e-01 9.584534463140086391e-01 -2.830916863805569839e-01 -3.501554441976392068e-02
6.663898221003558033e-03 -3.885156481970915565e-01 -1.118202025776163788e+00 -9.102847668888751631e-01 2.062529733079140337e-01 -3.589447787218966734e-01
-7.459987815737700867e-03 6.468681376309938502e-03 -8.963039600312870947e-01 1.340865490396869197e-01 -4.427208823248078851e-01 8.865771357982177303e-01
-2.077745335756729043e-03 -6.422777192043929717e-02 -9.330631419252520820e-01 1.254222436399575480e-01 -4.571528330859773170e-01 8.805001692230297605e-01
-2.704446368693422947e-02 -1.007559249096279530e-01 -9.283424452396423776e-01 -1.701693285704545255e-01 4.635092872340123016e-01 -8.695984937094238809e-01
1.818014571421169151e-02 -8.397461719876504749e-02 -9.439065712445209311e-01 -3.343739035650097891e-02 -4.721160867284540097e-01 8.809020045262457854e-01
2.141975579520298024e-03 -2.138487210816727435e-01 -9.987963523433754931e-01 -4.482482653663844713e-02 5.250877427655086249e-01 -8.498668115201248874e-01
-4.754540472109802796e-02 -1.779126434414014524e-01 -9.810023642530287802e-01 7.591367824562246236e-01 4.195247061663481825e-02 6.495778134536087656e-01
-6.298375316130469526e-02 -9.872056019091626777e-02 -9.387691235312739524e-01 3.283486054379516905e-01 -4.099582166096714109e-01 8.509532619017158295e-01
9.624166045875072462e-02 7.126173387540500614e-02 -8.538716469989341418e-01 -9.785622371242737039e-01 -2.031529575964043655e-01 3.383524632938973709e-02
9.261750736952758384e-03 1.891397211208209472e-01 -8.148234778786972443e-01 -1.891575808062363750e-02 -3.909542287295352248e-01 9.202157274980306001e-01
-1.950679794527402505e-02 -9.220074846627902831e-02 -9.252623376917026299e-01 -1.707926763316214014e-01 4.634456233736372610e-01 -8.695102160913941169e-01
-9.605208827969420951e-03 1.766177933349320495e-01 -8.188086160651727452e-01 1.278278592929872060e-01 -3.850166373345948467e-01 9.140143474607679286e-01
-3.327989961678071845e-02 1.570606566303017204e-01 -8.226205924787064472e-01 1.951202948520899816e-01 -3.876217696765900667e-01 9.009314259196544716e-01
1.931306242700993672e-02 -2.653870809500373518e-02 -8.945540046417629343e-01 2.052798740639928676e-02 4.474831117879878861e-01 -8.940567467435063254e-01
-2.513840499525379912e-02 5.831218405232992119e-02 -8.683992514832254983e-01 1.649349868760400240e-01 -4.139412679304669274e-01 8.952368830696810775e-01
7.641050516419278793e-02 -5.018874715190129593e-02 -9.230315457758293540e-01 -1.658852861076136609e-01 -4.208596752627166704e-01 8.918291347510217681e-01
-3.959996778483565461e-02 2.002184525025730299e-01 -7.991727933851631160e-01 4.550408747876382720e-01 -5.208054683387097761e-01 7.222876618224889356e-01
-5.489023112599750176e-02 1.752941227650539058e-01 -8.063937851990994332e-01 5.384962426830650628e-01 -4.952941217239509308e-01 6.816931344834870066e-01
3.769338401499260777e-02 1.365951626977327804e-01 -8.176569736737711036e-01 3.238763019202084426e-02 3.863925678465334190e-01 -9.217656019420050750e-01
-2.627368427160830036e-02 6.949686045079707386e-02 -8.437341668124910266e-01 -1.649475403940752483e-01 4.151417898210686963e-01 -8.946784915611331046e-01
4.583402193449124390e-02 -1.571055802649077293e-01 -9.639005796951722882e-01 -1.359194216494986340e-01 5.583192335249855809e-01 -8.184164858399045617e-01
-4.897312292777960402e-02 1.809198001923612298e-01 -8.058972518879702340e-01 3.577428129819600899e-01 -4.568410365597905254e-01 8.144423534386766583e-01
8.361457662966641224e-02 4.029672545403272660e-02 -8.624732671137437245e-01 -4.391080468956273103e-02 4.349316006969725090e-01 -8.993922080753670167e-01
-3.603618368981934689e-02 -1.725665307966179618e-01 -9.858422648379288056e-01 4.393210233144483889e-01 -3.624571689593114043e-01 8.219621883906504944e-01
-7.772217757681020023e-02 2.827277636718943197e-03 -8.851646265494441668e-01 2.869884960774295446e-01 -4.119610901028414873e-01 8.648269557318931655e-01
2.655892410645472462e-03 -2.512864404667492502e-01 -1.037513305916494932e+00 7.247472323702257302e-02 -5.319281777380935328e-01 8.436823028960298565e-01
-7.567289162285631421e-02 -2.120443034741472180e-02 -8.797855663058798958e-01 -1.012467244600034344e-01 4.410669155898868654e-01 -8.917449617228817571e-01
5.936556146180090553e-03 -2.427712071861412857e-01 -1.032652863567037560e+00 -3.809886180057244776e-01 -4.521744881047094489e-01 8.064650675989211148e-01
-3.673892858413019963e-02 1.964088255913714609e-01 -8.036986990582407619e-01 3.066353563854041231e-01 -4.562378093414212743e-01 8.353573005257912687e-01
1.989067864741260461e-02 7.272111173782140614e-02 -8.466938669953824048e-01 2.611134188325185679e-02 4.197745786729370487e-01 -9.072527216410070094e-01
-5.274205090911635030e-02 2.723168138782981751e-02 -8.592909499355867453e-01 -1.289091430489134049e-01 4.318425200382171036e-01 -8.926894592888600100e-01
6.201517134343118021e-02 -1.166010660787361874e-01 -9.411954867162888316e-01 -4.015704425689577833e-02 4.970332449699437771e-01 -8.668018027157059491e-01
5.404580417481077287e-02 -1.213687099175393969e-01 -9.619301850476082993e-01 -2.177087644804041600e-01 -4.265331774934053577e-01 8.778794577650140818e-01
2.318052430503155653e-02 9.426013410626860045e-02 -8.367618758540523727e-01 2.608822165299637050e-02 4.074577452163758995e-01 -9.128513518389349546e-01
6.212235914132112347e-02 -1.594626637436274974e-01 -9.691514181551402762e-01 -6.145715988443783973e-01 6.819222272915237415e-01 -3.965902492745272956e-01
-4.746519862368561021e-02 8.668781429989026732e-02 -8.513910093684422531e-01 1.948572051471276767e-01 -4.191094115668596021e-01 8.867795502481613523e-01
-7.667623891976170503e-02 -4.419611889133678861e-02 -9.078897453873423506e-01 2.941431309419879625e-01 -4.039581849953058357e-01 8.661972080854009048e-01
2.019018637728130575e-02 3.486700745911563287e-02 -8.644251718381158467e-01 2.051445972132741671e-02 4.314299323812764708e-01 -9.019131723108545495e-01
2.166925903468776976e-02 -2.122572051285624983e-01 -1.005234886668546546e+00 -7.982406441309946032e-01 3.569303271192701965e-01 4.851933796331787119e-01
-2.725641566285293832e-02 -8.520591443931431475e-02 -9.398218291088031862e-01 1.782365360124260056e-01 -4.649057778345111469e-01 8.672337372164318214e-01
6.567006711083879511e-03 2.377275991586373302e-02 -8.889786798817526092e-01 1.087925333768781540e-02 -4.328838929391528034e-01 9.013840341833545544e-01
1.115730771375369502e-02 -6.692955958662798188e-02 -9.349779429238604944e-01 1.967172481111700497e-02 -4.722888261566726142e-01 8.812243119265991131e-01
-7.650372871180069478e-02 1.442026070563887374e-01 -8.057987058565573291e-01 4.945712293186284580e-01 1.712496924121576780e-01 -8.520990799073792088e-01
5.103849232905095096e-02 6.078683767986901160e-02 -8.708862025455323952e-01 -5.083418635236813810e-02 -4.275640166861469083e-01 9.025546504966340811e-01
-8.978511704167456420e-02 9.442688275651106578e-02 -8.317557019269357088e-01 6.451933454666723966e-01 -4.070639567976352402e-01 6.465481281712723849e-01
6.949851591547107077e-02 -3.373650248715867606e-02 -8.981544351587674724e-01 -1.608025043696950651e-02 4.537906431327790036e-01 -8.909632303024762612e-01
-1.153779722252112894e-02 2.252136169545941036e-01 -7.858895793888653891e-01 -1.390173143127954314e-01 2.854907230390500983e-01 -9.482453445073685261e-01
1.415756422646892443e-02 6.115032373040068386e-02 -8.712082400404873583e-01 -2.614732824729848817e-02 -4.185207180247011438e-01 9.078307803823446598e-01
-3.412356004144569133e-02 1.834886673054078599e-01 -7.943746382059403421e-01 -2.089526903087102205e-01 3.264929190520183266e-01 -9.218140523021141064e-01
-6.061961675641358224e-03 -3.114531121099404221e-01 -1.075245662807064573e+00 5.400011551728082226e-01 -4.593825954137890077e-01 7.052420743566876205e-01
-7.471469221110578485e-02 -4.281333129835961787e-02 -9.079109727982694888e-01 2.941431309419879625e-01 -4.039581849953058357e-01 8.661972080854009048e-01
-1.481050457342794266e-02 -4.375507069498546509e-02 -9.008582150336437167e-01 -1.707734073400769548e-01 4.519973255234874254e-01 -8.755197662332214747e-01
-1.718010039585893961e-02 -1.858685350036750616e-01 -9.987712229439414946e-01 1.727318875787553776e-01 -5.019174139363409282e-01 8.474919495788358903e-01
-4.895760051325210443e-02 1.401338230945126384e-01 -8.081910648914396589e-01 -1.493584506855465677e-01 3.836439635124487268e-01 -9.113228640110334622e-01
9.405467942704483220e-02 -6.558711894262894693e-02 -9.236701001811340461e-01 -9.841540482516568655e-01 1.167381407735956084e-01 1.334654104950032394e-01
-9.563834598028315981e-02 4.071029480307724463e-02 -8.588250054222524854e-01 4.196316567518521001e-01 -4.172720842226746996e-01 8.060975625692967661e-01
-2.311439334035551851e-02 -2.029883970911614821e-01 -9.882821861794790497e-01 -1.322572268456085054e-01 5.477233968985933954e-01 -8.261398830930360981e-01
3.904977840284679525e-03 -1.715355866103093416e-02 -8.898369710329494531e-01 -1.966254043131267226e-02 4.451381887970772833e-01 -8.952459870774316375e-01
-1.600698959689402304e-02 2.170622942428065694e-01 -7.876365086731679233e-01 -2.211709376303601648e-01 2.936133552735939456e-01 -9.299863514873161208e-01
7.052109744270128322e-02 7.599398461668806226e-02 -8.450673674643423006e-01 -4.970583550429517189e-02 4.221202698186206081e-01 -9.051761197275781656e-01
4.688215971571683266e-02 -1.228581291261582609e-01 -9.445169237217467817e-01 5.130072811695519236e-03 4.848243707726472840e-01 -8.745964851620738889e-01
-8.467804672713249992e-02 1.559139602326329796e-02 -8.765278566871481658e-01 2.871896496119318853e-01 -4.296019431162968472e-01 8.561333281834541120e-01
8.572966122754392682e-02 -8.434648614687115242e-02 -9.362703599482399275e-01 -2.827674285752607708e-01 -3.932538356365746779e-01 8.748679912387106183e-01
6.065713322823173929e-03 1.579338167535855597e-01 -8.097445081808700706e-01 -2.589628027682029307e-02 3.804654984010390484e-01 -9.244324676223102388e-01
-1.873432758322958469e-02 1.230484527162929859e-01 -8.211022593898629207e-01 -1.774362536435676319e-01 3.980556776553118570e-01 -9.000378066388690090e-01
4.627464936497004133e-02 -5.122916324532560475e-03 -8.836555035998787666e-01 -4.524664789895066312e-03 4.427599507128325840e-01 -8.966287712611664684e-01
-6.590916063851958925e-03 1.874757207099243261e-01 -8.146271413180069532e-01 1.163823318776806559e-01 -3.889226332589736934e-01 9.138896750514360345e-01
-5.255870316500466100e-02 1.802205427501896995e-01 -7.928793432640534045e-01 1.026323636897051930e-02 2.686069476410066215e-01 -9.631951898022623748e-01
-2.453978263777138041e-02 -7.439206162350689433e-02 -9.345830806610135877e-01 1.782365360124260056e-01 -4.649057778345111469e-01 8.672337372164318214e-01
1.404364536651809322e-03 1.451817092382274299e-01 -8.148622701727525897e-01 -2.589628027682029307e-02 3.804654984010390484e-01 -9.244324676223102388e-01
5.756448441141802375e-02 -8.119000302984050177e-02 -9.223061840029994629e-01 -7.728192915623832010e-03 4.630182847553960257e-01 -8.863150359868831041e-01
-2.977831384493879324e-02 -4.223870536992197465e-03 -8.782168449944327548e-01 -1.496664172345285593e-01 4.415198733463694958e-01 -8.846808266218875172e-01
-4.659662406440534532e-02 1.643386721491041369e-01 -8.159196380853263042e-01 2.564541124083968282e-01 -4.098048607158200074e-01 8.753806397005297057e-01
2.038739947479531814e-03 4.959343840026893269e-02 -8.765242638354349136e-01 1.083473354863843767e-02 -4.328723809165375691e-01 9.013900988964644867e-01
-1.851219947306714797e-02 8.805003327546717662e-02 -8.366658189005360402e-01 -1.703112995578456301e-01 4.007005175936532715e-01 -9.002406103054317876e-01
4.989795511558801910e-02 1.916323822068320970e-01 -8.060101349349172439e-01 -4.118275666000583701e-01 -5.279878020767209135e-01 7.427159189397167793e-01
4.298526346514940782e-02 -2.804364132476879629e-02 -9.143839925428667303e-01 3.260170808352465428e-04 -4.532265828327413648e-01 8.913952873594404025e-01
-4.567975609444823587e-02 1.355274159270897505e-01 -8.106674584467491451e-01 -1.493584506855465677e-01 3.836439635124487268e-01 -9.113228640110334622e-01
3.061153527505918945e-02 3.196537128852679210e-02 -8.656195487293064650e-01 4.825433060315004359e-03 4.321814522532538838e-01 -9.017737562848283650e-01
-1.755302483798814109e-02 -8.142704905786198044e-02 -9.397898332403413768e-01 1.779239732552929110e-01 -4.648430478579593239e-01 8.673315401847052630e-01
-3.996329949992816905e-02 1.909989773620163478e-01 -8.053521151923237476e-01 4.580505616716413764e-01 -4.446099931967087415e-01 7.697477748599969027e-01
7.034120990894042642e-03 9.936627628789475308e-02 -8.346879412021515066e-01 -1.957241390833267675e-02 4.052059377978259325e-01 -9.140159017146175513e-01
2.744251154276530422e-02 1.489798404581036406e-01 -8.313550190674323659e-01 -5.144243464814421407e-02 -3.961079959552551988e-01 9.167617637411493714e-01
-6.251793835719979264e-02 -2.350670636031310795e-02 -8.826899374550459809e-01 -1.289225786810684893e-01 4.392224155066956626e-01 -8.890796580862073695e-01
-9.464742633910790126e-02 7.050481200968117257e-02 -8.405342111023035301e-01 9.868069697629496817e-01 -1.486867016753603832e-01 -6.406457033468364315e-02
-2.130790567631454108e-02 -6.499178047901212063e-02 -9.302250179895662496e-01 1.782216063693418950e-01 -4.533692170995832771e-01 8.733232002011867001e-01
-3.397031183086228479e-02 2.079026783154759861e-01 -7.865288526148423998e-01 -1.097743095192559026e-01 2.680899325712839398e-01 -9.571193180703727599e-01
-5.063682051165759902e-03 -8.475748961176024499e-02 -9.436307641049533901e-01 1.254328410689402595e-01 -4.686494293122098198e-01 8.744337109162215738e-01
3.348410431587200975e-02 5.523534143361338855e-02 -8.545589707312944983e-01 4.823050913956610647e-03 4.232633441252421358e-01 -9.059938629481980588e-01
-5.816156160554990934e-02 1.673339696720071434e-01 -8.094818726847891055e-01 3.577428129819600899e-01 -4.568410365597905254e-01 8.144423534386766583e-01
2.218031714783339631e-02 4.972543805507714104e-02 -8.573163457543492294e-01 2.050293050359472749e-02 4.215234155306894492e-01 -9.065857047185922335e-01
-3.734595193678031527e-02 2.059221631734031999e-01 -7.866964363278170502e-01 -1.097743095192559026e-01 2.680899325712839398e-01 -9.571193180703727599e-01
-6.223973012043843185e-03 -2.023038195842997711e-01 -1.010342752153061463e+00 1.001334397254086822e-01 -5.018013964896580470e-01 8.591674183357905781e-01
5.614574860341051132e-02 -1.038607237972885011e-01 -9.341479814555042616e-01 5.130458440176871582e-03 4.660833187864291127e-01 -8.847259566358510741e-01
-4.372198010061148499e-02 -7.293639008361782472e-02 -9.106108587633635620e-01 -1.547305815269203466e-01 4.517336466354522906e-01 -8.786325509778121212e-01
-6.485733599648133008e-02 1.093138580541243576e-01 -8.192525322820437550e-01 -1.047648829049412367e-01 4.075113488038626386e-01 -9.071707776962232295e-01
3.069161734277445555e-02 -1.092725497269542850e-01 -9.374243108032060956e-01 2.555851345822658313e-02 4.702436902981738664e-01 -8.821664435493796752e-01
3.563536751991086549e-02 -1.439060208042407529e-01 -9.563541605736791684e-01 2.555662215139324275e-02 4.830935946833020411e-01 -8.751956568906043010e-01
5.865894091076333250e-02 -5.492074494684273667e-02 -9.087570034207783642e-01 -7.727376020119098438e-03 4.564438172115010683e-01 -8.897186799147456249e-01
-7.225863291857004614e-03 -2.936729740436493374e-01 -1.053659437149321088e+00 8.579566992833044248e-01 2.949378244008134531e-01 -4.206209479954754471e-01
-7.244386583966963555e-02 -1.215927721278594990e-02 -8.756900295186944572e-01 -1.261712309967297774e-01 4.382564841236246678e-01 -8.899506023327189430e-01
-4.013307517810682165e-03 1.786460150763417021e-01 -8.187130398253520402e-01 1.163823318776806559e-01 -3.889226332589736934e-01 9.138896750514360345e-01
-1.576808547979543715e-02 -1.529487928154517895e-01 -9.797855116580461710e-01 1.770327519727425136e-01 -4.961845142218233584e-01 8.499766659005472125e-01
1.254950102628746549e-03 -2.625971166380586808e-01 -1.044524161114526617e+00 7.247472323702257302e-02 -5.319281777380935328e-01 8.436823028960298565e-01
-4.746658641850332733e-02 1.186175743818752154e-02 -8.869421024024323197e-01 1.403236711811924609e-01 -4.308103707713019648e-01 8.914660351029233265e-01
6.783747048025341730e-02 -1.043408530482060476e-01 -9.505781488927784739e-01 -1.881190694471860103e-01 -4.277306351766412829e-01 8.841140873449037096e-01
1.090373611283017991e-02 -2.299916270665712525e-02 -9.121760366985173230e-01 1.966367555353674967e-02 -4.468841281964686662e-01 8.943757129024735297e-01
5.084294078509303538e-02 -5.348336656955260393e-02 -9.079517155680825180e-01 -7.727376020119098438e-03 4.564438172115010683e-01 -8.897186799147456249e-01
-2.420989105482406617e-02 -1.155526712535847114e-02 -9.023862577555274989e-01 1.625850822683468644e-01 -4.399139193946614013e-01 8.831997704634111379e-01
1.560488751953073919e-02 8.657879050513639374e-02 -8.404070014584229531e-01 2.608822165299637050e-02 4.074577452163758995e-01 -9.128513518389349546e-01
2.150128051650844127e-02 -8.467383954832358780e-04 -8.816598763746693601e-01 1.793609005992035862e-02 4.466753853502143934e-01 -8.945162920794679229e-01
1.797501585934923110e-02 -1.339625473482520812e-01 -9.516678833242553370e-01 3.263982930894088891e-02 4.850835010947460724e-01 -8.738584773911316494e-01
6.354161435070331855e-03 1.601621318395859139e-01 -8.088354885325327315e-01 -2.589628027682029307e-02 3.804654984010390484e-01 -9.244324676223102388e-01
-4.556937026115217421e-02 -1.386182606640896098e-01 -9.645858108251094132e-01 2.356227255379676477e-01 -4.605834258125057201e-01 8.557714876512747537e-01
3.392399908306146378e-02 -1.540806074321651037e-02 -9.080601101292392618e-01 3.259529932705030231e-04 -4.463333067326972214e-01 8.948667348022846246e-01
-3.623361383499499461e-02 -6.493610020826566520e-02 -9.273931993260180473e-01 1.547001930033012063e-01 -4.513842236002283403e-01 8.788174628269287414e-01
3.627352811261302240e-02 -7.065866645092494513e-02 -9.168544666873046367e-01 9.938414782683960627e-03 4.574001509874777160e-01 -8.892054485821823118e-01
-2.464170535748638063e-03 1.779015773809762904e-02 -8.915083586140917227e-01 1.340098845898775037e-01 -4.286349345435035985e-01 8.934838799447331059e-01
7.225673803674413642e-02 -8.097681781487967023e-02 -9.226028343558304590e-01 -4.215580814979402041e-02 4.670208599300448848e-01 -8.832408528988223706e-01
4.215690957366918790e-02 -7.448256375666861828e-02 -9.187796068383359271e-01 9.939548899531211110e-03 4.656776687271743653e-01 -8.848985897923546950e-01
5.657539286896945407e-02 -4.951982046653108371e-02 -9.059681230685335818e-01 -7.727376020119098438e-03 4.564438172115010683e-01 -8.897186799147456249e-01
7.077008252684527899e-03 -2.753281266858836895e-01 -1.043339870431765792e+00 -9.872918834166236612e-01 1.183240157987336533e-01 -1.060856457062736707e-01
1.241276930291661945e-02 6.625542279264885759e-02 -8.498693804367405402e-01 -1.959318672209511489e-02 4.196597106899240814e-01 -9.074700183795179065e-01
7.487189859476706122e-02 -6.386995263584605009e-02 -9.297739806816259778e-01 -1.658852861076136609e-01 -4.208596752627166704e-01 8.918291347510217681e-01
-4.187158286038972915e-02 1.281750996704173196e-01 -8.335943549126494378e-01 1.696579494506349761e-01 -3.960200244843758988e-01 9.024324464443863603e-01
-4.267204725801550247e-02 -1.180873317038056841e-01 -9.543336225020823127e-01 2.356227255379676477e-01 -4.605834258125057201e-01 8.557714876512747537e-01
9.145801129480797542e-02 -2.343250032522033871e-02 -8.942658274897743453e-01 -1.429458950928719219e-01 4.454026649751340328e-01 -8.838455391691165675e-01
-1.396490724819384778e-02 3.196994093286344846e-02 -8.636002979579301408e-01 -1.650402937742490583e-01 4.250447181528202445e-01 -8.899992634835712790e-01
-2.829226096480332714e-02 -2.090297725131249479e-02 -8.867923324088000658e-01 -1.496664172345285593e-01 4.415198733463694958e-01 -8.846808266218875172e-01
-1.663880721711686120e-02 1.744668367582986879e-01 -8.012189410541429302e-01 -1.790104481245381185e-01 3.173145725754007440e-01 -9.312715616261150187e-01
-6.601155950663267769e-02 1.298211451009244899e-01 -8.102457109202387819e-01 -1.044499477837642631e-01 3.756993761473784166e-01 -9.208366777938635783e-01
-6.769101450306094954e-03 -3.159797668742765353e-01 -1.077488757637688588e+00 9.645624327235742257e-01 -1.378919929190955407e-01 2.249557993632980701e-01
-4.279301610282930379e-02 -1.083051499532762391e-01 -9.293561761087919537e-01 -1.499956384834625622e-01 4.607451997535187971e-01 -8.747657797033606686e-01
-2.876757647463555265e-02 1.071481325713180000e-01 -8.454419642423735004e-01 1.697366635563223314e-01 -4.017201092423287045e-01 8.998946709893882456e-01
-1.556076784219159910e-02 1.022469572678891825e-01 -8.501508777305966102e-01 1.774499976625373288e-01 -3.990116803381831834e-01 8.996116813843988425e-01
3.864338896935419487e-02 1.317276551328682987e-01 -8.385420230030369293e-01 -2.548568544530887756e-02 -4.027355155332733583e-01 9.149615207021174479e-01
-9.656489166783741029e-02 3.154559605020561958e-02 -8.526830839819267149e-01 -8.335644451923835720e-04 4.287915025510945499e-01 -9.034030952516657331e-01
-4.338612209969550104e-02 1.301501872314459185e-01 -8.323950457481777976e-01 2.562815509478713616e-01 -3.993194194221052484e-01 8.802634650581305786e-01
6.992137089196855115e-02 -1.178954702338396165e-01 -9.563720375254395334e-01 -3.173524168357332309e-01 -3.765667385234616749e-01 8.703361045977133781e-01
5.481593461379855210e-03 -3.715216378420683196e-01 -1.105438783494252286e+00 -9.102847668888756072e-01 2.062529733079133953e-01 -3.589447787218956742e-01
-1.398278496115434194e-04 -2.070447560949547350e-01 -9.944383070092366328e-01 -1.001544014105621438e-01 5.231837700454141649e-01 -8.463142670658219124e-01
-5.973610506116822788e-02 -1.421959112900114675e-01 -9.610075348304227827e-01 3.283605067631594765e-01 -4.107680113550398193e-01 8.505580629478900478e-01
8.585151282174240117e-02 1.188005124764068554e-01 -8.291326256995527055e-01 -6.040434931147208308e-01 2.229224319770658214e-01 -7.651385807467800948e-01
1.344146893588715405e-02 -2.221168350779383349e-01 -1.014386432244049452e+00 -8.234600937731445525e-01 2.218301559019595914e-01 5.222115049437696666e-01
7.479573467212972948e-03 -1.867988264729021977e-02 -8.906744064826725982e-01 -1.966254043131267226e-02 4.451381887970772833e-01 -8.952459870774316375e-01
-2.770393218224821014e-02 2.045065179679825262e-01 -7.888868495628539312e-01 -2.077010209469043744e-01 2.926155470281583959e-01 -9.334004647175966340e-01
9.512079184688447542e-02 -6.957645372494293372e-03 -8.984364952018506489e-01 -2.872985459570802091e-01 -4.014567331723200572e-01 8.696505257179784065e-01
3.751335226691224212e-02 1.169080694613046506e-01 -8.452078443162804877e-01 -9.888758041650243247e-03 -4.134848060900530586e-01 9.104573178337712624e-01
8.203912292502274495e-02 -6.656884815601087080e-02 -9.294729360822875375e-01 -2.826195105977200583e-01 -3.864951216151598090e-01 8.779223958854155407e-01
2.286737308294099769e-02 -1.772732182916136878e-01 -9.762777412896390672e-01 2.837124654354132233e-02 5.034146571070946541e-01 -8.635790382931443077e-01
3.061704543960690889e-02 1.270458096355066846e-01 -8.408461339350266073e-01 -2.549750653950742796e-02 -4.084371545837651163e-01 9.124302537267083846e-01
4.958525786033148378e-03 -3.421773670620217311e-01 -1.085814524124732561e+00 -9.096534893087923068e-01 2.298788707117880858e-01 -3.459569831476333457e-01
-8.968019531723138427e-02 6.485781330310246007e-02 -8.375249244738708354e-01 -1.411911409983886102e-03 4.088851197945671534e-01 -9.125847715783739211e-01
4.467462716155375796e-02 -1.397459009357496507e-01 -9.539058115902826485e-01 1.039424506670831756e-02 4.853402353448329487e-01 -8.742635847528567039e-01
-2.837742420709286548e-02 5.441573144383710786e-02 -8.696041559754263961e-01 1.649349868760400240e-01 -4.139412679304669274e-01 8.952368830696810775e-01
-1.100080644517449288e-02 -6.057012230918381451e-02 -9.102387696074740742e-01 -1.341699639481971629e-01 4.546253052199213385e-01 -8.805193084923425006e-01
-3.029256251274891135e-02 -1.530992814174654722e-02 -8.836625931658713684e-01 -1.496664172345285593e-01 4.415198733463694958e-01 -8.846808266218875172e-01
6.507062621143457071e-02 1.084887774960534568e-01 -8.299966169482009271e-01 -4.011769610950344928e-02 4.097359543673397830e-01 -9.113215777965266717e-01
2.330587671786312973e-02 9.632415803901218931e-02 -8.358370015494482885e-01 2.608822165299637050e-02 4.074577452163758995e-01 -9.128513518389349546e-01
-4.125536326453225350e-02 -1.393970429386886811e-01 -9.661927494931696891e-01 2.356227255379676477e-01 -4.605834258125057201e-01 8.557714876512747537e-01
-7.616841056408853172e-02 8.574086802431275800e-02 -8.286464916912495982e-01 -9.526765271475370889e-02 4.092726585580393484e-01 -9.074249089059964746e-01
-3.974769925904047402e-02 4.364174021923145769e-02 -8.728376275114914096e-01 1.444913383943567109e-01 -4.286578029002929280e-01 8.918378446453713027e-01
-6.115521119105235548e-02 -1.892494511039553851e-02 -8.995474733388579835e-01 1.794783842293343479e-01 -4.354124286464675642e-01 8.821584475447779017e-01
1.421653042331806442e-02 1.751687471100233651e-01 -8.034965324379655938e-01 1.870282936852365324e-02 3.287718926951250786e-01 -9.442241506905429960e-01
-9.042680458311647129e-02 -7.496110546624303039e-02 -9.152775106886057443e-01 6.547488215112002852e-01 -2.535006710697363941e-01 7.120683889184296067e-01
2.693939534096577784e-02 1.187593400251977654e-01 -8.257178393524615689e-01 3.245016459486178839e-02 4.075478245117140075e-01 -9.126071211389574778e-01
8.366987972340786438e-04 2.144933580068421330e-01 -7.903628857847025957e-01 -6.188970048762443277e-02 2.952457827047082484e-01 -9.534147013596111497e-01
3.884848650370337220e-02 1.328608540913382430e-01 -8.191817626834247967e-01 3.238763019202084426e-02 3.863925678465334190e-01 -9.217656019420050750e-01
8.226095555993079289e-02 1.318730386299222512e-01 -8.290096970579453606e-01 -5.171944211482893961e-01 -4.853551522570363486e-01 7.049399314201424405e-01
