-1.591298704703941053e-02 2.006089698792817566e-01 -8.912884760926321759e-01 -6.360634141202260450e-01 -4.563719922500384385e-01 6.222121325620810772e-01
-2.343586462482432926e-03 2.821804874456860721e-02 -9.158747671207012608e-01 9.061192803743723934e-01 1.684878879899865123e-01 -3.880202073790786077e-01
1.490698313287851934e-02 2.155313372958487239e-01 -8.256629108791213589e-01 8.693032033636126643e-01 4.923201833941592137e-02 -4.918212571575050762e-01
5.442757895151155781e-03 1.476119092726358717e-01 -8.547486919072088130e-01 8.997241978409012964e-01 1.223336947901183663e-01 -4.189640019602456911e-01
4.470383400628767656e-03 -2.556127467926919139e-01 -1.082244321450596791e+00 6.864587044257632886e-01 4.457385028293383566e-01 -5.745360164633391831e-01
1.930620431821317498e-02 1.907885752973231819e-02 -9.127442043240210356e-01 -9.214048562293551958e-01 -1.538279087304834369e-01 3.568614092509406754e-01
-4.912916820882359814e-02 -2.619209359489381439e-02 -1.029044226371834458e+00 8.686311876064455317e-01 2.304705800042176900e-01 -4.385922612973642831e-01
3.557303186135177264e-02 1.350640277083577090e-01 -8.268042946376648050e-01 -9.532214294961229850e-01 -9.092981917451926910e-02 2.882718757254291719e-01
2.086449668707430691e-02 -1.111921142781163302e-01 -9.735690679136639325e-01 -9.277954513581782026e-01 -1.849834586341378706e-01 3.240011118357877251e-01
-1.461255085868709037e-02 4.224611168930655219e-02 -9.329100756874439959e-01 8.351405404837928259e-01 2.318351298713075270e-01 -4.987912892162335576e-01
2.832218238729066959e-02 -3.305585326954739445e-02 -9.140201577510213005e-01 -9.128973732874441360e-01 -1.743894873504046872e-01 3.690619088263485392e-01
1.956980950401079888e-02 1.479774757955346909e-01 -8.207011365758426491e-01 9.152791952581360579e-01 5.786961929773961483e-02 -3.986415706997372688e-01
-7.677790887305304193e-03 -2.976599372477121974e-03 -9.780301556899620996e-01 -8.469180936908962121e-01 -2.376066163457819513e-01 4.756814463984134767e-01
1.357456075508088437e-02 -9.257943287880290861e-02 -9.331731521832754561e-01 9.118920826650132039e-01 1.875625278910127980e-01 -3.650659224085394117e-01
3.670521024328567833e-02 1.186803271992846465e-02 -8.329327247884410479e-01 4.586292471467525167e-01 3.114717810992359559e-01 -8.322526919394568345e-01
-4.534000752126420702e-02 -5.719449220841844872e-02 -1.038358816831291387e+00 8.687452317197343898e-01 2.405315707637402101e-01 -4.329275757331159102e-01
-3.116217735287745913e-02 1.606537988765600611e-01 -9.106815931307828960e-01 8.631028673507548099e-01 1.547005580320291174e-01 -4.807506398492716326e-01
-4.731163602475221830e-02 -3.655545991628064706e-02 -1.051108615120725398e+00 -4.200813656992248846e-01 -3.480828177220459119e-01 8.380751745511586526e-01
1.698227224617580161e-02 -1.425066434769874379e-01 -9.525029902176229690e-01 8.978833649502045988e-01 2.425416137155158025e-01 -3.673949217966560599e-01
-2.077394371693198905e-02 -8.216643264037407079e-02 -1.042474514593687118e+00 -8.089277020713363520e-01 -2.902546166283948570e-01 5.112614109704456400e-01
-6.393739095736721348e-03 7.120862324844641489e-02 -9.405284872494978909e-01 -8.403681409701956317e-01 -2.163568695575269762e-01 4.969618623572285010e-01
-2.721357964780583838e-02 2.854602419779328146e-02 -9.609545393414179459e-01 8.488071026826199406e-01 2.259732282185549501e-01 -4.779776172207448326e-01
4.860046560681130674e-03 -1.500461660725117552e-01 -9.897026707402032386e-01 9.326154454470979571e-01 1.929790756096798621e-01 -3.049385303472563757e-01
-1.829526939661767215e-02 1.856415544219959524e-01 -8.811540675868944072e-01 8.238986418692408886e-01 1.432633762518509546e-01 -5.483307696554526878e-01
2.036534410172077120e-02 -7.758589723422444628e-02 -9.087997325932423154e-01 9.083824251108356673e-01 1.887773356167371241e-01 -3.731011756979636385e-01
-1.154759036036326347e-02 1.635210790780828038e-01 -9.085211804375650235e-01 -8.035022582993374130e-01 -2.438865071369291926e-01 5.430501749787152166e-01
1.756135781013119096e-02 -7.487295840446485384e-02 -9.624076603482187853e-01 -9.281854718887352362e-01 -1.730353338391637241e-01 3.294396803936267548e-01
-1.020634006928605383e-02 7.231944803265226429e-02 -9.466522340543941372e-01 -8.460295354379868682e-01 -2.158569177650648541e-01 4.874831445491732973e-01
4.315660609118301266e-02 2.199465525399504559e-02 -8.411895023613878974e-01 -9.931007386670624992e-01 -6.277123189067350395e-02 9.904895408767334930e-02
3.925575364023509845e-03 2.179002357060652040e-01 -8.426229877235787979e-01 7.879530269328838266e-01 1.349007471259265345e-01 -6.007760113155090620e-01
9.590254376874289902e-03 -2.833654154704853823e-01 -1.117767624472583154e+00 -5.795863610981533132e-01 -4.564809568176438903e-01 6.750590982216662095e-01
-2.238735113628865722e-02 -1.701289352511904107e-01 -1.078305967815114785e+00 2.060912896532170746e-01 6.688742409458160731e-02 9.762440539266119544e-01
-2.303412920446592724e-02 3.037078932874013107e-02 -9.883707420725028614e-01 -8.303386838536919168e-01 -2.448193753242414172e-01 5.006007826222077517e-01
3.478974489232952716e-02 1.294265862874409423e-01 -8.311725926208068937e-01 -9.532214294961229850e-01 -9.092981917451926910e-02 2.882718757254291719e-01
-3.770030021003668158e-02 1.420536263724069687e-02 -1.018204885816969441e+00 -7.551574491473445061e-01 -2.867239336285897222e-01 5.895138784471691817e-01
3.212494939244919020e-03 -2.547993113748648342e-01 -1.084422917375833073e+00 8.799315162606123897e-01 3.089754158793910910e-01 -3.609081864871685474e-01
-1.988292800328118198e-02 1.727386014410145498e-01 -8.874422856509004420e-01 8.291483202408315156e-01 1.896816619455518327e-01 -5.258649352860301773e-01
-5.284625200477216251e-04 -2.094844693565482696e-01 -1.049497377912113949e+00 9.244710625582285290e-01 2.402810641469992903e-01 -2.960038254902212507e-01
-4.706719567376252411e-02 -7.908285071088069773e-02 -1.054805187389497467e+00 9.127772861777119218e-01 2.549422012606398225e-01 -3.191270904427117028e-01
-2.554564440389498273e-02 9.874341964481991862e-02 -9.596519035725974422e-01 -7.468761142974353895e-01 -3.092079958221864988e-01 5.886989767373398408e-01
1.823320267135571104e-02 6.331004773653929607e-02 -8.506756301699789358e-01 9.126300067686584638e-01 1.455075014020453250e-01 -3.820131382310980039e-01
4.142093454746464259e-02 -4.558209040087316671e-02 -8.590488178283973708e-01 -4.541415266868762401e-01 5.064231233298812640e-01 -7.330014283037387113e-01
8.782597545296791288e-04 -9.588639227535042386e-02 -1.013911241944501773e+00 -8.573991554175558472e-01 -2.550170655665589536e-01 4.470268275608113018e-01
-2.265137505171492885e-02 1.800884560592517503e-01 -8.891562629868275947e-01 8.291483202408315156e-01 1.896816619455518327e-01 -5.258649352860301773e-01
-4.637764283227686218e-02 -8.863848306604668603e-02 -1.060466649013547036e+00 9.127772861777119218e-01 2.549422012606398225e-01 -3.191270904427117028e-01
3.994802699801945113e-03 9.668777527403928096e-02 -8.741698067055369004e-01 9.045466140509286213e-01 1.431895500079121142e-01 -4.016119716561394881e-01
3.206904308634426354e-02 -4.984154726579832079e-02 -9.116134903493252617e-01 -9.282645301053622511e-01 -1.549522213729159215e-01 3.381046749748811142e-01
2.588459208128151071e-02 9.001983396759653810e-02 -8.227343908224108437e-01 8.960706784511496270e-01 1.570248151040521956e-01 -4.152114481341219188e-01
-3.903012057833119691e-02 -2.842527589617009978e-02 -1.010817759087199841e+00 8.510534162207605835e-01 2.444153494496978940e-01 -4.647248860265122961e-01
-3.115715954356709783e-02 1.296361735928381054e-01 -9.225875314275425731e-01 8.464027817662028719e-01 2.073958501356852335e-01 -4.904990238164902983e-01
-2.867443191930769616e-02 -1.313851061370497654e-02 -9.841133295302472161e-01 8.441692394114613807e-01 2.402766469048947806e-01 -4.792133430776063241e-01
6.897828906379510454e-03 1.866852940513192005e-01 -8.434298352800468912e-01 8.568396356130282276e-01 1.086681869715436788e-01 -5.040010555374369039e-01
1.670544880239029778e-02 4.442223241535343120e-02 -8.619282569036330610e-01 9.130323765340574438e-01 1.520410186440168121e-01 -3.784909616493648543e-01
-5.478153310430082523e-02 7.056557548404662761e-02 -1.001745014603368400e+00 4.478572382461494250e-01 -5.073477366633959429e-01 7.362215483487707379e-01
1.500977064269453385e-03 4.870168598724652909e-02 -9.374347941903423687e-01 -8.352022244914911742e-01 -2.332789977342503707e-01 4.980142100588781373e-01
2.076623328933113050e-02 9.472712562803098368e-02 -8.798988894563639640e-01 -9.256501891127250081e-01 -1.202996194009299941e-01 3.587474445449999050e-01
2.536094883693157734e-02 5.753129524133235306e-02 -8.818190033467629974e-01 -9.175664106963022926e-01 -1.442162440328166317e-01 3.705044627517621314e-01
-2.914663357855333536e-02 -6.886624035031639612e-02 -1.014686256219849536e+00 8.417610129776962324e-01 2.609079761386477458e-01 -4.726155149992406490e-01
-4.109128781344845160e-02 1.200688031186522217e-02 -9.941487290468875582e-01 8.564787559664139849e-01 2.255810543178153882e-01 -4.642815185973773184e-01
-5.290286590294302968e-03 -7.987409301262220207e-02 -9.765283277174510168e-01 9.107538805053420061e-01 2.068259922360432546e-01 -3.574218489125106646e-01
1.884574193386238591e-02 -1.315454749311233407e-01 -9.916635418000092628e-01 -9.326474154214065004e-01 -1.910532683042364677e-01 3.060513799642793908e-01
3.556362418989978541e-03 1.159706390453869168e-01 -9.050661829027394356e-01 -8.307963407075810158e-01 -2.118684761426276875e-01 5.146738667193951899e-01
-2.403464958755063829e-02 9.851111570759057967e-02 -9.573651485828302832e-01 -8.271454829490779703e-01 -2.395157784726199279e-01 5.083921143168840251e-01
-2.733775957652844618e-02 -1.076985068011903079e-01 -1.033853219980948923e+00 8.331844289238571344e-01 2.846931205530568998e-01 -4.740817804014290648e-01
2.178473686714395632e-02 -1.531795483493359755e-01 -9.962677890747085874e-01 -9.277341459518028133e-01 -1.948442793886216440e-01 3.183473907928375257e-01
-4.082988578071860414e-02 -2.393336216123062229e-02 -1.039775663497508162e+00 -6.599595285822640323e-01 -3.061397319940523110e-01 6.860990344899822180e-01
1.958412565183779638e-02 -3.860359826231747893e-01 -1.184364481106783273e+00 -6.079990267343750032e-01 -4.688734923464273341e-01 6.406987058398960766e-01
3.323005890818962749e-02 1.297531546249890144e-01 -7.980701786797477215e-01 3.233597116371930702e-01 2.934739196745814183e-02 -9.458209278053746338e-01
2.322536113369123509e-02 1.855507542753532801e-01 -8.446875502144796100e-01 -8.998225764732584731e-01 -1.344075400777612062e-01 4.150348708714389212e-01
9.273024561543425845e-03 1.223184782159814910e-01 -8.527594778145313192e-01 9.234155176497925721e-01 9.592422988653304117e-02 -3.716212102184713317e-01
-1.835799634312134006e-03 -1.154598684503314321e-01 -1.030444143123006473e+00 -8.292161296762636802e-01 -2.899508075624946390e-01 4.778379845497581768e-01
-1.431165717311056775e-02 -1.089639989317282842e-01 -1.012226736185501963e+00 8.292200820821854501e-01 2.896746336624987372e-01 -4.779986005043435071e-01
4.340297314027840442e-02 -2.182987136192821379e-02 -8.612113819597083664e-01 -9.918376092202149108e-01 -5.155781449652109549e-02 1.166188179526390228e-01
3.312287310611965185e-02 1.810074173114640805e-01 -8.070342086611067556e-01 -9.849614223145573000e-01 -1.450496613628668441e-01 -9.387008197824127376e-02
-3.970536369576639635e-02 9.744498723665676043e-02 -9.777490610435630725e-01 -6.541667343495852771e-01 -3.794999768458072742e-01 6.542519784031461949e-01
-3.408986283281424494e-03 6.580033271489381386e-02 -9.027342055175423541e-01 8.558928599061259579e-01 2.035229480543208347e-01 -4.754217306528916720e-01
2.989820025373332926e-02 2.920346720858157941e-02 -8.820961102199661452e-01 -9.137226458555786079e-01 -1.525987210909120761e-01 3.765960126874670633e-01
-4.362961448888962729e-02 4.287656011550076279e-02 -1.011602627836610369e+00 -6.572839136771195800e-01 -3.228933324274597116e-01 6.809682464661468426e-01
-5.487585576587048625e-02 -1.822812986017364328e-02 -1.038269589120143888e+00 9.142779856114741088e-01 1.998077677949459396e-01 -3.523813572750783552e-01
-4.961444098347369928e-03 -4.069919728447447815e-02 -9.929050420088718631e-01 -8.358893497345418755e-01 -2.566528017902791614e-01 4.851992728081571116e-01
2.108081979596767089e-02 2.363536665419900540e-01 -8.138228280677506365e-01 -7.503895833342593136e-01 -3.371825924580365008e-01 -5.685273718711477686e-01
3.324256594319718872e-02 1.475202432389982887e-01 -8.303837613087766689e-01 -9.678841525689110270e-01 -7.556326731740077574e-02 2.397716827281322627e-01
1.401520242517145798e-02 1.125910203020196766e-02 -8.823499316978730134e-01 9.125960207964974868e-01 1.663634407115762437e-01 -3.734858878471908339e-01
-5.738814974625763843e-02 3.733257513054298593e-02 -1.017660256898628601e+00 9.983163310724729733e-01 -1.630258405603734681e-02 5.566622734739852529e-02
-1.703308956735384225e-02 -1.357605967475093711e-01 -1.066689384220209869e+00 -6.426554202783286707e-01 -3.183370463394462058e-01 6.968899021472200195e-01
1.539352266544733068e-02 -3.027955961491363146e-02 -9.456223574354279959e-01 -9.228641294273055573e-01 -1.646612702184594990e-01 3.481500606152825861e-01
-3.267103777271874315e-02 -2.291349975344049699e-03 -9.857546429924739506e-01 8.490350657923995126e-01 2.323499892308053538e-01 -4.745028340898927999e-01
-5.479598296069908281e-02 6.082426588292048908e-02 -9.981347262559785438e-01 9.137544460905736576e-01 1.574514704239918517e-01 -3.745154826052342067e-01
1.148311403220171438e-02 2.229293807124990145e-01 -8.307421394956157057e-01 8.308406848632274855e-01 8.972577710655897654e-02 -5.492294978409548722e-01
-4.022641580419100693e-02 1.555479540998315757e-01 -9.297882259079831568e-01 9.124806586490873395e-01 1.238216231663156058e-01 -3.899323700692039485e-01
-1.079395776532103730e-02 -1.608609506997162042e-01 -1.072401564374560801e+00 -6.426554202783286707e-01 -3.183370463394462058e-01 6.968899021472200195e-01
6.439362555271784840e-03 -2.959058491533587687e-01 -1.110116914135631072e+00 8.804990814022477519e-01 3.026459065770996659e-01 -3.648654860108355713e-01
-7.009077729245583900e-03 1.641091679683716054e-01 -8.708983787909791996e-01 8.226177804800690607e-01 1.887769961639247096e-01 -5.363424586561935659e-01
-4.140328934537620964e-02 2.101241792001178749e-02 -1.019696836054992506e+00 -7.600292391447841522e-01 -2.817834083630981756e-01 5.856224606487323570e-01
-2.694450136986908939e-03 9.232929112983249975e-02 -8.903114673291427916e-01 8.550089681618554538e-01 1.894939939113938210e-01 -4.827542756250923217e-01
3.455643041394116516e-02 2.295372298958325147e-02 -8.723544768811997141e-01 -9.278648825508751807e-01 -1.453950097620521631e-01 3.434050827596228928e-01
-2.192832691404437637e-02 1.917153335037181938e-01 -8.856607748586500239e-01 8.572761702812875528e-01 9.367400360434748052e-02 -5.062635172680147733e-01
-3.569638577247528227e-02 3.079092863471937294e-02 -9.750699071278071672e-01 8.564787559664139849e-01 2.255810543178153882e-01 -4.642815185973773184e-01
-7.425614080633798769e-03 -1.708123605466070616e-01 -1.073731855214340225e+00 -6.420330578552859713e-01 -3.068456367367523030e-01 7.025946967040158642e-01
-2.555656690534839973e-02 1.303540623087372230e-01 -9.431696112649960995e-01 -7.468099357178580311e-01 -3.060906547624772656e-01 5.904095451296217378e-01
9.037971111885130179e-03 4.456783947697756654e-02 -9.261096123408608660e-01 -8.519872521809523924e-01 -2.200646908201515373e-01 4.750676309488803262e-01
2.390444448685742282e-02 1.846886663837883982e-02 -9.014344431655574308e-01 -9.141958387683669640e-01 -1.619017436859039594e-01 3.715289945213778311e-01
3.093297330219233962e-02 -7.409430997234266181e-02 -8.839507759991426239e-01 8.482945405673293360e-01 2.614683078128550719e-01 -4.604679103402818940e-01
2.750979133989259542e-02 -6.298155165222615870e-02 -8.851323323616280270e-01 8.961110830447553965e-01 1.911141316367527820e-01 -4.005749811621857059e-01
3.884682401682556380e-02 1.325493089818604586e-01 -8.115142467543853266e-01 -9.933417203460214173e-01 -9.326314888401839032e-02 -6.763291861397169313e-02
2.882175835937658345e-03 1.090832805321772930e-01 -8.722563080753691356e-01 9.045466140509286213e-01 1.431895500079121142e-01 -4.016119716561394881e-01
-5.083191256379447631e-02 -5.500310196120667024e-03 -1.039925369800274835e+00 -4.173745621285533947e-01 -3.500404630772497860e-01 8.386120372953530522e-01
7.717764450923161011e-03 -2.351619605552571213e-01 -1.086355865132663023e+00 -8.825890675668668361e-01 -2.709044896522903589e-01 3.842490016872919800e-01
-1.614554064321551199e-02 -7.836559820260348419e-02 -9.974791207201396670e-01 8.243051641574934418e-01 2.827276466913755115e-01 -4.904957432431442665e-01
1.902969051652177992e-03 1.085711199972870522e-01 -9.107811767550449966e-01 -8.307963407075810158e-01 -2.118684761426276875e-01 5.146738667193951899e-01
4.012057716271116153e-02 1.213765195625277349e-01 -8.037694095052332344e-01 -9.888654884560384994e-01 -2.208578767332180018e-02 -1.471640707627014100e-01
-2.658016123650603149e-02 4.321119558984460457e-02 -9.528964503649572926e-01 8.488071026826199406e-01 2.259732282185549501e-01 -4.779776172207448326e-01
-3.377793557852178108e-02 -7.651460673927155953e-02 -1.027196055144852016e+00 8.443500842707268861e-01 2.592811228381863842e-01 -4.688776327911001185e-01
1.050831109588429464e-02 1.697214533043767126e-02 -9.355737136058795977e-01 -9.098640251642774457e-01 -1.659676923616586197e-01 3.802659343196613251e-01
-1.473636352318650339e-02 -3.866381442796578555e-02 -1.008963355401929052e+00 -8.416753109211535522e-01 -2.524156329188819714e-01 4.773562812448784443e-01
-7.247086680219470183e-04 1.640406854443088314e-01 -8.925693877471128079e-01 -8.156568818521320319e-01 -2.107339880765881635e-01 5.387903463840026941e-01
3.364075551104555445e-02 -4.713656162118931570e-02 -9.060586767995578716e-01 -9.282645301053622511e-01 -1.549522213729159215e-01 3.381046749748811142e-01
-1.509612814561733622e-02 1.683448319339329036e-01 -8.815645904016401468e-01 8.144714885551813666e-01 1.966760571917967326e-01 -5.458522903297154949e-01
6.162852468667152743e-03 -1.956222012126547505e-01 -1.018360954980457089e+00 9.089591644804996262e-01 2.501458207327343919e-01 -3.334970849600619736e-01
7.375081328392733490e-03 -8.125872659814728505e-02 -9.432270080317369798e-01 9.190115716482815111e-01 1.804939689530674074e-01 -3.504848903278494077e-01
2.328757911521599916e-02 5.709443752307057085e-02 -8.409682213790349303e-01 9.126300067686584638e-01 1.455075014020453250e-01 -3.820131382310980039e-01
2.528238469448647330e-02 1.547442058649373398e-01 -8.073049342140895535e-01 8.886167468781887013e-01 6.518548631593623632e-02 -4.539946360271009951e-01
6.972396810306065798e-04 2.309807037874155311e-01 -8.467776482472572086e-01 -1.656696167788682394e-01 -8.340024525961440283e-01 5.263017073314120164e-01
4.322203810895056814e-02 -1.970098439429147225e-02 -8.466291576110800410e-01 -4.858079627314373927e-01 3.647902816570224860e-01 -7.943038925721821464e-01
6.897378155780372125e-03 1.176403362739425612e-01 -8.990814864212112179e-01 -8.266382031846361000e-01 -2.128243797571467422e-01 5.209367182457596002e-01
9.174937020725783265e-03 -1.424231707460414387e-01 -9.727448553742858994e-01 9.192215205920317711e-01 2.078141329958539951e-01 -3.344324778003094911e-01
1.670415806872401279e-02 -3.625231215717145128e-01 -1.168128057397200825e+00 1.473411483504566410e-01 -5.567889839023130172e-01 8.174818734429520894e-01
1.741010113761111942e-03 -2.847422187025211437e-01 -1.112205324844983245e+00 9.670584147124683394e-01 1.935812728381989256e-01 -1.653006755586629295e-01
1.945303809813911031e-02 1.192544382450239360e-01 -8.745763719132109149e-01 -9.081117822315167842e-01 -1.378739894850870285e-01 3.953779887598251608e-01
5.896513379825923896e-04 -2.700898225759890137e-01 -1.102916275984489713e+00 8.810979776444751721e-01 2.952517389665094694e-01 -3.694492717925803582e-01
4.488840259828217986e-03 -3.100354483755555779e-01 -1.126811889681622159e+00 8.799639827756128296e-01 3.086280770677342078e-01 -3.611261539450635882e-01
2.194871026201885428e-02 -1.386435793444916742e-01 -9.868932058058310641e-01 -9.277341459518028133e-01 -1.948442793886216440e-01 3.183473907928375257e-01
2.406014956549895958e-02 -1.122954605290033409e-01 -9.186227695863047327e-01 8.973633510354199760e-01 2.137883673720172850e-01 -3.860486370846151205e-01
3.692295881630824894e-02 5.808906196087864661e-03 -8.734040365871381661e-01 -9.261700209416462437e-01 -1.536523163539374182e-01 3.443835913454940667e-01
-1.980480760498004936e-02 6.499428250831763842e-02 -9.311952528835709675e-01 8.404167451774327002e-01 2.175441195296660968e-01 -4.963610082222739694e-01
-1.697693851364305215e-02 3.711842553433123554e-02 -9.392583101815369373e-01 8.365936370343742823e-01 2.315645985659214312e-01 -4.964765081699249460e-01
1.702067959650352402e-02 1.687396349218949487e-01 -8.248265186469443400e-01 9.312703170460983060e-01 2.925395544057465130e-02 -3.631525887005904174e-01
-3.928560745951573119e-02 1.490835133826182157e-01 -9.463150547603854656e-01 -4.374691072416855842e-01 -4.911520376498650919e-01 7.532532483312289751e-01
-4.549446116139396756e-02 -3.182042830225546154e-02 -1.024803261587720948e+00 8.686311876064455317e-01 2.304705800042176900e-01 -4.385922612973642831e-01
2.442347250395078464e-03 -3.699914000345023990e-02 -9.336637597398621535e-01 9.229055686408774717e-01 1.660273148706741531e-01 -3.473906188838334907e-01
-3.384429763766128724e-02 9.402549040291775795e-02 -9.727879021134390181e-01 -7.556991156677590471e-01 -3.065171871694358785e-01 5.787625251765217138e-01
2.533735574088715435e-03 -7.850723030304930863e-03 -9.629129680646159040e-01 -8.524974152066729927e-01 -2.337999068523881896e-01 4.675315610969550950e-01
-1.897821855506889518e-02 -7.398814685581610318e-02 -1.035239329861558977e+00 -8.088581992174422863e-01 -2.798554501472916844e-01 5.171357080898331127e-01
2.034350683838144838e-02 -5.887710198649327709e-02 -8.994824288817157010e-01 9.080904492882790890e-01 1.783305294260418561e-01 -3.789062656991031286e-01
-4.672249976525370829e-02 -5.759303848145388462e-04 -1.010824889073439259e+00 8.695129510204410161e-01 2.294024482830685774e-01 -4.374034118859363995e-01
5.466081769786966180e-03 -4.039370792417527889e-03 -9.100638471356656822e-01 9.161864936433834483e-01 1.581820133824298757e-01 -3.682129268612432949e-01
-2.784938522941633049e-02 -3.074705657421336960e-02 -1.026594635247988885e+00 -8.275175039115351128e-01 -2.504072979876053040e-01 5.025046923507967556e-01
-6.125543729815512498e-03 -8.214081966723991990e-02 -9.799683291450327349e-01 9.107538805053420061e-01 2.068259922360432546e-01 -3.574218489125106646e-01
-4.951824014439824839e-03 -1.414910079903727858e-01 -1.012596876835983872e+00 9.093204333366531333e-01 2.214257908188253798e-01 -3.522881898058736194e-01
2.981231855421011961e-02 -1.520691022588963326e-01 -9.640433380769755090e-01 -9.739276413150553813e-01 -7.615771085339115287e-02 2.136935950375302984e-01
2.714160270447811552e-02 4.840039781766714011e-02 -8.810056540289341598e-01 -9.137226458555786079e-01 -1.525987210909120761e-01 3.765960126874670633e-01
7.951540386426770787e-03 -3.147361938384027891e-01 -1.122391635584438552e+00 8.799639827756128296e-01 3.086280770677342078e-01 -3.611261539450635882e-01
-4.778926461165412809e-02 5.488038163241838741e-02 -9.861850613626113038e-01 8.693983434306860048e-01 2.081801191030518972e-01 -4.481155637223705468e-01
-3.939094328290021485e-02 6.686165153754920765e-02 -9.648152895438149024e-01 8.548116812179920032e-01 2.206654902178266098e-01 -4.696847145481704566e-01
-2.812269612415380440e-02 -4.849090713107850892e-02 -1.036171698499966043e+00 -7.313025076451851181e-01 -3.020676719279992151e-01 6.115159555464294572e-01
5.859110527885422713e-03 1.253599947119642954e-01 -8.602183233316064159e-01 9.022318875385220149e-01 1.178313350256804254e-01 -4.148414125840643174e-01
1.929257962955090513e-02 1.091019357793758388e-01 -8.785045704784749665e-01 -9.046172724253370712e-01 -1.441163262538372458e-01 4.011210228058874061e-01
-2.922201816815910014e-02 4.834540116576704037e-03 -1.011136991031712284e+00 -8.274788089305737948e-01 -2.491349665989980866e-01 5.032003469678405505e-01
-1.454237690060984980e-02 -1.285325437151976259e-02 -9.595223623577574523e-01 8.371104694762443454e-01 2.464473113765867918e-01 -4.883746355089640390e-01
-2.096920770821338390e-02 7.258658343102560029e-02 -9.645924032532703363e-01 -8.272932914656674352e-01 -2.432776713658859058e-01 5.063613181421882103e-01
2.391421811338540100e-03 1.588137478229869615e-01 -8.898963631290280896e-01 -8.156568818521320319e-01 -2.107339880765881635e-01 5.387903463840026941e-01
-1.615904918648539135e-02 1.170261338707659221e-01 -9.363468692173256835e-01 -8.178382664073944319e-01 -2.384333646567406151e-01 5.237271241956192869e-01
8.312731440180399362e-03 -9.400837617836566018e-02 -9.475211024608962695e-01 9.191164441585386591e-01 1.886204855910134370e-01 -3.459006714257344961e-01
-6.488296893831459536e-03 2.161315567388096548e-01 -8.568491833135817304e-01 8.292881904682599670e-01 7.735047783615189854e-02 -5.534419578676682550e-01
-4.155443052099035139e-02 -5.298892541140902412e-02 -1.028543233654332312e+00 8.511433848864760066e-01 2.508726653377900129e-01 -4.611050250759640146e-01
9.204424439917649513e-04 -6.402626650567806721e-02 -9.514815429609736475e-01 9.253184239170815228e-01 1.745493411947564577e-01 -3.366278982022802291e-01
-5.168977089349920812e-02 5.618154839974299347e-02 -9.931480345328885795e-01 8.693983434306860048e-01 2.081801191030518972e-01 -4.481155637223705468e-01
1.818714392026894375e-03 1.462302567692760624e-01 -8.624999842407967687e-01 8.562240339880672346e-01 1.629839456559043220e-01 -4.902210084029797188e-01
2.009023953456878439e-02 4.906158414959084502e-02 -8.983569563317094220e-01 -9.217088972291119786e-01 -1.396174094400387533e-01 3.618835278787179144e-01
1.367288992669873221e-02 -1.259621713077845040e-01 -1.003500214443337812e+00 -9.277452242990404940e-01 -1.978768460127224849e-01 3.164388607652041663e-01
-4.023150495258830811e-02 -1.192270137355014997e-01 -1.066919216254935243e+00 9.220176328020490697e-01 2.461023927238852604e-01 -2.988596612085416826e-01
-7.697878339181011415e-03 5.544059134780194437e-02 -9.499415202027444716e-01 -8.464676718703000313e-01 -2.251927001154133134e-01 4.824735519105724513e-01
1.504903228457302872e-02 -1.622058757622620029e-01 -9.701456846727709582e-01 8.920568114310259977e-01 2.481310051569869946e-01 -3.777110661064806973e-01
-1.972497523985792742e-02 9.267672793607356629e-02 -9.531119712476869843e-01 -8.179600396935193807e-01 -2.410070910188688853e-01 5.223571149541269554e-01
3.416464903855638557e-02 -1.226644314435288291e-01 -9.344775650989513016e-01 -9.684549536829434313e-01 -8.288828098090246510e-02 2.349990118340901102e-01
2.428662475711715341e-02 1.139179387706456686e-01 -8.185581679451745529e-01 8.915718969905972457e-01 1.285252502513467565e-01 -4.342589233906615220e-01
2.701641599054857568e-02 4.072622005209312196e-02 -8.844190084050341794e-01 -9.137226458555786079e-01 -1.525987210909120761e-01 3.765960126874670633e-01
2.056151635318036533e-02 1.029816557616497069e-01 -8.776590949297033983e-01 -9.256501891127250081e-01 -1.202996194009299941e-01 3.587474445449999050e-01
-1.542259500703724133e-02 -1.555041855684593521e-01 -1.043172155365258646e+00 8.288018951756386254e-01 3.071297085797699555e-01 -4.677165387935042218e-01
-3.239561807255016829e-02 -5.371715310949181504e-02 -1.012109850717085591e+00 8.417610129776962324e-01 2.609079761386477458e-01 -4.726155149992406490e-01
-2.336716749560260875e-02 -9.229274636850560987e-02 -1.017746713979093443e+00 8.332460848707585743e-01 2.720170954670648178e-01 -4.813602204391368988e-01
-3.849746370452997168e-02 5.126821180565992869e-02 -1.001151161149530067e+00 -7.605619523715119179e-01 -2.990811281635181174e-01 5.762777068230831023e-01
-1.813340598052371952e-02 -1.743001977786743095e-01 -1.078989718025822553e+00 1.900042634828305599e-01 6.311362659769353955e-02 9.797525452868360851e-01
1.816811173455494532e-02 -1.659859704010201997e-01 -1.016431840907958906e+00 -9.321183187288926142e-01 -2.103116759916576761e-01 2.948295080747560526e-01
-3.585791810081442876e-02 8.313407499773978193e-02 -9.509933755838937408e-01 8.544397113005559596e-01 2.123181057587771869e-01 -4.741875174650079794e-01
2.005884700286829359e-02 2.250920792609563056e-02 -8.629788582117475793e-01 9.074303626988950988e-01 1.627991365849735250e-01 -3.873842768870964237e-01
2.172888420049767094e-02 1.910367144934550510e-01 -8.121400034696364401e-01 9.243805332096938221e-01 6.888650252494104252e-03 -3.814094601876841240e-01
-2.504833712292824262e-03 -7.884316934591907577e-02 -9.688005110215416327e-01 9.311296880208240756e-01 1.829011637592645456e-01 -3.155070021120758850e-01
6.184271984214945519e-03 -1.049252051277508972e-02 -9.112722769303407411e-01 9.167491299903843815e-01 1.724518274438459342e-01 -3.603212453813283700e-01
-3.143591274781579181e-02 -9.221605414365505182e-02 -1.031793031346810219e+00 8.442866190961210160e-01 2.777651577607014310e-01 -4.582866155032393474e-01
-5.362060554706929785e-03 2.035947164395547626e-01 -8.794599937485335639e-01 -6.285043875180751360e-01 -4.097084675977657464e-01 6.611514247502003894e-01
-2.390084698204929248e-02 1.288829838199252731e-01 -9.105468492992049301e-01 8.400439591682179463e-01 2.110939741795055113e-01 -4.997654257049876092e-01
-3.212717113817767367e-02 1.077803023932421972e-01 -9.335239546651052933e-01 8.467759525870243165e-01 2.139566533535464110e-01 -4.870246776150956580e-01
-1.063963045222934140e-02 3.035275198678787090e-02 -9.316204084172928779e-01 8.519240214191987626e-01 2.186182426607047591e-01 -4.758482170870095840e-01
2.079645482195789565e-03 4.816205413901918087e-02 -8.969553402089726069e-01 9.238214657828149878e-01 1.365766204752575097e-01 -3.576321099935642622e-01
2.089859587069780797e-02 -1.960068221281268674e-01 -1.023268252502594233e+00 -9.884352065593494663e-01 4.502521078301293528e-02 1.448052928173598486e-01
3.775899317876525024e-02 1.430688581861333242e-01 -8.051010439651870021e-01 -9.914376987443395128e-01 -1.242748590122761954e-01 4.008801474265381165e-02
2.629941896932956949e-02 -1.775943939151420903e-01 -9.867592344255996517e-01 -9.889245357134925918e-01 5.781263918861829360e-02 1.366966035199842777e-01
8.650348551595878760e-03 -1.185017080022818942e-01 -1.011966695035655395e+00 -9.093141936350516152e-01 -2.217561746112540755e-01 3.520964303647778348e-01
-1.404758733987913379e-02 1.266185238258487888e-01 -9.287261716928265631e-01 -8.034216515012956306e-01 -2.423624965133004960e-01 5.438511470823345073e-01
4.350485723433633600e-02 1.576677893763160296e-02 -8.418842972886187992e-01 -9.918500963889199662e-01 -6.830422750486275785e-02 1.075542597866500083e-01
2.357375148490529343e-02 -1.773682863255570952e-01 -1.004112480005238117e+00 -9.922089198695066559e-01 8.298519707633424808e-03 1.243084627129186215e-01
1.017304884753359243e-02 1.382555060790532087e-01 -8.856416681447477623e-01 -8.497779747705415110e-01 -1.845011926702904426e-01 4.937982416920063122e-01
2.806999051626658456e-02 1.439223698168060617e-01 -8.036444334728591876e-01 8.211891445557435443e-01 7.170449193985854730e-02 -5.661332481840759545e-01
4.019247767098600016e-02 -6.646654406274242477e-02 -8.917409440406830479e-01 -9.651637895060818373e-01 -9.047615746229119293e-02 2.455054466954213199e-01
-2.626544007782748158e-02 -9.725294798655528816e-02 -1.025695938254717277e+00 8.331844289238571344e-01 2.846931205530568998e-01 -4.740817804014290648e-01
3.440470945568269850e-02 -6.978308466400327814e-02 -8.755432861214175189e-01 4.906407077320650290e-01 4.452170732520392415e-01 -7.490350149365960775e-01
2.596364312228497187e-02 -4.035661686338706811e-02 -8.777971994257781629e-01 8.956605675071964701e-01 1.913046620816123422e-01 -4.014905653667680263e-01
1.479712644339916533e-02 1.732926980132373437e-02 -9.251569344542565076e-01 -9.098461666361782330e-01 -1.659992017021369171e-01 3.802949093686441295e-01
-1.830621076721736544e-03 -3.688775115258163817e-02 -9.449768295639361382e-01 9.231307392577340343e-01 1.754822948530756765e-01 -3.421046659000248069e-01
1.669365235341905424e-02 1.107824267875546498e-01 -8.838684944631547413e-01 -9.081117822315167842e-01 -1.378739894850870285e-01 3.953779887598251608e-01
-5.079832289054931303e-03 8.756298534547903023e-02 -8.964258399945866929e-01 8.558928599061259579e-01 2.035229480543208347e-01 -4.754217306528916720e-01
-1.801092832705180821e-02 -1.710865267694365588e-01 -1.058046969322949726e+00 8.311488232262305154e-01 3.060290070879245206e-01 -4.642605738918944569e-01
-2.745917675791897244e-02 1.184219981316915193e-01 -9.517622590637379032e-01 -7.468099357178580311e-01 -3.060906547624772656e-01 5.904095451296217378e-01
6.529849623714396867e-03 -2.146922842452833255e-02 -9.622840680944194647e-01 -8.569820070072197149e-01 -2.278013178515649328e-01 4.622644256818470021e-01
3.641842163575117336e-02 1.133473457746109192e-01 -8.318103789521260616e-01 -9.413110288756221244e-01 -1.151062773800122646e-01 3.173075666050738097e-01
-1.560508384304841283e-02 -2.469258881146148971e-02 -1.003272042355364491e+00 -8.470846113154915091e-01 -2.443600617623650773e-01 4.719489606811056448e-01
-5.186217622374027919e-02 3.934049436102750492e-03 -1.018676713587736371e+00 8.695129510204410161e-01 2.294024482830685774e-01 -4.374034118859363995e-01
3.756276951439452283e-02 7.024525081315850794e-02 -8.447521240550639465e-01 -9.332246856608357177e-01 -1.306064860034651387e-01 3.347142540840784553e-01
-6.876649975891346335e-03 1.176612875757604287e-01 -9.213798404742233883e-01 -8.399857413721073529e-01 -2.098816311906272769e-01 5.003735156663595696e-01
-3.634662085140783513e-04 -1.231108529166726889e-01 -9.885198494874384290e-01 9.310003346760966636e-01 1.953221387777169527e-01 -3.083628365031920171e-01
-4.736543417918613608e-02 -3.879558802461135700e-03 -1.013835611466112230e+00 8.695129510204410161e-01 2.294024482830685774e-01 -4.374034118859363995e-01
-6.628047831689269295e-03 -8.860386638128572856e-02 -1.022575482274035163e+00 -8.286908900239182696e-01 -2.774303479336485689e-01 4.861109038447715691e-01
9.082882937572577323e-03 -8.321968855868015769e-02 -9.397588196240820313e-01 9.190115716482815111e-01 1.804939689530674074e-01 -3.504848903278494077e-01
2.308172233508553467e-02 -2.273559524986876190e-02 -8.760855792205700654e-01 9.067014114005673697e-01 1.734917969782622527e-01 -3.844387427737643304e-01
2.986902585264816432e-02 1.929638467560372272e-01 -8.258947839846231265e-01 -9.428076273741181623e-01 -1.135465970345221898e-01 3.134022145216358579e-01
2.189350247105802810e-02 8.039839879272116241e-02 -8.819388693347897101e-01 -9.230897012517519373e-01 -1.256204812962913309e-01 3.634898872346241649e-01
4.243103857335960016e-02 7.208090834250417689e-02 -8.161165735252768894e-01 -9.885218638990997952e-01 2.551799985771619275e-02 -1.489072069334158865e-01
4.853380664042465133e-03 -1.939168993124865681e-01 -1.020650876807267737e+00 9.089591644804996262e-01 2.501458207327343919e-01 -3.334970849600619736e-01
-1.907923823999501181e-02 8.998138320908927179e-02 -9.190154535731417385e-01 8.404167451774327002e-01 2.175441195296660968e-01 -4.963610082222739694e-01
5.609478799824711009e-03 4.183418373616713815e-02 -8.903976202065465584e-01 9.217790502602170033e-01 1.407800821057883234e-01 -3.612538594723376240e-01
-4.076971886527300248e-02 1.470807430422431394e-01 -9.337483417393274143e-01 9.124806586490873395e-01 1.238216231663156058e-01 -3.899323700692039485e-01
4.331620090443700360e-02 4.065113443308403240e-02 -8.278208107927916837e-01 -9.918500963889199662e-01 -6.830422750486275785e-02 1.075542597866500083e-01
-5.737506542999776943e-03 8.537695199004111113e-02 -9.332504797045624301e-01 -8.403681409701956317e-01 -2.163568695575269762e-01 4.969618623572285010e-01
3.891841131103150522e-03 4.966518068632195387e-02 -8.917286344303246848e-01 9.217790502602170033e-01 1.407800821057883234e-01 -3.612538594723376240e-01
-1.370728635539684298e-02 1.169278051270642438e-01 -9.325630273678894300e-01 -8.178382664073944319e-01 -2.384333646567406151e-01 5.237271241956192869e-01
-2.287647715720135186e-02 5.754963851802288866e-02 -9.749328932857005414e-01 -8.272932914656674352e-01 -2.432776713658859058e-01 5.063613181421882103e-01
-1.604153689399130667e-02 5.659723120138504537e-02 -9.640896757178503140e-01 -8.487780836166950449e-01 -2.252408706190555943e-01 4.783746596285602393e-01
1.311295500284767601e-02 -1.503382506114379069e-01 -1.020712685869907155e+00 -9.256732543590251439e-01 -2.174207239173303607e-01 3.096082282104847261e-01
-1.528633733058003957e-02 -6.867548322478721039e-03 -9.935202087909810187e-01 -8.469180936908962121e-01 -2.376066163457819513e-01 4.756814463984134767e-01
-1.003388762696280634e-02 7.855193504327277754e-02 -9.091141347469245959e-01 8.314889813176555844e-01 2.228599427465937088e-01 -5.088806538534478285e-01
2.371109742226118824e-03 1.858877805004487960e-01 -8.792936696298252475e-01 -8.157609699471505271e-01 -2.120935826862902496e-01 5.380988311585315209e-01
2.112296932399350402e-02 -1.969906483898350158e-01 -1.021430780955213669e+00 -9.884352065593494663e-01 4.502521078301293528e-02 1.448052928173598486e-01
1.233939464473056587e-02 -6.467302877529389205e-02 -9.219207803538371770e-01 9.118920826650132039e-01 1.875625278910127980e-01 -3.650659224085394117e-01
-3.821832500663720211e-02 4.372920327591197504e-02 -9.735729981092423602e-01 8.562986808071475497e-01 2.205923929639403702e-01 -4.670027466882623601e-01
-7.773100883043891282e-03 4.249521437407583618e-02 -9.208229682224275958e-01 8.565923239678543410e-01 2.171038808731173830e-01 -4.680977413203162296e-01
-1.865382674678595434e-02 1.972188899810236595e-01 -8.965768419116698640e-01 -6.360634141202260450e-01 -4.563719922500384385e-01 6.222121325620810772e-01
5.736129159737701766e-03 4.518532450697858305e-02 -9.317451059533918833e-01 -8.519872521809523924e-01 -2.200646908201515373e-01 4.750676309488803262e-01
9.026711163010752229e-03 -1.826954613272558370e-01 -1.053607778157536146e+00 -8.617606931384274027e-01 -2.809286258317948981e-01 4.224306037088655374e-01
2.162549736978375964e-02 2.036908452336075037e-01 -8.409254373050554232e-01 -8.778068715946993894e-01 -1.831512288500917740e-01 4.426180334688455398e-01
1.342427569467987726e-02 1.208415154499621474e-01 -8.866705785136951290e-01 -8.505132758491452671e-01 -1.941761139165716354e-01 4.887973039907382300e-01
-5.803721854636709025e-03 4.277168510889745728e-02 -9.170908890560830473e-01 8.565923239678543410e-01 2.171038808731173830e-01 -4.680977413203162296e-01
-3.865997839799861086e-02 1.621152207414628954e-01 -9.248171525642442381e-01 9.085892920322782285e-01 8.255368194047787989e-02 -4.094513255594049439e-01
-2.499206813114489972e-02 -1.087640900401383032e-01 -1.062394382082666677e+00 -7.104425094478994396e-01 -3.145337246022673061e-01 6.295553802940583310e-01
-1.147824213453696104e-03 -1.653600720218620090e-01 -1.061215058092802810e+00 -8.311637502269332289e-01 -3.067205600356194828e-01 4.637772292384955697e-01
-1.201103098580290698e-02 -4.214757037465934747e-02 -9.701786568453186765e-01 8.527237769001304590e-01 2.454938372971840477e-01 -4.610801840876274649e-01
2.583212037897868532e-02 -6.327241218339570324e-03 -8.623700807453289485e-01 8.958116588005550218e-01 1.832060329535657728e-01 -4.049160671625847696e-01
2.362437550217032570e-02 -1.896547855440926522e-01 -9.929518392840704921e-01 -9.521089514517987462e-01 3.057282504041939908e-01 -4.333759354988703759e-03
1.103617477497518574e-02 1.916106197174077264e-01 -8.641512526096194469e-01 -8.334588365266918375e-01 -1.918801221350660835e-01 5.181972467555241435e-01
-1.842041251426394799e-02 4.448874195455085508e-03 -9.935011360402808966e-01 -8.490873911442147204e-01 -2.340189588769721885e-01 4.735881428900529655e-01
1.923787489285876465e-02 1.551768241543798055e-01 -8.207283986328793857e-01 9.299511307291160600e-01 3.857796574806370699e-02 -3.656537091489430180e-01
-3.726627050763221122e-02 -1.003874290312884165e-01 -1.047508009202585244e+00 8.738594557514488548e-01 2.651361611828659259e-01 -4.075198984430022375e-01
3.669400566395547569e-02 1.045332244993513876e-02 -8.719735708266564966e-01 -9.280306893342191721e-01 -1.491400835449075424e-01 3.413448038773578830e-01
2.111683008619018656e-02 5.522523362318251805e-02 -8.469470979858954029e-01 9.130323765340574438e-01 1.520410186440168121e-01 -3.784909616493648543e-01
2.944118384091607907e-02 -3.692084463690347568e-02 -9.129067494668655636e-01 -9.282645301053622511e-01 -1.549522213729159215e-01 3.381046749748811142e-01
1.026409447758106809e-02 4.824415755802704403e-02 -8.762094367858312971e-01 9.176486419896019431e-01 1.453720699972450292e-01 -3.698485245601977334e-01
2.235182060017331003e-03 1.764488938031015808e-01 -8.534717049146745005e-01 8.496627879694008678e-01 1.107071043998360538e-01 -5.155745181595660087e-01
-4.072322181851411455e-02 1.473197815663587588e-02 -9.921456961602739266e-01 8.564787559664139849e-01 2.255810543178153882e-01 -4.642815185973773184e-01
-5.714668772385907841e-02 1.948256435483167182e-02 -1.026455634084210367e+00 9.964282983984451558e-01 -2.546134889421359376e-02 8.051314093529267357e-02
-3.424914748660448649e-02 1.508240033710667172e-01 -9.194358329851504141e-01 8.657052756035574781e-01 1.854008287570409474e-01 -4.649525873552816657e-01
-6.145189709563146641e-03 -8.810045445071404413e-02 -9.834282709336314987e-01 9.070761647349429024e-01 2.085946452316478905e-01 -3.656516174590641044e-01
3.809854553890632683e-02 1.406869757069054705e-01 -8.040873519299861494e-01 -9.914376987443395128e-01 -1.242748590122761954e-01 4.008801474265381165e-02
-4.748526236083741581e-02 -8.513681599930311705e-02 -1.066475237491239403e+00 4.058764702393145574e-01 -1.569618039234807194e-01 9.003484231202726340e-01
1.381164009814387326e-02 1.087488725439473836e-01 -8.907334702788868297e-01 -8.549065587013743306e-01 -1.880916114334156841e-01 4.834835277419021193e-01
2.122104206764675524e-02 -1.931568474384917078e-01 -9.965237914969264921e-01 -4.771431963159590284e-01 7.938480832375597318e-01 -3.770140460903844137e-01
-5.255009794207900903e-02 8.042502595278749888e-02 -9.844242617660281525e-01 9.134108595196087643e-01 1.577264155151223424e-01 -3.752372310424442192e-01
1.910440901319159076e-03 -2.623381331321485432e-01 -1.093571434716781532e+00 8.810979776444751721e-01 2.952517389665094694e-01 -3.694492717925803582e-01
1.877303973709229870e-03 -5.927005467945357237e-02 -9.464523966765591156e-01 9.231307392577340343e-01 1.754822948530756765e-01 -3.421046659000248069e-01
-6.653755760329680205e-03 -6.590133829209876559e-02 -1.009662654582156538e+00 -8.286908900239182696e-01 -2.774303479336485689e-01 4.861109038447715691e-01
2.177200363390325091e-02 7.441911347485682948e-02 -8.843669018077829902e-01 -9.237601918271446388e-01 -1.353466514702353907e-01 3.582574380683137827e-01
3.220867172544552431e-02 -1.516886115747648756e-01 -9.465204027347341453e-01 -9.719394313499890581e-01 2.260771070236901326e-01 -6.498371693631452284e-02
-3.153633996251125476e-02 -1.460514187375430151e-01 -1.068328430750272728e+00 8.708872371662889078e-01 3.153531549928467737e-01 -3.769718925555662903e-01
2.474077180119503908e-02 -1.513750336733532265e-01 -9.419642857206707021e-01 8.461572481611052687e-01 3.171976278660459947e-01 -4.282564375004526136e-01
-4.277617945954508005e-02 1.130526102518483178e-01 -9.717334598713258664e-01 -4.321117807476400619e-01 -4.934740265633409950e-01 7.548263336996573480e-01
-5.190199998962997767e-03 1.744363495881301185e-01 -8.652393592145233292e-01 8.162285071106517576e-01 1.358616427446082409e-01 -5.615270591971974756e-01
2.430074943433974469e-02 -4.315816032350289211e-03 -8.648979081841194905e-01 9.067014114005673697e-01 1.734917969782622527e-01 -3.844387427737643304e-01
-2.310879277631867901e-02 -7.854156843462021739e-03 -1.007379944230163860e+00 -8.275175039115351128e-01 -2.504072979876053040e-01 5.025046923507967556e-01
-4.657165622242820380e-02 -1.011667063183856879e-02 -1.039085247073086693e+00 -6.516701279909268285e-01 -3.105730609944539755e-01 6.920046373174273402e-01
3.522290783698658889e-02 -9.083301491404567607e-02 -8.890985495695190588e-01 4.924478112569088406e-01 4.956990064897186521e-01 -7.153863628511420991e-01
-3.965849309214522500e-02 -5.833335459322795680e-02 -1.054318345037970728e+00 -6.579153673640004696e-01 -3.139729798198074850e-01 6.845205163684745520e-01
-2.760521132238228509e-02 -1.587864652452404546e-02 -1.018783331935335656e+00 -8.275175039115351128e-01 -2.504072979876053040e-01 5.025046923507967556e-01
5.331022082005637021e-04 8.313685988827618223e-02 -8.867986547552912935e-01 9.045662278195130135e-01 1.431811488486007533e-01 -4.015707884081854417e-01
-2.590153869686617760e-02 -2.890236300147670800e-02 -9.874319666002266960e-01 8.416649668335663970e-01 2.527732113939007985e-01 -4.771852755551723724e-01
2.062251729977080186e-02 -1.054106770502071522e-01 -9.709611667412122449e-01 -9.277954513581782026e-01 -1.849834586341378706e-01 3.240011118357877251e-01
-1.095646256994685375e-02 -1.788687825236612572e-01 -1.050550078704380663e+00 8.311820235248378319e-01 3.050556194872139359e-01 -4.648413845479207329e-01
-2.100628556028315622e-03 -1.905625323646570612e-01 -1.039047644212860222e+00 9.244710625582285290e-01 2.402810641469992903e-01 -2.960038254902212507e-01
-1.862458037451724530e-02 -8.461415161477778973e-03 -1.000287648560270082e+00 -8.470846113154915091e-01 -2.443600617623650773e-01 4.719489606811056448e-01
-2.276487819738400378e-02 -1.370715662705853377e-01 -1.073093070553107209e+00 -5.207281848843664518e-01 -2.736982951145234266e-01 8.086602504874567110e-01
2.810350951566675803e-02 9.617670370880512798e-02 -8.158827668208367134e-01 8.933769883531310629e-01 1.264098458946868730e-01 -4.311590281345981102e-01
-4.652106796673115968e-03 -3.180966825203631471e-03 -9.355876818008529439e-01 9.103998998236484397e-01 1.802235173001704716e-01 -3.724130854481970676e-01
4.108003147342026429e-03 5.753561504985161418e-02 -8.881360828374116334e-01 9.238214657828149878e-01 1.365766204752575097e-01 -3.576321099935642622e-01
3.006310597233195075e-02 1.209053229619454078e-01 -8.051089453093405179e-01 8.412295644042248055e-01 1.462222264367132596e-01 -5.205303838088306545e-01
-2.429200193389158616e-02 1.592679249624003035e-01 -8.993627295376783737e-01 8.407632495046881704e-01 1.841265348110208977e-01 -5.091311986716227089e-01
3.371808223192920145e-02 4.178295743147066726e-02 -8.667641615357155604e-01 -9.333636395852651368e-01 -1.331641573167096360e-01 3.333161014806785838e-01
1.685492218947751142e-02 -6.797988738329939495e-02 -9.124861552416485555e-01 9.083824251108356673e-01 1.887773356167371241e-01 -3.731011756979636385e-01
-1.274489823771210277e-02 1.988799771219268986e-01 -8.693998676713415863e-01 8.004996992138752043e-01 1.595483874649190059e-01 -5.777062779785584468e-01
9.083449720743321312e-03 -2.141183158164844669e-01 -1.033308680196605600e+00 1.731234119728530529e-01 8.658380807238701404e-01 -4.694174072137530795e-01
-3.058135837594359342e-03 -1.226701318680288866e-01 -9.960091177907313131e-01 9.069558138269238068e-01 2.227158897145231353e-01 -3.575315150223973837e-01
1.294637408677682885e-02 -2.755599161514069584e-01 -1.097839454677566051e+00 -5.699136376358069356e-01 4.224375987850040870e-01 -7.048013342563151928e-01
1.339862708714546075e-02 -1.686646497972580094e-01 -1.032728193310809006e+00 -9.256732543590251439e-01 -2.174207239173303607e-01 3.096082282104847261e-01
-9.587920014681313233e-03 -3.426660085936820976e-02 -9.613715273531345806e-01 8.573299966337518674e-01 2.439643926863496182e-01 -4.532842948670862682e-01
-4.089393593204989664e-03 3.613413889941812646e-02 -9.165428164580878834e-01 9.099006489072950510e-01 1.667724486237042725e-01 -3.798259594842580134e-01
