9.482135398286550484e-03 -2.628585063757984397e-01 -8.045261511459446124e-01 -5.716692997445079749e-01 -3.531623963139963740e-01 7.405879647681157252e-01
-5.529341551210973510e-02 -6.479225580898081982e-02 -6.530689193961625172e-01 6.300993369652321263e-01 -4.015107731130914681e-01 6.646532363797700294e-01
-2.473446487474817088e-02 9.780995698301937769e-02 -5.509469183057988939e-01 -5.559139024949975028e-01 4.607403746114058785e-01 -6.918656229469157815e-01
-3.369294052686726965e-02 -1.957507239488275319e-01 -7.315522301522920934e-01 4.958586428057951134e-01 8.108558530464001768e-01 -3.108649094625987597e-01
3.168919879694082065e-02 3.310653304146904397e-02 -6.546990529000534798e-01 -7.242298482734701448e-01 3.776519476969946165e-01 -5.769489867141227579e-01
1.462150108754167559e-02 1.418687784561878384e-01 -5.868801438289785732e-01 7.439315842680493951e-01 -4.139045844191204249e-01 5.246415852039042482e-01
5.940362482321875914e-02 1.605240200437463016e-01 -6.134041421678507744e-01 -8.918800956136891944e-01 2.064691509633690136e-01 -4.023933209542402967e-01
4.869837591863040299e-02 2.561507058850773233e-02 -6.812439776489690457e-01 -7.448977097856603891e-01 3.597996298369763868e-01 -5.618466234883437993e-01
-6.757024577726805648e-02 6.158581012214076750e-02 -5.594658189455297137e-01 7.141795401059619630e-01 -4.179638616689791419e-01 5.614746609000188515e-01
-1.663348119226041796e-02 -1.425972427096945105e-01 -7.311358209808561659e-01 5.916024290406546315e-01 -3.852481534877460478e-01 7.082304894506302739e-01
-3.062550840306451500e-02 -1.271830776924294526e-01 -6.871161363464916016e-01 -5.626425681877469387e-01 4.093175548655741958e-01 -7.182565556554038055e-01
-5.627957953829033910e-02 -6.062607597014372379e-02 -6.268162680607223258e-01 -4.894187466492342375e-01 4.760479949372014574e-01 -7.306487507308578877e-01
1.268267313841097040e-02 -3.164195868447726157e-01 -8.284835280162315962e-01 -7.511718651350486331e-01 -3.172022317869271912e-01 5.788985862644032698e-01
1.588072341832514472e-02 -2.527748400661703268e-02 -6.715742850514925255e-01 -7.388096689050960286e-01 3.573055544580598930e-01 -5.713956719172459398e-01
6.128975436326229015e-02 3.072839660637567347e-02 -6.958703060344785252e-01 -8.167185055030579122e-01 3.235788071255382148e-01 -4.777736266769709306e-01
-3.135708138512187382e-02 5.079612010950856210e-02 -5.765882496364382881e-01 -5.761334460631215570e-01 4.459397773007063304e-01 -6.849875672947859373e-01
-5.429310101955144019e-02 3.210947152318063130e-02 -5.932455414139250482e-01 6.294112854748126207e-01 -4.268879547013447739e-01 6.493135666593194966e-01
-3.024803433222929706e-03 -1.998781948264625186e-01 -7.476905402112232757e-01 -6.291715778498313538e-01 3.425580185274116896e-01 -6.977084846614143299e-01
1.237452233973039724e-02 1.653418253781902547e-01 -5.645737249390375689e-01 7.289656224859756284e-01 -4.650042187285456929e-01 5.023745592665784798e-01
3.406586467760228110e-02 -1.141108375673862696e-01 -7.465728438244230158e-01 -7.855793243642914536e-01 3.040824658160173888e-01 -5.388867961961899544e-01
-3.036804782693219851e-02 1.295005750866068672e-01 -5.262608732737725781e-01 -4.306218626149377893e-01 4.650062433371481840e-01 -7.735205266154961956e-01
-6.438933046155433104e-02 -1.004169453014487207e-01 -6.481745660705828804e-01 -3.686484141457901931e-01 5.158373254058976620e-01 -7.733111925130038422e-01
7.178306442683198008e-02 5.900225301587594395e-02 -6.985399343348346335e-01 -8.923107681451128981e-01 2.346101195204234047e-01 -3.856677130262410880e-01
-2.113972754069805282e-02 4.155398748331038533e-02 -6.181216262914301929e-01 6.007568066305403187e-01 -4.339546663814718430e-01 6.713975028348118101e-01
-7.421727582523583722e-02 -7.714525612598621684e-02 -6.284062047486566049e-01 -9.111544733491173942e-02 5.855553662291341777e-01 -8.054954303639614288e-01
-5.349050702733793017e-02 -1.348657384719897934e-01 -6.950586839799598460e-01 6.484976297509302823e-01 -3.507626889602114550e-01 6.755859384570013226e-01
-5.512349810986839904e-02 -1.127058011894995077e-01 -6.611144455306605661e-01 -4.779912820006991248e-01 4.718639616301464335e-01 -7.408567581159206661e-01
5.416228209067733279e-02 5.151283194880600796e-02 -6.992718628765034472e-01 6.928491780638167397e-01 -3.913600749935710055e-01 6.056379348730724921e-01
3.658771394169674923e-02 -1.049139839159453774e-01 -7.449936674732983155e-01 -7.703595884103588975e-01 3.159373943812293639e-01 -5.538318042292461607e-01
-1.509976796260373288e-02 -9.186234981814643541e-02 -6.800204018050868271e-01 -5.907734656603905732e-01 3.983595770203919861e-01 -7.016383396506677972e-01
1.156503459867253003e-02 1.547880097864707261e-01 -5.722911834226906969e-01 7.461534024049233382e-01 -4.134332739162304149e-01 5.218505802415706052e-01
-2.717622308069252840e-02 -1.617345430263124328e-02 -6.235449859796919903e-01 -6.209157417008385194e-01 4.141017123042906589e-01 -6.655699914920685245e-01
-7.335023400003658212e-02 -7.173578696166130197e-02 -6.390627048381394282e-01 7.235686582701154057e-01 -3.417902529088539532e-01 5.996897696189980032e-01
-1.730744068802164909e-03 -9.540804130801756877e-02 -6.935424675812575934e-01 -6.330191451499393995e-01 3.822974679446035640e-01 -6.731533316242184206e-01
4.091407285547735834e-02 1.952822825471832724e-01 -5.575263332450118847e-01 -9.030396760824334068e-01 1.015240729922324836e-01 -4.173873572881689475e-01
3.356752382118774469e-02 1.682203046110742062e-01 -5.932081140167845268e-01 7.393934974579491337e-01 -4.124205071594928551e-01 5.321715711978688423e-01
-6.324052234081241342e-02 -1.900878961776707871e-02 -5.956247615258714045e-01 -4.965588831818821269e-01 4.508732167650094103e-01 -7.417159954707291947e-01
5.879468797113425287e-03 -1.066784902794527534e-01 -7.354495191419484490e-01 7.529883274410928973e-01 -3.101964236498210847e-01 5.803333158559192961e-01
4.923553901923873738e-02 2.727539018199860721e-02 -7.090852479329993185e-01 6.937906933087375494e-01 -3.835387766890976935e-01 6.095510484397609341e-01
-2.869025057730766742e-02 -1.429655907595272502e-01 -7.213929563252062804e-01 5.807817068569529617e-01 -3.875648034068851500e-01 7.158813673650872289e-01
1.297477654767731359e-02 -2.934391374494144666e-01 -8.153344175420428330e-01 -8.141827439703684943e-01 -2.713087253355988548e-01 5.133205966816977162e-01
9.497394118767231441e-03 -2.649972543030568173e-01 -8.055342723098953828e-01 -5.716692997445079749e-01 -3.531623963139963740e-01 7.405879647681157252e-01
-2.296559318746944217e-02 -1.076879968902013512e-01 -6.823663579727756723e-01 -5.917861762105484091e-01 3.979671483758333017e-01 -7.010073255392595959e-01
5.097939878143746550e-02 -1.053695264890531919e-01 -7.748234248646700406e-01 -9.716833917686334976e-01 2.266756458422614917e-01 -6.670485546793362974e-02
1.577022403679598575e-02 -3.651017588401214709e-01 -8.428094790269485825e-01 -6.696223989366814067e-01 2.740541966569598475e-01 -6.902898957227985299e-01
6.107416272632795046e-02 3.430621546323368160e-02 -6.931315277635393679e-01 -8.172909528879561680e-01 3.066866108261623869e-01 -4.878307299335073455e-01
-1.450682577500348770e-02 -1.448095779587276477e-01 -7.099025838315873305e-01 -5.808016160020758045e-01 3.895126341597449082e-01 -7.148072402258626168e-01
-6.675050119744956045e-02 -7.701995782155277026e-02 -6.312337024981963252e-01 -3.684555711153223445e-01 5.220324532686084762e-01 -7.692350810047861032e-01
8.981944788880211542e-03 -2.923741764583448824e-02 -6.949941291423434864e-01 7.390023330031780802e-01 -3.474564182618687380e-01 5.771911201885325804e-01
2.729620125638651182e-02 -3.802858133207102226e-02 -7.232766846880507305e-01 7.196616464793043066e-01 -3.584018271216425910e-01 5.946723845131578479e-01
-6.387476908646608914e-03 -1.473080828964390132e-01 -7.427136015925429602e-01 6.281286592069481589e-01 -3.504632885178597945e-01 6.947156762907609195e-01
-2.613158418791043311e-02 -8.772743472578900525e-02 -6.680265188284651989e-01 -6.098257614303419505e-01 3.980929505235600296e-01 -6.852988716168663119e-01
1.697994563700982659e-02 1.749808122571172575e-02 -6.762669338100845140e-01 7.281562034668149774e-01 -3.631855846826826939e-01 5.812785687013520830e-01
1.102130088090755126e-02 2.225958812600536962e-01 -5.071167760195530727e-01 6.359948725397003289e-01 -5.611130910159963792e-01 5.297760103984366920e-01
3.443164318834957688e-02 2.685480730340498307e-02 -6.621918499162952054e-01 -7.213778796852519104e-01 3.773883399574714526e-01 -5.806823534127367736e-01
-1.126575838241109439e-03 -1.100928530860559723e-01 -7.024504178729915616e-01 -6.330191451499393995e-01 3.822974679446035640e-01 -6.731533316242184206e-01
4.481362751329954347e-02 1.554365984752789642e-01 -5.883454285263248762e-01 -7.972846373682161980e-01 3.519396494845798973e-01 -4.903832074381251904e-01
-8.266112006300266324e-02 -2.858720417661191754e-02 -6.002302098692928745e-01 9.585383963392909434e-01 -1.268975393234704763e-01 2.551492842571755904e-01
-1.351770081083539937e-02 -1.081669805989704247e-01 -6.906095453789392602e-01 -5.907734656603905732e-01 3.983595770203919861e-01 -7.016383396506677972e-01
1.575543407781965569e-02 1.128262214407086961e-01 -6.101372890428896634e-01 7.409530015803040826e-01 -3.924020211097090649e-01 5.449855991474945593e-01
7.027914970341935831e-03 4.072181446484623296e-02 -6.482204188545521717e-01 7.383352006610696128e-01 -3.721056542014351542e-01 5.624931231367189532e-01
-4.477636117466880783e-02 -1.234031444047082454e-01 -6.742926567807402405e-01 -4.581766693288644721e-01 4.738312928283375247e-01 -7.520359337287911838e-01
5.448063682932192259e-02 7.264440044662059948e-02 -6.859779772404398512e-01 6.935588718773236794e-01 -3.912634779674322716e-01 6.048875780251091738e-01
-6.795100085999757067e-02 1.462428979099962903e-02 -5.729925899952951207e-01 -3.695688025191161685e-01 4.536185108057823601e-01 -8.109556996895274095e-01
3.517513649255123165e-02 6.392067652099407693e-02 -6.387075882432252660e-01 -7.238549828268121544e-01 3.866858200936416634e-01 -5.714088207013462428e-01
-6.247068694990743493e-02 -1.205117596853315029e-02 -6.135608410381090394e-01 6.320172160726124089e-01 -4.119979594055026562e-01 6.563626436913718720e-01
4.644979278683848689e-02 1.641940449480511488e-01 -5.847205017787183712e-01 -7.972846373682161980e-01 3.519396494845798973e-01 -4.903832074381251904e-01
-4.399310437976974159e-02 1.311069762847939524e-01 -5.347192946124136315e-01 6.484623180638993123e-01 -4.624756156119433359e-01 6.046593479104978019e-01
3.722690111570806787e-02 7.540548692685639098e-02 -6.637135080416772803e-01 7.130578277144881127e-01 -3.892842593954405350e-01 5.831005914265896539e-01
-2.163797929552338170e-02 1.829351547691390190e-01 -5.073881058245411912e-01 3.111025312984243008e-01 -5.678918850574646293e-02 -9.486781346107708845e-01
7.181768043764728826e-02 4.893582959756339473e-02 -7.117804807580384585e-01 -7.514012381295648302e-01 -3.898511481206512475e-01 5.323647825000891176e-01
-3.926956538160195770e-02 -1.061974110507025587e-01 -6.921514293618172831e-01 6.098030336930617690e-01 -3.979507607455116669e-01 6.854016721024299708e-01
1.121422437959885936e-02 -3.427389865406746949e-01 -8.434115631087767406e-01 -3.265309216577280127e-01 -4.304844413381132551e-01 8.414634293700273826e-01
-3.776987919935324844e-02 -1.003895498473351688e-01 -6.657136863859557385e-01 -5.767473840361141413e-01 4.189507563975218840e-01 -7.013149925115271799e-01
5.442846333427747707e-02 1.655832459574562432e-01 -5.992295522007015096e-01 -9.048838656141455772e-01 1.919841706330207565e-01 -3.799042879167755515e-01
-4.681880124103026536e-02 -8.074509311874167317e-02 -6.463272063742613316e-01 -5.893820719300625344e-01 4.260313532898200584e-01 -6.863862318705636900e-01
6.510927875452221514e-02 -2.267296843940464976e-02 -7.426409525425045066e-01 -9.767047608968727479e-01 1.874345375410938486e-01 -1.044801616487030099e-01
1.639646771531703962e-02 -1.770951658831086684e-01 -7.560107772448422248e-01 -7.439114723262684192e-01 2.987424866235596776e-01 -5.977864568784877486e-01
1.234148390829077234e-03 -3.215759654981929505e-01 -8.243992288983866823e-01 9.610690722755415027e-01 1.806856762919658854e-01 -2.090428776551468693e-01
-7.586163076504454095e-02 2.680747398688886757e-02 -5.659933451672216620e-01 6.697515187883067433e-01 2.180722692340570368e-01 -7.098432140070546348e-01
6.135401177702110020e-02 -8.647093840331599238e-03 -7.428083485872791769e-01 1.932136417073071211e-01 -4.182506789080741583e-01 8.875442852337764865e-01
1.476550400253439158e-02 -4.551852835711655415e-02 -6.822623622942513011e-01 -7.113749464751727425e-01 3.583189959359237009e-01 -6.046099425901931834e-01
3.335084761595775993e-02 -1.648255912188172911e-01 -7.797214276732472582e-01 -9.002911962216499919e-01 3.094830293456661829e-01 -3.060980505537730378e-01
2.154456040153380093e-03 8.001186199062741700e-02 -5.874282872167622127e-01 -6.313031636608907871e-01 4.452442009247921662e-01 -6.349912732428644180e-01
1.413705661836607737e-02 -2.809243216137355392e-02 -7.008900533887424400e-01 7.318262362415903777e-01 -3.511318681364474226e-01 5.840691492687116737e-01
5.013128647222956508e-02 6.281346964357410918e-03 -7.233145580491795457e-01 6.937906933087375494e-01 -3.835387766890976935e-01 6.095510484397609341e-01
1.286423139594880440e-03 -1.822400520916339084e-01 -7.684001669156138581e-01 7.117222144692590957e-01 -2.918051741591374260e-01 6.389845301452371507e-01
5.474648781433661543e-02 7.067907386052021956e-02 -6.875540450244508328e-01 6.935588718773236794e-01 -3.912634779674322716e-01 6.048875780251091738e-01
-1.876003287011587676e-03 -1.453764148450854554e-01 -7.208261794085064622e-01 -6.284870524499354127e-01 3.682307028670613880e-01 -6.851351504402777293e-01
-5.331775702548426088e-02 6.186673467623368672e-02 -5.532325976340259910e-01 -4.782937655678982658e-01 4.566923288449648011e-01 -7.501114521143127378e-01
1.898959759641982714e-02 -2.013914278361676191e-01 -7.712931569074519267e-01 -8.033466476295371139e-01 2.847736418216633147e-01 -5.230087347894021299e-01
2.891521507972548075e-02 -1.139422746610728315e-01 -7.683487309484920980e-01 6.871384692256744531e-01 -3.338469839951455631e-01 6.452804935743383652e-01
5.280125163448093698e-03 -3.582750690601360088e-01 -8.385564716378745009e-01 8.154730387755325660e-01 2.738397204222492443e-01 -5.099171800883579575e-01
3.649023549466287597e-02 -1.418603006365188324e-01 -7.668525654585557350e-01 -8.567188476071174730e-01 2.958901079509628773e-01 -4.224711353116331058e-01
1.640733816015052093e-03 6.832157804776607668e-02 -6.229290931798474595e-01 7.102047397965773889e-01 -3.975619207999261384e-01 5.809937578841521955e-01
5.767409237051417115e-02 1.746947150887424305e-01 -6.095439588501263550e-01 -8.151053158576936353e-01 -4.858218246977903387e-01 3.155637474549939925e-01
-5.822008097355790140e-02 -1.612144224635786161e-01 -6.958558580774972802e-01 6.899831974538573887e-01 5.941940537610679307e-01 -4.133480539525259956e-01
7.276146191560297835e-03 -2.979004206955896544e-02 -6.931427904734592804e-01 7.390023330031780802e-01 -3.474564182618687380e-01 5.771911201885325804e-01
3.745913001687433547e-02 -8.480799148547100638e-03 -7.176246278771657439e-01 7.137962993026198966e-01 -3.638844112158268196e-01 5.984003495787714177e-01
3.695736627592269979e-02 1.214973250066799099e-01 -6.009978681557296420e-01 -7.406102433505239446e-01 3.917224023605863636e-01 -5.459395817607737289e-01
8.151331885245197834e-03 -1.770049444703158670e-01 -7.463133492308476891e-01 -7.042150397895600156e-01 3.184173859284207264e-01 -6.345798185198607833e-01
-7.955619027173924107e-02 -6.740289312517371012e-02 -6.234038751542432255e-01 7.501279788967795126e-01 4.585667726620745732e-01 -4.764709123194428297e-01
1.946319796420640028e-02 -1.578015535744805090e-02 -6.702675172853788110e-01 -7.388096689050960286e-01 3.573055544580598930e-01 -5.713956719172459398e-01
1.736398677343833213e-02 2.096690731905306027e-01 -5.133404515965853676e-01 -6.864008816090036991e-01 3.280431632032393408e-01 -6.490312109613800562e-01
6.553226255194477545e-02 8.274988474415799489e-02 -6.702669254912817509e-01 -8.950796517463999180e-01 2.154558634412848117e-01 -3.903987550419623087e-01
6.590997796360907601e-02 -5.937455087621970780e-03 -7.306390037350910527e-01 -8.931401246416847961e-01 2.827554699981487674e-01 -3.497857371894427247e-01
-7.134534331404226645e-03 -1.519387609971517006e-01 -7.198808037374382351e-01 -5.912871062602099714e-01 3.667182344737375255e-01 -7.182599073280450108e-01
1.595598684606950451e-02 -3.524618275038678417e-01 -8.449116155197329281e-01 -8.256431006718906174e-01 -3.140806119633647309e-01 4.686862911389929054e-01
-7.869787477434022488e-03 -2.174040802089343416e-01 -7.749582660855134364e-01 6.652389788864963016e-01 -2.277621064309705012e-01 7.110425612044464216e-01
2.166434752862183427e-02 1.645821602730117572e-01 -5.477667002379766892e-01 -7.104647722614082506e-01 4.248763251255559537e-01 -5.609990336206902573e-01
4.801531210648592868e-02 1.188682375828205712e-01 -6.473431812912150418e-01 6.883480867742877152e-01 -4.157054677432264200e-01 5.944458558376558566e-01
6.225090651834513412e-03 -3.082278318665810368e-01 -8.250049976411333308e-01 6.704946550988809539e-01 -2.862268699091703450e-01 6.844787041434022834e-01
1.834421190306761290e-02 2.215432678578162229e-01 -5.099758006860575232e-01 -6.842783320372531897e-01 2.146951438585115723e-01 -6.968996767884797494e-01
-7.950364242808462267e-03 -5.232500730863459681e-02 -6.885845476357649320e-01 6.261104931804856166e-01 -3.960496512807877845e-01 6.716623586666555790e-01
-2.175975045627461663e-02 -1.616154436895610724e-01 -7.367426354114636755e-01 5.947117428525701133e-01 -3.655186316811692704e-01 7.160405524879052130e-01
5.688957061951481486e-02 -2.024467957656717748e-02 -7.458490623993416779e-01 6.194242442885637967e-01 -3.886088167646692959e-01 6.821266694099459293e-01
-3.920937799183266126e-02 -2.177784582310770406e-02 -6.418384853576541982e-01 6.208774775186459705e-01 -4.157325585081999009e-01 6.645882918817553886e-01
-2.286802796733596738e-02 -6.095739987656494108e-02 -6.802101979029562262e-01 5.967869124309782558e-01 -4.093927193385461516e-01 6.901036027320031074e-01
-5.711954932810574259e-02 -4.958187004773222106e-02 -6.191705864191054953e-01 -4.896562576811693268e-01 4.675053259397060623e-01 -7.359860865068585944e-01
-8.041364712823810545e-02 -4.275157351503581366e-02 -6.133963981563295143e-01 7.241243914483546096e-01 -3.621416059808996724e-01 5.869389430998125379e-01
2.980168499748661343e-03 -2.338164100155649405e-01 -7.720749676405334050e-01 -6.720124438799173205e-01 4.156143607994269296e-01 -6.129143319974047488e-01
2.681998256989740273e-02 1.468296652972244098e-01 -5.681587595555499526e-01 -7.414145567314002205e-01 4.014230940389368341e-01 -5.377396718106153273e-01
5.995911116603167695e-02 1.546432559491977589e-02 -7.039018597625756879e-01 -8.211544324699273645e-01 3.184787669756571349e-01 -4.735785816743154353e-01
4.240265777131336719e-03 1.359888822559314758e-01 -5.497083710874379747e-01 -5.934529197176964255e-01 4.679399417919933857e-01 -6.548632246158332393e-01
1.258651786812294698e-02 -1.479665686767147603e-01 -7.368572019613467416e-01 -7.148839391932496623e-01 3.106678754157553568e-01 -6.264394820477097170e-01
-2.713735700079035647e-03 1.152301153206661960e-02 -6.552381775217955839e-01 7.172760374595605892e-01 -3.703248495953298525e-01 5.902326590917410520e-01
2.007699395160817205e-03 -3.031979653636042160e-01 -8.187531374566991982e-01 6.709023772058447799e-01 -2.925775432230846573e-01 6.813871010380885274e-01
1.129196271217933721e-02 -1.285687678612956741e-01 -7.251764156507065628e-01 -7.113365441419373658e-01 3.325272086470435484e-01 -6.192139989354338292e-01
2.842896906907281182e-02 8.152228380024061083e-02 -6.485596466879335331e-01 7.273404893777927205e-01 -3.855710846376139700e-01 5.677241858535241326e-01
2.811208595968195736e-02 -4.259253680869145089e-03 -6.741060313290463402e-01 -7.245854519039344188e-01 3.655338359766356904e-01 -5.842610184201725287e-01
-3.534145632958703154e-02 -1.834966648223687949e-02 -6.173778758425869650e-01 -5.893545122374342915e-01 4.272734387830621205e-01 -6.856374168727030760e-01
2.797783375525323205e-02 1.092146677973826613e-01 -5.976265564160081478e-01 -7.410361437025765330e-01 3.914731819902634302e-01 -5.455402657080705708e-01
6.931102881906725521e-02 1.017778732026595190e-01 -6.702022605237395458e-01 -9.743936722583227406e-01 6.681526747513265307e-02 -2.146920853109560712e-01
-1.053077945325397362e-04 -1.847055909352440239e-01 -7.680021075995321356e-01 7.032273768297152561e-01 -2.948239233215234067e-01 6.469544889051331849e-01
-4.953789354133147395e-03 -2.505776169681911969e-01 -7.874528122623379867e-01 9.674296801607819019e-01 1.964476280378801842e-01 -1.596500654002311892e-01
-8.693953501133184353e-03 7.157244881672571168e-02 -6.095774462083262124e-01 6.318899733872850311e-01 -4.327669987397189666e-01 6.429835039364790727e-01
3.041094880071147297e-02 -7.382592412745407617e-02 -7.190300307335271146e-01 -7.318885315618159915e-01 3.432190598244486135e-01 -5.886763578924419926e-01
-2.374250787509868746e-02 -1.214147824072237813e-01 -7.137579375412232974e-01 5.843865108899729544e-01 -3.859908275142542866e-01 7.137951295467802604e-01
3.611652846468090677e-02 -3.974162177113847727e-03 -6.838483300299764700e-01 -7.216407606581231038e-01 3.688203077042259692e-01 -5.858380264046758601e-01
-4.838658168041364005e-02 -3.946589457960895941e-02 -6.442613634371860964e-01 6.298968079784120766e-01 -4.117792540868152051e-01 6.585346287039988145e-01
-3.846233584129458982e-02 2.350119274974781305e-02 -5.881863910869996603e-01 -5.891276099061869553e-01 4.366007519552376759e-01 -6.799326750777203721e-01
-6.670054524402896368e-02 8.349999257720149004e-02 -5.418010361475804615e-01 9.612069981971117505e-01 -2.529009257771019925e-01 1.101009916303321151e-01
-1.049583898737284360e-02 1.897077343377149006e-01 -5.064065727581488208e-01 -3.968515197112552212e-02 1.665198035781955133e-01 -9.852391809755171037e-01
2.332331158330513965e-02 1.262113206364789686e-01 -6.108774569987036607e-01 7.452062629610110012e-01 -3.898971612629660854e-01 5.409693422762194004e-01
1.577716707477896246e-02 9.632835767204517285e-02 -6.220427145429936466e-01 7.416095894779221043e-01 -3.809557456127793951e-01 5.521665841745582171e-01
-5.665066590162620014e-02 -6.706914514767388369e-02 -6.531576769992439857e-01 6.300993369652321263e-01 -4.015107731130914681e-01 6.646532363797700294e-01
2.084442887203104972e-03 1.548841276764149379e-02 -6.303462377287191165e-01 -6.255822046723565899e-01 4.231326352931683576e-01 -6.554431158743925234e-01
1.756589668591576961e-02 -1.300947586768067266e-01 -7.336178245373218276e-01 -7.471292707291926627e-01 3.150493691233781091e-01 -5.852706620313599117e-01
-3.268927748735234173e-02 -1.429085701070145070e-02 -6.172305050357809186e-01 -6.209157417008385194e-01 4.141017123042906589e-01 -6.655699914920685245e-01
2.183662926143862398e-02 5.821312345367880142e-02 -6.252408771891851957e-01 -7.378640927392274840e-01 3.825549479754713489e-01 -5.560650073737791743e-01
-3.390536453838441378e-02 9.009624187653626770e-02 -5.738789167894126075e-01 6.085591359526211219e-01 -4.464749275224196290e-01 6.559846927653489868e-01
-7.496730978027225240e-03 1.435947575038410695e-01 -5.337722825042955366e-01 -5.742847183347498108e-01 4.738898487975140017e-01 -6.675518507905181531e-01
1.045003965270511863e-02 1.037524852690061145e-01 -5.789159061840319920e-01 -6.243424382598866673e-01 4.501471468704577594e-01 -6.384074450944995371e-01
-3.933009025564778577e-02 7.824332474061737597e-02 -5.520409104359138563e-01 -4.651395852510458173e-01 4.621196271539273481e-01 -7.550434533400049997e-01
6.014837161253276665e-02 8.462640483960982840e-02 -6.841033883568264917e-01 6.172322834860395346e-01 -4.484457237201760482e-01 6.464678964184508159e-01
2.254455167984966563e-02 -1.501387254740366439e-01 -7.781453181889730342e-01 6.207069606876494117e-01 -2.919331949153369243e-01 7.276660488578705621e-01
2.269717373993095436e-02 6.597512753521468654e-02 -6.517752346968900268e-01 7.273404893777927205e-01 -3.855710846376139700e-01 5.677241858535241326e-01
2.535705828055365846e-02 -6.613830837529864615e-02 -7.082247331019465575e-01 -7.471182742071275085e-01 3.281354885516090669e-01 -5.780496393033734970e-01
4.607878898734193984e-03 2.018908753939790413e-01 -5.059931219424007587e-01 -3.515449296750847719e-01 3.385133517489156141e-01 -8.728257976867174195e-01
3.206420318998083607e-02 -8.856861567662892287e-02 -7.584997719324965137e-01 7.285719575767943823e-01 -3.258610893733109304e-01 6.024926995949051456e-01
1.202472059804302572e-02 -1.178642288461750481e-01 -7.494137386038673965e-01 7.559090852422597484e-01 -3.088368098502801695e-01 5.772532197655650954e-01
8.052760676514909149e-03 -2.501027073264020569e-03 -6.773255376528510840e-01 7.370735896059984471e-01 -3.577448481826183135e-01 5.733595269149399654e-01
-1.519461409315837376e-02 9.745157622073265247e-02 -5.595961563613279788e-01 -5.958548443221186597e-01 4.567986238912563057e-01 -6.605240508179230918e-01
6.509879349883097854e-03 -1.473016698074254560e-01 -7.295928865239065253e-01 -7.148839391932496623e-01 3.106678754157553568e-01 -6.264394820477097170e-01
6.562695714999250418e-02 1.173443292561417162e-01 -6.512506720576980435e-01 -8.951951499820661740e-01 2.214924296772403378e-01 -3.867386029920711343e-01
1.484865942841378378e-02 -1.495857313925468557e-01 -7.693670627179131083e-01 7.555291011234066545e-01 -2.919560838431167760e-01 5.864617826104682186e-01
1.965706516317322627e-02 1.219724653750668963e-01 -6.088821643341142398e-01 7.452062629610110012e-01 -3.898971612629660854e-01 5.409693422762194004e-01
7.906370438122551497e-03 8.877756924410781791e-02 -5.869872329257036503e-01 -6.243424382598866673e-01 4.501471468704577594e-01 -6.384074450944995371e-01
-1.026551300011982124e-02 -1.796400521715757204e-01 -7.555177788545609507e-01 6.281286592069481589e-01 -3.504632885178597945e-01 6.947156762907609195e-01
-6.814779493094555440e-02 -6.061590447188561909e-02 -6.379825513049275365e-01 6.515346502437923126e-01 -3.897350851798421223e-01 6.508526430088151793e-01
2.590791031954611454e-02 -1.164213217827255176e-01 -7.370202200780819890e-01 -7.559349955200574955e-01 3.107819684573383534e-01 -5.761743231261459153e-01
-3.653670592018056634e-02 -1.551370091030467857e-01 -6.989585608473757317e-01 -4.311626030819040722e-01 4.788599253276981105e-01 -7.647169290781967721e-01
2.363594448627140410e-02 1.349418215220651307e-01 -5.726430164770621722e-01 -7.414145567314002205e-01 4.014230940389368341e-01 -5.377396718106153273e-01
3.525001419299197969e-02 -2.914981344737384641e-02 -6.983566637732314675e-01 -7.247279169771996266e-01 3.588916113458943680e-01 -5.881889642448561162e-01
2.655403655631083577e-04 1.859755587882209737e-01 -5.308734065347169295e-01 6.060415453946591535e-01 -5.486387595538928519e-01 5.759419734407442704e-01
5.190422673697524247e-02 1.402824693880498075e-01 -6.101517578971515920e-01 -8.374943085052141134e-01 2.866169619522712653e-01 -4.652461717656833917e-01
-5.044313631813446275e-02 1.063740742166324471e-01 -5.293535867071110790e-01 -3.663325318967135535e-01 4.427315226720176522e-01 -8.184065462266659763e-01
4.329000237640331927e-02 -7.942006639138965429e-02 -7.660238383225919101e-01 5.985343037650249221e-01 -3.371716771767435117e-01 7.266855904215651085e-01
1.911647382092923619e-02 1.210786544462494480e-01 -5.769747605753805519e-01 -7.150486907303196249e-01 4.161154244965410420e-01 -5.617413313803062413e-01
5.133959190971942865e-02 8.595644359572517101e-02 -6.454702251913170263e-01 -7.481147008520162567e-01 3.651273596855534320e-01 -5.540815874744033920e-01
5.313183150135656480e-02 1.371212875603403658e-01 -6.402275770372318764e-01 6.141003024970700386e-01 -4.619382678512292673e-01 6.399170689766082720e-01
1.326883872415085368e-02 -1.612985591174965760e-01 -7.442475429269552745e-01 -7.148839391932496623e-01 3.106678754157553568e-01 -6.264394820477097170e-01
3.220437193273077703e-02 -4.051759905113452159e-02 -7.307165638612056480e-01 7.196616464793043066e-01 -3.584018271216425910e-01 5.946723845131578479e-01
-3.475588975694281907e-02 -8.724185939926283606e-02 -6.603381784160248236e-01 -5.767473840361141413e-01 4.189507563975218840e-01 -7.013149925115271799e-01
-6.459360244767387016e-02 -1.252445150042910960e-01 -6.790863442415739915e-01 7.226965464624379720e-01 -2.848360875596431252e-01 6.297444759225606647e-01
1.029215805036096110e-02 1.367693470840298520e-01 -5.847463838026338845e-01 7.461534024049233382e-01 -4.134332739162304149e-01 5.218505802415706052e-01
1.703898961766140557e-02 -4.064538196372865508e-01 -8.604121185820500228e-01 -6.714634440707011320e-01 3.023076161578259757e-01 -6.765699878724188432e-01
-5.696437267217705630e-02 2.319793396796131224e-02 -5.964115257786080093e-01 6.296852920089131000e-01 -4.188097740744849418e-01 6.542895430673859591e-01
1.788015340035083514e-02 7.816546168158620966e-02 -6.372605922821727997e-01 7.307409096655772540e-01 -3.855036271877568255e-01 5.633867910824745806e-01
-2.753254477074038378e-02 -7.621233300701207858e-02 -6.599768996362650464e-01 -6.097528720710011507e-01 4.063514209409466171e-01 -6.804997852317358209e-01
-2.805776553432964013e-04 -9.459844842612518193e-03 -6.439453461191171346e-01 -6.258913369772719504e-01 4.119488969081758767e-01 -6.622372238351905693e-01
-4.071650866615757897e-02 1.239311901178347664e-01 -5.436374610515370964e-01 6.110028257925225192e-01 -4.685691351806144378e-01 6.380583926488575530e-01
1.262660467289722192e-02 -3.640020853992021466e-01 -8.393233957507126863e-01 -6.696223989366814067e-01 2.740541966569599031e-01 -6.902898957227986410e-01
-4.836144445332053038e-02 4.294803493533493055e-02 -5.678377893837572854e-01 -4.783361495809009267e-01 4.536391877113474247e-01 -7.519348478270621028e-01
2.444479356861626457e-02 -1.254863323177834722e-01 -7.691963762191252885e-01 7.313425195136380452e-01 -2.928495151855372569e-01 6.159361010746486897e-01
1.559562275642340998e-02 5.033663038926345507e-02 -6.530886182003335927e-01 7.366185199861041699e-01 -3.722707115812812217e-01 5.646305635654593758e-01
2.539093554977359807e-02 5.580194385107037358e-02 -6.316160376923385389e-01 -7.378640927392274840e-01 3.825549479754713489e-01 -5.560650073737791743e-01
4.472292801369478349e-02 -1.010176752442590031e-01 -7.773116607731026528e-01 6.175358119382434730e-01 -3.321115888931244764e-01 7.129876671420470879e-01
1.509821660164737712e-02 -1.193171085305577556e-01 -7.542157668723751263e-01 7.559090852422597484e-01 -3.088368098502801695e-01 5.772532197655650954e-01
1.772254480752181657e-02 1.590912202323369884e-01 -5.776861315482397785e-01 7.461534024049233382e-01 -4.134332739162304149e-01 5.218505802415706052e-01
4.050148433515581708e-02 1.809328831876697019e-02 -6.753569710397689940e-01 -7.216407606581231038e-01 3.688203077042259692e-01 -5.858380264046758601e-01
-1.391634673651299947e-02 1.897895227750601155e-01 -5.062610828357803072e-01 -8.058257199483535860e-02 1.735314748586992695e-01 -9.815259937077885910e-01
-5.332490637975561415e-02 -3.856409039994117965e-02 -6.146965887982056564e-01 -4.896562576811693268e-01 4.675053259397060623e-01 -7.359860865068585944e-01
-4.530897399051852376e-02 -5.850811070381405077e-02 -6.338214389220826472e-01 -5.893820719300625344e-01 4.260313532898200584e-01 -6.863862318705636900e-01
6.220254298750121924e-02 2.559224999254547384e-02 -7.009091767906941994e-01 -8.167185055030579122e-01 3.235788071255382148e-01 -4.777736266769709306e-01
3.606077146577643666e-02 1.503812353045929917e-01 -6.102110480417638483e-01 7.255314874065518227e-01 -4.170822382950646889e-01 5.473997326272782571e-01
-8.106167660619365695e-03 -8.336230569395067583e-03 -6.360886019047047313e-01 -6.032115105837205782e-01 4.184290855771052864e-01 -6.790088172052065607e-01
-1.734247031380118569e-04 -2.881887898698481387e-01 -8.101608570548874955e-01 6.709023772058447799e-01 -2.925775432230846573e-01 6.813871010380885274e-01
-4.929378679386700601e-02 -7.248226871434373941e-02 -6.390835326877508660e-01 -4.778575578674564284e-01 4.768648471134173672e-01 -7.377344183216937301e-01
3.178568495280114509e-02 -1.126069594333587859e-01 -7.707145537624319198e-01 6.871384692256744531e-01 -3.338469839951455631e-01 6.452804935743383652e-01
5.108888898425271996e-02 1.737691080042670644e-01 -5.881966978645389865e-01 -8.580274095673559032e-01 2.378903874947457808e-01 -4.551891123134785277e-01
2.433733066049779611e-02 8.991354287009553289e-03 -6.610296475972526897e-01 -7.370410675207904605e-01 3.590659035296981938e-01 -5.725750096801421885e-01
3.652821928388728934e-02 -2.323877570332251799e-02 -7.254884551234177525e-01 7.137962993026198966e-01 -3.638844112158268196e-01 5.984003495787714177e-01
8.669495343201143872e-03 1.930012094835741321e-01 -5.134762039009264090e-01 -6.253920312899299283e-01 3.527520937118041044e-01 -6.960249762623419434e-01
3.912723974128273774e-02 9.434132706298903326e-02 -6.230153200503472100e-01 -7.303320434635773850e-01 3.928519894852391392e-01 -5.588223516000455637e-01
6.307409441191548505e-02 1.509773261142527689e-01 -6.278516912220666324e-01 -9.727579333404955397e-01 2.070313264425845817e-02 -2.308969108105225210e-01
2.152898145390405929e-02 8.811472609880575957e-02 -6.351854112375922012e-01 7.307409096655772540e-01 -3.855036271877568255e-01 5.633867910824745806e-01
-4.721129964409249979e-02 1.988280532140892370e-02 -6.079198480450219710e-01 6.296852920089131000e-01 -4.188097740744849418e-01 6.542895430673859591e-01
-8.044986136094767204e-02 -1.831381870872064027e-02 -5.982701738994590235e-01 7.236829967936286856e-01 -3.824071053042545909e-01 5.744978032722261041e-01
2.812803087821806255e-02 3.185844442673010923e-02 -6.510457645613345612e-01 -7.242298482734701448e-01 3.776519476969946165e-01 -5.769489867141227579e-01
1.437842903577252023e-02 -1.159792063005137680e-01 -7.219612824672120288e-01 -7.113365441419373658e-01 3.325272086470435484e-01 -6.192139989354338292e-01
-6.550378209689310116e-02 -1.082251460663731374e-01 -6.686784466740045563e-01 6.502622707291609849e-01 -3.800288157147493906e-01 6.578275446441873564e-01
-2.730991670964790646e-02 1.306500975778812912e-01 -5.272723047169299848e-01 -4.306218626149377893e-01 4.650062433371481840e-01 -7.735205266154961956e-01
-9.497953185153701350e-03 1.120596182091813074e-02 -6.224608456187910033e-01 -6.028933544297605529e-01 4.309934757992888721e-01 -6.713897727869252430e-01
6.296646545780507087e-02 7.310656158293112050e-02 -6.943809851746967077e-01 6.182409579276384459e-01 -4.299484225772803314e-01 6.579684429089471820e-01
1.933586914969995588e-02 -1.696523942653606343e-01 -7.559673937262705312e-01 -7.438316097679411598e-01 2.977351758975704810e-01 -5.983880858968334548e-01
6.102680575943673913e-04 -2.602911163066831679e-01 -7.867119815931721272e-01 4.733031999485093344e-01 4.470689294887440490e-01 -7.590213786213731995e-01
3.988837004251877261e-02 1.045123908176103789e-01 -6.168597953597342309e-01 -7.303320434635773850e-01 3.928519894852391392e-01 -5.588223516000455637e-01
-2.004734655338548388e-03 1.170628499736465766e-01 -5.575946696453284446e-01 -5.888858798872093070e-01 4.709051604728479168e-01 -6.568574809724775365e-01
2.911785933708243429e-02 4.570901167289492112e-02 -6.731515114992571158e-01 7.214025430367821956e-01 -3.766757898656168391e-01 5.811142058401060906e-01
-5.138219781473229997e-02 3.120072153865901393e-02 -5.730032717211588356e-01 -4.783361495809009267e-01 4.536391877113474247e-01 -7.519348478270621028e-01
-5.581779112905972673e-02 1.146469561108185570e-01 -5.338391797443624576e-01 7.211089258224908649e-01 -4.500225462110277741e-01 5.267652465765720882e-01
5.035770302357544387e-02 -4.992056207702730980e-02 -7.317604747244677021e-01 -8.286068161936167575e-01 3.142431040993063363e-01 -4.633163235668589230e-01
-2.836115721580736646e-02 -1.944952122573058162e-01 -7.297375705253009714e-01 -2.068712406544724880e-01 6.181158910258813810e-01 -7.583778972592493117e-01
-3.904711573311588080e-02 4.368892509756554937e-02 -6.001987030209495755e-01 6.129359081345729932e-01 -4.370022006106187296e-01 6.582846262679410421e-01
3.431282238034211868e-02 -4.395869567186066335e-02 -7.353240027782683708e-01 7.197377251329660774e-01 -3.520011737929629736e-01 5.983918287115886914e-01
-3.855748623150197923e-02 -1.910527565426199947e-01 -7.330801492738231451e-01 8.719461838188508063e-01 4.768921449657438361e-01 1.108320106905714281e-01
-2.488618664779676873e-02 1.506552335922930752e-01 -5.381814328699485728e-01 5.695710300932941283e-01 -5.308852645946625648e-01 6.274947629380812630e-01
4.207244788374839978e-02 2.292409595077187293e-02 -6.742385602758674823e-01 -7.213778796852519104e-01 3.773883399574714526e-01 -5.806823534127367736e-01
2.888436096921368976e-02 -1.324259892743581690e-02 -6.806840773795048705e-01 -7.245854519039344188e-01 3.655338359766356904e-01 -5.842610184201725287e-01
4.521180577676389006e-02 -2.557094292041464656e-02 -7.091577755021348795e-01 -7.484812920088682597e-01 3.545075528426013256e-01 -5.604463850274042924e-01
-1.800057521786321141e-02 1.150549818675509171e-02 -6.403423866542475862e-01 6.028492152781212976e-01 -4.324073297944807104e-01 6.705197422735297286e-01
4.493501069557128552e-02 1.515485534153764025e-01 -6.204884376166697191e-01 6.930750777433803966e-01 -4.425765271942282975e-01 5.690105044616522445e-01
1.941098444842558751e-02 1.581979675741454483e-01 -5.807889791531178902e-01 7.439315842680493951e-01 -4.139045844191204249e-01 5.246415852039042482e-01
1.366122197515967293e-02 -2.031632577857335753e-01 -7.655710095963255135e-01 -7.438697584372319094e-01 2.973791659395064735e-01 -5.985176807310356173e-01
3.533488488734810862e-02 1.857299249197057467e-01 -5.511310353748759550e-01 -7.730335619667780822e-01 3.612181303434726654e-01 -5.214792175956022291e-01
-1.761662977227933247e-02 -6.854996548049069327e-02 -6.642864435641168130e-01 -6.097528720710011507e-01 4.063514209409466171e-01 -6.804997852317358209e-01
-1.646351523953437299e-02 8.216336477669240745e-02 -5.952353866617478007e-01 5.953337663951258074e-01 -4.578668821177132031e-01 6.602542122922031576e-01
5.646977531099450082e-03 -1.499801268353971873e-01 -7.579070954877840105e-01 7.467560426776786997e-01 -2.975492132273782064e-01 5.948276039594508902e-01
4.421539555687414164e-02 -1.292563067940194488e-01 -7.757134536561325344e-01 -9.002911962216499919e-01 3.094830293456661829e-01 -3.060980505537730378e-01
-4.854996988221452897e-02 9.692752802835698234e-02 -5.353112763836899157e-01 -3.663325318967135535e-01 4.427315226720176522e-01 -8.184065462266659763e-01
1.119365731339483881e-02 -3.980537198416400635e-01 -8.525341347498177624e-01 4.718041069615095395e-01 3.653726736281237009e-01 -8.024360996491178843e-01
-4.525135231843578631e-03 3.396805947035447248e-02 -6.385503369364857740e-01 6.255723148058474070e-01 -4.223755738537957050e-01 6.559406631396856868e-01
2.972933741926819806e-02 -1.184584231268390186e-01 -7.715521709150033880e-01 6.871384692256744531e-01 -3.338469839951455631e-01 6.452804935743383652e-01
-2.044270489484384390e-02 3.681110118746531296e-02 -5.958405383112057585e-01 -6.170003873375864423e-01 4.347228045669411234e-01 -6.559928393014068382e-01
4.239973154585652271e-02 -1.088203999290292268e-01 -7.789340146075423021e-01 6.175358119382434730e-01 -3.321115888931244764e-01 7.129876671420470879e-01
2.456991120501494236e-02 -5.155858936789799868e-02 -6.986106154749597286e-01 -7.389972116659340173e-01 3.478024617697565990e-01 -5.769892275743733201e-01
-8.272457847903273709e-02 -3.542831392738208379e-02 -6.033942111622188076e-01 9.585383963392909434e-01 -1.268975393234704763e-01 2.551492842571755904e-01
-6.485429944686940673e-02 -4.009243880560309226e-02 -6.079268868785067115e-01 -4.962110831320698523e-01 4.676644218014630594e-01 -7.314810657549527528e-01
1.134019118484301189e-02 -3.881286384307959247e-01 -8.621242641229673875e-01 6.692746633643098519e-01 -2.696126225518018504e-01 6.923730632681553976e-01
-1.185009582387583880e-02 1.092890746053954282e-01 -5.543688229099646980e-01 -5.955785954962784512e-01 4.620250723292356199e-01 -6.571293397238058276e-01
9.058826901986330102e-03 1.223155285621149446e-01 -5.940551027295397635e-01 7.094823517589095019e-01 -4.109562406150283342e-01 5.724943325852317466e-01
5.712664809608535704e-02 1.759171432046320316e-01 -6.010679008145577429e-01 -9.504107690631707905e-01 -4.140032457815086969e-02 -3.082294326854203015e-01
6.994996970879570168e-03 3.480695951071521681e-03 -6.722334790933844895e-01 7.370735896059984471e-01 -3.577448481826183135e-01 5.733595269149399654e-01
1.613875338202749518e-02 1.405039232010916739e-01 -5.901083510433681178e-01 7.439315842680493951e-01 -4.139045844191204249e-01 5.246415852039042482e-01
-2.914815418448394712e-03 -1.481294069968651095e-01 -7.213507816666385741e-01 -5.915996092187588706e-01 3.849684577775255301e-01 -7.083849157686838982e-01
4.053617445191201596e-02 3.230295483111462335e-02 -6.662346909881101675e-01 -7.213778796852519104e-01 3.773883399574714526e-01 -5.806823534127367736e-01
-1.991380056452239991e-02 7.509042672058546808e-02 -5.706424609637252843e-01 -6.085288610162309375e-01 4.476091813236716122e-01 -6.552393807648019264e-01
1.315504691736727426e-02 -3.597813354851811529e-02 -6.747134564792764966e-01 -7.113749464751727425e-01 3.583189959359237009e-01 -6.046099425901931834e-01
6.086557694087361969e-02 4.398501732287841970e-02 -6.866972586165894787e-01 -8.172909528879561680e-01 3.066866108261623869e-01 -4.878307299335073455e-01
-2.112511559297660518e-02 1.016381902044729765e-02 -6.124843814599710834e-01 -6.173199156012232347e-01 4.257138092604129120e-01 -6.615768091515056293e-01
4.327717550656525608e-02 -1.118980680459285698e-01 -7.599707409038045647e-01 -8.570905097276608764e-01 2.873820649727366061e-01 -4.275598284062526178e-01
5.819415554754508307e-02 1.198570567823734612e-01 -6.344441330738647133e-01 -8.291311771077296555e-01 2.989717253123747032e-01 -4.723953837747494888e-01
9.778233137391401097e-03 -1.644406905378685557e-01 -7.702995934606441386e-01 7.439026459885200726e-01 -2.984491615784838903e-01 5.979439365395209371e-01
5.652551629581963055e-02 -5.421186686111156144e-02 -7.457877190798366529e-01 -8.900257201207574242e-01 2.805409045179294569e-01 -3.593758734469931215e-01
1.251190127452832257e-02 -4.104879833584835214e-01 -8.581512899203014300e-01 -2.702928513344908246e-01 3.949835959492059567e-01 -8.780260437188098788e-01
-8.098888822729966019e-03 1.437126690625104286e-01 -5.586474183695346873e-01 5.851583382631538877e-01 -4.858093599520980632e-01 6.492911403554165739e-01
-6.105249475761730105e-02 -1.060731416357330384e-02 -6.140201203204043168e-01 6.320172160726124089e-01 -4.119979594055026562e-01 6.563626436913718720e-01
-6.004964420458187846e-02 9.646363221104364838e-02 -5.431844715915510324e-01 7.235902762176179559e-01 -4.127165367360124959e-01 5.532469362481307051e-01
6.191390670256959917e-03 -2.354402696759644031e-01 -7.766969523218143490e-01 -6.720124438799173205e-01 4.156143607994269296e-01 -6.129143319974047488e-01
5.305547521489762525e-02 -5.933998833293973457e-02 -7.429739414371505646e-01 -8.286068161936167575e-01 3.142431040993063363e-01 -4.633163235668589230e-01
2.562300171514869662e-02 -5.683111993955313607e-02 -7.031084233363421587e-01 -7.318010526628443424e-01 3.514840890377905480e-01 -5.838888203029983792e-01
-4.631970180169096146e-02 -1.354973076496650553e-01 -7.021870060211794495e-01 6.135633430105921216e-01 -3.775637513591439953e-01 6.935312810344441692e-01
3.329270776807431720e-02 2.958577270117669286e-02 -6.886745162887198957e-01 7.115954176637694362e-01 -3.762232057157284260e-01 5.933700877537613216e-01
4.114358895885583678e-02 1.287522306061295030e-01 -6.322804584984885734e-01 7.224239485623525914e-01 -3.947473288631883626e-01 5.676955036804123278e-01
-7.539439243013791592e-02 3.932549165587016088e-02 -5.631282855869644832e-01 9.626447620087170698e-01 -2.371955293023264022e-01 1.305884491682531012e-01
-6.169959572665139301e-03 -1.225902661754929152e-01 -7.298031004801909249e-01 6.284913651195223050e-01 -3.685654996861159605e-01 6.849511489232813499e-01
6.875720058528789203e-02 1.008196754771826381e-01 -6.678686549303048947e-01 -9.792706691784061057e-01 4.884455909456074385e-02 -1.965786497403381738e-01
5.965525573487334005e-02 -5.914786684466836336e-02 -7.575904070379572142e-01 -9.753585505459368976e-01 1.915732814981013499e-01 -1.094320597127653311e-01
-2.065054668922130729e-02 -4.562201621161842552e-02 -6.730245737386334470e-01 6.012996282311985352e-01 -4.093613149186524081e-01 6.861939018507045018e-01
3.578296242242645642e-02 -1.547364202796098487e-01 -7.764631041033829284e-01 -9.410796574407817028e-01 2.880474355793662955e-01 -1.771941116608891642e-01
6.183945954162675673e-03 1.378234452497300588e-01 -5.502919099791953039e-01 -6.285592808175639590e-01 4.538013457561578812e-01 -6.316467122434873405e-01
5.982953546335688551e-03 -1.695850074314174394e-01 -7.403273522181169630e-01 -6.399639316199995376e-01 3.473017728974834295e-01 -6.854397455413110407e-01
5.338309197158900427e-02 1.252759542491141687e-01 -6.490195161109640898e-01 6.141003024970700386e-01 -4.619382678512292673e-01 6.399170689766082720e-01
-1.115973314636091104e-02 1.794514383792126799e-01 -5.096334289855494193e-01 -1.970930613979768042e-01 3.492729877532066429e-01 -9.160582433310240358e-01
-5.620593047010451204e-02 -8.053163703406940321e-02 -6.616981057258695120e-01 6.236268941551575962e-01 -4.015747003628066247e-01 6.706916257975150675e-01
2.676015323488949160e-02 -1.562389851110012606e-01 -7.587949985599695690e-01 -8.033057492836851443e-01 2.812637335095707347e-01 -5.249672231482978013e-01
5.121789573731239803e-02 4.319873080382229114e-02 -7.012760166999062461e-01 6.928491780638167397e-01 -3.913600749935710055e-01 6.056379348730724921e-01
5.317989518079895006e-02 -9.511866695248546999e-02 -7.718543793884392601e-01 -9.686434051638828091e-01 2.331100063508605991e-01 -8.596323965288676927e-02
6.806559208097125169e-02 8.300723393231881908e-02 -6.906323048261370223e-01 1.519702764216374624e-01 -5.547325126938731366e-01 8.180323187042631838e-01
-2.591557881169630206e-02 1.002359561962131024e-01 -5.742310131018824038e-01 5.902238081899238153e-01 -4.595710151125910192e-01 6.636492585049476034e-01
2.892229015968020289e-02 7.212153975520231228e-03 -6.679339175740461876e-01 -7.245854519039344188e-01 3.655338359766356904e-01 -5.842610184201725287e-01
3.933583365641421525e-02 -6.162998602407532278e-02 -7.515184208317700065e-01 6.968622654279325035e-01 -3.587793498914593204e-01 6.210155884630527146e-01
-4.152357623343513882e-02 1.416116950215514370e-01 -5.291450636389153361e-01 6.425333793323074749e-01 -5.164188169811351203e-01 5.660940398128296858e-01
-4.984539303327544663e-02 -1.283188609917488565e-01 -6.951598447656710533e-01 6.135633430105921216e-01 -3.775637513591439953e-01 6.935312810344441692e-01
-1.340095653991682338e-02 1.489823975801717916e-02 -6.165858045524700293e-01 -6.028933544297605529e-01 4.309934757992888721e-01 -6.713897727869252430e-01
4.059629544748044605e-02 1.504267351152261400e-01 -6.160812934665123031e-01 6.901119654736719289e-01 -4.437518213120212329e-01 5.716902974446300689e-01
-2.500020559882847743e-02 1.440329690755107715e-02 -6.061404853954512895e-01 -6.173199156012232347e-01 4.257138092604129120e-01 -6.615768091515056293e-01
-6.844467759376933642e-03 -1.124039034604256138e-01 -7.237030093398494346e-01 6.284913651195223050e-01 -3.685654996861159605e-01 6.849511489232813499e-01
-5.397713057790608226e-02 1.097811998388101631e-02 -5.835117085326489983e-01 -4.899184471946452790e-01 4.546565953461549903e-01 -7.438193970357523943e-01
5.380548237645588205e-02 1.721023245369735222e-01 -5.947031472468140567e-01 -9.005243268878941887e-01 1.336712261345578689e-01 -4.137486434863428819e-01
4.544547361500535232e-02 1.480034215268383468e-01 -5.945218101780970210e-01 -7.735028992661017178e-01 3.614921785447703373e-01 -5.205926139294435595e-01
