3.339428128388258546e-03 -9.705635151267424932e-02 -8.315751355761331620e-01 -9.733514289985788492e-01 1.077708867393944447e-01 -2.024164806477701806e-01
-2.327790605766842311e-02 1.657111826675186361e-01 -7.135133499170763782e-01 9.585044225111838401e-01 -4.794439528720355337e-02 2.810170937630779853e-01
-2.715506055890117010e-02 1.374680234523359412e-01 -7.014802549400485088e-01 9.754198239269299409e-01 -2.382447439331318237e-02 2.190629167847428227e-01
1.492909733295416305e-02 -1.567181944822418696e-02 -8.296452826988746088e-01 -9.112847700774413529e-01 1.721206732021938191e-01 -3.740782560926640965e-01
-1.816889510604782765e-02 4.446470870120083213e-02 -7.578971200351782844e-01 9.704014698470094791e-01 -6.123641741480156941e-02 2.336045558223632246e-01
2.450928577812826192e-02 -1.803087766787754911e-02 -8.969733414651299697e-01 8.409034342989508692e-01 -2.137123451346549519e-01 4.972006111433053821e-01
-2.937621220665679114e-02 1.777565740801875516e-01 -6.727707258216987229e-01 9.903873239747751356e-01 -6.879630855356112795e-02 -1.200000684978426574e-01
-3.039688812746123292e-02 1.477257092354817558e-01 -6.707061517670088735e-01 9.791178810174488989e-01 -2.016691803685471962e-02 -2.022905595641961984e-01
1.359674464798793503e-02 1.523023067029010968e-01 -7.614795495679242965e-01 -9.025534601499438647e-01 1.177410465335354262e-01 -4.141669923262249475e-01
-3.476212841115826086e-03 5.976127741258587672e-02 -7.410183665116542029e-01 -9.704753289631613544e-01 6.240560572764970726e-02 -2.329875023420971414e-01
2.584110354100727786e-02 -1.339031681492738324e-01 -9.216360060241853835e-01 -9.594748825459290531e-01 2.176962568185381863e-01 -1.789309630295240205e-01
-3.011829456851401743e-02 1.553071856763641179e-01 -6.737640206130933729e-01 9.991515842806493186e-01 -3.348937270661655335e-02 2.397026376963138500e-02
3.711502601944234592e-02 7.828644137794071867e-02 -8.472652548221271118e-01 -9.354282476275793679e-01 1.315920998988971136e-01 -3.281120430349891426e-01
-1.733845393086663397e-02 -1.887562654507795312e-01 -8.711397423982550903e-01 9.962286869064568284e-01 8.571440323318864352e-02 -1.347013225677387051e-02
-2.827411202461214620e-02 -3.072572415825421122e-02 -7.386880290258285298e-01 9.927521605000048099e-01 -1.337006704579565483e-02 1.194336180887266424e-01
-9.851538213489005949e-03 -2.525017090164684008e-01 -9.501603848610642444e-01 9.436103319925589483e-01 -2.165683154029952040e-01 2.503951000327311327e-01
-1.266649621098643423e-02 -4.921086941257982184e-02 -7.437237597772073938e-01 -9.543800507233543007e-01 1.135458013324132515e-01 -2.761631216890985674e-01
-8.324336089663849150e-03 -2.425007293156352661e-01 -9.480287397457297649e-01 7.009395851329656146e-01 -3.567136824678497908e-01 6.176075183592344420e-01
-3.026827850925837421e-02 1.746019684806374983e-01 -6.784659260723632235e-01 9.958036103198144584e-01 -5.025728289625368272e-02 7.648120808348342348e-02
1.082783221440718376e-02 8.213047021665925707e-02 -7.790356985274244916e-01 -9.077537973570378727e-01 1.473892862173500073e-01 -3.927587576263807945e-01
-8.104018996896663468e-03 7.773295225951696100e-03 -7.388351548480742714e-01 -9.619861659674165955e-01 9.317420604065777823e-02 -2.567122587957242907e-01
3.299527367847791132e-02 -8.618115560463110447e-02 -9.121811722781566489e-01 -9.345177536316384703e-01 1.949353639141454542e-01 -2.977864537599650974e-01
1.513018218624684157e-02 -9.897161274352328508e-02 -9.179614549602717055e-01 8.117344186544233064e-01 -2.449014073826203675e-01 5.301985799997744886e-01
1.081125151973143413e-02 1.046334771466811142e-01 -7.708496481208588769e-01 -9.069500287531866434e-01 1.353595001086818350e-01 -3.988977952745809130e-01
2.899601872208342271e-02 -1.300736284503065388e-01 -9.381834593604537753e-01 -8.588929449371203173e-01 2.187241645756506925e-01 4.631011217519607759e-01
-2.546527525993003138e-02 6.334984185379764765e-02 -7.235015245618235946e-01 9.775250657318160785e-01 -5.462799606060709384e-02 2.036185843984064936e-01
-2.585568873604124004e-02 -7.649054636237874460e-02 -7.637570759229055373e-01 9.931914930688228171e-01 -2.975420667056286397e-03 1.164551629064879551e-01
1.301803094242995167e-02 4.519091962599127571e-02 -7.984803563732333354e-01 -9.106842448950944746e-01 1.563094594682702121e-01 -3.823892767594151421e-01
6.816342730560684404e-03 -2.024185018169468164e-01 -9.383054377057651330e-01 -7.476679531035886062e-02 7.736771138289580407e-02 9.941952341237570989e-01
-1.454395018819622937e-02 -9.806486150650360611e-02 -8.312135339496399267e-01 9.750595254390496125e-01 -1.063203717783990643e-01 1.948201745083860126e-01
-7.411466952187169624e-03 2.350207307380871441e-02 -8.033565906812922819e-01 9.231990417612188082e-01 -1.438729518132218499e-01 3.563763502643207404e-01
-3.493225085524223963e-03 -6.417963582352947949e-02 -8.549364232940587227e-01 9.274249874698700102e-01 -1.790161608628927370e-01 3.283840842160630213e-01
-2.488039476339311620e-02 1.115398485269832735e-01 -6.609937096370939180e-01 -5.713218047342449868e-01 1.530362159433996949e-01 -8.063320110506158045e-01
8.614518043192312402e-03 7.951960248603276438e-02 -8.200986612052452163e-01 8.976336449132545914e-01 -1.661646647605426741e-01 4.082194798203065966e-01
-2.950524367405212706e-02 5.628702541494257083e-02 -6.769160198101530357e-01 9.541281454490260217e-01 9.415220497656087706e-02 -2.842091560102413261e-01
3.481940703999929221e-02 -6.813911664236566978e-04 -8.739511934281219974e-01 -9.258745012217856063e-01 1.622139721471366480e-01 -3.412375055991905271e-01
-1.846226185389805013e-02 2.149833008659804146e-01 -6.819218971804319462e-01 -9.473989916880414253e-01 -5.136195476833225332e-02 -3.159067902892530588e-01
-6.268528363821130114e-03 6.351430774913691124e-02 -7.903873139117162383e-01 9.076635165553706974e-01 -1.461795050063856571e-01 3.934189789911340940e-01
-1.606848900615957115e-02 1.669338025280834858e-01 -6.789893403610447464e-01 -9.712131931090116632e-01 -4.019848866424559353e-02 -2.347956878652336932e-01
-1.771868746852322749e-02 -3.176435543635958147e-01 -9.786982204548271280e-01 9.831963126295821809e-01 1.734191286606407562e-02 -1.817258068897716905e-01
-2.570449078509906907e-02 -7.443945838003086790e-02 -7.649941672246305391e-01 9.931914930688228171e-01 -2.975420667056286397e-03 1.164551629064879551e-01
3.916275285951570026e-03 -4.711787891664467182e-02 -8.098860537376491031e-01 -9.732416145682529773e-01 9.640647239529664958e-02 -2.085822421800933024e-01
-1.464584683870446755e-02 -1.951508516210143096e-01 -8.966644810958215306e-01 9.729772928485351802e-01 -1.455900255147750399e-01 1.792169971619397006e-01
-1.424898066806382785e-02 1.195623625610923169e-01 -6.855636072013335802e-01 -9.641696179848728843e-01 3.795156249325229436e-02 -2.625578539279012080e-01
3.760242537809908858e-02 -2.370321993122764120e-02 -9.155536729911009086e-01 -3.284817399746708388e-01 -2.993536560785795553e-01 8.958164628402406349e-01
-3.040630129272322082e-02 6.283112187896678020e-04 -7.004484427896748855e-01 9.994632051804634987e-01 2.580971226576662600e-02 -2.017821209010373096e-02
-1.029600038138757867e-03 -2.099154064844322987e-01 -8.907542234328165165e-01 -9.596963690985617079e-01 2.082438258884733717e-01 -1.887256954375009232e-01
8.632645167633333852e-03 -1.318483420525265980e-02 -8.122697222438152176e-01 -9.269919891737501416e-01 1.521058478316283935e-01 -3.428551633899007411e-01
-1.808932614029739108e-02 2.055491201752188135e-01 -6.813503571531442926e-01 -9.683435452230331197e-01 -7.597568075061296444e-02 -2.377782041301693683e-01
3.058067156511569754e-02 1.076513506960934813e-01 -8.182186859343533181e-01 -9.368234580085892382e-01 1.165482448921671133e-01 -3.298155774632004489e-01
2.708635069985027011e-02 -9.906922098533038623e-02 -9.033396100485138192e-01 -9.177716136018969628e-01 2.024011369113327408e-01 -3.416563259235374517e-01
-2.954599167953810002e-02 -2.062553364845293863e-02 -7.251873215893460678e-01 9.934479918963808887e-01 -3.066491816443481233e-02 1.100942786479694596e-01
3.227305341546166106e-02 -4.669082491350970421e-02 -9.203655482790299436e-01 7.693168987457317254e-01 -2.455922862859789835e-01 5.897761763763227361e-01
-1.664151686572488097e-03 1.587549590535317356e-01 -7.262130904146193444e-01 -9.249980190788114065e-01 8.630162659197239405e-02 -3.700414759832399425e-01
-5.439964108644157297e-03 1.149138064683871280e-01 -7.212405914411560426e-01 -9.722938668008497265e-01 4.083320437476589682e-02 -2.301679517264294539e-01
2.503330086606850996e-02 1.738842891660239212e-02 -8.400983052926841443e-01 -9.211429114801861218e-01 1.563749215201543918e-01 -3.564303866807254639e-01
-2.342365324188144110e-02 1.774462927482072239e-01 -7.109188889013705603e-01 9.556119225171805232e-01 -5.638400188636479016e-02 2.891828104751328898e-01
-2.066591671240297634e-02 1.563707540172297461e-01 -6.641550317589908214e-01 -8.936384932183476515e-01 -3.924403327587309628e-03 -4.487703672224398477e-01
-1.393006050418204959e-02 -8.623524277446621700e-02 -8.278301549988538177e-01 9.750595254390496125e-01 -1.063203717783990643e-01 1.948201745083860126e-01
-2.100384450700952966e-03 1.444274171862879597e-01 -7.284641238246399864e-01 -9.249980190788114065e-01 8.630162659197239405e-02 -3.700414759832399425e-01
3.117754043431458788e-02 -5.288789548255381362e-02 -8.894037177735222288e-01 -9.228400505782374807e-01 1.750094381125207876e-01 -3.431296221842348726e-01
-7.743055824162092078e-04 -1.396604976533334652e-02 -7.755591340883171148e-01 -9.678386634130259347e-01 9.437861439477514269e-02 -2.331973386379228019e-01
-3.010716111465984099e-02 1.395529268736216966e-01 -6.852893399035024924e-01 9.883969624873605309e-01 -2.232330787741017980e-02 1.502435172350849724e-01
-1.030955635730735134e-02 4.688477469297102490e-02 -7.864103386142030638e-01 9.231814967277356399e-01 -1.438811120911874797e-01 3.564185035641962429e-01
-2.763438136621982396e-03 8.094377610316881577e-02 -7.387344856503593737e-01 -9.708133067878065292e-01 4.620103195203612012e-02 -2.353444029720936637e-01
3.910516121566759429e-03 2.080517035685919003e-01 -7.509023256553474246e-01 6.701019939833942063e-01 -4.515774296450886238e-01 5.891019798766715665e-01
8.788981208297616532e-03 -1.149082598422101857e-02 -8.596566907598730545e-01 9.198011921436777261e-01 -1.685562592510626290e-01 3.543367810408029617e-01
-1.296964045618258406e-02 1.164149680623967620e-01 -6.907165648528762469e-01 -9.641696179848728843e-01 3.795156249325229436e-02 -2.625578539279012080e-01
1.739757053840271239e-02 4.697884017182960004e-02 -8.082820661487251090e-01 -9.170507081275702799e-01 1.500846183814013024e-01 -3.694490574463968890e-01
-1.235458067121075233e-02 -9.052507175012659835e-02 -8.380542117197542495e-01 9.749889829520219653e-01 -1.063795017039972646e-01 1.951406793556670072e-01
-3.052260058161907971e-02 1.681038402637639873e-01 -6.781396431578111672e-01 9.969378470249096180e-01 1.008301639437916494e-02 -7.754522518974664436e-02
3.941647579019619957e-03 1.024456036460549557e-01 -7.553867252359337536e-01 -9.248229630799400525e-01 1.130226790006787080e-01 -3.632194391707982972e-01
-6.911217098140539847e-03 1.550562568550616638e-01 -7.572444178278666671e-01 8.952452073353200923e-01 -1.357582936349241431e-01 4.243886243202964481e-01
-8.861770488069594873e-03 -4.612868712287343520e-02 -7.564835739035840056e-01 -9.622715010836803140e-01 1.004337338020485776e-01 -2.528766958751640925e-01
-2.813460506822103302e-02 3.132374748496052214e-02 -6.838388695604318279e-01 3.996741328230253854e-01 2.902665761960149804e-01 -8.694859989071739292e-01
-1.321389937337143737e-02 -7.561759452081787125e-02 -8.256957503197182024e-01 9.749778514398448337e-01 -9.485799334041798703e-02 2.010476319213259644e-01
-2.025593559065773375e-02 1.900154875195534110e-01 -6.686295682008194241e-01 -9.355640390419110997e-01 -5.570768492386741350e-02 -3.487356917380389776e-01
-9.123467415278285406e-03 -8.885628376123938521e-02 -8.510389458799908491e-01 9.618153085699557847e-01 -1.310037233355143549e-01 2.403109166740300395e-01
1.738022205254641586e-02 7.107250678696847013e-02 -7.987126107218919246e-01 -9.165979924899229081e-01 1.413391941662503759e-01 -3.739937865204155387e-01
-3.072463464017241574e-02 1.386494780256095627e-01 -6.717628134625438507e-01 9.991515842806493186e-01 -3.348937270661655335e-02 2.397026376963138500e-02
1.310571204272360096e-02 6.065551770950785432e-02 -7.924714041610675386e-01 -9.101724362933685253e-01 1.465946674872796174e-01 -3.874224305278254898e-01
-2.085506439791498870e-02 1.867791402842128579e-01 -6.665052866991972857e-01 -9.355640390419110997e-01 -5.570768492386741350e-02 -3.487356917380389776e-01
-1.258934280859108981e-02 -2.073879446186076281e-01 -9.159019430094006431e-01 9.539214461043524773e-01 -1.745440254715724115e-01 2.440660931681420676e-01
3.087125777105699520e-02 -7.601932622422143127e-02 -9.004057930817670474e-01 -9.178406026565474329e-01 1.837109528983411344e-01 -3.518791183066273809e-01
-2.649184946214233009e-03 -8.744911616289381684e-02 -7.992642406972231273e-01 -9.693591447741486400e-01 1.024666001684317457e-01 -2.232564540895820293e-01
-1.606060715157014290e-02 8.322044108830144171e-02 -6.865689168603762438e-01 -9.536856861286413523e-01 7.920780451266598576e-02 -2.901891379387345204e-01
2.058387473086932887e-02 -9.271143963565023349e-02 -8.829851704704547721e-01 -9.095617311000517846e-01 1.969319606870193473e-01 -3.659443402735492179e-01
2.222421056964242816e-02 -1.251270052802876953e-01 -9.059807700338949887e-01 -9.094944243562463893e-01 2.097526179945856939e-01 -3.589202297298347277e-01
3.117726952581479152e-02 -2.636967929007924538e-02 -8.763027155368408039e-01 -9.227425033382616881e-01 1.684904693569914957e-01 -3.466370353394145898e-01
-8.399493913758104835e-03 -2.974382705343004973e-01 -9.617172825642961165e-01 -1.327201799436151242e-01 5.272898074347687203e-01 -8.392561068059850582e-01
-1.200998897154683179e-02 -3.896623989419197021e-02 -7.418181395138550016e-01 -9.614788904475815023e-01 1.005948504689256062e-01 -2.558105144102215123e-01
-2.188871479415925927e-02 1.699465386536168909e-01 -7.174534115684862989e-01 9.556119225171805232e-01 -5.638400188636479016e-02 2.891828104751328898e-01
-1.300360285360414522e-02 -1.614011108872497047e-01 -8.792168887120366261e-01 9.741874227247558915e-01 -1.381320272286978568e-01 1.785452560517578890e-01
-1.117034800755364529e-02 -2.646223621291645678e-01 -9.556736991328204089e-01 9.436103319925589483e-01 -2.165683154029952040e-01 2.503951000327311327e-01
-2.177541294982679454e-02 -1.005477713768961404e-02 -7.617241072866375307e-01 9.650222851923243583e-01 -8.756316149554119188e-02 2.471126905504655025e-01
2.234383375159750343e-02 -7.538175957841504460e-02 -9.186747239460624215e-01 8.289142132875340074e-01 -2.313517163041993452e-01 5.092912824435639196e-01
-4.194616439389521265e-03 -2.071464973993914285e-02 -8.312684273708735860e-01 9.270455045987854303e-01 -1.538282654058780174e-01 3.419407802023649023e-01
2.814030464261970885e-02 -2.837046676233495254e-02 -8.691908875806271251e-01 -9.227425033382616881e-01 1.684904693569914957e-01 -3.466370353394145898e-01
-1.500090300870421216e-02 -2.386351604638979954e-02 -7.947570847187160892e-01 9.710064529878312811e-01 -8.767459979270883497e-02 2.223952175906190043e-01
8.222647332109750754e-03 9.376369001628738487e-02 -7.686525798479370009e-01 -9.069500287531866434e-01 1.353595001086818350e-01 -3.988977952745809130e-01
1.507752558825543182e-02 1.066673007441709328e-02 -8.179242363585109699e-01 -9.123228680031295612e-01 1.701682021925204347e-01 -3.724376021310275564e-01
1.477691308729762489e-02 -1.231577720097201400e-01 -8.866576812503006444e-01 -9.064970491260793128e-01 2.149210792528614411e-01 -3.634171564724150150e-01
-1.782293932204345949e-03 1.610306098880405212e-01 -7.253870378459437163e-01 -9.249980190788114065e-01 8.630162659197239405e-02 -3.700414759832399425e-01
-1.859455883743514962e-02 -1.583723951611307190e-01 -8.433828305549040394e-01 9.863936544198518286e-01 -8.018281518029236887e-02 1.435209903464056413e-01
4.872006526489070996e-03 -3.005116892320344735e-03 -8.457137374082303038e-01 9.196203800883413493e-01 -1.617450681105977728e-01 3.579621341260449952e-01
-1.679567687345369723e-02 -8.143531429650555098e-02 -8.121265179233979614e-01 9.693453134424259154e-01 -1.021324871086584096e-01 2.234695021344176857e-01
2.267154800376606355e-02 -5.181931651339282546e-02 -8.665905346614618532e-01 -9.158137600553367674e-01 1.772214834162354757e-01 -3.603854918126629947e-01
-1.040468501696757177e-02 1.373474665712739150e-02 -7.989528484026573452e-01 9.632368689455939048e-01 -8.796362454458570013e-02 2.538447065842970862e-01
3.660640512810741515e-02 -4.630902613723361649e-02 -9.013720790745658462e-01 -9.355886697329892643e-01 1.640699053145476538e-01 -3.126578117324604889e-01
2.507964839938247453e-02 -5.300712169765884468e-02 -8.733531306091101287e-01 -9.159182676490472685e-01 1.854354469029753372e-01 -3.559598601228258219e-01
3.027442189167315473e-02 -2.193322808032176219e-02 -8.717429153091339478e-01 -9.227425033382616881e-01 1.684904693569914957e-01 -3.466370353394145898e-01
-2.394748860945617678e-03 -2.727447698349674821e-01 -9.630488516763612283e-01 -5.246257834361893746e-01 -3.590885819015196545e-01 7.718958334528825960e-01
8.130062317358539153e-03 7.246934727872461623e-02 -7.763537424358440964e-01 -9.258045065556319564e-01 1.271125034458945036e-01 -3.559893637582454140e-01
2.438420036227843465e-02 -3.218991694463953224e-02 -9.028477846324571843e-01 8.409034342989508692e-01 -2.137123451346549519e-01 4.972006111433053821e-01
-2.687007059164457298e-02 1.060341917265125306e-01 -7.078401989295063368e-01 9.703003352214686350e-01 -4.190512153676791834e-02 2.382461337736551665e-01
-1.806741460075362779e-02 -1.368319151266045308e-01 -8.349714853115165480e-01 9.863936544198518286e-01 -8.018281518029236887e-02 1.435209903464056413e-01
4.210685512943913855e-02 1.884442040517696204e-02 -8.869569210235227485e-01 -9.662129812889455049e-01 1.008949640784422702e-01 -2.371764765155635057e-01
1.550733506053480690e-03 2.785935206221035534e-02 -7.712083618141900576e-01 -9.710210471164697488e-01 7.207305647497772028e-02 -2.278675066506614666e-01
1.033106742117912802e-04 -2.983616082982037260e-02 -7.856243863380705239e-01 -9.678386634130259347e-01 9.437861439477514269e-02 -2.331973386379228019e-01
-1.084024000936400361e-02 1.651442073103083774e-01 -6.990745899390451434e-01 -9.631500906273069429e-01 -3.728958584509570878e-02 -2.663670206915856320e-01
-1.812185318428394601e-02 1.026461722835956963e-01 -6.755509262406897975e-01 -9.508187987824475718e-01 4.850019070767681156e-02 -3.059270229698946020e-01
-1.784768224410116996e-02 -3.224185696414219593e-01 -9.804883919214668619e-01 6.205928344827476018e-01 3.618375077856340050e-01 -6.956566335112100985e-01
-2.114245304533845030e-03 -1.222205928351023652e-01 -8.191100795764784115e-01 -9.682829246834990800e-01 1.132882654216348928e-01 -2.226969840032111125e-01
-2.219979520332417480e-02 9.071343424152436552e-02 -7.301488764666818065e-01 9.707505134971250449e-01 -4.741973148864146725e-02 2.353610197348180444e-01
-1.870851024366661230e-02 9.112689579779092997e-02 -7.445799248943070214e-01 9.723691796248919994e-01 -4.175798472686188811e-02 2.296833673280797572e-01
-8.488473472478006224e-04 1.433153949621680523e-01 -7.745692674435946667e-01 9.068452411408920444e-01 -1.304949880253239436e-01 4.007527501095754507e-01
-2.180749869591783185e-02 -6.153410717826281705e-03 -6.988229488349827490e-01 -9.191180434017550693e-01 1.442627921218908871e-01 -3.666200609657432885e-01
-2.734991101333285671e-02 1.073699441520832437e-01 -7.054698274226726129e-01 9.877318952680284037e-01 -1.213779406146551186e-02 1.556867914292991428e-01
2.435348582726440045e-02 -8.760015729548076280e-02 -9.269398004263539326e-01 7.448277825207242353e-01 -2.475563507976534516e-01 6.196349147401314372e-01
-1.156965013279792967e-02 -3.719001545003131071e-01 -1.019582406482092640e+00 -7.376477540479832173e-01 -3.123788399974071206e-01 5.985776902540224098e-01
4.751935070043343187e-03 -2.048333411393427339e-01 -9.136218642194786632e-01 -9.527999606307155922e-01 1.961824389892527776e-01 -2.316995590292197649e-01
-1.969464874997904277e-02 -1.668037630005905492e-01 -8.309730821074400309e-01 9.968900361926128495e-01 2.317654073176780329e-03 7.877108745909347509e-02
3.091159308792988322e-02 1.552965005621638195e-01 -8.110655996497633247e-01 -9.541249808405609656e-01 -2.644298703294832298e-01 1.404363365142080877e-01
4.540015367899682074e-04 -2.168270798841533398e-01 -9.390624791077600841e-01 4.062365268754765044e-03 -4.103768872109863491e-02 9.991493408359202189e-01
1.001879763461366313e-02 -1.313625532315787839e-02 -8.159959694672340724e-01 -9.269919891737501416e-01 1.521058478316283935e-01 -3.428551633899007411e-01
-1.823445179833294710e-02 1.892573446727597031e-01 -6.758198666170540658e-01 -9.653954273946763198e-01 -7.175673842061697227e-02 -2.507242294966426366e-01
3.300288076280591398e-02 3.362768841181514035e-02 -8.878535335519767147e-01 7.668741022581071487e-01 -2.559634395130115925e-01 5.885463693868914214e-01
-2.569140707088463441e-04 1.283734418240264630e-01 -7.810282091231175450e-01 9.139810834949655405e-01 -1.340224018097021241e-01 3.829837788033945700e-01
2.861190099528955824e-02 -3.128708605723325847e-02 -9.091767034363403832e-01 7.689144627214563599e-01 -2.389359760346229378e-01 5.930262628030534833e-01
1.556239414064504098e-02 -1.644965071111151866e-01 -9.148691414318519399e-01 -9.078022590218786103e-01 2.314158255953645549e-01 -3.497738900758459724e-01
-3.830328777072923834e-03 1.351686911967444893e-01 -7.705204674796996001e-01 9.072658656142670308e-01 -1.360491783364367047e-01 3.979438027726719396e-01
-8.614909070986226033e-03 -3.419272402550281309e-01 -1.001160536324307682e+00 -7.371361993059213358e-01 -2.884845370439966805e-01 6.110702869223244571e-01
-2.129283884775075297e-02 2.939023165363675166e-02 -6.877208195785683431e-01 -9.181391632515494283e-01 1.245489323737519471e-01 -3.761755445909570339e-01
2.594659341392250088e-02 -1.169483717231382808e-01 -9.109065231775498317e-01 -9.156613575187129150e-01 2.052468828282683067e-01 -3.455980257991455584e-01
-1.872294193876829563e-02 3.937732100942827052e-02 -7.569291831565685413e-01 9.704014698470094791e-01 -6.123641741480156941e-02 2.336045558223632246e-01
5.111517780808118132e-03 -6.228286372158765155e-02 -8.222896498280385380e-01 -9.640819500745705373e-01 1.135431741281498347e-01 -2.401123510969770947e-01
-5.740113672987806137e-04 -2.511236231761372617e-02 -7.809015021745939755e-01 -9.678386634130259347e-01 9.437861439477514269e-02 -2.331973386379228019e-01
2.654204564520932022e-02 1.370370075863304449e-01 -7.974119708682063656e-01 -9.326643732796680020e-01 1.085557267657759062e-01 -3.440244482608731391e-01
1.071339154885514976e-02 1.066995614582808422e-01 -7.699260575486247538e-01 -9.069500287531866434e-01 1.353595001086818350e-01 -3.988977952745809130e-01
-1.786715927809078702e-02 -1.575453077058781293e-01 -8.479200352343793101e-01 9.863936544198518286e-01 -8.018281518029236887e-02 1.435209903464056413e-01
-1.786973713867728852e-02 5.556545985651874242e-02 -6.885187378677695147e-01 -9.509324538208600019e-01 8.484525425502681406e-02 -2.975378145725982026e-01
-2.112209822058310274e-02 2.427184422961982391e-02 -7.522509355969089206e-01 9.660228517959313921e-01 -8.377876977129303238e-02 2.445014673650544312e-01
-2.398611116961034406e-02 -4.577936714303353777e-02 -7.653242962753696865e-01 9.748313304069284868e-01 -7.661340506938855988e-02 2.093663378404746200e-01
-8.910083868266018827e-04 1.787673111887918553e-01 -7.250198359852075836e-01 -9.010911111510105931e-01 5.641614797133680942e-02 -4.299442145822095496e-01
-2.386976073929848383e-02 -1.109229032900432427e-01 -7.645383681605560922e-01 9.442695191260676024e-01 2.471494271517993280e-01 -2.174217926242960064e-01
1.059393376489832506e-02 1.301735282212485856e-01 -7.616861603310886020e-01 -9.042961205831986371e-01 1.382992249390295192e-01 -4.038834617552953810e-01
-1.257776043006764849e-02 2.100698065110362389e-01 -6.970643140937816673e-01 -9.255811847244511670e-01 -1.027751265596800814e-02 -3.784096235796439167e-01
1.443617335158692283e-02 1.492097421059181972e-01 -7.641880007334874714e-01 -9.025534601499438647e-01 1.177410465335354262e-01 -4.141669923262249475e-01
2.392261795784747166e-02 1.650218992617109026e-01 -8.047119393109068985e-01 5.796254734468775371e-01 -4.706151532479573296e-01 6.652485911784293826e-01
-2.062967887292917538e-02 -1.479019476875279571e-01 -8.196959197308317790e-01 9.968900361926128495e-01 2.317654073176780329e-03 7.877108745909347509e-02
-1.687202149869233489e-02 1.131388221769839275e-01 -6.777684086482556047e-01 -9.496218892646458576e-01 5.066853999572638184e-02 -3.092749043879026161e-01
1.976393067527235092e-02 9.882894137412187585e-02 -8.350429332236742885e-01 8.488990952700024017e-01 -2.347592324649228068e-01 4.735593192222615211e-01
-2.688585964634761932e-02 -4.947841727484730834e-02 -7.179646497119908100e-01 3.030998579969589324e-01 5.220781060067236634e-01 -7.972232606432504420e-01
-3.001647201517240043e-02 8.092047739831834119e-02 -6.704717641179155363e-01 9.541281454490260217e-01 9.415220497656087706e-02 -2.842091560102413261e-01
-2.226829713426827298e-02 -2.983334615088277866e-02 -7.674874901326967924e-01 9.748313304069284868e-01 -7.661340506938855988e-02 2.093663378404746200e-01
2.701575786558831072e-02 4.014801010895620477e-03 -8.510890243026366653e-01 -9.211429114801861218e-01 1.563749215201543918e-01 -3.564303866807254639e-01
3.931230852647379925e-02 4.379774696103797341e-03 -8.845005081008656678e-01 -9.360920960506641242e-01 1.528084499551336239e-01 -3.168298681213363999e-01
-6.520337511051114802e-03 -1.808294891881162270e-01 -9.176779358309303802e-01 9.077621818573574641e-01 -2.324712155102844069e-01 3.491775410142250458e-01
-1.818266721326907212e-02 4.238626019602394907e-02 -6.915850387109754305e-01 -9.533518954120113742e-01 9.219848651692742758e-02 -2.874362583222813683e-01
2.394492414507460101e-02 9.241758743340967863e-02 -8.067956978771687604e-01 -9.191877064945960241e-01 1.379020641736171393e-01 -3.688861354481354771e-01
-2.382738664863405173e-02 -2.519250822399364542e-02 -7.047941022709213188e-01 -6.307291992839468842e-01 2.994618970133067770e-01 -7.158933226450874265e-01
-6.561816352203561284e-03 5.971020493290493799e-05 -7.475012262128311047e-01 -9.650552785575556847e-01 8.829866299966349086e-02 -2.467218179259188515e-01
-1.025114944311543257e-02 7.731423558530879647e-02 -7.755732767489058599e-01 9.258874217668859874e-01 -1.281820574659273682e-01 3.553897049123264651e-01
1.356540231265874856e-02 -1.004828003864310509e-01 -9.156660199480841644e-01 8.910253803215416601e-01 -2.162072620493943886e-01 3.991593559719683881e-01
3.552121131892337080e-02 -9.669250466329257221e-02 -9.294586888716571682e-01 -9.647136693642047733e-01 1.779170725480644089e-01 -1.940954699053496213e-01
-1.530281836507632349e-03 -1.192198922472312017e-01 -8.909044356693236466e-01 9.064927283861667906e-01 -2.152006165116404635e-01 3.632624781559651295e-01
-5.931442054670408269e-03 -2.948200300744280300e-01 -9.758268314469973337e-01 -4.091637372159317443e-01 -4.058305929379275034e-01 8.172432722165060559e-01
5.423453822571553361e-03 2.414033991403664869e-02 -8.349591404597352939e-01 9.211996807808395804e-01 -1.580571355166116299e-01 3.555405603325205166e-01
4.556448040073917544e-03 -9.911547888956458163e-02 -8.940669750073710897e-01 9.065983040286896832e-01 -2.120028990343205133e-01 3.648757129946400557e-01
1.358258550801777487e-02 -6.464007431737907490e-03 -8.691392390130082690e-01 9.051018742972934961e-01 -1.753044865882251724e-01 3.873744107779516499e-01
2.919847302085199978e-02 3.574134360862899645e-04 -8.971873766482250101e-01 7.689144627214563599e-01 -2.389359760346229378e-01 5.930262628030534833e-01
-3.423751534350713468e-03 -1.692125638801050130e-02 -7.660821613894638338e-01 -9.653144623010869729e-01 9.470687782542361322e-02 -2.433076163315150697e-01
-1.644407731626897767e-02 -3.995306356679935167e-01 -1.027967177887924022e+00 -9.358613713963365166e-01 2.814668145127729448e-01 -2.119903909525159003e-01
2.077738026682516854e-03 -2.274982779746635708e-01 -9.260275229045366041e-01 -9.375946293293089262e-01 2.703020075248938059e-01 -2.187535960409522084e-01
-7.703682722507342040e-03 1.244099568505796921e-01 -7.112534317143519580e-01 -9.700215983734065128e-01 1.731015894460398441e-02 -2.424014378802529235e-01
-2.160883179083612684e-03 -1.721070856743031063e-01 -8.505605597646310745e-01 -9.684192826420972011e-01 1.604428559064197124e-01 -1.908459666735395355e-01
2.946437739670751052e-02 1.230076815688940922e-01 -8.098500090900428994e-01 -9.361047266619900720e-01 1.055462916723971245e-01 -3.355114320485760304e-01
-4.659341511520019921e-03 6.920896348657390451e-02 -7.920089659147458994e-01 9.101031665966702322e-01 -1.454190718712207731e-01 3.880277305642292895e-01
2.870613884434525254e-02 -1.680938761825620173e-02 -9.034656879643292449e-01 7.689144627214563599e-01 -2.389359760346229378e-01 5.930262628030534833e-01
-1.430635052237202477e-02 2.046378074396243973e-01 -7.255415311152348945e-01 8.867900445762203487e-01 -1.698797421073298120e-01 4.298189037979275873e-01
2.449128102967094642e-02 -1.033808859175731620e-01 -9.334101480299024090e-01 7.448277825207242353e-01 -2.475563507976534516e-01 6.196349147401314372e-01
1.849431069994164623e-02 1.343351977210024695e-01 -7.783574445475839321e-01 -9.159374623895862877e-01 1.327159393890797734e-01 -3.787413951806687940e-01
3.167727694177163711e-02 3.171706607019397772e-02 -8.514393488805407362e-01 -9.265788304172768441e-01 1.493189361507708812e-01 -3.451891167597166410e-01
2.370534874237155767e-02 1.347922031788428843e-01 -7.908723794096367277e-01 -9.187826240995731197e-01 1.313047191065376262e-01 -3.722869328798093513e-01
-5.619340394726542696e-03 -1.812247041972581130e-01 -8.441477111918697096e-01 -9.484534426245021521e-01 2.223382464143974224e-01 -2.258357176247832721e-01
1.675748127270821133e-02 -1.296297982797934012e-01 -8.953988913186349263e-01 -9.026763751517095091e-01 2.206129841218411602e-01 -3.694662000505953281e-01
-5.292210500795306582e-03 -3.058439414592575845e-01 -9.752125025251886514e-01 -9.421857003812899034e-01 2.328688513770860447e-01 -2.409527008674824666e-01
-5.945275805403140747e-03 1.020047373526852541e-01 -7.214746382045603701e-01 -9.708133067878065292e-01 4.620103195203612012e-02 -2.353444029720936637e-01
1.429673813867422122e-02 -6.830379529801460653e-03 -8.709736595047120611e-01 9.051018742972934961e-01 -1.753044865882251724e-01 3.873744107779516499e-01
-1.858317674553443873e-03 -2.771296807684779373e-01 -9.617252159562164060e-01 -9.427586355061106094e-01 2.267737676749090880e-01 -2.444991073054926245e-01
-4.774803827748370054e-03 -1.867327806481124675e-01 -8.531173272246077577e-01 -9.484534426245021521e-01 2.223382464143974224e-01 -2.258357176247832721e-01
-5.150504567606918258e-03 -9.844016629570795374e-02 -8.689327966028420613e-01 9.274249874698700102e-01 -1.790161608628927370e-01 3.283840842160630213e-01
2.792521887872263624e-03 -4.638513762541525420e-02 -8.611587591137044306e-01 9.115007886431610862e-01 -1.813260379448428661e-01 3.691709363778803987e-01
4.255714842367917805e-02 1.091678256941431939e-02 -8.921637525739831709e-01 -9.662129812889455049e-01 1.008949640784422702e-01 -2.371764765155635057e-01
-2.175682715780344334e-02 1.273202643939982392e-01 -7.256672937551632563e-01 9.703297243555547569e-01 -3.529108361323793353e-02 2.391960815930659900e-01
-2.113643602002893834e-02 2.391346817832013805e-01 -6.849339173336406184e-01 9.251481181452898550e-01 -3.035824895432420734e-01 2.279004860349273520e-01
8.821189930751165489e-03 1.183922720028118686e-01 -8.047924859853641255e-01 8.975000102692952675e-01 -1.635745852518686316e-01 4.095571835852644949e-01
-8.403992267108823661e-03 4.966396414203497200e-02 -7.242257064200818828e-01 -9.667716163378626826e-01 7.129163707858560128e-02 -2.454997847781781595e-01
1.191151971323154563e-02 2.114586705830425739e-01 -7.519738949258900629e-01 -8.194758022625090454e-01 -5.642746232699984432e-01 1.002674375842869670e-01
4.193805785556232318e-02 2.112745213110515941e-02 -8.852980696610959210e-01 -9.662129812889455049e-01 1.008949640784422702e-01 -2.371764765155635057e-01
2.615249768666329938e-02 -1.236444938215921774e-01 -9.154288197677225014e-01 -9.156613575187129150e-01 2.052468828282683067e-01 -3.455980257991455584e-01
-3.049032182411362188e-02 3.812271945836696874e-02 -6.993636356839070256e-01 9.943862325840382432e-01 -3.164417369596513041e-02 1.009686422530415434e-01
-9.878762219796361692e-05 -1.745816472216482618e-01 -8.629461095369670431e-01 -9.770763387957992485e-01 1.318355642156085195e-01 -1.671562507755799953e-01
-6.069194787351844290e-03 1.407822722295231851e-02 -7.444110687437959228e-01 -9.650552785575556847e-01 8.829866299966349086e-02 -2.467218179259188515e-01
1.498305658090595509e-02 1.271567316145478209e-02 -8.167566550113259938e-01 -9.123228680031295612e-01 1.701682021925204347e-01 -3.724376021310275564e-01
-2.562095550198727895e-02 -7.799455388817291834e-02 -7.363717076373073045e-01 2.920266836441140490e-01 5.962789311534840708e-01 -7.477779431771701679e-01
-1.717205329614350864e-02 -1.013626003836413415e-02 -7.128769129163531337e-01 -9.537759556170195552e-01 1.062874772971133530e-01 -2.810949993448061401e-01
-7.893516892624578146e-03 -3.047713191116859788e-01 -9.664045229688283944e-01 -1.327201799436151242e-01 5.272898074347687203e-01 -8.392561068059850582e-01
-5.797986427335005038e-04 -2.576885784402294655e-01 -9.494309180955469163e-01 -9.433998793370900193e-01 2.192456541619160482e-01 -2.488533921767548951e-01
8.521184616637643081e-03 -6.437427545339596824e-02 -8.367008198006332664e-01 -9.240128993386312883e-01 1.717669519037774151e-01 -3.416083665390847734e-01
-2.875909226810998559e-02 2.069789438850937191e-02 -7.204788993407527098e-01 9.744159730860449953e-01 -6.698632012302875582e-02 2.145375125966348939e-01
-2.949935843775712552e-02 5.549428152640879103e-02 -7.056226966778750276e-01 9.955353756231217766e-01 -1.990517746460380988e-02 9.226646082424866391e-02
-2.554959032352698695e-02 1.089654630576263605e-01 -7.127025114760796587e-01 9.703003352214686350e-01 -4.190512153676791834e-02 2.382461337736551665e-01
-2.059132554873117915e-02 -8.978389548873878800e-02 -7.984907060595161088e-01 9.783995535670833021e-01 -7.554452396595012775e-02 1.924248904858469333e-01
2.508286199698481905e-02 -1.004634464182974501e-01 -8.988278517077474827e-01 -9.156613575187129150e-01 2.052468828282683067e-01 -3.455980257991455584e-01
-8.245568976179047313e-03 -5.558291229207110856e-02 -8.371305525319837626e-01 9.617340477985327762e-01 -1.195796438620709556e-01 2.465123325086796546e-01
4.509202809699232491e-03 -2.269250009180098088e-02 -8.538763454614626269e-01 9.158194892333235693e-01 -1.768600618661546053e-01 3.605484456451228392e-01
1.370445594237328698e-03 -8.640677010364168631e-02 -8.164409715720382099e-01 -9.732062023583912813e-01 1.080782493926432386e-01 -2.029501901930121088e-01
-2.872909195091373144e-02 2.018110245747234965e-01 -6.762693891614397490e-01 9.304265265385364136e-01 -1.237927743818998810e-01 -3.449374258097638313e-01
2.348496262943015195e-02 6.801917612644776956e-02 -8.567117214738334541e-01 8.487448478332082491e-01 -2.281468190303196086e-01 4.770547266749704529e-01
-1.639534300186415439e-02 -2.001792994954909588e-01 -8.766952047672481596e-01 9.952639159266691848e-01 9.693567904639338595e-02 -7.294640644092858714e-03
-5.699352780832079093e-03 -3.013677172576105789e-01 -9.789213426859537659e-01 -4.601056742102397901e-01 -3.996389986160828189e-01 7.928375869903466766e-01
-3.903210222739039292e-03 1.352999148755220926e-01 -7.244279528604431473e-01 -9.566786947467544877e-01 3.968352174108570607e-02 -2.884286620983966265e-01
2.081929370873500905e-03 6.495920769537236183e-02 -7.616937983878605545e-01 -9.601634669984213666e-01 7.913142662781147418e-02 -2.680006230616240326e-01
9.401636678853721174e-03 1.392440355487319613e-02 -8.022042821471250251e-01 -9.232186565241005116e-01 1.446936257535338943e-01 -3.559930714383793826e-01
4.550307397988244754e-03 -4.140548998733910302e-02 -8.101639258983209801e-01 -9.640819500745705373e-01 1.135431741281498347e-01 -2.401123510969770947e-01
-3.070111781378901186e-02 2.211807849468796008e-02 -7.015286287996974623e-01 9.991907237497016370e-01 1.429632743626640945e-02 -3.759670988773614747e-02
-1.087371025272567543e-02 -2.219904194487367644e-01 -9.065535453254531806e-01 6.330535760285219693e-01 6.786533841736064332e-01 -3.723879080034847577e-01
3.336412208341710262e-02 -9.232859080582764277e-02 -9.173628985837530836e-01 -9.345177536316384703e-01 1.949353639141454542e-01 -2.977864537599650974e-01
-1.245264942433755781e-02 -9.255920483353917427e-02 -8.386731196293779611e-01 9.749889829520219653e-01 -1.063795017039972646e-01 1.951406793556670072e-01
-3.623865104334502828e-03 -1.290731914286650378e-02 -7.637258028170234025e-01 -9.653144623010869729e-01 9.470687782542361322e-02 -2.433076163315150697e-01
7.927471108754764045e-03 -4.342268804106089869e-02 -8.727277900675962652e-01 9.158194892333235693e-01 -1.768600618661546053e-01 3.605484456451228392e-01
-1.627858487975778271e-02 2.222053444383744747e-01 -6.886111868800210978e-01 -9.293051520636810281e-01 -2.811573815042220370e-02 -3.682410075156699047e-01
-1.643882255464751418e-02 -2.749737444089226171e-02 -7.219293930743088117e-01 -9.537759556170195552e-01 1.062874772971133530e-01 -2.810949993448061401e-01
3.707967350424543757e-02 -5.149599546465884886e-02 -9.055101816529363967e-01 -9.355886697329892643e-01 1.640699053145476538e-01 -3.126578117324604889e-01
3.827963131232950053e-03 -1.217239557108690667e-01 -8.483509693822001152e-01 -9.766192648675761090e-01 1.173809226647425236e-01 -1.801014449800137640e-01
3.675660232135623522e-03 -7.324206015584321106e-02 -8.208379140213684089e-01 -9.732416145682529773e-01 9.640647239529664958e-02 -2.085822421800933024e-01
9.010260908391334997e-04 1.107398639620691960e-01 -7.899623469388822317e-01 9.139810834949655405e-01 -1.340224018097021241e-01 3.829837788033945700e-01
-1.896673227825878411e-02 1.365381418785397705e-01 -7.340179725929695254e-01 9.593281009152589967e-01 -5.660415974389521737e-02 2.765602355618216879e-01
-9.589447564358432458e-03 1.604302475321769950e-01 -7.498443260941304311e-01 9.029747826618922391e-01 -1.268796508843051951e-01 4.105339158561510104e-01
2.723294512528818406e-02 1.505319356300324068e-02 -8.875896490487973356e-01 8.482906252988398066e-01 -2.148053516048522016e-01 4.840058635512787255e-01
-9.236808554484804423e-03 -2.863933189851882721e-01 -9.552471091800264213e-01 2.264477554440465779e-01 4.971778484694563405e-01 -8.375772209448129058e-01
-1.686027192760932922e-02 -1.380205883783116594e-01 -8.425670080698751674e-01 9.747164765435482048e-01 -1.169018015608927208e-01 1.904252061738369028e-01
1.029524543542231600e-02 -1.609527670562393153e-01 -8.988198615843704387e-01 -9.245953420395501832e-01 2.150673472239501005e-01 -3.144351914732514408e-01
-2.506145714310263270e-03 9.026125846149742060e-02 -7.380073747109197058e-01 -9.722938668008497265e-01 4.083320437476589682e-02 -2.301679517264294539e-01
2.298664834034381751e-02 9.115612075171852791e-02 -8.446236286216606270e-01 8.488990952700024017e-01 -2.347592324649228068e-01 4.735593192222615211e-01
4.093424759327043104e-03 3.273103885208811237e-02 -8.279357140874452625e-01 9.208641040209134543e-01 -1.492125397797623432e-01 3.602012214002520696e-01
-2.047385710965172675e-02 2.109231528166672642e-01 -7.095543937865926853e-01 9.170857046075692187e-01 -1.287369556374479695e-01 3.773335482800860285e-01
-3.048771315288744538e-02 1.431987884387254106e-01 -6.752824629832502312e-01 9.991515842806493186e-01 -3.348937270661655335e-02 2.397026376963138500e-02
-1.540811607200056298e-02 8.641231560415839341e-02 -7.576054749582314951e-01 9.590191573671392744e-01 -6.372175140060033771e-02 2.760829480450796569e-01
-1.336555905916646594e-02 -2.044180484100238393e-01 -9.105054504318633724e-01 9.731888527556464830e-01 -1.411302100721353592e-01 1.816197144506719874e-01
-1.631615864934087695e-02 -4.038085268557420338e-01 -1.034211793686584668e+00 -9.358613713963366276e-01 2.814668145127729448e-01 -2.119903909525159558e-01
1.381598856222457893e-04 6.752251838348870272e-02 -7.539735409886012540e-01 -9.601520021960797679e-01 7.916320660605798143e-02 -2.680323103633324155e-01
3.959066681914624741e-02 6.500108231545122239e-02 -8.596743468152980849e-01 -9.357891701058602685e-01 1.313988862066025887e-01 -3.271589244025746024e-01
-1.657769091589808216e-02 -6.907449924943434572e-02 -8.074228017247444544e-01 9.693453134424259154e-01 -1.021324871086584096e-01 2.234695021344176857e-01
-1.441824219432862909e-02 -3.511711823490692302e-02 -8.017830454561886144e-01 9.716450437114113603e-01 -8.730485143062244324e-02 2.197356865593899922e-01
1.189566823171201056e-02 3.292342762734027511e-02 -8.475642575380433197e-01 9.071955369264315117e-01 -1.695690165616974554e-01 3.850228647795641557e-01
-1.700198256835881369e-02 -1.923978143079768666e-01 -8.694271210168286190e-01 9.962286869064568284e-01 8.571440323318864352e-02 -1.347013225677387051e-02
-2.304118568252091007e-02 1.241054599144238990e-01 -7.208215292155936149e-01 9.714532664110937521e-01 -3.127469354996082612e-02 2.351604659005690212e-01
-1.245653461916489124e-02 1.824824539455975614e-01 -7.369364286951662901e-01 8.849657553182606051e-01 -1.440953719359744090e-01 4.428003338984893289e-01
-1.813055126572728909e-03 -1.902486496267246641e-01 -8.675770457865025209e-01 -9.684192826420972011e-01 1.604428559064197124e-01 -1.908459666735395355e-01
1.913898412938417129e-02 -7.801621904312083799e-02 -8.714863912398838064e-01 -9.092971813493463396e-01 1.971961078030814440e-01 -3.664591806155895748e-01
-3.518430004421330397e-03 -1.904132418299387675e-01 -8.615238441258068480e-01 -9.179680250099236938e-01 2.756444296821158879e-01 -2.852277220829021465e-01
2.337350925933027665e-02 7.976270922479990200e-02 -8.101169948752531269e-01 -9.165979924899229081e-01 1.413391941662503759e-01 -3.739937865204155387e-01
-8.771297310443002199e-04 7.331851408144378357e-02 -7.484843538047437628e-01 -9.716735830357249304e-01 5.815066853390776780e-02 -2.290610132248086239e-01
-5.417830052325377753e-03 -1.331866930446305997e-01 -8.889906184577369697e-01 9.251228911622139117e-01 -1.974517646564928897e-01 3.242844999097296843e-01
-1.990591302575366560e-03 -1.244008557390923059e-01 -8.207568475507410755e-01 -9.682829246834990800e-01 1.132882654216348928e-01 -2.226969840032111125e-01
-7.125549076427590287e-04 -7.174790426137452048e-02 -8.659933942764651560e-01 9.061277469253442574e-01 -2.025550206995488933e-01 3.713542376779946919e-01
-1.310598788699865458e-02 -3.877810695897976889e-01 -1.028439428388175703e+00 -9.960847741584448745e-01 8.137683762997532932e-02 3.453886198276152897e-02
-7.512422371148095267e-03 1.521296665434572204e-01 -7.569123702084507022e-01 8.952452073353200923e-01 -1.357582936349241431e-01 4.243886243202964481e-01
2.240296372318261939e-02 -1.003605503509851990e-02 -8.456261117011377726e-01 -9.175931720536126823e-01 1.645265059455822687e-01 -3.618753921475285074e-01
-2.625113224389461625e-02 -7.456540292156231542e-02 -7.603353363484215421e-01 9.931914930688228171e-01 -2.975420667056286397e-03 1.164551629064879551e-01
3.339392247215936665e-02 -4.377622334042158281e-02 -8.907173248214245165e-01 -9.228400505782374807e-01 1.750094381125207876e-01 -3.431296221842348726e-01
-2.166619730406403599e-02 9.355680316646378114e-02 -6.682981512812833369e-01 -9.106480048129815819e-01 7.235438689612323782e-02 -4.067985423118205546e-01
-2.445305367444473160e-02 -1.083183875532921087e-01 -7.715595205998195816e-01 9.973337108838662424e-01 7.274271605707346988e-02 5.828069599498932225e-03
-2.095783177239132419e-02 -1.404359754881245037e-01 -8.157626388160007513e-01 9.968900361926128495e-01 2.317654073176780329e-03 7.877108745909347509e-02
-6.071451986546675360e-03 1.579679764196605385e-01 -7.139802559132388815e-01 -9.551122434123948679e-01 4.425906146750695214e-02 -2.929193369543185432e-01
-2.706851456672065316e-03 2.404208538838627576e-02 -7.545183631171058503e-01 -9.672491131601728132e-01 8.000246420239177925e-02 -2.408915914107514489e-01
-1.248742373550470672e-02 -1.804821525886811107e-01 -8.966537799638599759e-01 9.732434261421230026e-01 -1.397783834057992891e-01 1.823711517855921282e-01
-2.164844328144709812e-02 -4.142244535691835296e-03 -7.601248713806783019e-01 9.650222851923243583e-01 -8.756316149554119188e-02 2.471126905504655025e-01
2.680706801146283055e-02 -8.184862239333456913e-02 -8.928481612532574996e-01 -9.178406026565474329e-01 1.837109528983411344e-01 -3.518791183066273809e-01
-1.735232573023061040e-02 -2.111030381675936540e-02 -7.837109343349890622e-01 9.665144643209886421e-01 -9.627608679253804591e-02 2.378669909218764089e-01
1.258413243389529430e-02 9.788360528840968355e-02 -8.214742898281690575e-01 9.046901071188814258e-01 -1.643308251088353988e-01 3.931045535226937448e-01
2.187865534209919652e-02 4.100505734197592428e-02 -8.219181301315711119e-01 -9.208955876520985573e-01 1.499501490284260719e-01 -3.598142151850712844e-01
3.437171922840134841e-02 -1.029304252388348606e-01 -9.293379446852118031e-01 -9.703966224970026477e-01 1.689075951898066641e-01 -1.726285588586261577e-01
-2.470789977706309721e-03 -1.545970241946381385e-01 -8.369250289480035798e-01 -9.695029725693133926e-01 1.300784314646765694e-01 -2.077103460277189839e-01
-1.149010948570590614e-02 -1.287584315513486677e-01 -7.862005748016174245e-01 -9.203622060197593768e-01 1.985356897252741060e-01 -3.369228244505731995e-01
3.196256195732207622e-02 1.050763294338595555e-01 -8.230538169998862230e-01 -9.368234580085892382e-01 1.165482448921671133e-01 -3.298155774632004489e-01
-1.901452960774920389e-02 -4.453809223642015563e-02 -7.864393150088316853e-01 9.665144643209886421e-01 -9.627608679253804591e-02 2.378669909218764089e-01
1.641281524637713124e-02 1.441989914048227850e-01 -8.071600515360497496e-01 8.416710449547417650e-01 -2.347156627289893327e-01 4.863110216255481788e-01
-1.287581411414318380e-02 -2.007744308115642640e-01 -9.100526239748665258e-01 9.539214461043524773e-01 -1.745440254715724115e-01 2.440660931681420676e-01
1.193505096987730434e-02 1.584428396278569073e-01 -7.561127284717729102e-01 -9.025534601499438647e-01 1.177410465335354262e-01 -4.141669923262249475e-01
-7.438463031254898168e-04 -8.271471415889594669e-02 -8.053641286755697237e-01 -9.693591447741486400e-01 1.024666001684317457e-01 -2.232564540895820293e-01
-4.713023638797282644e-03 1.375251441418831877e-01 -7.677106465889333986e-01 9.068452411408920444e-01 -1.304949880253239436e-01 4.007527501095754507e-01
-4.631599888180844109e-03 -1.486754024957803177e-01 -9.013169570440640044e-01 9.078130300137416953e-01 -2.311259691803817240e-01 3.499375500109963566e-01
-2.612299751656041447e-02 -7.030781920374211402e-02 -7.613193564271303337e-01 9.931914930688228171e-01 -2.975420667056286397e-03 1.164551629064879551e-01
-2.052884308611149095e-02 -3.701347434465499520e-01 -1.021355831998772778e+00 7.433639003506509191e-01 -4.178183876592869717e-01 5.223388809855740167e-01
-1.288691381489847493e-02 3.920981491718889683e-02 -7.103932453686386816e-01 -9.615675592466712551e-01 8.479290318230126022e-02 -2.611474537006173158e-01
-2.688198230635671648e-02 -4.094069557293611994e-01 -1.027266465254128791e+00 6.504440955622073917e-01 2.939462933557162039e-01 -7.003699416527650046e-01
-6.199957060546047206e-03 1.312492950130758895e-01 -7.168042756029004980e-01 -9.706894367432378212e-01 1.483214223798624831e-02 -2.398791882421815180e-01
-2.798270219762676383e-02 1.297435051558499530e-01 -6.991385740668681903e-01 9.703003352214686350e-01 -4.190512153676791834e-02 2.382461337736551665e-01
-1.142338733507478402e-02 1.404938018890197482e-01 -7.519721110674580933e-01 9.029747826618922391e-01 -1.268796508843051951e-01 4.105339158561510104e-01
