6.926322538416491981e-02 4.146902704965001185e-02 -8.973424030154434350e-01 -6.085703228962008327e-01 -2.854901822161733937e-01 7.403630987212894699e-01
7.896303336331811709e-03 8.899267217517373152e-02 -8.208225183252746415e-01 7.522864831838682598e-01 -2.415625259990459017e-01 6.129539895063964572e-01
-3.237156613595357224e-02 -3.414176004389684899e-03 -7.970588561225829816e-01 8.430605839414005986e-01 -2.029789467286035598e-01 4.980445753035883660e-01
-3.862199463512856756e-02 7.825825797818555807e-02 -7.213507237488818724e-01 -8.167382707595649549e-01 1.957207947484845556e-01 -5.428001175199737016e-01
1.794845427969499543e-02 1.494807664959810732e-02 -8.641061497088299292e-01 7.626049110372686846e-01 -2.610968957824714165e-01 5.918295030450888561e-01
-2.200456844653006505e-02 5.577328822110996787e-02 -7.915432801448728517e-01 8.555242603571476812e-01 -1.783668366757023283e-01 4.860694513283657092e-01
5.734146552536388032e-03 -2.044176584112885886e-01 -9.318568301063930859e-01 -7.772095593871913843e-01 3.366592822956290809e-01 -5.316068363380587192e-01
4.680427478044660305e-03 1.682796979413983887e-02 -8.465271112526318031e-01 7.479590312447648159e-01 -2.712886759728705965e-01 6.057720213647042051e-01
-2.556112082951930708e-02 -1.637357607393723768e-01 -8.496246503957874951e-01 -8.237773731041579950e-01 2.790062089285816338e-01 -4.935041792537457894e-01
-1.879282670819190995e-02 -4.006931169827406269e-01 -1.054035902529173674e+00 8.032078881327022746e-01 -3.284128390809842868e-01 4.969930538429807587e-01
2.920855377084220425e-02 -1.379304684392405056e-01 -9.232604042822216694e-01 -7.292681232759212762e-01 3.209249530659736838e-01 -6.042972603555456512e-01
-2.930350654723781235e-03 2.130027026476932206e-01 -7.626285706453698188e-01 5.173448949934186247e-01 -4.085577342720150829e-01 7.519540128164526882e-01
4.533018620127771819e-02 5.512292549477833953e-02 -8.531334385542435061e-01 -7.697344870575667519e-01 2.483993278467581112e-01 -5.880532232370666579e-01
-3.292843352691467163e-02 1.889858277002670894e-01 -7.286447975360039742e-01 8.820361878006225398e-01 -1.587717429580092210e-01 4.436256271319553024e-01
-2.488896658296418582e-02 -5.845642411835387520e-02 -8.339785015607461549e-01 8.513167861616710574e-01 -2.192316584256799317e-01 4.766520843794657680e-01
-1.390867371197452608e-02 -8.799807228984453389e-02 -8.685445006592338313e-01 8.635468847858153163e-01 -2.256961295303251125e-01 4.509412765446788596e-01
2.314878089430451313e-02 -3.585158992467363248e-02 -8.647144284908978573e-01 -7.464318207668069194e-01 2.824574801562301785e-01 -6.025423710001995836e-01
1.423135081127544291e-02 -1.472831226423027828e-01 -9.099362899530559767e-01 -7.379751511128589403e-01 3.329371098279650942e-01 -5.869800313804164338e-01
-5.700656683721008061e-02 -1.662682103317830035e-02 -7.465472807055753002e-01 9.999077282874191397e-01 -6.790369538088354348e-03 -1.176544910444010140e-02
-5.602053077454393487e-02 2.021610031684373601e-02 -7.351551819769623908e-01 9.624749558202122524e-01 -1.268239325869803258e-01 2.399117536554920271e-01
-1.056093040201724377e-02 -1.547712046061992808e-01 -8.711644672866011296e-01 -8.696880032351057555e-01 2.355703072127953157e-01 -4.337619247797157573e-01
1.406572502088293715e-02 -1.597827336172076285e-01 -9.168140310578452024e-01 -7.408463628905541665e-01 3.311955794832491806e-01 -5.843424977892605066e-01
4.474617972496597318e-02 2.293044556119685703e-02 -8.923854566910597308e-01 6.510988979953279410e-01 -3.006465875424753631e-01 6.969087848695364462e-01
-1.202491547416169836e-02 1.854845876179475606e-01 -7.363066060395689894e-01 -8.214207866533678182e-01 1.026324582492440518e-01 -5.610120050119064006e-01
-3.427021340094144747e-02 8.814192499162641636e-02 -7.244109473995291593e-01 -8.221076113528579254e-01 1.909020349601507627e-01 -5.363725276370625572e-01
-2.783280772035664000e-02 7.831318953011560946e-02 -7.730869826934935185e-01 8.496078624237077825e-01 -1.755232854299644818e-01 4.973510393873616375e-01
6.753208539892867346e-02 -7.069730144723068363e-03 -9.129992849212258399e-01 -9.930696518157438035e-01 1.073632655247679091e-01 -4.780999747349619355e-02
-3.119869198313297495e-02 1.803826009951150222e-01 -7.056304110782158912e-01 -8.087670492763814334e-01 5.185731144280138205e-02 -5.858384412572287259e-01
-1.786529032199754563e-02 -1.549907438407235327e-01 -8.576974503524134041e-01 -8.488422913791339175e-01 2.492018166948750946e-01 -4.662244297784010616e-01
-1.351930569578790268e-03 1.475359997880738572e-01 -7.881165049259578614e-01 7.352183419598001812e-01 -2.248795792284108419e-01 6.394397270204088546e-01
-3.630178009140175993e-02 -1.492679767094381160e-01 -8.525735421989268925e-01 9.306596161713813764e-01 -1.272558120264294934e-01 3.430432000976422757e-01
4.519098830151643820e-02 -6.828974762758166506e-02 -9.315815660125906783e-01 6.409150373321235161e-01 -3.032366281942995290e-01 7.051776104237248433e-01
4.237908150598400370e-02 -6.295126261938430168e-02 -9.267302810429373094e-01 6.409150373321235161e-01 -3.032366281942995290e-01 7.051776104237248433e-01
-5.001880181470391706e-02 -6.310153601738287439e-03 -7.648519155190789398e-01 9.144008285016692605e-01 -1.577676587709666567e-01 3.728008726939737172e-01
-4.019437363052470735e-02 1.063274572267617624e-01 -7.410649497957395582e-01 8.822830834301496061e-01 -1.562872626868617443e-01 4.440167251521450753e-01
3.684774080495670234e-02 2.042569030632601298e-02 -8.850090120505527125e-01 7.398343402420425319e-01 -2.690435885344894529e-01 6.166528167997823440e-01
-1.756764719959491919e-02 -3.875309547598239646e-01 -1.046835122449698341e+00 8.001505470095194861e-01 -3.642161851615537960e-01 4.765560539818287089e-01
5.678432982447916694e-02 9.992676302858621851e-02 -8.504144639223631952e-01 -7.866091160761412571e-01 2.245497334544555024e-01 -5.751725964538336733e-01
-3.003771876598972101e-02 -1.263843789951113739e-01 -8.219094077617074001e-01 -8.241034566782947657e-01 2.487737904179783688e-01 -5.088861305753554776e-01
-5.537879631011748821e-02 -3.129394522250222854e-02 -7.601069584342395880e-01 9.621844346978460916e-01 -6.828251172949832692e-02 2.637017486045500902e-01
-1.971372520264321523e-03 1.280023793940789079e-01 -7.944013757678218823e-01 7.359114460995973550e-01 -2.357375598064001265e-01 6.347142241955219255e-01
-2.376288885013811900e-02 -1.049957134186073615e-01 -8.581892933706862792e-01 8.630753210244241913e-01 -2.261743179842972407e-01 4.516039948039930474e-01
-2.807337257458152047e-02 1.742513234890274709e-01 -7.422206597006207884e-01 8.570509595091232447e-01 -1.444874898418278542e-01 4.945573961469982849e-01
1.857822036037188457e-02 6.412928951477232103e-04 -8.424620147170293061e-01 -7.479519936199963137e-01 2.709928538094963923e-01 -6.059131030305070498e-01
2.221321742863032866e-03 1.721406069500084068e-01 -7.578765598757782884e-01 -7.667854854068032466e-01 1.358421678190016302e-01 -6.273650650232981407e-01
-1.236334917959728934e-02 1.426161811840599425e-01 -7.446645297970549970e-01 -8.608050210197005780e-01 1.321534539123024599e-01 -4.914775482220137826e-01
-9.126967613923040595e-03 1.691563874770403986e-01 -7.435368219601686812e-01 -8.214207866533678182e-01 1.026324582492440518e-01 -5.610120050119064006e-01
1.231549657407197962e-02 -2.367078416131370572e-02 -8.741517668580729428e-01 7.534566444945940411e-01 -2.787153037807662548e-01 5.955005157893162870e-01
-5.483165952624725198e-02 -4.036032912981460385e-02 -7.644509643752227523e-01 9.621844346978460916e-01 -6.828251172949832692e-02 2.637017486045500902e-01
-3.947294501989283971e-02 -1.572504013765825270e-01 -8.338963354704455044e-01 5.745839066581692745e-01 6.181749291405388425e-01 -5.363889364924726566e-01
-2.812538707775296201e-02 -1.735124385803556712e-01 -8.520383684103238764e-01 -7.436338840642979786e-01 3.565234084908662227e-01 -5.655967695005876816e-01
-5.131180678702003395e-02 -3.368164902615237294e-02 -7.725890026061854599e-01 9.137603633635504874e-01 -1.400643354946506935e-01 3.813449622954971918e-01
1.111979617287757634e-02 -1.963836166177904963e-01 -9.343736064052783341e-01 -7.398634345182233396e-01 3.552979718614287519e-01 -5.712840357073297737e-01
2.729546942003116365e-03 -2.166976910455936309e-02 -8.305498574013239210e-01 -8.352311423368257159e-01 2.207536758171195490e-01 -5.036434785480213838e-01
-1.946048126149494892e-02 -1.828557746709191523e-01 -9.096090283783356822e-01 8.603773189926857690e-01 -2.602569350232992185e-01 4.381976685643551583e-01
-2.099294172725494831e-02 1.189014951801595499e-01 -7.360431290904878576e-01 -8.591992282256916136e-01 1.401973183302425152e-01 -4.920583279951520894e-01
5.475704053505526907e-03 -1.657248002658854302e-01 -9.387584373980608632e-01 7.408428486561002835e-01 -3.329151789220168300e-01 5.833689717823840049e-01
-2.612276530436897712e-03 1.560722867776007938e-01 -7.563582021517573084e-01 -7.727067382667998086e-01 1.898314961645081178e-01 -6.057130506279583271e-01
2.238940568693503427e-02 2.146337380349108703e-01 -7.773075479891395911e-01 -1.913886831874640759e-02 -8.109654563744245204e-01 5.847809267468447869e-01
4.174348652229237927e-02 1.327844754559016072e-01 -8.174543025464391377e-01 -7.836747860050020664e-01 2.142631758091318728e-01 -5.830481294646258084e-01
5.098283176923655569e-02 1.099749728746985400e-01 -8.385119246557499739e-01 -7.902353170788766201e-01 2.234847649169591777e-01 -5.705985484482575254e-01
5.710992842140349968e-02 -9.335499579395829806e-02 -9.419108327009613202e-01 -9.754647827506154334e-01 2.192936322867657661e-01 1.946176897846859863e-02
-4.876748604506663670e-02 -1.261304369882403596e-02 -7.705884803911708936e-01 9.144008285016692605e-01 -1.577676587709666567e-01 3.728008726939737172e-01
1.675009697520841306e-02 -6.687257765876331028e-02 -9.001905942595708199e-01 7.535467120852915590e-01 -2.872915743112779974e-01 5.912959530008591313e-01
-3.506922619015393622e-02 -7.175382098664016828e-02 -7.878712948733735955e-01 -8.218433096901557322e-01 2.392356403969638501e-01 -5.170492072147341300e-01
-3.709674452455213184e-02 -1.779479169496408358e-02 -7.948549495043454316e-01 8.639231051465777744e-01 -1.954646981470049005e-01 4.641448267213535983e-01
3.572726798520875491e-02 6.375816976496820766e-04 -8.640496846055015778e-01 -7.625579152030562691e-01 2.593774018664153913e-01 -5.926455849512390905e-01
3.200057775096461221e-02 -1.022423415207876773e-01 -9.080183844562214057e-01 -7.431320013715614348e-01 3.105016578597606935e-01 -5.927423968334285531e-01
1.410213046743673780e-02 -1.944466107840338298e-01 -9.371288644170491233e-01 -7.396258086956823963e-01 3.596357748762271100e-01 -5.688723692889587902e-01
-1.828262174910139093e-02 2.215237508816702075e-02 -8.110988469113417088e-01 8.561337212847565104e-01 -1.909608142862085911e-01 4.801760288542765154e-01
1.479318221309796136e-02 2.233225689445842710e-01 -7.655589611465548616e-01 4.134598357633462173e-02 -7.893890418265187003e-01 6.124993471721548177e-01
-3.034027379219297361e-03 -1.858922220071065057e-01 -9.043456792196985505e-01 -8.626189714012262311e-01 2.571731810676746166e-01 -4.356035641707073913e-01
1.551478101718729678e-02 -1.740432590149231518e-01 -9.267283127403951326e-01 -7.379751511128589403e-01 3.329371098279650942e-01 -5.869800313804164338e-01
-1.230239462432784932e-02 -1.953867756741761719e-01 -9.308187453384951793e-01 8.297688726454406360e-01 -2.803351664680741595e-01 4.825928018837741251e-01
-5.018786528824549509e-02 -9.620087670319529827e-02 -7.938311877947267226e-01 9.628869424329374871e-01 -5.088272875731681549e-02 2.650654334430617709e-01
1.723252839028997742e-03 -5.008770725630000420e-02 -8.735786541700601981e-01 7.376186976637080228e-01 -2.905778956871049035e-01 6.094941701074335638e-01
4.325253159097158795e-02 -1.374851792353490310e-01 -9.435403682945943116e-01 -8.473906182539173715e-01 3.707080669294484654e-01 -3.801376976947629105e-01
-1.097744096950592496e-02 2.419747371607006980e-01 -7.293461158852602155e-01 -6.979915084674513936e-01 1.657746964860466465e-01 -6.966538624828622073e-01
-1.693508491858309803e-02 1.119724901243682735e-01 -7.804756214653285618e-01 8.381003203641550492e-01 -1.761615008741082566e-01 5.162896266779744003e-01
6.533503991603123451e-02 3.651921999504900707e-02 -8.886394550323315489e-01 -8.453435225953254140e-01 2.164396570688269517e-01 -4.884139675050819807e-01
-4.012751888016045931e-02 -7.667764736190139929e-02 -8.140938342331651700e-01 8.639635043540802029e-01 -1.967717452382476973e-01 4.635169289466259390e-01
2.445661506066483179e-02 1.671371219409391318e-01 -8.080307258613596000e-01 5.993788973392764063e-01 -3.381349880653997664e-01 7.255409480314427562e-01
-2.514414047640687808e-02 2.109467281035202202e-01 -7.352015571731795873e-01 8.452180558111473951e-01 -1.768431825525012546e-01 5.043143136135707083e-01
-1.844746904195824003e-02 -1.269013491458800824e-01 -8.417771482123217464e-01 -8.489060990044315913e-01 2.301692206054927470e-01 -4.757946668037988380e-01
1.481561656548461940e-02 2.798667065922414571e-03 -8.654656727885084999e-01 7.599318609736300800e-01 -2.644057433678811408e-01 5.937955620844884708e-01
-1.320203696694099114e-02 4.314097219975673858e-02 -7.762885100619636436e-01 -8.474883151726638753e-01 1.871980330505725876e-01 -4.967096255034686991e-01
1.009063068695830638e-03 -6.283296604592285284e-02 -8.787397158665555263e-01 7.726185432617133086e-01 -2.724661777297429643e-01 5.734307007838803649e-01
9.846888808543986793e-03 -7.632368530627048342e-02 -8.671315245754390721e-01 -7.670477502117976076e-01 2.894279385902130963e-01 -5.725986528611811677e-01
5.032218423944315178e-02 1.316967890213187609e-01 -8.295076130446580320e-01 -7.896290482149632695e-01 2.121989578925882747e-01 -5.757235173973969111e-01
-5.082982622104599557e-02 8.590476297346596665e-03 -7.566345874641562386e-01 9.173902831053323270e-01 -1.526270671623914110e-01 3.675595826982679393e-01
-5.006148562481625014e-02 -6.163242567593255061e-02 -7.859075193487035094e-01 9.164545754840994762e-01 -1.299956049262988300e-01 3.784338169007954167e-01
2.440114495263396438e-03 -1.518756476742650630e-01 -9.270372975546278260e-01 7.379539721692228715e-01 -3.336521588936354754e-01 5.866005215010311469e-01
3.787211094533311090e-02 1.746731366765237256e-02 -8.875287385996635248e-01 7.398343402420425319e-01 -2.690435885344894529e-01 6.166528167997823440e-01
-6.849045687906341051e-03 -3.018190737775703139e-02 -8.174473461437661292e-01 -8.566119061334289686e-01 2.047469994766033252e-01 -4.735976229625539213e-01
5.319858968081442319e-02 -4.934595810668980005e-05 -8.872636019818519459e-01 -7.717145104140391565e-01 2.537216038507906224e-01 -5.831655529571362351e-01
-2.005655467641580605e-02 7.283806515239961421e-02 -7.887981895999542914e-01 8.583253947612808910e-01 -1.744595403431863367e-01 4.825364084617193572e-01
-4.322767454196010245e-02 1.265670992757804703e-01 -7.273732192238659966e-01 9.420179554423996349e-01 -1.298640867912960184e-01 3.094147549584280177e-01
-2.095361440014601589e-02 6.734468485778950797e-02 -7.539501727052919655e-01 -8.500755484238599058e-01 1.833664123019590475e-01 -4.937087408699400992e-01
-1.651482576469116142e-02 -5.272730229671188096e-02 -8.465769226083541543e-01 8.636346662996567947e-01 -2.139799155521517893e-01 4.564512667369587939e-01
-4.666214059268808390e-02 -6.188493820092724057e-02 -7.942264662455831292e-01 9.164545754840994762e-01 -1.299956049262988300e-01 3.784338169007954167e-01
-3.815830887438279029e-02 1.637752791624103588e-01 -7.000725337781088520e-01 -1.981066309453604346e-01 -3.223173743325703691e-03 -9.801751751225384890e-01
-1.013812551076095740e-02 -1.923173148245159725e-01 -8.944340291657298936e-01 -8.384951445859675223e-01 2.892953724817736716e-01 -4.617727579301204033e-01
6.548853525555885235e-02 -3.027240435955056222e-02 -9.226568307833230564e-01 -9.930696518157438035e-01 1.073632655247679091e-01 -4.780999747349619355e-02
-3.891173951306864387e-02 1.439422035289018575e-01 -7.307097276539066266e-01 8.996070805542926152e-01 -1.362457582573292636e-01 4.149026319191864154e-01
1.456151711147496766e-02 2.114953282994994771e-02 -8.285718421835095437e-01 -7.457579814748672709e-01 2.565306816971983372e-01 -6.148471699654328715e-01
-3.972418573575767914e-02 1.248130153821333244e-01 -7.053332672207401899e-01 -7.552322867786955829e-01 1.703761509591136258e-01 -6.329266625695106896e-01
4.566660390412640574e-02 1.751900371418113889e-01 -8.107064147524757347e-01 -9.672340862705768316e-01 -2.283006146779784362e-01 -1.110722813936028536e-01
-3.697189883927111398e-02 1.844529016391409926e-01 -7.033511876194371570e-01 8.663469692608058992e-01 -2.847189555493855329e-01 -4.103389394189678741e-01
-8.600532906695795843e-03 1.980459280161595281e-01 -7.389827111724219799e-01 -7.961357852986556960e-01 8.707705036290078193e-02 -5.988200052327824485e-01
-4.881194960854662312e-02 4.025742110562009757e-02 -7.481632267087684474e-01 9.227093097245947506e-01 -1.515421329545118823e-01 3.544608746916348418e-01
-2.429255301860627769e-02 -1.136974184125236764e-01 -8.615350612058879642e-01 8.630753210244241913e-01 -2.261743179842972407e-01 4.516039948039930474e-01
-2.740258361141722707e-02 1.934932509748039930e-01 -7.097305893548470079e-01 -8.273295345920148591e-01 4.855042613629220738e-02 -5.596147758179231824e-01
-2.895321102759414178e-02 -2.894899899107736870e-03 -7.681909849454194861e-01 -8.353458892227899613e-01 2.098045799550968815e-01 -5.081134554294460814e-01
4.731533464998053523e-02 8.709212589475170962e-02 -8.425100654320708538e-01 -7.693995383432598034e-01 2.397962284111723741e-01 -5.920490851584480074e-01
-1.143825839640013296e-02 5.391035352001833682e-03 -8.296353822228305086e-01 8.400084399771750032e-01 -2.169366867549324118e-01 4.973170967369861528e-01
3.021145065458510220e-02 4.006423183808502375e-02 -8.399537623345044723e-01 -7.561302059646769491e-01 2.519124104244730433e-01 -6.039927558356532611e-01
-3.442611265650625391e-02 -8.772988939105506867e-02 -8.298494152382045463e-01 8.720880286595803499e-01 -2.028060029332863501e-01 4.453450296600050540e-01
-1.678260261886908508e-02 1.746335599700817864e-01 -7.600157561099938341e-01 7.750650903996727514e-01 -2.004917065066425530e-01 5.992304909346664044e-01
4.555762244065304778e-02 3.694126799174355519e-02 -8.611401010904022879e-01 -7.715522569869658343e-01 2.485811209572361125e-01 -5.855890547491159337e-01
-1.981628772120797022e-02 1.310182822641627054e-01 -7.694487520699740957e-01 8.373757507577292980e-01 -1.662214293328933556e-01 5.207420556028281577e-01
-6.457137935209383839e-03 -3.401135877228932403e-01 -1.015854278051178783e+00 -6.772352817414837300e-01 -3.273199375854164428e-01 6.589491874367948698e-01
2.768032285003147602e-02 1.547928999515738868e-01 -7.921284753932984479e-01 -7.394451449819625655e-01 2.125621238177739236e-01 -6.387786949176383899e-01
-2.491184002338132225e-02 1.894308423736566216e-01 -7.143578953241859208e-01 -8.653226763526848941e-01 4.518434673096233256e-02 -4.991743589171246942e-01
-4.475546597621586631e-02 -7.863875781478922578e-02 -8.046968338907707352e-01 9.217861074327767801e-01 -1.270385049673855571e-01 3.662944039970861265e-01
-2.433005276585270549e-02 -4.198241998590484525e-01 -1.053576920599499145e+00 3.170976001844556524e-01 7.174927372599403386e-01 6.202042276028897350e-01
-1.324338717668821670e-02 9.196589524553848427e-02 -7.585737574136682815e-01 -8.576163178493952932e-01 1.634516072352802663e-01 -4.876246747762553180e-01
1.329989139168919789e-02 -5.469909669335807495e-02 -8.612436362710857995e-01 -7.725940506461685953e-01 2.704500070114582710e-01 -5.744172931011457539e-01
-2.205481836461092512e-02 -1.451277495733117318e-01 -8.448738245959426241e-01 -8.162940539023688657e-01 2.835875922323545795e-01 -5.032316515239203536e-01
4.765888002306032517e-02 7.810561899844591094e-02 -8.465963045166651213e-01 -7.693995383432598034e-01 2.397962284111723741e-01 -5.920490851584480074e-01
-1.931587755842328197e-02 2.114158105182154801e-01 -7.436517038308129157e-01 7.986531742648559362e-01 -2.141240961886154148e-01 5.624090848022265110e-01
-2.863253366280562370e-03 2.043931646511634170e-01 -7.662859388747280676e-01 7.085336233275728590e-01 -2.642341389600888490e-01 6.543396858072428879e-01
2.296144439518324823e-02 2.010526104556920324e-01 -7.885306288338266301e-01 4.194768289023422803e-01 -5.054544376826377583e-01 7.540258625809617143e-01
1.163782981472653161e-02 1.266576202132343731e-01 -7.834618170361853373e-01 -7.358544475627326609e-01 2.347807120191489627e-01 -6.351348276279039640e-01
5.798632418973004299e-02 1.069646868561372893e-01 -8.499269958778398193e-01 -8.374517721366483425e-01 1.787462053293317477e-01 -5.164536023938175457e-01
5.949725536174376578e-02 -7.735381092011960058e-02 -9.341721093844739254e-01 -8.453801439871396761e-01 2.506767740452209292e-01 -4.716922377001388500e-01
6.782093917810044781e-02 8.026836044379632648e-03 -9.055683743517506379e-01 -8.453435225953254140e-01 2.164396570688269517e-01 -4.884139675050819807e-01
-4.255610330365104665e-02 1.631086500469365319e-01 -7.070396342538640688e-01 9.665927193485782665e-01 -1.865069275685325156e-01 1.758228678848880178e-01
-1.966269796582481924e-02 1.812225304956835981e-01 -7.245889357708940048e-01 -8.728381489815141281e-01 6.898406361392851738e-02 -4.831094748085917878e-01
-3.069443331578809026e-02 -1.728716133803968047e-01 -8.773523257352611182e-01 9.408566044377592030e-01 -1.065527987890364237e-01 3.216136672407953756e-01
1.111465888091194704e-02 -1.270159732130769770e-01 -9.240497289544299386e-01 7.292931225221584990e-01 -3.189464710610136478e-01 6.053137120862254195e-01
1.295070093210002986e-02 -1.758201403561883598e-03 -8.651080638296477776e-01 7.599318609736300800e-01 -2.644057433678811408e-01 5.937955620844884708e-01
-4.702781075917798065e-02 8.631029715178809014e-02 -7.334865301046493702e-01 9.281959338811947013e-01 -1.401263850408777101e-01 3.446982804450761662e-01
3.660291409573171451e-02 1.292933921849507839e-01 -8.363081661054059257e-01 6.413206226933299003e-01 -3.193380938531255042e-01 6.976611216933988890e-01
-1.784208687887717942e-02 1.538085400800139335e-01 -7.652775883161305748e-01 8.343200699027338851e-01 -1.700157941734360412e-01 5.244088583243736723e-01
-1.200899808471512717e-02 -4.224919641193412151e-02 -8.497530191749329553e-01 8.354883338515189939e-01 -2.342511878136728509e-01 4.970770815536522114e-01
-4.497751838292103621e-02 -1.063776718667185650e-01 -7.931649842129629979e-01 -3.814306594200856382e-01 4.973425767004980846e-01 -7.792053730918874210e-01
-1.341881467777388329e-02 -3.605180921085656687e-01 -1.014393650988760998e+00 1.348626562404048601e-01 4.646941545092628245e-01 -8.751407925109555563e-01
-3.944524870003474765e-02 4.560103314493426339e-03 -7.813210145796656292e-01 8.637014108463049178e-01 -1.894700185854237828e-01 4.670342438829743759e-01
-2.999334478848240601e-02 2.058833468416716161e-01 -7.284675777975155864e-01 8.844626489729271457e-01 -1.566201519452000146e-01 4.395406131137995498e-01
-7.503670280164550024e-03 2.024775504578144869e-01 -7.619656426794203519e-01 7.457219314001234389e-01 -2.337511035804683279e-01 6.239064213516180013e-01
2.349420265392452786e-02 1.256267620406149865e-01 -8.248025291669408565e-01 7.249879483850985018e-01 -2.605079856455708720e-01 6.375955333212840470e-01
-3.192321705395045200e-02 -1.836320741811272028e-01 -8.622342560566940151e-01 5.682119123818725193e-01 7.419436288668757040e-01 -3.558860410457076462e-01
-1.381406269096261720e-02 -3.427491260741805101e-01 -1.005148921658750361e+00 3.983337448499938982e-01 4.225305433123851540e-01 -8.141241721518408525e-01
-2.439101874533950581e-02 3.706068631818132397e-02 -7.595344851231029537e-01 -8.439241486201997100e-01 1.892005844632733136e-01 -5.019912053158172016e-01
-2.587780561626006059e-02 -1.947576853661168728e-01 -8.992808136150834963e-01 9.662678215142096461e-01 -4.954273192287413086e-02 2.527291333024385689e-01
-4.644388711765843475e-02 -1.237692540782334705e-01 -8.080202107050661331e-01 5.743281306279206522e-01 5.226236113672773076e-01 -6.300886915433915325e-01
4.755129002243012825e-04 1.814722507226288473e-01 -7.781588748207776129e-01 7.230164358066646368e-01 -2.332924553347896224e-01 6.502475404315590790e-01
-2.499280621808225300e-02 5.507778755610504007e-02 -7.517321391384362839e-01 -8.439241486201997100e-01 1.892005844632733136e-01 -5.019912053158172016e-01
-4.581594400006253065e-02 1.091035012371262131e-01 -7.273110112551002260e-01 9.284095841742225907e-01 -1.486566606915233624e-01 3.405243621908606300e-01
-5.055225924105224283e-02 -3.695486678792004806e-03 -7.624369431907781491e-01 9.144008285016692605e-01 -1.577676587709666567e-01 3.728008726939737172e-01
-9.850124397918295568e-03 2.243068719615683854e-02 -7.901833161123205107e-01 -8.547681214839422115e-01 1.912958135776299529e-01 -4.824700718205071626e-01
5.189018198847237390e-02 5.157841712809760684e-03 -8.832666354303896350e-01 -7.717145104140391565e-01 2.537216038507906224e-01 -5.831655529571362351e-01
-4.282163661239545699e-02 1.192394825741682415e-02 -7.399878635856290687e-01 -8.207020655444867696e-01 2.181935326785254259e-01 -5.280527453846614039e-01
8.409813330682248326e-05 -2.207152786121510946e-01 -9.328396847246815948e-01 -8.352484101062370714e-01 2.998244477395343166e-01 -4.609396858079009007e-01
-5.026075179445629003e-03 -1.929610621979771512e-01 -9.407787707939785360e-01 7.880280613845823678e-01 -3.076380145395316568e-01 5.332641245017629705e-01
4.354124796609786657e-02 9.658160350886951795e-02 -8.578303527006044815e-01 6.515659244080597157e-01 -3.210282109915058579e-01 6.873155999232549718e-01
4.728785099912807821e-02 -3.965316528881548952e-02 -9.211897409490336086e-01 6.407357332086449642e-01 -2.978731318386335092e-01 7.076222986298722484e-01
-4.165634691176720028e-02 -3.511902632741716046e-02 -7.936809955392203353e-01 8.612017972665914067e-01 -1.952711756980409497e-01 4.692554020214340649e-01
-3.950403617275730084e-02 -3.835998249962345452e-02 -7.661852946179773527e-01 -8.209589074590840641e-01 2.258255442357807730e-01 -5.244323558231323013e-01
-2.491642575819346880e-02 -4.010140489680368847e-01 -1.044351411289179854e+00 8.032078881327022746e-01 -3.284128390809842868e-01 4.969930538429807587e-01
-2.748875873594132033e-02 1.143050354649917943e-01 -7.614677991975322691e-01 8.577024785649767225e-01 -1.644218770445670386e-01 4.871466972202898593e-01
6.567929151398678445e-02 -4.789256223523441491e-03 -9.078236376887938164e-01 -8.450111197966264642e-01 2.383927715717208962e-01 -4.786701305517245264e-01
-3.178858546583690492e-02 -6.884184108466445684e-02 -7.917455170791699581e-01 -8.228683278823366587e-01 2.388797448723508909e-01 -5.155814023583936700e-01
-3.126161175882369997e-02 2.819847092380587013e-03 -7.963970345245222626e-01 8.430605839414005986e-01 -2.029789467286035598e-01 4.980445753035883660e-01
3.799853013306713628e-02 2.316530983670356779e-03 -8.942906475460871141e-01 7.398343402420425319e-01 -2.690435885344894529e-01 6.166528167997823440e-01
-7.598711979107311901e-03 1.323492946543203090e-03 -8.025408773548998731e-01 -8.547681214839422115e-01 1.912958135776299529e-01 -4.824700718205071626e-01
1.542467985683217309e-02 7.074866475921651188e-02 -8.373702426853639746e-01 7.591300644647828166e-01 -2.419909931336269304e-01 6.042862769150857405e-01
1.830127239095204542e-02 -1.508056418019988465e-01 -9.451460406719636165e-01 6.967128020823230017e-01 -3.370852306908654894e-01 6.332178287640706227e-01
3.573983656273581333e-02 1.454800349571067353e-01 -8.281057295761274917e-01 6.413206226933299003e-01 -3.193380938531255042e-01 6.976611216933988890e-01
-3.906868291222947293e-02 4.240849103494577499e-02 -7.668379071695279325e-01 8.711597054952174846e-01 -1.743760192860998315e-01 4.589921256616716350e-01
4.632062693405662734e-02 1.709151966563692004e-01 -8.180863213280176183e-01 -4.401401334525328890e-01 -6.237545471831321686e-01 6.459155732700304631e-01
1.834206351328527412e-02 -7.135065504319244856e-02 -8.756573371557074825e-01 -7.427612256858014961e-01 2.976496152130725936e-01 -5.997586749528809325e-01
5.004107420461770261e-02 1.537128072309347851e-02 -9.006209031420990829e-01 6.567724950767965808e-01 -2.962727259314260064e-01 6.934496099788083345e-01
2.591281071715812942e-02 -6.469567272948334447e-02 -9.104162640279649388e-01 7.139351561516616984e-01 -3.015662830239326797e-01 6.319449103789283040e-01
-2.623227001846180351e-02 1.548710892728177302e-01 -7.174258496219989567e-01 -8.504217793229194022e-01 9.436161407828681791e-02 -5.175699788838029614e-01
-1.153076909446556705e-02 -1.131833899310360630e-01 -8.853827476498238314e-01 8.354432314739753673e-01 -2.607428855187204353e-01 4.837848226595094503e-01
-1.486584011571681109e-02 4.324531653176664180e-03 -7.887881908515663731e-01 -8.430894075304355972e-01 2.037319409125228908e-01 -4.976882027554952459e-01
-8.529756202335817689e-03 -1.913501633885787701e-01 -9.348365554321294013e-01 7.880395081459822260e-01 -3.045257710728256906e-01 5.350306424435326003e-01
-9.569349668735866593e-03 8.394821159072497763e-02 -8.013095940569748832e-01 7.714028025423593782e-01 -2.321712997990843796e-01 5.924813953023314594e-01
-1.888334766199528322e-02 -5.486396852135389315e-03 -7.859986560731383465e-01 -8.430894075304355972e-01 2.037319409125228908e-01 -4.976882027554952459e-01
1.162128981147847635e-02 1.165480204656543228e-01 -8.147330297566648394e-01 7.519441641039414925e-01 -2.348875239846442975e-01 6.159608957932213302e-01
1.799907936199690237e-02 -3.753274205399108332e-02 -8.591230422928332056e-01 -7.464318207668069194e-01 2.824574801562301785e-01 -6.025423710001995836e-01
-7.036501274732771816e-03 -1.686632067652692468e-01 -8.861989357559844072e-01 -8.692508241668311930e-01 2.526523467983968207e-01 -4.249350495576319497e-01
-1.028545064368312613e-03 -1.624723418615806603e-01 -8.944903925812125456e-01 -8.626189714012262311e-01 2.571731810676746166e-01 -4.356035641707073913e-01
-1.827002536005986263e-02 -1.177335726757927775e-01 -8.752094143579208785e-01 8.634462447233831606e-01 -2.393220354334381350e-01 4.440557913473078266e-01
4.682555597624704635e-02 -1.802733674306936790e-02 -8.868864223960285509e-01 -7.702325315075204681e-01 2.665971282236317408e-01 -5.793684653400019702e-01
-3.397373271124261296e-02 -1.698197632197225027e-01 -8.440727578106861362e-01 -2.792028220261342786e-01 6.143487838804698731e-01 -7.379846583210454281e-01
2.184997921647150246e-02 1.829208355152121268e-01 -7.984612413644425200e-01 5.994309122415537594e-01 -3.741883061866636551e-01 7.075773406225034368e-01
-3.022836368574910101e-02 1.077903243683847878e-01 -7.588489857876540290e-01 8.573772000455870401e-01 -1.646482481821998078e-01 4.876425855198889825e-01
-1.359216848300343755e-02 -3.454499065746376441e-01 -1.006442058918913141e+00 3.983337448499938982e-01 4.225305433123851540e-01 -8.141241721518408525e-01
-1.390636912065382896e-02 -2.109578833237130968e-01 -9.372133258520306542e-01 8.207933266187060761e-01 -2.877223117658367912e-01 4.934715658377094027e-01
-9.441584110432801186e-03 8.930687781534916991e-02 -7.993760822169406755e-01 7.714028025423593782e-01 -2.321712997990843796e-01 5.924813953023314594e-01
-1.173253597423287720e-02 -2.495076653011389645e-01 -9.591880563784999092e-01 8.044416689520518249e-01 -3.052687893116243223e-01 5.095925505007433687e-01
1.058024579266642583e-02 -1.921790669443666777e-02 -8.411814116936436880e-01 -7.723230725160306065e-01 2.566587564046440839e-01 -5.810708686728494055e-01
-1.916041529215033179e-02 -3.878825552535388604e-02 -8.352971389884680242e-01 8.568380669798123517e-01 -2.149843188027011354e-01 4.686259378686130073e-01
-1.070622910679926675e-02 -1.667341990294054221e-01 -8.775451843702652965e-01 -8.692508241668311930e-01 2.526523467983968207e-01 -4.249350495576319497e-01
-2.495141530145501829e-02 -7.320051749919261053e-02 -8.051364314769809960e-01 -8.373420660513575253e-01 2.258050377489301264e-01 -4.978657945149960740e-01
-3.230256405345327542e-02 -1.845581327555653739e-01 -8.734115322861507602e-01 9.650319330592220801e-01 7.012294322209350859e-04 2.621314106574494374e-01
6.444669476569613031e-02 -4.051400270792419878e-02 -9.242898217759403234e-01 -9.911859959698512412e-01 1.267067940946365323e-01 -3.867440656963420237e-02
7.022161602286602390e-03 2.188348187947794510e-01 -7.663971166361019938e-01 5.044424730799209611e-01 -4.882114862824868395e-01 7.121708615317381419e-01
3.919850776407778070e-02 1.037115989045942453e-02 -8.642561337034725399e-01 -7.625579152030562691e-01 2.593774018664153913e-01 -5.926455849512390905e-01
1.613223188864042201e-02 1.320152065754170469e-02 -8.625363736798591363e-01 7.626049110372686846e-01 -2.610968957824714165e-01 5.918295030450888561e-01
4.008682334264388608e-02 -9.152075713139430635e-02 -9.371574393628137045e-01 6.236078858004151515e-01 -3.138956736198594832e-01 7.159488185968819751e-01
-3.342891069830591227e-02 -1.477075431053192778e-01 -8.602660063019093029e-01 8.805472608333611007e-01 -2.110368858992885677e-01 4.243818495515512268e-01
-9.897880362646639674e-03 -3.874411360741708554e-01 -1.038373509381877779e+00 -8.005896578414029019e-01 3.599523670758069116e-01 -4.790516602558736459e-01
1.136797697287726672e-02 1.559258369020727897e-01 -7.997651223897666029e-01 7.409662580639162499e-01 -2.294958751063697344e-01 6.311106461785598309e-01
3.721875369815436096e-02 1.635147401939363587e-01 -8.010753925604792158e-01 -7.839069149446711293e-01 1.814015612916214104e-01 -5.937873544147688198e-01
-1.073687905266522240e-02 -2.157030598900052873e-02 -8.067942114622345118e-01 -8.484317620268149174e-01 2.108400707932914786e-01 -4.854997525560174054e-01
1.904005604774869354e-02 -8.073717946423297764e-02 -8.811801204198072002e-01 -7.427612256858014961e-01 2.976496152130725936e-01 -5.997586749528809325e-01
5.646130741600184633e-02 1.088816273403036688e-01 -8.467906563701359524e-01 -8.374517721366483425e-01 1.787462053293317477e-01 -5.164536023938175457e-01
-3.803657255393532929e-03 -2.924655434144586841e-01 -9.799614100330710231e-01 -8.025367371778707737e-01 3.378850355853367793e-01 -4.916995914248790123e-01
-4.546608042685802015e-02 1.409220699523869025e-01 -7.143827426520447110e-01 9.421019294501186137e-01 -1.659025075517217285e-01 2.914108997865633155e-01
-1.439285495576292720e-02 -7.870767490958641144e-02 -8.259464362544307603e-01 -8.513381157334491967e-01 2.195754477580220410e-01 -4.764557014469280039e-01
-2.157564135725900667e-02 7.002726342937970472e-02 -7.871123074900203687e-01 8.583253947612808910e-01 -1.744595403431863367e-01 4.825364084617193572e-01
-4.480305023526773983e-02 -9.258960392254277083e-02 -7.848724213006929018e-01 -3.815237402059520888e-01 4.790874374384498369e-01 -7.905155678087055771e-01
-5.292897916019433796e-02 7.155882111392990186e-02 -7.212272237055755708e-01 9.652707812499445872e-01 -1.154834212268161381e-01 2.343414139388753092e-01
2.617214793391497984e-02 -1.172859280311989577e-01 -9.086323350725111769e-01 -7.292681232759212762e-01 3.209249530659736838e-01 -6.042972603555456512e-01
4.990244648148315504e-02 1.342444960068458863e-02 -9.013213809864362158e-01 6.567724950767965808e-01 -2.962727259314260064e-01 6.934496099788083345e-01
6.685122622164164745e-03 -1.106522018608020325e-01 -8.798724637461714515e-01 -8.355562258928292962e-01 2.481693207601578244e-01 -4.901609751960808725e-01
6.040458998258524392e-02 -1.986723565030245470e-02 -9.064118993387217937e-01 -7.877529771437642436e-01 2.599572254742183453e-01 -5.584509718183703342e-01
5.041732945118119341e-02 9.232302408907890057e-02 -8.446424374840353355e-01 -7.902353170788766201e-01 2.234847649169591777e-01 -5.705985484482575254e-01
1.633335986196961589e-02 -1.833586604520483568e-02 -8.482211064963351976e-01 -7.462497506586674989e-01 2.726984835041276201e-01 -6.072452937128667294e-01
2.215093150504704803e-02 -1.029603205112292613e-01 -8.961541507188057754e-01 -7.323957566218231019e-01 3.070022961552580920e-01 -6.077384682885775824e-01
-4.075446295459895368e-02 -1.339517068412844625e-01 -8.348118827870816272e-01 9.306596161713813764e-01 -1.272558120264294934e-01 3.430432000976422757e-01
-4.575248808730369293e-02 2.806673667792553353e-02 -7.300152830741352128e-01 -7.590618642470073896e-01 2.264326371681355254e-01 -6.103714828454398500e-01
1.415892271324053694e-02 1.781665364160007342e-02 -8.579576020066440600e-01 7.626049110372686846e-01 -2.610968957824714165e-01 5.918295030450888561e-01
-5.670111407386856789e-02 8.262203276831588117e-03 -7.348786517496749271e-01 9.999104161899746712e-01 -6.871784228568920440e-03 -1.148643444711185124e-02
6.725487744627381415e-02 9.129798612544769848e-03 -9.114490524203132660e-01 -6.028772310617711572e-01 -2.868757023468285206e-01 7.444738918661321092e-01
-2.155133284125027374e-02 1.702219632812288497e-01 -7.228633344700110541e-01 -8.624792029212031697e-01 8.038473578509718054e-02 -4.996678084299266964e-01
-4.375192484383661623e-02 1.576763619897898483e-01 -7.042993101569974268e-01 9.784684970140488103e-01 -1.891671819029148716e-01 -8.255408918992258871e-02
1.269505688889589062e-02 1.587383121442097200e-01 -7.999780342201570082e-01 6.795948406292362520e-01 -2.699787554770043951e-01 6.821014031514749387e-01
-9.878092173381517252e-03 -8.194720239812938734e-02 -8.355064233112017291e-01 -8.513381157334491967e-01 2.195754477580220410e-01 -4.764557014469280039e-01
-1.130284465942365223e-02 -3.279819684884168196e-01 -9.960188717663159830e-01 4.010627016218610286e-01 4.408745478622494995e-01 -8.029809103677567617e-01
2.830118779794127404e-02 -1.798528172746714504e-01 -9.508462690392318617e-01 -8.989738016322539327e-01 3.987073203769401220e-01 -1.813245064978612209e-01
-9.049695047591854030e-03 -3.458495829539045552e-01 -1.008894052842768119e+00 -8.014575684424772861e-01 3.508601860833334696e-01 -4.843169373538780964e-01
-2.321231557117027500e-02 2.323641984090834278e-01 -7.268724414426440683e-01 8.111771531247007339e-01 -3.903430816025318939e-01 4.354582699795066514e-01
-2.146073221055044486e-02 1.549198011188320234e-01 -7.254814767638397832e-01 -8.624792029212031697e-01 8.038473578509718054e-02 -4.996678084299266964e-01
-4.410321221398755265e-02 1.530557537739108409e-01 -7.091981167814331855e-01 9.665927193485782665e-01 -1.865069275685325156e-01 1.758228678848880178e-01
-1.153006962063949162e-02 -2.555237384702037651e-01 -9.564076776092528265e-01 7.250345614482843759e-01 3.500402378080704757e-01 -5.931245371932973853e-01
-7.912477068982133599e-03 -2.067935099980502678e-01 -9.083707133095684227e-01 -8.360317910170917965e-01 3.247838134826674938e-01 -4.422288083203192444e-01
-2.709959475215218197e-02 2.285513984903779494e-01 -7.181961451410431296e-01 8.647693995088860941e-01 -3.961982868015660464e-01 -3.085462740150081151e-01
5.040119743715524431e-02 -9.303839803439623024e-02 -9.277746743511399163e-01 -7.852189409265979414e-01 3.024436990652811241e-01 -5.403323270967796965e-01
-6.786062098212287085e-03 1.693236388197706319e-02 -8.319925267850115658e-01 7.663273058724120457e-01 -2.472849511909715747e-01 5.929524544082850346e-01
2.971837653782516148e-03 -3.066081921224230594e-02 -8.658278913665744536e-01 7.376186976637080228e-01 -2.905778956871049035e-01 6.094941701074335638e-01
-1.551240869167628579e-02 -2.203775652615380665e-01 -9.194916165819934095e-01 6.448452253563482506e-01 7.258068551664013102e-01 -2.395392333806285190e-01
-1.498806117869248312e-03 -1.990635285296677714e-01 -9.154765724942525162e-01 -8.593330078770003988e-01 2.826805665580987559e-01 -4.261906602255136622e-01
3.336661987740494311e-03 -5.646385803832985883e-02 -8.475451864467526963e-01 -8.402785598950388568e-01 2.289328144001766541e-01 -4.914485815134010394e-01
-1.469656862328352562e-03 1.428895185649199373e-01 -7.619473413105009030e-01 -7.727067382667998086e-01 1.898314961645081178e-01 -6.057130506279583271e-01
2.386075139867679940e-02 -8.462794248551433821e-03 -8.820560311977643231e-01 7.599318609736300800e-01 -2.644057433678811408e-01 5.937955620844884708e-01
4.117045796296454202e-02 9.130650475139814870e-02 -8.580467446127948428e-01 6.515659244080597157e-01 -3.210282109915058579e-01 6.873155999232549718e-01
-2.561826438267972988e-02 -5.579858234832439645e-02 -8.314573446560588055e-01 8.458336032510292979e-01 -2.192385045927997822e-01 4.863126501699220894e-01
4.164891522022119708e-02 8.952934534455060656e-02 -8.341591083085326819e-01 -7.693995383432598034e-01 2.397962284111723741e-01 -5.920490851584480074e-01
5.700616580780125398e-02 -4.469052884279195448e-02 -9.302490225705879467e-01 2.898023641867641387e-01 -3.247524493137098345e-01 9.003057460532550849e-01
3.900853421055228577e-03 1.438359082096454800e-01 -7.684518691706050397e-01 -7.685572754720584321e-01 1.903004657403363498e-01 -6.108235809609658951e-01
-1.081870524956832745e-03 -4.856395850427911581e-02 -8.361705810278916573e-01 -8.597732490697453933e-01 2.148790446325399839e-01 -4.632676940623644546e-01
5.650151675220952546e-02 -8.712120463834251149e-02 -9.342558670842144863e-01 -8.437560447727565638e-01 2.951622295457043132e-01 -4.482800410000905011e-01
-5.473286963428959824e-03 2.390706338146917631e-01 -7.353818268835412564e-01 -6.550072381572336067e-01 2.309177486884841646e-01 -7.194737738807961414e-01
-1.636734201623139123e-02 -3.534045720998426066e-01 -1.012236250174609165e+00 5.826542410578773312e-01 3.572504216238833186e-01 -7.299905284500798341e-01
-2.035338285777930217e-02 4.796960482698874040e-02 -7.973131297893876201e-01 8.555242603571476812e-01 -1.783668366757023283e-01 4.860694513283657092e-01
1.212773617358426937e-04 7.720079435110262234e-02 -7.865227584740531741e-01 -8.341377975269760325e-01 1.928740830063228329e-01 -5.167337059272555377e-01
-2.794274213536606863e-02 -9.016963246908342444e-02 -8.432774190602718711e-01 8.514185518736202551e-01 -2.278008183299039258e-01 4.724333145467766171e-01
-5.269923172388445848e-02 5.742898586723966387e-02 -7.291367526780325736e-01 9.652707812499445872e-01 -1.154834212268161381e-01 2.343414139388753092e-01
-3.434160942018697066e-02 1.129913722683842936e-01 -7.160796308817546363e-01 -8.196362626239444005e-01 1.592951648788307195e-01 -5.502921473527297991e-01
-2.061657763588228831e-02 1.409058872530437878e-01 -7.304308167564640408e-01 -8.591992282256916136e-01 1.401973183302425152e-01 -4.920583279951520894e-01
-1.112704448299047313e-02 -1.572161025043803118e-01 -8.713725519741687409e-01 -8.594835590379261703e-01 2.397773778574250059e-01 -4.514363973045563694e-01
-3.206232475357301964e-02 6.821680193006865456e-02 -7.349654178403546290e-01 -8.435522345781326647e-01 1.824597476129309892e-01 -5.051020372551117132e-01
-9.828982947449950089e-03 9.747197008861027689e-02 -7.627332516004659002e-01 -8.576163178493952932e-01 1.634516072352802663e-01 -4.876246747762553180e-01
-3.845628841491847971e-02 7.403653953785312158e-02 -7.560149976674761518e-01 8.710300121423275588e-01 -1.717372749203224802e-01 4.602314921322508967e-01
2.894387595123201068e-02 5.492790693035907307e-02 -8.606062480359533140e-01 7.362002926259506586e-01 -2.669707371557919484e-01 6.218808202862970980e-01
2.189304834345660172e-02 -1.752064226631338539e-01 -9.559745492690291391e-01 -1.470500054388404476e-01 4.136914084994544605e-02 9.882635731857034589e-01
-3.765311238475648609e-02 1.685094820042758734e-01 -7.001905352111276182e-01 -1.710670080629858869e-01 -9.713944250601038582e-03 -9.852115092910123106e-01
-2.678075585317191837e-02 -3.859575515692239417e-02 -7.868045124248363997e-01 -8.370729242981286289e-01 2.150396478368572784e-01 -5.030575208315447577e-01
-4.383014050807461717e-03 6.773104140189756261e-02 -7.827553476211712713e-01 -8.583762857473572483e-01 1.757253788291350816e-01 -4.819862480423362516e-01
5.188466782667101873e-02 -6.704688000537845083e-02 -9.358312908170817179e-01 5.435040891692822784e-01 -3.148986023011910440e-01 7.781016484528386901e-01
4.160289566807842676e-02 8.608753772614148592e-02 -8.608943408562698130e-01 6.515659244080597157e-01 -3.210282109915058579e-01 6.873155999232549718e-01
-5.166582405953664553e-02 8.425356143597580172e-02 -7.201429756921692293e-01 9.635965894050626535e-01 -1.184056096136953812e-01 2.397117529428631211e-01
-2.827773691227429900e-03 -9.498189668935441698e-02 -8.549717368978915211e-01 -8.598702604471286648e-01 2.264667943937815620e-01 -4.575324318948238433e-01
-3.313812967347477823e-02 7.524772466219167844e-02 -7.307353274830061807e-01 -8.221076113528579254e-01 1.909020349601507627e-01 -5.363725276370625572e-01
3.417396865518524535e-02 -1.544563196734025645e-01 -9.404803211512733352e-01 -7.905639730497068252e-01 3.492034960257571763e-01 -5.030561826270016912e-01
1.859368429029520375e-02 -8.659764179223948533e-02 -8.836015592647835648e-01 -7.323957566218231019e-01 3.070022961552580920e-01 -6.077384682885775824e-01
-1.148763455573748905e-02 8.315142030762395775e-02 -7.991242456556452156e-01 7.714028025423593782e-01 -2.321712997990843796e-01 5.924813953023314594e-01
-8.359932011159587617e-03 -3.051292771829497985e-01 -9.823068294786172494e-01 1.698924040543038361e-01 4.949965641469126765e-01 -8.521238011741018026e-01
6.191028406640662618e-02 6.619653826527649790e-03 -8.964678384028164082e-01 -7.880637533459061705e-01 2.458206479402696987e-01 -5.643826093250825515e-01
3.049334074932324654e-02 5.626167149193969652e-02 -8.618679694204618436e-01 7.362002926259506586e-01 -2.669707371557919484e-01 6.218808202862970980e-01
-9.880449748097031720e-03 1.584051702275767193e-01 -7.446511160123079343e-01 -8.277639429530093684e-01 1.563653353557638848e-01 -5.388476005754934128e-01
9.851693884514291580e-04 -2.618950468104895846e-01 -9.731798319033999611e-01 -7.014960903473311804e-01 -2.701480167490220574e-01 6.594871373074525644e-01
3.345034300213119843e-02 -3.007360013532321338e-02 -9.032178705376024963e-01 7.363952592517525320e-01 -2.743132664436117585e-01 6.184450290887462121e-01
2.118019313904278070e-02 -1.958854171933165911e-01 -9.525741324543811617e-01 -8.290717018392415039e-01 3.719392890298195975e-01 4.174940460478159809e-01
-2.861838137020026110e-02 8.367949429561419294e-02 -7.351313787436731806e-01 -8.435522345781326647e-01 1.824597476129309892e-01 -5.051020372551117132e-01
1.520643783786524393e-02 -3.015492146582096633e-02 -8.808443340296530089e-01 7.534566444945940411e-01 -2.787153037807662548e-01 5.955005157893162870e-01
-4.174071683233408769e-02 1.573699025607755708e-01 -7.170625859844442784e-01 9.421019294501186137e-01 -1.659025075517217285e-01 2.914108997865633155e-01
1.658850212205270971e-02 3.848533765583852378e-02 -8.522422788031239760e-01 7.623271075485259507e-01 -2.520522609117633039e-01 5.960931461323532021e-01
-2.258289386736869048e-02 -3.795775306180838027e-01 -1.032204552165796541e+00 9.642187159015346287e-01 -2.137312384296733703e-01 1.568477785131611735e-01
6.193259641872228549e-03 -2.020754457379113911e-01 -9.310447627546919458e-01 -7.772095593871913843e-01 3.366592822956290809e-01 -5.316068363380587192e-01
-4.971484488313647476e-02 8.810680877644237741e-02 -7.256667665349050278e-01 9.226275510630023158e-01 -1.483475222269679261e-01 3.560216491571913666e-01
2.809154598682695250e-02 1.929355644390564339e-01 -7.973094196259482569e-01 5.168083859680746572e-01 -4.598991501807556115e-01 7.220816185557503708e-01
4.503137504621547438e-02 1.542959817352324015e-01 -8.306791913210991307e-01 3.103896191498619617e-01 -5.081106516423925523e-01 8.034188509187140115e-01
1.826764884972942315e-02 -1.491246195670025698e-01 -9.442141753758568345e-01 6.967128020823230017e-01 -3.370852306908654894e-01 6.332178287640706227e-01
-1.011333373705703732e-02 5.192998290935439687e-02 -7.784003223443521913e-01 -8.555893759486630223e-01 1.795664763107701900e-01 -4.855128220233846381e-01
-3.820060141524524167e-02 3.971618817642005167e-02 -7.695083466126316774e-01 8.711597054952174846e-01 -1.743760192860998315e-01 4.589921256616716350e-01
-1.875379999246121893e-02 -4.749454767763412744e-02 -8.040425284818548679e-01 -8.484317620268149174e-01 2.108400707932914786e-01 -4.854997525560174054e-01
-2.791001784993234203e-02 1.198658932773453423e-01 -7.589165786765100785e-01 8.604166408776641184e-01 -1.487770758117354097e-01 4.873895626844156892e-01
