-4.153586743217208693e-02 -1.029555299752226427e-01 -8.236449393633455962e-01 -5.618717517382345594e-01 4.231392975533986300e-01 -7.108116976138085796e-01
1.972667361216179360e-02 2.038792223335235687e-01 -7.241039415155963166e-01 7.983087033765599028e-01 -4.395599730224855062e-01 4.116919287886364742e-01
-6.301603045263645675e-02 5.908462726669062165e-02 -7.187753286450087042e-01 5.746963522270850389e-01 2.146934341914520372e-01 -7.897030024331699316e-01
1.082935301233384391e-02 -3.459879271638318099e-01 -1.006786920351938397e+00 5.097322384274504126e-01 -3.208368910435154819e-01 7.982710908289692986e-01
1.538449246387937029e-02 -4.283540057638435816e-01 -1.027438662316744189e+00 -4.160276933483935680e-01 5.332267610442270600e-01 -7.366072085402763925e-01
4.964610901614966224e-03 -1.107320937194904847e-02 -8.548970830307657254e-01 8.145783971103104371e-01 -2.970325086425456562e-01 4.982305929694741398e-01
4.610548840652122643e-02 1.950485037347051212e-02 -8.685617241726767412e-01 -8.197778601346150662e-01 2.991696678036169788e-01 -4.883254753741455012e-01
1.557365977751763546e-02 -1.794484024779860742e-01 -9.547696169544456213e-01 7.030944439720376860e-01 -1.707663679819405034e-01 6.902876577354601917e-01
5.375133002404455795e-02 2.737688817569004437e-02 -8.777834176566080560e-01 -8.801060967183739203e-01 2.616290892477355357e-01 -3.961861660615487724e-01
-6.564583615264656113e-02 -7.712430364885945744e-02 -7.897400970157936184e-01 -2.097418090671190616e-01 5.536744129952553273e-01 -8.058864795513147605e-01
2.577601600822469058e-02 -7.271917045117486100e-02 -8.893364224037723087e-01 -8.086888239293814618e-01 2.825094132465896246e-01 -5.159562166296495223e-01
-7.934412748830698900e-03 1.520736657327997443e-04 -8.007846600338124343e-01 -6.945296010976185208e-01 3.747686391549866491e-01 -6.141474581117327691e-01
5.476251508508409721e-02 6.208731610764805370e-02 -8.850300101067174463e-01 7.077100398847787632e-01 -3.734586255416554312e-01 5.997292342839578572e-01
-3.697559806534225779e-02 -4.926924819816426611e-03 -7.985445826724808516e-01 7.107611621568608040e-01 -3.587390433461532524e-01 6.050825308571678995e-01
2.120307794011020222e-03 -4.214286277705272393e-02 -8.369250467796005566e-01 -7.216607214129407977e-01 3.358721762350286855e-01 -6.053062732211685892e-01
4.675624601539447173e-02 1.727068251109903710e-02 -8.710229349795689524e-01 -8.197778601346150662e-01 2.991696678036169788e-01 -4.883254753741455012e-01
7.472562188869558315e-03 3.421394643408708774e-02 -7.978690790891282969e-01 -7.148819944635368406e-01 3.661735677937226208e-01 -5.957018148713768557e-01
-5.533151107779226557e-02 6.331779089955874400e-03 -7.696115792614509621e-01 7.205835925220565041e-01 -3.595940128483782749e-01 5.928333932156720776e-01
4.685646565774537198e-02 1.381371416499458937e-01 -7.943650197249795264e-01 -8.438662660664290049e-01 3.020436001265332515e-01 -4.434629506708605562e-01
-4.817689508265631665e-02 8.077301517992817315e-02 -7.112747052758824351e-01 -4.752851487984929846e-01 4.136050773923422019e-01 -7.765531966883333359e-01
-7.298622910476847137e-02 -9.641371291424119354e-04 -7.472210246001508294e-01 9.847057749809490224e-01 -1.430326289368210879e-01 9.947966515117981356e-02
6.041945909224277766e-02 9.995533039850455770e-02 -8.515089075255312112e-01 -9.388319877765125554e-01 1.560487351911659104e-01 -3.069907017693530582e-01
1.960189394731664397e-02 9.628541667776946422e-02 -8.111497680078603167e-01 8.074158925541596865e-01 -3.255707671647397605e-01 4.920195646706873593e-01
2.478456413230510982e-02 1.635378026649862704e-01 -7.721974198531441624e-01 8.181077629523080263e-01 -3.496288959310301370e-01 4.565734588510588776e-01
1.099079277105026974e-02 -2.053673372582735801e-01 -9.301941991870398274e-01 -7.846027674067198587e-01 2.594817870720373398e-01 -5.630876482001881955e-01
-8.867972489035510011e-03 5.647534399513832321e-02 -7.647052480424751941e-01 -6.921438064539131574e-01 3.884594391423444315e-01 -6.083060211182388377e-01
2.870091125777798208e-02 -1.353807741900336370e-01 -9.546166084952987241e-01 6.819062817149925682e-01 -1.918239132375164357e-01 7.058380899808959219e-01
-2.554591383823593895e-02 -1.324581630614043992e-01 -8.819324045671024237e-01 6.746575391891358464e-01 -3.312717075492028207e-01 6.596182688439545805e-01
-2.519176663610429162e-02 -8.393580882532829246e-02 -8.296618643990230080e-01 -7.008270779957195273e-01 3.495023270260119164e-01 -6.218436541055831768e-01
3.575771121339890724e-02 -1.055428764478427012e-02 -8.695342240819072810e-01 -7.997423053600640763e-01 3.087257591668496337e-01 -5.148792583161831971e-01
5.871975267054710401e-02 7.021943680361138196e-02 -8.826462776892027851e-01 2.982998961009051264e-01 -5.162113288470043804e-01 8.028343764165805085e-01
-3.255585399480974418e-02 6.014146982866217656e-02 -7.635250137143683169e-01 7.034829283694876700e-01 -3.806123017157901911e-01 6.002050027076571981e-01
7.327604255924644906e-03 -1.199563759695817938e-01 -8.849958397106951757e-01 -7.943091206087674605e-01 2.685743393787737299e-01 -5.449227882415837998e-01
3.827981315678511548e-02 1.975812768231714756e-01 -7.385987710574386522e-01 -9.462491564574566638e-01 3.707553452067332417e-02 -3.213066115777236109e-01
-3.200329067671086464e-02 1.628486843522267691e-01 -6.895944968957421484e-01 7.843635191426527875e-01 -4.632661049111605478e-01 4.125025889356275233e-01
-1.607189968638380803e-02 -9.423831958733537573e-02 -8.454609887157875647e-01 -6.846419022731878856e-01 3.415014267447716856e-01 -6.439272017728684405e-01
-3.469988604544024802e-02 -1.275749109147044369e-01 -8.440967107520166435e-01 -6.581380314671247955e-01 3.644485710991173799e-01 -6.588107243817376002e-01
-9.348373391718001885e-03 1.873317999632773123e-01 -6.977385123774534348e-01 6.476400846996706040e-01 -5.083246288407858859e-01 5.675987952806814674e-01
2.574645342104618997e-02 1.114075129240268830e-01 -8.111328011381094827e-01 8.042009572235522263e-01 -3.341114953976117574e-01 4.915590799119617937e-01
3.000405134015995956e-02 1.406060533142204465e-02 -8.792857616036146018e-01 7.927231255736825188e-01 -3.143106795502553230e-01 5.223014865969163312e-01
3.341752093475994223e-03 5.319038933298394362e-02 -7.808121687946456557e-01 -7.142883174991628836e-01 3.799214078774418857e-01 -5.877515830013884113e-01
-3.454391826684396344e-02 -3.594788008283129888e-02 -8.196646067122409507e-01 7.042361767164641018e-01 -3.578772168975102863e-01 6.131682518114176528e-01
5.375550440222113396e-02 3.371742087771078394e-02 -8.736055991402624787e-01 -8.801060967183739203e-01 2.616290892477355357e-01 -3.961861660615487724e-01
5.965926056226743962e-02 5.167135463445468591e-02 -8.755591954990684656e-01 -9.389140909614022146e-01 1.726704964953804100e-01 -2.976998982770450719e-01
4.276610430219710685e-02 1.542321040152059841e-01 -7.757056574198590848e-01 -8.439509306476684625e-01 3.005487177418251776e-01 -4.443166606404480579e-01
-2.177874046521615162e-02 9.099939023384569226e-02 -7.276944937096174737e-01 -6.518098594751623454e-01 4.064590230219359834e-01 -6.402616415927340210e-01
-7.353696369405693378e-02 -4.203471649148043249e-02 -7.675605996070732351e-01 6.620092608967742542e-01 4.171607917365405260e-01 -6.226721547689839653e-01
2.637944751676223141e-03 -4.840053251903572717e-02 -8.725139584127874492e-01 8.180911090368648830e-01 -2.828606335644378023e-01 5.007162862283965898e-01
-7.965195698144805422e-03 1.567372652438164815e-01 -7.255182147403810289e-01 6.726056761393505168e-01 -4.801458680856090511e-01 5.630821874162282858e-01
5.590230089566870265e-03 7.271507376445342230e-02 -7.709789591532024700e-01 -7.205251645042544117e-01 3.747246128008209776e-01 -5.834594689242710297e-01
-2.070483881679243895e-02 1.791585078568780631e-01 -6.840276991630177550e-01 2.788188122656654055e-02 4.113230470049922261e-02 -9.987646040030118133e-01
-3.893760940606651871e-02 6.166392310477931960e-02 -7.288505423683074858e-01 -5.806201432725494049e-01 4.049606725977007438e-01 -7.063194057049417829e-01
7.085624614992800177e-03 -5.076830371504233164e-02 -8.811183452305439978e-01 8.180911090368648830e-01 -2.828606335644378023e-01 5.007162862283965898e-01
-5.715818758519444764e-02 6.061237895354141397e-02 -7.169507242619090892e-01 -2.462283467386274238e-01 4.099339704681203012e-01 -8.782515249736859708e-01
-9.997553586641394485e-03 -1.094811613948096785e-01 -8.871865436522619053e-01 7.216259393564171676e-01 -3.099845132668747061e-01 6.190037198455820011e-01
-4.333051270074608080e-02 -1.663364654708491819e-01 -8.788091225991094824e-01 7.417458024560307228e-01 -2.347161294170388990e-01 6.282686552187233264e-01
4.224790451880754139e-03 -4.297355795097484478e-03 -8.496616947360398076e-01 8.130952666789298400e-01 -2.971967239414297635e-01 5.005498922013689178e-01
-3.469623598569895884e-02 5.522083790233316136e-02 -7.365622107091598370e-01 -6.702799160517398658e-01 3.907649083647951049e-01 -6.308943021840712762e-01
-6.508367980489948579e-02 5.243470419444468816e-02 -7.265125456498825463e-01 7.999926863839416091e-01 -3.417094210187811010e-01 4.932001351573355730e-01
-2.678977508129814014e-02 5.382549474617452472e-03 -8.043455334479353569e-01 7.038303846426852139e-01 -3.720717719826483472e-01 6.051325360178728685e-01
3.391514937523684020e-02 -1.087048589987739226e-02 -8.668456149450632919e-01 -8.023045766074292651e-01 3.053297494596405315e-01 -5.129143305169848732e-01
1.636457286247078660e-02 -2.795126048466612528e-02 -8.490281978239810901e-01 -8.147934603593932623e-01 2.870516060296757210e-01 -5.036993075549637267e-01
9.597680079731092098e-04 1.298967804662480019e-01 -7.566298195233019941e-01 7.830009984766730380e-01 -3.771602747172899117e-01 4.946307345482200413e-01
-5.998333247070793128e-02 -5.603718590590576337e-02 -8.010188711984779220e-01 7.382073666719743965e-01 -3.314989807618085038e-01 5.875017528017354440e-01
-5.513750200375746452e-02 -1.269768945122620452e-01 -8.280453272851648894e-01 -4.749266155948584922e-01 4.699969197511519314e-01 -7.440077991688278658e-01
3.540770640164912081e-02 -7.063465755577479077e-02 -9.038905179866895123e-01 -8.415305201211311648e-01 2.647434657161908955e-01 -4.708898821011542890e-01
6.098468935625164788e-02 1.945547583167572120e-02 -9.025874624723146944e-01 -9.389202283404393112e-01 2.093861872849115124e-01 -2.731047956141114397e-01
-1.878633034685220707e-02 3.818116223902606049e-02 -7.932997465590290176e-01 6.925857231069704190e-01 -3.778440788776921133e-01 6.144581907709129043e-01
-5.593325304666845604e-02 4.421557945815390855e-03 -7.700388471917731792e-01 7.205835925220565041e-01 -3.595940128483782749e-01 5.928333932156720776e-01
4.415590307987536656e-02 -4.755117589383585364e-02 -9.058773442892601446e-01 -8.320132847922421249e-01 2.757395463688344650e-01 -4.813746944922769333e-01
9.251410291869693187e-03 3.858349167834099896e-02 -8.316767857814049147e-01 8.125932612358326423e-01 -3.119941794605142205e-01 4.922924169402519423e-01
-6.162372717122876348e-02 6.598302100713605844e-02 -7.224125677867407891e-01 7.927072154317768016e-01 -3.589590800002651072e-01 4.927105128650717258e-01
-2.014208089454973261e-02 -1.220985041677480482e-01 -8.823003753491558410e-01 6.779236763499026930e-01 -3.295634265892353754e-01 6.571205649642950508e-01
3.120336395912888874e-02 2.125106053902370562e-01 -7.141440907490582690e-01 -9.353021624455877259e-01 3.223659098020689728e-02 -3.523785849432153894e-01
7.883804623855008784e-03 1.434893127996902940e-02 -8.445343570451842030e-01 8.130952666789298400e-01 -2.971967239414297635e-01 5.005498922013689178e-01
-4.479073726224712556e-05 2.115789307473015524e-01 -6.872087108224235186e-01 6.865863875770580327e-01 -5.140204116791469158e-01 5.141810466859765283e-01
2.150225663432114333e-03 -1.455128587797699380e-01 -8.914950422429522847e-01 -7.176412051806820847e-01 3.102564313954664366e-01 -6.234837988308666867e-01
-5.517453343095368723e-02 8.365071177981736605e-02 -7.067534594569210293e-01 -2.462283467386274238e-01 4.099339704681203012e-01 -8.782515249736859708e-01
-3.535020087421111845e-02 -1.152086899647291746e-01 -8.627522794566373499e-01 6.896819158768038305e-01 -3.413655518071009864e-01 6.385987902838016206e-01
-5.872037821375990924e-02 -1.497210381227705167e-01 -8.461191455935472838e-01 6.097151470560798758e-01 6.166002092767759457e-01 -4.980478103256946731e-01
4.633858599241173076e-02 5.553345207207033979e-02 -8.467397249736050568e-01 -8.226215874857245591e-01 3.008224298975304967e-01 -4.824930978501268397e-01
1.120423392454409327e-02 -3.531820882414557494e-01 -9.947726322272739674e-01 -3.507883428670707793e-01 3.570038730636210800e-01 -8.657342393172100525e-01
-4.161981355215249069e-03 -5.558842971321794474e-02 -8.661060886601745779e-01 7.962386130112698579e-01 -2.969157949059704205e-01 5.271101231101952278e-01
-3.464401392069706848e-02 1.242084447709345396e-01 -7.186501147144144230e-01 7.013229876165534282e-01 -4.128625849073907506e-01 5.811114807196461340e-01
3.673272350634963768e-02 2.034582603311051452e-01 -7.331471407907026450e-01 -9.740188987651476893e-01 -5.126476066688287481e-02 -2.205880984144349966e-01
-2.829162490614945194e-02 -4.519924072631826412e-02 -8.320780882371696663e-01 7.008106307542292246e-01 -3.491651238604392971e-01 6.220515863667448464e-01
4.608405174079320717e-03 -8.661910614392066832e-03 -8.204841605411558048e-01 -7.152667775049142973e-01 3.547544920445641070e-01 -6.021151778289093315e-01
2.534470911703664772e-02 -1.541593706594091007e-01 -9.564776139525453802e-01 6.819062817149925682e-01 -1.918239132375164357e-01 7.058380899808959219e-01
1.744539520107696653e-02 -5.404596813422885004e-02 -8.655103342805023914e-01 -8.224395257693245531e-01 2.779781458906755987e-01 -4.963077441059234318e-01
-2.915575192187173231e-02 -1.013117943060905940e-02 -8.107850417698074796e-01 7.042361767164641018e-01 -3.578772168975102863e-01 6.131682518114176528e-01
1.071261994554819318e-02 -1.822308844078633916e-01 -9.191550656115213824e-01 -7.845523324451619818e-01 2.578699040196430481e-01 -5.638978189847484446e-01
1.801337186650551689e-02 2.250967078678234035e-01 -6.894140176343076520e-01 -7.302491100383581291e-01 1.724762799778269129e-01 -6.610508075278301865e-01
-4.468536744380674497e-02 3.735090508944127752e-02 -7.635410685167249856e-01 7.182957094883164473e-01 -3.698725068584994280e-01 5.892754893942947492e-01
4.185910550485387460e-02 6.291894398986484782e-02 -8.672342655447846660e-01 7.751980259111488358e-01 -3.321052324506508779e-01 5.373770884605680864e-01
-7.861626598203264732e-03 -9.996769190444769471e-02 -8.572157131486817239e-01 -6.839546604558249809e-01 3.419182802008130517e-01 -6.444361194915100288e-01
-2.527196549053399577e-02 5.939531868233478146e-02 -7.439892212569790830e-01 -6.702799160517398658e-01 3.907649083647951049e-01 -6.308943021840712762e-01
1.069621101706433146e-02 -6.588744551192721177e-02 -8.615672658194526434e-01 -7.908938981469987306e-01 2.982321331071596249e-01 -5.343635809598167308e-01
3.218325838225381819e-02 1.987437179983591040e-01 -7.548635907759400077e-01 7.717041105853031935e-01 -4.361496447060163040e-01 4.628674250026265091e-01
3.100853666146927493e-02 9.251777664934147938e-02 -8.320511221723496664e-01 8.005142836281273766e-01 -3.286969556979992824e-01 5.011339072765023106e-01
-1.918004433692646268e-02 -1.537435424021307284e-01 -8.991183121757717611e-01 6.841142906329585882e-01 -3.105247574071846040e-01 6.599712208793451218e-01
6.126657262921921844e-03 1.615085692438725240e-01 -7.107478133486850869e-01 -6.915992979239747873e-01 4.154759693487501959e-01 -5.908215720543571470e-01
1.667346673918414929e-02 1.001651847880208751e-01 -8.037768950398148649e-01 8.074158925541596865e-01 -3.255707671647397605e-01 4.920195646706873593e-01
4.053762731822100999e-03 2.138650457478493971e-01 -6.894129839086098333e-01 6.444157260082497007e-01 -4.994495601899566206e-01 5.790323901987862731e-01
2.752955861572010596e-02 2.209282458497712487e-01 -7.228649938834987854e-01 7.822118962497044414e-01 -4.654472667143301767e-01 4.141296792957505080e-01
-4.390188315526403345e-02 -1.491980167339921892e-01 -8.704715658363636477e-01 7.442772790530443050e-01 -2.876823127762190846e-01 6.027356126869581887e-01
-5.189853841949929741e-02 9.279081873722011195e-03 -7.478110643763011822e-01 -5.913793296273899269e-01 4.024716613318816139e-01 -6.987753933233584736e-01
3.440159202192175775e-02 1.082819376701423114e-01 -8.271313942918596673e-01 8.005142836281273766e-01 -3.286969556979992824e-01 5.011339072765023106e-01
4.044920244072670173e-02 1.585974341781446958e-02 -8.612794592312904562e-01 -8.228350212521197138e-01 2.949988858036708406e-01 -4.857140981849475403e-01
-6.789265535903324378e-02 2.845222177183434967e-02 -7.313843056705827683e-01 6.020532332650476715e-01 2.222827601542837761e-01 -7.668913083698989386e-01
2.562760464507894687e-02 7.500614625152639270e-02 -7.999570393170007954e-01 -8.135441215571417306e-01 3.224576563009320940e-01 -4.839080720268350011e-01
-9.105899634108880619e-03 -6.565233264621236908e-02 -8.651064960509327051e-01 7.155258058470902460e-01 -3.385778240012238260e-01 6.110547260773526723e-01
3.506521070369836984e-02 4.544998118105485208e-02 -8.343424815932866112e-01 -7.994509733750364555e-01 3.174538953082206572e-01 -5.100011426686656968e-01
1.424505818880442143e-02 1.775658285937602165e-01 -7.093481508531858104e-01 -7.258590271254246051e-01 3.831792574858194911e-01 -5.712287889918962192e-01
1.877899756480096508e-02 -3.929130808904328642e-01 -1.028389936755125245e+00 -5.245911412969509469e-01 -4.229651645676050786e-01 7.388535741505629639e-01
3.925203253982766094e-02 -9.937588366342844926e-02 -9.276037196889591607e-01 -9.127654571038137377e-01 2.248172799638585573e-01 -3.410519182583765518e-01
-8.069714225155899534e-03 1.331042304067080184e-01 -7.428084616069003943e-01 6.778706987368684489e-01 -4.311711244394712539e-01 5.954685358972311437e-01
-5.364892283994672842e-03 -8.609201904693480900e-02 -8.807700392530090072e-01 7.963310408241833782e-01 -2.834901915245241488e-01 5.343128154267513530e-01
-3.288112620015471582e-02 -1.948775645368290288e-01 -9.011109628131414029e-01 8.827636438674177910e-01 -1.929537959283512917e-03 4.698133948166898777e-01
-5.641201696425279626e-03 -1.013868857198792217e-01 -8.603252816657108726e-01 -6.839546604558249809e-01 3.419182802008130517e-01 -6.444361194915100288e-01
3.708413692946684048e-02 1.333371714109826134e-01 -8.144810092860439443e-01 7.763455372299683521e-01 -3.548853555718983199e-01 5.209068930468468972e-01
3.763871752964432355e-02 7.032213140456948508e-02 -8.225728033371032533e-01 -8.014914312892471582e-01 3.268855245614873395e-01 -5.007567667062280403e-01
-1.827881351565852986e-03 9.780021804914031114e-02 -7.750910019847081500e-01 7.196789607926220578e-01 -3.894413193390121597e-01 5.748022722501548998e-01
3.442215685020595661e-02 -9.411179484538845230e-02 -9.452477470474290877e-01 6.904132905696314104e-01 -2.796393072625960041e-01 6.671816439610049887e-01
-1.006614562867063668e-02 -9.564794721143074496e-02 -8.798624031002540979e-01 7.217216974250326711e-01 -3.244169799872128612e-01 6.114502551818146170e-01
9.364748534947769237e-03 -5.391870087982886944e-02 -8.866196156637461412e-01 8.147991069735197600e-01 -2.866996073197683459e-01 5.038906135639416028e-01
2.358980227825149822e-02 1.962975146324168196e-01 -7.405738173680407321e-01 8.347648173799888660e-01 -3.842017247711971839e-01 3.944068132618795963e-01
-3.742664497227723985e-02 3.935371895148278426e-02 -7.709983859593810829e-01 7.034829283694876700e-01 -3.806123017157901911e-01 6.002050027076571981e-01
7.663080286464078218e-03 -1.252135590898449946e-01 -9.207549120002882503e-01 8.267943963924737627e-01 -2.486281684229544875e-01 5.045741372292601445e-01
1.995502352299212759e-02 2.326746201335895825e-01 -6.940597744658214552e-01 -6.566434649786152544e-01 -7.530742658974598491e-01 -4.121298271030884169e-02
-1.082100433859914564e-02 1.445347519756394472e-01 -7.313997483334153671e-01 6.778706987368684489e-01 -4.311711244394712539e-01 5.954685358972311437e-01
-5.986910374399403989e-02 -1.382978750424202485e-01 -8.447684663217436274e-01 8.003931318142113449e-01 -2.234680367009067581e-01 5.562669063657130764e-01
-1.625219612792612803e-02 -6.344147976448545612e-02 -8.555382914919459347e-01 6.891433975219828367e-01 -3.529657139842495850e-01 6.328479931258751412e-01
-5.799923815262863526e-03 -1.104846774050110142e-01 -8.928180715688068814e-01 7.943145711471255588e-01 -2.689137295154407914e-01 5.447474351857516384e-01
-7.371719029193765996e-03 4.726803135255357863e-02 -7.722874351491928469e-01 -6.921438064539131574e-01 3.884594391423444315e-01 -6.083060211182388377e-01
-1.499343428613739322e-02 -5.784518354601785733e-02 -8.538419986226228886e-01 7.216378442004309779e-01 -3.378446289593440288e-01 6.042349116867363756e-01
4.104615887178031386e-02 2.833073009558869509e-03 -8.702025066165637313e-01 -8.228350212521197138e-01 2.949988858036708406e-01 -4.857140981849475403e-01
2.593135987027994985e-02 1.662142545684326678e-01 -7.352220753093743344e-01 -8.107114069593878147e-01 3.507182168861383564e-01 -4.687683297431023410e-01
3.683126281343827857e-02 1.128942216823334566e-01 -8.279873380890623302e-01 8.005142836281273766e-01 -3.286969556979992824e-01 5.011339072765023106e-01
4.914226449250199379e-03 -1.651498726785073368e-01 -9.349278592492716866e-01 8.213739754175929386e-01 -2.359007014454450879e-01 5.193223002762801244e-01
-1.938717464454552467e-02 -9.088458464318985297e-02 -8.399721282554389878e-01 -7.009108542911066664e-01 3.411051272783447441e-01 -6.263954553485645560e-01
-7.410279721959497912e-02 -1.293420210679168195e-02 -7.533792559385603660e-01 9.847057749809490224e-01 -1.430326289368210879e-01 9.947966515117981356e-02
-1.709042214947541216e-02 1.224623776245030715e-01 -7.401805166286413717e-01 6.804726162227411335e-01 -4.292385423268254008e-01 5.938950179552953124e-01
1.723921138491974273e-02 2.395055059872478603e-02 -8.190845340170875843e-01 -8.141236765480989179e-01 3.103721892302210850e-01 -4.907868615155120962e-01
4.382790541708343063e-02 1.052206218056630366e-02 -9.018291930215922569e-01 7.754571351566400539e-01 -3.242359957565284501e-01 5.417907811973449173e-01
2.929444222734913644e-02 1.095718225245422422e-01 -8.181070827776177889e-01 8.001615001422616169e-01 -3.351285308911967076e-01 4.974238046905212762e-01
5.822591092193465934e-02 8.195752155734378763e-02 -8.749571600334439259e-01 2.696321185003153764e-01 -5.190811456593044104e-01 8.110815525544001758e-01
2.444077689389695385e-02 -1.152744814711589016e-01 -9.092769158704259169e-01 -8.293184849402212011e-01 2.491776856969114273e-01 -5.001413115182423708e-01
-3.703106360973196926e-02 2.764445970437726802e-02 -7.508603027498070848e-01 -6.820935142894229974e-01 3.808713938869887072e-01 -6.242478827219901660e-01
4.065006842693933559e-02 2.062494448527045499e-01 -7.482766908765340341e-01 -9.548380612722900951e-01 -1.915871131031166019e-01 -2.271093455553697404e-01
-6.925255036604318487e-03 -1.574616738117005921e-01 -8.875065606956289432e-01 -6.840946574271791203e-01 3.098000607829058395e-01 -6.603320543624234817e-01
3.369537377556116459e-02 1.028002875670130933e-01 -7.946199500451681663e-01 -8.069690066684953589e-01 3.330713221391154444e-01 -4.877135600380243519e-01
4.145178266785581878e-02 1.754178533252634051e-02 -8.942273134604349361e-01 7.754571351566400539e-01 -3.242359957565284501e-01 5.417907811973449173e-01
-1.641869874047361191e-02 -1.044755579737364631e-01 -8.771834196585083232e-01 6.780178671807108870e-01 -3.422689213331566727e-01 6.504950094144902328e-01
3.299380375467451162e-03 1.658744680615756861e-01 -7.044005290503477790e-01 -6.851010708548185280e-01 4.200664150218070825e-01 -5.951308508927327656e-01
-2.074586936061514203e-02 -1.198010830191541670e-01 -8.805252543973938195e-01 6.779236763499026930e-01 -3.295634265892353754e-01 6.571205649642950508e-01
1.314914273647227287e-02 -1.245268615795176864e-01 -8.956816306007571171e-01 -7.908512031221301974e-01 2.720342680025074622e-01 -5.482259858421700827e-01
1.261700038500650038e-02 -3.198360205968710235e-02 -8.793085630878390013e-01 8.086150999811605455e-01 -2.905550027812691116e-01 5.115851937275301964e-01
5.788233108612319058e-03 -1.856337105421110578e-01 -9.143673326426323689e-01 -7.278204232965688192e-01 2.887133754276064446e-01 -6.220305605688528638e-01
5.177804249689539617e-02 1.286415453562269884e-01 -8.378217136232116724e-01 7.136858639580115904e-01 -4.019206660173318957e-01 5.736830708803346557e-01
2.278041887384109690e-02 -1.423467395439327321e-01 -9.197852634178427245e-01 -8.288479889733748607e-01 2.293389589567925435e-01 -5.103083901714796644e-01
2.600223495188975012e-02 1.394656335950494527e-02 -8.396905070286138084e-01 -7.997423053600640763e-01 3.087257591668496337e-01 -5.148792583161831971e-01
-3.896953449323070640e-02 4.243947739439064837e-02 -7.672262112077116170e-01 7.081671323395222206e-01 -3.789033873715152989e-01 5.957613076664255436e-01
-3.747897603145145667e-02 -4.260332485111532896e-02 -7.923992135189878994e-01 -6.823614839465171888e-01 3.713702189120380304e-01 -6.296562282162642132e-01
5.291500125614423573e-03 5.251743761471312083e-02 -8.162481130497288850e-01 8.140635493002791323e-01 -3.118001555349892984e-01 4.899808166744782922e-01
-2.135170599842594122e-02 2.549104985754667776e-02 -7.697203598800175239e-01 -7.075080593727103295e-01 3.689956843033467271e-01 -6.027225986207641606e-01
-8.833868489459927378e-03 -2.994035502238574092e-02 -8.174075044263959811e-01 -6.930113111654327973e-01 3.636547291937928805e-01 -6.224873978899146953e-01
3.134009814812634132e-02 -7.149296461994227025e-02 -9.300226402070097542e-01 7.782341054970862704e-01 -2.989920201808650146e-01 5.522277147240217676e-01
9.048528523305935170e-03 -3.324137272380657815e-01 -1.000174810121723823e+00 7.543919900626296915e-01 -2.260721991105345274e-01 6.162662461296031235e-01
2.552627036996782395e-02 8.638204418322471823e-02 -8.273103499556573315e-01 8.044989340723758264e-01 -3.256928687123450405e-01 4.966946953072224891e-01
4.030335073745688196e-02 -9.754931488197655931e-02 -9.290617373593174078e-01 -9.000222019354454650e-01 2.385265348828190801e-01 -3.647809317659953532e-01
-5.042334643255408366e-02 -9.305503991717505030e-02 -8.335049368482646548e-01 7.133628751278092706e-01 -3.377579216121098238e-01 6.140301253014005534e-01
1.809231291116189869e-02 1.306123752733059917e-01 -7.483721316537146340e-01 -7.934879433742669796e-01 3.570569748609264127e-01 -4.928358757465207129e-01
4.971091700499460225e-02 7.026396787880499761e-02 -8.432868045884023278e-01 -8.224746136400339358e-01 3.045503165775991783e-01 -4.804004731369043157e-01
3.180492151331981016e-02 -6.184790257309689086e-03 -8.941051148358523104e-01 7.929780076582044757e-01 -3.038456715802143604e-01 5.280754560026375000e-01
2.673629358432938561e-03 -2.965154363854633490e-01 -9.703785040276505791e-01 4.829772610786586262e-01 4.191943987677292927e-01 -7.687711111395377772e-01
9.695796678034922927e-03 -1.106324716488227000e-01 -8.838054458751306575e-01 -7.908512031221301974e-01 2.720342680025074622e-01 -5.482259858421700827e-01
-4.192307470961637896e-03 1.659529022992371761e-01 -6.966512052855051707e-01 -5.805262456864120901e-01 4.277829833006351890e-01 -6.928138258346526746e-01
-2.843219856209501864e-02 1.676587813272304162e-01 -6.910732880384606869e-01 7.895663939152750554e-01 -4.616021835474558022e-01 4.043616373295689237e-01
5.992573427036888833e-02 1.004433135002334027e-01 -8.600473227048643921e-01 -7.006493873007750839e-01 -4.684091946694334263e-01 5.382223169139137564e-01
1.435043934218145460e-02 -6.724556128162292867e-02 -8.677467332451818116e-01 -8.225084216166246298e-01 2.664771535546471837e-01 -5.024637529246680501e-01
-6.317438521606592861e-03 1.768164475955732451e-01 -6.892211004447112987e-01 -3.124700358446110826e-01 3.083999103213005410e-01 -8.984720207179973661e-01
1.406279469355143676e-02 2.050246326673757780e-01 -7.124847566022541878e-01 7.497312237142232938e-01 -4.650385340022983871e-01 4.707889697953498431e-01
3.550644998896771570e-02 -1.426333046299831098e-01 -9.523639685151059631e-01 -9.628180884067448764e-01 2.608202366120496163e-01 7.038560087415626776e-02
5.206586081448257887e-03 1.173596154467458630e-01 -7.403615561366904130e-01 -7.130286582621386815e-01 4.008003231300839020e-01 -5.752818730637312417e-01
8.144523450760153896e-03 -1.736306900281238408e-01 -9.438369507277079018e-01 8.189216168257007489e-01 -2.368613018422567051e-01 5.227466969624693371e-01
2.866283703293305563e-02 -1.491127874002498924e-02 -8.610353269745603111e-01 -8.023045766074292651e-01 3.053297494596405315e-01 -5.129143305169848732e-01
-6.725584356518753137e-02 -1.114138738212920449e-01 -8.196552829354043501e-01 9.812644668725054586e-01 6.508682007198474465e-03 1.925556623731101979e-01
-5.132460400369955739e-02 -1.331985991845825897e-02 -7.612690927245603367e-01 -5.975256376466219210e-01 3.983876523677218895e-01 -6.958810177005356756e-01
6.230755522729920261e-03 -1.970646250086079687e-01 -9.202209945236139443e-01 -7.278672112462719612e-01 2.903272412531447411e-01 -6.212241268486869972e-01
1.283822960174012782e-02 1.328727918503569971e-01 -7.742106669751620540e-01 8.200562644111841770e-01 -3.315980853942485096e-01 4.664230193320682560e-01
6.295608165390198518e-02 7.110882908115329082e-02 -8.764101232466070535e-01 -9.975170897607567033e-01 2.261083207422315278e-02 -6.669637102678449558e-02
-6.277751255473400238e-02 -1.036962053113735932e-01 -8.238652079840926845e-01 8.019337641624242341e-01 -2.684034386955479468e-01 5.337244907184707232e-01
1.244932596334041679e-02 1.269971781144374201e-01 -7.426374702207388934e-01 -7.172002143398975571e-01 3.973369021375720567e-01 -5.724921298590250895e-01
1.188061822168113603e-02 -3.911521394996372858e-01 -1.023818768200755347e+00 7.530193437849834748e-01 -2.093118072483168279e-01 6.238192328167483369e-01
-5.449217304122284250e-02 -8.312722646471201737e-02 -8.007443680361467919e-01 -5.907761423515243138e-01 4.242633940690017647e-01 -6.862828295107658017e-01
-1.707692076285734217e-02 -5.911843359556106375e-02 -8.522290598323911670e-01 6.891433975219828367e-01 -3.529657139842495850e-01 6.328479931258751412e-01
4.780588210996615690e-03 3.807337444393200238e-02 -7.922661680906543102e-01 -7.148819944635368406e-01 3.661735677937226208e-01 -5.957018148713768557e-01
6.180825662121280928e-02 5.705479070211535303e-02 -8.792463636891151291e-01 -9.401962050213527045e-01 1.714926473844768928e-01 -2.943150827880049447e-01
-4.575304427982417044e-02 -1.050034820206445507e-01 -8.455032099609091079e-01 7.133628751278092706e-01 -3.377579216121098238e-01 6.140301253014005534e-01
2.308046185811692477e-02 -1.438665089758880966e-02 -8.519373532390085435e-01 -8.130593902699552178e-01 2.985416827488520108e-01 -4.998072544044679932e-01
-2.313011807423867583e-02 -1.385851323695856119e-01 -8.612877049804705809e-01 -6.397628782537642111e-01 3.587112715301847832e-01 -6.797276537596934620e-01
2.287659091141923482e-03 -1.627175627601394337e-01 -8.997518739288414835e-01 -7.172072704524456999e-01 2.914485202998812197e-01 -6.329861698529931635e-01
3.744251600553370751e-02 1.724699179970314022e-01 -7.864906519140839602e-01 7.714211132270345495e-01 -3.857292205539263330e-01 5.060854023565818371e-01
3.224128216089811733e-02 9.222749427877154071e-02 -7.994204745240488519e-01 -8.073363755518238039e-01 3.267348191011740233e-01 -4.913779957403140441e-01
2.595732487191550891e-02 -5.503801590267798360e-02 -9.130366406737333573e-01 7.981678062252118844e-01 -2.916519733580854590e-01 5.271311786851232695e-01
-5.575241220341963649e-02 3.520965167497028953e-02 -7.511779261371220873e-01 7.371354485820800218e-01 -3.656213038541181182e-01 5.682890044789804529e-01
-6.651758042863852027e-02 4.246656494246602714e-02 -7.310930332033074297e-01 7.999926863839416091e-01 -3.417094210187811010e-01 4.932001351573355730e-01
1.306597348415356298e-03 1.756905452723179772e-01 -6.958874394002568797e-01 -6.524979538296497017e-01 4.041493977298615814e-01 -6.410223744634119258e-01
3.811393955727383070e-02 1.858701711194654105e-01 -7.443004248335202133e-01 -8.891654312693747508e-01 2.599849303394421995e-01 -3.765536772253624265e-01
-5.144255772272870314e-02 4.216571156917850449e-02 -7.297530042102815528e-01 -4.698997266094360747e-01 4.089028195515730379e-01 -7.822996427809173481e-01
3.916000390503070888e-02 -9.615488489754259183e-02 -9.511273479151353127e-01 2.066764864240536737e-01 -2.533965621260363399e-01 9.450264611438738971e-01
-1.677761572605775825e-02 6.034119983650779867e-02 -7.815987689926479076e-01 6.921964868458778675e-01 -3.873173770296768903e-01 6.089739510431260161e-01
4.141524947002049595e-02 -1.181895560174546084e-01 -9.543376169012836030e-01 -6.589365781842625447e-01 -4.634166786614252881e-02 7.507696289476550877e-01
-1.467762692531442191e-03 1.308736709844950663e-01 -7.527747615681205096e-01 7.178673133094277681e-01 -4.138575716027543261e-01 5.598110671547816830e-01
-5.516551891012268227e-02 -1.430161365744287150e-01 -8.535082564341237576e-01 8.142843014266321067e-01 -2.122942797642896895e-01 5.402519923420028292e-01
-2.843840496849845551e-02 -1.678378529831577592e-01 -8.721092118116984260e-01 -5.364503953299605277e-01 4.378658288428640688e-01 -7.214530402473060544e-01
-2.480623260208465741e-02 -9.980768574198117804e-02 -8.659054012844409343e-01 6.892211541260347962e-01 -3.415838937873577619e-01 6.389793769835172554e-01
4.037027759586898912e-02 -1.855488587963629449e-02 -9.136077052535628296e-01 7.757481632288796281e-01 -3.110891531601616133e-01 5.490339935132551030e-01
3.689618653418638705e-02 9.947908752776023211e-02 -8.021841300942822439e-01 -8.069690066684953589e-01 3.330713221391154444e-01 -4.877135600380243519e-01
-7.194329904539178977e-02 -6.708496277584020950e-02 -7.834243799977673728e-01 6.499228077535244008e-01 4.935408588716206912e-01 -5.779427000888915922e-01
4.072277982334699536e-02 5.471120268056484798e-02 -8.376777666878684192e-01 -8.226215874857245591e-01 3.008224298975304967e-01 -4.824930978501268397e-01
5.520936064503355334e-02 1.454400909393943897e-01 -8.259177445586131094e-01 -7.046529711422746534e-01 -4.803782758818606613e-01 5.222077195150753859e-01
-3.051987615029731066e-02 9.879449920231063442e-02 -7.142336998683019855e-01 -5.685327796499100028e-01 4.026638515796760465e-01 -7.173787710091285019e-01
1.407224024815840156e-02 2.064736972131635817e-01 -7.110684336473567235e-01 7.497312237142232938e-01 -4.650385340022983871e-01 4.707889697953498431e-01
1.303069497130739454e-02 -3.298457603337912603e-01 -9.984558272273685864e-01 -5.761483085653950065e-01 -3.650108424704019972e-01 7.313140306436640703e-01
-1.101576038390433485e-02 -2.149478565456853507e-01 -9.145217860065454341e-01 1.042064326997861473e-01 7.674200346091200053e-01 -6.326195617150345285e-01
4.565642707073240200e-03 6.222051123930171651e-02 -8.086643377882841710e-01 8.167584688746513111e-01 -3.207736307336595538e-01 4.795934542375256404e-01
3.208187653520843535e-02 2.207202624141494651e-01 -7.266343783852853289e-01 -8.711253359198134483e-01 -4.854025762541311351e-01 -7.433026358385041998e-02
-5.341575101874478787e-02 8.476382224321393766e-02 -7.067001377065459389e-01 -2.268154166899620239e-01 4.102300371043863247e-01 -8.833267138545584096e-01
1.307999266263758752e-02 3.175077439161711618e-02 -8.422830444055912080e-01 8.048962830202344154e-01 -3.171252137985514086e-01 5.015711039857002618e-01
1.288678490295577968e-02 3.950512151606195427e-02 -8.370702018463817007e-01 8.048962830202344154e-01 -3.171252137985514086e-01 5.015711039857002618e-01
-1.105474288758684365e-02 -2.582774619924572967e-02 -8.405553698029494258e-01 7.213847383507356881e-01 -3.512558320877278151e-01 5.968445356196193652e-01
-6.061032907748617644e-03 1.631566249457321593e-01 -7.223188978808253724e-01 6.726056761393505168e-01 -4.801458680856090511e-01 5.630821874162282858e-01
7.983384613671084705e-04 -1.396539947443929675e-01 -8.870200509151948687e-01 -7.216217638201214424e-01 3.096722791984307110e-01 -6.191648483862648433e-01
1.243739967610505608e-03 -1.402169768794265525e-01 -9.177968219792039806e-01 8.213739754175929386e-01 -2.359007014454450879e-01 5.193223002762801244e-01
1.691799948858158098e-02 3.317525534998245346e-02 -8.474655155087119640e-01 7.994783059852297313e-01 -3.167277743644414389e-01 5.104095955261175321e-01
2.130869222090324075e-02 -3.341640981869944960e-02 -8.937891592688257392e-01 8.055847212219666709e-01 -2.943187658238702875e-01 5.142078577945308204e-01
3.049619603480617502e-02 1.917072344336664680e-01 -7.245243481873874236e-01 -8.463349814427616469e-01 2.982883820375944461e-01 -4.412948451179488085e-01
2.328175551494921641e-02 1.546201064929385825e-02 -8.344077250156012315e-01 -8.126527573358017786e-01 3.105485512586295127e-01 -4.931075879619832847e-01
-5.955715513379089554e-03 7.974215643820081745e-02 -7.529242287013107049e-01 -6.874835262063141439e-01 4.014485433221198218e-01 -6.051491289421812025e-01
-9.247690338220000868e-04 -1.805146383175896818e-01 -9.045517374834816104e-01 -6.871984273682438804e-01 3.087778072736864776e-01 -6.575823805105084352e-01
1.201520898994123780e-02 -3.825315555092421160e-01 -1.021088745667014352e+00 7.530193437849835858e-01 -2.093118072483168557e-01 6.238192328167484479e-01
3.960981318048976962e-02 -5.113411829850871698e-02 -9.000722026630142425e-01 -8.320132847922421249e-01 2.757395463688344650e-01 -4.813746944922769333e-01
1.520880961161233218e-02 -3.498915480859686178e-01 -1.007237019662267086e+00 -5.664131634443836383e-01 -3.843007141603093646e-01 7.290329823628027839e-01
-2.535405946057669307e-02 -3.359706514046201242e-02 -8.288110645000615895e-01 6.930424293363699473e-01 -3.622893131867265804e-01 6.232484614423312586e-01
4.069143330707360867e-02 5.009239924201559085e-02 -8.734767822326519049e-01 7.751980259111488358e-01 -3.321052324506508779e-01 5.373770884605680864e-01
-3.305617450670341601e-02 4.059053211973654568e-02 -7.473047559382965943e-01 -6.820935142894229974e-01 3.808713938869887072e-01 -6.242478827219901660e-01
-1.120262139565635084e-02 6.999084394669371004e-03 -7.929104720402393447e-01 -6.945296010976185208e-01 3.747686391549866491e-01 -6.141474581117327691e-01
-3.567189350681433668e-02 1.318955152232125644e-02 -7.891204161926136385e-01 7.105703251333221893e-01 -3.650644301636156719e-01 6.015129049897761648e-01
-3.271304381873974682e-02 -2.202431063628027333e-02 -7.854232285157850546e-01 -6.861261567789137539e-01 3.718321703166213577e-01 -6.252773257534843809e-01
-6.725711649426559247e-02 3.824724268377843045e-02 -7.328167933195079975e-01 7.999926863839416091e-01 -3.417094210187811010e-01 4.932001351573355730e-01
1.291580983096001119e-02 1.465502630038675314e-01 -7.637133178241212184e-01 8.181397780257667618e-01 -3.543936082123508857e-01 4.528272011155911048e-01
-1.514431138382945664e-02 -1.119015336937202454e-01 -8.558147656953282167e-01 -6.846419022731878856e-01 3.415014267447716856e-01 -6.439272017728684405e-01
5.090472410346474214e-03 2.508836979938847134e-02 -8.333612508795081864e-01 8.125932612358326423e-01 -3.119941794605142205e-01 4.922924169402519423e-01
-3.036171450648535858e-02 1.301409480340595948e-01 -6.967122613596482550e-01 -5.362445596930086600e-01 4.152093198034870203e-01 -7.348761752485768461e-01
4.000858764586681660e-02 1.116027270701728386e-01 -8.334510340791501104e-01 7.709772518919291162e-01 -3.464075988065301037e-01 5.344116882650143951e-01
-1.896141425793279947e-02 1.243256746375323157e-01 -7.367586389540043967e-01 6.672246670020740567e-01 -4.339871397938589448e-01 6.053646886278692962e-01
-5.645945471924286585e-02 -7.148553575902513724e-02 -8.141445421115255376e-01 7.370008054532131148e-01 -3.318218035596328108e-01 5.888328314927316898e-01
2.012401152807778357e-02 4.301505613256949995e-02 -8.463812860337875943e-01 7.994783059852297313e-01 -3.167277743644414389e-01 5.104095955261175321e-01
4.310625636250958043e-02 8.521836848242779483e-02 -8.223819818981564778e-01 -8.311276205244761961e-01 3.033167394525310701e-01 -4.660749231284687655e-01
5.929271158636328920e-02 1.204884290072665148e-01 -8.374371740168558009e-01 -9.423909101256393583e-01 1.582056289817828088e-01 -2.947377672967071427e-01
-2.380899172915271894e-02 -6.756730197977148245e-02 -8.496104193144768946e-01 6.891433975219828367e-01 -3.529657139842495850e-01 6.328479931258751412e-01
-5.082784110942698691e-02 1.745306699749034351e-02 -7.683380430803998795e-01 7.186084107734034276e-01 -3.616382549318570838e-01 5.939862999561225099e-01
3.295693962657768317e-02 1.786129830594377355e-01 -7.387449498336692288e-01 -8.418262758410057778e-01 3.252459643177763593e-01 -4.307477034165855811e-01
-6.551857773324375363e-03 1.695858545664842010e-01 -7.162503350594119356e-01 6.726056761393505168e-01 -4.801458680856090511e-01 5.630821874162282858e-01
-2.410090942456142790e-02 6.746038306027429821e-02 -7.402151280807737210e-01 -6.701801285510793349e-01 3.932877181823380419e-01 -6.294309859088516035e-01
-2.284595355475813397e-02 2.445668696816233334e-02 -7.685995843388938598e-01 -7.075080593727103295e-01 3.689956843033467271e-01 -6.027225986207641606e-01
-3.157890446961045261e-02 1.907321740059880755e-02 -7.903574476146604244e-01 7.038303846426852139e-01 -3.720717719826483472e-01 6.051325360178728685e-01
-5.574524626676023720e-02 -3.484357430964483970e-02 -7.938274942185611360e-01 7.207351275040628780e-01 -3.546433533335779931e-01 5.956248550203538938e-01
2.532829715949559690e-02 1.785430873222670078e-01 -7.249550505274432455e-01 -8.107114069593878147e-01 3.507182168861383564e-01 -4.687683297431023410e-01
3.729105562103732924e-02 4.294505303426436604e-02 -8.727990347448971731e-01 7.908341178324822529e-01 -3.214008672038118353e-01 5.208482318610264672e-01
-3.076992082912313742e-02 5.288772791305327431e-03 -7.711938188434236396e-01 -6.822154024367932390e-01 3.771571455637195980e-01 -6.263662125531929137e-01
-7.518334380211614577e-03 -2.982841185221791688e-02 -8.471045513525354842e-01 7.216378442004309779e-01 -3.378446289593440288e-01 6.042349116867363756e-01
-3.840808902775637041e-03 9.643242308215403680e-02 -7.734974353342296549e-01 7.196789607926220578e-01 -3.894413193390121597e-01 5.748022722501548998e-01
1.405349019778542007e-02 -1.285725786291491424e-01 -8.990029167635179563e-01 -8.217844974500764232e-01 2.536456234386440522e-01 -5.102294948953334242e-01
5.072104565005790960e-02 1.408906691523851284e-01 -8.017549201819759164e-01 -8.970104522715782736e-01 2.323088202726524554e-01 -3.760383764179757726e-01
2.127210725662328009e-02 1.443719116443859252e-01 -7.435230326448539762e-01 -7.934879433742669796e-01 3.570569748609264127e-01 -4.928358757465207129e-01
2.637739797230942082e-02 -7.606834783892496565e-02 -8.920955627012716604e-01 -8.217956826664972736e-01 2.669335237028320207e-01 -5.033868789254398735e-01
3.453197671954984227e-02 3.865872951685461745e-02 -8.377338756950805099e-01 -7.994509733750364555e-01 3.174538953082206572e-01 -5.100011426686656968e-01
4.282891479715622736e-03 -3.683089695450585815e-02 -8.686657149946267475e-01 8.180911090368648830e-01 -2.828606335644378023e-01 5.007162862283965898e-01
4.548854982800868557e-02 -6.764850435997624145e-02 -9.442841113212739890e-01 3.042631469867883576e-01 -3.589868067867712509e-01 8.823561695476118683e-01
8.782224791515986367e-03 -4.128270316407092744e-01 -1.026897825062295322e+00 9.181371129747905036e-01 -6.963140105343217090e-02 3.900970517264302218e-01
-6.272734522909798049e-02 2.839366969538972395e-03 -7.436827937022058022e-01 -4.784826601364060017e-01 4.229935313642080863e-01 -7.695003680134440138e-01
7.178916078826215116e-03 9.322079392669634090e-02 -7.592530163935902188e-01 -7.197652620114833866e-01 3.885368025407923143e-01 -5.753061104081188537e-01
-1.413547558110179493e-02 1.434237657876223371e-01 -7.284163575317041950e-01 6.804726162227411335e-01 -4.292385423268254008e-01 5.938950179552953124e-01
3.944956955793129522e-02 1.886400291586190214e-01 -7.454330445730141808e-01 -8.644056465040002024e-01 2.805854063702545309e-01 -4.172226120718298126e-01
3.508423703940054261e-02 2.050819103256168174e-01 -7.534888733195985733e-01 6.664159291104126970e-01 -5.809842911036179336e-01 4.672762169410424882e-01
-2.309471350893038482e-04 9.488597253915043161e-03 -8.038221752311444090e-01 -7.149135020168283505e-01 3.661473322870071878e-01 -5.956801286707007481e-01
2.854204462255678990e-02 -9.106089336893669062e-02 -9.035795932179455647e-01 -8.217956826664972736e-01 2.669335237028320207e-01 -5.033868789254398735e-01
4.112288706427690704e-02 -7.788099256137549038e-04 -8.725261700425389622e-01 -8.228350212521197138e-01 2.949988858036708406e-01 -4.857140981849475403e-01
-5.365124833618938049e-02 1.542200968284356509e-02 -7.427974191406312432e-01 -5.914868045016128395e-01 3.959337858285247314e-01 -7.024099923406295076e-01
7.664770801279616012e-03 -1.126372681628637629e-01 -8.818703571828583332e-01 -7.908512031221301974e-01 2.720342680025074622e-01 -5.482259858421700827e-01
-3.319703649920485722e-02 -7.612984475496503006e-03 -7.762997540834154497e-01 -6.860817737240620939e-01 3.733825141591847752e-01 -6.244015517948457994e-01
5.605844279385808343e-03 -2.097129762764713690e-01 -9.534635406169220673e-01 7.070446076644422151e-01 -2.199023205393635938e-01 6.721092859007667952e-01
3.806960605970891726e-02 1.996419833336067762e-01 -7.377419256837860484e-01 -9.462491564574566638e-01 3.707553452067332417e-02 -3.213066115777236109e-01
5.488023955006601090e-02 9.241343745712042590e-02 -8.659950183248747990e-01 7.071905655816751457e-01 -3.921632062433534349e-01 5.882937392333897897e-01
1.730516215790178780e-02 -2.116835120761407785e-01 -9.480919130643787884e-01 -9.080792889992349570e-01 1.835668284934494632e-01 3.764242611303114106e-01
-6.515393429416202475e-02 -8.644611363807772064e-02 -8.114146995699428322e-01 8.014989995536551115e-01 -2.812049540038687456e-01 5.277529038841686226e-01
2.907835838795744254e-02 -2.094515136635160396e-02 -8.652426780598622136e-01 -8.024623225019779094e-01 2.985690535731685968e-01 -5.166340496068316801e-01
2.090641544124668960e-02 -8.497024627716513734e-02 -9.216877106033843914e-01 8.058719307203975335e-01 -2.837771846499312356e-01 5.196546360316030011e-01
4.936188630114645565e-02 1.838213336694841937e-01 -7.768269722385486853e-01 -9.452844535831219641e-01 6.941251780598525767e-02 -3.187776720316097268e-01
3.738092512463540851e-02 -6.510479416995031132e-02 -9.350638664445447557e-01 7.769850477181511339e-01 -2.999784850879691489e-01 5.534502182732876641e-01
2.688354358032759781e-02 5.937199968047334603e-02 -8.467840540327185028e-01 7.924980919705129079e-01 -3.214666072022285270e-01 5.182721241558191361e-01
-6.300154940811789062e-02 -1.107626669802725949e-01 -8.270822233619821162e-01 8.019337641624242341e-01 -2.684034386955479468e-01 5.337244907184707232e-01
-9.075644306724819921e-03 1.403044543914453435e-01 -7.364497390703963475e-01 6.778706987368684489e-01 -4.311711244394712539e-01 5.954685358972311437e-01
-4.075732195054658502e-02 5.357882854914286508e-02 -7.319727681655667784e-01 -5.806715949398587595e-01 4.018538141079752157e-01 -7.080494410116244808e-01
-3.355173667048210861e-03 1.743655022035371371e-01 -6.927464969292944641e-01 -5.813323240896066668e-01 3.746957180181449965e-01 -7.222574664670788902e-01
2.296788923536170757e-02 -9.945902921698940302e-02 -9.321476150517526982e-01 8.058113577379985015e-01 -2.649378095842169212e-01 5.295998610207148793e-01
-2.819481388342029091e-02 1.256830939676562287e-01 -7.008121782254922438e-01 -5.362445596930086600e-01 4.152093198034870203e-01 -7.348761752485768461e-01
2.124987990750152808e-02 1.454996165349390636e-01 -7.796768701609728680e-01 8.181077629523080263e-01 -3.496288959310301370e-01 4.565734588510588776e-01
1.737600521222747510e-02 -3.376845564504175456e-03 -8.702553095608921430e-01 8.053968753554426874e-01 -3.028791185978638723e-01 5.095096786961668123e-01
4.363126148718697583e-02 2.006157304023121479e-01 -7.663375688728251145e-01 -7.679903507513871075e-01 -6.050469302759072798e-01 2.100215067950496062e-01
