4.568723981599986245e-02 1.739481736792854449e-01 -8.436146705832548998e-01 -8.296467922723906874e-01 -2.808189875179107342e-01 4.825213946775293028e-01
4.484879281797952283e-02 8.353186482767441245e-02 -8.594708928958034733e-01 6.013539190611544294e-01 3.093882932788648010e-01 -7.366494064422922650e-01
-4.359719407044878453e-02 -2.356033598345584623e-02 -9.718138058234961907e-01 4.777849267475780537e-01 3.859143640813059162e-01 -7.891715069416359585e-01
1.642449420944937363e-03 -1.241718577655442773e-01 -9.941944791705862317e-01 5.881371424747904308e-01 3.853097741501272933e-01 -7.110774075907390079e-01
4.153433245056676465e-02 5.962754809132100528e-03 -8.961606218973211524e-01 5.906357680922256215e-01 3.331023203051284853e-01 -7.349777096330514237e-01
-6.704781015131905386e-02 -6.698442339871266138e-02 -1.008055169247221050e+00 5.186279432326836858e-01 3.871345716199549591e-01 -7.623331817223162332e-01
-3.026117315800328986e-02 -8.677617536654756714e-02 -9.952444370846432742e-01 4.595778440162149869e-01 4.053152955038266114e-01 -7.902580062992422549e-01
5.110471497690740467e-02 -1.225348583020437754e-01 -9.719732156302134385e-01 -7.426715381114400438e-01 -2.712606731908409063e-01 6.122553663784741085e-01
-1.961348887065477928e-02 -8.928194037249709281e-02 -1.012166853446200498e+00 -4.534042764436839179e-01 -4.088819252969541074e-01 7.919849324753819308e-01
8.083584780841922279e-02 2.917939790897294480e-02 -8.641374862214279418e-01 -8.667196467723374820e-01 7.242194123688097673e-02 -4.935099961766896692e-01
-8.076487713623433165e-03 -1.666901321509386968e-01 -1.025242484105586049e+00 4.939560385871459847e-01 4.324330101751279187e-01 -7.543269341964210506e-01
4.856756769741224500e-02 -1.699320248521875298e-01 -9.948839292513319554e-01 -8.205365863274314275e-01 -1.516838809973612145e-01 5.511004543127359101e-01
-3.923049008574257257e-02 1.523859051366583117e-01 -9.109374754847699984e-01 -4.143170251052531450e-01 -3.657002127173859529e-01 8.334295153919085708e-01
5.458232201502357522e-02 1.921811886006739509e-02 -8.796825517134054806e-01 5.884102507000936733e-01 3.350017815386318043e-01 -7.358988947110842727e-01
6.644480183552189945e-02 -1.210973543277165249e-01 -9.514570594553292127e-01 -8.033177886815592306e-01 -2.121769634289641659e-01 5.564723412514172018e-01
2.026418689540307114e-02 7.568470352020315040e-02 -8.831836503571998120e-01 6.192506233639919477e-01 3.087527965649825012e-01 -7.219420863730064974e-01
1.715052749600899304e-02 -1.902531375108504896e-01 -1.017122258356828457e+00 5.934278251489781830e-01 4.145918632315088725e-01 -6.898963714074596298e-01
3.093965955966228656e-03 -3.980220918273709163e-01 -1.171162102845029196e+00 9.968495847517321318e-01 -1.586372763414530332e-02 7.771259567051515271e-02
-4.487358986934994465e-02 1.066499347036210452e-02 -9.564680011544893778e-01 4.858231048256748674e-01 3.709697893711906835e-01 -7.914273979282214766e-01
3.777862994620020953e-02 -1.941383713071394290e-01 -1.008833108635702969e+00 -7.621958773978303459e-01 6.333341771759013472e-01 -1.339599361700188618e-01
5.610280744082205007e-02 -9.483502282117516058e-02 -9.323123201772887114e-01 5.698663749714851789e-01 3.718794899824138800e-01 -7.327741532063465346e-01
-6.588152304451090624e-02 5.707146614919802758e-04 -9.744029184276948863e-01 4.982729937510764207e-01 3.670016664688561248e-01 -7.855149906318925623e-01
3.845105984384800807e-03 -3.723880108545446488e-01 -1.158126920354482170e+00 9.309181190570208209e-01 -1.870550486109820998e-01 3.136907145589130086e-01
-3.117630434965749237e-02 -1.901066593969730767e-01 -1.060525386647128920e+00 5.760751761739885124e-01 2.008257254963991545e-01 7.923423624765705275e-01
3.385187652757734589e-02 -1.824630588391532859e-01 -1.020670175437408789e+00 -8.167135311056067382e-01 -2.016103262027795218e-01 5.406776160314205049e-01
3.787338301622576037e-02 -1.175132472211454920e-01 -9.583459593322253278e-01 6.080755554829511134e-01 3.577396577992706383e-01 -7.087075956004431632e-01
1.097345212731138699e-02 -5.095834235200027290e-02 -9.485538006596985205e-01 6.201586872368585190e-01 3.444970000629576923e-01 -7.047872158263647213e-01
-4.830555909022250793e-02 -4.755559556803934385e-02 -9.864232417104715767e-01 4.888090577649940038e-01 3.840300931229350678e-01 -7.833176830781292121e-01
-4.786117039841602389e-02 1.501817654727127249e-01 -8.970817287818737551e-01 4.755891231485502302e-01 3.191344728320226198e-01 -8.197366492923323644e-01
3.370333289039414981e-02 -1.654931699657363475e-01 -9.877090606097236325e-01 5.585720131526565879e-01 4.557154335987764204e-01 -6.930517655287138368e-01
-8.394816115644976318e-02 9.263622433876114726e-02 -9.491137568539598224e-01 7.970731044177027380e-01 -4.106622905045452798e-01 4.427538247959991735e-01
-5.210632840394692836e-03 1.042372861698740993e-01 -8.915909736750812220e-01 4.978416649708391484e-01 3.299479889691739887e-01 -8.020523681121203285e-01
-1.412024632348271060e-02 1.035147463765126868e-01 -8.972499434484546565e-01 4.513159107307558870e-01 3.417899830369086067e-01 -8.243139912781403122e-01
2.355253370983908384e-02 -1.874504791325591613e-01 -1.009855777419977896e+00 6.115109672728464840e-01 4.061686113312675261e-01 -6.790297460894163528e-01
2.564498376393729157e-02 -3.128957329148659983e-02 -9.504957896983999843e-01 -6.199795789097153342e-01 -3.333787342600733061e-01 7.102703297182583198e-01
9.263699688393276649e-03 -2.819338865492004298e-01 -1.100967640266601988e+00 -5.426285810195617954e-01 -4.571391836237024831e-01 7.046829002158004895e-01
-6.264902921482894127e-02 1.515239888200632656e-01 -9.186998966027374314e-01 -2.108155197254832358e-01 -4.652661000276095415e-01 8.597001063207870830e-01
2.795742803131183452e-02 1.077180470879869623e-01 -8.634574775727100748e-01 6.279903716750522280e-01 2.914963014082752046e-01 -7.215663513140879726e-01
-1.260078245896594472e-02 3.999329729049625609e-02 -9.238855930224482149e-01 4.910866159454543856e-01 3.581631738323846070e-01 -7.940737223643371534e-01
1.677253649705768429e-02 2.408005059212342883e-02 -9.085309602376958615e-01 6.175905821448265387e-01 3.202362914013320294e-01 -7.183526922866897424e-01
-7.674366755464946677e-02 -4.818392330708419317e-03 -9.999728797249007872e-01 -2.031000576723767104e-01 -3.986745548080890544e-01 8.943203933278325302e-01
4.179381550614200830e-02 1.203483429161510271e-01 -8.468990399913841616e-01 6.054924248794072428e-01 2.804587092373755364e-01 -7.447965063200556735e-01
-6.117036654524220934e-02 1.247455745583152115e-01 -9.158440834171664990e-01 5.157286076377112227e-01 3.300017675286857077e-01 -7.906470999706575187e-01
-1.619268736130244704e-02 -2.006342219465088728e-01 -1.050261824242859188e+00 4.560383567955390571e-01 4.665228093537083787e-01 -7.578822372136374552e-01
6.284182116236024240e-02 -9.627291157330161719e-02 -9.283466610035738809e-01 4.840618511676516578e-01 4.128799492975267493e-01 -7.715013102465982930e-01
2.254031587089616248e-02 1.743332653215544370e-01 -8.449900012736566435e-01 6.535987333731546611e-01 2.024587158531118980e-01 -7.292593256915653743e-01
6.261601558668741796e-02 1.310690090703149902e-01 -8.294664732453904676e-01 -5.977526170522678983e-02 2.171437501983386753e-01 -9.743077079844298938e-01
-2.375035477712479290e-02 -9.431613354130315152e-02 -9.953438163185173160e-01 4.453285860413121466e-01 4.128751032532981258e-01 -7.944914093733322913e-01
5.637180397338022869e-02 -3.398741312867238629e-02 -9.027181204695755579e-01 5.681002412728949347e-01 3.482564999301044906e-01 -7.456403463615093319e-01
4.944065995601286184e-04 -1.528261044228126919e-01 -1.034589098058931400e+00 -4.939390266908103566e-01 -4.332074407786800641e-01 7.538935940606745767e-01
9.150810187837006907e-03 6.443291411766753629e-02 -9.209869621444924936e-01 -5.872399926624698452e-01 -3.191199675906482014e-01 7.438492033354112687e-01
-7.563688742300647000e-03 1.168455753491297044e-01 -8.878647343442059858e-01 4.978806820128354182e-01 3.299495210494513553e-01 -8.020275182546239279e-01
-2.356646655426729645e-02 9.274939053853498150e-02 -9.283636098373798662e-01 -4.726196010418169391e-01 -3.514471160799609306e-01 8.081557011555089431e-01
5.291549748509875861e-02 1.307031057308279953e-01 -8.346753226399394876e-01 5.683816379832919985e-01 2.820337107526337261e-01 -7.729161012700730415e-01
5.413884084753418924e-02 1.693149956540014323e-01 -8.265968500550322506e-01 -8.681665440404521261e-01 -2.814709208096728421e-01 -4.087309292767214441e-01
5.154945880306698730e-02 1.650186953618246466e-01 -8.397745901673681068e-01 -7.635597221056181771e-01 -3.119600272688351494e-01 5.653826068817636719e-01
-3.425075916597192433e-04 2.772689527066320853e-02 -9.436054624502079324e-01 -4.911615412350737730e-01 -3.596309180381588311e-01 7.933636891127662238e-01
-8.150732754553551007e-02 5.032200702764040232e-03 -9.966636605749290556e-01 -2.092859736061346287e-01 -3.970767562854243815e-01 8.936047397309270224e-01
-4.628504136126383728e-02 1.898719623458805517e-01 -8.930442687883092256e-01 -1.833993465784480859e-01 -5.273021780855975393e-01 8.296487766885352055e-01
1.646706474781697502e-02 1.731581924345169388e-01 -8.714209280773164146e-01 -5.880858640048187702e-01 -2.863783957681753090e-01 7.564009723651550221e-01
7.635859453653191797e-02 6.860538612940722536e-02 -8.525324281708894780e-01 -9.257526753123397345e-01 -2.159137676911115633e-01 3.104242726873568947e-01
-2.536717864589048410e-02 1.274639742095842569e-02 -9.653744027669020067e-01 -4.858530457149316528e-01 -3.726854680821665156e-01 7.906025296252858769e-01
5.937751463136450858e-03 -3.096734139054442836e-01 -1.121656583770390458e+00 -5.422913048933306612e-01 -4.632319673207087041e-01 7.009538394853649379e-01
6.410548078682415385e-02 4.292820178245947138e-02 -8.829297851042539058e-01 -7.277998161046680403e-01 -2.937798964071087759e-01 6.196779810071033623e-01
-2.397915688864069375e-02 4.532324308054409834e-02 -9.280745923365937289e-01 4.635515475357619430e-01 3.651348764193410590e-01 -8.073391386520490931e-01
-2.723314944623572362e-02 1.999688141038497569e-01 -8.681657569207089642e-01 4.173726351330050988e-01 2.799879465087289909e-01 -8.645269418890056956e-01
3.733930795107844036e-02 -5.833502907374274460e-02 -9.535995579760511154e-01 -6.036091171112483167e-01 -3.463103863976066954e-01 7.181400629496446086e-01
-4.567510489426324094e-02 -3.570802531149985803e-02 -1.000384613174637671e+00 -4.367709869276748536e-01 -3.894845784054205007e-01 8.108840041353488903e-01
-9.797977098644959637e-03 1.151508827153177594e-01 -9.110488769925544350e-01 -4.578586839559430355e-01 -3.433254799069577201e-01 8.200567299722555381e-01
-1.277171176922150576e-02 7.990512105208234794e-02 -9.277006564979523029e-01 -4.632557702166922864e-01 -3.539806692530587107e-01 8.124603234349943026e-01
7.433772984226487412e-02 -1.901140151537819567e-02 -9.002461363621045987e-01 -7.127608124826398939e-01 -2.806324235667358447e-01 6.428199335989412955e-01
6.529636741765623698e-02 -5.386834298816862293e-02 -9.052040594498369508e-01 5.681002412728949347e-01 3.482564999301044906e-01 -7.456403463615093319e-01
8.061210577903914209e-02 3.222162894592476429e-02 -8.650853924828733055e-01 -9.349779890927505388e-01 -2.073686515120298501e-01 2.877749160058236111e-01
-2.932733809049080376e-02 9.744289219565926974e-02 -9.296915509554783963e-01 -4.726196010418169391e-01 -3.514471160799609306e-01 8.081557011555089431e-01
-3.002547074162761551e-02 7.106496707920161027e-02 -9.202025491709255878e-01 4.726298162510331191e-01 3.526655371273396677e-01 -8.076187687970106666e-01
-1.483908238876567066e-02 -7.797461635710707661e-02 -9.817574107657338622e-01 4.992708987355714001e-01 3.996228846163110138e-01 -7.687848332054380007e-01
-4.792033965799076534e-02 1.275032083193690935e-01 -9.260450608295816011e-01 -3.156913056458600098e-01 -4.092160033039072276e-01 8.560848451991125430e-01
-5.432144323060915381e-02 7.608717849328411331e-02 -9.325160135219365820e-01 4.955032715296819323e-01 3.527627081762164107e-01 -7.937474281051647429e-01
-2.765519168682476284e-02 9.831655733483211923e-02 -9.283337231777407661e-01 -4.726196010418169391e-01 -3.514471160799609306e-01 8.081557011555089431e-01
3.976393517943390549e-02 -1.550878283553044079e-01 -1.000222413301363744e+00 -6.749849186573937398e-01 -3.398957425965980494e-01 6.548788008095686175e-01
1.942106027776486013e-02 1.072305673372478257e-01 -8.710638390762338590e-01 6.230243707981195644e-01 2.931486612752409737e-01 -7.251927300960352429e-01
-7.637346694943332459e-02 -5.913461341040413682e-02 -1.023099153366003433e+00 -2.136046283257897749e-01 -3.877506899984886068e-01 8.966729979002920903e-01
-3.664568374926863159e-02 -9.274570761575945399e-02 -1.023566083446290964e+00 -4.212752885901926980e-01 -4.041897135162818566e-01 8.118853408646297121e-01
3.490955235729656381e-02 6.843175005012246126e-02 -8.740052159477147420e-01 6.069354847728652969e-01 3.148172117550612215e-01 -7.297392962601753075e-01
3.677074186909760206e-02 -1.960968481459851309e-01 -1.013242912891930692e+00 -7.962362761389678578e-01 5.992862508200500482e-01 -8.284794589123740949e-02
1.408391379253808549e-02 1.540853006697047722e-01 -8.806424432242397904e-01 -5.885912280016313280e-01 -2.953473463482933492e-01 7.525492085734678538e-01
-4.407173333467826609e-02 -1.323235195222476623e-01 -1.046566722230977353e+00 -2.793380563039074560e-01 -3.965513137074136996e-01 8.744811638321772218e-01
-2.459534268968159229e-02 9.657238139780888186e-02 -9.059756642096903345e-01 4.578569323887056730e-01 3.423247093769127836e-01 -8.204759733311002279e-01
-1.254334858971186198e-02 1.027393715610162572e-01 -9.177778995096649295e-01 -4.578586839559430355e-01 -3.433254799069577201e-01 8.200567299722555381e-01
6.473477231876260951e-02 6.507195970887359737e-02 -8.716926758566571065e-01 -7.277998161046680403e-01 -2.937798964071087759e-01 6.196779810071033623e-01
5.407587057964341470e-02 -1.504711498489305355e-01 -9.642544153973405807e-01 4.823974923240155199e-01 4.569343593012792359e-01 -7.473310181502107463e-01
1.971776864935388326e-02 -1.844085341024113422e-01 -1.011401692899780214e+00 5.934278251489781830e-01 4.145918632315088725e-01 -6.898963714074596298e-01
1.097111331317375538e-02 -2.849994624586451586e-01 -1.094132436063057989e+00 -8.568166127586606118e-01 2.581313379230750216e-01 -4.463558048046633586e-01
-3.074622029515775012e-02 -1.907096025606073442e-01 -1.056122952966329409e+00 7.142734630138709573e-01 5.617731086890049852e-01 -4.174019578153218002e-01
-3.080462898409152585e-03 -8.253710444613436559e-02 -9.989787917720255317e-01 -4.992725130991979565e-01 -3.973643692950345474e-01 7.699535802101127313e-01
-4.898126097144434726e-02 6.561966908371304197e-02 -9.338347583732243828e-01 4.829922732917620309e-01 3.514617197961068529e-01 -8.019932190850610487e-01
-7.043249364167059046e-02 4.330433217613680746e-02 -9.755484188179502913e-01 -3.494723766122179720e-01 -4.066334053921405456e-01 8.441080094420374547e-01
7.186471926177301350e-02 8.057896461126071164e-02 -8.434089659241928993e-01 -3.044164741433682056e-02 3.049678759343336099e-01 -9.518759902165838671e-01
-2.987120310711694968e-02 -1.415638109685363362e-02 -9.590689690998487338e-01 4.776735170830043731e-01 3.771439092998690734e-01 -7.934673797677916918e-01
5.953234905089044987e-02 -1.509832206461831361e-01 -9.642756130470486742e-01 -8.047129856176954421e-01 5.084338554936892463e-01 -3.064833198823012639e-01
3.587270363153660657e-02 -2.520658876529782710e-02 -9.150827111724026963e-01 6.000626847415120313e-01 3.369575439000874195e-01 -7.255235268339884636e-01
1.561162734098775658e-02 -4.069443115769260100e-01 -1.178861306975961920e+00 -5.375650820440828204e-01 -2.382865155487662312e-01 8.088530886845682888e-01
-8.347508134405536018e-02 -5.005138561513700068e-02 -1.016934999753854596e+00 8.290932990553654403e-01 -7.815090959031968654e-02 5.536214742869861594e-01
-2.508334237851337235e-04 -2.894593179342245248e-01 -1.098955285816425542e+00 5.426723230092628247e-01 4.563084507161546677e-01 -7.051874556773912728e-01
-4.927293092781184769e-03 -5.909010739296118031e-02 -9.659376807882513738e-01 4.992322412146569244e-01 3.860457488470055987e-01 -7.757163457920333016e-01
-6.407040183358106433e-02 -9.570603566253432781e-02 -1.020628213741196388e+00 5.169309262388720461e-01 3.878716881428201924e-01 -7.631107200367851506e-01
-7.585809604016206624e-03 2.436715686785811616e-02 -9.495098631909054676e-01 -4.635857857457885700e-01 -3.666214990664219409e-01 8.066454584740122558e-01
1.121269198778301023e-02 -2.320784779103408635e-01 -1.057137677999125946e+00 -7.588872308108233211e-01 6.275687537718550590e-01 -1.739184584842019266e-01
3.789680652996398058e-02 -1.464620780658619226e-01 -9.976699224917191522e-01 -6.749849186573937398e-01 -3.398957425965980494e-01 6.548788008095686175e-01
7.605145755387428264e-02 -7.177878839083232099e-02 -9.099638388695991953e-01 -8.101155645821408458e-01 4.034584122576283516e-01 -4.253634699880948777e-01
-1.186674271709595857e-02 -1.633897747925507349e-01 -1.025832461553604746e+00 4.939560385871459847e-01 4.324330101751279187e-01 -7.543269341964210506e-01
7.891876057289338997e-02 -6.462296785594787152e-02 -9.086651174050517366e-01 -8.111006346930301758e-01 4.037649179127566490e-01 -4.231898527416134703e-01
-3.323485047567634187e-02 -5.350505340360305756e-02 -1.002005075132001766e+00 -4.733547480691690512e-01 -3.885399749089287202e-01 7.905516873539276679e-01
5.162804819164720435e-03 1.571116137679882396e-01 -8.640688487491482439e-01 5.800578926897095311e-01 2.806164537881782328e-01 -7.647138333989523806e-01
3.102615492592949650e-02 1.751112531706230935e-01 -8.373174674621434166e-01 6.491449701357567825e-01 2.109829873051672355e-01 -7.308193941154236262e-01
-1.319522343556487828e-02 2.202392620845610993e-01 -8.674791861810232652e-01 -3.753275026174507367e-02 -5.853063729196943399e-01 8.099430489098483621e-01
-8.032237862359446756e-02 1.023631791140890285e-01 -9.390702101649419653e-01 6.013727461672989660e-01 3.021568581612349425e-01 -7.396296730346427761e-01
-9.667522315567078986e-03 -1.426231139908376577e-01 -1.035039353767924553e+00 -4.529847306022760089e-01 -4.403661051385430181e-01 7.751661288306480602e-01
-6.659720490617604405e-02 2.532471006035441358e-03 -9.739403392176204655e-01 4.982729937510764207e-01 3.670016664688561248e-01 -7.855149906318925623e-01
-4.761201833667710881e-02 -5.107698210331200472e-02 -9.877168540196160640e-01 4.888090577649940038e-01 3.840300931229350678e-01 -7.833176830781292121e-01
3.465751058926822697e-02 -9.186559512958270002e-02 -9.724775363736127831e-01 -6.118601420468262608e-01 -3.558557566818242868e-01 7.063949653068345436e-01
1.372516584587166188e-02 -1.345195746671065951e-01 -9.889235535723476245e-01 6.365013894116374749e-01 3.686151357771978998e-01 -6.774871681094875031e-01
-3.214724219205485067e-02 -3.503191406872325359e-02 -9.923446525916757022e-01 -4.823044835402154895e-01 -3.824260914521928623e-01 7.881197052057541397e-01
-5.111911083660614086e-02 -1.497043634255161293e-01 -1.042878528662966042e+00 7.311675842114553348e-01 4.905441833065200541e-01 -4.740889874512207447e-01
4.352668086053324698e-02 -9.518789190939375361e-04 -8.977043721948997357e-01 5.884102507000936733e-01 3.350017815386318043e-01 -7.358988947110842727e-01
-6.160414740723489657e-02 -7.491906248615043395e-02 -1.026084443448835870e+00 -3.295919714539531364e-01 -3.930102962515066300e-01 8.584358097105452279e-01
2.491975540657242680e-02 1.155958007551185773e-01 -8.868343715784513526e-01 -6.286233588703024067e-01 -2.899705825729584352e-01 7.216299147935304470e-01
-1.779011321928623476e-02 2.293464355794270770e-01 -8.585836481084377914e-01 3.540002082906324454e-01 -8.183871890536245086e-01 4.526878188366633693e-01
4.911938025538955394e-02 1.310764069041898960e-01 -8.589234494963696731e-01 -6.610525008466977548e-01 -2.922403175258064811e-01 6.910898551829148806e-01
9.417950970654412335e-03 2.583925631383156632e-02 -9.377560074773281240e-01 -5.947473558668965321e-01 -3.287891964632018160e-01 7.336029218715102163e-01
3.771952563157821015e-02 1.767085075431291952e-01 -8.312709033109796364e-01 5.693247725284324989e-01 2.194507873703522571e-01 -7.922819291817659870e-01
-1.958134010567061378e-02 -1.168399414275028414e-01 -1.026734625908470200e+00 -4.413007218173221613e-01 -4.241926864084853976e-01 7.907681314526164851e-01
3.182217211273904306e-02 -7.127827715026649469e-02 -9.404560581874312764e-01 6.077636684284719593e-01 3.472161399515197311e-01 -7.141878432846172631e-01
4.603484079543334467e-02 -9.236296288642166508e-02 -9.623317476948404225e-01 -6.436866240703735809e-01 -3.349120111922856413e-01 6.881144343436080835e-01
1.281743842859310676e-03 1.658635664050198411e-01 -8.842995377433163773e-01 -4.898495399153708352e-01 -3.229203632877762353e-01 8.097961886911977381e-01
3.395091009864623782e-02 3.659570701474670201e-02 -9.122913919530338811e-01 -6.032001029143000403e-01 -3.266139508520292667e-01 7.276489283665621421e-01
1.265016319124178529e-02 -3.288464036551796282e-02 -9.383379109431051468e-01 6.200074177489999228e-01 3.347836933458486763e-01 -7.095848649780590600e-01
3.328827788894697659e-02 -1.713780546024940565e-01 -1.015876306321759293e+00 -6.748762071585342470e-01 -3.543450384069136705e-01 6.472879566064195789e-01
-7.791877120184766137e-02 -8.243467676560387036e-02 -1.024779766826662053e+00 8.978375342191894370e-01 2.827311976444219499e-01 -3.375660409842152765e-01
-4.199587735540928624e-02 -9.571092225514442331e-02 -1.027858296005964567e+00 -4.213114875616074673e-01 -4.148388754203954920e-01 8.064771155392861379e-01
4.316777712206416179e-02 -9.374496683275503409e-03 -9.255413324604762071e-01 -6.000996661246792430e-01 -3.386711264635871022e-01 7.246945969282050370e-01
-3.480199047959302988e-02 -8.124184154222312271e-02 -9.950470251151749546e-01 4.733857995736840407e-01 3.972377251903589923e-01 -7.861984955770219274e-01
5.069077844938175981e-02 9.097614865593690869e-02 -8.743796934578142999e-01 -6.429057039593064626e-01 -3.038764795755863890e-01 7.030870081130332627e-01
4.059189327968378003e-02 -1.160685092916096811e-01 -9.553279038625287489e-01 5.977989666720089357e-01 3.582166261984964239e-01 -7.171591484188464261e-01
1.912071601428507947e-02 -4.175073586214007870e-02 -9.369094347334482320e-01 6.077636684284719593e-01 3.472161399515197311e-01 -7.141878432846172631e-01
6.265306277150496130e-03 6.683292917185214288e-02 -9.220753162176998918e-01 -4.907904897035585412e-01 -3.475856934800838349e-01 7.989423514275048044e-01
5.626971721421996503e-02 4.429391648262226422e-03 -9.077899142113449171e-01 -6.271095103263122361e-01 -3.237786372674364976e-01 7.084497555278954639e-01
-5.879659252984789641e-02 9.634919924738534480e-02 -9.263046747239610523e-01 4.955032715296819323e-01 3.527627081762164107e-01 -7.937474281051647429e-01
3.701798472933035683e-02 -1.919670173398011215e-01 -1.004867924529088796e+00 -3.557900731206157796e-01 7.877567922572166204e-01 -5.028445685512049623e-01
3.715200973852136879e-02 -6.152996804906998851e-02 -9.312449437180786438e-01 5.977357773476804637e-01 3.515996313903393955e-01 -7.204787572751478741e-01
-4.321569339466636156e-02 1.086226779680636439e-01 -9.323252826930741310e-01 -4.363156376700205175e-01 -3.653839890718515448e-01 8.222671128377591065e-01
3.058295005888264292e-02 -4.062336047804553790e-02 -9.266697449483322080e-01 6.076219503820265988e-01 3.384547088037902496e-01 -7.185012007662087141e-01
-2.181546257397804379e-03 1.226339890266354149e-01 -8.821423009025323170e-01 4.978806820128354182e-01 3.299495210494513553e-01 -8.020275182546239279e-01
5.674563680329550164e-02 -3.652264509683906396e-02 -9.036173965000988684e-01 5.681002412728949347e-01 3.482564999301044906e-01 -7.456403463615093319e-01
-6.596953322250967422e-02 1.132337515456286609e-01 -9.393769356459846787e-01 -2.039835655243875667e-01 -4.475374059301002183e-01 8.706899421087361812e-01
4.501012105422324931e-03 -6.630943870399692852e-02 -9.617752179522974787e-01 5.881468451206598447e-01 3.572949296266333952e-01 -7.255505646319306834e-01
6.085971441665894571e-02 1.468086720456837913e-01 -8.263975009216184553e-01 -1.236695404252827757e-01 1.336522629737372375e-02 -9.922334480841789039e-01
2.417360263527402672e-02 -9.961429074534984551e-02 -9.611209477896457409e-01 6.118844526984098531e-01 3.560028905475338123e-01 -7.062997653034920331e-01
-9.582650467175789222e-03 5.233646855568169221e-02 -9.164568649800449718e-01 4.984091008141784962e-01 3.444386574256207423e-01 -7.955817868053778330e-01
9.556079889554180626e-03 8.278651928510960545e-02 -8.894381060916125570e-01 6.235765152523957688e-01 3.054624028948669245e-01 -7.196145148920862766e-01
-6.624649074525867931e-02 1.446877123898198947e-01 -9.232522260770227307e-01 5.385598321819997508e-02 -5.047188206113786269e-01 8.616022546350837752e-01
4.492213174811606619e-02 1.015035965436238696e-01 -8.754028519714406320e-01 -6.609861845110801548e-01 -2.906768677072222307e-01 6.918122740060357323e-01
7.539051991776793242e-03 -4.118384486443538717e-01 -1.177533713397255877e+00 4.967474701756562361e-01 7.148718360896552104e-01 -4.921384041505913465e-01
-3.255019468578325414e-02 -1.081685363480735101e-01 -1.007620347562972585e+00 4.595438376072293329e-01 4.182743057344359694e-01 -7.834960539017385983e-01
3.183426245928643733e-02 -1.306215244767523487e-01 -9.952217358546585624e-01 -6.295474892048000815e-01 -3.665031768907442977e-01 6.850878630985398621e-01
1.147164949136780451e-02 -3.586691686841281812e-01 -1.136501822691188490e+00 -4.754354599517303104e-01 4.245244708653185817e-01 -7.705453244663859058e-01
4.618371501442809779e-02 -3.623701495319580496e-02 -9.355290709905140778e-01 -6.312773348678484275e-01 -3.260856994278079068e-01 7.036739608020348147e-01
-3.580312819203344821e-02 -1.591786706237974525e-01 -1.037653365631719948e+00 4.724176024585921008e-01 4.475814268352321101e-01 -7.592710156718834869e-01
3.783743846523138221e-02 1.357999551766033430e-01 -8.676474084871159675e-01 -6.223201989865727590e-01 -2.885956148784696307e-01 7.276195029039767004e-01
8.887661201587768872e-03 -1.274967635131697974e-01 -9.896473516948924853e-01 6.365013894116374749e-01 3.686151357771978998e-01 -6.774871681094875031e-01
1.471997969253530103e-02 1.416178678768498511e-01 -8.621246438390630651e-01 6.297323252487894152e-01 2.627284191678991854e-01 -7.310341827153430394e-01
-5.815142235126585790e-02 -5.209178809693554985e-02 -9.947912151705514683e-01 4.888090577649940038e-01 3.840300931229350678e-01 -7.833176830781292121e-01
2.519256221946548913e-02 1.936931373983398763e-01 -8.374489271076984709e-01 6.506781240069535732e-01 1.778551558616405792e-01 -7.382313475274692172e-01
-2.425099166574787302e-02 1.033269050959920339e-02 -9.441418055554260391e-01 4.661515230720746361e-01 3.807149087952941269e-01 -7.985980940113592830e-01
-2.254073087896356006e-02 -1.273334282692261676e-01 -1.012240345559761057e+00 4.452667289306385112e-01 4.255502390699609228e-01 -7.878099606725648130e-01
5.446817269410010598e-02 -1.671039988843894541e-01 -9.778020831797674672e-01 -8.203927905223512562e-01 4.966154706881684144e-01 -2.834232586294188616e-01
-5.001106397106890034e-02 4.425293125424713953e-02 -9.653152420009911694e-01 -4.554350732227226417e-01 -3.748908096001999368e-01 8.074873218546034792e-01
6.459858971670139928e-03 -3.131442462215018319e-01 -1.123546388840697130e+00 -5.422913048933306612e-01 -4.632319673207087041e-01 7.009538394853649379e-01
-1.412887324895140996e-02 -2.134019763249405677e-01 -1.056942531409770458e+00 5.947573495796117937e-01 4.718065073139321441e-01 -6.508934742162224563e-01
-3.011960189334672577e-02 -5.022688919992092382e-02 -9.985286224353965290e-01 -4.733547480691690512e-01 -3.885399749089287202e-01 7.905516873539276679e-01
5.832509981672186899e-02 1.108583880551099327e-01 -8.579984187734062129e-01 -7.378133424136136265e-01 -2.835387350236466819e-01 6.125661250001029901e-01
-3.286238150018942067e-02 1.878561970394155844e-01 -8.749903672147796296e-01 4.541433817165195785e-01 2.721058869746282860e-01 -8.483585180316365326e-01
-6.273012295031771268e-02 1.675668806106733189e-01 -9.012379583600408361e-01 6.013996676170139111e-01 2.448630757225987165e-01 -7.605001735291149201e-01
7.516006264124693026e-02 -6.859217904162627499e-03 -8.768316992325156933e-01 4.822867673396468713e-01 3.577494773690814145e-01 -7.996341572814545939e-01
-3.398950687487893845e-03 3.038756181738430998e-02 -9.442914059189808640e-01 -4.911230649479857990e-01 -3.596529685709085600e-01 7.933775124581170513e-01
1.670029669558539820e-02 1.076134370096959864e-01 -8.732523630783244339e-01 6.285746701158542171e-01 2.890154255972292030e-01 -7.220553772776695522e-01
4.636284512467219593e-02 1.886280586310158658e-01 -8.294047264144079890e-01 -8.872723606366555993e-01 -4.125070394313181121e-01 2.063630307731140479e-01
1.599452024142186332e-02 -3.305467542487029731e-02 -9.597888544251345078e-01 -6.201543894942935786e-01 -3.441385150315162123e-01 7.049661095846119219e-01
4.500427500268422421e-02 1.144999841722963915e-02 -9.144903619716965304e-01 -5.998810604240994993e-01 -3.296544068799320826e-01 7.290203600511431237e-01
-5.244465911391626295e-02 6.789857084520974084e-02 -9.557657610442976681e-01 -4.506621367740168416e-01 -3.699221183365808963e-01 8.124415454933689995e-01
8.003593116632176652e-02 -3.408651446476191477e-02 -8.986098984351141850e-01 -8.064918252538147980e-01 -2.192722507192735870e-01 5.490816112958747386e-01
-7.446581988674187691e-02 8.419452820031955720e-02 -9.420163099087121017e-01 5.193343073921607989e-01 3.407362306408844299e-01 -7.837031952813172664e-01
3.452940856003140074e-02 -4.905740603151662743e-02 -9.273491352136783439e-01 6.077636684284719593e-01 3.472161399515197311e-01 -7.141878432846172631e-01
-5.622569597187425383e-02 -2.117944707251645346e-03 -9.904201676422426104e-01 -4.554645355996729261e-01 -3.764989540869977391e-01 8.067221295975279816e-01
1.694523863130323804e-03 -3.485174834986853876e-01 -1.139617794088395364e+00 9.389937204793378234e-01 -1.456443413056653924e-01 3.115742587987817003e-01
-2.471853398206569265e-03 -6.909384405413945829e-02 -9.916462267619952087e-01 -4.992725130991979565e-01 -3.973643692950345474e-01 7.699535802101127313e-01
-5.310167659237186727e-02 -3.845930061503252673e-02 -1.005799630402182565e+00 -4.508497213667717607e-01 -3.811177291470499440e-01 8.071454672320845791e-01
1.308428214097096670e-02 -1.048911140873443892e-01 -9.985810819109000036e-01 -5.882151868933358507e-01 -3.708837042210630375e-01 7.186432855397042463e-01
-4.213599767294485057e-03 4.346346071675126835e-03 -9.568204936169385499e-01 -4.914425252045889758e-01 -3.737910872619557567e-01 7.866158322231138200e-01
7.716488713951860645e-02 -2.565365429415139217e-02 -8.842321403982631445e-01 4.829586564778107771e-01 3.791587450692951999e-01 -7.892968910179649633e-01
3.127378326737795949e-02 -6.907388198801453494e-02 -9.398510202175944794e-01 6.077636684284719593e-01 3.472161399515197311e-01 -7.141878432846172631e-01
-3.166514054031139419e-02 8.102613235138531045e-02 -9.382787080996057849e-01 -4.816888351204809404e-01 -3.530972917621150731e-01 8.020587064988035086e-01
3.585988232939567311e-02 1.211812289715882840e-02 -8.979629629300850402e-01 5.999015698933889418e-01 3.304070491775726315e-01 -7.286626711265069556e-01
-6.463896117621173443e-02 1.460202562744687127e-01 -9.096849615358314489e-01 6.013996676170139111e-01 2.448630757225987165e-01 -7.605001735291149201e-01
8.510206471167304151e-03 2.458747854554054271e-02 -9.390529620273895262e-01 -5.947473558668965321e-01 -3.287891964632018160e-01 7.336029218715102163e-01
-4.416209110143119038e-02 -1.482334888361804270e-01 -1.036506053236202485e+00 5.940243956814288406e-01 4.594933344095673000e-01 -6.603036369493135993e-01
7.053747331965040668e-02 -9.050509279634341708e-02 -9.339071386464192770e-01 -8.028975665109118198e-01 -2.054591413733951599e-01 5.595909567862610290e-01
-5.914789333363217744e-02 1.380994562125628933e-01 -9.089511828514386105e-01 5.157286076377112227e-01 3.300017675286857077e-01 -7.906470999706575187e-01
1.127940150286450664e-02 -7.677941990260735150e-02 -9.609619407461075236e-01 6.246070183575295198e-01 3.445839379065334662e-01 -7.008052385330343359e-01
-7.899679891909321128e-02 -3.148427988485990453e-02 -9.986283037684688946e-01 6.022132548292812304e-01 3.651896620296392615e-01 -7.099124639380555157e-01
-7.733019897353142491e-02 -8.327174985638370608e-02 -1.030817226306929069e+00 8.184413870792118795e-01 -8.571341349803844600e-02 5.681609865719134955e-01
5.797098848190376796e-02 -4.043928440510930616e-02 -9.269018672787611157e-01 -6.312773348678484275e-01 -3.260856994278079068e-01 7.036739608020348147e-01
-8.731911317369468739e-02 -2.858675063593622140e-02 -1.006173902027961420e+00 9.070377884640633548e-01 2.575287286112086238e-01 -3.331086973318402866e-01
4.722022804972520155e-04 -2.081228904407057545e-01 -1.043366072651219501e+00 5.792403921752495854e-01 4.288153293858763537e-01 -6.932517445750464580e-01
-3.236797554492407136e-02 -5.265863930752158473e-02 -9.793062852137758290e-01 4.733317855720447498e-01 3.889004558122662325e-01 -7.903881680770474816e-01
-4.642517709873166844e-03 -1.152253103022495527e-02 -9.426080355757279206e-01 4.913754007199493956e-01 3.720462513167090424e-01 -7.874844775920940565e-01
1.976340970558817731e-02 -7.108494745021237682e-02 -9.751984199680489018e-01 -6.305113980420227193e-01 -3.444161240028045801e-01 6.955809877116958528e-01
1.993542277976437238e-02 1.892371602980584266e-01 -8.430461071664384631e-01 6.113895280383777608e-01 2.169163909683783087e-01 -7.610191353272683923e-01
7.548585084662329248e-02 7.461658130708861969e-02 -8.509540883422950230e-01 -9.257526753123397345e-01 -2.159137676911115633e-01 3.104242726873568947e-01
-5.597321072664653008e-02 -1.381310933819159814e-01 -1.051080416438170850e+00 7.070056419258735625e-02 -2.071751870446365273e-01 9.757458030121723969e-01
7.120661275736434905e-03 -3.468169296768243148e-01 -1.145178553119289511e+00 -1.109622175650114839e-01 -5.471095579807848663e-01 8.296737418040450729e-01
2.174490848525215125e-02 2.039884253114662149e-01 -8.380262937720720506e-01 6.558338671663115349e-01 1.757519448004219997e-01 -7.341615575447615338e-01
6.631663605207456513e-02 -8.316430750711092945e-02 -9.368022110812899150e-01 -7.177886099329480185e-01 -2.711733823766138696e-01 6.412834850056197133e-01
5.115850701216010515e-02 1.502480548212925815e-01 -8.292111370449248842e-01 4.700934071544454196e-01 2.006291239094842582e-01 -8.595115724580081329e-01
-5.340405931106139564e-02 4.122754170127886780e-03 -9.648418381847595482e-01 4.958921697186685629e-01 3.687721622004254685e-01 -7.861921192671257330e-01
-8.800679521814336326e-02 2.216175598796621751e-02 -9.898381606730397575e-01 7.561945815970588791e-02 -3.924313967382190294e-01 9.166674950066262539e-01
-8.897612225861541158e-02 -1.058252392538802482e-02 -1.001615785487857124e+00 8.439598669357097904e-01 -8.778815308206118495e-02 5.291738685727969127e-01
-2.839424680373193663e-02 -1.265158234630302247e-01 -1.015095261349650224e+00 4.412855958814116963e-01 4.261551029823479331e-01 -7.897207424588085223e-01
6.790560480379312369e-02 6.753983593850645950e-02 -8.667995193682311861e-01 -7.277353278219066413e-01 -2.905926499895838955e-01 6.212545407576294254e-01
1.724826018733712635e-02 -4.108060768978339383e-01 -1.168533198571863663e+00 3.025294560151452483e-01 5.421889219070873400e-01 -7.839050332817174560e-01
-4.677452345829644781e-02 6.661652009991335388e-02 -9.320689178313511514e-01 4.829922732917620309e-01 3.514617197961068529e-01 -8.019932190850610487e-01
4.949422430851520283e-02 3.125293077338735237e-02 -9.016447574481099014e-01 -6.311048451997904873e-01 -3.200943489876439951e-01 7.065736211546004286e-01
1.034196160801880392e-02 -4.924830751067183626e-02 -9.724829832855997891e-01 -5.881654904293434072e-01 -3.593012522337609149e-01 7.245439710681893519e-01
-7.012937346031264396e-02 -8.844491121284532575e-02 -1.021134098763562648e+00 6.028334222621340999e-01 3.774624652107629874e-01 -7.029323952989626756e-01
4.377080056385688339e-02 1.077217945106524327e-01 -8.738901984083757846e-01 -6.609861845110801548e-01 -2.906768677072222307e-01 6.918122740060357323e-01
3.031019726091193842e-02 -8.933083042437252319e-02 -9.506213995704095865e-01 6.118844526984098531e-01 3.560028905475338123e-01 -7.062997653034920331e-01
5.246807594991433066e-02 1.462373245545643130e-01 -8.486351803672894656e-01 -7.634904034602569833e-01 -2.761394852791322907e-01 5.838059510606838920e-01
-6.966315231694204801e-02 4.903598247890855050e-02 -9.724687844663818526e-01 -3.494723766122179720e-01 -4.066334053921405456e-01 8.441080094420374547e-01
2.857174479183472240e-02 2.886500812812568947e-04 -9.093272151210203269e-01 5.999015698933889418e-01 3.304070491775726315e-01 -7.286626711265069556e-01
5.184448831715579575e-03 -3.802102276968081784e-01 -1.165129400848752272e+00 7.723288799979329822e-01 -3.406711967865917456e-01 5.361447908924694694e-01
3.340722908962308335e-02 3.851463646581935324e-02 -8.881612791281709995e-01 6.069354847728652969e-01 3.148172117550612215e-01 -7.297392962601753075e-01
4.181622758204988494e-02 1.030092445205287727e-01 -8.774823260658619617e-01 -6.105589151689434502e-01 -3.036309866100352917e-01 7.314547389127636912e-01
2.651672286294095432e-02 1.529998495379744916e-01 -8.477581659413404580e-01 6.411414331809447420e-01 2.604260509360885045e-01 -7.218836018725719450e-01
4.179127787487571521e-02 1.644977610100555321e-01 -8.523845349341404587e-01 -6.900033613828743251e-01 -2.845931604477291987e-01 6.655088987434407688e-01
5.110776827242163173e-02 7.996427391723495617e-04 -8.908453424330560200e-01 5.884102507000936733e-01 3.350017815386318043e-01 -7.358988947110842727e-01
2.623044498989065415e-02 2.780669644972665749e-02 -9.227236133808123242e-01 -6.176358006234531350e-01 -3.217369717418734343e-01 7.176429047949927087e-01
-3.688483754552262031e-03 -1.993707496018804759e-01 -1.063873050136515008e+00 -4.951888718227084318e-01 -4.393444932101659983e-01 7.495094379051244760e-01
-8.403672523000262073e-02 8.892337551502862980e-02 -9.488029709785533727e-01 9.142404676338191649e-01 4.800709827786770606e-02 -4.023178915430370428e-01
-4.509160080629680788e-03 4.668354982322775459e-02 -9.157477634598689686e-01 4.988026866910488244e-01 3.584482652175090545e-01 -7.891202195561519694e-01
-5.182137550794344233e-04 -2.476620999091566910e-01 -1.086218674867073686e+00 -1.119091902807571176e-01 -4.690754584375209646e-01 8.760391243673621986e-01
1.299564375790801703e-02 6.996887494519003770e-02 -9.155745571817995865e-01 -5.942534452529281142e-01 -3.143803793713785821e-01 7.402890110432095438e-01
1.718826769514174638e-02 -3.981425652811478311e-01 -1.161585273183987077e+00 -7.417210690127868933e-01 2.832694116411090812e-01 -6.079541892371731482e-01
-3.388387864516249903e-02 1.258843613400748018e-01 -9.198769214043037712e-01 -4.142754611041279955e-01 -3.641293934522634723e-01 8.341376547974852507e-01
-2.424728478616506797e-02 -1.272200221425012767e-01 -1.013143623897414969e+00 4.452667289306385112e-01 4.255502390699609228e-01 -7.878099606725648130e-01
5.746193276798643168e-02 -1.410779448787675971e-01 -9.718525133554669626e-01 -8.237073719489929058e-01 -1.870879217601758848e-01 5.352609409702351329e-01
-4.905585408046935630e-02 1.620780248420198022e-01 -9.096952821110020349e-01 -3.157639708423940483e-01 -4.177548772285317735e-01 8.519236921635752191e-01
3.883505641629202143e-02 6.160961203573039890e-02 -8.973626632163779204e-01 -6.028878831452002540e-01 -3.170130224106544325e-01 7.321399756732051012e-01
-5.195719648416031490e-03 5.492571760040810408e-02 -9.125875912479511909e-01 4.984091008141784962e-01 3.444386574256207423e-01 -7.955817868053778330e-01
-6.648138707279259429e-02 1.248534404236937567e-01 -9.193374040181400142e-01 5.239355125923219614e-01 3.290297813226578660e-01 -7.856404913491824571e-01
-5.265546086584022359e-03 -2.575172620118026945e-01 -1.083243468380575836e+00 9.946855709900225273e-01 2.662892180505907133e-02 9.945609779069940204e-02
1.385308316955548118e-02 1.305076462798221704e-01 -8.900445140574342329e-01 -5.932054694942495709e-01 -2.921484780066789244e-01 7.501710056783639224e-01
7.175753126743994459e-02 -1.956644033377264238e-02 -8.846166711424542362e-01 4.829586564778107771e-01 3.791587450692951999e-01 -7.892968910179649633e-01
2.842010634780745698e-02 -5.301433592971161596e-02 -9.344718017462732007e-01 6.077636684284719593e-01 3.472161399515197311e-01 -7.141878432846172631e-01
4.992425411642925637e-02 1.754239602080676086e-01 -8.354051429552660224e-01 -8.742643645803218622e-01 -3.181185483563926386e-01 3.666911643557662637e-01
7.944796249821119150e-03 3.530055442152268269e-02 -9.111605935550783908e-01 6.195988406720797093e-01 3.186753319850581523e-01 -7.173167427448124966e-01
-3.012061613230656784e-02 -9.929368382200810805e-02 -1.001582798358858328e+00 4.595778440162149869e-01 4.053152955038266114e-01 -7.902580062992422549e-01
7.126582036517586927e-02 -2.699559344002127118e-02 -9.071378949919198798e-01 -7.127608124826398939e-01 -2.806324235667358447e-01 6.428199335989412955e-01
-4.424011796998011253e-02 2.133036642968474256e-02 -9.727098931716299246e-01 -4.554645355996729261e-01 -3.764989540869977391e-01 8.067221295975279816e-01
6.391340210501571251e-02 -6.487240741486387241e-02 -9.115998614026278313e-01 5.683134485677419079e-01 3.617348959195947899e-01 -7.390315888046196102e-01
3.651059782370317391e-02 1.589036457828514048e-01 -8.374129568378810839e-01 6.177528836345752561e-01 2.233948662868639190e-01 -7.539735462719107106e-01
-1.598030402888830567e-02 -7.921522318847197541e-02 -1.004895621923455495e+00 -4.522879887378842279e-01 -4.091157207031893561e-01 7.925023042975642973e-01
-2.888815673026735864e-02 -1.789190346725147707e-01 -1.044907365702828939e+00 4.921307558454447451e-01 4.447520276892655833e-01 -7.483334504198499992e-01
5.457125365900139524e-02 1.348130743817808341e-01 -8.512883403118546299e-01 -7.634904034602569833e-01 -2.761394852791322907e-01 5.838059510606838920e-01
-8.468282673256474768e-02 2.112828129829153606e-02 -9.902550195078927420e-01 -2.092859736061346287e-01 -3.970767562854243815e-01 8.936047397309270224e-01
2.942857630669596519e-03 2.058991829349244088e-02 -9.217440666559804097e-01 5.875946723931531057e-01 3.296857226310980771e-01 -7.389450759484048614e-01
-3.639204257695826967e-03 -2.391205522256723282e-01 -1.068791271341605453e+00 5.357271960137667266e-01 5.374207057137332377e-01 -6.512874607432420637e-01
6.278054921277703704e-02 -7.489928133726256321e-02 -9.173788914107147141e-01 5.683134485677419079e-01 3.617348959195947899e-01 -7.390315888046196102e-01
6.959323321136756842e-03 1.462508931493593234e-01 -8.666915450854202341e-01 5.800578926897095311e-01 2.806164537881782328e-01 -7.647138333989523806e-01
1.303005144642022627e-02 3.961029792186410159e-02 -9.048534395525603680e-01 6.195988406720797093e-01 3.186753319850581523e-01 -7.173167427448124966e-01
-2.899140088179462740e-02 1.879646273350681074e-02 -9.647496488700139095e-01 -4.858530457149316528e-01 -3.726854680821665156e-01 7.906025296252858769e-01
7.117637381873140323e-02 -2.080977457397119659e-02 -9.045365641065427065e-01 -7.127608124826398939e-01 -2.806324235667358447e-01 6.428199335989412955e-01
2.519994304484469549e-03 -3.388289869091896944e-02 -9.474347516825443183e-01 5.879405596435660630e-01 3.435591884927837181e-01 -7.323202730555737894e-01
-9.972137107579527593e-03 -3.315002707483710037e-02 -9.782250559963711067e-01 -4.639671801989695976e-01 -3.906397163306877807e-01 7.950692219695695284e-01
4.026935685649615099e-02 1.155884608461700130e-01 -8.499307386187420210e-01 6.054924248794072428e-01 2.804587092373755364e-01 -7.447965063200556735e-01
3.445973590270244580e-02 8.674383302877963775e-02 -8.666622996801817136e-01 6.106363092060547171e-01 3.048581804260903083e-01 -7.308794618174057067e-01
1.523375774653875150e-02 -1.992862242104761206e-01 -1.049638982048817670e+00 -6.259637413070193723e-01 -3.901123272396787023e-01 6.752642199202920636e-01
-2.079449470633689540e-02 1.814994340440831966e-01 -8.709208644709213187e-01 4.312077133844717247e-01 2.730383755417477576e-01 -8.599476457315634592e-01
2.491900761820717985e-02 -1.117465576842626845e-01 -9.666103933911094348e-01 6.241806763031165772e-01 3.563076671789967009e-01 -6.953008914414283703e-01
4.428401714395526455e-03 -1.300244481080631564e-01 -1.019304428360403358e+00 -4.942378765577075117e-01 -4.147268042205294325e-01 7.640226431440071408e-01
-4.756111598817266972e-02 1.545923131456360643e-02 -9.558705299004615075e-01 4.858231048256748674e-01 3.709697893711906835e-01 -7.914273979282214766e-01
4.093814663376554169e-02 1.358080426042628241e-01 -8.649922194592121194e-01 -6.223201989865727590e-01 -2.885956148784696307e-01 7.276195029039767004e-01
-8.646837236011935268e-02 4.605292786475713093e-03 -9.869799698582757408e-01 6.022634577607552941e-01 3.437736259454592935e-01 -7.204848517147117715e-01
-4.447291380545146527e-02 -9.060162730913955131e-02 -1.026560106461047006e+00 -4.212752885901926980e-01 -4.041897135162818566e-01 8.118853408646297121e-01
-3.717988675560578854e-02 3.008893941437855088e-02 -9.427858107000578469e-01 4.856926629272881879e-01 3.644101624731503342e-01 -7.945488472491111231e-01
4.938324155855785408e-02 -6.196137280444429657e-02 -9.214615623561354107e-01 5.909842835577255871e-01 3.512557923043698738e-01 -7.261934624880558298e-01
2.611849766088747068e-02 -4.454314197425832816e-02 -9.323120042341092040e-01 6.077636684284719593e-01 3.472161399515197311e-01 -7.141878432846172631e-01
5.009522279640418740e-02 7.818293699382131146e-02 -8.574410594803026919e-01 5.700954094482962864e-01 3.138152846124955264e-01 -7.592833405715929684e-01
3.941396050050988836e-02 -8.480504159986385071e-02 -9.407267755070398696e-01 5.977357773476804637e-01 3.515996313903393955e-01 -7.204787572751478741e-01
3.590994378242169660e-02 4.016942135080982246e-02 -9.090633046342538881e-01 -6.032001029143000403e-01 -3.266139508520292667e-01 7.276489283665621421e-01
3.900031243189155949e-02 2.711123851762834575e-02 -9.123627996312158039e-01 -6.032001029143000403e-01 -3.266139508520292667e-01 7.276489283665621421e-01
-8.075213016440156710e-02 9.438764751089015470e-02 -9.426778296709374949e-01 6.013727461672989660e-01 3.021568581612349425e-01 -7.396296730346427761e-01
-1.079032842912760852e-02 -1.145323710308700921e-01 -1.020469063095539974e+00 -4.525185193522112126e-01 -4.224784835134159366e-01 7.853272697490433218e-01
2.136431506701440622e-02 1.965862034178005868e-01 -8.401383097595915839e-01 6.558338671663115349e-01 1.757519448004219997e-01 -7.341615575447615338e-01
1.906389972712943873e-02 -1.197362133362573772e-01 -1.001210435413474098e+00 -6.302475741838894363e-01 -3.695643600691179143e-01 6.827958545583197036e-01
-3.957915240175306076e-02 6.668502592981467858e-02 -9.277643343561629008e-01 4.771729203004463904e-01 3.534510740210755064e-01 -8.045982490692432654e-01
-7.870209956382193117e-02 1.109243022568241060e-01 -9.343429662753355291e-01 5.922375022975419068e-01 2.908467382470829032e-01 -7.514405603395399869e-01
2.888125395718956368e-03 -2.133248114190190031e-02 -9.412457556055887631e-01 5.950976390168204455e-01 3.434674861071181362e-01 -7.265596231720163889e-01
2.996357576815180529e-02 3.847361946211793476e-03 -9.065676596318184011e-01 5.999015698933889418e-01 3.304070491775726315e-01 -7.286626711265069556e-01
5.111138967277225470e-02 1.111349947480905764e-01 -8.654425796530738069e-01 -6.609861845110801548e-01 -2.906768677072222307e-01 6.918122740060357323e-01
9.366588233627784130e-03 -1.437551435434363256e-01 -9.980077355139683748e-01 6.296355278091911867e-01 3.693424208536442710e-01 -6.834802691215093873e-01
-5.220550944391121745e-02 1.494338914847966604e-01 -9.170629561414221920e-01 -3.157639708423940483e-01 -4.177548772285317735e-01 8.519236921635752191e-01
6.831446054360251763e-02 -5.087975377899348756e-02 -9.209141872418054042e-01 -7.177886099329480185e-01 -2.711733823766138696e-01 6.412834850056197133e-01
