1.447720428267355343e-02 7.418450963286940536e-02 -6.331214487729494023e-01 -9.972772643435003914e-01 2.763372184342316462e-02 6.836984306420575142e-02
-6.609412229092276672e-03 -1.845512187051749908e-01 -7.542944549788161979e-01 9.991715234344540342e-01 2.164968584012406938e-02 3.446096140121129164e-02
1.135797473878548576e-02 2.579658555131036923e-02 -6.625642708083214760e-01 -9.983224640399613881e-01 2.033967718716010731e-02 5.420844330085435037e-02
-2.198226914940035800e-03 -7.749315972006454167e-02 -7.848356219997610905e-01 -9.712181678793593287e-01 -1.049139199779379056e-01 2.138418569315260198e-01
9.787746521328979932e-03 -1.388368988252366813e-02 -6.818724870619526923e-01 -9.985246402677526723e-01 2.355285663923484697e-03 5.424938163330694785e-02
1.332631282437328653e-02 1.790443380705150633e-02 -5.980337110255038446e-01 -9.990004467686793843e-01 4.245084951215898073e-02 1.400116893959314074e-02
2.055369667391656469e-02 2.332682462140169277e-01 -5.505420169800326891e-01 9.715215355261307417e-01 -1.629557214782670904e-01 -1.720213325330501031e-01
-4.689836551171187862e-03 -4.520929041244885205e-02 -6.118309765488385565e-01 9.969105588481936842e-01 6.350535960123578766e-03 -7.828798343297016515e-02
2.530463392590132088e-02 -3.823970681214999834e-01 -8.928571067732193889e-01 -9.887735315083799881e-01 -1.462051970881114438e-01 3.083737558342120044e-02
-3.978894742176867887e-03 -1.780719421980551387e-01 -7.000890687789786959e-01 7.171447812186338977e-01 5.148392772849615939e-01 -4.697274543132174407e-01
-9.421369003392843916e-03 -1.082530798230592478e-01 -7.450180307099143473e-01 9.882963158981655782e-01 8.843577511183084439e-02 -1.242960404135334262e-01
1.587750894035507704e-03 6.322871110816001561e-02 -5.531540558119084627e-01 9.813468937432593409e-01 9.524192393792849792e-03 -1.920092807645033539e-01
-8.573518638333197522e-03 -8.620217028921535463e-02 -7.203698699212932599e-01 9.992988325435629982e-01 2.049826951955170673e-02 -3.133152124898520852e-02
9.401652845096209951e-03 -5.084773597925019983e-02 -6.774931007581562747e-01 -9.997126616152001155e-01 6.949920601750174051e-03 2.294107255298583753e-02
-8.408202159964012559e-05 2.003731909314064585e-01 -6.179641479930821912e-01 9.761971313988860866e-01 -7.987387328882086801e-02 -2.016415756098597079e-01
-8.926283220490683137e-03 -1.794552527279424659e-01 -7.983542120305768819e-01 9.777957048825387520e-01 1.556000250689441311e-01 -1.403716200369681810e-01
1.714514717866012089e-02 2.190129348800171905e-01 -5.574786396864622739e-01 9.755682580372186941e-01 -1.317618625073691541e-01 -1.757992761612384991e-01
-1.159622378644822351e-02 7.172651780501450303e-03 -7.029410887846350153e-01 9.811211934382975119e-01 6.840796283870947958e-02 -1.808910014524449383e-01
1.147248896907629434e-02 1.649977482542944879e-02 -5.735675935476342024e-01 -9.635134110386363027e-01 1.262213539494428938e-01 -2.360298213274351353e-01
-1.258303355971070008e-02 1.393073934440076100e-01 -6.781452075928381396e-01 9.889493414538876870e-01 3.650589971731472722e-03 -1.482088837781994906e-01
-6.170814143509562900e-03 1.049999069826923481e-02 -6.604242138274049045e-01 9.978795973520717677e-01 -1.747094131653683172e-02 -6.269828863677918973e-02
-2.167552378694055648e-02 3.095906368674518003e-02 -7.605576635512308892e-01 9.914140439996159682e-01 3.336882462323960408e-02 -1.264306723212009209e-01
6.353860267280179129e-03 1.829690383268527398e-01 -5.919213877499795995e-01 9.697753105588649003e-01 -4.454586907658302647e-02 -2.398989632713504072e-01
-9.513576671795448414e-03 1.087176429756350482e-01 -7.268913047397662641e-01 -7.407724878234597243e-01 -3.752934418748490319e-01 5.571453614359284101e-01
6.212620138142306049e-03 -5.839070295599945587e-02 -6.006498223644456402e-01 -9.634272792377126526e-01 1.778248525343048003e-01 -2.004649581392492774e-01
2.266383608819459369e-02 -3.798805282018473672e-01 -8.877585597417849694e-01 -4.232258049308275094e-01 3.732359997215963232e-01 -8.255754396495050829e-01
-1.101092242581260677e-02 -1.650506781763296238e-01 -7.987612669141824773e-01 9.793701736561698512e-01 1.285280789663476309e-01 -1.559313819277695912e-01
-1.935108591213863249e-02 1.228190074724505934e-02 -7.485725826858898868e-01 9.873434019710622955e-01 4.728326536930118479e-02 -1.513846075406134195e-01
5.033937376663086619e-03 -9.952546737829290335e-02 -7.595707487240017652e-01 -9.788665243612231226e-01 -1.131181830136609723e-01 1.703660886346420045e-01
-4.622758537548562335e-03 -2.103173674313451869e-01 -7.797185329149205479e-01 9.977517099349590968e-01 5.750566529323992981e-02 3.441836400887017533e-02
1.943532724658351279e-02 -4.087500080804453706e-01 -9.198009245748485219e-01 9.077955284274282777e-01 4.013918017472601352e-01 1.216219554901762784e-01
2.616191997596699348e-02 -4.097411783675007912e-01 -9.031399195181369910e-01 -4.602763751294033923e-01 3.695705116451655226e-01 -8.071947072547410729e-01
-7.161133172871730034e-03 -1.814077700655270797e-01 -7.869364459321310790e-01 9.878687062099184013e-01 1.244869513206231237e-01 -9.283543634861836369e-02
-4.112939762427604909e-03 -2.714548668736806517e-02 -6.033283086878465928e-01 9.965986694048971639e-01 -1.025153699037961632e-03 -8.240170629472191866e-02
2.048945709059200523e-02 1.368968294892058679e-01 -5.899842603652514228e-01 -9.965066385421510464e-01 7.346659027009989906e-02 3.971371873179126155e-02
-8.118691287033921733e-03 -1.373375831364007649e-01 -6.917465317254972712e-01 9.996707843439150976e-01 2.283074898268365113e-02 -1.170810958743470978e-02
3.149100259280160873e-03 4.870923114324893222e-02 -7.063538232003125916e-01 -9.851714169001494215e-01 -4.538806903155163247e-02 1.654605769134726012e-01
-8.143921366231540032e-03 1.848480973306700637e-01 -6.607640812034165645e-01 8.303997034708470171e-01 -4.641205300922497390e-01 3.082668746758537859e-01
-8.504682170062680471e-03 2.165714838681314508e-02 -6.809834259518268151e-01 9.860097045683845485e-01 3.839990192594742308e-02 -1.622045314688964068e-01
8.357372451546385417e-03 -1.354680004921813563e-01 -6.993749654044382202e-01 -9.991309098078847706e-01 2.145640682513848957e-02 -3.573580379146762409e-02
1.191852434999793320e-02 -1.139079140249802703e-02 -6.203834738221724043e-01 -9.993028066701030721e-01 3.406660181753815020e-02 1.527636153865794509e-02
-3.694870355686550797e-03 5.864457608920508463e-02 -6.378687349088544289e-01 9.972079499290537052e-01 -2.872633283630311729e-02 -6.892824094717309169e-02
-8.078669134592450160e-03 -1.644006792510740167e-01 -7.790975704764129262e-01 9.868198865244300899e-01 1.103692481510409190e-01 -1.183433167630716515e-01
1.601633712545766711e-02 2.036958657826040686e-01 -5.408677029845406770e-01 9.757451070414949745e-01 -1.754022463310835056e-01 -1.309791512668757318e-01
-4.444378601782841137e-03 -6.661275508436585724e-03 -7.650080360207925922e-01 -9.419503456016840026e-01 -1.185642791071445379e-01 3.141210883412169363e-01
5.309366661802812463e-03 -1.489351394968000120e-01 -6.832023371077933227e-01 -9.530748017158020557e-01 2.120865063834669051e-01 -2.160271652927933939e-01
1.566569203082776238e-02 -3.022238333690417944e-01 -8.571848374309912755e-01 -8.433067048557717493e-01 -3.262428559596075583e-01 4.270824282039932251e-01
-1.731499184474877620e-02 1.018509716250098757e-01 -7.357247905914140462e-01 8.697324401010565476e-01 -3.549818873453209900e-01 3.428605289219153196e-01
-1.758936060585566952e-02 5.128434985590021172e-02 -7.256765180489861411e-01 9.875199329479291688e-01 3.986971742543675423e-02 -1.523639972661955111e-01
-8.547574001774124741e-03 -1.771065415311025640e-02 -6.937319709413430902e-01 9.880397057168296415e-01 4.978699375143112033e-02 -1.459410674902558436e-01
2.339034527852169171e-02 -3.721870714666826729e-01 -8.989569651549538243e-01 -8.739970549157849433e-01 -3.357929515332844783e-01 3.512438493398846728e-01
-5.843983024846744097e-03 -2.290843044615986646e-02 -6.321607956603859657e-01 9.985532594675006202e-01 -7.819135707543356864e-03 -5.320008574821454700e-02
-1.582111048769864860e-03 -1.722310439215662681e-01 -6.922994006560685420e-01 -1.382611272908060018e-01 7.316321663478411175e-01 -6.675314478325650169e-01
-9.591378047563053552e-03 -1.748279013165651430e-01 -7.979044046536978296e-01 9.793701736561698512e-01 1.285280789663476309e-01 -1.559313819277695912e-01
-1.924161216266375568e-02 -7.050461557716147798e-02 -7.827760223641201387e-01 9.864899436106496777e-01 7.078586237623712973e-02 -1.477394762502874936e-01
-4.209533383984532216e-03 3.050464113186490689e-02 -6.218548957655368747e-01 9.987494611003407963e-01 -2.869015347848464723e-02 -4.094373023015329682e-02
8.671900997750342163e-03 -1.750987390160907431e-01 -7.940052855251674702e-01 -9.793268762072498967e-01 -1.295822372368265196e-01 1.553296923670697549e-01
2.145625547750844991e-02 1.425926941705636386e-01 -5.762619177764025657e-01 -9.965066385421510464e-01 7.346659027009989906e-02 3.971371873179126155e-02
2.070208328318131827e-02 1.641474048873053648e-01 -5.400973190714410954e-01 -9.474912624398789118e-01 4.273251695825643071e-02 -3.169136153504558129e-01
-1.801694697249900737e-02 -1.233215560280933806e-02 -7.948729158209407730e-01 1.068415455196292524e-01 -3.358912619051978576e-01 9.358215344427113225e-01
-9.489222816034122501e-03 -1.613678228003820880e-01 -7.862924861840675517e-01 9.785410958383740088e-01 1.299101553250431584e-01 -1.599395989080164004e-01
9.626512293657865649e-03 -2.776441700351000089e-02 -5.921218614585629370e-01 -9.660188842295778233e-01 1.376773046244118559e-01 -2.187520859402222184e-01
-1.439364263154726577e-02 5.922083420193451075e-02 -7.032352288271305207e-01 9.852050991486031029e-01 4.611715972722506274e-02 -1.650579298012800622e-01
9.814183893361626623e-03 3.956514279902408754e-02 -6.718097362659439797e-01 -9.860828873207767575e-01 -3.983866239420810751e-02 1.614107193211176405e-01
1.101383829142001981e-02 -1.842862594827095746e-01 -7.721557839324030281e-01 -9.993701696157443193e-01 -2.998550733872872368e-02 -1.897718187290160438e-02
8.408506458020242880e-03 -2.736055014544180874e-01 -8.259397234546230759e-01 -2.611544112169477683e-01 4.961298135831139766e-01 -8.280420167937819764e-01
9.689450849384622158e-03 -4.544700321815323824e-02 -6.689543202520918941e-01 -9.992099054150582749e-01 1.243940655264226189e-02 3.774686854625049909e-02
1.275156903384849078e-02 1.414570409697758595e-02 -5.869581333746526353e-01 -9.917320490914937059e-01 7.990906993005943149e-02 -1.004095779679389372e-01
9.366533526877322824e-03 -1.552983941779395027e-01 -7.365229675447687585e-01 -9.997082881146215350e-01 -2.939948854117071728e-03 -2.397280491865035057e-02
-1.917322504252193943e-02 7.052213580311621210e-02 -7.321738435835137837e-01 9.909653547390140371e-01 2.621797247936644842e-02 -1.315305425597072253e-01
8.711484172249144009e-03 8.256043522541996194e-02 -6.672825561085836688e-01 -9.798754574002822570e-01 -4.284916150978403115e-02 1.949565011547334803e-01
-1.006591252427377001e-02 5.356118578577320766e-02 -6.802204266275512223e-01 9.810339475740910142e-01 5.315540997562544917e-02 -1.864051933222863056e-01
6.177202437055216364e-03 -5.709406535415098571e-02 -7.293739350217205430e-01 -9.788337820375496712e-01 -8.867295443558230461e-02 1.844492729552798527e-01
-6.286291854160263627e-03 -2.047164263299429757e-02 -6.428876944772174973e-01 9.989636913423617370e-01 -1.385942116098180452e-02 -4.335273722298164933e-02
-1.199929790554258419e-04 7.864620636266476950e-02 -5.762326243745309329e-01 9.976184292561484090e-01 -4.101005422168284287e-02 -5.545849854827799436e-02
1.215617002391779916e-02 3.660191811985621241e-02 -6.519187094832809004e-01 -9.983224640399613881e-01 2.033967718716010731e-02 5.420844330085435037e-02
1.344063020629334727e-02 1.784798636697321750e-01 -6.275702485760287219e-01 -9.580005241208886524e-01 -9.237143062033265073e-02 2.714820704747464841e-01
1.158009076326388560e-02 6.894802826345984050e-03 -6.421310771293478048e-01 -9.986954983773629335e-01 2.479701137316834419e-02 4.463641728173812356e-02
-7.306526857820644198e-03 -6.496444501484936740e-02 -6.565187924048119239e-01 9.992521093200983362e-01 1.076617245102882200e-03 -3.865311002547459213e-02
2.587937982586717769e-02 1.930958161409442042e-01 -5.585324847568929885e-01 -9.975039219679584512e-01 5.755477879294467608e-02 4.090688324274999871e-02
-1.911062819163411846e-03 -1.190205557869383930e-02 -7.544467269978102353e-01 -9.781513513965299778e-01 -7.310621572566625148e-02 1.946160707223688058e-01
-1.373457173807096816e-02 1.313285086093079757e-01 -6.861975808028800694e-01 9.902567866602317581e-01 2.670036488018585159e-04 -1.392530975684332095e-01
2.607323840884136559e-03 -7.082984339298400642e-03 -5.685574017715683270e-01 -1.238685121029481223e-01 4.182053423898466349e-01 -8.998671475867939806e-01
1.510084306942400222e-02 7.957336139410399467e-02 -6.264012628116051307e-01 -9.962254850074103718e-01 4.163007306753574444e-02 7.616902282517173939e-02
-7.926352562534707408e-03 -1.556907235226378527e-01 -7.312863905686002308e-01 9.996740193783781869e-01 4.879889865597690848e-03 2.506075926179011232e-02
9.262342449916466727e-03 1.433400294732360969e-01 -6.529518379336800571e-01 -9.680353516412969483e-01 -6.958580754516947853e-02 2.409675774061659781e-01
-2.045605879644772987e-02 5.432040238786680492e-03 -7.579340166987633687e-01 9.876608597773438580e-01 5.772925756325977820e-02 -1.455793903170099490e-01
-2.927727105611888786e-03 1.835558819756921353e-03 -5.894413730208664104e-01 9.966575346729320550e-01 -1.762113959731977531e-03 -8.167406892071522873e-02
2.494706554890855146e-02 1.789454204579011831e-01 -5.606137115230034329e-01 -9.969879345759166123e-01 7.533236125488276813e-02 -1.844162839369429402e-02
7.918333317129891413e-03 -1.187372866422068129e-01 -7.533397303955262636e-01 -9.873829392910757896e-01 -9.281425316990593588e-02 1.282982681310546602e-01
4.670192597283384303e-03 1.403502391686317352e-01 -5.676212804821340052e-01 9.947091324386181377e-01 -9.912991228069474581e-02 -2.696298081505782082e-02
-4.800180855456471531e-03 -8.871310774676753608e-02 -6.264768695889456618e-01 9.856316046555961830e-01 8.174247700373168946e-02 -1.478124059655652189e-01
1.832868053921133593e-04 -1.800674767680994215e-01 -8.183091110169314897e-01 -5.286598181356887416e-01 -2.426614308880097395e-02 8.484868596438804866e-01
2.520882682551776541e-02 1.947743664691539700e-01 -5.697336162665534998e-01 -9.940896657780282641e-01 8.329137789075458098e-03 1.082421445510865082e-01
1.501525194208535273e-02 -2.909797878242792457e-01 -8.413975237975850341e-01 -9.916422911470297308e-01 -1.207460052315389304e-01 4.545292762071883458e-02
-1.298275913296791919e-03 5.852587705336795981e-02 -5.825980442143317006e-01 9.980582695970974250e-01 -3.453304064205486162e-02 -5.183782010136452068e-02
1.586454677753160181e-02 1.814442435920039787e-01 -6.182734950504219507e-01 -9.717880285269151486e-01 -3.628753076866809979e-02 2.330477262761514734e-01
-2.391291680681938581e-03 6.323147786406334292e-02 -6.102537498204593236e-01 9.982372876243124082e-01 -4.160267681379426624e-02 -4.232652688778364147e-02
4.955136282190172881e-03 1.305114557873709724e-01 -5.463272705928847728e-01 9.921246472021839624e-01 -5.580314679905105935e-02 -1.121369395929159296e-01
1.474568544579482957e-03 1.320111345251447910e-01 -6.075351857047038839e-01 9.842785065286108193e-01 -1.758106206221538709e-02 -1.757462029250462521e-01
1.868934179384657696e-02 1.577749629621488792e-01 -6.089865508161678154e-01 -9.766831931756527752e-01 -2.397616827136778844e-02 2.133426434710918584e-01
-6.435797042805355660e-03 -4.426650773481997231e-02 -6.401298826627151994e-01 9.985532594675006202e-01 -7.819135707543356864e-03 -5.320008574821454700e-02
5.883064057718004336e-03 1.356949804595516951e-01 -5.425543274737806287e-01 9.830535784854597114e-01 -1.136318704127272788e-01 -1.438522153233541545e-01
-1.462078234071122369e-02 -1.028257280361948300e-01 -7.733099148274870105e-01 9.804812335261874345e-01 1.068210006485236507e-01 -1.650630925537680538e-01
5.942583318446905544e-03 -1.026466629398361113e-01 -7.564223573483737084e-01 -9.788665243612231226e-01 -1.131181830136609723e-01 1.703660886346420045e-01
-2.576642597145646814e-03 1.806282895898981763e-02 -7.467398771099288401e-01 -9.790879293321785859e-01 -6.717015571156928488e-02 1.920286354107378635e-01
-8.249095638406866993e-03 -1.618407066001792127e-01 -7.781312126225043979e-01 9.868198865244300899e-01 1.103692481510409190e-01 -1.183433167630716515e-01
-1.921180471448620357e-03 1.102702027193653844e-01 -7.064776135249163369e-01 -9.428937431109609690e-01 -1.424544465695366802e-01 3.010948685294517757e-01
6.354866041993221864e-04 5.447323221173584751e-02 -7.178860521653993576e-01 -9.778745571187873464e-01 -6.599792533505216552e-02 1.985084995439850564e-01
1.885147203920421038e-02 -3.291038808807925098e-01 -8.623625918698700765e-01 -9.172350998440139680e-01 1.110402388455742767e-01 -3.825569721901030396e-01
-1.989501630455364420e-02 7.957771062945438734e-02 -7.358425584268085684e-01 9.911038741739328639e-01 2.598468213053628517e-02 -1.305293334541918759e-01
6.773704740346573293e-03 -1.764017240123269270e-01 -7.181300217192045920e-01 -9.802484310588542860e-01 1.362489652356477232e-01 -1.433500362011447538e-01
-1.641853270887353583e-02 6.052398724089665810e-02 -7.156974148429968707e-01 9.870394087565496077e-01 4.011334518899394713e-02 -1.553837993462294786e-01
-6.422452695064824642e-03 -1.993027653783685516e-01 -8.020918673167427571e-01 9.781097495627802951e-01 1.513086145499979995e-01 -1.428531447788075059e-01
1.542902253952994039e-02 2.013040695682751513e-01 -5.439497460545357210e-01 9.842768673138857505e-01 -1.766320489954680828e-01 -4.095588185553058645e-04
4.110711907377891973e-03 -2.818424370604157847e-01 -8.347116224564927744e-01 9.917222287109617174e-01 1.199043428934044447e-01 -4.593440579634621573e-02
1.126257012669950978e-02 -2.013200182680976169e-01 -7.697436746292569687e-01 -9.954590309899686851e-01 4.314828475339399505e-02 -8.485012164606699214e-02
-7.668923378162479862e-03 -1.644427710417701305e-01 -7.362075598684240108e-01 9.991715234344540342e-01 2.164968584012406938e-02 3.446096140121129164e-02
-4.037334624868519836e-03 1.987324182861676392e-01 -6.399814966029403474e-01 9.760921493592384923e-01 -1.759784063218512717e-01 -1.275763162490710922e-01
6.719632121192753438e-03 1.302169034157226735e-01 -6.668307554849165486e-01 -9.679382389956496802e-01 -6.807331862198517936e-02 2.417883139893034772e-01
2.351521729643469422e-03 -2.658949089156125156e-01 -8.332773964815124446e-01 9.923967765085159876e-01 1.123556514577523785e-01 -5.024784135672135527e-02
-6.171486334144210030e-03 -4.792887486675286024e-02 -7.860588842147367972e-01 -9.422139419212349765e-01 -1.237465550158929201e-01 3.113192537748765698e-01
-5.220235230617380380e-03 -5.565750247133020856e-02 -7.865336716213480184e-01 -9.346440660109673892e-01 -1.374468903824699051e-01 3.279463709124947890e-01
1.215146770822931287e-02 1.770405010641559057e-02 -6.353519811915085969e-01 -9.986954983773629335e-01 2.479701137316834419e-02 4.463641728173812356e-02
1.079429862253113506e-02 7.052446481162315262e-04 -6.607526609440235177e-01 -9.990290890005533164e-01 3.349362414208026384e-02 2.861916268085648932e-02
1.180130675491129419e-02 1.691058203124874704e-01 -5.330252259112993052e-01 9.410057796466706481e-01 -1.642103266782667936e-01 -2.958768177532301591e-01
-2.948656855526544593e-03 5.207553029002465195e-02 -6.124335983850105469e-01 9.982372876243124082e-01 -4.160267681379426624e-02 -4.232652688778364147e-02
2.367564355805337750e-02 1.643395607501312861e-01 -5.571904382485324270e-01 -9.962837928595613679e-01 8.412215609578990727e-02 1.849505174801066923e-02
-7.145665428384920248e-03 6.325366441743225654e-02 -6.628016402373463345e-01 9.799500375997887147e-01 4.400905090720461793e-02 -1.943222253022522938e-01
1.150677317553523357e-02 -2.647063652811521561e-01 -8.381677181840554436e-01 -8.448527787919013488e-01 -3.003654453643158639e-01 4.427238206813574051e-01
9.814595411001868566e-03 -1.921341090239563620e-01 -8.010123811486826728e-01 -9.793268762072498967e-01 -1.295822372368265196e-01 1.553296923670697549e-01
-5.022536125501595415e-03 -5.672720331115537612e-02 -6.170177786837138800e-01 9.969906665607728424e-01 6.115368035748488737e-03 -7.728009487890706575e-02
3.478825797818195682e-03 1.991010992186189807e-02 -7.127309941231002588e-01 -9.855304282142094419e-01 -5.413520220881658240e-02 1.606211534814994124e-01
9.512773063385744979e-03 -2.343988189692611523e-01 -8.224805174682142672e-01 -8.618212048636457734e-01 -2.651568346621490657e-01 4.323841623826238378e-01
-5.620550291412838503e-03 -1.518688252509974024e-01 -6.745523801803479103e-01 9.835155214582496086e-01 1.381057137385267308e-01 -1.167220239863885900e-01
1.199668602650642152e-02 -2.118431608263334487e-01 -7.973743470666911914e-01 -9.970159484043069620e-01 -9.223548797211780781e-03 7.664283903304715262e-02
-8.564774870154327757e-03 1.804524639256308363e-02 -6.822037905496394217e-01 9.860097045683845485e-01 3.839990192594742308e-02 -1.622045314688964068e-01
-1.695831256246398480e-02 3.787419975213570517e-02 -7.250969246515100997e-01 9.877276032540852624e-01 4.484003027615530990e-02 -1.496113413307078310e-01
1.054553910908388736e-02 -2.268739174817356249e-02 -6.537929086969967996e-01 -9.992099054150582749e-01 1.243940655264226189e-02 3.774686854625049909e-02
-2.147042993036666399e-03 -3.664050657810533768e-02 -7.655815499215643527e-01 -9.749423105614949403e-01 -8.566357612712738323e-02 2.053028075846139444e-01
-3.226336882607626529e-03 4.534305744172652253e-02 -7.405220620296338874e-01 -9.790245956247507486e-01 -6.561157147743237883e-02 1.928884725691377977e-01
-1.744343783658187583e-03 -1.353269228117257861e-01 -8.108446919942030595e-01 -9.232079072600287706e-01 -1.441316707579698153e-01 3.562488195869202290e-01
2.351373206108498676e-02 1.893313419674821640e-01 -5.827436466549164029e-01 -9.872220352900430429e-01 -8.170587649840290942e-03 1.591411151627407650e-01
-7.437433407025461317e-03 -1.661881444714825851e-01 -7.418229400791166439e-01 9.991715234344540342e-01 2.164968584012406938e-02 3.446096140121129164e-02
-1.085177459638943243e-02 -1.808035701447012478e-02 -7.874633731841039763e-01 -8.939057791919424734e-01 -1.517818795231285489e-01 4.217756737599647754e-01
-4.372094998723356600e-03 -1.957581077874230580e-02 -6.071053625521845021e-01 9.981793341965905508e-01 -1.252689894808809053e-02 -5.900079309293521784e-02
8.914794790578045927e-03 -1.161753683456658859e-01 -7.274755985069475406e-01 -9.998594624292845845e-01 -9.925301536281240858e-03 -1.351087636075550512e-02
2.530757806926211845e-03 1.224324666298780423e-01 -5.806735504298451422e-01 9.947091324386181377e-01 -9.912991228069474581e-02 -2.696298081505782082e-02
1.866275382703909066e-02 1.387620006103724990e-01 -6.097289633983228319e-01 -9.845906419196319703e-01 -3.320678512961581282e-03 1.748434755388383888e-01
7.946056262469563397e-03 5.229643530596781581e-02 -6.781608317521127249e-01 -9.805735040050144180e-01 -5.503719484741696061e-02 1.882724367151363820e-01
-2.417043642765191616e-04 1.028039487468438012e-01 -7.047506945704576919e-01 -9.428937431109609690e-01 -1.424544465695366802e-01 3.010948685294517757e-01
-8.816978371524632077e-04 1.993190202925628762e-01 -6.214080289336519902e-01 9.761971313988860866e-01 -7.987387328882086801e-02 -2.016415756098597079e-01
-1.353045185490571976e-02 -1.403472281415875378e-01 -7.933608409570477304e-01 9.757202920006008418e-01 1.369249389487968704e-01 -1.709428935993832777e-01
8.615285201011310331e-03 1.856648187289441088e-01 -6.391672159538381859e-01 -9.238341979125684889e-01 -2.027730388484914603e-01 3.246744053407796815e-01
-8.393716549421758807e-03 -1.298398150658741368e-01 -7.109436521436399703e-01 9.999230175974499479e-01 1.125644502708226732e-02 5.220280084592159552e-03
6.247655414706398957e-03 -1.736957265625643440e-02 -7.105909378359646089e-01 -9.811311722225033449e-01 -6.871773254629459649e-02 1.807193850337933116e-01
-4.314429589669621992e-03 -9.087956119423046264e-02 -6.244359006561865932e-01 9.856316046555961830e-01 8.174247700373168946e-02 -1.478124059655652189e-01
-9.459742452580891317e-03 1.605575477723020783e-01 -6.586074776215274929e-01 9.859764475599362976e-01 -2.662320420396290660e-02 -1.647472301891662050e-01
-8.081150799615407360e-03 -9.220547756442500076e-02 -8.092162658743815573e-01 -8.767538831741747973e-01 -1.630700525242065879e-01 4.524497610881872411e-01
8.907995120441545775e-03 -3.347284506211659072e-02 -6.981986490959446456e-01 -9.988489861142180182e-01 -1.126074290838853520e-02 4.662508560581480471e-02
9.150998958483282791e-03 -2.938075109405230423e-01 -8.545781424089845535e-01 6.454547176535710418e-02 -4.666863324142917491e-01 8.820644813233806669e-01
-5.221017418996796132e-03 -1.814460843936535062e-01 -7.111901651961518578e-01 9.680469039000604292e-01 2.346638429949305105e-01 -8.841986564317556863e-02
-8.248148590121587298e-03 -1.193475529009397074e-01 -7.271737435312599640e-01 9.997449501634574354e-01 7.347479436727531385e-03 2.135530773818675523e-02
1.724254107973131889e-02 1.552284021314745410e-01 -6.158961994844153187e-01 -9.766831931756527752e-01 -2.397616827136778844e-02 2.133426434710918584e-01
8.923174463205148579e-03 1.715325240299764020e-01 -5.682211409631139354e-01 9.876883670186096253e-01 -1.325980518871697489e-01 -8.300268846151549751e-02
2.999283512902987492e-04 9.275996759485147236e-02 -7.071504407652207114e-01 -9.776998449711252759e-01 -6.225291713250160480e-02 2.005681616107884702e-01
-3.264604851434367398e-03 -5.890650690944040230e-02 -7.810483906204764848e-01 -9.751088999539089253e-01 -9.249176902856715010e-02 2.015140339843446426e-01
1.026879824339146062e-02 3.944112886451838634e-02 -6.690630359012431638e-01 -9.860828873207767575e-01 -3.983866239420810751e-02 1.614107193211176405e-01
-8.278221888455400065e-03 -1.258213242451494407e-01 -7.235385100368334488e-01 9.997449501634574354e-01 7.347479436727531385e-03 2.135530773818675523e-02
-6.781633092254967139e-03 -2.017070450381669780e-02 -6.557498564772036298e-01 9.993520568394519410e-01 -1.447746793374260488e-02 -3.295253272488094659e-02
1.188970183918598537e-02 1.962807254037537974e-01 -6.239954653180462829e-01 -8.760191487437926083e-01 -2.602715146227157494e-01 4.060162431605393585e-01
4.259229859298741330e-03 -1.610876562991131467e-01 -6.903912141145733816e-01 -9.625532638449729728e-01 1.939574301156243297e-01 -1.893983356957831821e-01
9.324254025609639979e-03 -1.453995752889306325e-01 -7.363086764930247829e-01 -9.998594624292845845e-01 -9.925301536281240858e-03 -1.351087636075550512e-02
-1.393136144184210778e-02 -8.348909849748674394e-02 -7.576773105819802900e-01 9.805537894895175466e-01 9.408131374710580752e-02 -1.722294177002448301e-01
-1.483795842559539058e-02 -1.260755146878984878e-01 -7.896785717423360218e-01 9.762110185852576061e-01 1.202117912687792056e-01 -1.804471458147373086e-01
-1.201113443235549312e-02 -1.663969332384777622e-01 -8.145088040464970591e-01 9.843803734326930233e-01 1.673767791464379484e-01 5.459207088099837096e-02
3.370364784937718815e-03 1.650787209718536097e-01 -6.003656704321771453e-01 9.767359789004859127e-01 -6.867718290579646889e-02 -2.031508603708905569e-01
8.809276298541834915e-03 -6.245038433755085994e-02 -7.073120653941085134e-01 -9.988489861142180182e-01 -1.126074290838853520e-02 4.662508560581480471e-02
8.366459362556186163e-03 1.955747336477538512e-01 -5.863954406500070382e-01 9.629214843259900070e-01 -7.927598234440136338e-02 -2.578711570663963504e-01
-1.070215979452120332e-02 -9.858501181032829075e-02 -7.485789210332405297e-01 9.884242644871223948e-01 7.645782706788203931e-02 -1.310407343277223691e-01
1.911781143103035915e-02 1.132885930800832941e-01 -5.775236156654598441e-01 -9.970120198390224342e-01 6.689302041366730622e-02 3.863102530931686318e-02
-1.288798137469537343e-02 -5.962981397218514862e-02 -7.387213000126073847e-01 9.804294183928816686e-01 9.437230968351922877e-02 -1.727773790598561843e-01
1.068238512910141269e-02 -2.739416205035178353e-01 -8.436959485613980680e-01 -2.377718490085138081e-01 -4.767169019502865979e-01 8.462892786831185399e-01
-6.408778454864396540e-03 -2.866256557816198799e-02 -6.430915620194141979e-01 9.989636913423617370e-01 -1.385942116098180452e-02 -4.335273722298164933e-02
-4.508950244445001851e-03 -2.131039614581203834e-01 -8.006916246347624000e-01 9.900739849863152697e-01 1.153859791520474853e-01 -8.024699413959825167e-02
1.142092696361302756e-02 2.268476010645424645e-01 -5.815993669316407155e-01 9.621853281399460611e-01 -1.087487339395225988e-01 -2.497460854123143559e-01
-8.173977904435841130e-03 -6.884272412565688518e-03 -6.876984381642671229e-01 9.865895301652101157e-01 5.183983655820251918e-02 -1.547699270336727606e-01
-5.121040813108265061e-03 -9.474183818587125772e-02 -6.319505197308346034e-01 9.856344071601192969e-01 8.173521248963219743e-02 -1.477977349670649976e-01
3.079075270045470922e-03 -9.062767397094360217e-03 -7.253109295974390358e-01 -9.848842000108259942e-01 -5.797904124150124461e-02 1.632223739128656204e-01
-7.806340832568294842e-03 -1.485733854598239034e-01 -7.558784378420200234e-01 9.984463910104194317e-01 5.321880591640337083e-02 -1.650948136982574241e-02
-4.657176277784195670e-03 -1.226745683452573100e-02 -6.134800777542072092e-01 9.981793341965905508e-01 -1.252689894808809053e-02 -5.900079309293521784e-02
8.964901692205045833e-03 -9.860728778427146901e-02 -6.867720363007434603e-01 -9.998321664486623517e-01 -1.380182756872989393e-03 1.826838882145302365e-02
4.220465314619405682e-03 -2.843064397984963396e-02 -7.265909477723674348e-01 -9.813802269608575823e-01 -7.835655804680469183e-02 1.753656178996133019e-01
-4.623174958964267230e-03 5.701101098537166706e-02 -6.491509598997488029e-01 9.867106356652293186e-01 2.285857175452718493e-02 -1.608713994545393211e-01
6.650713375607731487e-03 4.272063294636532609e-03 -7.001784561884668578e-01 -9.815966994799198986e-01 -6.664284337442624717e-02 1.789599144979092671e-01
-2.058887655952141779e-02 -5.618438204689022580e-02 -8.091643275749468289e-01 8.990373869939892737e-01 -1.253692502553251931e-01 4.195406152894343710e-01
1.567565272761288486e-02 6.633633151797350969e-02 -5.966976811643662781e-01 -9.977058496665253129e-01 4.913042695562035156e-02 4.657508656303990802e-02
7.266457284741232800e-03 -8.151425587376533166e-02 -7.350244040934034162e-01 -9.884274604999168101e-01 -7.424043104041737340e-02 1.322857276073960975e-01
1.054374189645375728e-02 1.735640857252563340e-01 -5.435797092274823328e-01 9.822881443641402477e-01 -1.792767591895116641e-01 -5.449628479226151234e-02
-6.538324369258237574e-03 -6.288874472084661493e-02 -6.397517141354508441e-01 9.988743215484069404e-01 2.609139563071447877e-03 -4.736329952558111095e-02
-5.236235114444085827e-03 -2.877347995868906674e-02 -6.204409555194901893e-01 9.983892461193936141e-01 -7.567604833296562306e-03 -5.622850336115901154e-02
1.038278611208908082e-02 -2.312906025012791481e-02 -5.948759230553455346e-01 -9.925462150578644449e-01 8.076891922691747938e-02 -9.126002772968472287e-02
-1.440261164960051667e-02 -7.835400792250739321e-02 -7.575552066419565245e-01 9.805537894895175466e-01 9.408131374710580752e-02 -1.722294177002448301e-01
2.473904198249630981e-02 2.177644117574249472e-01 -5.681886397718506343e-01 -9.993774275913430705e-01 -2.057281274405369648e-02 2.866211082086443651e-02
-6.425154747895355650e-03 1.789326830622338937e-01 -6.432793916586361238e-01 9.865445554525565930e-01 -2.837403329504286503e-02 -1.610116590234669520e-01
-5.234165524009518761e-03 1.805092472832053570e-03 -6.284197454792753712e-01 9.986954728920168778e-01 -2.019518946385975150e-02 -4.689889921425801494e-02
-1.359307314471924072e-02 1.365302296892952072e-01 -6.851813820730221494e-01 9.902567866602317581e-01 2.670036488018585159e-04 -1.392530975684332095e-01
-2.114797860324911516e-02 4.637965464158751161e-02 -7.523509311178314674e-01 9.914140439996159682e-01 3.336882462323960408e-02 -1.264306723212009209e-01
-1.217211834201891753e-02 -1.515062656073591918e-01 -7.945460142487483779e-01 9.757202920006008418e-01 1.369249389487968704e-01 -1.709428935993832777e-01
8.866652677741036076e-03 -7.538397626381407313e-02 -6.959550772484458525e-01 -9.998900336782110543e-01 1.482970145877909179e-02 2.248619767744397137e-05
1.705115972565372437e-02 1.905187021667780478e-01 -6.119124548638954497e-01 -9.717880285269151486e-01 -3.628753076866809979e-02 2.330477262761514734e-01
4.661562276102964447e-03 1.168216350494344184e-02 -7.083932878114916898e-01 -9.848842000108259942e-01 -5.797904124150124461e-02 1.632223739128656204e-01
-7.473771634486770128e-03 1.593810417300028093e-01 -6.892108117192037309e-01 -1.830931161843480509e-02 -6.372857065651071906e-01 7.704100838617515823e-01
-8.541282607870353746e-03 -7.668536067273047652e-02 -7.131154645483115395e-01 9.992988325435629982e-01 2.049826951955170673e-02 -3.133152124898520852e-02
1.980749069908386336e-03 1.332274693131657306e-01 -6.836944841762802039e-01 -9.376982061158438686e-01 -1.441904150024597708e-01 3.161189625260504288e-01
-2.021984808777799181e-02 7.950662348163173299e-02 -7.423134315831367847e-01 9.984051657134221935e-01 -2.889476637551368146e-02 -4.849966549223101026e-02
-1.140494282867299432e-02 -3.039357350168511024e-02 -7.931354587513579357e-01 -8.943736334270958599e-01 -1.583482709332769967e-01 4.183558639757020137e-01
1.257192336542704326e-02 3.483132809070169783e-02 -6.393470030498626944e-01 -9.990071958131218066e-01 3.557418711350451151e-02 2.681603857425627138e-02
-1.279954263622497083e-02 -5.682073369504112015e-02 -7.367022498372634010e-01 9.803188054170870469e-01 8.308641358064987326e-02 -1.790856991049825375e-01
-8.083180576126204608e-03 -1.767034713307398877e-02 -6.907324168327217961e-01 9.865895301652101157e-01 5.183983655820251918e-02 -1.547699270336727606e-01
-6.382784067412997780e-03 9.541197779483645558e-02 -6.518076103126194676e-01 9.787556903608823911e-01 4.507445428397473947e-02 -2.000139799043914868e-01
-5.361692008796272238e-03 -8.168816790095558000e-02 -6.263364254681738075e-01 9.856344071601192969e-01 8.173521248963219743e-02 -1.477977349670649976e-01
-1.705324160449993645e-02 1.057469954501712439e-01 -7.116734430954974044e-01 9.902286584630597410e-01 1.298705097000753782e-02 -1.388471838589141749e-01
1.078123984135382837e-02 -2.388708057930548911e-01 -8.155632346378650643e-01 -9.940762183753805159e-01 -8.760006369375716861e-02 6.433273584538456991e-02
-5.398342019659943362e-03 1.964097636369256314e-02 -6.461559337074622711e-01 9.989334139603557317e-01 -3.700387284369685559e-02 -2.761789036251133256e-02
5.238887123116376700e-03 3.366766660272227287e-03 -7.082594587725000723e-01 -9.815966994799198986e-01 -6.664284337442624717e-02 1.789599144979092671e-01
-1.113027866118944040e-02 9.100408186151630330e-02 -7.407794491551757954e-01 -7.374684817548630145e-01 -3.403782027252045816e-01 5.833377388166626210e-01
4.033845121749250967e-04 1.023602785910360385e-01 -5.955308672765582401e-01 9.973986616539900485e-01 -6.268410317294347001e-02 -3.558950604086715680e-02
1.118714505388319338e-03 -7.900500093501663934e-02 -7.692792346484942367e-01 -9.791707518844670055e-01 -9.948294467672402774e-02 1.769965603407451515e-01
-7.515260590524021345e-03 -2.919837043518942049e-02 -6.812988037739081681e-01 9.995921325820223968e-01 -2.142668836050224540e-02 -1.888029411917290651e-02
-4.970621986027579618e-03 -1.338197530579516847e-01 -8.165566428935009391e-01 -8.733791313919491150e-01 -1.284079000576756890e-01 4.698087952048388138e-01
-6.987950443766812944e-03 1.837616105315362236e-01 -6.475641222906496353e-01 9.859764475599362976e-01 -2.662320420396290660e-02 -1.647472301891662050e-01
-1.925137489427386148e-02 9.054141161510019520e-02 -7.289508442837779878e-01 9.984051657134221935e-01 -2.889476637551368146e-02 -4.849966549223101026e-02
1.255183882832877282e-02 -1.508563778265087666e-03 -6.009927948698448041e-01 -9.993028066701030721e-01 3.406660181753815020e-02 1.527636153865794509e-02
-1.713265848248063730e-02 -8.462392651769658214e-03 -7.409878956728190857e-01 9.863856683668490444e-01 6.432200551723173121e-02 -1.513472591318562321e-01
1.064558321366942777e-03 1.722929278767207917e-01 -6.105359920195614354e-01 9.656233681809682778e-01 -3.955861390679994011e-02 -2.569175488140397756e-01
-7.879092180822883443e-03 -3.521170208304254257e-02 -6.882730381802248942e-01 9.988173218156876088e-01 9.302675563806874284e-03 -4.772229948663009313e-02
4.848157072067357798e-03 8.380591980003845864e-02 -6.880287468272557883e-01 -9.838625176793722726e-01 -3.633092318605041920e-02 1.751987737572833215e-01
1.420499088769449844e-02 5.131753299696179688e-02 -5.703665875661352302e-01 -9.898143140619491964e-01 9.171060397877076054e-02 -1.088888827930634962e-01
8.837297646609263563e-03 -5.175310646345223503e-02 -6.073243790403680675e-01 -9.918510152845243510e-01 9.786854803800883185e-02 -8.156782934460192480e-02
-1.115346222487870187e-02 4.729511590873429483e-02 -6.878619740432083685e-01 9.834143165074381576e-01 4.669022385441191914e-02 -1.752606775196100253e-01
9.856163077380164159e-03 1.668580768523452718e-01 -5.404263196986939244e-01 9.839965368089312880e-01 -1.182131910159824467e-01 -1.333283803916035515e-01
-1.623181922061453161e-02 8.492763604954650658e-02 -7.479881293566501554e-01 7.358223235434586951e-02 -5.528511359705995387e-01 8.300248650117469928e-01
8.661917712420514823e-03 1.497871030409686222e-01 -5.355486945666648735e-01 9.596925152995635644e-01 -1.036531288048085919e-01 -2.612399375420422221e-01
-2.634980770161403710e-03 3.874578602453022935e-02 -5.951572654109189564e-01 9.980582695970974250e-01 -3.453304064205486162e-02 -5.183782010136452068e-02
1.099771375901302355e-02 -1.980228674402578215e-01 -7.649597089961083229e-01 -9.954590309899686851e-01 4.314828475339399505e-02 -8.485012164606699214e-02
2.912642080042974861e-03 7.186636496981528566e-02 -7.008993883316215756e-01 -9.776998449711252759e-01 -6.225291713250160480e-02 2.005681616107884702e-01
1.323114130645291521e-02 2.679229736781045187e-02 -6.168304519587241019e-01 -9.981785679650537757e-01 3.404006457436799249e-02 4.980783531741699022e-02
9.601214819531829828e-03 -4.848092615440411507e-02 -6.709375180416776718e-01 -9.994063660423152529e-01 5.708449999985956008e-03 3.397541924231356480e-02
8.496691787352957798e-03 -1.520600866613499857e-01 -7.132323508028860504e-01 -9.991309098078847706e-01 2.145640682513848957e-02 -3.573580379146762409e-02
9.188850367704178013e-03 -2.051494495192607292e-02 -6.930968910894971247e-01 -9.988146980902223859e-01 8.890990420959445778e-03 4.785550300928946565e-02
1.293833084669148044e-02 1.017485618894665468e-02 -6.040451577319686516e-01 -9.991789652725616699e-01 3.872455157128317643e-02 1.190816788829452723e-02
7.080823202583837704e-03 1.446187992523990072e-02 -6.940247164340040964e-01 -9.815966994799198986e-01 -6.664284337442624717e-02 1.789599144979092671e-01
-5.388830995240747289e-03 3.931425352319696531e-02 -6.561679828312450002e-01 9.983626484019765268e-01 -1.953924601996911634e-02 -5.376095368166616123e-02
-1.204219706500788030e-02 -7.103339293495558593e-02 -8.098070228557685546e-01 -8.923744052897641943e-01 -1.510077160094298043e-01 4.252817777537086785e-01
-1.246121745214972577e-02 1.247585373656398544e-01 -6.786266025273278713e-01 9.836123911591029279e-01 2.783705904145869492e-02 -1.781341126853411561e-01
-8.735826560855251485e-03 -1.492982697074063669e-01 -7.704925592460015737e-01 9.868198865244300899e-01 1.103692481510409190e-01 -1.183433167630716515e-01
-1.129274564959079075e-02 8.474391462599993596e-02 -6.797350605255529921e-01 9.829288394935463691e-01 3.805466270804837986e-02 -1.800076085559901284e-01
-2.116174122570491697e-03 2.187291428386145889e-02 -7.430593679591515066e-01 -9.790879293321785859e-01 -6.717015571156928488e-02 1.920286354107378635e-01
6.539925199301317021e-03 3.991228812466088988e-02 -6.891825082760404397e-01 -9.811057764909705270e-01 -5.460897259855204688e-02 1.856052678341331696e-01
-6.131715858865907469e-03 -2.856475395803974304e-02 -6.367385638274608572e-01 9.989636913423617370e-01 -1.385942116098180452e-02 -4.335273722298164933e-02
3.979569145271403922e-03 -2.465222571970664411e-01 -8.296453429120269618e-01 7.501449639544707781e-02 -4.401800299339196920e-01 8.947705664458968089e-01
1.751251336776389611e-02 -4.002102847440339728e-01 -9.001900333875522131e-01 9.844667447754779088e-01 1.749969935669263010e-01 -1.418734202417562193e-02
1.779595442409767983e-02 2.239639296602078944e-01 -5.575281767610088535e-01 9.739297758848541875e-01 -1.237078528336929273e-01 -1.901503583802955089e-01
-2.099489824865993434e-02 1.164194994090148212e-02 -7.603943349584479927e-01 9.912965840208127766e-01 3.410480679366570400e-02 -1.271532329995355703e-01
8.508519301636770227e-03 -1.991318498296823225e-01 -8.126709828152564041e-01 -9.356112940929358635e-01 -1.493606924501419686e-01 3.198794928040179508e-01
6.657425445900964174e-04 5.253234586676003293e-02 -5.583969496251594000e-01 9.813468937432593409e-01 9.524192393792849792e-03 -1.920092807645033539e-01
7.486125295079201032e-04 2.381721483834424793e-02 -7.279000299102201810e-01 -9.781056127290810309e-01 -7.183716121142964817e-02 1.953172614413581087e-01
1.064970055017787701e-02 -4.463439493850616946e-02 -6.320597621932865229e-01 -9.993674521875625105e-01 3.251446582616512870e-02 1.440503454279537000e-02
-5.806693133924136462e-03 2.590956027702435299e-02 -6.590559589858908662e-01 9.983626484019765268e-01 -1.953924601996911634e-02 -5.376095368166616123e-02
1.363828809890771203e-02 3.094037718029798989e-02 -5.817338133931648780e-01 -9.899020264800855173e-01 8.861622359397368365e-02 -1.106396985108092090e-01
1.582710584581453403e-02 2.162744417579783307e-01 -5.626097880977096732e-01 9.739297758848541875e-01 -1.237078528336929273e-01 -1.901503583802955089e-01
8.832509265861975337e-03 2.409318313664744488e-03 -6.879895977075992652e-01 -9.866535702747726289e-01 -5.352238943374548058e-02 1.537858449056553889e-01
1.991980046562980434e-03 1.888618501370122604e-01 -6.536088909665904723e-01 -8.789639000500427679e-01 -3.061962085194435135e-01 3.656040813463873329e-01
-5.635583659842684397e-03 -6.787449914008601703e-02 -6.258088197345558212e-01 9.969906665607728424e-01 6.115368035748488737e-03 -7.728009487890706575e-02
-1.881347089825304367e-02 -9.754522207392814226e-02 -7.975475224254884310e-01 9.925676739617418365e-01 8.265391010560316221e-02 -8.931821622956878648e-02
6.103677838586695804e-03 -5.038207323289458500e-02 -7.265373621127275694e-01 -9.788337820375496712e-01 -8.867295443558230461e-02 1.844492729552798527e-01
-7.213641526986875815e-03 -1.416943728090283294e-01 -6.761886563971699626e-01 9.977622214398251810e-01 2.800050236319793356e-02 -6.071673027159409791e-02
7.151859117096360380e-03 -1.183256240083608163e-01 -6.672147390267194611e-01 -9.891883335743576477e-01 1.071575193698474510e-01 -1.001184636462513350e-01
8.848089737479390010e-03 -8.636613981506525983e-02 -6.922403526030384002e-01 -9.998321664486623517e-01 -1.380182756872989393e-03 1.826838882145302365e-02
2.911567585889466604e-03 1.273085998236650473e-01 -5.828358025402071707e-01 9.948804927886857330e-01 -9.129367144893475727e-02 -4.333901962338017333e-02
7.199934962985643332e-03 -1.786565676795226210e-01 -8.060030010294976233e-01 -9.571207622643932433e-01 -1.509722899786216377e-01 2.472391839920151102e-01
-2.584420398714203180e-03 -4.830030992100154547e-02 -7.728889597209311901e-01 -9.751088999539089253e-01 -9.249176902856715010e-02 2.015140339843446426e-01
9.485919939990521826e-03 1.038394080120478985e-01 -6.591368674163639030e-01 -9.813870336447280129e-01 -3.108521769624198600e-02 1.895077819900233274e-01
-6.862331566241278852e-03 -1.592597377700424865e-02 -6.623921230075483502e-01 9.995468871828231405e-01 -2.096847786188397317e-02 -2.159498227098229084e-02
-1.698087541064161043e-02 -1.233900666244127781e-01 -8.194578150157848517e-01 9.868909202497282429e-01 1.420354980647728638e-01 7.663046925431264700e-02
6.096634558478698264e-03 1.268931701728923944e-01 -5.362835113783469554e-01 9.772238084611788445e-01 -3.243306883956423997e-02 -2.097182019336347181e-01
3.017327102224282628e-03 -1.858067611839914202e-01 -7.151889559138229213e-01 -8.224357894467347885e-01 4.764649619945413583e-01 -3.107740533388625437e-01
1.514418205149994229e-02 2.043006987362982751e-01 -5.569692834350079558e-01 9.809245500014740493e-01 -1.553021923128211912e-01 -1.169113179603960273e-01
8.743851128768532696e-03 -9.986975650479651412e-02 -6.711610900320158501e-01 -9.995409915098224518e-01 2.760493233341540856e-02 -1.248094557428567654e-02
-1.286680358486833389e-02 -1.295201384647303722e-01 -7.813094802082093393e-01 9.762110185852576061e-01 1.202117912687792056e-01 -1.804471458147373086e-01
1.248748165215062217e-04 -4.230767531424271810e-02 -7.568288906730611387e-01 -9.850778439755835114e-01 -6.472384318575057083e-02 1.594755950974377501e-01
4.447762399285593374e-03 -1.163079629646164154e-01 -6.473018892060398155e-01 -9.640306430767052737e-01 1.840529134480524964e-01 -1.917536029919579832e-01
-1.298754233528823590e-02 -1.473678601934839960e-01 -7.958854956589169749e-01 9.757202920006008418e-01 1.369249389487968704e-01 -1.709428935993832777e-01
-1.384311022063566994e-02 1.469525068231098131e-01 -6.910637984697405312e-01 9.955440730816872419e-01 -5.639174654736192616e-02 -7.557757255470674840e-02
-2.199786129134269699e-02 1.166396733976716830e-02 -7.682076080899283843e-01 9.912965840208127766e-01 3.410480679366570400e-02 -1.271532329995355703e-01
-3.417544791488237588e-03 -4.119616576402234526e-03 -7.590949696077495812e-01 -9.781513513965299778e-01 -7.310621572566625148e-02 1.946160707223688058e-01
4.756473074160133541e-03 5.631904165933495493e-02 -5.459481366674864278e-01 7.505196249172921830e-01 1.687539550423478585e-01 -6.389384909923429001e-01
-7.381505716966537366e-03 -1.714314567630168540e-01 -8.203508538845699638e-01 -1.177719605044444395e-01 6.523458255611111478e-02 9.908956628009174539e-01
3.565615752679886577e-03 1.395085751241285921e-01 -5.911816615213298931e-01 9.935985384652273877e-01 -6.752829963825687787e-02 -9.056419329806771057e-02
-1.224355873006239409e-02 -1.257000034855029758e-02 -7.139182442521324612e-01 9.811211934382975119e-01 6.840796283870947958e-02 -1.808910014524449383e-01
2.785923370381101702e-03 -1.884018044704209860e-01 -7.185551715895658331e-01 -8.224357894467347885e-01 4.764649619945413583e-01 -3.107740533388625437e-01
1.632398434761852743e-02 -3.595144713876595732e-01 -8.925000985563033007e-01 1.472114917498669739e-01 -5.027519280729929596e-01 8.518035427935638504e-01
2.523272983520895643e-02 1.838020651590452359e-01 -5.559739814274021752e-01 -9.972563304833869102e-01 7.270005185773306677e-02 -1.394681937548630964e-02
-1.852920008930821448e-03 -5.933405111486894472e-03 -5.789847177660714106e-01 9.843562440192383800e-01 4.016314253510853971e-02 -1.715508870336783509e-01
1.607523036308666775e-02 1.708930004770447264e-01 -5.319168446522091198e-01 -5.791603366122419772e-01 -7.595452005525611672e-02 -8.116675522517640129e-01
8.994722536859537862e-03 -7.503297144890459791e-02 -6.878992365104869000e-01 -9.997126616152001155e-01 6.949920601750174051e-03 2.294107255298583753e-02
-9.719931798517362706e-03 -5.874193653805802329e-02 -7.193362789417216963e-01 9.869353348425101702e-01 6.521238817923613595e-02 -1.473295261217611729e-01
1.222061220406061785e-02 2.141557970681897682e-01 -6.087418591490791897e-01 -8.148495075032714530e-01 -4.212692381260599306e-01 3.981865255509842161e-01
-5.115868451965297631e-03 2.278694530439877297e-02 -6.402109502379382810e-01 9.989559478784506563e-01 -3.494073657966530883e-02 -2.943058146786510162e-02
1.623600370022920073e-03 -2.579514748641310584e-01 -8.331527252258623673e-01 9.724172884488389013e-01 -3.977069588354058272e-02 2.298323494957711932e-01
2.298678140068273479e-02 1.576325681625425357e-01 -5.659405732369585662e-01 -9.952047918782115365e-01 9.781285661174794754e-02 2.594303275198215947e-04
