-1.531772085213514364e-02 5.368827745953454016e-03 -7.645433967295170996e-01 7.001725148557927936e-01 -3.168664847269689888e-01 6.398078463861538445e-01
-5.331290645846897824e-02 -9.351316637847402469e-02 -6.217375672203460102e-01 -3.109693730844926285e-01 6.439663496353531524e-01 -6.990031398647330585e-01
-4.646527728192335893e-02 -1.602044299206785705e-01 -7.088130849133122968e-01 -9.625114921781677824e-01 8.655370006981785713e-02 -2.570604684294743314e-01
4.817076184503192582e-02 7.654727181621560732e-03 -8.073101656873509224e-01 2.826974239602217942e-01 -5.360041034256722847e-01 7.954758120754495954e-01
-5.435035532461083424e-03 -1.311428107368413642e-01 -8.077805619067669474e-01 -7.842507423562932178e-01 -5.627004659107936319e-03 -6.204184958011561557e-01
1.216879186976421445e-01 1.752681249978628175e-01 -5.475447157683357435e-01 4.253353075138897599e-01 -1.754629797608179553e-01 -8.878640768245552595e-01
1.635771237844260428e-01 1.547481211467242046e-01 -5.513665654597872390e-01 -1.951951087940302088e-01 9.597416890407740597e-01 2.019771269724589813e-01
8.120735304848865355e-02 -4.016761484232898340e-03 -8.179554408084056538e-01 -2.563970823283992506e-01 -3.411320748463773644e-01 9.043724032081527087e-01
-3.941129155420990127e-02 -2.084011098651211147e-01 -7.716853300941196592e-01 -9.577177480525468634e-02 9.386828311876449504e-01 -3.312133898021007994e-01
-5.834727574641440651e-02 -1.519968901264091843e-01 -7.997259614069411882e-01 9.952920713517583451e-01 -9.690194178788141821e-02 1.925196630037327109e-03
-9.909384775330508377e-03 3.783063170003281295e-02 -7.342196570704097036e-01 5.039394619890421589e-01 -7.556137562799876140e-01 4.184409993901673230e-01
1.998342249931897574e-02 -1.410893052946515513e-01 -8.535139216298077702e-01 -2.934073617642895537e-01 2.124070283586015559e-02 9.557515119556746486e-01
4.474511078806694964e-02 -4.827104480442694773e-02 -8.313602855336985620e-01 -9.213020079390379932e-06 -6.380229471191644075e-01 7.700173497165476721e-01
-6.466549489872479295e-02 -5.080521732122565692e-02 -6.121767641473405686e-01 9.203478811697212159e-01 7.093380806563680252e-02 -3.846143165558351118e-01
-5.503691449219782691e-03 8.032580822485946639e-03 -6.283599163167908896e-01 -8.457458394001455826e-01 2.263264534372275150e-01 -4.832083521751974753e-01
5.936360366797228949e-02 -4.748580164693781691e-02 -8.000135818714666502e-01 -3.363772237723119951e-01 6.330364999880476740e-01 -6.972195873683658673e-01
-6.869096022361342868e-02 -1.721569781216602257e-01 -7.182649052949043877e-01 7.813597877809815850e-01 5.730220901285728585e-01 -2.472297843374482162e-01
7.448265687945704316e-02 -5.904959685698132205e-02 -8.284402146959489732e-01 -9.274261024657982633e-01 2.646470434881763589e-01 2.642778213132268017e-01
-7.325291369667093211e-02 -9.210837953254522037e-02 -7.564605628840681550e-01 9.662730093097632311e-01 -3.876087962423478001e-02 2.545860673528893003e-01
2.078597444018797161e-02 4.405357577430407678e-02 -7.500208771278258357e-01 2.171449752548576806e-01 -9.534696222851407610e-01 2.091500396868194167e-01
-4.980535874330460633e-02 -1.496180297368134571e-01 -6.693550015865962211e-01 -7.310434135894124941e-01 6.195493641936716811e-01 -2.858917850774245761e-01
-1.748936524874318901e-02 -1.539412785046561372e-01 -8.480617961872787269e-01 1.882515160984725711e-01 -6.193289449338632568e-01 7.622289843962472000e-01
-4.245613934073002443e-02 -2.025110908823049283e-01 -8.292639894221496277e-01 6.882360001762233281e-01 2.352244915652733914e-01 6.862948685727530140e-01
-4.023742436338988843e-02 -1.439488628153919869e-01 -7.626996176326260590e-01 -8.954972280835110654e-01 1.911060267621922937e-01 -4.019492518091265509e-01
9.726272737095878473e-03 -1.698447120065667629e-02 -6.983049847503722818e-01 -7.400037208979435288e-01 4.916689939796735631e-01 -4.589728678432030140e-01
-5.607835171046528927e-02 -6.597362509865838109e-02 -7.637247556184073582e-01 6.134270464301992964e-01 -3.274491923614272770e-01 7.186684111116691254e-01
-2.457660839026834521e-02 5.456959803777292062e-02 -6.319117007716918977e-01 6.692158644043472160e-01 -6.959109113179819950e-01 -2.604959315193198788e-01
2.183190043388683055e-02 1.286509311683526890e-01 -6.339050745107555063e-01 7.055039257165974798e-01 -6.896510203923410520e-01 1.632350479225358475e-01
-1.709520604182339712e-02 -5.767346920310453123e-02 -7.172333183410749546e-01 -6.804486630021120419e-01 5.448009305701541072e-01 -4.900832205539504272e-01
4.866542845651587561e-03 -1.404551431156493835e-01 -8.548781539757440706e-01 4.790770312755783522e-02 -1.311997921650851218e-01 9.901976906238877385e-01
8.083004921661977871e-02 5.535416259135644834e-02 -7.473217300457024592e-01 -8.726542908581444991e-01 1.783914863344196466e-01 -4.545887880824443505e-01
-6.809154942602498040e-02 -5.927259957453153566e-02 -7.574606894606911167e-01 3.654697199216192516e-01 -5.343962685863495876e-01 7.621368065783198364e-01
-3.796979799220477625e-02 -1.944948477004695420e-01 -7.641770554930894521e-01 -7.212383983413616084e-01 -6.571471567268202807e-02 -6.895627229643770395e-01
7.043382054592257913e-02 3.043421047217803599e-02 -7.971772134014745159e-01 5.557461071268351427e-01 -8.952774505366023483e-02 8.265174210377995712e-01
-4.505954184145327668e-02 -3.981076206587780275e-02 -5.965068130473210051e-01 -1.162624557778478424e-01 2.348686225680532702e-01 -9.650491031597766556e-01
-7.945684687483552458e-03 1.799908074123928933e-02 -6.189989532768764846e-01 -8.376967689635365089e-01 2.096610410628710341e-01 -5.042879843189651545e-01
-6.292786076362050229e-02 -1.568454977807154371e-02 -6.571499222938235185e-01 8.954860811878649907e-01 -4.334206727680359195e-01 -1.012482040142132500e-01
-4.958294902530436914e-03 -4.277638180102716348e-02 -7.134030632045607057e-01 -5.316569569177250765e-01 6.691409175834265310e-01 -5.192218336863294592e-01
3.242981197852680408e-02 -1.290277288626616725e-01 -8.393360302892554081e-01 -6.319167748503261572e-01 5.484530013674612237e-01 -5.476134539561511305e-01
-1.229851536687302099e-02 -8.001379307816665343e-02 -7.479113028087824855e-01 -9.036593843246648605e-01 3.678380415684036620e-01 -2.193054771251486956e-01
-4.273354143908295044e-02 -1.602308605594142954e-01 -7.261656884656256805e-01 -9.777782491254028985e-01 7.912833367908916893e-02 1.941350106148618526e-01
1.130171218254324844e-01 1.886609798309792640e-01 -5.706440167548828546e-01 3.703281907071286350e-01 -9.214828935286446532e-01 -1.171593278474274552e-01
-7.363508437359858605e-02 -6.168254228811417134e-02 -6.523515939733758318e-01 9.816631628439212998e-01 -4.789205040256740847e-02 -1.845095830126626257e-01
9.474766842110932119e-03 -5.447680596458173534e-03 -7.936067183159255523e-01 6.343042290065050715e-01 -1.800086277118119749e-01 7.518344492065880402e-01
-3.132869441155586299e-02 -1.831104699420531556e-01 -7.727259781340042322e-01 -9.487650813911676639e-01 9.391047493335643410e-04 -3.159809146373891431e-01
1.688197083664414941e-02 8.450371205665260788e-02 -6.929115838113126813e-01 5.114432812357949665e-01 -8.411275381350452607e-01 1.758699367988782181e-01
5.828393998125003250e-02 -4.650737424642597401e-02 -8.314852098613403353e-01 1.979153557245645900e-01 -3.519768774682324741e-01 9.148452271811511327e-01
-2.463678135411902226e-02 2.962658824197405769e-02 -6.047925110746319444e-01 7.512459379010623384e-02 -4.523977831476274081e-01 -8.886464658180911469e-01
4.952554815210181288e-02 2.950960499790224872e-02 -7.896631323198121111e-01 1.368902389836976763e-01 -7.456502247851604093e-01 6.521248383161201145e-01
-6.376976125459205003e-03 1.759349174428214910e-02 -7.640631050654940193e-01 5.947737510111359427e-01 -5.626580405401554463e-01 5.741603561059019922e-01
3.520661341461974597e-02 1.387620582840206618e-01 -6.073412640550767128e-01 7.407643980399909456e-01 -5.141446533184307333e-01 -4.323463681592807917e-01
5.585980419008283737e-02 1.173878597745759006e-01 -5.996597440069691975e-01 -2.441743667515971772e-01 8.176497218910731002e-01 -5.213710875306640791e-01
-4.721281864985654025e-02 2.057259682166329151e-02 -6.173406054877109694e-01 8.166312589873018224e-01 -4.767212826568131834e-01 -3.253462855279852239e-01
-7.455764587877171390e-02 -1.037695391362068592e-01 -6.895805793950062768e-01 7.756484751918764076e-01 -1.571826814637294067e-01 -6.112798439179790710e-01
-3.993030155666194014e-02 -1.717517207663885048e-01 -8.192897390888232989e-01 6.264003744803317564e-02 -3.783808660363221499e-01 9.235280969879108293e-01
-1.638151053219722222e-02 -2.062433949530705080e-01 -8.032486326428971424e-01 -6.255977822336937777e-01 2.119049000670321925e-01 -7.508153755696969078e-01
6.357914879893759863e-02 2.255535371175811793e-02 -7.485658164560125005e-01 -4.578806759925374004e-01 7.434057345551112750e-01 -4.875378963559574563e-01
-3.383033629053233682e-02 -1.919771110368550526e-01 -7.680553768176452412e-01 -6.691657901810392772e-01 -4.931079394276884076e-02 -7.414752800007017308e-01
-4.275396522992411241e-02 -1.428616222068757879e-01 -8.287874693014704031e-01 5.947278718054138658e-01 -5.212534429790219859e-01 6.120405269917333912e-01
-6.672757864822821683e-02 -2.328027342591963353e-02 -6.657550794615917367e-01 9.324110760768761219e-01 -3.594974871166620733e-01 -3.702893417271314186e-02
-6.109619283794866934e-02 -4.267836786541507471e-02 -6.057233160962363083e-01 7.501115479547668663e-01 4.640916832534211500e-02 -6.596808733927742585e-01
1.861262615063375564e-02 -7.694361272762900716e-02 -7.961481049917568109e-01 -5.842938455747149762e-01 2.850162822159003073e-01 -7.598463139973355984e-01
1.517492206850842157e-02 6.630671376236817183e-02 -7.307307347094017524e-01 6.377581507124694404e-01 -6.271127350103729015e-01 4.472070647782978581e-01
-3.587327342943395087e-02 -8.308679078306897836e-02 -7.033158231294242002e-01 -9.161101744620788745e-01 3.696232690625271822e-01 -1.553086836419336481e-01
-3.428820601962929288e-02 -1.294399667789090935e-01 -7.648542107715708971e-01 -7.572538435384259525e-01 3.968265853752803163e-01 -5.187439422158841573e-01
-1.875242352550973018e-02 7.550075340403535062e-02 -6.654286019556432397e-01 9.150184188330248158e-01 -3.550525574985786137e-01 -1.915175569237183295e-01
-2.823391064964584848e-02 7.167270686296615782e-03 -7.480506882235261612e-01 6.973688347327843262e-01 -4.631365353334070400e-01 5.469746410783649093e-01
-6.374565504345122702e-02 -4.947558121067259507e-02 -6.207070148919116015e-01 7.217312009537957262e-01 2.859128424957696479e-01 6.303633238583770115e-01
-7.856359989076317635e-03 1.535653015593652776e-03 -6.271736831680519986e-01 -8.314928742021708841e-01 1.588022232097625885e-01 -5.323546318523482146e-01
-4.810414565102069662e-02 6.618543219323720812e-03 -7.047617550712697021e-01 5.837786171421378567e-01 -6.237029519646360987e-01 5.198049190592679558e-01
9.357112822529482787e-02 1.380555386003934071e-01 -5.794396524412818161e-01 -2.400604037057632867e-01 9.118014137610711556e-01 -3.331503931198908086e-01
7.088987534586280170e-02 7.779328093880430450e-02 -7.353007363553724085e-01 -6.604848505272403747e-01 -7.466597224680741052e-01 7.911397517447649186e-02
1.111068568380648748e-03 -6.073419189621704489e-02 -8.261932763280728231e-01 3.413254910890046179e-01 -4.934128041153562072e-01 8.000254457627399285e-01
9.907202340488852760e-03 5.513943081113139959e-03 -6.704375876343782181e-01 -6.463764766987357691e-01 6.681483301885159376e-01 -3.684769453260633432e-01
-5.678936570514888510e-02 -1.145266778036240635e-01 -8.012077554776162458e-01 9.597666940052597129e-01 2.644758721791963252e-01 9.434196369202511867e-02
-4.543666795320118468e-02 -2.025420568029800417e-01 -7.611400529425720318e-01 -1.680912274895785818e-01 7.523059377103011869e-01 -6.370095096047398986e-01
-5.501668183191738004e-02 -2.829416575705016867e-02 -7.187253092565393242e-01 7.610354104792682595e-01 -5.619707636052385658e-01 -3.240585824347148036e-01
3.716290011262764204e-02 -7.852504357222905851e-02 -8.447349871622902295e-01 1.023161175257528144e-01 -3.069400385851908664e-01 9.462130969331262742e-01
-6.178180491660605761e-02 -3.944917180112200716e-02 -6.300832236612883275e-01 9.967202134633942334e-01 -3.245955722197281512e-02 7.412957047251210463e-02
1.354579017900768047e-02 -1.330617648778414652e-01 -8.538786964671106761e-01 -6.345611429036429607e-02 -1.361394020173720965e-01 9.886553417533942012e-01
6.652422175917169223e-02 1.962261693293507192e-02 -7.555608240248139484e-01 -5.084999309268923851e-01 6.883322651072448783e-01 -5.173263119730865389e-01
1.652820604998652201e-02 -1.525817605472002403e-01 -8.289684173847592374e-01 -8.365315209850714417e-01 -2.129490763345911475e-01 -5.048442386386591263e-01
-6.037137763811298644e-03 -2.291316727352787352e-01 -8.187163814325912892e-01 -6.189235624313296213e-01 3.018148135344612681e-01 -7.251492551181932811e-01
-7.947337003008832224e-02 -1.114305375664823849e-01 -6.991051702498508602e-01 9.494995163566033458e-01 -5.334584022443675938e-02 -3.092004038957989476e-01
8.817018896771725012e-02 2.318767496497962585e-02 -7.746158844985233660e-01 -9.005378916608515194e-01 2.452212804135668611e-01 -3.590237169259983818e-01
-3.557681887649938313e-02 -1.815184994797989504e-01 -8.332841488081395021e-01 7.654104926876958981e-01 4.390737505836829757e-01 -4.704901903674043595e-01
-5.235190449566053117e-02 4.632836738563117333e-03 -6.990109896463653216e-01 8.390206195298397507e-01 -5.017489911642111222e-01 2.104574775802953712e-01
-3.959065904004253206e-02 -1.084827958924170915e-01 -6.730719636842346087e-01 -9.504167897911777185e-01 1.935068044754772454e-01 2.434400178785770530e-01
5.406583676214576917e-02 1.432614931078008136e-01 -6.307337589608571493e-01 -2.033784714129172888e-01 -5.377363836495503424e-01 8.182156067108772302e-01
6.229948539318085760e-02 1.591670845999794137e-01 -6.149220098056197292e-01 1.884936566190793805e-01 -8.213260699146593957e-01 5.384177080045829955e-01
8.452210242725023692e-02 1.369021972268510134e-01 -5.781161519252838721e-01 -7.793188454460384107e-02 8.415162340200955660e-01 -5.345811905145579912e-01
2.849919017378838709e-02 -1.173714009587155105e-01 -8.480984792431855990e-01 -1.891715116868407931e-01 -2.366650291042916576e-01 9.529972734300871107e-01
-6.351534655879313707e-02 -8.186998540815552949e-02 -6.230513338926706446e-01 9.291670065880645035e-01 -1.121460145346924453e-01 -3.522384778699799712e-01
-1.398458415567532809e-02 -4.668009443881732112e-02 -6.856470906029573653e-01 -8.657485933126590760e-01 4.947010310318358806e-01 -7.583048907392454796e-02
-7.552680095376017311e-02 -8.175861507198235734e-02 -6.636012094021087604e-01 9.882833984592621634e-01 2.644821136498964539e-02 -1.503210445859272937e-01
-3.401213016064635192e-02 -8.526863368853616898e-02 -6.756258356070047322e-01 -8.253202724812678248e-01 3.366955634307830514e-01 4.533018259366200509e-01
5.991810611613345577e-02 6.373553647700151703e-02 -7.697422995388237821e-01 1.091904366370091417e-01 -7.885447995589922598e-01 6.052062025751950847e-01
-1.359956551297726926e-02 6.788031243630618383e-02 -6.923805714006305845e-01 2.333989215999020261e-01 -6.810527217847589521e-01 6.940404408574291084e-01
-2.894133348531141570e-02 -8.903591572269328736e-02 -7.311595995203956644e-01 -7.517705939837111551e-01 2.336540089330928494e-01 -6.166415313055649827e-01
4.694074502618735684e-02 -1.320822352214007234e-02 -7.654629597282522901e-01 -6.473729579448196381e-01 4.158636192727605541e-01 -6.387219297058269740e-01
-3.300929308062836715e-02 1.982589188357492330e-02 -7.255288716805253779e-01 6.729940524487909581e-02 -5.140372195413978051e-01 8.551236910411466052e-01
8.712021612537469706e-02 3.473746100003555909e-02 -7.672956225396179164e-01 -9.509720953316972425e-01 4.445154245421267108e-02 -3.060655718532918623e-01
1.032471680858968247e-02 1.024931008712232916e-01 -6.238762169861064022e-01 7.110169707616480483e-01 7.052893484256143875e-02 -6.996288563509250880e-01
-7.236665330769781468e-02 -1.281030136523256813e-01 -6.822420166891255411e-01 7.969918231908158512e-01 -5.628652910433007417e-02 -6.013616718817110796e-01
9.179765951182232431e-02 1.437128103942841573e-01 -5.693597573513058396e-01 8.720312928721574153e-02 6.872373600177436037e-01 -7.211798841054564146e-01
-3.224462916712652477e-02 -1.120353882108930249e-01 -8.327711403927676725e-01 4.677644486763162246e-01 -3.375989724352294052e-01 8.168374099937020238e-01
-1.010968973152354469e-02 -1.301358595054823986e-01 -8.492687657491698738e-01 3.226760193932105003e-01 -2.930341829710998991e-01 9.000061967114518779e-01
4.150682127753491796e-02 -7.195389998097705131e-02 -8.427671982779137982e-01 1.027989828832862190e-01 -3.649920633552148908e-01 9.253178712236483916e-01
4.003061217381772424e-02 8.724059324310683150e-02 -6.309567320048460326e-01 -6.921426393795938603e-01 5.248487584743626311e-01 -4.954516600845835228e-01
1.501293512171393389e-02 5.003503565543086784e-02 -6.359380782741079763e-01 -6.421044996864047061e-01 2.890004853232825965e-01 -7.100567096826697622e-01
3.181461140558275100e-03 -2.164178614157185043e-01 -8.255408415599642113e-01 -9.162383793119801556e-01 6.920392510595717306e-02 -3.946112631764141510e-01
-4.404952717795600908e-02 -2.005049139545465320e-01 -7.598783990393327414e-01 -5.502966702795598630e-01 4.400417365132078817e-01 -7.096033010109732420e-01
-3.713712600428085292e-02 -9.345788391157906772e-02 -7.163661558981029298e-01 -8.881416120770350142e-01 3.928455073962006106e-01 -2.384887507112803118e-01
7.279397255937908318e-02 1.275928942403160571e-01 -5.901823312868721416e-01 -2.572439969639944146e-01 8.529683386947057855e-01 -4.541701654780749831e-01
-5.787888411736838434e-02 -1.972093267800001937e-01 -7.988484021241379907e-01 8.659959818133337039e-01 2.485395958652190651e-01 -4.339113144068890704e-01
-4.697222751906389437e-02 -2.121667570150642390e-01 -7.945840312262434368e-01 5.887903412036866735e-01 7.972067602836301337e-01 -1.333690948583100000e-01
-2.614170898967289186e-02 -7.459368722410568420e-02 -7.214381474292282936e-01 -7.993441660168905116e-01 4.909878923589577338e-01 -3.463809951652519481e-01
-5.635984634541971183e-02 -2.008566441523447765e-01 -8.038222748673475859e-01 8.672310573746802032e-01 4.600575465354932447e-01 1.904136208377348871e-01
1.724626915353374701e-01 1.635901822023471675e-01 -5.607999080335839270e-01 -4.168467667322754977e-01 6.362810942537020509e-01 6.491418505690104146e-01
1.558948345818082781e-02 4.648147766465791225e-02 -6.379057862698740422e-01 -6.421044996864047061e-01 2.890004853232825965e-01 -7.100567096826697622e-01
-6.631728909969472965e-03 -1.933627066028704433e-01 -8.534909236937164856e-01 -6.014733981527054657e-02 1.812806514193233687e-01 9.815903539329082772e-01
-7.003064802200902050e-02 -1.811246309633571250e-01 -7.619379400530501556e-01 9.232574403444450128e-01 3.837316092503214038e-01 -1.859437847260038412e-02
-5.343882107713004981e-02 3.310983119648314567e-04 -6.443625296174712025e-01 3.348845562747402305e-01 3.918348815896576243e-01 8.569234268814742705e-01
-2.484977315560747690e-02 -1.905972243766857477e-01 -7.905517186022912313e-01 -7.435508711238233426e-01 1.183953964595587938e-01 -6.581144521648096823e-01
-7.492920189740789882e-02 -5.976407605165343084e-02 -6.629729102122313700e-01 9.950218831634505268e-01 -6.102505670321923398e-02 -7.878701974455805390e-02
5.778532331762951252e-02 1.295422112854394681e-01 -5.875960124831448583e-01 3.092060672235952268e-01 4.305205791540395177e-01 -8.479644089919033956e-01
7.237702533175104092e-02 1.682964366474137829e-01 -5.848495068221162274e-01 6.043344236365056910e-01 -7.204763029871759095e-01 -3.401379150313345034e-01
3.762903290797574296e-02 -8.872231153644731527e-02 -8.147788123192755139e-01 -5.873144553611889807e-01 2.653213529866809139e-01 -7.646347560588041548e-01
-1.662697444397842270e-02 7.994199785246589030e-02 -6.653484027539378065e-01 8.610209070960261890e-01 -5.085692430310256862e-01 -5.679668880697244645e-04
5.282424650883506267e-02 1.251750622002264224e-01 -5.916956720056101293e-01 2.182236112249558713e-01 5.251743862801100393e-01 -8.225389471017461318e-01
1.730892984687379746e-02 -2.982552907041209969e-02 -8.084743647319840854e-01 1.098768462347826935e-01 -7.838640586295532175e-01 6.111335502574721801e-01
5.066285315228507419e-02 -1.599850584612894783e-02 -7.709431092817953246e-01 -6.355838694460379523e-01 4.048064541811266515e-01 -6.573924851664377789e-01
-2.691520789284406953e-02 -8.081793721538264863e-02 -7.280924006748843436e-01 -8.094771081325985440e-01 4.478037222865032252e-01 -3.797612904386615251e-01
2.036874675829110706e-02 -5.456711074005600459e-02 -8.291893853564629158e-01 2.644407973715222626e-01 -5.206451499338133893e-01 8.117879603294879676e-01
-7.332631197491956687e-02 -1.070164129589182000e-01 -6.872589917539804194e-01 7.571728195567611897e-01 -1.582533904446252471e-01 -6.337548309379940070e-01
-3.165685664842322194e-02 -7.588307100522247162e-02 -6.799422827353927001e-01 -8.219469799427631118e-01 4.348629445228183177e-01 3.678279239589012928e-01
3.914791145657001842e-02 5.911012180864524956e-02 -6.644494827847817753e-01 -9.757838041868838186e-01 1.670279690311086418e-01 -1.412360614287878624e-01
-4.853195033047053020e-02 -1.243267493830462478e-01 -8.208949887548079305e-01 6.384195538515179402e-01 7.661018574472663323e-01 7.421871243747898972e-02
-5.546575413995955689e-02 -1.596618928242994895e-01 -8.135631137182146588e-01 3.543624414406218448e-01 -3.833133322258541198e-01 8.529350206399980427e-01
4.807620088703721747e-03 -2.260381342994844112e-01 -8.405312686991240900e-01 -9.208532758407124152e-01 1.647747278433118745e-01 3.533815691820831328e-01
-5.886135521634407175e-02 -1.632617547387565093e-01 -7.991312799166611081e-01 9.433955608772295331e-01 3.206039782321201247e-03 -3.316542431901811083e-01
4.198994300142500427e-03 -3.405359693515163516e-02 -7.210875688533835426e-01 -8.739559980984007437e-01 4.857989735756932936e-01 1.415170168675009867e-02
4.536102435613766776e-02 1.452854001608485102e-01 -5.977483002055086203e-01 7.414546880844583576e-01 -4.898760360516027923e-01 -4.585481597607250492e-01
-4.294629697348128355e-02 -1.483834747834558709e-01 -7.318197711395991734e-01 -9.745841998543827156e-01 8.947514745060866637e-02 2.053773000671796356e-01
-5.392223391157865975e-02 3.172008099881738763e-03 -6.106973059712695884e-01 8.012118367114158257e-01 -4.240924857813836435e-01 -4.221435256133705960e-01
5.259411650626861709e-03 -1.272337709081731993e-02 -7.843142990714083718e-01 6.805209051840341861e-01 4.280628637705613526e-02 7.314772173171959491e-01
5.396108553006254138e-02 2.055862248921222924e-03 -8.126603613434153495e-01 2.684679239996215494e-01 -4.874195108158868583e-01 8.308713463944552569e-01
-2.939262382246773941e-03 -7.716567190713359559e-02 -7.673210494006514892e-01 -8.499870274024414751e-01 -8.439006896584075323e-02 -5.200003552955537733e-01
-4.030301488101822177e-02 -1.196956721466943888e-02 -5.947566075061238022e-01 1.249391785344630135e-01 -1.005583968519209170e-01 -9.870553229124015004e-01
-5.443535124891282079e-02 -1.678611226197969652e-01 -8.173663588797098756e-01 5.970323131315957710e-01 -2.237170195051985944e-01 7.703915317943511587e-01
1.673460510520199257e-02 5.672620070658995761e-02 -6.343973322981611984e-01 -5.788576538408529704e-01 3.752736823425966706e-01 -7.239430087589014962e-01
1.184500911846110560e-02 2.173657864891301306e-02 -7.768852719927692441e-01 4.829365580582730688e-01 -5.835535944242629114e-01 6.528686570247888010e-01
2.077812239491607857e-02 8.450703670552301566e-03 -6.894039718485243107e-01 -9.067369644318810096e-01 4.138173390435372911e-01 8.113745891870152716e-02
-5.772455051564965439e-02 -3.788731096054887698e-02 -7.469737833818170802e-01 9.957531848090278581e-01 -9.104346954018056881e-02 -1.366314739597643095e-02
7.997957968810459617e-02 2.315487835752791032e-02 -7.608772268825495511e-01 -5.449781270375092523e-01 6.650658733317750260e-01 -5.105744070947266788e-01
-7.386789809077914937e-02 -5.809759794762135721e-02 -6.555023870176569512e-01 9.864529013628849929e-01 -7.537998813105041551e-02 -1.457001399522635798e-01
3.433737190959743751e-02 4.040202530287848731e-02 -7.688559365607389173e-01 1.081535256019137692e-01 -9.092108247150451072e-01 4.020428971153001685e-01
-7.924988887612217925e-02 -7.711192523098270302e-02 -7.207022446021562612e-01 9.877084042224690830e-01 -1.503335208270239753e-01 -4.280117690034535710e-02
-6.025355223263501904e-03 -5.758581351472583099e-02 -8.208749864687211462e-01 3.952830685395046229e-01 -5.060732699177066252e-01 7.665775506762466662e-01
-5.128444033822793929e-02 -7.828023229392088583e-03 -7.241092051318885892e-01 9.267161498267709741e-01 1.455300487662068154e-01 -3.464364047792194978e-01
-4.372986853590338924e-02 -1.530765776528111577e-01 -7.544712633973232885e-01 -9.817629798924235596e-01 8.846408155727970846e-02 -1.682722721869997495e-01
3.669532063505557412e-02 6.600923602038301363e-02 -7.548258667083426188e-01 4.521320255847249281e-01 -6.967130434654451587e-01 5.569268951179952021e-01
4.419083506686007079e-02 1.079193313683634997e-01 -6.085961576058130929e-01 -1.944774211888142812e-01 7.777954243574604076e-01 -5.976728289761435997e-01
-2.092524009606098329e-02 -4.684713547174511328e-02 -6.592078991608926186e-01 -9.245958200095947266e-01 3.463061429453394013e-01 -1.587281480365327069e-01
5.867275819804398246e-02 2.649184899586956576e-02 -7.373646795161630241e-01 -4.371721463535189200e-01 7.748868279671782267e-01 -4.565423510427285003e-01
-7.729719633467746487e-02 -1.030217932039835804e-01 -7.662206448246891011e-01 9.803015473331629925e-01 -1.831458860487658602e-01 -7.393551730811689926e-02
1.660080945563923716e-01 1.675179360677753748e-01 -5.316057373617888437e-01 2.918795855629083280e-01 2.993848145046549281e-01 -9.083914576742992963e-01
-7.171646599545021539e-02 -6.481356682128279478e-02 -7.575457192550438812e-01 8.316158160538330568e-01 -3.949871517746010308e-01 3.903847902033398820e-01
-7.039165145940633195e-02 -1.072686372622327772e-01 -7.897695589550766115e-01 5.902916749098692240e-01 -3.845895485035176753e-01 7.096806448776532550e-01
2.733197868629384103e-02 -7.011988290604675989e-02 -8.397142251486503506e-01 1.929832904917297143e-01 -4.309802995427594596e-01 8.814836532783907330e-01
-7.625708917891676868e-03 -1.748762103531932843e-01 -8.037463192001058632e-01 -8.599059408942345550e-01 2.638388229370780894e-02 -5.097702066322756798e-01
-2.439920045577479227e-02 -2.029551561266636495e-01 -8.373140145055570915e-01 7.496885070822778552e-01 4.615646384593317109e-01 -4.742628246791558699e-01
1.154751691314923577e-02 -2.224033797995605966e-02 -7.955097604212373330e-01 2.036069466730721922e-01 -8.498646178969238019e-01 4.860805926113327957e-01
7.144043266303676254e-03 9.741832320815475496e-03 -6.456354202466617620e-01 -8.282600160323044802e-01 4.385207819425989140e-01 -3.488335844591489709e-01
-8.063545262532158253e-02 -8.327287986376301354e-02 -7.333460925148419518e-01 9.873993566559826629e-01 -1.582476420607393519e-01 -4.407466026097556591e-04
9.071343342931895148e-02 2.315871336262982638e-02 -7.995794578557799959e-01 -8.446756597983436921e-01 -3.520571376919416351e-01 4.032106168547521796e-01
-6.731564077459661899e-02 -8.524407237700659667e-02 -7.763500583165227065e-01 2.687031980129787057e-01 -6.322550149928474195e-01 7.266719943647148572e-01
-3.206241887330484042e-02 -7.318594355294241738e-02 -6.948164981098559068e-01 -8.925648631138746181e-01 4.502320370536078142e-01 -2.488127699835972900e-02
5.276386808449737287e-02 7.660300065117138513e-02 -7.487424985473706274e-01 1.495285792596486307e-01 -8.534578655053244312e-01 4.992503137622318898e-01
-2.835687644134411364e-02 -6.296831809726032014e-02 -6.458205113658197494e-01 -9.480045434025048401e-01 2.919421790166826791e-01 -1.267168094579385618e-01
-6.820637442577234810e-02 -1.795036002756941751e-01 -7.443104140599994256e-01 8.264567007199375981e-01 4.114401867223734799e-01 -3.842997457518988469e-01
7.379516253125153677e-03 -6.896707631726189947e-02 -8.332585464496300443e-01 3.059955388408028831e-01 -4.401084934236150215e-01 8.441985810376149146e-01
3.367319981313493527e-02 7.508989356065293164e-02 -7.395102782050778645e-01 4.316852369842819059e-01 -7.554874010253574967e-01 4.928353102830345667e-01
7.124875356594984575e-03 8.057462411182016171e-02 -6.310200074204375120e-01 6.826713784214759606e-01 1.628869964223111314e-03 -7.307237069281123931e-01
-5.807043555626583559e-02 -1.024666058574916633e-01 -8.064062017983831820e-01 8.146335640700000935e-01 -2.895951528204822600e-01 5.025005509981957941e-01
-3.708369216242613647e-02 3.993519104616057025e-02 -6.530751009631026172e-01 8.197205535393966569e-01 -5.551143570127853311e-01 1.410895628434185034e-01
1.750625910591146681e-02 7.321583988926703979e-02 -7.236046022680984180e-01 6.091402322678631798e-01 -6.708235878820973941e-01 4.230176017302870184e-01
1.462273746032122512e-01 1.965197231343404627e-01 -5.602634233449134138e-01 1.710138856088286308e-01 -9.686303047169452229e-01 -1.803041422511645342e-01
1.196167633110360902e-02 4.786686011293943277e-02 -6.338736612014862493e-01 -6.598891610264678853e-01 2.862609657631844939e-01 -6.946948644117885152e-01
7.834719888505277396e-02 -1.249290493097139979e-02 -8.217223140288494321e-01 -2.313836887035061185e-01 -3.167320337931396890e-01 9.198599933529125749e-01
3.080757177287154341e-02 9.156816625544290933e-02 -6.800050358036606735e-01 9.965706912212009272e-02 -9.912757346530285396e-01 8.626057304520720614e-02
-4.526270414399441444e-02 -1.299025795092646207e-01 -6.873663840271603265e-01 -9.883716462288627547e-01 1.388334808851982849e-01 6.202220180021839752e-02
-1.621774170996827247e-02 -2.059817488821790443e-01 -8.500111043254705567e-01 2.331871226396863006e-01 2.045359341950142573e-01 9.506780829797206733e-01
-1.638429684363372843e-02 1.910363781940661171e-02 -7.512626111395769302e-01 6.429391660842378453e-01 -5.558788492126935932e-01 5.269041029569575540e-01
8.948831235969190168e-02 1.729852853869577600e-01 -6.008931408801453378e-01 3.551738198156073612e-02 -7.954755082213855744e-01 6.049439902975348726e-01
-1.646316978567535436e-02 -2.934678230014065720e-02 -6.355309546044319857e-01 -9.127586073980135106e-01 4.081447730052886746e-01 -1.701672381219696342e-02
-5.893523438032653716e-02 -7.427302732844007042e-03 -6.957174171686784092e-01 8.979290975885960702e-01 -4.150050616069397291e-01 1.466087805840755875e-01
3.090362827168021201e-02 -1.286628665631537050e-01 -8.374057142703644763e-01 -5.873509416308992925e-01 5.276421910090370870e-01 -6.136876971493552269e-01
-5.783173707091065346e-02 -1.820742765729510826e-01 -8.152541700709403649e-01 8.496112579084587058e-01 3.595412336265076114e-02 5.261824887322172906e-01
1.876432994801556786e-01 1.684650967964334001e-01 -5.507407153533822042e-01 -8.247151550085249916e-01 4.850575105670434373e-01 2.907991137224584244e-01
6.722924679034157636e-02 -3.647060671595339643e-02 -8.311105569237084989e-01 -1.108916650464107229e-01 -1.612321506721570152e-01 9.806667284112710048e-01
1.528876611217199755e-01 1.725783766954720466e-01 -5.347546858914423717e-01 3.240905355314977476e-01 1.623380730659544913e-01 -9.319933877512971421e-01
-1.998999614398347391e-02 -6.760048574398745680e-02 -7.236958913399745841e-01 -6.317978817229243926e-01 5.741071490049677317e-01 -5.207997869736638030e-01
-1.660955715612045039e-02 -1.363383639833924514e-02 -7.649204404755238773e-01 5.317091157248899913e-01 -6.173597950261842104e-01 5.797864259710493462e-01
-2.614572248852397793e-02 5.347045419103434866e-02 -6.698032454159486004e-01 8.989061911354540024e-01 -3.889425756331222339e-01 -2.017209270210291172e-01
7.246294761561192233e-02 -3.925682629924226279e-03 -7.854693538652671725e-01 -6.993495430514908850e-01 4.009477941033675608e-01 -5.917356530050512653e-01
-6.018991102124454304e-03 -1.727101462275715815e-01 -8.072515693891062494e-01 -9.254795380740139521e-01 -9.186006626542107811e-02 -3.674906159781797799e-01
2.407043773916219681e-02 -1.089502680665330875e-01 -8.465862732634126253e-01 3.871621715485201731e-01 1.513334653029611010e-01 9.095073585195624366e-01
4.025870579341235544e-02 1.077119193535497066e-01 -6.506974933485110135e-01 -6.040310469615800537e-01 -2.515946099884365239e-01 7.562054261450812387e-01
2.903323087396699007e-03 -5.859616533623578094e-02 -8.255875559149910003e-01 3.087655819797681112e-01 -5.076223569308205841e-01 8.043527572705234663e-01
4.847941106075483175e-02 -7.505544326835532354e-02 -8.156337892417641067e-01 -5.238894695686941994e-01 4.697112200419754635e-01 -7.105710333539576595e-01
-1.308019348699832789e-03 -1.730297385114881459e-01 -8.171787797789853425e-01 -9.216255296377779960e-01 6.891465244388796096e-02 -3.819124949493318821e-01
6.258073034112951460e-02 1.585539506774344687e-01 -5.853960088498171288e-01 6.978802088791241642e-01 -5.645301136399604180e-01 -4.407595317726930029e-01
4.812748201769271456e-02 7.663262094184313672e-03 -7.492830711554847589e-01 -6.498772743400704766e-01 5.391538943488192182e-01 -5.356982420214042584e-01
6.934362540551528009e-02 -6.724993342971884169e-02 -8.299332977710494053e-01 -7.748782824528051005e-01 6.318990820117541540e-01 -1.634617801485258731e-02
-4.469419111638253672e-02 -1.317177454757315069e-01 -8.115398865073130130e-01 9.370231950468714821e-01 8.095784808329756221e-02 3.397548509997678212e-01
-4.930612381533235056e-02 -1.129257989847048532e-01 -8.215839598556379242e-01 6.141252791218483331e-01 -3.111522864894434859e-01 7.252822872205714200e-01
-7.082345045971915817e-03 -2.799552820299836681e-02 -6.830869312929304105e-01 -8.442158232579320964e-01 3.976865687471712318e-01 -3.593675511214573515e-01
-1.886485925406088462e-02 -1.797313694634964515e-02 -7.765408251034003895e-01 3.305883305543529382e-01 -9.167753503821448602e-01 2.241301243317848080e-01
1.051313930734567616e-02 9.881205679282376031e-02 -6.242165562177033333e-01 6.353703820998085616e-01 1.716454191731635326e-01 -7.528893196394889076e-01
-3.004497639390074984e-02 -1.819935710890916158e-01 -7.803963817513104306e-01 -9.345738264637549753e-01 7.460307178225768221e-02 -3.478593747041275330e-01
-6.137631080853523519e-02 -4.649507311688210603e-03 -6.372633991719030000e-01 8.261647572952993679e-01 -3.429847859245860331e-02 5.623836841244967966e-01
4.439825006543469954e-02 -2.198330245382914584e-03 -7.538368457182100801e-01 -7.129846136287647518e-01 4.433476741247516228e-01 -5.432271905720609251e-01
-8.153551563490701870e-02 -1.039073278056769911e-01 -7.141556672602142886e-01 9.942674332918106650e-01 -3.999098872038669983e-02 -9.916144369905344202e-02
2.006584326357584245e-03 6.808780651773911619e-02 -7.057123648998602228e-01 6.631078515225409253e-01 -6.677103603420653233e-01 3.383058556114999504e-01
4.612933890605377951e-02 -8.779043310329147365e-02 -8.211658138094005688e-01 -6.177119475772416823e-01 3.429036964378339714e-01 -7.077068636021560666e-01
-5.069800782037959391e-02 1.869786520989238573e-02 -6.268533414111355784e-01 8.689710599244174771e-01 -4.809775128606817440e-01 -1.164041628816905732e-01
7.236265116865521485e-02 1.241499968132285525e-01 -6.032932251057658846e-01 -5.964356495532906477e-01 7.984861106693730282e-01 8.175846751280214930e-02
-4.195377803790131810e-03 -1.250647669288420527e-01 -8.495968648141440926e-01 2.798708561975339348e-01 -2.829025164048643015e-01 9.174085622355258041e-01
5.382508932727871065e-02 1.577587651805215097e-01 -6.052206656933880602e-01 6.084437262278303837e-01 -7.935964978377275658e-01 -9.113910722680976500e-04
-6.609464431765514625e-02 -1.610449836583242034e-01 -7.922653729829275404e-01 -5.586347091502109896e-02 2.305725603417551617e-01 9.714502390934772746e-01
4.218406885369961612e-02 5.702583388814520121e-02 -7.687655212870695420e-01 4.643053691674782768e-01 -6.005452836768563341e-01 6.509730304826275571e-01
-6.482171140600324899e-02 -3.809827633411593667e-02 -6.112941042049216955e-01 8.890690021472865689e-01 1.110917461597990367e-02 -4.576383896267662843e-01
-7.260265672113876134e-02 -9.042715075674016834e-02 -6.516279910452582591e-01 9.742986901172155934e-01 8.875869244633517730e-02 -2.070361247490272449e-01
1.007579961972328575e-01 1.462378635677178407e-01 -5.661269919438870479e-01 8.666286351194039603e-03 7.709913676401690674e-01 -6.367866255703087397e-01
1.659032841735171848e-01 1.640960629929396064e-01 -5.652345615363206788e-01 -3.654388628827886509e-01 6.574396661110843976e-01 6.589594243340632929e-01
-8.193378075956983531e-02 -9.318121023970185601e-02 -7.302525741578282936e-01 9.947886315582498140e-01 -9.434304131446316632e-02 -3.866482998801628462e-02
9.108142892348781994e-02 1.487473923608607085e-01 -6.091825240749497716e-01 -6.388916983911648861e-01 2.676311187278465620e-01 7.212426651379786335e-01
8.915733564509302489e-03 8.674535869490716811e-02 -6.762474133917707464e-01 -7.880592280690745799e-02 -6.736971764631545234e-01 7.347936723707716444e-01
-5.740140914392650312e-02 -3.240049137257353801e-02 -7.062836114653641140e-01 8.570959349047376774e-01 -1.188467807446487307e-01 5.012604124368958969e-01
3.521130959975805885e-02 1.418665758256733300e-01 -6.258771820767954353e-01 5.959577313241272156e-01 -7.871812126427156775e-01 1.586824531488680301e-01
-1.072219062810663738e-02 -7.380346649200865417e-02 -7.470788156269658753e-01 -9.786982984163419275e-01 1.666844092137477473e-01 1.198580343657483088e-01
-4.753658633552849087e-03 -1.337076052969508877e-01 -8.519829941094974046e-01 2.734558898753101652e-01 -2.727359919300764712e-01 9.224082366275897504e-01
-9.359153003764913992e-03 5.164102557586416897e-02 -7.092315694805743087e-01 4.927176997606778075e-01 -4.159301941515335388e-01 7.643502743740032690e-01
8.237425996675723505e-02 1.352435971664504855e-01 -5.803155607114799386e-01 -1.525727156327997547e-01 8.487204331533384494e-01 -5.063548091925683670e-01
7.683620110377037404e-02 1.291198230497379584e-01 -6.086269349431069342e-01 -6.776522784152470003e-01 6.479859571747633717e-01 3.477090577809707206e-01
3.802479154260050148e-02 8.726597855787815439e-02 -7.183963453463994009e-01 2.571869662338830964e-01 -9.129298037197680626e-01 3.168817411584274879e-01
7.634422284221804855e-02 8.270039967928372732e-03 -8.130568905743398300e-01 -2.644474461849785282e-02 -4.641468681271272434e-01 8.853634057774476540e-01
4.152800025187083216e-02 8.512066433299925183e-02 -6.536637893545570455e-01 -9.871430861371621734e-01 4.273152986656793967e-02 1.540212447906511017e-01
1.160532699429062814e-01 1.494226093724839721e-01 -5.814719349510121260e-01 -4.916845341388254020e-01 7.750503586000420109e-01 3.969171960530719079e-01
8.753272512666923633e-02 1.650889545719763374e-01 -5.647628254615670862e-01 5.392707001300927061e-01 -2.183290093307935220e-01 -8.133385246413905589e-01
5.846874603149589816e-02 5.700110007667949508e-02 -7.103312636512280065e-01 -8.066451792617975736e-01 3.054499728502135802e-01 -5.059880125650276783e-01
-6.852379197512528664e-02 -1.147886162846990105e-01 -6.744960488176257041e-01 9.210410713214659539e-01 1.775918555706258173e-01 3.466186344875129555e-01
-7.572117673342376731e-02 -1.259101456911737860e-01 -6.879689676570320822e-01 8.952097450462774830e-01 -1.241120977983052771e-02 -4.454721924497420660e-01
-3.738558805093056964e-02 -9.568033391486889527e-02 -6.488691910602848445e-01 -8.991496124081641561e-01 3.066985109609969284e-01 -3.121954482060166347e-01
-7.597626000538602875e-02 -1.641460326635659772e-01 -7.559408417634867483e-01 9.669915197437150001e-01 2.547513613575106972e-01 5.398576686088793833e-03
-4.992555874347313211e-02 6.238500099765580467e-03 -6.656029339853746229e-01 6.204028718033063328e-01 -6.743831162293645320e-01 -4.003844267737965978e-01
-1.950914597568968040e-02 -1.262780868465329664e-01 -7.714360927151804326e-01 -3.691458062515005634e-01 4.535022371240177153e-01 -8.112133471845992538e-01
1.841581870228188589e-02 3.171236845805661120e-02 -6.488409263402575844e-01 -6.285950038840302234e-01 4.548846610148304381e-01 -6.308314087499596878e-01
1.292429492483529452e-01 1.586703945722399700e-01 -5.487219700689008883e-01 2.333297623659108255e-01 6.023109021162643684e-01 -7.633995016936803157e-01
1.646590925703994845e-01 1.552764335583343702e-01 -5.432186469541291363e-01 3.244761493305607647e-02 9.335427145325249088e-01 -3.569946112035874974e-01
-6.471786773094177769e-02 -6.366239466073637943e-02 -6.292452546130231639e-01 6.392978087860973213e-01 -1.752562132014804930e-01 -7.487212908790371602e-01
-2.085745860072867400e-02 -1.529624717677183776e-01 -8.463247174886192603e-01 8.804621378876431592e-02 -7.201688886451955707e-01 6.881893896777303565e-01
-1.559178814326262624e-02 -9.768537654816979166e-02 -7.638361242221765046e-01 -9.954302354709815281e-01 8.367272203567109601e-02 -4.601653938887447642e-02
-2.719812745286259020e-02 -6.557129121909173464e-02 -6.859800670088812558e-01 -8.215333442937332586e-01 5.315164290297523797e-01 2.063328618640625500e-01
-4.160589511012544039e-02 -1.505404475410432319e-01 -8.330182196789185367e-01 7.748400603816871790e-01 -9.238787012366077300e-02 6.253697804353174350e-01
6.036382732203454844e-03 8.264092902088324144e-02 -6.319486777070554284e-01 6.455768650177529100e-01 1.246449503637965528e-01 -7.534548080028802275e-01
-2.849451124567003654e-02 5.068585602846906873e-02 -6.324085931229839197e-01 7.318169795810870459e-01 -6.655731490668237438e-01 -1.464796628822113422e-01
-5.527558867168133605e-02 -1.459726208885097354e-01 -6.629082016857976711e-01 2.715049252164911109e-01 6.897938806307475357e-01 -6.711702301410289451e-01
-3.841472806388649547e-02 -1.243003023291645442e-01 -7.509096416789899919e-01 -8.930421679213705888e-01 3.782409095910153063e-01 -2.437406421302363568e-01
-4.386839260093078341e-02 -1.182193699366261286e-01 -7.121621280004304388e-01 -9.839404165493595977e-01 1.319034845344281559e-01 -1.202610803558182423e-01
5.220663963173100691e-02 1.292816509558042393e-01 -5.898647844461037959e-01 3.771800560381990408e-01 3.402711035962827646e-01 -8.613656490622253470e-01
-5.504213882989177076e-02 -1.872640015735028141e-01 -7.323579416029142308e-01 5.089485173223394776e-01 7.931900744619047039e-01 -3.343963404263127770e-01
-2.894110740201695162e-02 2.042449093074810013e-02 -7.280621056916565248e-01 8.022597052873765566e-01 -5.264946865335167203e-01 2.813942258188426027e-01
8.655525006670723720e-02 1.736465902696304187e-01 -5.997867482450839338e-01 6.899443014925259188e-02 -8.156144581068317523e-01 5.744674266966572906e-01
-5.136145794538772569e-02 -5.131698899895072857e-02 -7.683072504733025054e-01 8.351879429338717742e-01 1.097798648438135238e-01 -5.388965403978408508e-01
-6.292881294002572456e-02 -8.916421087693340852e-02 -7.797738982259475593e-01 1.464028553743890182e-01 -6.032669537631066836e-01 7.839867259307439218e-01
1.548039471469035006e-02 -3.381276908328238913e-03 -6.956816044711043867e-01 -9.308396331664313683e-01 3.652458473316814169e-01 -1.153465792927790834e-02
-2.823159846654979196e-02 -6.634569895383556071e-02 -6.900442674574521762e-01 -8.661354899424803522e-01 4.968605627938740832e-01 5.421156889681599811e-02
-7.110206723189338440e-02 -1.780169259348069188e-01 -7.731374301356168655e-01 9.410575326082747383e-01 3.293263906311826306e-01 7.716766651301436297e-02
-7.402492991862100191e-02 -4.906797627174603466e-02 -6.786341578227135241e-01 9.841212119223993193e-01 -1.771828417244160903e-01 1.056791572869286537e-02
6.756975292732572691e-02 1.629991289470398841e-01 -5.837729471573825935e-01 6.674066177272927058e-01 -5.653283330614305990e-01 -4.847393964304937408e-01
-3.237233851041256688e-02 1.218942213539356452e-02 -7.327219999797427441e-01 9.363023778917084483e-01 -3.464262761960357762e-01 5.767748534116464570e-02
7.398254303878111504e-02 1.260879124972603404e-01 -5.954158780226990189e-01 -4.011949699032072991e-01 8.782848893802380763e-01 -2.601119935925821913e-01
3.460105059310872311e-02 -1.041084230259551741e-01 -8.167565885568554007e-01 -5.260796134588118234e-01 4.322364777331829666e-01 -7.324014388433699452e-01
-3.006287487274509826e-02 -4.713554098012806212e-03 -7.454150895568375512e-01 6.228269700867731240e-01 1.008242471272471491e-01 7.758357020167052642e-01
-4.712003121701919400e-02 -1.463952473128745102e-01 -7.000250233391063226e-01 -9.893318419470600311e-01 9.411005001362331146e-02 -1.112016411572724628e-01
1.021078996785850478e-02 -9.173868444264699634e-03 -6.908273487761479315e-01 -6.698209375502477414e-01 5.656274025294026897e-01 -4.810463107925765369e-01
-4.781500115076892793e-02 -1.696681682679684056e-01 -7.084376854843718041e-01 -9.110946352876265752e-01 1.846609730409686512e-01 -3.685198645740406787e-01
-1.228536570782352497e-02 -7.200236631668918696e-02 -7.366899690404982159e-01 -6.708567168216014176e-01 5.574984802904839887e-01 -4.890262876054237151e-01
8.806428050092068860e-02 4.473018597977612698e-02 -7.784602181674677990e-01 -8.870779182248723638e-01 -3.976643577447025457e-01 2.344265888872677783e-01
-7.352578378010232729e-02 -1.281514775575663956e-01 -7.934650846227784271e-01 9.329843592552024001e-01 -9.969297087088656306e-02 3.458344935718479785e-01
-1.003775352942840038e-02 -1.768195026104807388e-02 -6.522636051240051636e-01 -8.878556876925487451e-01 4.490710694415540605e-01 -1.002369813123391018e-01
2.689338376499170874e-02 1.770212471194946777e-02 -6.980648340229137494e-01 -8.024049134040907028e-01 5.720280594473293734e-01 -1.700889595179420344e-01
-6.472321347076137599e-02 -4.491875974546657990e-02 -6.113692764277112168e-01 8.998240478023742384e-01 6.521080911406608449e-02 -4.313516354104148798e-01
3.407598178041421760e-02 -1.879259853009979109e-02 -8.162791359233468880e-01 5.452403949092767821e-01 -1.656472921485174499e-01 8.217505012855419455e-01
-4.784787190668037676e-02 -1.453245307254580898e-01 -6.882232296779765557e-01 -9.821065754973989925e-01 1.781028309261022957e-01 -6.120503231663353833e-02
-7.800632725141876112e-02 -1.383917975964896463e-01 -7.397092647829707213e-01 5.322714169809455997e-01 2.526170193127422747e-01 8.080048144773904761e-01
-1.060869930333485818e-02 3.399563987757816402e-02 -7.397903655303802450e-01 5.355905828166854787e-01 -7.192385738933727568e-01 4.425365537691893780e-01
-4.767453850232858392e-02 -1.861543464666234049e-01 -8.266764357334633884e-01 5.780104427428136571e-01 -1.136031522990172682e-01 8.080830723805461080e-01
4.589532395471938864e-02 7.341872209299590835e-02 -7.509124783160742167e-01 2.682186413355511223e-01 -8.134233574795829425e-01 5.161406803835109081e-01
-2.472193180613101865e-02 -2.216636608487027316e-01 -8.356847413002471692e-01 3.160198708844334514e-01 1.115900516280790844e-01 9.421672365264187610e-01
-7.326509780524206872e-02 -1.585727875599380610e-01 -7.361580025832754615e-01 4.602716839708431151e-01 3.121993733046572461e-01 8.310725168376245087e-01
1.343545252102723297e-01 1.943422542474213255e-01 -5.623443113380297564e-01 2.501709224250281971e-01 -9.369939251069032693e-01 -2.438378434242096937e-01
-5.356378533303237516e-02 -1.250291612537907104e-02 -6.017984933349393994e-01 6.821411673298627409e-01 -2.303963257205705883e-01 -6.939747552528932051e-01
-4.346451033063846586e-02 -1.464228285681485053e-01 -7.358202448489620240e-01 -9.886424596247896934e-01 9.122304423337013191e-02 1.194338445661153048e-01
1.685171290027266677e-02 2.807724321612541096e-02 -7.745690867597657681e-01 4.619487817247024397e-01 -6.167122216401544899e-01 6.373926252654072977e-01
4.951561212415809404e-02 -7.310229219368052922e-02 -8.150526150195966935e-01 -4.656211047903459632e-01 5.333491110562151860e-01 -7.062122290851119422e-01
-1.631681044661177638e-02 -1.275928443821949809e-01 -8.460566294558365952e-01 3.669715058658621909e-01 -2.957284396836895590e-01 8.819731310220239040e-01
-2.398584660092492864e-03 1.901180917495485373e-02 -6.279202695896595188e-01 -8.248621214462138473e-01 2.734120004561703121e-01 -4.948215421844593398e-01
-2.622323657597150706e-02 -1.806861327755785451e-01 -7.869217620695772020e-01 -8.110078934432474185e-01 1.489250997993148418e-01 -5.657627695620406350e-01
5.567502370722035576e-02 -4.194072918709702835e-02 -8.295397268507691546e-01 5.289121549378914544e-01 2.099949169473200664e-02 8.484167335145618161e-01
