-1.240806543235719872e-01 2.276345323085648409e-01 -8.310563028468374025e-01 -3.975416790120168686e-01 -7.278454373767074825e-01 5.587500628529860069e-01
6.811381931084450891e-02 -2.979416421252084959e-02 -9.321288608379418861e-01 -6.539586484946509071e-01 -7.525854400790953358e-01 7.715725137667872602e-02
7.220686371600529285e-02 -2.315014289911222767e-02 -9.609001288765978144e-01 -2.662358802619069209e-01 9.223913306738978912e-01 -2.798440443511415743e-01
-3.619959598025125624e-02 7.810064864123780759e-02 -8.275292789590490417e-01 3.058530945234689269e-01 -5.087351563668166543e-01 -8.047623408478111751e-01
-1.457119920922901601e-01 2.126435321876647411e-01 -8.427098537603814332e-01 5.883836838373580555e-03 3.981995431153530496e-01 9.172799487216449776e-01
-2.589870455369332886e-02 -2.917305923391274279e-03 -8.720633966526359915e-01 7.520565703188109019e-01 3.881029414510942660e-02 6.579549195109627435e-01
4.286801917786683264e-02 -1.107384230458177132e-01 -8.873160752174110710e-01 -7.278262226757198361e-01 6.211606428228215737e-01 -2.905657333436484357e-01
1.901368115879790988e-02 8.776215956301179622e-02 -8.687488920418037219e-01 -6.760644673314544217e-01 -4.896303510385289770e-01 -5.506350473350961616e-01
1.861857763440569538e-02 9.462087138027759636e-02 -8.758269499734946395e-01 -6.051279622868180885e-01 -6.608771523257643832e-01 -4.439161393691289370e-01
-9.171609127510055304e-03 -1.742342693027765510e-01 -9.342192851078868765e-01 6.776982581356129076e-01 -5.549269486032347709e-01 4.824739916657258543e-01
5.495616607374530921e-02 -1.975756645239191978e-01 -9.753113271058378997e-01 -7.999767900582550606e-01 5.477584036171263548e-01 -2.449446195263491333e-01
6.294101207922536689e-02 5.043979275777239063e-02 -9.402841487524664643e-01 -5.381064732805280748e-01 8.098558883736239888e-01 -2.336126355319000369e-01
-9.158400048140122318e-02 1.626282982912222730e-01 -8.203857155867708695e-01 6.751941891603133739e-01 7.311736375210792227e-01 9.745726611361674174e-02
7.029737624658471962e-02 -6.170739169816322894e-02 -1.018590821119454981e+00 -8.530113040784693679e-01 -2.318221279829014714e-01 4.675791014275852975e-01
2.034747149339150040e-04 -2.626196735907284502e-02 -9.126677356855549261e-01 5.740744543257447763e-01 5.012179301747007876e-02 8.172675980089462167e-01
-2.531501959645123326e-02 -3.225764949185369601e-02 -8.797176144832759004e-01 8.052809264682467827e-01 -2.558933116546696640e-01 5.348282364618084372e-01
-4.894971916424176867e-02 1.174852723478963246e-01 -8.392015177222887923e-01 9.084286275780116826e-01 3.252738469461334825e-01 2.625916089474178983e-01
-4.990599832922232998e-02 1.460812774984172058e-01 -8.471788863469533748e-01 2.318758608140019939e-01 -1.452673202923494833e-02 9.726369102744953921e-01
-3.445674823519882801e-02 1.500829508595090574e-02 -8.655886714290269568e-01 6.876386838732742035e-01 1.659170675266078976e-01 7.068412602164664271e-01
7.469426100185155848e-02 -1.022789899473361408e-01 -9.564762699802952239e-01 -9.896666561766223058e-01 1.082247311987202254e-01 -9.406017865785683274e-02
-5.829942308979289486e-03 -6.441305887108551842e-02 -8.957414798375669118e-01 7.083087178409807061e-01 -2.336096401967844086e-02 7.055161412686014044e-01
-3.630247095029045384e-02 4.867556184054920576e-02 -8.712607054313533661e-01 9.391575517571939535e-01 4.005507598756672533e-02 3.411432014053097928e-01
-2.007187650176157825e-03 -2.254629809454214429e-01 -1.005642290172933162e+00 8.496680723115633826e-01 -3.251882399391289868e-01 4.151105581645005427e-01
-8.153630681438774064e-02 -6.183146400844705994e-03 -8.040079423867362296e-01 7.837616532901457989e-01 -2.374164580414928616e-01 -5.738911885391944079e-01
-2.798438100009838225e-02 8.327003953212605558e-02 -8.288639713239572826e-01 1.075545075274324386e-01 -1.706002197738960280e-01 -9.794527007077113989e-01
2.702057834339832709e-02 8.967689598993390521e-02 -9.424371947749535794e-01 6.115939074126299779e-01 -5.809632580496564280e-01 5.370610628337153525e-01
3.669465850412586931e-03 -8.265489893035513069e-02 -8.553322032772797678e-01 -1.615575405920583463e-01 -9.680790271632967736e-02 -9.821035541375009448e-01
4.789933626161029662e-02 -6.713360998023537585e-02 -1.013038686436528835e+00 9.814283960772569593e-01 4.549447458040148384e-02 1.863559930774319751e-01
7.821829398493916619e-02 -9.871510309756675872e-02 -1.000151089805935589e+00 -9.770429632146612198e-01 6.318325788461431891e-02 2.034574254132806848e-01
3.503767349175436474e-02 -8.695322602778755849e-02 -9.618012223724173859e-01 8.925191926768057948e-01 2.233902072667555416e-01 3.917988080646223614e-01
-6.729418481611067204e-02 -3.975050936427394765e-02 -7.996323887253447005e-01 -5.435738902236695452e-02 2.568257630388219859e-01 -9.649278738321314108e-01
4.650711009445186728e-02 -5.863591894155165823e-02 -1.008741321805821212e+00 9.890098576592765145e-01 9.904492324609735776e-02 1.097706911336187446e-01
-3.328404608416825339e-02 1.008093815348457961e-01 -8.232642228889970326e-01 4.495575033620629046e-01 5.121265060404200931e-01 -7.318637120268365326e-01
-1.523893729947831122e-01 2.353400909741643343e-01 -8.072852011340105882e-01 -1.431778341654867392e-01 -8.066351357986162318e-01 -5.734456081432907082e-01
5.482308923752929330e-02 1.054550542701980162e-02 -8.897484159690007832e-01 -8.853957723102831023e-01 -1.488591445859498985e-01 -4.403581286273899886e-01
-9.206118613923531049e-03 -2.071663043388705105e-01 -9.585976967394375103e-01 8.252290289849943949e-01 -2.409472558329766589e-01 5.108243040684746772e-01
3.382823514013390265e-02 2.258781593422297396e-02 -8.501845593444387061e-01 -7.148927538371572243e-01 -4.698639144399638368e-02 -6.976536601568126272e-01
-4.617460071695080048e-02 -1.732178527561743092e-02 -8.536963823751357872e-01 6.208153906948481460e-01 -9.430076685452591645e-02 7.782644897764843250e-01
1.743051860705940523e-02 -6.311888963848602541e-02 -9.305416231540439842e-01 5.376942660474265390e-01 -1.697456070301541220e-01 8.258760834130528528e-01
-6.067885802463970912e-02 1.864177889915186528e-02 -8.359026742311019831e-01 7.981409117444852042e-01 -2.645818467659158957e-01 5.412647516341880793e-01
8.017669511367743473e-02 -7.736957063606779428e-02 -9.313704201237127389e-01 -9.711800697414956218e-01 -6.230782982854044666e-02 -2.300587022456695441e-01
3.780619573088348645e-02 -1.192199809603092797e-01 -9.634256036455880468e-01 8.322136622613320878e-01 -1.886798536123531211e-01 5.213639162680924199e-01
6.018830942372645210e-02 -1.267261186159177044e-01 -9.126031605870655872e-01 -9.918730875586092566e-01 -4.092976937079001454e-02 1.204679714953543895e-01
1.230967201406353746e-02 -2.393505381177613300e-01 -1.002080830685114776e+00 -7.406686957007659888e-01 6.683417049550184341e-01 6.876953269250254963e-02
3.120225040430199895e-02 -1.528863508028596996e-01 -9.922773281606174223e-01 9.425918607614147682e-01 -2.335750590228178880e-01 2.386698050211222555e-01
-8.485828125272931732e-02 -8.978977569065239861e-02 -8.229050031064462090e-01 3.762684589912731470e-01 5.574854833732834081e-01 -7.400216095469028810e-01
-4.679412432827790083e-03 -2.531249818846005931e-02 -8.278761988917149317e-01 -5.315464744882828496e-01 4.440136436066199899e-02 -8.458645661700157081e-01
-9.367021419454527043e-02 2.086657631837513516e-01 -8.325886689895231063e-01 -4.268886721494548619e-01 -6.789111266244974852e-01 5.973656700346368087e-01
7.446236252360058372e-02 -1.013835127141844011e-01 -9.419219126733838765e-01 -9.206414232501183292e-01 -3.887413004147888262e-01 3.604956515431865377e-02
-3.441239038649388654e-02 1.586027857737557500e-01 -8.311889312104900895e-01 -7.257113805633557124e-01 -6.850284355757660926e-01 6.386732007409427758e-02
-1.719382528741116023e-02 4.349630387343723925e-02 -8.170070362912791317e-01 -5.523761266515812007e-01 -1.982741575943543499e-01 -8.096715217516577967e-01
3.647700113034162833e-02 4.706291934072729527e-02 -8.783149750526325628e-01 -8.163553393370654998e-01 4.964670015490131871e-01 -2.951007900850096122e-01
-2.694329926366968372e-02 -6.178017391861093804e-02 -8.785144610533534015e-01 5.571680624668194914e-01 -4.093493127691232025e-02 8.293901865637937076e-01
1.538517744868098114e-02 8.003209422304399800e-02 -8.556953546340365646e-01 -8.611621226790913131e-01 -4.941769043099870085e-01 1.191175289763839185e-01
-5.077560145494824234e-02 -1.470028407817245419e-01 -8.910627649201214862e-01 6.135931083870758140e-01 -3.716176910353680141e-01 6.967092571865454165e-01
1.776341253378513341e-02 7.647415103262686364e-02 -8.425903380400310283e-01 -9.073989805908223572e-01 -3.371722215168883041e-01 -2.508824088295208976e-01
6.079566010500268847e-02 6.483212441914540380e-02 -9.301920543285819853e-01 -9.178701999431529979e-01 -2.944672001035040232e-01 -2.660890154055954304e-01
6.649766449243964261e-02 -9.018801065878616352e-02 -9.135707030795234829e-01 -3.851512588798970960e-01 7.071647820293781583e-01 -5.929388491577969322e-01
8.288834772203679258e-02 -8.805283585971285243e-02 -9.717121634717613698e-01 -9.989278140637940506e-01 3.718781618011915945e-03 4.614534595176292969e-02
-2.338735093913598892e-02 -5.534765769558069870e-02 -8.232769984785546225e-01 -4.269433700341390692e-01 2.403613477377222751e-01 -8.717486915950020121e-01
-5.161246645069308275e-02 2.262007079252682795e-02 -8.484769279626288574e-01 8.418296506696646420e-01 -3.174449794798971936e-01 4.365220776276935721e-01
-5.260864462207960612e-02 2.078830137142236370e-02 -8.478878940307692513e-01 8.418296506696646420e-01 -3.174449794798971936e-01 4.365220776276935721e-01
7.906065888347085790e-02 -5.970531631580543175e-02 -9.906757707447055861e-01 -9.525991875658686991e-01 -2.355328748269923944e-01 1.925592187473225969e-01
7.345912594405067109e-02 -2.780637473624016434e-02 -9.745630928172920315e-01 -2.404828677500103484e-01 9.023366407079671525e-01 -3.577101859810427609e-01
1.113792051377294687e-02 5.721659412021549984e-02 -9.397583690152686575e-01 8.391885992932127669e-01 -3.492017254648329683e-01 4.169180372071698004e-01
6.031111741801982451e-02 -4.841845867055688535e-02 -1.027127635161710906e+00 -7.592838469685446734e-01 1.917094908694071814e-02 6.504771436751283220e-01
-7.522449340413937119e-03 6.191448517008037167e-02 -8.297733104491433753e-01 -3.852424570087690792e-01 -1.283618805691009446e-01 -9.138443395538492497e-01
-9.793690363900818194e-03 8.605459906698499639e-02 -8.239462687410844532e-01 8.261883412925651038e-02 3.248912784561118205e-01 -9.421357574311016725e-01
6.345165911442354756e-02 -4.658849518550541718e-02 -1.022631903936086051e+00 -8.490863277720528401e-01 2.581761364342591292e-01 4.608660223605652306e-01
1.449513591382955470e-02 2.009742665597888736e-02 -8.438274454335331631e-01 -2.584402296878274830e-01 2.942764341566184716e-01 -9.201141385605201561e-01
5.615789691728321695e-03 -1.405056601903358349e-01 -8.745449308625770080e-01 -4.355363560765969644e-01 4.584081585733281172e-01 -7.747064235495469964e-01
-1.536010418527911266e-02 -1.622535047981388256e-01 -8.802147545172208654e-01 -2.616758689285786366e-01 5.933254799109513034e-01 -7.612428091672936992e-01
-7.605708343158685582e-03 -2.167520017886295780e-01 -9.679624177554340125e-01 9.731892829710661053e-01 -9.223306219461241406e-02 2.107028280504723017e-01
-7.382257957273917481e-02 -3.908585328809974224e-02 -8.373072029135252281e-01 5.082514085893243827e-01 -4.559581043213373208e-02 8.600008882193113102e-01
-1.426522667718981875e-02 7.678401119626285243e-02 -8.282795459428966556e-01 1.303200959364738953e-01 1.769407641438852929e-01 -9.755555538149973671e-01
1.973884227385386617e-02 -9.128342164590086405e-02 -9.387578105647268467e-01 6.005907210464273005e-01 -1.553278335050689574e-01 7.843239445098905138e-01
-1.139840981541543133e-02 -9.442327510295261961e-02 -8.953688608710783647e-01 6.454658865288849245e-01 -1.833763199684494138e-01 7.414491989356448709e-01
2.632412958573599263e-02 -1.986552211428587456e-01 -1.013190374158383866e+00 4.618117223443523600e-01 -3.669068616820818640e-01 8.075328401718090410e-01
-7.124761825560692319e-02 -5.248114629760470412e-02 -8.038421113487823622e-01 -1.646969045547752863e-01 4.146787320710065838e-01 -8.949393715766772450e-01
-1.547189906719865504e-01 2.281997798288546431e-01 -8.438602986955102692e-01 -2.662723426158414286e-01 -3.405221773764774418e-01 9.017448010788056134e-01
9.904150665310858942e-03 -7.577414954239292122e-02 -9.181245442882574048e-01 9.301850373785646164e-01 -1.927663834209188522e-03 3.670859304702109860e-01
2.911128621472299643e-02 -1.914669477147848409e-01 -9.339071088390078490e-01 -7.383073743134879741e-02 1.185548800075544307e-01 -9.901988500481797573e-01
-2.792629826869460347e-02 9.293882000261571852e-02 -8.258262070824871071e-01 3.374367621407344808e-01 5.046196305148062944e-01 -7.946668862203065675e-01
3.488514726955662532e-02 -2.363239262972110285e-03 -9.880724618230344314e-01 9.358705065038173121e-01 -4.516223817346926017e-02 3.494377874521460980e-01
5.874669971493012843e-02 -9.875606457340529998e-02 -1.029783296660268688e+00 -2.758883249217958245e-01 1.135446180579356423e-01 9.544596648795187210e-01
-1.587583599120302169e-01 2.116424228775754535e-01 -8.035133318681937364e-01 3.197895861038792531e-01 5.914401646090506892e-01 -7.402250686829842108e-01
-4.512562691634233736e-02 -4.851590815371097792e-02 -8.137126474798164200e-01 -1.890232327145603686e-01 1.164276173558509569e-01 -9.750460642508008702e-01
9.088298260743029461e-03 9.226023879246456061e-02 -8.374425380678220954e-01 -8.311214804270246059e-01 -4.078891054094583302e-01 -3.779729652515674831e-01
-4.637545863270528534e-02 4.225625435632004295e-02 -8.486479697208006989e-01 8.893000485133568667e-01 -1.435882033311104977e-01 4.341979405504876044e-01
3.676839877847726257e-02 -1.919529712223816686e-01 -9.634887158139814334e-01 -7.343059168188145192e-01 5.495838583075374206e-01 -3.984374520708124923e-01
-4.770688444684945129e-02 6.155955670808563318e-02 -8.238617280811472154e-01 7.866661573511070094e-01 -5.850890106566932758e-01 -1.970462039401300325e-01
3.656211920259597615e-03 6.638852470664484418e-02 -9.180604923768478365e-01 8.153975278751152134e-01 -3.229525882479060139e-01 4.804461439944432422e-01
7.629905803733823266e-02 -9.090038269843586649e-02 -1.009627875953670983e+00 -9.503443390784134248e-01 2.922350157018718461e-02 3.098251509119144265e-01
-3.149903566006203443e-02 -1.667040813780904795e-01 -8.799037153065126793e-01 -8.182632270598379221e-02 6.846486602313478498e-01 -7.242656038745982627e-01
2.064832792719118598e-02 2.002858711676470602e-02 -8.451722903837803891e-01 -1.364697274133814808e-01 3.692777608681843682e-01 -9.192442269755612960e-01
4.336628975496142208e-02 -4.533189733632442264e-02 -9.995242137824643658e-01 9.795841553251691813e-01 1.935194821373632801e-01 5.445266448174496815e-02
-3.355716795655263457e-02 2.418759795738497850e-02 -8.042326118452084449e-01 -3.669689884393047552e-01 -8.900690972321294303e-02 -9.259651891649909317e-01
-1.024600350746193538e-02 -2.301317260760888869e-02 -8.246130323077246471e-01 -4.642381571461381418e-01 -2.727881475319333948e-02 -8.852902347339083322e-01
-2.310457339037933974e-02 1.278531672070148673e-01 -8.155061981159984486e-01 -6.052786601456814353e-01 -1.450645054910972287e-01 -7.826838651836844907e-01
-9.997730655395349608e-02 1.880882067694835402e-01 -8.400987434589972658e-01 2.070323423887949488e-01 2.238879774854250493e-01 9.523716620849733694e-01
-5.711898280220213328e-03 -4.639827522923831854e-02 -8.307281990734037835e-01 -5.308692683009083035e-01 2.013201805395279098e-01 -8.231937833105824609e-01
4.012275790339947176e-03 -8.368844803190358950e-02 -9.088764248541800761e-01 7.970193840917264572e-01 -1.303991962587157105e-01 5.897085305446461145e-01
-5.426893538656838573e-02 -3.910415854710851125e-02 -8.505499058575055615e-01 6.145950736914134183e-01 -1.537794385195267732e-01 7.737084590999799838e-01
4.098148077075969981e-02 9.162050459828363635e-02 -9.137865249479234508e-01 -6.861015486073621661e-01 -7.086878111538192915e-01 -1.643966280693983928e-01
8.610800103400075012e-03 9.494549266770076212e-02 -8.397118530211000742e-01 -8.464363673759940365e-01 -4.513683566557973315e-01 -2.825103229851541609e-01
3.195958859121306173e-02 8.835222643967481637e-02 -8.878841525970939674e-01 -7.273852626224881490e-01 -5.270077860991868590e-01 -4.395150430991501822e-01
6.117210950482779991e-02 -1.578474811072199391e-01 -9.573430775521892810e-01 -5.530571031020380390e-01 7.313593334056982531e-01 -3.990505809402542514e-01
1.107692059014257074e-02 1.647959729216800714e-02 -9.268739719867498117e-01 8.966033722804317430e-01 3.365252501583369110e-02 4.415539608874731181e-01
1.235844110435199185e-02 -3.635296728573051556e-02 -9.212187754759709746e-01 5.879512786526003287e-01 -1.163811295912429711e-01 8.004803099426234247e-01
6.169475420935652960e-02 5.561183624503031331e-02 -9.790399776409318688e-01 -7.554646185260505131e-01 -4.920669555158918573e-01 4.326006489183878423e-01
7.700204169324244285e-02 -4.769730467959787390e-02 -9.769005866623569068e-01 -8.871188097800929429e-01 -4.329131413918251292e-01 1.600200904405849889e-01
-3.170679210285767130e-02 -4.722053913094738375e-02 -8.765165289134079218e-01 7.414974482573757353e-01 -1.362576906467748428e-01 6.569744104357551073e-01
-4.426673533656489551e-02 1.192749589872235672e-01 -8.168619071146341337e-01 5.458351279052248151e-01 5.791865398929670894e-01 -6.054807719089840834e-01
9.698630783507907610e-03 2.857455460821365853e-02 -8.385006804657411106e-01 -5.630107580351945140e-01 2.294472671150205867e-01 -7.939602244130899988e-01
-8.679433156869834076e-02 1.860797936207911341e-01 -8.415767880733249218e-01 -1.315240560881423409e-02 -1.026213097778368444e-01 9.946335410623262652e-01
1.201222233407524612e-02 -2.255525056016757235e-01 -1.016906839070971236e+00 9.899413641951584908e-02 -1.112334197650858419e-01 9.888514991048547031e-01
-3.450436231960141847e-02 5.377635287262495789e-02 -8.785022158770025014e-01 9.361985292714892770e-01 8.951117720587550841e-02 3.398824251783532646e-01
-1.241696986065989744e-01 2.203322679772929393e-01 -8.011226019354175110e-01 -2.806042840626964963e-01 -5.772603106534560657e-01 -7.668322955574687905e-01
-2.147448462885632667e-02 -2.024907073169096294e-01 -9.223563932845021407e-01 3.418317166878155899e-01 8.258890851535439781e-01 -4.483952458384266593e-01
-1.061331785092442109e-01 1.766400990072473087e-01 -8.250001632508624505e-01 5.888738405767990347e-01 7.575630840862036530e-01 2.816483153049751387e-01
6.281403825786167905e-02 -6.829758919349460111e-02 -9.014932070704255729e-01 -1.490416864637653105e-01 3.044212128878648893e-01 -9.408051343609460382e-01
6.059512634128520758e-02 6.800484600603062812e-02 -9.627024544187599009e-01 -7.849793319245258472e-01 -5.654545129378467649e-01 2.531178426139647497e-01
7.323094302251834109e-02 -1.524118753478738153e-01 -9.878351537400320570e-01 -9.646709054598211486e-01 2.153994352967740222e-01 1.517007825726676140e-01
-1.654971787542680942e-02 3.516461423914682416e-02 -8.943873568835063459e-01 5.944881585468285712e-01 5.179419846156330803e-02 8.024345396063936597e-01
-6.752010762291710266e-02 3.164400276628898112e-02 -8.156584594974161107e-01 8.672618568421498475e-01 -4.807059318351969424e-01 1.295325394067512459e-01
-1.498709205018922963e-01 2.380043996309706977e-01 -8.124285849455271658e-01 -1.829083056066099777e-01 -8.619203651627033169e-01 -4.729036221661991335e-01
-1.836239195679233811e-03 8.057622739928087252e-02 -9.015307524276717777e-01 7.896963034869480813e-01 -3.225266334964698167e-01 5.218776858081632941e-01
5.296144087319896304e-02 8.107876232340845146e-02 -9.479817772171579282e-01 -6.765908725628753118e-01 -7.191572606479017526e-01 1.582328209380491346e-01
6.637247272175605950e-02 -9.667934496960367552e-02 -1.025406822816817165e+00 -6.902712075390631252e-01 1.330769546788212188e-01 7.112075535144256611e-01
-1.588459885953345807e-01 2.336243369854059670e-01 -8.044748874223287549e-01 7.007748009550951451e-02 -7.064433353734909105e-01 -7.042918150098302910e-01
-1.499836879168769399e-01 2.005931800105867358e-01 -8.152097241018770868e-01 4.061823305220357283e-01 9.034809279200767262e-01 -1.368872793811207189e-01
4.263940091007674404e-02 -1.017051088605196718e-01 -9.844339001707065329e-01 9.810971996118371674e-01 1.893997021821237081e-01 3.969934164609883326e-02
7.777378763644900161e-02 -7.208656083940474801e-02 -9.238539773670025879e-01 -9.570491026450517191e-01 -6.603252218863088496e-02 -2.823060770506176098e-01
3.945543727442203663e-02 -1.545900630141460452e-01 -9.039218265958378629e-01 -5.148704095876982523e-01 3.815070179850691967e-01 -7.676984151078702912e-01
-2.024900878354635517e-02 -4.533484980314426288e-02 -8.847330919857305798e-01 6.100525884548023692e-01 1.623805235321318374e-01 7.755439413063752729e-01
-7.396232731290668105e-02 -4.172679366792175770e-02 -8.373646317276232098e-01 5.082514085893243827e-01 -4.559581043213373208e-02 8.600008882193113102e-01
6.137478770699071606e-02 -8.924921991214065931e-02 -9.110359736144851839e-01 -1.747222778682279432e-01 3.763929659691493401e-01 -9.098354031282165355e-01
5.502031164656562973e-02 4.406978357409868652e-02 -9.966401909075818244e-01 -2.788668488809746271e-01 -5.902727976479794636e-01 7.575033365946470809e-01
-4.601869691654050104e-02 4.431695880629664408e-02 -8.485409120620758250e-01 8.872509870306319879e-01 -1.799226854632495765e-01 4.247511192084864051e-01
3.226301589581970219e-02 -1.554257364581638767e-01 -8.996851490326422951e-01 -4.799286663599834912e-01 3.628716913716220627e-01 -7.987443964166672794e-01
3.143015217835105901e-02 -1.733045568703265038e-01 -1.007429132797856175e+00 9.156573607919451518e-01 -2.431789774643429713e-01 3.200555929005554079e-01
6.537090490255756392e-02 -4.404992103045429763e-02 -1.019659947455726190e+00 -9.392622966500359105e-01 2.693639774848101132e-01 2.126720144383422439e-01
-8.632894029133737768e-02 2.037924988348520094e-01 -8.325748256841779549e-01 -4.346451372341824659e-01 -6.322104496292951792e-01 6.413996819910366964e-01
-1.118322453062448874e-01 2.001507141720846317e-01 -7.979217767588850929e-01 -1.556244376721940652e-02 2.141699310465410705e-02 -9.996494999500311618e-01
1.569978950981630941e-02 -1.013887812604541833e-01 -8.639700671304196833e-01 -4.457563107192960006e-01 2.627056030681636511e-01 -8.557377387789524281e-01
7.224375642532983310e-02 -2.274350615297145509e-02 -1.002365477141704098e+00 -9.599966912625266247e-01 -1.257168362116964366e-01 2.502031771539331428e-01
7.133223084952250437e-02 -1.139693773346020372e-01 -9.215276123236781913e-01 -8.574784378957025499e-01 1.817853803216601671e-01 -4.813364769527186948e-01
4.841339962862421797e-02 4.385099175238935110e-02 -9.148569291430631578e-01 -8.857111698929018839e-01 -2.018295742233814083e-01 -4.180676338772901235e-01
6.689294117840695331e-02 -4.491206218132362538e-02 -9.024817701591165697e-01 -8.691249718090283682e-01 -1.639218556615849309e-01 -4.666384131363575660e-01
2.497486477675395569e-02 7.297358007956069280e-04 -9.570545744201481853e-01 9.357238010550804619e-01 4.328625412085668200e-02 3.500675196918687226e-01
-4.400469639414821693e-02 -7.355766392366867856e-02 -8.705238575193111616e-01 2.696112648336223550e-01 -6.151130897802545294e-02 9.610026663556268112e-01
-1.502866806871487430e-03 -1.691431733716824148e-01 -8.950592469247434790e-01 1.599903155413168188e-01 7.414938070051575736e-02 -9.843297050656957259e-01
-4.363601154866070947e-02 -1.075683467699791868e-01 -8.377891337176848197e-01 -2.541394494432497320e-01 4.879030844902462749e-01 -8.350830619654463494e-01
5.858268510706855781e-02 -1.105177111275817137e-01 -9.130322067199614366e-01 -9.944064782230748190e-01 -1.007035203856076200e-01 3.185211217371507891e-02
-1.375728375075582072e-02 7.312211192157384854e-02 -8.287059195939355805e-01 -1.166273618412566604e-01 1.303484231692537965e-02 -9.930902030307829920e-01
-5.335893688342009666e-02 -1.651621617897061356e-01 -8.899930192410941965e-01 8.687451009468646346e-01 4.872120428177377227e-01 8.891779863553249397e-02
-4.919324503443356367e-02 -2.901357260500909627e-02 -8.529401396932987378e-01 6.325792614362428790e-01 -1.300446017180162672e-01 7.634997574097713846e-01
2.999712454412829105e-02 2.487120597782005796e-02 -8.469931685985534475e-01 -5.743974721358884317e-01 7.519028735917961115e-02 -8.151159210141494249e-01
8.209944710016212066e-02 -9.558217298311594279e-02 -9.782883213132043121e-01 -9.953621149271454360e-01 6.111711409579768245e-02 7.428969331179886837e-02
-3.274213830994162147e-03 1.002719533253021711e-01 -8.266802183260621995e-01 -6.625510019474352141e-01 -2.615520209316136713e-01 -7.018665900048516315e-01
7.331292208222045526e-02 -9.577657482423122814e-02 -9.350977779433471415e-01 -9.650778820511310974e-01 1.926596205556518338e-01 -1.775019779694166355e-01
1.496313499217143031e-04 1.022579795908147432e-01 -8.311435992842676201e-01 -7.385628842595771681e-01 -3.326696169295310090e-01 -5.863921827293862021e-01
-3.201596870645952164e-02 7.182530141061121975e-02 -8.761160359841683176e-01 5.728531880724897496e-01 -3.868749714324360989e-01 7.226112242377201733e-01
-6.277242574608736525e-02 1.620248525981979604e-01 -8.446403699224955819e-01 1.901939944180715547e-01 2.818372008755909430e-02 9.813418988351229055e-01
2.620143054938385563e-02 -7.948684381833935608e-02 -9.448702441215200976e-01 8.492607330921833064e-01 -1.015730068760717364e-01 5.181111188749771834e-01
3.728964939913099325e-02 8.282788917497639625e-02 -8.907595583294812824e-01 -7.894141944069886785e-01 -3.965807808408515767e-01 -4.685604698824107905e-01
1.452523224444902386e-03 5.821563435546466686e-02 -9.208848586858566776e-01 7.631541398986142477e-01 -4.908071316403483930e-01 4.203618896695798801e-01
-7.080007241563290865e-02 1.582630000660421865e-01 -8.414787989347990438e-01 3.980827362881591003e-01 2.694080429126701204e-01 8.768976231483905925e-01
-7.459205596460014021e-02 1.577930847453223040e-01 -8.389586374530635382e-01 5.160769708694495916e-01 4.175939297312696863e-01 7.478501654675276944e-01
-1.724760276758542377e-01 2.417325029005806258e-01 -8.385949435196164981e-01 5.941264264717120713e-02 -9.212180668762761648e-01 3.844833041296024656e-01
1.885915529601371599e-02 9.624282180199987546e-02 -8.789054125988435828e-01 -5.909134791621973859e-01 -7.083518409148215067e-01 -3.860815064426302845e-01
-5.918934191767952213e-02 4.482198488159764432e-02 -8.189994309959235386e-01 8.385431355487188432e-01 -5.352522663253700408e-01 1.017370198977639723e-01
-1.553763339904557471e-02 -1.931757012540628315e-01 -9.496926669629150997e-01 4.569895035100184355e-01 -2.727426061730197637e-01 8.466239215021128528e-01
2.171423865389846344e-02 -4.437707710860227389e-02 -8.578041788040069449e-01 -7.027327810557902898e-01 7.107499311125741182e-01 -3.164133140476396711e-02
-1.241387146883245612e-01 2.222619022359563767e-01 -8.363991335659478610e-01 -3.388703945060199119e-01 -5.859442613465696281e-01 7.360952236785383018e-01
6.677889147055586505e-02 -6.640366221940670333e-02 -1.025161017806340835e+00 -7.445403775902091903e-01 -1.590832317942915686e-01 6.483457036949595853e-01
-1.820112433717958195e-02 -1.282133756293432625e-01 -9.097099267282142687e-01 5.591539691294197256e-01 -4.307519154150791230e-01 7.083781660759007615e-01
-1.270581599025637741e-02 2.937869063559118629e-02 -8.971367482827575790e-01 6.168179451391403445e-01 -9.998229507348046358e-03 7.870423482640860335e-01
8.272107823854413233e-02 -8.988529757134877674e-02 -9.516732964936212014e-01 -9.892245192522461927e-01 1.338984990741041714e-01 -5.921184388164610346e-02
-3.921151860276365225e-02 1.625852033337376046e-01 -8.346264852147009528e-01 -6.701509751984432439e-01 -6.851252459007349804e-01 2.854839187590658134e-01
-4.107720669215614295e-02 -4.312755332160502636e-02 -8.640151617562752406e-01 7.299848323612928569e-01 -2.279469602549550611e-01 6.443309148511975337e-01
-2.450521499580094083e-03 -2.071410032468287421e-01 -9.245978218978962992e-01 -2.148226450322070907e-02 8.300611242972644188e-01 -5.572585057602754688e-01
3.690408272962566322e-02 6.825533053413998519e-02 -9.729779882657471068e-01 5.490343216531435866e-01 -5.513896598008238836e-01 6.281168336476932179e-01
5.120510937453013472e-02 -1.575762721426365032e-01 -9.463916854229934561e-01 -7.549592900602059009e-01 3.138957793557497489e-01 -5.757654991873307759e-01
3.004839421124489568e-02 -3.992859352439774578e-02 -8.697189349072317333e-01 -4.532849456227938112e-01 1.478247241146732338e-01 -8.790225304348925350e-01
8.370085848601312249e-04 -2.230868364531862491e-01 -1.008253121541523800e+00 7.382796278400443057e-01 -3.969702312598748506e-01 5.453052600240044789e-01
-2.451507149196195320e-02 -1.609296229014152979e-01 -9.165847175152149751e-01 3.642539953108926420e-01 -2.843975741085355557e-01 8.868128589173885912e-01
1.557037623362236226e-03 -5.031678214116010878e-02 -9.075955130548464256e-01 8.800296023338345375e-01 1.593884635153764995e-01 4.473736879995970361e-01
5.518606909389525694e-02 3.600144886497737978e-02 -9.113046161054291217e-01 -7.117220863338330483e-01 -6.273297416175294128e-01 -3.160839557881733319e-01
3.893816100829176896e-02 -3.343545430024134901e-02 -9.742435642430977705e-01 9.511673569386058791e-01 2.747164514930789392e-01 1.407534382296835584e-01
-1.927147013563540456e-02 -6.197618171302370083e-02 -8.274205269817128672e-01 -4.505270191377531153e-01 2.930948855136201181e-01 -8.432797834127226944e-01
-9.641807623406851990e-02 1.666792764850645037e-01 -8.167002237568706802e-01 6.388078070912149853e-01 7.579327903296196878e-01 -1.321456429189771797e-01
-2.398692357184055782e-02 8.187125721042250170e-02 -8.763121948336444200e-01 5.101666687811661216e-01 -4.708161747210183323e-01 7.197653087540379913e-01
3.550501378491344867e-02 9.120044222124538968e-02 -8.981084528567151448e-01 -6.878362576524238436e-01 -6.330978355047898187e-01 -3.550611402813022566e-01
5.688607799283653538e-02 -1.871848809490720689e-01 -9.987019281454548869e-01 -8.770201308477169055e-01 -2.268321492874031953e-01 4.235361450189472077e-01
2.740631332100364193e-02 -1.269290162155664592e-01 -8.834813700448352902e-01 -6.673796737752282215e-01 6.943936605710661070e-01 2.691130156465588175e-01
3.163817867860457128e-02 9.244555964953005134e-02 -9.417467218008523933e-01 1.379743354225037577e-01 -8.991098732099660484e-01 4.154088572251163347e-01
-1.907477034642916791e-02 -1.321078502651011621e-01 -8.614999678030300645e-01 -2.597646598096778892e-01 3.876806499997124122e-01 -8.844354329908783452e-01
6.398576064107985850e-02 6.348737360771898597e-02 -9.431653327028698408e-01 -9.478984775423429099e-01 -2.974668917193926676e-01 -1.140259821431556658e-01
-6.313792623584146835e-02 1.874061121124013241e-01 -8.300116353339110908e-01 -6.259069059888818787e-01 -7.036186886115817218e-01 3.363945393016107843e-01
7.615932139595799066e-02 -4.660667412020335493e-02 -9.785287737700626431e-01 -8.517511624169071816e-01 -4.898652299251770592e-01 1.858817200044175777e-01
-1.159558544412973152e-01 1.822974322146770632e-01 -8.142103368116945239e-01 5.454753670891410167e-01 8.287202210283283188e-01 -1.252174874277772465e-01
4.821385675434955442e-02 -1.431656423342326512e-01 -1.021527962507681631e+00 8.312424555731007247e-01 -8.245421841316478984e-02 5.497611135017426154e-01
4.485690846675521870e-02 -1.289343647941798288e-01 -9.935908208640632511e-01 9.867179109185545416e-01 -9.652436190347435385e-02 1.306553168900934925e-01
-1.854785743073457116e-01 2.341604289813456752e-01 -8.370638181521506960e-01 8.435612468215487603e-01 -4.753342363575839280e-01 2.499235615287732359e-01
5.079962981493883062e-02 -1.439739730665297590e-01 -1.023522412681378890e+00 4.313702646473651092e-01 6.841041048355671339e-02 8.995775177912871401e-01
-1.113745949658341838e-01 2.154604217381023146e-01 -8.359059019531829282e-01 -2.875087842278056804e-01 -4.975350796367433714e-01 8.184115978666898217e-01
-2.879251998600728529e-02 -1.658424565741362933e-01 -9.161990723382303914e-01 3.982616990104954624e-01 -2.089783181647928700e-01 8.931493053450179076e-01
-1.538376856917629543e-02 -2.988828233124316350e-02 -8.220142876068323723e-01 -4.842257810616131808e-01 7.178748432951823077e-02 -8.719930905970011414e-01
-5.623204074826783361e-02 1.519500942205253280e-01 -8.041366921533873446e-01 -2.450343926739820960e-02 1.818213692189299957e-01 -9.830262311654873741e-01
6.124690448949911270e-02 -1.760880490045031999e-01 -9.658641640956403540e-01 -9.859654975109513053e-01 3.299434923153685834e-02 1.636563797618951210e-01
7.255941031406776265e-02 -1.158479204352240582e-01 -9.905923240235570137e-01 -9.821272834245597938e-01 8.509805506557546750e-02 1.678818637529103652e-01
-2.939285169695794731e-02 -4.881223765659806896e-02 -8.187545599689343145e-01 -3.923678828776215322e-01 2.284072747011417770e-01 -8.909980703400710578e-01
-1.675780965158092384e-01 2.136736981329575291e-01 -8.399343008494561946e-01 2.504929834548251799e-01 7.746638325438973682e-01 5.806455130183140190e-01
-8.990138879384086679e-02 -8.034981463079036990e-02 -8.204119372415564770e-01 8.981782682891967795e-01 3.736212519923779452e-01 -2.316958317118975319e-01
4.328683443015286791e-02 -1.755821787867558603e-01 -1.018796943003647204e+00 -3.535448564787004866e-01 4.179074315710224474e-01 8.368747893772200408e-01
5.916976079244540970e-02 6.931651829289128819e-02 -9.302820754574270268e-01 -9.026410144725437457e-01 -3.692921347363237183e-01 -2.210486783807275868e-01
-7.307596075331980467e-02 -4.806741725006200699e-02 -8.020105710686169509e-01 -1.380311036165414451e-02 3.306071299310715528e-01 -9.436675260827214196e-01
1.183745949431260977e-02 8.999407950105822729e-02 -8.430085791117208904e-01 -8.800529553337849142e-01 -4.618525853830254269e-01 -1.104490162169241563e-01
7.641160385965614643e-02 -1.098140238808210586e-02 -9.672460347071558662e-01 -9.950266382077047611e-01 -9.767382757295511864e-02 1.954002723442310741e-02
3.209136686239849601e-02 4.038338554658651297e-02 -8.524450032246118081e-01 -9.198258194170106927e-01 -2.331565893696027070e-01 -3.155288683581258247e-01
6.260460508283355319e-02 -1.219649528237059383e-01 -1.020979094680285248e+00 -7.751198661556130132e-01 5.015918541474239101e-01 3.841806930909645867e-01
-1.341024234245909857e-02 -1.591213124139949919e-01 -9.211403524031792633e-01 4.550028203493570733e-01 -3.477820730182869524e-01 8.197682984607501666e-01
2.286990703808909620e-02 -2.234677186721770459e-01 -9.825553188182399866e-01 -8.956104171524387203e-01 -3.146992136386686512e-02 4.437247172937145434e-01
6.084191448776171685e-02 -1.613153489086793790e-01 -1.013570083891602636e+00 -7.667664708644682525e-01 2.626987485358717178e-01 5.857119997709927528e-01
5.167432068651985760e-02 4.851309868215538529e-02 -9.200701232904706650e-01 -7.808625512481570663e-01 5.068312624259875276e-01 -3.652064450223993508e-01
-8.972142957340925595e-02 2.029580575965961031e-01 -8.355427847243481754e-01 -3.712115673480188005e-01 -5.711374695546389546e-01 7.321229153207479134e-01
4.953003414550389769e-03 -1.438458127545332249e-03 -8.348995843685735885e-01 -4.061110129084170572e-01 -1.632428711695669277e-01 -8.991249135725333241e-01
-1.852461457919530111e-02 -3.433018395490711888e-02 -8.209669577776608218e-01 -4.080117807534646146e-01 9.512728383755540695e-02 -9.080072613344432053e-01
-6.998971977842320669e-02 1.718809783277714873e-02 -8.023128225206638264e-01 5.412241163137821998e-01 -3.015615051393194523e-01 -7.849440200030024517e-01
7.915819306189872395e-02 -8.067310578999703496e-02 -9.983456241396421182e-01 -9.767891944717097541e-01 -8.135393249456036868e-03 2.140483238429706225e-01
3.677498055138022498e-02 -1.076820085212507883e-01 -8.793386678287218317e-01 -5.820715626330744685e-01 2.544475529819902326e-01 -7.723011969143694921e-01
3.061867568504480705e-02 -4.322154770929930584e-02 -9.446900388261987302e-01 8.677274780087775863e-01 5.426343803499206198e-02 4.940693303587556651e-01
7.457295821410356296e-02 -3.078667877620570176e-03 -9.783483667960449770e-01 -9.834719179167147329e-01 -1.363762501807692928e-01 1.190987197909813139e-01
-6.525372060403397678e-02 1.533927160143635504e-01 -8.425608408481514155e-01 4.198541638187423541e-01 2.483941884114785892e-01 8.729391778855316586e-01
4.037398053240022489e-02 -1.328439387658457149e-01 -9.766216003051392258e-01 9.000474958738557962e-01 -2.851109859817297920e-01 3.295849372221477114e-01
7.845593045174729940e-03 9.548281635564620506e-02 -9.042828033222729545e-01 6.822494544778873182e-01 -6.189338896600813378e-01 3.891741539399391492e-01
3.911685896060611983e-02 3.742933143679708780e-02 -8.865383313367494189e-01 -6.539567590661796714e-01 -6.861227457105453231e-01 -3.187101113712600409e-01
-1.796737460507389847e-02 -3.044291378642133977e-02 -8.889044905958909393e-01 7.548954774323873851e-01 -1.320253258237135408e-01 6.424189688149548605e-01
4.691781374659257514e-02 -1.661156470351312642e-01 -9.165371156440826894e-01 -6.011015843975704431e-01 4.814777994317536169e-01 -6.378526584479260464e-01
-6.132746369380119578e-02 3.485233517241333873e-02 -8.264450192205734513e-01 8.286795129288427875e-01 -3.251002345546612493e-01 4.556315423064125070e-01
7.912044467971005024e-02 -8.605492366297325113e-02 -9.983412351298142084e-01 -9.823391369926524064e-01 2.990650775495498626e-02 1.847036023645278469e-01
5.041178573288106202e-02 -1.191982475276478527e-02 -8.680725921322346439e-01 -9.546572450383418174e-01 -1.454798557643286472e-01 -2.597405552904543669e-01
-7.593564894249301908e-03 4.441065536099981365e-02 -8.244526080207044139e-01 -6.144807291785899794e-01 -1.733924559140038735e-01 -7.696417931091442677e-01
-8.474058425570535000e-03 -7.647037330576443581e-02 -8.432449791811570394e-01 -7.114972800418095655e-01 7.026676903768382942e-01 5.453200306871987951e-03
-1.221135901228003751e-01 1.978688907221375082e-01 -8.381470108131422458e-01 2.504365009050425472e-01 5.429994651444502995e-01 8.015192698040887187e-01
6.676372623806796011e-03 8.961434168714343951e-02 -8.322088756990591030e-01 -6.971032374005606824e-01 -2.972407888087579275e-01 -6.524530556860048680e-01
4.035891697655524107e-02 -3.927358593561092182e-02 -9.735106688163234212e-01 9.742002030565853898e-01 1.827202643245664226e-01 1.324661064939574306e-01
6.642879538564921797e-03 -1.502035142370468646e-01 -8.901111379290300718e-01 -6.192609668070012674e-01 5.615812105289385014e-01 -5.487644293958110486e-01
-1.446433280997451269e-02 1.342474409123214085e-01 -8.345293134816393898e-01 -8.141046956302407933e-01 -5.805122089959715570e-01 -1.546349764478503926e-02
3.377091322027451353e-02 -2.166874496435528819e-01 -9.669995392665285960e-01 -9.068470499472828239e-01 3.543547805058138711e-01 2.281690547260665503e-01
-4.745579583719475997e-02 -1.434888432923360213e-01 -8.919977551267851412e-01 5.857016758903191844e-01 -3.957876521031453154e-01 7.073228974817307169e-01
-3.240487805597906668e-02 -1.138923118237743053e-02 -8.652184811892545957e-01 7.108305623054996802e-01 -4.269183281317706635e-02 7.020664634516441405e-01
-3.230807369318328993e-03 -1.450066847907195422e-01 -9.209177009399269753e-01 4.793723118001601002e-01 -3.536266321717362326e-01 8.032125445349106441e-01
-7.514822197988697827e-02 -1.305856228007483688e-01 -8.563180822815809057e-01 7.603326690106650965e-01 5.804706773405325926e-01 -2.914584450362376900e-01
-1.384254263849801596e-02 -1.612804660446055249e-01 -9.217913703650657542e-01 4.479884382874951276e-01 -3.388904675488718654e-01 8.273207420131796219e-01
6.125885873895913630e-02 -1.811895681808737002e-01 -9.752376566600025054e-01 -9.622262298417165738e-01 -8.590844402586182704e-02 -2.583416765635219159e-01
-5.269010342358430854e-02 -7.029718974867234238e-02 -8.636793059421273844e-01 5.765301431422402700e-01 -3.657365270890166054e-01 7.306502492993846021e-01
3.807412983054263983e-02 2.151602625306167291e-02 -9.905330290820844041e-01 8.460471383690245650e-01 2.982444150085947210e-02 5.322731839448108238e-01
4.758926464515295801e-02 2.257673104153292212e-02 -8.813490279717106635e-01 -8.391154379847161060e-01 -2.290963539761461387e-01 -4.933559995890943184e-01
1.344652084130107048e-02 4.453001072456697074e-02 -9.413698913432770876e-01 8.876678623762536136e-01 2.842581615438579679e-01 3.622748455248837041e-01
7.829004860284191625e-02 -1.271785176787120497e-01 -9.841696850695289545e-01 -9.863481143704050380e-01 3.170272663905373406e-02 1.615931137196009171e-01
-7.692517152568410788e-02 1.891838123362409307e-01 -8.030769945500172424e-01 -4.497938102117770565e-01 -4.544500255191371019e-01 -7.688697565913408249e-01
-8.728520415226835583e-03 -1.981864542012165553e-01 -9.137194858407656772e-01 -2.586325698986525687e-02 7.355979473174208971e-01 -6.769244801602856132e-01
-3.505434897457027511e-03 -9.711319971297381615e-02 -8.546705804226520931e-01 -2.741430790079125157e-01 1.740847217755284171e-01 -9.458012909043834737e-01
3.112885569468073002e-02 -1.161885680990215330e-01 -8.785088513275604027e-01 -5.578931016582949765e-01 3.380835227490235351e-01 -7.579279772957968619e-01
3.037243909779687237e-02 -6.045252138995410585e-02 -8.661733914606980500e-01 -6.238348180728930936e-02 -6.010651349568171264e-01 -7.967615733310330350e-01
1.587587081753481788e-02 -1.708060428194334013e-01 -8.998271091868426108e-01 -3.708601201735249875e-01 5.172470553109890234e-01 -7.713094418176075218e-01
1.794757092107385557e-02 -5.834806952433465449e-02 -9.299305027944323454e-01 5.716281556011145737e-01 -1.454422065664703612e-01 8.075195454434176412e-01
-1.100534315938598573e-01 1.900483582547527472e-01 -8.002184780860455149e-01 2.772987556934980446e-01 4.532138628848489947e-01 -8.471732966635757700e-01
1.739154435060828036e-02 1.003548341634569324e-01 -9.080847839216438233e-01 1.646459542186977654e-01 -9.734799708891676007e-01 1.588346814679972019e-01
6.612394319698268463e-02 -2.501802613251813759e-02 -9.473734800206298212e-01 -9.802745630978597635e-01 1.476589800684775244e-01 -1.313720158497888313e-01
1.470334581689098849e-02 9.457851960146168580e-02 -9.180737290768075098e-01 6.979754968506101109e-01 -6.046369736572921871e-01 3.837242967062354237e-01
-5.202882684690794679e-02 2.007374494379577171e-02 -8.498592193574368014e-01 8.633161787437326762e-01 -4.081298101952473556e-01 2.968421020497441498e-01
2.250187906581468597e-02 -2.311371966253019106e-01 -9.830599875842864765e-01 -8.849242222753853637e-01 3.977841528462751630e-01 2.422331285655941191e-01
-4.199902254785971116e-03 1.022681318636973341e-01 -8.765101250860012350e-01 3.507306935745289622e-01 -8.275658715893550177e-01 4.383180452197705246e-01
4.272152755614142677e-02 -1.038441104011112170e-01 -9.995989684581400025e-01 9.750085662765124450e-01 2.164008085990913599e-01 -5.028902191412173289e-02
1.520670417682362836e-02 -4.440664760911981063e-02 -9.249142201281277398e-01 6.012732112988228295e-01 -2.055120034807478846e-01 7.721627689805629080e-01
-1.005145238405059649e-01 2.176300167781658745e-01 -8.233464433931747539e-01 -5.181468700083373680e-01 -8.391461584584380962e-01 1.654011663955521905e-01
1.007058408516259967e-02 -1.773813131183427372e-01 -9.017762566427646176e-01 -3.437644516443987830e-01 5.662424362719231663e-01 -7.491298319720439691e-01
3.180013685936897150e-02 2.872082732609106820e-03 -9.785618326156920732e-01 9.526079180562300186e-01 -1.647018117382494443e-02 3.037546503161328570e-01
4.100828928519948541e-02 -8.027949881102758312e-02 -9.715970248365688455e-01 7.921289128652397871e-01 -4.990082116148171765e-01 3.514578070606985682e-01
5.148853153795588528e-02 -1.989480305313967579e-01 -9.702828696796630403e-01 -6.341660827274749890e-01 5.970394715959023157e-01 -4.913015864767533714e-01
8.569708034570211810e-03 -5.406620500068938517e-02 -9.227486712527548374e-01 5.516416042010587883e-01 -1.306041578481263454e-01 8.237925069259031119e-01
7.739262375382852110e-02 -4.392941937726276003e-02 -9.565962249011958907e-01 -9.255736522121666976e-01 -3.777833624472229923e-01 2.435457634000081847e-02
-3.871141809504552618e-03 -4.075494701615094834e-02 -8.307122708127053778e-01 -5.530088053557155048e-01 1.774136402097902243e-01 -8.140673568363711032e-01
-1.293698142371084991e-01 2.211616814138959164e-01 -8.390260818488520789e-01 -3.036626858416240360e-01 -4.644033485297844321e-01 8.319365980059866272e-01
4.287100627035998757e-02 -4.510313288097116818e-02 -9.892312112955296000e-01 9.843478306948459933e-01 1.704000239006489559e-01 4.497977391016355631e-02
6.568740915550319581e-02 1.053463486443435501e-02 -9.156579365937383974e-01 -9.218148010147132476e-01 -1.909374049368916804e-01 -3.373431191326865530e-01
2.504259446633742489e-02 3.954589294105453207e-02 -9.691145753263177287e-01 9.161765990662141812e-01 2.168233758927305965e-01 3.370579519755397824e-01
2.294021799692315053e-02 1.126518155172159634e-02 -9.532645717831090826e-01 9.246905491203314398e-01 7.950168924828704409e-02 3.723262947660409550e-01
7.563451121347651573e-02 -1.313230847642976873e-01 -9.396077636576281034e-01 -9.323959180268346358e-01 1.899530348438029093e-01 -3.074991001621389941e-01
-5.418228377744581381e-02 5.100820386251234129e-02 -8.168525555212626799e-01 6.440518947723528065e-01 -6.504102058067408043e-01 -4.026955686651831900e-01
-5.813574037785571025e-02 1.297315668289833468e-01 -8.295802115725965376e-01 8.071090095648919549e-01 5.750110393227595429e-01 1.339303973567582406e-01
-7.688139739504917802e-02 -6.028244941508677235e-02 -8.374558701372911695e-01 6.756340056007343886e-01 -1.397783793179528666e-01 7.238651083946189280e-01
1.432933908540109068e-02 2.674027779943068117e-02 -8.412113759578402350e-01 -2.444047294186468822e-01 3.542025968397992663e-01 -9.026665212744628963e-01
7.248461163342030666e-02 -1.112875315165808565e-01 -9.234208803577600433e-01 -9.110260196404894595e-01 1.010421444960198506e-01 -3.997775338530817346e-01
7.389586596539356178e-02 4.809100759057633769e-03 -9.747558223118705234e-01 -9.844080922714275594e-01 -1.370616775313208413e-01 1.102488295757767245e-01
-6.665406965430781261e-02 -7.878100681433353181e-03 -7.964167969472585318e-01 1.776967657565298730e-01 -4.325757122496678292e-02 -9.831340915518014256e-01
-1.352909783875613434e-02 1.221998769993105916e-01 -8.232140383837212028e-01 -7.449028133604392865e-01 -2.462801558373683974e-01 -6.200531295690908662e-01
6.161471874163435697e-02 -1.589632338679961843e-01 -1.013613342843440623e+00 -7.667664708644682525e-01 2.626987485358717178e-01 5.857119997709927528e-01
2.920098895816760839e-02 2.023421638095869446e-02 -9.723522782759582705e-01 9.339476792712863018e-01 5.571456144514286279e-02 3.530405359540943477e-01
4.017739603506374074e-02 7.022916403859107148e-02 -9.741416921486258929e-01 4.635840387114025241e-01 -5.811633887537419607e-01 6.688340262159903071e-01
8.188018037764739632e-02 -9.405341412198447992e-02 -9.807897671361677228e-01 -9.899626166102823976e-01 4.649524513095774914e-02 1.334623913105671411e-01
7.795769334407130768e-02 -9.437030072640500977e-02 -1.002527469125913395e+00 -9.755446302925433466e-01 5.419762802646227451e-02 2.130147680882482353e-01
3.155174537003307966e-02 -1.888444739095637981e-01 -1.013461383459433263e+00 7.051387353750454556e-01 -2.012796765291001710e-01 6.799013573232680629e-01
-7.437556028829121757e-02 -1.333231630252550426e-01 -8.596994143708355240e-01 7.039663595851031186e-01 6.182964224245306450e-01 -3.494866214743045374e-01
6.260664752591843518e-02 -1.704788831947632588e-01 -1.002757616878211300e+00 -6.825451223578272719e-01 6.733889339783429850e-01 2.840413694183460680e-01
1.219834871994385271e-03 -2.474148159755508170e-01 -1.016959840871375809e+00 -7.052799857789113225e-02 6.143996892500137585e-01 7.858363845394815694e-01
-1.575271253474701816e-01 2.434263051934178745e-01 -8.267045698643163965e-01 -1.826514505510491437e-01 -9.831776198155278701e-01 4.642256682465161952e-04
7.474488423181309404e-02 4.125370321306891523e-04 -9.726407880474617906e-01 -9.844080922714275594e-01 -1.370616775313208413e-01 1.102488295757767245e-01
-1.042162890432600519e-02 -1.668383317115445241e-01 -9.269424918088655652e-01 5.437141047949360928e-01 -4.190284853954302502e-01 7.271795518812756987e-01
