9.606548699135275537e-02 -6.666391435152210776e-02 -9.605215499011624525e-01 -8.783273064222324455e-01 -1.989290746862989179e-01 4.347049183498146174e-01
1.992933906314235670e-02 6.742694794511636114e-02 -9.185447850044083928e-01 -8.498352974492321410e-01 -5.044709960117262915e-01 1.526072783071366623e-01
4.664676121003523412e-02 -7.133346597999858096e-02 -9.633374954436367821e-01 6.747451588843756953e-01 5.295630475166250850e-01 -5.140836014375512741e-01
3.024518230616804124e-02 -1.543457521623668172e-01 -1.028953649627051936e+00 2.386422930220423802e-02 -1.878034045354533277e-01 -9.819166867941011567e-01
-3.039503505828213339e-02 -5.564404772197755616e-02 -1.062457096122469524e+00 1.549281041677847137e-01 -5.088437928946788480e-01 8.468029741158997759e-01
6.295182937720748828e-02 6.137631316504201483e-03 -8.758261951453769623e-01 4.151085691366682706e-01 3.942623268352723476e-01 -8.199037098755834752e-01
-1.212854592107309032e-02 1.419873822329426327e-01 -8.177706271090915413e-01 8.025894461502086630e-02 -9.417029257135852705e-01 3.267324616743133570e-01
3.227651277402950655e-03 1.303457388970284403e-01 -7.529064094799844398e-01 -9.336868127577236942e-01 3.472605319339276964e-01 -8.740170846893821621e-02
1.053839643878760890e-01 -4.785256860332656043e-02 -9.265630733016806397e-01 -9.012684843759974918e-01 -2.997874499688339411e-01 3.127980241494126012e-01
3.783353439749908426e-02 -5.664706312526618381e-02 -9.579574277397602255e-01 6.295908599681268036e-01 6.090790914441546189e-01 -4.823256259107094879e-01
-2.739834740112958677e-04 -1.488034907020372444e-01 -1.090810190032663218e+00 2.093563566959231181e-01 -3.689679480800066025e-01 9.055564969678252529e-01
1.737673022200828671e-02 2.952111663454964549e-02 -8.859661376399318167e-01 2.731595654387077854e-01 4.975109077167083615e-01 -8.233266353715475994e-01
-3.709798128919771648e-02 2.517919145946007423e-02 -9.134053749439071668e-01 3.668577130344457538e-01 6.343485926903582595e-01 -6.804537319604458956e-01
4.864543610722036129e-03 1.141367520024815368e-01 -8.064100542564330842e-01 -7.874325551315581873e-01 5.707562304908359030e-01 -2.327816497812430219e-01
7.797146524242205834e-02 -7.596550235823255892e-02 -9.948547873492509241e-01 -8.497726326854792012e-01 -3.714519628126414230e-01 3.740453342329316255e-01
7.890766314569730433e-02 -4.446647513743474250e-02 -9.000602930758072606e-01 6.014737582242327685e-01 6.168307464192058776e-01 -5.076900121526349841e-01
-2.637825505762635137e-02 4.412784047002001053e-02 -9.690664833572304460e-01 1.923725402066551737e-01 -9.813012762738144712e-01 6.372672737694110891e-03
-6.098938764130812373e-02 1.682569538970044715e-02 -9.333155010527950379e-01 7.925736582987658041e-02 8.187596154292750006e-01 -5.686395713488597847e-01
-7.423753421696841458e-03 -1.988654128343119443e-01 -1.092142570912133515e+00 2.331819513045539638e-01 3.000202587518813746e-01 9.249940658859681086e-01
-3.644294454239544595e-02 1.375514668549079889e-01 -6.838107097019624492e-01 4.975338490696535887e-01 -7.132667841746745951e-01 -4.936705010663014481e-01
4.389192074651813297e-02 -3.768878025288320555e-02 -1.015379125162031215e+00 -6.679507390661457711e-01 -5.131370996364160719e-01 5.390103219398645340e-01
2.662454357009921488e-02 -5.300556091354775845e-02 -9.661620944207095496e-01 5.254530389831378878e-01 6.547651615482213971e-01 -5.433062552981664517e-01
6.076322101248777391e-02 -1.046623320632922155e-01 -1.026548401317400883e+00 -5.483736569337488431e-01 -1.160824556755990222e-01 8.281371842064753075e-01
1.523085694473238529e-02 7.164782418324826263e-02 -9.323179494131739187e-01 -7.716531595600475413e-01 -5.466157911847733253e-01 3.252115898433508567e-01
9.059990842068854633e-02 -1.017625829849929248e-01 -9.284418076676603793e-01 3.331677554856191104e-01 4.619177759775701109e-01 -8.219678916725460249e-01
-3.467388422058993724e-02 7.657641392060438035e-02 -8.887639007407458491e-01 7.760893475436518862e-01 1.234639970576445200e-01 -6.184189244030446897e-01
4.737483299225415251e-02 -1.509890584884189188e-02 -9.060775384548012124e-01 6.155716629975406251e-01 6.394915882480103342e-01 -4.605670811884837734e-01
-7.454960419439290997e-02 -3.514232175511605716e-02 -1.028216072222079225e+00 -1.418324200203635865e-01 -2.264107139282900416e-01 9.636502234989878790e-01
-3.915094070029186829e-02 1.186521243311249030e-02 -9.344978824995243682e-01 2.297763053721747772e-01 7.411516970880895894e-01 -6.307907825840179949e-01
5.488081128105902484e-02 -1.811334395721407031e-01 -1.054394982254684754e+00 -9.713512515074506082e-01 5.396138540894965252e-02 2.314409537650070903e-01
1.829161956192160154e-02 -1.890200270220829815e-01 -1.045020592802555770e+00 2.056090691193020181e-01 2.549230115795430573e-01 -9.448487544909556224e-01
1.532799376968308445e-02 -2.218514078674694578e-01 -1.054281920061046263e+00 8.483748811132089951e-02 3.241472103443931441e-01 -9.421948772079526968e-01
5.671202743084251263e-02 -1.317724269814483651e-01 -9.866948573017901847e-01 5.613379236311886178e-01 1.335877212078001586e-01 -8.167337731696497904e-01
-4.779798132635220548e-03 8.631702686987867412e-02 -8.509783070485110734e-01 -1.582486758181722297e-01 7.266260719424421088e-01 -6.685595771322792036e-01
2.626552811959073641e-02 -1.149171166588813658e-01 -1.068935725192590835e+00 4.088060509106433704e-01 2.359299965797417575e-01 8.815977821278407900e-01
-3.423621471086323725e-02 -2.742405054035710818e-02 -9.679416146405845911e-01 7.285191488191300468e-02 9.102932855949654734e-01 -4.075030462447623569e-01
-1.244504740266910298e-01 -3.284832712030876650e-02 -1.004104745410936195e+00 9.913244207148073084e-01 8.895788768817038117e-02 9.675942906254865472e-02
-4.570354708953607188e-03 1.485530246618463890e-01 -7.086193366655754167e-01 -5.038776704050275113e-01 -8.378018796438947424e-01 -2.102267911859934946e-01
-1.622825048158405351e-02 1.527302044215311794e-01 -7.158475321011632531e-01 -1.794299646145740626e-02 -9.888044438187215679e-01 -1.481344685153753449e-01
4.209415583278107442e-02 -7.152853786525863178e-02 -1.036403715504031542e+00 -3.114937110767406758e-01 1.395314695818594686e-01 9.399482097200710928e-01
4.600689025752724426e-02 -1.873806340907481277e-03 -9.805517168185904353e-01 -5.666584292148885149e-01 -4.693647017552708967e-01 6.771964274462033417e-01
7.674828311606374243e-03 -3.270481980182027293e-02 -9.524267507079093864e-01 4.203974711255811791e-01 8.048052963764207313e-01 -4.189921254578397036e-01
5.513486665833614714e-02 1.784063946714033178e-02 -9.333752994087465282e-01 -5.586900842078764695e-01 -8.286957393325267152e-01 3.359704480922098141e-02
4.470933125044146417e-02 -4.482000513046767269e-03 -9.833011525291142085e-01 -5.325253587493397056e-01 -3.455841471295603706e-01 7.726502051650679936e-01
4.843164078072878520e-03 -2.291400432659099207e-01 -1.083439173069647099e+00 -4.248348626393693150e-01 3.400684927550103320e-01 8.389688669560532164e-01
-5.658661534348689848e-02 2.839564268136022737e-02 -9.224748429341631528e-01 4.666090992577576757e-01 2.722031120986853625e-01 -8.415351533083182956e-01
1.032671681407406755e-01 -1.108858202580630670e-01 -9.397565294408088965e-01 -8.821067278996059802e-01 4.538570322461268902e-01 -1.261012088561746236e-01
-2.504089956008599682e-02 1.093640771640570081e-01 -8.700028476815256928e-01 8.831278557801123252e-01 -3.619407207310813557e-01 2.984696048543075686e-01
8.658410652978552891e-02 1.811737714692815068e-02 -8.833854220267567392e-01 -8.294141036083854113e-01 -4.820832205346660126e-01 -2.822552270807806574e-01
-2.101243215376251763e-02 5.094701680151428325e-02 -8.829986889689783736e-01 7.230856568712584753e-01 2.726847366697899844e-01 -6.346575196232910887e-01
-5.262708942667923551e-02 -1.924126773046941699e-02 -1.020916886441671556e+00 3.215489670173958623e-03 -3.816701043869734078e-01 9.242930228252390634e-01
-9.993377275360559864e-02 -6.526565930842492813e-02 -1.004255379313520713e+00 1.234227088531890809e-01 5.849295087888434219e-01 -8.016385124776523874e-01
2.422847855551156938e-03 -2.429331492613749366e-01 -1.064935157262664855e+00 3.521839350124618684e-01 3.810534356967388847e-01 -8.548477964309491028e-01
-1.042161016905163336e-02 -1.260792803016306807e-01 -1.042384438749378361e+00 7.957379427052186927e-01 1.392062889498400791e-01 -5.894257677231965475e-01
-6.989177918503542385e-03 7.129100896337564261e-03 -1.003834429569870235e+00 -6.031124200235910005e-01 9.685245200729250548e-02 7.917543882754694007e-01
-4.914954186159291999e-02 -1.654679828833134081e-01 -1.065911450413634887e+00 6.044075704091182999e-01 2.050566872363155102e-01 -7.698332571744443964e-01
-2.506834455668669609e-02 1.362324708330472645e-01 -8.200391248831769841e-01 6.462581073190744041e-01 -7.021450781402255314e-01 2.989025727019161138e-01
-1.263519976513559871e-02 1.507452928707444517e-01 -7.854241403872338489e-01 7.786666203985516399e-02 -9.795743583730516235e-01 1.853937953675771355e-01
-9.813941432074767268e-02 -9.472886317544441936e-02 -1.029845662701054598e+00 -1.368585352638459346e-02 5.992322471611739587e-01 -8.004582508634813243e-01
-5.941120020682232050e-02 -1.413716158933043809e-01 -1.078969659325043073e+00 5.817388760875862319e-01 9.726371302130300267e-02 8.075392561217451526e-01
-1.635591774421623831e-02 1.452702432219499518e-01 -6.898476339514000300e-01 -5.427243823875867873e-02 -8.903968520532250519e-01 -4.519379916551910514e-01
-8.193069575355027556e-02 -5.304614111941864663e-02 -1.036567575539200980e+00 6.035545336274206196e-01 -6.727085138859025815e-01 4.280013788333015823e-01
5.036904002899553201e-02 -6.159675720838089091e-02 -9.455588482486547708e-01 7.551623741017399194e-01 5.953308639206795760e-01 -2.744284081586327306e-01
5.324362542903281204e-02 -1.377724688835680888e-01 -9.921046948571401458e-01 8.295385366097151048e-01 4.287651030950255238e-01 -3.578076335788893947e-01
5.698260547579498368e-03 -4.302504535723526702e-02 -1.048764572099036618e+00 -7.779354528018052051e-01 -3.027795913302612774e-01 5.505823738078893248e-01
-1.048896858165703355e-01 -7.622533753961445446e-02 -1.036537077738299839e+00 5.626638441145378478e-01 -2.102521460870729053e-01 7.995019909869088837e-01
5.235666245399150931e-02 1.129487026880109449e-02 -8.790106973204665497e-01 4.450179864306802457e-01 4.199971081877753032e-01 -7.909244090727564069e-01
3.356129777870077435e-02 -1.829361406475213947e-01 -1.034774051551794694e+00 6.450393518147750083e-01 3.540521195677335808e-01 -6.771789506769759770e-01
-4.918784590162666309e-02 -1.535876822841263645e-01 -1.063176460688135094e+00 1.820050925108322448e-01 2.664335294677892541e-01 -9.465132437929540954e-01
1.157751126879039485e-02 1.021469980836993002e-01 -8.537651097198059036e-01 -9.451179371256336337e-01 2.499136516261514784e-01 -2.104643714605144711e-01
-6.781169781522278228e-02 -1.218532683278572559e-01 -1.041916850963073182e+00 -7.597300328256292867e-02 4.305245753427681121e-01 -8.993757239319709607e-01
-4.221692192487626338e-02 -6.312547310491649355e-02 -1.064270346083121765e+00 2.071766544041074298e-01 -4.810177106407980130e-01 8.518801534956701449e-01
-7.224292408857511949e-02 -1.280995250431853361e-01 -1.044915456567047318e+00 -2.898877425604600225e-02 4.822012288739867536e-01 -8.755807363342054117e-01
-1.157164650896034402e-01 -7.588767832959621151e-02 -1.023369849166992918e+00 9.577167694452018987e-01 2.834346717153069517e-01 -4.943052086597952977e-02
-7.270012107568223081e-02 3.501290917825692489e-02 -9.271591448917865241e-01 3.593891192753933539e-01 3.895465705463065365e-01 -8.479934730421386790e-01
-8.286722278028910149e-02 -1.040986114805751983e-01 -1.035986887633846276e+00 -4.607257844976249406e-02 4.681462806794904341e-01 -8.824490792113448556e-01
-1.614462710831822759e-02 4.912312603669588551e-02 -9.587024453873443930e-01 2.007748642304421627e-01 -6.602636024247870994e-01 7.236998198191637588e-01
3.364169438282889335e-02 2.403865636746640999e-02 -9.668389374428021377e-01 -5.424909794022436671e-01 -6.796681944107170192e-01 4.937151838597533260e-01
6.145554200493534569e-02 -1.109400812683943166e-01 -9.737202889575177212e-01 7.819862561735109185e-01 3.456144681075807301e-01 -5.186985006633914042e-01
1.083130575839843547e-02 -1.423822256163836397e-01 -1.034536894758852243e+00 3.306137954622255792e-01 4.078116854782937728e-01 -8.511076003875273077e-01
9.735625379409525854e-03 1.169386714814148603e-01 -8.598732593557970594e-01 -7.710644192849109846e-01 -5.790781388031323029e-01 2.648172397581458060e-01
8.387585488960289104e-02 -7.570827943578933850e-02 -9.748922637352450682e-01 -8.900166307448367231e-01 -4.558184139808988955e-01 9.998523568341769960e-03
5.895437353402490331e-03 1.388742999169136905e-01 -7.867896526606710239e-01 -9.257112337894032317e-01 -3.782242631669840427e-01 2.262385443078448067e-03
1.106177535945434588e-03 1.076969314908744618e-01 -8.152218007759653995e-01 -4.373063503716894673e-01 8.543272581677967548e-01 -2.808702402820346666e-01
-5.432548381248509042e-03 1.246514595861421826e-01 -6.814439878791767047e-01 -8.451457112890307100e-01 2.287694105803253219e-01 -4.831079418437341233e-01
-1.986771284246079128e-02 -5.512142349112193057e-02 -9.958226265309234604e-01 5.621041906142493216e-01 5.917102209474404129e-01 -5.778562912353127912e-01
7.538637395756904447e-02 -1.054816711229385195e-01 -9.455018467630807999e-01 7.765008613328423515e-01 4.908332261649440698e-01 -3.951318216011800999e-01
1.628347319601431906e-02 6.619795563998777388e-02 -9.384495230983198599e-01 -7.997660702644664443e-01 -5.028579793710246104e-01 3.278842561585150750e-01
-1.160283879138798366e-02 1.171373064819666437e-01 -7.590159970888568086e-01 -2.149502361625907076e-01 9.699462862827470389e-01 -1.140201635674754355e-01
1.025183251873166695e-01 -7.774531107893106752e-02 -9.510874677259908427e-01 -9.010207802890098927e-01 -1.659499553885906975e-01 4.007769526730655119e-01
-6.709452552211134235e-02 -1.138462901666983662e-01 -1.074651542023540740e+00 2.890271738814713109e-01 -7.739846217498380643e-02 9.541869684768481408e-01
-6.815803185993890567e-02 -8.268353328788954903e-02 -1.065100378591945951e+00 3.272522368252576142e-01 -3.451499481445485795e-01 8.796462282012474931e-01
1.504027312791364002e-03 1.150006035764790241e-01 -7.937439511216700661e-01 -5.444990512853403741e-01 8.005346524790610818e-01 -2.503298890056741555e-01
-7.068955918114409182e-03 -5.782088158744756734e-02 -1.057368947352572919e+00 -3.978094054178952788e-01 -9.967653961184314015e-02 9.120374248966264252e-01
-2.537133460105276891e-02 -7.822839464404728049e-02 -1.065617176389629606e+00 2.368830942444658319e-02 -3.491808891567121931e-01 9.367558756924557750e-01
4.663257695528050945e-02 -1.809523238424560754e-01 -1.072793539366063031e+00 -7.279936428412767668e-01 8.289330096790790969e-02 6.805541540813130341e-01
5.243740465408380097e-02 -1.741888090747343576e-01 -1.060548886161696069e+00 -9.510762110272256153e-01 -1.905418879671651744e-01 2.432032683744289325e-01
7.822301084867104570e-02 -9.736144029025965707e-02 -1.010629848170964573e+00 -8.675253818483301682e-01 -2.517215319615601077e-01 4.289941517035335550e-01
4.614709364721774482e-02 2.212294068015662613e-02 -8.766771798931294324e-01 4.173807295208934454e-01 3.943128692744111707e-01 -8.187250379395930588e-01
-4.061340615914543414e-03 -1.003626911238158503e-01 -1.083641193704767192e+00 -9.518037301964675512e-02 -3.409985536508235993e-01 9.352329565407152545e-01
7.374916274350735990e-02 -1.197896272885010521e-01 -1.020520351249331492e+00 -1.485847340284128792e-01 2.343006433067706951e-01 9.607423095501411714e-01
5.057966025059041325e-03 -2.859599190212485514e-02 -1.034090396690771296e+00 -9.070787360783687525e-01 -3.695870382686145539e-01 2.015281312827141846e-01
5.797749104309146695e-02 -2.732837948299609090e-02 -9.793575490751644796e-01 -1.283833998101144847e-01 2.494247556271611821e-01 9.598463387092370791e-01
-2.722217350519528720e-02 9.556835478327112277e-02 -8.770974818924549554e-01 9.608428807240955161e-01 -2.177162661156211987e-01 1.714076603611794369e-01
6.598875215085544567e-03 -1.834772466559810022e-01 -1.045406091553506833e+00 1.488297864431702699e-01 2.210092536170821520e-01 -9.638488493964708637e-01
-6.432535281050928699e-02 -1.023078290454430411e-01 -1.073027602228688426e+00 3.310152730774070795e-01 -2.741719559376311066e-01 9.029167334626285735e-01
1.005173497631598190e-01 -1.108964619363235621e-01 -9.527942453606697004e-01 -9.063903228495200359e-01 9.833053568467195471e-02 4.108377884234950539e-01
7.103186554219041715e-02 -1.722465421985342748e-01 -1.024016066791241242e+00 -9.249441893234033873e-01 3.573691030348156161e-01 1.294819324576352015e-01
-7.636024758435300264e-02 2.952404792178052809e-02 -9.837704493010570594e-01 3.026295349036080551e-01 -8.650061461550831998e-01 4.002246015901032572e-01
4.547702074175774545e-02 -9.643604723624568664e-02 -1.053591581100843610e+00 -7.305237990925735891e-01 -3.784528796989588550e-01 5.684262457055607731e-01
-8.712086057658660621e-02 -7.928829619162243436e-02 -1.055188709853841722e+00 4.261109419582692626e-01 -3.389400667135738510e-01 8.387783356284510550e-01
-5.879569075010854240e-02 -1.493321712862691331e-01 -1.078041223753662070e+00 6.727424566114955651e-01 1.623783051090084417e-01 7.218385367256696661e-01
7.483703203136442272e-02 3.508646694582640002e-02 -8.852786222074420230e-01 -7.456391337182742829e-01 -6.494032502617818059e-01 -1.493241467991538729e-01
-3.784386234214736494e-02 -4.219040246829450225e-02 -1.052275281213300717e+00 1.486013605919165315e-01 -5.716951889004449061e-01 8.068966765443491562e-01
6.320238036035355500e-02 4.588258722218391261e-02 -9.001820149072979893e-01 -6.578764930640120800e-01 -7.192842171864398670e-01 2.232235085744491698e-01
2.861712993113455644e-02 3.549744000242438524e-02 -9.533675162229507949e-01 -4.464895265447128003e-01 -8.409815247731332599e-01 3.056095183009424066e-01
4.534229628125774347e-02 -2.846464176418299699e-02 -9.949793618412610119e-01 -4.672558752207531807e-01 -8.665297958865708638e-01 -1.754937603234541788e-01
-1.083205672738189219e-02 1.046408530957784744e-01 -8.144701732393655469e-01 -1.447404728386082577e-02 9.542844905454542781e-01 -2.985491803030568825e-01
-1.996013815842803685e-02 -7.441246330511787355e-02 -1.064545699980337323e+00 3.095947145175894644e-01 -5.752758015456131968e-01 7.571055837192225413e-01
7.540540026674107110e-02 -1.008188868408216310e-01 -1.017367374033044669e+00 -8.272801639519475891e-01 -2.144633098331474585e-01 5.192427361716774881e-01
-1.620016369131246567e-02 -8.243406709258502274e-02 -1.074881054210475861e+00 1.874898477926874862e-01 -5.380552257652401194e-01 8.217932410292695389e-01
-6.073375585244089603e-02 -6.522350066945536984e-02 -1.059868136105408531e+00 2.865997101835798255e-01 -4.476104934529006596e-01 8.470569356740660361e-01
7.222879032074282224e-02 -1.085427685977292250e-01 -9.547388082738493820e-01 7.794030309858347438e-01 4.398668927960582287e-01 -4.461479932847786101e-01
-3.518060611986605080e-02 1.407016188504500165e-01 -7.672455869950812746e-01 9.361187469469753886e-01 -3.360097170086869256e-01 1.038227416810349885e-01
-1.211163711791303083e-01 -2.835813386402417230e-02 -9.920226796326009344e-01 5.033575869743499576e-01 5.666505031038958640e-01 -6.523330031260579087e-01
4.151070520869339087e-02 -7.753620072387089335e-02 -1.036952458772097962e+00 -6.436981280736363553e-01 -1.818810766806902013e-01 7.433518640993438398e-01
7.769555432106330095e-02 -3.427065473558861802e-03 -9.403903256327349469e-01 -7.588871399601346823e-01 -5.498033792293172128e-01 3.490079554840410658e-01
2.374570768705219423e-02 -7.270730511777990200e-03 -9.941358618190566654e-01 -7.412681505285760863e-01 -5.286596475477630674e-01 4.135704366448588187e-01
1.164721156699183996e-02 -2.385196729227623547e-01 -1.062005496724437892e+00 -2.132901924159056328e-01 5.826266770085787305e-01 -7.842534342016791449e-01
-5.310145971904906698e-02 3.659698835122688482e-02 -9.826820087502419199e-01 1.776384537002205777e-01 -9.338793870726876944e-01 3.103447601744481199e-01
5.117064987580290103e-02 -4.547325105711517296e-02 -9.308675670278955261e-01 5.605253681594546400e-01 4.730824072131370461e-01 -6.797090168852634173e-01
-8.234158541968633616e-02 4.696084240704601065e-02 -9.790679493883536200e-01 9.156756853343796243e-02 -7.108342623867515142e-01 6.973736672759855981e-01
3.210172702951720469e-02 -1.393928094019231123e-01 -1.027208151894209553e+00 5.833812861818964413e-01 2.592248736658898101e-01 -7.697199099709320924e-01
-4.007194143900726091e-02 -1.787086641435088885e-01 -1.066158904533637264e+00 7.714660093616934611e-02 6.542291873807823954e-01 -7.523513622922980426e-01
2.804981533109379352e-02 -1.422307080765115306e-01 -1.075476819731491451e+00 1.139771898988403975e-01 -2.840529168927699022e-01 9.520100527764780995e-01
1.659142162240848529e-03 -2.674831426705491511e-02 -1.039476042075562656e+00 -4.534140693682663925e-01 -6.125769981284784338e-01 6.474296124389207208e-01
-2.195909230136805501e-02 -4.569082680728604046e-03 -9.412034952197655402e-01 5.846670867989064435e-01 5.735356870665713203e-01 -5.737780174206363881e-01
-2.224392746699611206e-02 1.523394048083644980e-01 -7.156711393187953352e-01 1.371009034498009427e-01 -9.826510296232418007e-01 -1.249011459260115364e-01
7.570870439688628939e-02 -1.271486277974046841e-01 -9.656580430637347057e-01 6.949605381748592547e-01 3.907527772660674414e-01 -6.036075856370306525e-01
-2.375854361564214839e-02 1.142064670217618205e-01 -7.233092008415831220e-01 1.765288348879673341e-02 9.871071663311948852e-01 1.590843106095948811e-01
3.201358786438895238e-02 -1.474841652752545973e-01 -1.077095355855428149e+00 -5.986363626810704136e-02 -2.234166986133187538e-01 9.728829959627648405e-01
-1.732878254977756119e-02 -1.558977457731394907e-02 -1.032516474787028793e+00 -4.941090043788226062e-03 -7.278072541521162231e-01 6.857639436662854582e-01
3.382728845026542613e-02 -2.021926740766564340e-02 -9.968090111056190361e-01 -6.292883756697150721e-01 -7.511324752758337109e-01 1.994897110955109187e-01
4.250213883435254719e-03 -1.586108589846435546e-02 -1.021350744563632951e+00 -3.609549814818092256e-02 -6.467227484073793109e-01 7.618705938056936633e-01
1.098777351455416766e-02 1.201091846089333004e-01 -8.458612318291096610e-01 -9.422601974862558905e-01 -3.261439074755407286e-01 7.599915690155921444e-02
1.362469433702642209e-03 1.414596560357503641e-01 -7.101426718516971048e-01 -9.535997550276783530e-01 -2.883758061757636937e-01 -8.652688382017585667e-02
-1.229394759755783467e-01 -4.282702777269756234e-02 -1.010361816515897848e+00 9.668604190266691933e-01 5.433960947764382432e-03 2.552477270966220235e-01
3.855645703936969731e-02 -1.133088709941678651e-01 -9.975681773125915086e-01 8.280116832764344847e-01 4.504847585474358040e-01 -3.338564581885216653e-01
7.666111654112155172e-02 -1.601177450871611452e-01 -9.906876246487350546e-01 -4.610563369817727852e-01 7.632768825304526716e-01 -4.525875105695510436e-01
-1.481354423198563697e-02 -4.692557761780577485e-02 -9.829839384665741697e-01 6.482119118381473033e-01 4.961054512758144019e-01 -5.776683292041848716e-01
4.507569493423178864e-02 2.557580911250258507e-02 -9.413869502975494852e-01 -5.686928608650533290e-01 -8.152054360404151767e-01 -1.096746417877794144e-01
-4.783285354857176597e-02 7.613317428911978157e-02 -9.397667485982792446e-01 -6.879230240743125502e-02 -8.941493978339533077e-01 4.424527923775179450e-01
2.032495176504914465e-03 1.309135836171811951e-01 -7.331565286300951723e-01 -9.580486503977612145e-01 2.828393369146622871e-01 -4.631082988570173892e-02
4.782688223443275211e-02 -1.645000112958544258e-01 -1.065595001726156621e+00 -8.881894859847847545e-01 -4.493258937852452894e-01 9.605039385746612368e-02
1.828425126308463183e-02 -7.825864201637447448e-02 -1.057771397518902257e+00 -3.105608002193599188e-03 -5.093376031539939008e-01 8.605611896967475527e-01
6.507949259382811436e-02 -1.248082738407832112e-02 -9.693723351273724198e-01 -6.691224930407169147e-01 -4.941903322661892473e-01 5.550234272547504011e-01
9.550598634142296040e-02 -1.328521160348328234e-01 -9.686586634633111981e-01 -9.026076849735394925e-01 4.256088466631230971e-01 -6.447074273493150209e-02
2.820560018096024760e-02 -1.391894262249381009e-01 -1.029687829833638046e+00 4.810905601074459415e-01 1.923496014935708043e-01 -8.553090106977527807e-01
4.287583191896988249e-02 -5.409336778628447140e-02 -1.031067601714966253e+00 -6.680090261392653828e-01 -4.582240643381698675e-01 5.863400445627767743e-01
6.489274825731793095e-02 -4.602635528814016941e-02 -9.185175728277472640e-01 6.359362153052303679e-01 4.591493379749796988e-01 -6.202959096273308326e-01
-3.182563448611248208e-02 -1.720411023470810319e-01 -1.087483371396716247e+00 3.231344081064022045e-01 6.682022927716070593e-02 9.439911076154651193e-01
-3.814771143814581905e-02 1.403282964626391960e-01 -7.314595639700659513e-01 9.526874233508895173e-01 -2.960792849397725357e-01 6.872939995806835733e-02
-7.435671717145146686e-02 -1.666753307663786446e-02 -9.682921414243820246e-01 7.612291066531244599e-02 6.452424826767785282e-01 -7.601759276778948804e-01
-1.245681604412638005e-01 -6.586091771049227585e-03 -9.937543178155510137e-01 3.536798221627556749e-01 -4.665311258870255551e-01 8.107152964965603781e-01
2.579896662581733849e-02 -5.868469796957389434e-02 -9.733604971946459017e-01 5.483387774230638056e-01 6.123505655752574661e-01 -5.695185422915062246e-01
2.328738503011651417e-02 1.904771467719320937e-03 -9.092032913757754908e-01 4.654804577704767521e-01 7.678288873828520433e-01 -4.401894400530285689e-01
-4.767281770415246478e-02 4.578688404835926963e-03 -9.451844448206583316e-01 1.805803681741868505e-01 6.995657072398849818e-01 -6.913743934251794787e-01
-4.426584996805920519e-02 7.625444347533319456e-02 -8.989739068096238572e-01 6.536029362790739539e-01 -2.023453482084132116e-01 -7.292870228831641599e-01
1.004199183865786549e-01 -1.153670065959761099e-01 -9.496064105586824455e-01 -8.985768691384193874e-01 3.445989200648265083e-01 2.716821571976176797e-01
-2.433131029638009243e-02 -5.960348765688449485e-02 -1.003033021878997122e+00 3.407845914492126371e-01 6.373723069447952971e-01 -6.911023112178563688e-01
-1.231277257511146327e-02 -9.635055466475077324e-03 -9.370366798437779199e-01 4.720243318741187966e-01 5.803276806731593185e-01 -6.636360547493659334e-01
-8.893637978701117441e-02 2.704235562714823321e-02 -9.851224151149696739e-01 -2.189616080758488570e-01 -2.572647270717747792e-01 9.412070305695360295e-01
2.683696888145264536e-03 1.412568054407583873e-01 -7.362167387210158953e-01 -9.847960840770837443e-01 -1.684854469789161535e-01 -4.230043667334914409e-02
6.349170979538683313e-02 -6.900315851407029522e-02 -9.331329926963045640e-01 7.061480940656562622e-01 2.906895517099385984e-01 -6.456426672503268183e-01
5.601531339567023676e-02 -1.086169798969774669e-01 -9.798768856074326905e-01 7.606547145071260729e-01 3.061345878526527953e-01 -5.724386599613702220e-01
4.987851183673143278e-03 8.382394011216651175e-02 -9.265493804479000284e-01 -3.263017462626350840e-01 -7.708471951476157935e-01 5.471030726645650377e-01
-1.679997113046697091e-02 1.442446698506696379e-01 -8.089429112811216127e-01 1.809081201597668165e-01 -9.365961065642839367e-01 3.000999587285608228e-01
9.696556633629534530e-03 -1.188787253771430956e-02 -1.019711846518038367e+00 1.410186741954560716e-02 -5.703856424934381497e-01 8.212559626405334656e-01
1.125767027717990837e-01 -5.988600995652194892e-02 -9.075275397792129661e-01 -9.954557105713239817e-01 -4.073369132349519833e-02 8.607377464769917774e-02
3.562944234561100758e-03 1.271019794642812006e-01 -8.498568877235270769e-01 -5.005593120535545282e-01 -7.906002412776089727e-01 3.526919812077655703e-01
8.829306110224481585e-02 -9.490018903878381928e-02 -9.853676100696138196e-01 -9.014405803238511039e-01 -2.640965742412493822e-01 3.430129438074234760e-01
4.546009145048784256e-02 -6.617318500016208804e-02 -1.035826955482065159e+00 -5.448091112851324302e-01 -2.163820095050284498e-01 8.101616247535241566e-01
2.080419194921945356e-03 -1.087218864363781456e-02 -1.016951826802593217e+00 -8.697533086513221934e-02 -7.098180666353651747e-01 6.989947096358690715e-01
9.892562538185006860e-02 -1.164370334287563175e-01 -9.577411658780118353e-01 -9.998027935761950591e-01 -1.012779792352228904e-02 1.708220320850814891e-02
5.004053256360396079e-02 -6.677807654811031279e-02 -1.032145439802566678e+00 -6.753310327031099014e-01 -4.007897511437705784e-01 6.191086913024769212e-01
-1.209293730729515126e-01 -4.494400299479513888e-02 -1.015067182562227943e+00 8.261522481877452417e-01 -1.167702712526991621e-01 5.512142655682137349e-01
-3.956670224469403807e-02 -1.104478989029565872e-01 -1.043188787191577260e+00 -1.459353151633116519e-01 5.260383022307371093e-01 -8.378463990340883072e-01
2.325984228323194243e-03 6.869872510546795596e-02 -8.677686179933098432e-01 -1.796702718381260888e-01 5.196693838781168973e-01 -8.352618301331337092e-01
-7.971604433989729760e-03 -8.811364790421319024e-03 -9.344712182761433228e-01 -1.458422232682968223e-02 6.779656471286651387e-01 -7.349488973884730214e-01
-6.342715613858447218e-03 1.160201574831419696e-01 -7.747775454407503926e-01 -3.081342517839787409e-01 9.309195352815390345e-01 -1.960665746850571989e-01
-1.422735672229670512e-02 -8.697000299033592896e-02 -1.077868733873973861e+00 7.983516840122246994e-02 -4.776634464983993689e-01 8.749079824562233654e-01
-1.019215268823789600e-01 -6.416365073690956378e-02 -1.004069864573553739e+00 3.370726299237425394e-01 4.790062963221152215e-01 -8.105152745260644220e-01
5.424993229812767603e-02 -1.828168437443519478e-01 -1.057335535770184354e+00 -9.927123938260503655e-01 -2.702630818790720604e-02 1.174379913396201708e-01
8.613360121089415344e-02 -1.141565937878326747e-01 -1.001821685633772496e+00 -8.919073778600409286e-01 -1.215843466831355996e-01 4.355668444228293357e-01
7.013758762066030217e-02 -2.233470773101636775e-02 -8.842498056484031643e-01 4.528660411917689310e-01 3.849646245428586799e-01 -8.041856667373966649e-01
5.175470130569804475e-04 -1.073786789014515575e-01 -1.085733957142239747e+00 -1.251340033330083090e-01 -3.088562437648706416e-01 9.428410798736495124e-01
-1.478290000567824593e-02 -1.438356614327482297e-01 -1.047445031368998025e+00 2.018481213760646431e-01 4.672175798161944393e-01 -8.607932789047851863e-01
-4.160139420314894892e-02 6.581507381857999717e-02 -8.979150601766709983e-01 5.962032672184510718e-01 2.400226973280605858e-01 -7.661140704395178469e-01
4.863874476845006858e-03 -2.386223816423608257e-01 -1.062216596823095216e+00 2.637392521298196346e-01 3.776778374323135345e-01 -8.875815782216608385e-01
-8.757897913173721960e-02 -9.741709574833655461e-02 -1.060972264629422179e+00 4.895694244253406824e-01 -1.984181101090191079e-01 8.490889424840050159e-01
7.912098376816606438e-02 -1.020232460012545500e-02 -9.464486571452145336e-01 -7.716105419726971837e-01 -4.772558952720163394e-01 4.205282177746301198e-01
-3.053355731101383905e-02 1.286598053154774102e-01 -8.189583141254175302e-01 8.923784904713024657e-01 -4.017713693413963449e-01 2.055246859180153429e-01
8.179711017794302763e-02 -7.440350125160996586e-02 -9.198631664554939302e-01 5.097694383388988726e-01 3.693232045151847442e-01 -7.770041765282080792e-01
2.139941839884615740e-02 -2.291555902757864971e-01 -1.074844144395070034e+00 -7.431171239723716182e-01 5.292348457295650288e-01 4.094965422621223983e-01
1.397438763683621875e-02 5.318950709444936892e-02 -9.588049230282668089e-01 -5.356914573555701109e-01 -6.503317487271402797e-01 5.386123644271127997e-01
-6.916451428575050298e-02 -1.110388516902461320e-01 -1.073336054060133327e+00 3.796541664117890624e-01 -1.812754765658781686e-01 9.071945301433335107e-01
-1.174130639620039745e-01 1.005182271586207293e-02 -9.601621086317908560e-01 7.049509598968417556e-01 1.988792683812816431e-01 -6.808018659996811772e-01
3.159129193058106497e-03 1.439692442603516531e-01 -7.646554762970997343e-01 -8.666406017105821036e-01 -4.983651137086105298e-01 -2.379665743175130715e-02
6.322179451116141657e-02 1.015972300986199908e-02 -9.458477224950448958e-01 -6.375867407900617234e-01 -7.159045669529979783e-01 2.845413836062282154e-01
1.059853660333510694e-01 -9.565700215410259666e-02 -9.478145366428066820e-01 -9.616374688162235840e-01 -3.184765087381317278e-02 2.724685407575455631e-01
-6.195591986836933990e-02 -1.042696850514588242e-01 -1.035561792085438304e+00 1.768576279839087495e-01 2.442479762649078789e-01 -9.534486381103086661e-01
8.262249698677059939e-02 2.213379060678254129e-02 -8.799220437455508304e-01 -7.776398071023233882e-01 -4.971766803906776389e-01 -3.848268167443212873e-01
-9.609471888187078037e-02 -6.416904817784199744e-02 -1.035666606938556278e+00 2.474258203127152611e-01 -3.643446585983033392e-01 8.977936473340998313e-01
-4.317096364924372792e-02 7.662725079867742373e-02 -9.379430513634700040e-01 -8.366580838329180925e-02 -8.905650420964306146e-01 4.470949991929598633e-01
4.277150818934603166e-02 -5.805907068808944388e-02 -9.530934689054211262e-01 6.590643811545172648e-01 5.905440410006381757e-01 -4.657165201407930666e-01
-7.024931397623913713e-03 5.537505632328017235e-02 -9.569100035548122607e-01 2.083456361499641252e-01 -6.737614734905524871e-01 7.089693736242110855e-01
-2.684887032804243387e-02 8.729866345799924821e-02 -8.961953304388410313e-01 3.947877142461194144e-01 -9.001039173023709372e-01 1.842704499838516419e-01
-6.273051494409731532e-02 7.488147758209956484e-02 -9.422063942199440101e-01 9.963232358635999708e-02 -9.225878350091875069e-01 3.726997273809616318e-01
-1.257810079512413082e-01 9.097981770722841227e-03 -9.769236869933590750e-01 9.844479127141717578e-01 -1.673276608050816572e-01 -5.351412040022685696e-02
8.989564208204073315e-02 -6.340910832334211052e-03 -8.744156221395580353e-01 -3.603770032826184022e-01 7.459867118498579586e-02 -9.298190435576559887e-01
-9.885145546837681169e-04 -1.885037579223780846e-01 -1.094920457990835372e+00 -6.171633701873392719e-02 1.410833230283777551e-01 9.880721581485133465e-01
1.102959421710889149e-01 -5.221770195221028810e-02 -9.114877286855744831e-01 -8.302958298148532812e-01 -4.063884845157267889e-01 3.813885612404692149e-01
2.544552591486099608e-02 -1.484589268474390822e-01 -1.030283859536309077e+00 1.518671937856542475e-01 -1.043830872140500965e-01 -9.828736066022601969e-01
-2.522188689730424024e-02 -1.473394095897733735e-01 -1.053005241300170702e+00 6.495022353002097848e-01 -1.907891992263099079e-01 -7.360341892864857849e-01
-4.399190561148394463e-02 1.219514706266184439e-01 -6.814019487707839717e-01 9.908571264340317875e-01 -9.066848129489610275e-02 -9.990686410137403217e-02
-4.586181729909212523e-02 -1.741118395420997722e-01 -1.065758395738434450e+00 6.830518510262171272e-01 3.396917513731689819e-01 -6.465676166176959061e-01
6.724059160821613257e-02 -8.672752849482304183e-02 -9.408707486109496587e-01 8.804178782505940326e-01 4.454242175625428013e-01 -1.626702986581099464e-01
-7.456079115518578215e-02 -8.493597707674593877e-02 -1.025712619997481312e+00 -1.378139959972554396e-01 5.132585272483349836e-01 -8.470967989044336788e-01
8.062855541026309192e-02 2.304536451095666461e-02 -9.096810861191939601e-01 -7.195095289841948460e-01 -5.840795983331052987e-01 3.757087442580761549e-01
4.986274346068320096e-02 -1.356505694164087672e-01 -9.994103608316459164e-01 8.605957636490866314e-01 4.090519745864629186e-01 -3.033997588597608375e-01
-4.130454740291624599e-02 2.365918602148482999e-02 -9.998458581066370643e-01 -3.074228772782000921e-02 -7.112264256820677311e-01 7.022904549805373264e-01
8.341633455541229078e-03 7.692774174048870595e-02 -8.665526223710937614e-01 -7.034658512813606324e-01 3.143775389086048144e-01 -6.374186686242876432e-01
5.389483373821627593e-02 -1.677690119623417297e-01 -1.057803018066752587e+00 -2.620962249494063201e-01 1.755983796955518927e-01 9.489313873592585269e-01
3.528125173300152712e-02 -1.088152812656496271e-01 -9.983634183376934867e-01 6.942832149815892917e-01 5.211279237659190988e-01 -4.963834248504381819e-01
-1.541127394004775629e-02 1.146424339129717557e-01 -7.720096119890980102e-01 -7.704072187073693345e-02 9.805061116460723758e-01 -1.807553379525365933e-01
-2.655017811865631114e-02 8.559989710346591063e-02 -9.068270016923828392e-01 -4.885896301273170983e-02 -9.754274802870338545e-01 2.148348957553418703e-01
-4.802109538319176973e-02 3.174404296813794490e-02 -9.909478310610101426e-01 8.053209948440959859e-03 -7.886236307282906699e-01 6.148234826895073724e-01
-3.717471233599809605e-03 1.092399717059331921e-01 -8.874758107160707343e-01 -1.473264673153903415e-01 -8.379356830726071292e-01 5.255080428138187987e-01
3.798583143170395499e-02 -2.575537816490059556e-02 -1.010590364651023920e+00 -6.437194881364141086e-01 -5.795641365875211504e-01 4.997305595768124498e-01
-4.563419125961127448e-02 -1.004479199692826126e-02 -9.574832544811362478e-01 2.085512278158010158e-01 6.175694908811794059e-01 -7.583629139859640045e-01
8.086313820882568004e-02 -7.843867658470714266e-02 -9.903661346121572784e-01 -8.683881155123879259e-01 -3.491686024950747536e-01 3.521127204014080081e-01
-5.642023936707105461e-03 -2.911787770283766341e-02 -9.524417256287076583e-01 -2.643460794642341766e-02 7.112806249749668019e-01 -7.024109082566555307e-01
1.766514337750801997e-03 -8.781047671915667707e-02 -1.008759739387728116e+00 -9.720274390871426473e-03 5.612239670302434646e-01 -8.276068964771877701e-01
1.226642349362937895e-02 1.068651197560966659e-01 -8.705248981048130386e-01 -9.023311785621428438e-01 -3.777061251745965631e-01 2.076933489552480472e-01
5.530382546809291255e-02 1.165703164358444788e-02 -9.562268455008060553e-01 -6.434789453557668848e-01 -6.159396567832010616e-01 4.544812274292769905e-01
-2.367932323542812356e-02 -9.519479211783470063e-02 -1.080842873538421456e+00 9.652591387199131734e-02 -4.752831938161217740e-01 8.745219457664420437e-01
-8.985414973451658419e-03 1.051938553502941576e-01 -8.132480094989917863e-01 -1.600783653375705828e-01 9.373237322636190916e-01 -3.095143581261625698e-01
-5.271171801049975847e-02 -6.980693990669165072e-02 -1.018856012405427780e+00 -6.481869776832812832e-03 5.671455318445119964e-01 -8.235920902200322136e-01
6.676712225439504489e-02 -1.233847500919078993e-01 -1.036654812308587026e+00 -8.899188300623241954e-01 -2.784940331159834748e-01 3.612278358865738670e-01
4.299237094916735086e-02 -1.521615718669340478e-01 -1.063174212685402242e+00 -4.121084038949128225e-01 2.284885395326670746e-02 9.108482822689022429e-01
5.797799817510252557e-02 -1.061428231483898810e-01 -9.757645644051186062e-01 7.827691608101251530e-01 3.466385965578983042e-01 -5.168308468551225943e-01
9.442797602401829804e-02 -5.965600119319916517e-03 -8.777541416580092459e-01 -6.891837959727381557e-01 -1.978561435354371234e-01 -6.970499564836739603e-01
7.476652384182363997e-02 -4.727812140845087836e-03 -8.754431574978928099e-01 3.540581737676291585e-01 3.726028490733646614e-01 -8.577936386163880211e-01
4.789037980129300098e-02 -9.955417940671593136e-02 -9.854745654795948884e-01 7.312978752125327553e-01 3.099094532935705026e-01 -6.075850133676072851e-01
-3.904486579973915229e-03 -2.217433138808510285e-01 -1.060641384887940797e+00 6.171560593025388064e-01 2.502625054169405061e-01 -7.459806142579022969e-01
5.655472162278432635e-02 -6.917111004646037120e-02 -9.440328807501833230e-01 7.935897877637722031e-01 5.418773823466593864e-01 -2.767384166648777510e-01
6.759805010005548453e-02 4.224543994851026607e-02 -8.978888858409056484e-01 -6.857936190504553275e-01 -7.027129033281368509e-01 1.894246223853159605e-01
-9.837491184118984933e-02 -2.324885463753383064e-02 -9.766133505253130620e-01 1.965852710374163259e-01 6.154623152052041135e-01 -7.632564246525511686e-01
1.028218420204524142e-02 -2.897381146637711263e-02 -9.464777894302909278e-01 4.646785298959888455e-01 5.554175123544212722e-01 -6.896268924742775530e-01
-8.332927072693080417e-02 6.751446328648123829e-02 -9.469425116933779529e-01 3.807979142181064369e-01 -8.856534133705716849e-01 2.657272660307837264e-01
-2.645659816292928943e-02 4.244810025714686880e-02 -8.936613153661896458e-01 6.980980707731696544e-01 3.833231825274909799e-01 -6.047498832738826824e-01
-7.060355621262344450e-02 2.869968224107428273e-02 -9.917374336732653894e-01 3.147464829359741256e-01 -8.544063989837447082e-01 4.134299902704988150e-01
-6.915363523424171432e-02 -5.001455689853752384e-02 -1.046976701909320129e+00 4.445867924558099538e-01 -5.872021607420321310e-01 6.764142269303204946e-01
-8.509126130902418261e-02 6.388839077821571732e-02 -9.261278698260508868e-01 6.578878181470919628e-01 -4.413798877533451903e-01 -6.102191519614107440e-01
-3.010515797467674601e-02 1.270897512489441716e-01 -8.238876350038574214e-01 8.923784904713024657e-01 -4.017713693413963449e-01 2.055246859180153429e-01
2.840395194589203157e-02 -1.884642615114674458e-01 -1.084505896497521160e+00 -2.000368627848214953e-01 6.013761081116433295e-03 9.797699159521410239e-01
-7.769087500368065946e-02 3.917518683966240284e-02 -9.806464419753290196e-01 -4.093407661891905192e-01 2.747121716274085190e-01 8.700421598379010080e-01
-1.077616256769638355e-02 1.494042389129082715e-01 -7.924675992385331602e-01 -5.656346818580799962e-03 -9.807361331274637717e-01 1.952553275044184855e-01
-9.391908603472774730e-02 -1.154129083264068822e-01 -1.047158335465730339e+00 7.622254136636571475e-01 6.105227222559568290e-01 -2.151149096981482267e-01
4.001583490909208429e-04 -2.204897643282891784e-01 -1.056996841118553521e+00 4.645198189733960037e-01 2.972810187899893597e-01 -8.341734433845935381e-01
-7.792191263214799657e-02 2.861956917590527394e-02 -9.320114742906591143e-01 3.744398773213818976e-01 3.036730884613815795e-01 -8.761149659809918111e-01
2.207991131717484956e-02 -1.612372304216042607e-01 -1.035519435507263220e+00 6.043952474363808447e-01 3.029769959839153648e-01 -7.368251656810308470e-01
6.521972048848664882e-02 -4.874956766460285251e-02 -9.926964686438206620e-01 -8.269737912868742047e-01 -5.028995140670119435e-01 2.514088846396979604e-01
8.868219883686205562e-02 -7.265110542444629116e-02 -9.641326212593925860e-01 -9.083502310129987212e-02 2.172739480842245385e-01 9.718750074274368211e-01
-3.596900805990975447e-02 1.394373592852881927e-01 -7.642074259619088261e-01 9.367667419699525766e-01 -3.342479005935133363e-01 1.036649028737737233e-01
3.756313469469485522e-02 -4.111832402627531996e-02 -9.379273202027487155e-01 4.474712072498377435e-01 4.481619331184473198e-01 -7.738994769257240280e-01
-1.189380569804389561e-02 1.435375076327326527e-01 -8.133605430474639686e-01 8.025894461502086630e-02 -9.417029257135852705e-01 3.267324616743133570e-01
-2.510418100533600566e-02 4.506705380945114602e-03 -9.344071915300637965e-01 4.929381901798077781e-01 6.631965495525596888e-01 -5.631893796262805729e-01
-2.486607129980457701e-02 1.406797959723058711e-01 -8.095513860489845781e-01 4.860798405005270495e-01 -8.147558868969760892e-01 3.160683999163852453e-01
-7.584400885033925309e-04 5.278263820130475042e-02 -8.766431122540818688e-01 -2.792900925797548936e-02 4.280026955257280052e-01 -9.033458158781602076e-01
-1.825720800439137315e-02 1.165637137629475378e-01 -7.453856592120113866e-01 -8.308612992508328243e-02 9.958787621641441712e-01 3.636187680090323393e-02
1.052912106034503553e-01 -7.988122320692435385e-02 -9.454661596008734348e-01 -9.094623227336703364e-01 -1.524338115601072685e-01 3.868361625044057228e-01
-5.669007156035606176e-02 -1.602325775069381453e-01 -1.075067089731811976e+00 7.763718652464342007e-01 4.970553422963149282e-01 3.875341450097860019e-01
-5.709270633186536159e-02 7.997029464319603542e-02 -9.199003703436490209e-01 3.138371023940367266e-01 -9.493328882434645122e-01 -1.653301122714314828e-02
3.443562979628026627e-02 -1.295641821523656756e-01 -1.020733367133171310e+00 7.098004633335397440e-01 3.519040556706735101e-01 -6.102022925670009812e-01
-3.148399101506447334e-02 -1.391746826810129622e-01 -1.091281777415890497e+00 1.987053299902186154e-01 -1.561931040503747314e-01 9.675328966399991959e-01
-1.192828969421077523e-01 -6.199083526687244883e-02 -1.014777758634895388e+00 9.076998899563930578e-01 3.628677659697910896e-01 -2.107318063160967259e-01
7.922758357279642560e-02 -8.425264101953691687e-02 -9.257233314849726558e-01 4.783819893244276589e-01 3.461273395920243523e-01 -8.070604296314810577e-01
4.052221799893893778e-02 1.762068495360540402e-02 -8.821951189375129010e-01 4.276497371119901136e-01 4.298010407614957784e-01 -7.952274943111442562e-01
-5.955541121751901056e-03 -6.720901251546220097e-03 -1.017723562168736606e+00 -4.439076910584346392e-01 -8.666691265715190662e-01 2.276633191072504614e-01
9.145091508774312594e-02 -1.815938022544441935e-02 -9.229028776171815940e-01 -8.290839446619043818e-01 -5.430444183358571486e-01 -1.331261522696670085e-01
-1.782573349366422047e-02 -1.241177009936443032e-01 -1.047772144204435874e+00 3.932180811679396593e-01 3.202677387422190325e-01 -8.618631655683803849e-01
3.956888724435413812e-02 -8.366715396196808263e-02 -1.051413822740097315e+00 -7.114673195756965329e-01 -4.797985837008802434e-01 5.134272803955814979e-01
-4.986199955924970617e-02 -3.886954412188756841e-02 -1.046970675101652315e+00 2.569406479248644848e-01 -6.051151417470564953e-01 7.535364415025929130e-01
-3.538530963617470687e-02 1.271816435891335861e-01 -7.780009321835626990e-01 9.249921418529530870e-01 3.792393572251568368e-01 2.381275796157078170e-02
-7.174971018534223588e-02 -1.050675157042218893e-01 -1.070799922269702664e+00 3.753370038122206265e-01 -2.268126248103264075e-01 8.987091669700021379e-01
-2.263106647007012001e-02 6.943306400064620798e-02 -9.419688383677942145e-01 -2.493205455937669845e-01 -8.033952630353322633e-01 5.407359030776630604e-01
1.376786709818605438e-02 -2.240937977314761964e-01 -1.080319935178907231e+00 2.176827449486017085e-01 1.277878467062742718e-01 9.676179456716457183e-01
-1.959890689307038428e-02 1.152937731516748138e-01 -7.291205401222641269e-01 -1.908996295232173734e-01 9.747729852120701199e-01 1.156501567169175154e-01
6.333530688558373922e-02 -1.248603272158393951e-01 -9.786757084591537481e-01 7.107294923818698873e-01 2.746091534716773030e-01 -6.476522226381830061e-01
2.175697021252643096e-02 -4.500600395160742062e-02 -1.033524961403645692e+00 7.477717682930459242e-01 -3.994341854562609706e-01 5.303675273174106586e-01
-1.378251883331641707e-04 -1.350522343262108571e-01 -1.081303329629996757e+00 8.248752639101743223e-02 -4.071014738473376360e-01 9.096505911509191744e-01
9.727815657475015476e-02 -1.008948973561486634e-01 -9.583926083387037664e-01 -8.103722347503794499e-01 -1.940567297577714401e-01 5.528461149193285573e-01
7.469306898356088686e-02 -1.643376469632501224e-01 -1.006173670512418461e+00 -9.292660142032966863e-01 3.679101563579331158e-01 -3.326847900640556716e-02
6.038076783618118171e-03 -2.070715966365569427e-01 -1.050595785194682996e+00 1.404799944925068378e-01 2.732627308316216697e-01 -9.516264241212673003e-01
-8.015986768563287956e-02 6.029191086846871078e-02 -9.632580420552228073e-01 1.353583121834057712e-01 -8.204685938883731211e-01 5.554362373537535813e-01
-6.240523778307993652e-02 -1.646823110556908457e-02 -9.664711556623108990e-01 1.255482392491670540e-01 6.354087378786095197e-01 -7.619011585822312860e-01
1.883914810110643226e-02 -5.828767991090447881e-03 -9.233641837620858439e-01 4.180463984297011493e-01 6.856384500239569579e-01 -5.959338256960259317e-01
4.002001261785993746e-03 1.530137784463767893e-02 -9.026422151798908500e-01 3.144113599723521446e-01 8.016700815997549467e-01 -5.084000167074920196e-01
-1.028919781184885890e-01 1.737887394494838644e-02 -9.471512464544017407e-01 4.988076204811040526e-01 2.038039558189481959e-01 -8.424101764238884904e-01
-1.028757743733884622e-01 3.487345047677902626e-02 -9.840620037427297850e-01 3.698299482585647446e-01 -5.931353614030510091e-01 7.151337304479068457e-01
1.006458502599025077e-02 1.026710621771377840e-01 -8.474446863224182058e-01 -8.697356682684076468e-01 4.173458363210585942e-01 -2.634052395970560845e-01
