2.065148965750984722e-02 2.722620671332712586e-02 -1.033200376870956783e+00 5.049411241084200697e-01 -5.709428585252193100e-01 6.473474441775268762e-01
2.509873687574873738e-02 2.965890035300205660e-02 -8.934993523562804185e-01 -8.001669286050525631e-01 2.670698492149288783e-01 -5.370349914177585671e-01
-1.653461126483841146e-03 -1.912369095959225163e-01 -1.058344766961623273e+00 -9.732642748626344487e-01 -1.321689144604450417e-01 -1.878510828461155135e-01
1.171572791788874808e-02 -3.551353615361407812e-02 -9.991588028542700561e-01 -7.355810171697397815e-01 5.632243935007122948e-01 -3.764290766469639005e-01
1.832848268227414354e-02 1.271589069894909496e-01 -8.730468596200189335e-01 8.125232355292835162e-01 -5.404678064067238719e-01 -2.184045374137831563e-01
3.481754836878377460e-03 8.053744821984158697e-02 -9.294675824430047584e-01 7.072745256938021141e-01 -7.057097464637958062e-01 4.167132168065360714e-02
-7.247710428333556387e-02 -1.154238226886239449e-01 -9.765301855877112081e-01 7.406337519400975067e-01 -1.431239273021148450e-01 -6.564885276383382040e-01
4.157055651055271972e-02 1.363049829977519001e-01 -8.900308116581628903e-01 -4.976460025840474810e-02 -4.530590841708659333e-01 8.900904172112951152e-01
-5.573215914227035161e-02 -2.666684204165475913e-02 -9.594196528157722392e-01 8.949819171597575007e-01 7.168811810730101042e-02 -4.403046464429810625e-01
-4.560133150875429059e-02 -1.783079799927282383e-01 -1.063109782879964937e+00 9.248267037504694921e-01 1.461320847305516701e-01 3.511993477248273043e-01
-2.956150329122541470e-02 -1.076536718536746234e-01 -9.263467227044259733e-01 -9.800065342111028421e-01 7.890451643382040414e-02 1.826506780438751087e-01
-4.620072827086688094e-02 -2.614324212962002361e-02 -9.916011545917948755e-01 5.463451996151792445e-01 -7.629247958719946876e-01 3.456192684170332763e-01
-7.189366174613084914e-02 -1.626010514639777971e-01 -9.832717376417335897e-01 9.506305969212900386e-01 2.916754915691842087e-01 -1.059569526503425091e-01
6.223017855136844800e-02 1.209084097914045752e-01 -8.673078828487538194e-01 -7.171612841312881015e-01 6.962593746944893969e-01 3.004289755001398818e-02
-4.017448201795878471e-02 -5.677134535869963333e-02 -8.391185761764106132e-01 8.767554384376227139e-01 2.261650084726758159e-01 -4.244399723313139194e-01
7.566260907855421915e-03 -1.661446770505682902e-01 -1.083267513803526372e+00 -4.751873396549077810e-01 3.489249340830986035e-01 8.077427700739862049e-01
2.605415497413390499e-02 1.452766659003634081e-02 -9.636515573396073897e-01 -8.350438565264105550e-01 4.999528593854832281e-01 -2.296712782865517888e-01
1.884551785629652310e-01 2.041292193926677045e-01 -8.394201663190671292e-01 -6.326241206226093095e-01 -3.027829956264675437e-01 7.128177744458485954e-01
-5.798455183805019050e-03 -4.381369241938606884e-02 -9.330746716430261545e-01 -7.593492371090859727e-01 6.411041037125991826e-01 1.112396705528851532e-01
-6.737557436774854053e-03 8.647140506641023960e-02 -8.860566668834894966e-01 7.826263809462659093e-01 -1.940516572789120486e-01 -5.914726554577633966e-01
1.211429493487506809e-01 2.047315612887943004e-01 -8.430250451701239989e-01 3.234499721679965911e-01 -8.947998686620355357e-01 3.077552770415578065e-01
-6.046141020455885612e-02 -7.522632478561588898e-02 -9.201447572705294675e-01 5.409328795664357648e-01 -3.270403731148752158e-01 -7.748781931096313524e-01
-5.877926788288315163e-02 -7.885612970699347468e-02 -1.008916193865055710e+00 6.333272488800278932e-01 -6.549048500667381534e-01 4.123059946024533184e-01
5.092517073340563361e-02 7.897259525622028764e-02 -9.552312847288768616e-01 -9.344084859782076924e-01 -8.796949724692549114e-03 -3.560946433287855428e-01
4.050606677275820494e-02 2.231146092897832653e-02 -9.856040337317116817e-01 -7.323610741383119738e-01 5.667755082281199508e-01 -3.773761788451074906e-01
-7.799495787790473519e-03 -2.226736795937382662e-02 -8.321403441664038114e-01 -8.713021941642546953e-01 1.198735450708768718e-01 -4.758810982132994361e-01
2.802223401092092218e-03 -2.192456541298993533e-01 -1.069045360763551278e+00 -9.988137629148577945e-01 -2.078437081344908927e-02 4.403495136537965982e-02
-5.529271908829665877e-02 -5.034767615938953722e-02 -8.761651419175147115e-01 9.433513025224898874e-01 -7.050232991433251495e-02 -3.242186631052759727e-01
1.275564654302608902e-01 1.681719514099567769e-01 -8.233203189447931836e-01 -9.028249107252714345e-02 7.150359551266913805e-01 -6.932334777560870132e-01
-1.282940441834347529e-02 -1.684647188371961313e-01 -1.084926253384231210e+00 1.127004456050953105e-02 -2.479088349862967333e-01 9.687178101136270092e-01
-7.250384612804162965e-02 -1.304992638221242063e-01 -9.457921727533905587e-01 9.525565567270730671e-01 1.507000914085147580e-01 -2.644342804662965229e-01
-5.915346509164580435e-03 1.556807269182074530e-02 -8.333647652577443887e-01 -4.541371507570146071e-01 -2.514351155705355501e-01 -8.547162283239576608e-01
-4.179684611216272216e-02 -1.416547856197548083e-01 -1.064703370165013929e+00 7.074783321957277549e-01 5.653809915954849385e-01 4.240504024477018685e-01
-2.729875434656054214e-02 -1.294603301998783207e-01 -9.135674354940481745e-01 -9.683311050284162391e-01 3.330940146425512283e-02 2.474375775999666793e-01
-1.309691138282399053e-02 -7.832814780290887902e-02 -9.694995679767979269e-01 -7.531693098829448374e-01 4.868841128178021394e-01 -4.423571535943219835e-01
5.154349801940533854e-02 1.391442964682396664e-02 -1.015942156009730368e+00 -7.465656937034382823e-01 4.823534416523667656e-01 -4.582300975614989058e-01
2.404227744674512432e-02 -1.166884444904146695e-01 -1.069502335285556827e+00 -5.543254864177981078e-01 6.351425198172943043e-01 -5.378821754137325106e-01
-7.356133562432819184e-02 -9.866868963843540563e-02 -9.418977030582513787e-01 9.662539823002431749e-01 -1.588251286645342084e-02 -2.571011230507721512e-01
5.281751889715521203e-02 1.095929344834970301e-02 -1.021128546883927735e+00 -7.465656937034382823e-01 4.823534416523667656e-01 -4.582300975614989058e-01
-5.536553065533587892e-02 -1.819637577109069759e-01 -9.618311159357707529e-01 6.022915392823831038e-01 1.832139010165868831e-01 -7.769669028878525285e-01
-6.108046473615825816e-04 -1.200226912544625629e-01 -1.048574409894513337e+00 -6.847274278903885403e-01 3.525333398159924969e-01 -6.378625195234428613e-01
2.849319115335651950e-02 1.270968742063194323e-01 -8.568423386186498902e-01 6.591506586515939459e-01 -2.313446300809409162e-01 -7.155418026445992119e-01
3.165843525073842868e-02 3.505845937269218976e-02 -8.995315328762167884e-01 -7.445948784312550472e-01 4.455377621903863217e-01 -4.970659608908329918e-01
1.787767615232101551e-02 7.075520864523028586e-02 -9.922300905264399562e-01 6.353562093026858815e-01 -6.431404259942504753e-01 4.274258763253058757e-01
-3.268175667000621648e-02 -2.664749862934531754e-02 -8.289671116387814509e-01 5.371149952896120405e-01 -6.169367650384937479e-02 -8.412498868436645294e-01
1.307217411217367030e-02 -1.216266419114345881e-02 -9.521520890742929399e-01 -9.635606139768025935e-01 2.507114116210641952e-01 -9.324554292630185537e-02
5.240025916176484916e-02 8.675737819991467814e-02 -9.671964577400494756e-01 -7.652900078296381858e-01 -6.326000286294800601e-01 -1.189470793844615293e-01
-7.023288645639287620e-02 -1.591671116998237545e-01 -1.013839699385393534e+00 3.460474122929749208e-01 2.954329233838166036e-01 8.904889534554751851e-01
4.178426823963684450e-03 -1.472822945028484654e-01 -1.062310203722915070e+00 -8.551536669170544114e-01 -1.681340251885544979e-01 -4.903500336822767536e-01
-4.920973564331375394e-02 -2.049295709342641714e-01 -9.866475588597829471e-01 5.679241841491746712e-01 7.763668934226182206e-01 -2.733433150011304602e-01
1.223203565695325096e-01 1.905091402784433452e-01 -8.568063579874702906e-01 -1.045462169170527644e-01 -3.243038056514033762e-01 9.401580346773350527e-01
-1.671518703472965259e-02 2.010036606167954834e-02 -9.974609000156183791e-01 7.353368402139552895e-01 -5.069693652942592887e-01 4.497352488712574314e-01
-2.067486224062295777e-02 4.369595192827997049e-02 -8.579876715553618194e-01 6.826445492390810221e-01 -6.145827960556229375e-01 -3.953282258916313019e-01
-2.107765558021762117e-02 5.332445306776854854e-02 -8.937812977687887850e-01 8.166145909136888204e-01 -5.763831535784603721e-01 -3.038207000547509321e-02
2.371393503488981522e-02 9.443627117324703002e-02 -9.258067135564452821e-01 3.056557604866199096e-01 -9.468444263719154597e-01 1.003004901771907403e-01
-6.749860478518728002e-02 -4.948305788495913765e-02 -9.543758868364057291e-01 9.306076905252911313e-01 -3.609283820478804694e-01 -6.082786670172745519e-02
-6.831347277613862221e-03 -2.254484853224147101e-01 -1.043026563229650039e+00 -7.753298317321303257e-01 1.596680737485948187e-01 -6.110398990668610697e-01
-7.769721975096596789e-02 -1.345008801264193643e-01 -9.926026570969177509e-01 9.991134184234542470e-01 2.871948035178899933e-02 -3.078260181535766998e-02
-3.774922338283583784e-02 -1.991964264867205625e-01 -1.067788498375705553e+00 8.690447060226124121e-01 4.285827943471093859e-01 2.471398133116047280e-01
-2.868326853595003223e-02 -2.086856389089335739e-01 -1.056141684559871008e+00 4.937713814869844065e-01 -9.692011802405091359e-02 8.641737750861449019e-01
-2.765896455148019253e-02 -1.687986471133684496e-01 -9.454184049737447415e-01 -9.973258696694604630e-01 -7.300272877707424113e-02 -3.422174623774672589e-03
-3.113751767479328719e-02 -1.991521464045916678e-01 -9.845912812640597034e-01 -8.715721401211343755e-01 -1.361227631007511929e-01 -4.709910805211524054e-01
-8.542191908175786720e-04 -1.805328335926125738e-01 -1.063959142407782998e+00 -9.530243655064642994e-01 2.206473813925072247e-02 -3.020889042680104941e-01
-6.970484349654947065e-02 -1.723831012240107097e-01 -9.919038704500793280e-01 9.440695926432851603e-01 3.186277325159321827e-01 -8.490566717302984456e-02
-6.170445191690862932e-03 -1.287896807126619469e-01 -1.046621724880627324e+00 -7.598519670674570570e-01 2.235297078890276790e-01 -6.104583997577245347e-01
-2.795486074777317476e-02 -1.641589309775365324e-01 -1.079503312779347413e+00 2.859305773401383810e-01 -5.677761753218690810e-01 7.719287011627468109e-01
-1.713326358887833772e-02 -1.042206266562846206e-01 -1.005587533493089936e+00 -9.537690891166288321e-01 2.595975004863776414e-01 -1.514386423171482365e-01
-4.909437527162769516e-02 2.352798634837028995e-03 -9.265848108867849042e-01 8.922653686405705997e-01 -4.426874781596273345e-01 8.882740908850224326e-02
-1.787953035876059180e-02 -1.177356578534078518e-01 -1.003804057435320196e+00 -9.072379962062827596e-01 -1.464266190618852548e-01 3.943075747049686886e-01
1.144893094160342149e-02 -1.628244242307844980e-01 -1.072737334083453398e+00 -9.199808492337560040e-01 2.618183626583487356e-01 -2.916957010619774526e-01
-5.385364742620658146e-02 -9.478159498143294559e-02 -8.796874782793078218e-01 8.980995147886863261e-01 1.723959519556267916e-01 -4.045947321526066065e-01
-7.783857283570083142e-03 4.592185909459579884e-02 -9.553917953676985819e-01 6.894966164172425804e-01 -5.830195058012818121e-01 4.297472184952483287e-01
-4.387048660553284976e-03 -2.743948888221059076e-02 -8.397476614759339375e-01 -8.535081999588337576e-01 7.107950720009693912e-02 -5.162087332264176931e-01
1.078586925660840468e-02 -2.136179578292135908e-02 -9.562763276496659692e-01 -9.221220476562975721e-01 3.567810221519316927e-01 -1.496603870714618700e-01
6.741785130919934754e-02 1.723919335193206670e-01 -8.651215098530633529e-01 4.155859720344355912e-01 -7.986440867746900096e-01 4.352653472400656587e-01
3.982268913402072646e-02 1.234278756268199218e-01 -8.508873539662431540e-01 2.327063165109707343e-01 3.012038963387477231e-01 -9.247291403899050577e-01
5.723232826795265904e-02 4.710690424587491570e-02 -9.839903014318426289e-01 -9.160483314541946198e-01 9.500444939088820151e-02 -3.896531907169761277e-01
-4.764844528608787322e-02 4.714981130248646971e-03 -9.273089344878706619e-01 8.323145291676937729e-01 -5.097504968559001259e-01 2.177313838001389834e-01
1.035050720368358296e-01 1.819873522679017475e-01 -8.622978859850567446e-01 -1.263194164663648256e-01 -3.504434001577863556e-01 9.280263079834786266e-01
-3.312601603738023204e-02 -1.668963900582437210e-01 -9.613226942936774488e-01 -9.645214927463406918e-01 -3.934918430919897431e-02 2.610554188760910721e-01
6.550817411572229521e-02 1.477833568521398633e-01 -8.373319313377274309e-01 3.293988243745442634e-01 1.573356247366993754e-01 -9.309897505823468977e-01
-5.462122561133312543e-02 -1.490314331058103636e-03 -9.520162920354466873e-01 9.658025627240777178e-01 -1.994889473642212918e-01 -1.656187480785885346e-01
-2.118172992359362156e-02 5.195926755085757132e-02 -8.801342091854257310e-01 8.189659859880185078e-01 -5.652594353483920697e-01 -9.887610704457282240e-02
-7.566163284311794301e-02 -1.516055328075070208e-01 -9.943961069268251185e-01 9.703503836878450972e-01 2.415357798409211443e-01 -8.977746570843570320e-03
3.326377223568878494e-02 -7.085984737014425217e-02 -1.085401024559491390e+00 2.164785407976274265e-02 -2.402244960485692971e-01 9.704759460759199152e-01
2.310785772365501339e-02 8.810022858716413940e-02 -9.661238857282661296e-01 4.517300003951653653e-01 -8.463358110707825954e-01 2.822334169480014143e-01
1.752759148274117204e-02 4.235553881551124694e-02 -1.009781203187669618e+00 3.500086005954557988e-01 -8.278689843658036951e-01 4.383228538809533781e-01
3.976153038487845182e-02 -7.021490621691622858e-02 -1.063829373907435372e+00 -7.308647190360499923e-01 4.456730854231771843e-01 -5.169257813243031130e-01
-5.885533546863952470e-02 -1.952562983259956420e-01 -1.031557351583796800e+00 9.411120641374581819e-01 3.033513015938228974e-01 1.492851987179787954e-01
3.332119659132791456e-02 9.454065531678547407e-02 -9.278195648619271818e-01 -2.918623542012028227e-01 -9.564368888978345140e-01 6.696548033353851882e-03
-4.256349878856013208e-02 2.776664088992198548e-02 -9.347865309936747025e-01 9.267454251886455552e-01 -3.403584310752858499e-01 -1.590567675010612358e-01
-6.752677387044908608e-02 -5.043887757476775424e-02 -9.514030704369446090e-01 9.383926741801290605e-01 -3.289702612908744217e-01 -1.058194511008249822e-01
1.170380535801729231e-02 5.698295675868540050e-02 -9.971163657672722502e-01 8.351754919777680808e-01 3.242833408450946919e-01 4.442096492086107795e-01
4.088203078936942375e-02 8.341485713400623170e-02 -9.040264345084152442e-01 -9.823951889262223514e-01 5.575994438266494713e-02 1.782989662815079035e-01
1.562767741016043987e-02 -7.870709550016564970e-02 -1.041791887920816562e+00 -7.045399281551847359e-01 2.849407196735764258e-01 -6.499479024560285145e-01
5.473017291204020779e-02 8.420874319681503906e-02 -9.838999558379589727e-01 -6.175677107499886187e-01 -7.694784235444925846e-01 1.628283708034345967e-01
3.953646336383034865e-02 4.715610875763073806e-02 -9.302773639215043966e-01 -9.777550797445787589e-01 1.532778635027922942e-01 -1.431813556078160299e-01
1.892803091975008289e-01 2.019128322776684303e-01 -8.393527167935698197e-01 -5.951531879177591744e-01 -1.142030104635011617e-01 7.954560674936119735e-01
-3.062620487902169286e-02 4.862219832558768544e-03 -8.362333591817829870e-01 6.884450883976921398e-01 -3.491017977129334815e-01 -6.357446775983985887e-01
-6.194983528225341332e-03 -4.057703805537869746e-02 -1.050677009764924286e+00 4.964339957232356548e-01 -5.325450688686967915e-01 6.855282908194942904e-01
-5.336240692348688530e-02 -3.746882580029587545e-02 -9.869672670905534906e-01 9.258937624660049659e-01 -1.777226222924745691e-01 -3.333697799021853037e-01
5.156734913703184958e-02 -3.108066371836951114e-02 -1.041875118109022891e+00 -8.276751566041273822e-01 2.085815846738894030e-01 -5.210062933163689403e-01
1.887147755224976783e-02 5.245811368703269528e-02 -1.006641885962269889e+00 7.946231141579173096e-01 4.864500868994115490e-01 3.632360381370885460e-01
1.593031665815647924e-01 1.863122630345469821e-01 -8.101839665591248352e-01 9.092088538751985638e-02 3.246422510134598372e-01 -9.414567443368087041e-01
-5.593304700204072138e-02 -7.781402588341110316e-02 -9.063490256713960802e-01 4.992165799756867473e-01 3.494393721729257551e-01 7.928902392215267936e-01
-2.372474922623785815e-02 4.955988218733476530e-02 -8.979754168495508448e-01 8.524955590993184007e-01 -5.191912531364363259e-01 -6.075989123227378691e-02
6.853890178967322888e-02 1.395640048790603438e-01 -8.782068606621863394e-01 -5.984121669484343542e-01 3.340968684127876842e-01 7.282047520888939030e-01
9.413099739532184915e-03 1.103603870569561246e-01 -8.996988058444472802e-01 5.314884254113548812e-01 -6.738437745186410810e-01 5.132783077397966576e-01
-1.525454310843447729e-02 -1.016571059848419278e-01 -8.872445045679823172e-01 -9.882769889727925916e-01 1.242192601026603088e-01 -8.875904734965733844e-02
-1.681275286963970425e-02 1.247728975614344205e-02 -1.005246136477938146e+00 7.407841277045239536e-01 -4.710633623700000161e-01 4.788926651909771737e-01
-1.471765124560003857e-02 -8.936395838101626743e-02 -9.882345846757876195e-01 -9.721340854254513220e-01 2.132764410395893429e-01 9.730611312506394495e-02
1.615151251133174412e-02 1.574952890505880096e-02 -8.816075986337291726e-01 -8.420658641405753819e-01 -2.700319232807935413e-02 -5.386983460651040279e-01
6.252006216286240536e-02 -1.472435961010841628e-02 -1.064863632933912285e+00 -9.937606258071333132e-01 1.007236958950821631e-01 -4.790152065070554105e-02
-1.053222361915747037e-02 2.834801556441875897e-02 -9.979587003642995668e-01 6.995340813690834603e-01 -5.822798384763174795e-01 4.142490298203561627e-01
1.160257604332357896e-02 -6.253074265409126926e-04 -8.776720650962688275e-01 -9.288207899150996427e-01 3.599783724251584549e-01 -8.779243479722315113e-02
-7.703217816531734985e-02 -1.432838130042096703e-01 -9.942001299103460088e-01 9.915670903370067402e-01 1.268850201931322197e-01 2.636089928645821145e-02
-7.054800945212003072e-02 -9.808029554941241623e-02 -9.310990314859646233e-01 9.547411829507008729e-01 -7.702248673492370461e-03 -2.973381054343153806e-01
-5.050782850223489023e-02 -1.844129619963419675e-01 -9.458973610149615796e-01 6.222952409701064669e-01 7.275113528692709330e-01 -2.889219003680409958e-01
1.735457623639518124e-02 1.301042161494434142e-02 -8.933537137547236107e-01 -7.607965928584246029e-01 6.168395419595873452e-01 2.017362728170103980e-01
-4.978878576602708411e-02 -3.363007113974644108e-02 -8.699810276030138789e-01 8.453679990534312960e-01 -2.539054289163908962e-01 -4.699840203062030097e-01
-5.765089727242420775e-02 -6.984556296773952733e-02 -8.817536158747385500e-01 9.516820638447884839e-01 6.313670170802378190e-02 -3.005245518315531328e-01
-5.470807932656540813e-03 1.319987299040300405e-02 -1.020146166855963044e+00 6.517104842039553869e-01 -4.901136831186214127e-01 5.788454218515904914e-01
-5.090525035982627899e-02 -1.379589875778835240e-01 -1.039264116927033132e+00 9.151955850858362052e-01 3.935432445389290823e-01 8.683752482174225684e-02
-7.055696223776332376e-02 -9.004894169389682235e-02 -9.814161907849942024e-01 9.105227958213062411e-01 2.132399894963600551e-02 4.129086162319062225e-01
5.369794060235385039e-04 -2.075013846139199536e-01 -1.057824858797564271e+00 -9.827656793736972984e-01 -1.461878720229626005e-01 -1.131402913137191379e-01
1.256487072646732608e-02 8.279558586712203183e-02 -9.594696161607523255e-01 6.513114623419696825e-01 -7.143487933463894546e-01 2.559280767452499772e-01
-2.954876002034101390e-02 -1.223682365133316463e-01 -9.561327269791988215e-01 -9.767693278376662347e-01 1.757595090810240845e-01 1.225980226722723776e-01
1.017236639874875663e-02 -2.549621056818968806e-02 -9.455718935379736623e-01 -9.383855444355002628e-01 3.412385877741599960e-01 5.466988392512557582e-02
5.393874777408152327e-02 5.838199234334145310e-02 -9.715895655639944506e-01 -9.107179268503767799e-01 2.056813258109720377e-01 -3.581732121837034599e-01
-1.087050700298301982e-02 3.129472912865655359e-03 -1.021254779984391847e+00 7.114562321613279172e-01 -4.061201128304147145e-01 5.734949726662108560e-01
-9.458091562346946854e-03 -1.264651950742039788e-01 -1.041595938079992845e+00 -7.813883329801654121e-01 1.956111319535871751e-01 -5.925947672215090556e-01
1.318984140003102816e-02 8.878770065586340243e-02 -9.308704487793724169e-01 5.145151557946535670e-01 -8.552105184648254310e-01 6.236283801053216225e-02
-9.375392213741267494e-03 -6.097972718891056521e-02 -9.567533239685599433e-01 -6.986666219656583188e-01 4.600858807049693078e-01 -5.478922647081527764e-01
-1.724091415633571822e-02 -1.073602384675620136e-01 -8.950219103818282118e-01 -9.230198141935604950e-01 1.455689841827016995e-01 3.561517842859999172e-01
-5.454716488771752664e-02 -1.152108357475775842e-02 -9.265614893454425793e-01 9.425806970009394936e-01 -3.335432544735087435e-01 1.704485366447998362e-02
-3.753874394901612205e-02 1.981678427675162709e-04 -8.876077002453549580e-01 4.585785917334026518e-01 -6.664448334772770099e-01 -5.878409301292772948e-01
-7.712934696455343853e-02 -1.269473818417340971e-01 -9.837651298794081178e-01 9.766000095593516672e-01 5.910075458760666485e-03 -2.149825396090246088e-01
4.378967438650487737e-02 -4.004201096632113016e-02 -1.040925316960899627e+00 -3.601225351875206315e-01 6.718762427476172583e-01 -6.472202670509152878e-01
-1.302309675881164683e-02 -6.994423290795252768e-02 -9.605961963009731486e-01 -6.912491223067158685e-01 5.253688018590400022e-01 -4.961474306528166900e-01
-3.675629563597587052e-02 2.279062646091333313e-02 -8.721292243629478191e-01 9.084947995534619070e-01 -4.040776755098164919e-01 -1.065759416514751867e-01
-1.328791033510444246e-02 6.270895254334193925e-02 -9.346420074744563600e-01 5.535651348243418868e-01 -6.911799906688514961e-01 4.645813836196137636e-01
-5.942178914908021609e-02 -6.222717057889408376e-02 -8.866405161555935832e-01 9.583529507649013457e-01 3.873353526727166263e-02 -2.829475834954338631e-01
-3.966452097682617722e-02 -1.996100588661048614e-01 -9.667866392372522766e-01 1.358859951711948073e-02 8.814052649255523786e-01 -4.721653406643485096e-01
1.809638682857529490e-01 1.872832309121462424e-01 -8.080927062783174186e-01 1.770566600500587257e-02 3.698703171620336128e-01 -9.289146666264753716e-01
-3.044284760200173523e-02 4.779477257371445714e-02 -9.135710085558587101e-01 8.960396364366901567e-01 -1.537553282757107564e-01 -4.165000227625837437e-01
1.107833633793626760e-01 1.701458767184696463e-01 -8.603433529781921996e-01 -4.724935295888147979e-01 2.220289065627715774e-01 8.529085702156145032e-01
-5.180846335182717061e-02 -6.821015865467464079e-02 -8.664957213604279618e-01 9.087886798539268618e-01 6.809550230824235051e-02 -4.116626506433939126e-01
-2.877339173865556612e-02 -1.532159780040067421e-01 -9.466065867331967532e-01 -9.975056221010564217e-01 -6.824440922760734163e-02 1.803425867507632910e-02
5.269776808970318832e-02 5.613666222161426203e-03 -1.025967679681340172e+00 -7.739832955090517608e-01 4.226333329539035399e-01 -4.715198024995584380e-01
-4.231425659405583378e-02 -1.582690128263075369e-01 -9.017872479021201704e-01 5.181876382548220583e-01 5.338378048718612767e-01 -6.682056342545178440e-01
1.412163318390554645e-01 1.891415583759316066e-01 -8.121454401554669689e-01 1.618985744127217075e-01 1.086702509840663244e-01 -9.808056016123625209e-01
2.580055341639815938e-02 8.929809458106904851e-02 -8.673097210908712329e-01 -9.930858182262092271e-02 3.669818520927691230e-01 -9.249119557076448395e-01
-1.959308545329281614e-02 4.716223605348308923e-02 -8.616679165645823035e-01 7.295570724393971584e-01 -5.939210897662910993e-01 -3.391227169985482348e-01
1.659006199326855391e-02 -1.545352472045354204e-02 -1.058396064741865539e+00 5.302781972365899765e-01 -3.436212016232931266e-01 7.750674185711048381e-01
-1.679502579440531398e-03 -6.459646297581067564e-02 -1.007598198356716601e+00 -8.187532783807328629e-01 4.079281411542396429e-01 -4.040268565271979972e-01
7.125209661046637104e-03 -4.067335355615137038e-02 -9.971009762810790766e-01 -7.773566560834713757e-01 5.225822455714005388e-01 -3.501777061097350319e-01
1.239882422358304674e-03 -2.306908690781208915e-01 -1.056552462232228207e+00 -9.115268531004294683e-01 1.055234708141046251e-01 -3.974714998388852449e-01
-1.902040408537868793e-02 -6.931954399424000712e-02 -9.450285320526171651e-01 -9.063596378361011840e-01 3.713080362942754453e-01 -2.015999729288191211e-01
3.051691561892395498e-03 -7.196117035727146727e-02 -1.023122874398355808e+00 -8.142059172684302792e-01 3.482670502400641022e-01 -4.645199522110529111e-01
-7.276186723410053847e-02 -6.669369268522686023e-02 -9.709016982454312661e-01 9.602679866986904011e-01 -2.597439781742253428e-01 1.020708554087387809e-01
-6.655941912232148094e-02 -1.699291628318658487e-01 -9.685979029290724407e-01 8.726650906468251812e-01 2.843307079332699772e-01 -3.970033854925346106e-01
-2.023340468940855799e-02 -7.902686101913478089e-02 -1.063772744936918313e+00 5.735139508606089676e-01 -2.977091140910083089e-01 7.631847951547527931e-01
2.339541151509630032e-02 -2.115620705170010579e-02 -1.064972067012946333e+00 4.653201988020759239e-01 -3.645336108355331506e-01 8.065930567256356376e-01
9.194815054825926370e-02 1.826605087742142475e-01 -8.295425839862561324e-01 5.164592276929900194e-01 -5.481555814566625440e-01 -6.578718147547197859e-01
-2.606891040207328855e-03 -1.927595631091106043e-01 -1.051886610969253066e+00 -9.751036778784192283e-01 -1.823895784817111954e-01 -1.261223970960116125e-01
2.856543830788196500e-02 1.387316142102509031e-01 -8.820113949391183983e-01 6.448941639300265205e-01 -7.043969316094730315e-01 2.965408573336082987e-01
-3.287442105490197535e-03 -4.100539798749903986e-02 -9.410276528007071040e-01 -6.975511143665256153e-01 6.665279236694903187e-01 -2.629885355198141039e-01
-4.172758209081034453e-02 -2.194156169096526943e-01 -1.018984332015648864e+00 4.694739064499712233e-01 8.581707247203000932e-01 -2.076951092241672014e-01
-1.659255091154984360e-02 -1.791029247072881136e-01 -1.022297203475461380e+00 -7.505283280759798004e-01 1.022993363404198358e-01 -6.528721732006843581e-01
-8.631669570128484804e-04 6.579525491984715424e-02 -9.625512978599555236e-01 8.072623742674276404e-01 -5.031491894919790653e-01 3.084936826025452272e-01
-2.102798033297010455e-02 4.729712786768063004e-02 -9.423037796982839387e-01 4.547818545095684839e-01 -4.978814595782987684e-01 7.384358584311979667e-01
4.817594991646202696e-02 5.859241588714130672e-02 -9.563344196193218627e-01 -9.182779883385138175e-01 2.040774332522451162e-01 -3.392903437620172213e-01
1.216932760662191720e-01 1.701359164342931829e-01 -8.529350620761856350e-01 -4.958847321221918625e-01 5.502719392960885303e-01 6.717880061979550899e-01
-3.130186527450877759e-03 9.473846950623746044e-02 -9.082183416802569464e-01 5.183577098547764717e-01 -6.876707112778699393e-01 5.083446443946267879e-01
4.095943600879946300e-02 1.114565742013207822e-01 -8.974734012166203367e-01 -5.686558275692494835e-01 -2.245502256031630395e-01 7.913328919949560447e-01
1.805911664567850239e-01 2.117950491329062268e-01 -8.225399468521098489e-01 -3.062342043224762778e-01 -8.680110190560957895e-01 -3.908676027764108607e-01
-7.172149010971734517e-02 -1.306724239392487719e-01 -9.430726194934934137e-01 9.525565567270730671e-01 1.507000914085147580e-01 -2.644342804662965229e-01
-2.096869338854700018e-02 -1.203665260270590509e-01 -8.975244977691773096e-01 -9.039362679246699672e-01 1.156441542148397561e-01 4.117349306609215387e-01
-2.394786774490022946e-02 4.494963837137538366e-03 -1.000821971872566163e+00 8.183734974075310697e-01 -3.102645150520140227e-01 4.837362395360761402e-01
2.529993186996527116e-02 1.380306059540418323e-02 -9.217027262264050336e-01 -7.973798942120018385e-01 5.692028935362507536e-01 -2.004828428978815968e-01
-2.944107411791259399e-02 -1.171528804434649046e-01 -9.795605667350867352e-01 -9.278655298059397261e-01 3.259480380457090432e-01 -1.811723905348046337e-01
-6.468499957656800858e-02 -9.943384606024199823e-02 -1.005655203648957885e+00 9.513415839321867074e-01 -2.319386826700119419e-01 2.028635949664159555e-01
-3.090889974949181593e-02 -1.710805142919862298e-01 -9.252294598417817317e-01 -9.578472369824536647e-01 2.389666077482485440e-01 -1.594478942676055555e-01
-2.448534142172798661e-02 -2.196854336485453973e-01 -1.065149375725477521e+00 9.484753983243330300e-01 3.131030124460588704e-01 4.858932362876764582e-02
-1.312909454212132614e-02 -7.746882100136029403e-02 -1.068314296778260841e+00 5.446945248950950669e-01 -3.098774251017379910e-01 7.792841946052949664e-01
-1.592143145517872782e-02 -9.554801561327298798e-02 -8.967516037662910389e-01 -9.342295699606911752e-01 1.516352793493448425e-01 3.228340946487969210e-01
-4.814166250409915998e-02 -1.874020226848591153e-01 -9.569806646271785677e-01 7.063061146480292818e-01 5.249621751871259567e-01 -4.749172422997569032e-01
-4.646112649433825625e-02 8.049708547417905313e-03 -9.226956329137081525e-01 8.684361093728242276e-01 -4.874031614858720385e-01 9.086738749941694615e-02
2.584787343267446608e-02 1.318731774268835921e-01 -8.623256787099010667e-01 7.497129869500458454e-01 -4.107370277679247006e-01 -5.188694741636008523e-01
1.616947635580304882e-02 6.556990593083114605e-02 -9.969559131459067025e-01 6.530642478138828366e-01 -5.968954387405261963e-01 4.660718007325072576e-01
5.956209038555447532e-02 1.189693440317719647e-01 -8.617608472700040156e-01 -6.152728278876464785e-01 7.474853452527064901e-01 -2.504096761221119571e-01
-2.678340047670239171e-02 -1.108139441558685101e-01 -9.588083057917573537e-01 -9.551199616496041100e-01 1.962786884933113152e-01 -2.218570154441922015e-01
4.161582751093605842e-02 6.032287121505274657e-02 -9.308385750122374347e-01 -9.775723855820737107e-01 1.153341768793485350e-01 -1.762108356229445394e-01
-7.692980770703637672e-02 -8.453499915682520516e-02 -9.750583881327415936e-01 9.741706232071494220e-01 -2.010261133574162695e-01 1.028596063992333609e-01
5.324670538587859131e-02 6.352704064217734592e-02 -9.668753778271491628e-01 -9.107179268503767799e-01 2.056813258109720377e-01 -3.581732121837034599e-01
-6.378591977731336293e-02 -9.233877293056376445e-02 -9.180441868950424134e-01 7.785910703153344770e-01 -1.296483662728872555e-01 -6.139928715775069268e-01
-5.307256344646260615e-02 -6.067137472643948509e-02 -1.016602261495681336e+00 7.909152998620954111e-01 -3.837677607911260669e-01 4.766290950219225775e-01
-1.693551202608966494e-02 -2.104526073736553426e-01 -1.079561562683389653e+00 1.801083596299843104e-01 2.323426927261209862e-01 9.558126657081772448e-01
-7.197435357946176115e-02 -1.071186999028918979e-01 -9.775127382127514197e-01 9.401112620268052833e-01 -1.270351016808693723e-01 -3.163113939637621219e-01
3.681064592757355737e-03 7.475783155323796614e-02 -9.561463501482865279e-01 7.532849785411731558e-01 -6.098814900477952383e-01 2.461834868574768742e-01
-6.831963371121431428e-02 -1.715591978916271854e-01 -9.784325429260557483e-01 9.295575313070479906e-01 3.355293007665156035e-01 -1.527837829008026893e-01
-4.024377619197042066e-02 -1.623317111695052606e-01 -9.041746003616961680e-01 3.144965747461933026e-01 7.093996648069350597e-01 -6.307487772835710382e-01
1.764860006397496808e-02 1.245302431771777019e-01 -8.698674556134770031e-01 8.081987910063958003e-01 -4.847729378431984704e-01 -3.343798931614677117e-01
6.683078993048081895e-02 1.684450139056645757e-01 -8.413427857553691380e-01 6.526159030548347451e-01 -5.098893712231735709e-01 -5.604509900014090773e-01
1.602233063220518117e-01 2.139392222225142415e-01 -8.435916372738968549e-01 2.209304951411146523e-02 -7.252044106440653781e-01 6.881790900234915354e-01
1.578808164045989448e-01 1.965722887693824028e-01 -8.501651131802420158e-01 -1.824022790056573085e-01 -1.084122041138409903e-02 9.831642164732878886e-01
-4.875941663485997002e-02 -1.853401864713988823e-01 -9.532805878793071397e-01 7.167722659094255544e-01 6.965174991273982430e-01 -3.317969608635498030e-02
-3.348434168861079419e-02 -6.063184161533357458e-02 -8.331306968867813190e-01 6.234398002172147901e-01 2.272100886722642488e-01 -7.481299292974858961e-01
4.027500094221157789e-02 8.162674392756019692e-02 -9.181099303458507555e-01 -9.941722712557121699e-01 -5.074799378074910938e-02 -9.511117806802657504e-02
-4.574580954098079154e-03 -1.305098974817746893e-01 -1.086950746659430145e+00 2.193610017442169935e-01 -1.252172437835950003e-01 9.675750062775563265e-01
3.919844175203841818e-02 8.380423022202272698e-02 -9.909928889581487432e-01 1.883171600835634729e-01 -8.847835040750797742e-01 4.262567279641281126e-01
5.864533192073521223e-02 -1.716167888507985932e-03 -1.043180651161978556e+00 -8.958399077860018656e-01 2.604507157281199525e-01 -3.600503913269333944e-01
-7.104135792234450575e-02 -1.600463360540299307e-01 -9.739634458935305661e-01 9.367576731647242472e-01 2.278910992335293761e-01 -2.656138337081587197e-01
-9.540218095403476400e-03 -7.979315754004256966e-02 -9.940356718260601188e-01 -9.485075935346255482e-01 2.209477289116302742e-02 -3.159828571584886725e-01
-7.726362158092399401e-02 -1.176899852341201369e-01 -9.949749327635188934e-01 9.850994494074127861e-01 -1.145558194559372911e-01 1.282810937199673207e-01
-2.488289717070399018e-03 7.445888436894962381e-02 -8.811909756863731680e-01 7.299627739061101961e-01 -5.347971403617594044e-01 -4.256129313968049499e-01
3.828514525310729687e-03 -1.025246718657010503e-01 -1.039940233462030683e+00 -5.280545620626900805e-01 5.645861907216952469e-01 -6.343507016872811377e-01
1.582513201962137961e-01 1.809102123106323401e-01 -8.128124202123261366e-01 5.053911225097421772e-02 5.238312286376962668e-01 -8.503214933404922293e-01
4.594593837803179204e-02 -1.383449047058825550e-02 -1.027158950414706284e+00 -7.869290174338338106e-01 2.639907767482616574e-01 -5.577199936459784624e-01
-7.501667414627886943e-02 -1.536637981218638704e-01 -1.001601865500724386e+00 9.759194900587414567e-01 2.166052518074812194e-01 2.575487939990241462e-02
-7.531709676247580476e-02 -1.104858477155547802e-01 -9.497832218278592364e-01 9.731410905860817806e-01 3.518972891221681248e-02 -2.275040676383962013e-01
-3.487702208115704000e-02 -1.968672441860909172e-01 -1.053285104878187051e+00 7.588910893195274232e-01 2.208893612704938281e-01 6.126109733174344152e-01
-2.025864342513005942e-02 -1.060608709882951833e-01 -9.002842369077617146e-01 -8.104901770984624942e-01 1.578388809911411839e-01 5.640855967620226341e-01
1.582980892387267705e-03 7.535983665137754861e-02 -9.471211583949685764e-01 7.313469499853547662e-01 -6.545925957043461363e-01 1.914162281421440404e-01
4.103338456044752780e-02 9.272213038704787968e-02 -9.534577622170716804e-01 -3.033382911639586066e-01 -9.519373216555079287e-01 -4.244074402113490185e-02
-6.285700678106817541e-02 -1.712686112663237559e-01 -1.029063850103906219e+00 9.837040757410933089e-01 7.402129668467612167e-02 1.638509658423800974e-01
1.986319595828122189e-02 -5.834517953925395101e-02 -1.033771258627153689e+00 -6.356579666665890249e-01 4.444456891358581352e-01 -6.311948818089779811e-01
3.821911376493754287e-02 5.393792399871422116e-02 -1.030698534801524957e+00 3.786330464357752779e-01 -5.850034010778707438e-01 7.172224458799988378e-01
1.109550126943487439e-02 1.221278216653227770e-02 -8.713115566448410565e-01 -9.242616011697201150e-01 1.186703719738158302e-01 -3.628468484344070100e-01
4.306480520275904507e-03 -1.090961940731598884e-01 -1.082059327678641214e+00 5.837130854469909647e-01 1.191234325782402348e-01 8.031741042194593394e-01
4.467663434382213722e-02 6.223305835676361253e-02 -9.431430047928940352e-01 -9.537545022414846141e-01 1.868424756103326256e-01 -2.354617564741677826e-01
-2.135237074904489454e-02 -9.305773619409167530e-02 -9.662402926778335122e-01 -8.995024356581114988e-01 2.601964892354722281e-01 -3.509888249427032259e-01
-5.252037200287684032e-02 -1.629433853010168187e-01 -9.175602708243694172e-01 7.531320409208017708e-01 4.714198675411053752e-01 -4.588632012114225445e-01
-3.475118844647120953e-02 3.689424138456034313e-02 -9.192620760263430224e-01 8.970484253037490641e-01 -1.242983923421544928e-01 -4.240920092635794281e-01
-3.406442527013484739e-02 -1.948036081987222778e-01 -9.761487645417972203e-01 -9.726787031600361288e-01 -9.676596044233362615e-02 -2.110272241171343433e-01
3.651900476602690498e-03 -3.493524287484819218e-02 -1.051805608430829597e+00 3.613399420959944597e-01 -6.648700277992809493e-01 6.537440572427763996e-01
-4.543745286499150521e-02 -2.176547134255532867e-01 -1.022937606577955405e+00 6.034991794667906584e-01 7.930638729944098353e-01 -8.269482289730691049e-02
2.809620861289767110e-02 2.028415056053812018e-02 -9.234772458310990251e-01 -8.916132885787489970e-01 3.919060827738249930e-01 2.267936637445242543e-01
-6.506833014733677534e-02 -1.240564404859183650e-01 -9.199765490186285755e-01 9.377186478089358790e-01 1.191339860175290727e-01 -3.263293289408050746e-01
1.856582496775958935e-01 1.805805385904064309e-01 -8.133188832535106494e-01 -2.313584587153030558e-01 7.872812509115877377e-01 -5.715430828414992392e-01
-5.478154574950064998e-02 -7.702605710340935941e-02 -9.088628731869030641e-01 9.455134113465444301e-01 1.561208035144177053e-01 2.857108392655638984e-01
-3.345516348052094552e-02 -9.870275281617148233e-02 -1.057273894484299426e+00 3.607152958976677648e-01 -7.042952667021173951e-01 6.114349128128446775e-01
4.927191893048565863e-02 8.867526078892365438e-02 -9.756428069052776042e-01 -4.114558010374235186e-01 -8.968292819557818207e-01 1.624849618251766326e-01
4.514814871784857825e-02 1.034593255592595740e-01 -8.934146696504179364e-01 -9.128594029291973166e-01 4.474510812299231644e-02 4.058147185389054390e-01
4.559847984714891084e-02 -6.347097087152255013e-02 -1.065529038582823995e+00 -6.682921978625464554e-01 5.426268880616887946e-01 -5.088630450607847244e-01
1.935410190229714111e-01 2.024369436711868087e-01 -8.339470628461443935e-01 -8.196164734565294374e-01 -3.722692599600385122e-01 4.354818417884809278e-01
-3.114907105499046050e-02 -1.437124361085883872e-01 -9.557967880910004377e-01 -9.192346642091038245e-01 4.961131859310437958e-02 3.905718233357722835e-01
7.250747499133711194e-02 1.685441767560466597e-01 -8.356822617196970615e-01 5.934279214148628911e-01 -4.484468558976243413e-01 -6.683851580643984658e-01
1.349534820080291846e-02 8.649034916278318386e-02 -9.477901769181307223e-01 5.844384103502405781e-01 -7.958339362080767421e-01 1.583669488461621200e-01
-4.697572072074233246e-02 1.664261867625747848e-02 -9.490122287433317982e-01 7.570054628771882843e-01 -5.324904308175717471e-01 3.786775280655172438e-01
1.779840287344548466e-01 2.014622164598867671e-01 -8.453901473630971442e-01 -3.207709651354658242e-01 -5.288339471565663835e-02 9.456792979067533134e-01
2.633534680245519510e-02 9.323666591079039778e-02 -9.466363632476378909e-01 3.121861635416725012e-01 -9.436077328571086387e-01 1.102009336866049821e-01
-5.540077913701397377e-02 -2.448792842356379423e-02 -9.583974954753811115e-01 8.700886204834309412e-01 1.121023346087036687e-01 -4.799779777036841111e-01
-7.528889104689139022e-02 -1.026115765235284250e-01 -9.916997496874826457e-01 9.807637877805188698e-01 -1.777776383029947005e-01 8.060709582796732331e-02
8.934575978066205959e-02 1.846974979278888096e-01 -8.341013422206704497e-01 5.483222422516876859e-01 -6.693914671637192226e-01 -5.012562042912637184e-01
1.328269170775205413e-02 -6.319934505722897729e-03 -9.268242913433437646e-01 -8.226363459254365518e-01 4.727438446096416946e-01 -3.158839972935321705e-01
-7.656976020343946032e-02 -1.368124795603253840e-01 -1.006709660229354375e+00 9.926468641348078492e-01 2.499241951101606116e-02 1.184380939154210666e-01
-2.306248450252623705e-03 -3.050157968313758905e-02 -9.011590680723947644e-01 -9.638523911657771448e-01 2.663832595546130610e-01 -5.341074149756682224e-03
-6.884085870000104801e-02 -1.709436153666676061e-01 -1.009341039897794667e+00 6.835396527065883410e-01 3.928548780512421956e-01 6.151736242469277860e-01
1.727373152743806872e-01 2.122952755143632519e-01 -8.432389182847289666e-01 -2.343495043442621051e-01 -6.752526788744471764e-01 6.993669490950236156e-01
-2.242325347261387575e-02 -9.079610090524285748e-02 -8.485255758399726789e-01 -7.590163305753648837e-01 4.905394736878379569e-01 -4.280948898012766901e-01
-7.519521348880320311e-02 -1.158825692791714962e-01 -9.797439776915328746e-01 8.229935576877586145e-01 -1.436645701427391175e-01 -5.495835653384734121e-01
-2.954630004373222374e-02 -1.745517513955135713e-01 -9.516282004269533967e-01 -9.289075685715711961e-01 2.694656025338820066e-02 3.693299499647473838e-01
-5.601071571907870195e-02 -1.372027756732521198e-01 -9.068182819747355738e-01 7.981635021566629851e-01 1.680164401952693176e-01 -5.785373796472621510e-01
-1.025232554859220775e-02 -8.462172962891745254e-02 -9.953272403032427107e-01 -8.029591861540091857e-01 4.930906294091410569e-01 -3.348405240704722674e-01
-5.886586374742668049e-02 -1.973918770618660334e-01 -1.025310337111579484e+00 9.686166721765260279e-01 2.484934375616161539e-01 5.723099726840016714e-03
-5.786681067940390583e-02 -2.355098932600174430e-02 -9.160624506068925088e-01 9.611179605545377980e-01 -2.694375528486648852e-01 -6.046214530108255658e-02
1.906863957007005062e-01 1.897335861094853193e-01 -8.087710843924664772e-01 -4.064160606830645173e-01 1.246173545431933372e-01 -9.051499878835085333e-01
-6.040400642870491499e-02 -1.459688197193863002e-01 -9.199447454156942650e-01 8.907512691464988253e-01 2.586081550280433516e-01 -3.737432255799338909e-01
1.816175858849668201e-02 3.540958235233668781e-03 -9.385740669517883550e-01 -9.260627923805940798e-01 3.521237476953489320e-01 1.357076669803097546e-01
-3.333336279595090074e-02 4.792404075135701241e-02 -9.233229843297778849e-01 9.265079139329500668e-01 -3.686545485325823379e-01 -7.534526704346521109e-02
3.555211964209174791e-02 -9.537712635153376348e-03 -1.066594995478260310e+00 4.471568443607925047e-01 -3.632083245272468286e-01 8.173924819420643750e-01
1.407268214407643263e-02 -3.150315870859935613e-02 -1.053061190342782005e+00 5.790377141093047131e-01 -4.262314773708006932e-01 6.950122684797552797e-01
5.733590546499184315e-02 1.507594083809083163e-01 -8.409784872650536425e-01 5.226243423949447076e-01 -1.019922293232682631e-01 -8.464404183957199290e-01
2.846014606466479649e-02 7.089367424345299762e-02 -8.765057635642823364e-01 -6.193442440974639140e-01 3.467162972187609604e-01 -7.044150172634402463e-01
2.051326053213834572e-02 9.615241517865526222e-02 -9.110276954087502821e-01 7.968942146308415075e-02 -7.790597756692503317e-01 6.218645045675594840e-01
-3.217074801782374149e-02 -8.121165764177776247e-02 -1.047747457869610654e+00 7.300731340059479768e-01 6.524283723094251863e-01 2.032988883599894381e-01
1.708997436675369769e-02 8.854869480095668710e-02 -9.499034890990636359e-01 5.395547915410942030e-01 -8.312326381941245179e-01 1.339138832454734029e-01
1.792407679503463247e-02 1.106623101671144610e-01 -8.637527188181352011e-01 6.004931773636826842e-01 3.078696939848533584e-02 -7.990369869129496649e-01
-5.715950283885264105e-02 -1.750066410082385393e-01 -9.614177214891407308e-01 7.195347879648436029e-01 2.269982600436028786e-01 -6.563089812318313454e-01
-5.100523717691186204e-02 -1.064361294686138638e-02 -8.984133088076380336e-01 9.149783618329317969e-01 -3.527459332551479143e-01 -1.959206572811546809e-01
5.502148429536418001e-02 -4.924868106225219200e-02 -1.061288083662424331e+00 -7.715278273954445654e-01 4.674392209288348865e-01 -4.315615672090243327e-01
6.711259229026149409e-02 1.256279984415304973e-01 -8.594136980740413323e-01 -6.661159504537362830e-01 7.447073822954934919e-01 -4.123657727927360073e-02
-2.126712264180595849e-02 -9.568502118067792606e-02 -9.700848478758854476e-01 -9.197635818948458608e-01 3.791660853034686807e-01 -1.013313040259823106e-01
-4.295580772781166373e-02 -1.902692932111055002e-01 -9.529749632026117689e-01 5.304337671488906780e-01 8.277569715642880688e-01 -1.829164145038784939e-01
1.612227274490724283e-01 1.984439684111657942e-01 -8.495170263843637715e-01 -1.808980030522811255e-01 -1.917953396599246171e-02 9.833148315613590151e-01
1.172947930122266932e-02 2.656141146316817053e-02 -1.026466652720496420e+00 5.752343354150185606e-01 -5.436564635891538710e-01 6.111817315311193211e-01
-1.580927494556872911e-02 -9.740769936411861063e-02 -8.955720285711680217e-01 -9.297367132037017701e-01 1.521563829310814131e-01 3.353178779225883255e-01
1.017696033474861927e-01 1.581354752383329898e-01 -8.596163554348312807e-01 -5.855918117911889098e-01 5.897701252911010661e-01 5.561055918413625454e-01
6.399974012278909774e-02 5.107245234418594793e-02 -1.034576393410800987e+00 -4.549811949969797542e-01 -6.573460863346914929e-01 6.007397398038394343e-01
-3.672918301877518832e-02 -3.393121561451610535e-02 -8.316846463021460023e-01 6.650718058678373179e-01 -1.945028456287066151e-02 -7.465260742064654398e-01
-7.304702002850872733e-02 -1.611506754362465876e-01 -9.911903480894898033e-01 9.610178723298513637e-01 2.686688053401646847e-01 -6.528186654572706860e-02
-3.486739735032379911e-02 -1.689283705077375963e-01 -9.682210030972246972e-01 -9.838936114938308108e-01 -5.335504189168140815e-02 1.706065671841610898e-01
3.757123479491061846e-02 -3.326153646625861632e-02 -1.030022803778312790e+00 -3.924765723734112699e-01 6.806219448814767592e-01 -6.186403707193496304e-01
-5.455204599449405868e-03 -2.211323330480751137e-01 -1.043658045822195346e+00 -7.526029098964248654e-01 1.553616079456828780e-01 -6.398840760575040809e-01
-3.972875638260203041e-02 2.805724488675624684e-02 -9.458779780003681026e-01 5.918908177702010276e-01 -5.855916056823332605e-01 5.538481120250472456e-01
6.064561112427171302e-02 6.713335447599744210e-02 -1.016344260588475601e+00 -3.767518338030623193e-01 -7.892202980852043304e-01 4.849632736778434206e-01
-1.579645702993756964e-02 -8.984217372889949371e-02 -8.694880963065627633e-01 -9.416366349090045107e-01 2.368117250942508578e-01 -2.392501925916281358e-01
-4.491928465388618508e-02 -1.236959675138045028e-01 -1.060180147901481629e+00 6.382820479874768971e-01 -2.461688388536547034e-01 7.293811966279057923e-01
-5.650478753736086143e-03 6.483077724819992504e-02 -9.504113481873961433e-01 8.037235951217029939e-01 -5.453353941562414375e-01 2.379867444314950897e-01
2.826415673713150029e-02 3.545956567002007953e-02 -8.946016611225695581e-01 -7.573229997453272411e-01 3.670285286708072636e-01 -5.401406605676725148e-01
-2.381561406591233693e-02 -9.854644625912305222e-02 -8.542727320810133973e-01 -7.699216703522585581e-01 4.005790670972311784e-01 -4.967464469178416997e-01
2.136449674732410556e-02 3.002969805501187056e-02 -8.867783367471847589e-01 -8.492940876544892159e-01 2.624090695109401183e-01 -4.580840893477213238e-01
-3.487105838910276208e-03 -3.821583057825840568e-02 -8.792471554622692809e-01 -9.634358708539687566e-01 2.547352584638275519e-01 8.307388787833390464e-02
-5.898141365411719433e-02 -3.012880031159188843e-02 -9.084274787956230224e-01 9.628054707420510283e-01 -2.324442499441952137e-01 -1.377508481899759329e-01
3.150881403186982926e-02 8.463251953660172466e-02 -9.843778505391246325e-01 3.321693520436965752e-01 -8.566317071951529138e-01 3.947728964744010027e-01
-6.824544108522839769e-02 -8.697502698538638055e-02 -9.875242224582746475e-01 7.887472249935768565e-01 -5.966058987479188058e-01 1.481189273662217587e-01
4.343217840631655169e-02 3.291414828993768915e-02 -9.714901104229918261e-01 -6.411388085227917033e-01 7.118159513361159707e-01 -2.868084371657072529e-01
1.140682773080937545e-01 1.576417038188778486e-01 -8.419967571048613264e-01 -4.858860393559482627e-01 8.616357750767389412e-01 1.466238311697572738e-01
1.375058084854407711e-02 4.797521364947114180e-05 -9.185819993798564065e-01 -7.630329601774534787e-01 5.459298410430081239e-01 -3.460365737051339097e-01
-1.507800504430936370e-02 -1.005753433724883433e-01 -8.895588602685868818e-01 -9.942379682454356438e-01 1.066773443291259005e-01 -1.052647643199927999e-02
-2.890021495583310063e-02 -1.347591270195535318e-01 -9.961337263890753801e-01 -6.684188471523487829e-01 3.475651911778709358e-01 -6.575824531212911550e-01
