-2.611592716906187620e-02 -5.562295015269787951e-02 -8.938407116405824304e-01 3.845398290844649902e-01 -3.785131833872260598e-01 -8.419363929951945158e-01
-3.546119960570804502e-02 1.612118228974941322e-02 -1.050664143357702418e+00 8.399505795809478759e-01 -2.769553398627109253e-01 4.666677228855231063e-01
-1.592256506049788412e-02 7.674186664333580710e-02 -9.009593288726204241e-01 7.935182316350772869e-01 -4.675953425945174047e-01 3.894655461612176461e-01
4.613369562330774803e-02 -3.747929536071519657e-02 -8.766427890971942860e-01 -7.583629837109227001e-01 -1.254631289517872846e-02 6.517117268929590868e-01
4.779584862075106355e-02 -3.847952849190446056e-02 -8.210273992731533799e-01 4.425104683884979739e-02 1.825769040969492663e-01 -9.821952549997577941e-01
-1.199695341483650486e-02 -3.518727539322981379e-02 -9.761262506432641928e-01 -9.243566309488845389e-01 2.876809360998646703e-01 2.506082557010700373e-01
-2.200908050948035839e-03 3.001196966601529792e-02 -9.976716855223596303e-01 -9.329393835172954397e-01 3.369161114505707100e-01 1.269316372201788334e-01
-1.157237068693859477e-02 -1.322707383050168994e-01 -9.725300856343184197e-01 -9.550402894717459068e-01 1.652864119273813603e-01 -2.461268931220142175e-01
1.706317444136349823e-02 -1.602441731921024348e-01 -8.860083626671019230e-01 2.809289324500819363e-01 5.166868109562094968e-01 -8.087729435981148018e-01
-1.026885596347328934e-02 -3.229557292380001027e-02 -1.045608217584857114e+00 -9.950373810906367744e-01 9.079492424380346260e-02 4.070493783128277532e-02
-4.261990163307937708e-03 9.227336072138889178e-02 -9.831732788701726955e-01 -1.653185931550688048e-01 -9.208330828818218627e-01 3.531801186754269239e-01
-5.749228533983623268e-02 -1.427321331404672045e-01 -9.381480825448317296e-01 8.549779286164569392e-01 2.090607290747903413e-01 -4.746644637398395594e-01
9.320989631770528264e-03 -9.361135343493721950e-02 -9.127073966746476197e-01 -8.246057330931033658e-01 -1.868542202084486764e-02 5.653991863753329294e-01
-1.034096080477051906e-02 -1.777147040672170941e-02 -1.013229751762643183e+00 -9.949244385841744531e-01 -7.786596683636062832e-02 6.373580403983096498e-02
-3.631907345572971124e-02 -1.867245458597859009e-01 -1.054015301958256323e+00 3.374393683487309503e-01 5.403533522905598629e-02 9.397951134343556223e-01
6.517749707829133266e-02 -1.799978975898196623e-02 -8.306931778832856716e-01 -9.782864876218594352e-01 -1.625174035440594689e-01 -1.286220886231549398e-01
-1.719465080507082827e-02 6.119102595489710888e-02 -1.031750254849532755e+00 5.076719551986605405e-02 -7.201837731141337295e-01 6.919234240883433973e-01
-4.571512476578808160e-02 2.825708793764786231e-02 -9.746391203079477483e-01 8.817610355409334355e-01 -4.684974571636572049e-01 -5.484167058877622430e-02
-2.257905858036842947e-02 7.942785999787896345e-02 -9.354789944848374006e-01 8.290965912451305764e-01 -4.744161200643886578e-01 -2.958516307353336594e-01
-3.617299050951419681e-02 -7.536694968509993764e-02 -8.927549945540547149e-01 6.920235213442127442e-01 -4.419731612249497288e-02 -7.205206750357160406e-01
4.402550583810443952e-02 -2.288614054994780531e-02 -8.197272162441163745e-01 8.027803410633359282e-02 1.700790011798261961e-02 -9.966273970615090461e-01
6.412908158578094209e-02 -2.894567019207303776e-02 -8.576043565933476609e-01 -8.860333350791809170e-01 -6.323272528449133678e-02 4.592891807799959203e-01
1.306901207769874617e-04 -8.550263480370420529e-04 -8.651708072019553830e-01 3.490026127905747622e-01 -4.974595737408120111e-01 -7.941858401904188236e-01
-2.468100722802733446e-03 -2.268901940005039197e-01 -9.897881586704667667e-01 -8.552636947665364087e-01 5.124986180453467988e-01 -7.661056660736924318e-02
-1.325153027806236401e-02 -4.221381367657514594e-02 -1.060797704460003654e+00 -9.714448242484796658e-01 4.704110746216538796e-02 2.325555581996983645e-01
-2.367582963633303728e-02 7.308174872786164789e-02 -1.012354273365734691e+00 5.054608712749605326e-01 -7.475304420569648389e-01 4.309379837146831149e-01
-1.845903050935026463e-03 -8.603058961529864990e-02 -8.775960031777872983e-01 7.250441357804061626e-01 2.901291694003514388e-01 -6.246087305133559697e-01
3.829823645506362506e-02 -1.137880502345699207e-02 -8.861355547750865425e-01 -7.709792204468218779e-01 9.207158419672420435e-02 6.301697112863454686e-01
-5.606882093827806474e-02 -4.460008860548755200e-02 -1.002806366773341562e+00 8.986646803545900175e-01 -4.015350379375658973e-01 1.765542567928045092e-01
-1.422588840150456821e-02 -7.455127056809687791e-02 -8.837076148938537434e-01 2.239653015458673013e-01 -1.586683367515406562e-01 -9.615944584989912780e-01
-5.491163406710689726e-02 -1.033774901540544799e-01 -1.046389246314951338e+00 8.917780098469293426e-01 1.836136442307889291e-02 4.521004771618503115e-01
1.967468315270549592e-02 -5.666229290584277878e-02 -9.079492556729408248e-01 -4.884716752793737404e-01 3.530149179054923314e-01 7.979823871401801050e-01
4.145298555830168735e-02 1.000434028845312850e-01 -9.009783421989379093e-01 -8.966036780536702500e-01 4.810575426819770767e-02 4.402132220946096131e-01
-4.736620117036582922e-02 -3.584524058588883094e-02 -9.097103342545618254e-01 4.400077421670903766e-01 3.379571341975278753e-01 -8.319724528360379345e-01
-2.439311780239726210e-02 7.484958548493302055e-02 -9.337221366347925322e-01 8.623224077958629996e-01 -4.117176125583529855e-01 -2.947688459155664575e-01
-2.785205596893101931e-02 -2.468879870494090564e-02 -1.070361264228412379e+00 2.827905237660502946e-01 -1.422524392174389918e-01 9.485745954877834452e-01
-2.145513816104654969e-02 -2.359400849442210568e-01 -1.003257711731325941e+00 3.146020862257734030e-01 9.002162293378177527e-01 -3.010585786507212203e-01
-1.994688259268083408e-02 -7.305029309169272511e-02 -9.784345998789045762e-01 -9.709861718287420285e-01 2.677964300669550060e-02 2.376314474933785281e-01
-2.030498726717410232e-02 -1.633197114038987541e-01 -1.048751501818468990e+00 -8.826119784493428044e-01 -3.342286907180359590e-01 3.305862637779193869e-01
-1.310540378431294083e-02 -5.057522732415874536e-03 -1.043857437515236963e+00 -9.781032124011935780e-01 -9.615175868326844566e-02 1.845777483679438002e-01
3.909075481202466118e-02 8.475753363513463534e-02 -8.837718061416135473e-01 -9.606187155165015756e-01 8.877029301562781860e-02 -2.633087892140058006e-01
-4.702279771552105025e-02 -2.087423058381425098e-02 -9.470292734627766551e-01 5.443210651498282537e-01 8.387788740559036782e-01 -1.282881411771485784e-02
1.063971470171032850e-02 9.471541098707965400e-02 -9.439653471757611936e-01 -7.424811194920711843e-01 -6.077229061840740965e-01 2.817705742212690545e-01
-1.776614038766816464e-02 -1.968488877466530451e-01 -1.042816623994391900e+00 -8.307740991801062513e-01 -3.406331865141559168e-01 4.402083919880389606e-01
-1.644435583171665119e-02 -1.331453315664428982e-01 -8.906028935969626525e-01 5.309195326978162210e-01 3.217786156965184441e-01 -7.839534248157632446e-01
-2.783546216388283270e-02 -6.417134705541638340e-02 -8.895738566289086435e-01 2.527825810673209328e-01 -3.866669259330619002e-01 -8.868988979012316642e-01
5.106615218375550741e-02 1.371652850314904887e-02 -8.656170794520448020e-01 -9.227928451534569421e-01 -2.049631523100979846e-01 3.262567564491120065e-01
-6.350447418639210140e-02 -1.032900900606623790e-01 -9.651698529949565009e-01 7.761571606554670266e-01 -6.304772392367740119e-01 8.860743062463987893e-03
-4.496816708751139036e-02 -2.016662528827707287e-02 -9.264251066689165315e-01 7.985733052530553655e-01 4.756346330965964264e-01 -3.688527781327893829e-01
-5.390985946699136666e-02 -1.986880954848088132e-01 -1.015800551469288271e+00 8.928386767430124271e-01 4.298749036552707015e-01 -1.343378744775945988e-01
-4.218939779614028912e-02 -1.505892536666531834e-01 -1.059491450962625425e+00 6.001463483319676717e-01 7.279530911062516429e-02 7.965709030307929206e-01
4.232158909152311521e-02 1.061486812710184940e-01 -8.814270772295459411e-01 -9.061560897209723908e-01 2.723278095248188313e-01 -3.236026965601663807e-01
-4.245970204526504192e-03 -9.424699304913131126e-02 -9.427736980296052005e-01 -9.815060614146048357e-01 4.157717087055598851e-03 1.913859054241282553e-01
-1.050262302468043737e-02 -9.015793582137028583e-02 -8.796724843595860044e-01 1.443796095243768673e-01 -1.412603896167023421e-01 -9.793875793979245348e-01
-4.896849989639633777e-02 -2.080628383224968070e-02 -1.036699470120542754e+00 9.282775411630282969e-01 -1.432536072046619591e-01 3.431897588728056170e-01
3.234951382262339636e-02 1.557572932932764220e-01 -8.718673035481651068e-01 4.830946568989558099e-01 -3.737826862612199652e-01 -7.917739929594977966e-01
-1.653911394836881169e-02 -5.728058777497566090e-02 -9.736069596153551498e-01 -9.529274267356449002e-01 1.521204886945850265e-01 2.622759544721978697e-01
1.726264755723581554e-02 -1.152835164902486498e-01 -9.078069027350351705e-01 -6.589490498712311517e-01 -2.162355592430314499e-01 7.204362099399606034e-01
-6.300788818459231166e-02 -1.018222486533783416e-01 -9.521677875068182972e-01 8.490398312596174613e-01 -5.194803122744937607e-01 -9.628899258915650516e-02
-3.932282059577683203e-02 -1.319778595441176705e-01 -9.198569290080266248e-01 8.223599791072693233e-01 4.407507988363333351e-01 -3.598093913279994394e-01
4.063110029406226398e-02 -2.693694799596117392e-02 -8.203400940172038691e-01 1.703799575440272662e-01 8.682809499610111281e-02 -9.815454915522984214e-01
1.080271145742963679e-01 2.506670285739725501e-01 -9.223692280768024387e-01 6.959943676214405128e-01 -4.686509653733608172e-01 5.440203239713090611e-01
-3.820910974798121668e-02 6.067148265895384862e-02 -1.000558664971871181e+00 9.046771312622987615e-01 -4.099852246607711970e-01 1.160663764010683302e-01
3.577924387049072341e-02 -5.249973618252097747e-03 -8.902099866806425510e-01 -7.853429489770230587e-01 1.124975888054699225e-01 6.087534353127119768e-01
3.727754834099977765e-02 3.492150797373553411e-02 -9.075265218835992798e-01 -9.219790788548336558e-01 2.276411686979180893e-01 3.132635894384124264e-01
-1.217736286574918822e-03 -1.081086231988048485e-01 -8.767455118109251933e-01 1.151332461393895223e-01 -1.185991715514545138e-02 -9.932792547911588610e-01
-6.349089270197035006e-02 -1.441217522187219213e-01 -1.023369090763603939e+00 9.572820750858085370e-01 1.983525070014222763e-02 2.884745942870370339e-01
-5.869601504680843629e-02 -1.232988228093157557e-01 -9.460069375872300901e-01 8.908712407504754127e-01 -2.922991594141766125e-01 3.477206260915134961e-01
-2.748581469996277601e-02 4.788132693530951917e-02 -9.175981117437351786e-01 9.761249961413139831e-01 -1.059130814689900751e-01 -1.896375782429811085e-01
1.141292126506589372e-01 2.035196101412305447e-01 -8.994350498356457058e-01 -6.276434690285689344e-01 7.750804961976859309e-01 7.289650334366232221e-02
-1.796823053964260661e-02 -1.584992616196102821e-02 -1.063911479830466300e+00 -8.736424601587706729e-01 -1.674241558758275128e-01 4.568566556776835763e-01
5.684616414935402852e-03 3.897461680983775600e-02 -8.549660243494827672e-01 7.509370683712807137e-01 -2.398482646210445268e-01 -6.152774409193140226e-01
1.409937297987661764e-01 2.663356434473991841e-01 -9.246363573007964076e-01 -9.420445099142074619e-02 -9.861950084717309162e-01 -1.361797586972737784e-01
-5.387237291719156745e-02 -1.433783251129719660e-01 -9.323936104708191452e-01 7.926142538365782420e-01 2.416241247703262984e-01 -5.598039183000220742e-01
2.316456879143025116e-02 7.574971121442723720e-02 -9.318469115268881442e-01 -8.702272136582147599e-01 -2.051707274812570592e-01 4.478945960753168976e-01
-5.006157375756009609e-02 -1.978388298041459936e-01 -1.038364090911554793e+00 8.471843299740133837e-01 3.605161051836187069e-01 3.902651008605765304e-01
2.507915549580263994e-03 -3.084988765345665976e-02 -9.481532415667808245e-01 -7.866486143558036881e-01 2.323372928005248417e-01 5.720169052626126183e-01
-4.757907472560139045e-02 -3.227762698966454846e-02 -9.522687890992749260e-01 8.280300809135052731e-01 -5.581758419480868927e-01 -5.297088415269280565e-02
-6.157455405080567573e-02 -5.579691909319252352e-02 -9.543107644614432505e-01 9.752346703668888228e-01 -2.059433097272003188e-01 -8.065166391954872727e-02
-9.625011527446372325e-03 -1.723489956494033554e-02 -1.005890248572371082e+00 -9.942819977183285918e-01 7.569978962267623866e-03 1.065176249817850890e-01
3.854798571947022634e-02 -6.568419127368139987e-02 -8.881412904494971894e-01 -7.656196062877553832e-01 -1.265561926802501180e-01 6.307219264953944915e-01
4.563377566855643559e-03 1.216183905525012598e-01 -8.930210820748286649e-01 8.792584533958802684e-01 -4.193568493463458169e-01 2.259300888288030829e-01
1.674469933495907614e-01 2.408735865194900627e-01 -9.255927555700222964e-01 -7.683590186821878110e-01 5.616401286634806755e-01 3.068953963235911409e-01
1.042191288642581870e-01 2.510052908544569417e-01 -9.153816102249222597e-01 7.019766520385359865e-01 -6.466830386819978349e-01 2.983786645753778166e-01
1.446211766634089915e-02 8.193048453738240033e-02 -9.484314097955556244e-01 -9.128867090411308949e-01 -2.600359594297717569e-01 3.146730942732338110e-01
4.080406250194383577e-02 1.868146876311244098e-02 -8.926493968070579044e-01 -6.496533576586940306e-01 3.523562859196112673e-01 6.736434981915302433e-01
4.898669726568785632e-02 3.822771082291927941e-02 -8.573551359364846025e-01 -9.438517352496306190e-01 -2.680561543836101346e-01 1.931056704587700290e-01
3.395050042874897794e-03 1.440308370307970785e-02 -9.559982931495445424e-01 -9.275127906091426011e-01 1.689670263352563984e-01 3.334219058008356384e-01
-1.967497711612989711e-02 -5.345023970809506531e-02 -1.023129792609735356e+00 -9.669237126460873410e-01 2.130512720767528123e-01 -1.402415394566960960e-01
3.847338148173224531e-02 -1.276204184047559087e-01 -8.608752141342844721e-01 1.623130708569572034e-01 4.426158367436490160e-01 -8.818989103591768908e-01
-2.584638343370178684e-02 -9.684396640195812311e-02 -1.067935010414887698e+00 -6.808494351487018870e-01 7.220537990510636495e-02 7.288555616653086267e-01
5.060987536749766980e-02 -6.316026317818224101e-02 -8.729144548431437833e-01 -7.810579612816003214e-01 -1.221896857139464082e-01 6.123872482537147111e-01
-4.772013305097220354e-02 -1.785174012371934238e-01 -9.827137500282639992e-01 6.786593709545388764e-01 -3.407393425907802587e-01 6.506290484034603638e-01
1.360619100275215487e-01 2.663839561272974832e-01 -9.283452535281179197e-01 8.228151094559713052e-02 -9.829291908742560091e-01 1.645598939103628811e-01
-3.460682361787555117e-02 -1.969351228088744299e-01 -1.052953410309460214e+00 2.617756496448052084e-01 2.138428899034874597e-01 9.411401211779069076e-01
-4.811988915637647329e-02 1.311408840011769536e-02 -1.011455223519701185e+00 9.408988113140289711e-01 -2.840407621310536146e-01 1.844729582238472387e-01
3.186664442109053696e-02 -1.642728204608065734e-01 -9.125655462157551412e-01 -8.104273168174268571e-01 -2.564415993032161389e-01 5.267307379514838406e-01
-4.472968280537921448e-02 -2.071710826250716120e-01 -1.013512960248766692e+00 1.000242974588115979e-01 6.218346507631978826e-01 -7.767347082679406656e-01
-4.951040726489690930e-02 1.650360805896308042e-02 -9.930592364855078680e-01 9.580009253724134366e-01 -2.768239492127913537e-01 7.485137358681739905e-02
-4.443007774233435209e-02 -2.640506290536089387e-02 -9.458568465496043354e-01 9.462876740959432764e-01 -2.696763751612434867e-01 -1.783656091683084033e-01
-5.816694551298192545e-02 -7.464991935598026818e-02 -1.029796492252204487e+00 9.322513988432477028e-01 -1.875990698317178407e-01 3.093766609702192083e-01
5.123509817713704090e-02 -6.833086283195077826e-02 -8.730099368041873698e-01 -8.165209590914711546e-01 -9.783175894487909641e-02 5.689661416166124086e-01
7.388033131486614058e-02 2.136823676204656075e-01 -8.816095445863190161e-01 3.676094422786634341e-01 -5.583439754142706102e-01 -7.437172198262983480e-01
1.413332485603317583e-02 -6.555590851279015363e-02 -8.458600953187429550e-01 5.229361388048479053e-01 2.008726003823978201e-01 -8.283646498659211765e-01
2.255514146559451510e-02 -1.737886494818537131e-01 -9.307708292752790991e-01 -5.005271247451095196e-01 -1.894098347587174214e-01 8.447464186908809625e-01
-9.658833659388499013e-03 -1.767990665937161643e-01 -9.969272063024392505e-01 -9.783649144815430576e-01 -2.032978668909131426e-01 -3.836758305037378525e-02
-2.048970548164307133e-03 -2.211938147553725309e-01 -1.036343059278417744e+00 -8.767084196124650397e-01 -3.059547349641542069e-01 3.711792654952962844e-01
-2.540502319649396573e-02 -4.203083385467935862e-02 -8.791526208527974395e-01 8.194006434632791214e-01 9.282428615629971513e-02 -5.656555819503044091e-01
-5.065567723696964147e-02 -9.123629192534095378e-02 -1.054445669632653182e+00 8.526204489222841687e-01 -9.285079715269166367e-02 5.142150324014965745e-01
-6.301563825699849075e-02 -1.587901955520124309e-01 -1.003413387421629777e+00 3.587816970096883162e-01 9.106254731841167960e-01 -2.050291234899364323e-01
-2.662072095888730686e-02 -1.826923928302205680e-01 -1.054563266185036152e+00 -4.422074147046028414e-01 2.644223127366369663e-01 8.570492651576566701e-01
-6.306609309152354237e-02 -1.059794974223422087e-01 -9.851513963369973315e-01 7.606975681137847500e-01 -6.182231012831953532e-01 1.978368188825365415e-01
4.660297677922029674e-02 -1.157434951469380469e-01 -8.535759219455512081e-01 1.573171875515929231e-03 5.184497230214745178e-01 -8.551066657611824384e-01
-2.024060842725864534e-02 -9.044919678352657255e-02 -8.826148123080362895e-01 3.910947375730567388e-01 1.377857373010978569e-02 -9.202472804353326596e-01
-4.792677949758929190e-02 -3.235124173225985278e-02 -9.992032365503740188e-01 8.774116754208614033e-01 -4.632150812432394016e-01 1.248220346892968541e-01
9.555801853956565062e-02 2.322159734084614235e-01 -9.195944282752488430e-01 5.595464664815144040e-01 -2.029198216827440837e-01 8.035740773670432269e-01
2.243256251268855098e-02 -1.094024564966768615e-01 -9.018495003381837849e-01 -6.021824084320360759e-01 -1.835085263951408696e-01 7.769819609973427355e-01
8.771097975065861307e-02 1.854710436915772420e-01 -9.042602874156183690e-01 -4.572375520262135784e-01 5.920481117034025464e-01 6.636360858524127382e-01
-6.084849644617997683e-02 -1.008341272463294247e-01 -1.006552142563028607e+00 6.201311711843477958e-01 7.642370721814207846e-01 -1.771412657431888082e-01
-5.604291774932783354e-02 -7.553080583228101441e-02 -1.036594303638073811e+00 9.282466278014479544e-01 -1.914454536710068211e-01 3.189150925308212314e-01
-5.295053496142834021e-02 -4.685236722358176314e-02 -9.336800276971416457e-01 4.059885769226406760e-01 -4.686766875418507672e-02 -9.126755705254068207e-01
4.999934035324764270e-02 -6.012038414044015844e-02 -8.733018099512316335e-01 -7.709362653653878406e-01 -7.247114242231070258e-02 6.327757962031048677e-01
3.374429128871792027e-02 2.054747106833496040e-02 -9.029330757500629856e-01 -8.325116578756689423e-01 2.997080168057579819e-01 4.659393138204422358e-01
-1.317985312274365904e-02 -5.183035159417007792e-02 -9.666072584657796618e-01 -9.126367157124226637e-01 1.947613578655901234e-01 3.593914837833446785e-01
1.012724937552096638e-02 -1.701297185381758781e-01 -8.955663328884416741e-01 3.378366628252869597e-01 5.931585462458208724e-01 -7.307731031357257434e-01
5.720430889537320845e-02 1.554511368813116523e-01 -8.688533012660138999e-01 -3.558308644297326628e-01 1.527477644035828419e-01 -9.219829263001005915e-01
-3.224433906075846457e-02 -1.015874700126906741e-02 -8.946057475177107143e-01 7.649862282031886229e-01 4.543069276714626313e-03 -6.440306135433360168e-01
-4.242730428657401354e-03 9.187089661464316326e-02 -9.038240206472450966e-01 6.480918477650436937e-01 -4.766639199844191488e-01 5.939431490012982984e-01
-2.363113752276244442e-02 -2.382351639108714891e-01 -1.041148115498723215e+00 6.831541286757315534e-01 7.208716171885910518e-01 1.168098797414314771e-01
-1.461088995016565813e-02 -9.059986733389811808e-02 -9.696593785840266211e-01 -9.174477315657827425e-01 3.081904446739283099e-01 2.516114259259417119e-01
-5.450334590240033666e-02 -8.599939579753924923e-02 -1.045113737339912197e+00 9.143132567368028596e-01 -1.130982244257315722e-01 3.888959503351608338e-01
3.949445551453477365e-02 -1.515159049535146352e-01 -8.985130935124556739e-01 -7.579942458138806405e-01 -1.301707370218303794e-01 6.391402839253988999e-01
6.275771044163531986e-02 -4.780405185101019305e-03 -8.378153146003605167e-01 -9.605229368065301143e-01 -1.861273006881832004e-01 2.067663314156565069e-01
9.914602644383282634e-03 -8.606006939265502254e-02 -8.552744257008820794e-01 5.296990303705265690e-01 2.907511312423482486e-01 -7.967952791688833747e-01
1.167781261085154738e-02 -9.622788834647406919e-03 -8.431571524069177981e-01 7.042909264588095297e-01 6.324753119483307318e-01 3.224116478721781864e-01
5.005658697681161610e-04 -1.176202597173333642e-01 -9.359878226852388350e-01 -7.716631655375968402e-01 6.440467356060886051e-02 6.327621962286040791e-01
-1.895552467735797664e-02 3.746405004907746306e-02 -8.828564603587166770e-01 4.970891555432809805e-01 4.056565096889239858e-02 -8.667507135288310405e-01
-7.470159241476290006e-03 -2.087945790920676947e-01 -1.035442951982585624e+00 -7.593597799463119857e-01 -4.269736479543373986e-01 4.909849575623005946e-01
-2.364604877764950753e-03 -2.260538201511329004e-01 -9.845828227643214081e-01 -7.028789065589950980e-01 6.984385037355054227e-01 -1.347030037309470130e-01
1.168440198275749325e-01 2.441324926022039876e-01 -9.311962504093577175e-01 4.908635536109580144e-01 -4.605643763369163257e-02 8.700182620433412062e-01
4.098811641868963657e-02 9.867284530144815324e-02 -8.830330967494125494e-01 -9.513677196695096150e-01 1.897351810349124090e-01 -2.426932694750436048e-01
-3.694749577009157071e-02 -9.395646047685218827e-02 -8.952913031143149292e-01 6.820239143391870762e-01 1.270410729745656830e-01 -7.202110427138174176e-01
2.494537930639808068e-02 -1.712474441139209547e-01 -8.928514513301203381e-01 -3.442532410583194064e-02 7.132148139199651071e-01 -7.000996545244954072e-01
-9.115493630469677019e-04 -1.893650348115597237e-01 -9.749295834879301292e-01 -6.611585471941230363e-01 -2.669209680246682481e-01 7.011580223465538886e-01
-2.987464645888487924e-02 -3.910690529737018140e-02 -8.854459438499954205e-01 8.468311959880133744e-01 1.470465640236038596e-01 -5.111303488449526755e-01
8.597542382129090208e-03 -1.634114220886534741e-01 -8.915201129002997549e-01 3.992028302280541396e-01 5.083539043866623919e-01 -7.630291005150114936e-01
4.003929763938943870e-02 5.901322132972734030e-02 -8.992666208183232035e-01 -9.977498334304035765e-01 6.626324131175735654e-02 -1.022021234914914645e-02
-1.055178970781106562e-02 -2.343498331303605908e-01 -9.958410807043953650e-01 -2.111849760404918008e-01 9.005440525412703456e-01 -3.800280454483883630e-01
8.653121619407991294e-02 2.044415998343054874e-01 -9.148650091831259656e-01 -3.304855481976932269e-02 3.234234318380555528e-01 9.456770467566713023e-01
-4.167036650538786385e-02 -3.849251055686694900e-02 -1.059207769003333688e+00 9.168912150760770707e-01 1.865537891526765357e-01 3.528571714859903286e-01
-4.193236346519924745e-02 -4.055828090716615680e-02 -1.049148303215963196e+00 7.297109839977587997e-01 6.793863916077866882e-01 -7.717519505109016187e-02
9.035029549800730961e-03 1.939732722412912391e-02 -9.462500228966935767e-01 -8.701034761254450300e-01 2.069941743462465622e-01 4.472955987052997795e-01
2.575271410704740860e-02 -1.091710247814516163e-03 -8.274331421131573272e-01 5.173329435855422709e-01 -1.127777513823740724e-01 -8.483205787167097389e-01
-2.177041855632320597e-02 -7.720684754192942700e-02 -1.043702868339616785e+00 -9.937666758670318234e-01 9.847315071997429781e-02 -5.225736812613764742e-02
-3.320479998814478140e-02 -1.435624832172548437e-01 -9.195905509423065727e-01 6.579752591820047236e-01 3.111774296380777072e-01 -6.857384090075551164e-01
3.944231357811021216e-02 6.574016513894766212e-02 -8.780820500972653653e-01 -9.870789733890300566e-01 -1.540248069873218495e-01 4.417532258825557223e-02
-1.735376812403744383e-03 -2.392077117487702020e-01 -1.047516201240321632e+00 -7.904175124648891160e-01 -2.416557990917607146e-01 5.628877603520430206e-01
5.506360356270886824e-02 -7.013941320021874204e-02 -8.312539005852603857e-01 6.201084808036695373e-01 3.673021476887693981e-01 -6.932204586843802030e-01
-2.789963201115822425e-02 -2.301933568212473358e-01 -1.022807927062021838e+00 7.846374190162939133e-01 -1.698008585757195266e-01 5.962480935872224164e-01
1.038034961908585740e-01 2.053296363742451447e-01 -9.123421391934037894e-01 -2.261652153379515306e-01 6.002909693241504918e-01 7.671375675320626364e-01
1.338833057109374731e-03 8.974862541700094620e-03 -9.592899063682539529e-01 -9.433061801193054485e-01 1.028629431979474207e-01 3.155830563661175536e-01
-1.001827000039753196e-02 1.757562944656582615e-03 -8.695078330148671153e-01 4.932126623019899014e-01 -3.515616699521846855e-01 -7.957045066891441643e-01
1.985106535828815716e-02 -5.507900177922201747e-03 -9.232898863511100895e-01 -9.641711693799770444e-01 1.931264120129978501e-01 1.818684830294500232e-01
-4.381979225214390622e-02 -2.121827084453642154e-01 -9.859300220039044493e-01 7.928897488597456134e-01 5.323866716737348792e-01 -2.964629453697243400e-01
-2.402773747264543708e-02 -1.884981622148530489e-01 -9.317975173999119010e-01 5.132862748144092491e-01 5.792580112961518424e-01 -6.332435206430254704e-01
-5.494546855240060174e-02 -1.545092899370947293e-01 -9.397194536371228368e-01 8.238140993561519076e-01 2.826764293453936094e-01 -4.913495354577541163e-01
-6.485055195557365426e-02 -8.061268972480076234e-02 -1.008247339811847665e+00 9.719997002650284657e-01 -1.681616823248396342e-01 1.641287034079489393e-01
-5.264574517318972718e-02 -1.640705645037648652e-01 -9.423050755483733942e-01 7.694450560903465242e-01 3.913091643332816671e-01 -5.048083235911549060e-01
-4.720792155300645304e-02 -3.579818677363507534e-02 -9.327658049739639967e-01 8.915963294814746032e-01 -4.466254486691731973e-01 -7.471073454478487086e-02
-6.254317136300883984e-02 -5.737349739335369236e-02 -9.851751893287632456e-01 9.691592791866630030e-01 -2.339713478603367980e-01 7.738022968953280067e-02
1.146952604679061655e-01 2.542816130579730882e-01 -9.040887733821372230e-01 2.653865002327399081e-01 -8.076103935683687229e-01 -5.266264878398756455e-01
-1.661767266963118383e-02 -1.385662753848785067e-01 -9.840019546060608802e-01 -3.320583613075736018e-01 -5.687105710517736945e-01 7.525327441777496240e-01
2.387230565567877161e-02 -1.888872774073882821e-01 -9.315387292854970802e-01 -6.851026712416981024e-01 1.257500324436357508e-01 7.175104592951340177e-01
-9.450136407385900661e-03 -1.645124802214374404e-01 -9.745967588902914036e-01 -9.599054598388859771e-01 -1.869115811766411117e-01 2.089152196311807874e-01
-4.429935842061838436e-02 -1.810602800332506129e-03 -9.016093296555270920e-01 7.931118557256683355e-01 -9.472045948987077579e-02 -6.016657035775049289e-01
5.414266792925918545e-03 4.206489779478387453e-02 -8.566680897296049535e-01 7.124847647056390398e-01 -3.081484186376388656e-01 -6.304046416021001908e-01
2.014611082256376196e-02 6.907212080045078972e-02 -9.404187798316943070e-01 -8.975584140991997861e-01 -1.450375246984579036e-01 4.163568297855499978e-01
1.179728362302913253e-01 2.067521304276126182e-01 -9.026483501573248081e-01 -5.821632008896716615e-01 8.052926214091179480e-01 1.122042843830971665e-01
3.016900691530737498e-04 -7.727426877668804039e-02 -8.591279582941208082e-01 6.095327863845674266e-01 2.540711273180509266e-01 -7.509445016681324248e-01
3.911686865754895187e-02 6.283944444893400927e-02 -9.147917637259312951e-01 -8.266371055144106084e-01 -1.855921768189600363e-01 5.312500726497428882e-01
2.368934904859365011e-03 -3.045304258908160949e-03 -9.549152269862897224e-01 -9.268081254300042371e-01 6.491192319993981628e-03 3.754791113486694032e-01
-2.583202863093933543e-02 -1.120412893362178058e-01 -8.900318861170336548e-01 5.981780774492951869e-01 2.097945711814384606e-01 -7.734140065720696011e-01
-5.860493172830411740e-02 -1.602412311212899898e-01 -9.981506711219567674e-01 7.135560584981801568e-01 6.645864035461425123e-01 -2.217265514144515226e-01
-2.822083401725997143e-02 3.268269204999679073e-02 -1.051596108613086722e+00 6.862399895164646990e-01 -3.977260338288930441e-01 6.090063044034771389e-01
-4.796361344332996518e-02 -6.480332541570253679e-02 -9.168730212552562708e-01 9.530180234684207941e-01 -6.112500084386460891e-02 -2.966822900278714981e-01
-1.606283261768782361e-02 3.042761614033827333e-02 -8.818625746528914178e-01 4.541387684508561562e-01 1.614153881147392666e-01 -8.761866533277642421e-01
3.157207909393054679e-02 -1.567577794410426051e-01 -8.812487876769278250e-01 -6.033596024226663135e-02 5.408100788434669903e-01 -8.389779678412100372e-01
3.688650994335428146e-03 1.141776425687402452e-01 -8.984909268503705748e-01 7.125592387912944581e-01 -3.474669277438040549e-01 6.095293802085777202e-01
-1.990386609905845164e-02 -7.981650831979449079e-02 -8.831623012464209221e-01 2.781396783552911867e-01 -1.360547827796409759e-01 -9.508561486403713792e-01
-2.501836461522168042e-02 -1.451502016798281447e-01 -1.007642657497898497e+00 -6.145881333772114097e-01 -7.498627220602497312e-01 2.449230989031205008e-01
2.426522721696721882e-02 3.577889589056196945e-02 -9.314177281631184080e-01 -7.294931842820804313e-01 2.257921451745351082e-01 6.456451047312852243e-01
-2.781176201603033707e-02 -1.412866480734409902e-01 -1.011247970805440044e+00 -9.637739111096143008e-01 -2.550481233068510045e-01 7.804039378507997282e-02
1.058805861446541208e-01 2.505917324517865086e-01 -9.044896249274086975e-01 4.388163520696445885e-01 -8.181790892396680892e-01 -3.715147198796258654e-01
-4.572641849949329873e-02 -2.218340825439686290e-02 -9.040507603378329371e-01 4.478186629200636704e-01 2.289487072225338538e-01 -8.643152981416079017e-01
8.740556576628971674e-02 2.360838797059983118e-01 -9.020046386758779899e-01 6.809929622777051161e-01 -7.322169115368073466e-01 -1.034310338994593424e-02
-4.399520815773937110e-02 -1.191898100421290158e-01 -9.073869602496280606e-01 6.895219444603395420e-01 2.520360452065647516e-01 -6.789972901450097575e-01
-3.887846932897720542e-02 5.125202394682593088e-02 -1.015932295056611645e+00 9.332992538974510532e-01 -2.812886148306752432e-01 2.232245905833428468e-01
9.542271204334953905e-02 1.877085694294292617e-01 -8.999104880042003707e-01 -5.775005514777451499e-01 6.923524611482687607e-01 4.325981768163562058e-01
-3.576854735868521123e-02 6.734983258404074469e-02 -9.922783665701155886e-01 8.896413601214102629e-01 -4.538135047517179443e-01 5.090730071698390535e-02
-5.141038446390697875e-02 -6.033813209530303201e-02 -1.039757819914590709e+00 9.206462869533971194e-01 -2.311869361225826758e-01 3.145838757552198439e-01
3.999713686709956834e-02 5.673985429034127809e-02 -8.918607302230092682e-01 -9.992152103606278812e-01 -1.418814561359017616e-02 3.698188621492300848e-02
-2.854590224880562688e-03 9.870809549006047401e-02 -9.361379769356539260e-01 3.267462634124092546e-01 -9.440526182443176317e-01 -4.473849943926005990e-02
2.336347978495148178e-02 1.546891017598819029e-01 -8.801733003238912945e-01 7.630170387040994262e-01 -4.907840801658606700e-01 -4.206375937823155775e-01
2.788071808289136269e-02 -3.951492559733628396e-02 -9.005937427587213939e-01 -8.479463775961683103e-01 -1.839569384448708905e-02 5.297627196863856636e-01
-5.262163932459042875e-02 -1.736897196530957088e-01 -1.035738024919983680e+00 9.258975047308346529e-01 1.255254271110427533e-01 3.563105076780703206e-01
-4.811647093283145937e-02 -1.897681399187056694e-01 -1.045763772568254257e+00 7.551363696096539124e-01 1.661069344651443513e-01 6.341746996020450888e-01
-4.193851513901927786e-02 2.797212280361983244e-02 -9.485186925059246876e-01 8.773415921247955662e-01 -4.539299906226319514e-01 -1.556254938667373799e-01
-1.207728741886028665e-03 -2.277335688860712970e-01 -1.003729357203813510e+00 -9.865471361332693867e-01 1.030741722058973325e-01 -1.268876006996475236e-01
-1.194848384524969422e-02 -6.785882395012258171e-03 -1.038146082921971747e+00 -9.822215392226312236e-01 -8.653633859225694225e-02 1.665902457833923767e-01
4.024486107187338207e-02 1.181395222865758571e-01 -8.717535650367707056e-01 -6.322518954964688742e-01 3.264840655900115296e-01 -7.026134752173054387e-01
-3.854008403635883484e-02 -1.878326361828260016e-01 -9.618904998358613900e-01 7.786866159584102665e-01 5.068345003065752863e-01 3.698187980974244615e-01
-2.322564954602455642e-02 -8.739545374750407047e-02 -1.005022123119868604e+00 -8.219140655633467851e-01 -5.341817952983359818e-01 1.977550970290710419e-01
-5.359333498155437886e-02 2.779688227556115438e-04 -9.717691194681215006e-01 9.802384684076917987e-01 -1.830951414080425610e-01 -7.489134961069443541e-02
5.473124265071861033e-02 -1.345328353275595801e-01 -8.773569481397822667e-01 -9.955765292976336278e-01 5.721472786414397854e-02 7.452415197175737971e-02
-2.902404740083428664e-02 3.283664370700317171e-03 -8.911598044028967713e-01 5.584100900937554179e-01 1.209691255284970658e-02 -8.294768447570869396e-01
-5.023586937680774196e-03 -2.034068797678915685e-01 -1.026604314525733974e+00 -8.457225140088757698e-01 -3.997985913171826500e-01 3.534324768315766918e-01
9.888741098553301134e-02 2.276029584765170422e-01 -9.220624459148791807e-01 4.499512734348889986e-01 -5.198864571826158909e-02 8.915385758623698420e-01
-7.310206414223206599e-03 -2.436053883414827648e-01 -1.020936832378105175e+00 -1.557848874973731534e-01 9.246259763922468622e-01 -3.475598834850117669e-01
8.564029868055818284e-02 1.852917545422617107e-01 -9.052432750977307263e-01 -3.914322993761312208e-01 5.431503662074431693e-01 7.428111702807350669e-01
5.718892444959787491e-02 1.394117475329979539e-01 -8.766459627807925425e-01 -7.446505759462981322e-01 4.899117307541840383e-01 -4.533012417943351191e-01
9.822238752816634180e-03 5.605756810329824008e-03 -9.411484390425562951e-01 -8.021396206466739898e-01 4.261831135464842768e-02 5.956137242593458891e-01
-4.741258502800904662e-02 -1.737507077909584419e-01 -9.704261105571981849e-01 8.474432613187036223e-01 -6.353153570574253395e-02 -5.270708328264706033e-01
5.914288373503225060e-02 -1.065838675336034935e-01 -8.604147771605943351e-01 -9.871544836010469615e-01 -1.431951980081237925e-02 1.591256637347479852e-01
-4.879937637154336399e-02 -6.467672145960884356e-02 -1.049294523706214788e+00 9.010680536395360152e-01 -1.896661633903234390e-01 3.900039861014925058e-01
-1.947160807249057046e-02 -1.057120625994495827e-01 -1.043641676386777073e+00 -9.994836397545920903e-01 9.281319048446390677e-03 -3.076216799306532093e-02
-1.918490224799722366e-02 -5.584742153463727321e-02 -9.857922654320169231e-01 -9.698111254797838754e-01 1.824008616720905473e-01 1.618527310764734939e-01
1.603197989358063902e-01 2.519858698101835603e-01 -9.374539495345618478e-01 -5.727971184395733717e-01 -1.915022744114535103e-01 7.970133875930576206e-01
-4.432247485494349853e-02 -3.516796432688826159e-03 -9.225799945997684715e-01 7.402154177505715360e-01 -5.778350425863659073e-02 -6.698822299180197115e-01
1.216017112647631120e-02 -1.222150215187765288e-01 -9.149000636324275959e-01 -6.796376679246211028e-01 -2.163470690863451562e-01 7.009183875714277701e-01
3.690474873167164452e-03 -8.810183729378889828e-02 -9.220278220723621132e-01 -8.690475344115606848e-01 4.260505885207822863e-02 4.928906490220706371e-01
-3.810747754482155317e-03 6.640641602271897537e-02 -1.015142167870583645e+00 -8.932249697430456603e-01 -2.410784157159009955e-01 3.795133079398488318e-01
-4.788681531889986409e-02 -1.983480933293712556e-01 -1.007262208829150518e+00 9.866518044770408724e-02 5.836960377788985577e-01 -8.059554067368965846e-01
6.369886827523367490e-02 1.492444132046881755e-01 -8.925309701764958525e-01 -7.238852952865422186e-01 5.668579468655245979e-01 3.932710863301769333e-01
-3.531278477792700043e-02 2.863067658417412648e-02 -1.031043859664350526e+00 8.509236731592205727e-01 -4.021540608037735276e-01 3.379364050176519307e-01
-5.423338633726795116e-02 -1.353041451264257733e-01 -1.047195562370316191e+00 8.603485365538319218e-01 -2.485201346307483808e-02 5.090999637365051234e-01
2.708930125330554980e-02 1.806399082103243500e-02 -9.192076692498841739e-01 -9.119271288969251765e-01 3.250633580297082603e-01 2.504450535511936748e-01
-3.315905302794399517e-02 -1.096344691960044748e-01 -8.952423466932675211e-01 6.220027130958871719e-01 1.840471928628321929e-01 -7.610776936033972762e-01
-3.676271320435520185e-03 -1.034579267365801913e-01 -8.772525691925431301e-01 1.502163842690200091e-01 -3.667276382977406601e-02 -9.879727457223846931e-01
-3.438650379210612257e-02 -7.892342698077148277e-02 -1.070889113504688295e+00 2.463418207642446289e-01 2.619985788382608177e-02 9.688288160399770588e-01
-6.200736591309465896e-03 -1.635359251138911729e-01 -9.501353329694083305e-01 -7.757435940247061623e-01 -2.949644659692374216e-01 5.578690170148494776e-01
-3.684908054200815297e-02 4.654061218266877104e-02 -9.865923113160479652e-01 8.515286314496206543e-01 5.037358170827942461e-01 -1.454277016577846249e-01
4.815796168658817433e-02 -1.344368502177455682e-01 -8.654517718751747468e-01 -3.126218699754582664e-01 5.512961202773462022e-01 -7.735245013444586037e-01
-3.017197713263814612e-02 6.393765873309312231e-02 -1.018480032886730502e+00 6.895525717574482183e-01 -6.077548618008303816e-01 3.938924710376457972e-01
-4.684333386880239897e-02 -1.756879603283516000e-01 -1.046336187632339154e+00 7.869387539985108759e-01 1.131386958427552381e-01 6.065698912394774656e-01
-2.977617249632910287e-02 -1.826259017472771917e-01 -9.316531843841274751e-01 5.756043524201299721e-01 5.307083076088990881e-01 -6.221160034188969457e-01
3.903318056554820094e-03 -8.546841316318554149e-02 -9.218801754212907484e-01 -8.690475344115606848e-01 4.260505885207822863e-02 4.928906490220706371e-01
-3.871304689857663506e-03 -2.062863519849953697e-01 -1.003865681701404222e+00 -9.861332867132666102e-01 -1.617555264118296365e-01 -3.709838960550575215e-02
-3.694308991127476932e-02 -2.265706529200600117e-01 -1.008459397427268422e+00 7.774223434746946326e-01 6.287450805765479878e-01 -1.715002965315347294e-02
3.889386702353220954e-02 4.123313841849193806e-02 -8.987707939800554380e-01 -9.977265628397674613e-01 3.368405590912728481e-02 5.837028508971020546e-02
3.499661347320371513e-02 -1.664277380692064656e-01 -8.897833624172226674e-01 -3.028147074147342077e-01 7.118237036538272999e-01 -6.337272819516901468e-01
-1.983770219052194764e-02 4.917708351704645764e-02 -1.042729581152968654e+00 1.095075561399126429e-01 -6.507915322969894945e-01 7.513178266478177658e-01
3.993548139471293085e-02 5.698084394369178074e-02 -8.966452051719161487e-01 -9.984024801338644561e-01 5.556648718207470028e-02 1.023978343484255663e-02
-1.948564248975502566e-02 -1.690899584012937606e-01 -1.022570651200338965e+00 -9.688471236020396171e-01 -2.177167191177646344e-01 1.180452510889385687e-01
-5.406100069130151398e-02 -1.278747492358384141e-01 -1.046005522210107452e+00 7.969936320755744985e-01 -3.309509097560621171e-01 5.052451343284944940e-01
3.735716394417450820e-02 1.607414233542093229e-01 -8.713603654668307108e-01 4.623259597953767175e-01 -3.889593705946298718e-01 -7.968471088771754696e-01
3.886553542108344556e-02 -1.602153350951787125e-01 -8.850490757449882562e-01 -3.004172604829637994e-01 6.284052495962622054e-01 -7.175348854820721156e-01
-1.511071794071034953e-03 -1.304669004831118806e-01 -9.367305145724722504e-01 -6.352153077503341905e-01 3.670998709775645779e-03 7.723263795625014971e-01
2.513623677929641836e-02 -6.872837710003087963e-02 -8.999861590785599441e-01 -4.129505962603427505e-01 3.053819584478449367e-01 8.580289415298216760e-01
7.307576382816081441e-03 -6.625342816740205365e-02 -8.503500701802325645e-01 5.272927435112866323e-01 1.943819784882162560e-01 -8.271505359239919031e-01
-4.651303407561467596e-02 -2.115644116076208503e-01 -1.031391195260550120e+00 8.448226051494543976e-01 4.602679610620218909e-01 2.728152668900665767e-01
-3.960613663747245689e-02 2.435929756288926842e-02 -1.028318741392771907e+00 8.095053331793464757e-01 -5.176364093881833384e-01 2.770445148886800935e-01
1.224677872446354281e-02 5.787461408874757657e-03 -8.389803617586102380e-01 6.808656124835128498e-01 -9.228707436603310332e-02 -7.265707905238202313e-01
-2.696360410520509589e-03 1.616630048343468615e-02 -9.788300569741978929e-01 -9.615014799504479903e-01 1.960730890104785407e-01 1.925363545385312680e-01
3.430892256143278085e-02 -3.476036218811812822e-02 -8.910562557528786121e-01 -8.068788242921630660e-01 -1.233092422783341538e-02 5.905882755495439618e-01
3.910651040449594773e-02 8.014225206026595605e-02 -8.857055641662536782e-01 -9.896998520038295943e-01 4.372635998531143597e-02 -1.363165741428123967e-01
-1.124059474084783752e-02 -1.183993248080499874e-03 -8.690974094755888890e-01 5.279551048369949262e-01 -3.172708560855392879e-01 -7.877833529310620531e-01
-3.078611404420409856e-02 3.665029673973556334e-02 -1.045882689362676032e+00 7.358912261376284736e-01 -3.896462472053512927e-01 5.537507610219996046e-01
-4.916283741998996731e-02 -2.308301537407564732e-02 -1.037105126984627201e+00 9.272557097770990353e-01 -1.403491109157636585e-01 3.471296238452183935e-01
-1.317377792775160927e-02 -1.877309350927579557e-01 -9.239240299404664070e-01 9.885808679768873231e-02 3.483111977296345918e-01 -9.321514835105118024e-01
5.737052141986782178e-02 -4.066832548784188317e-02 -8.225387371983601259e-01 -2.639550446684391649e-01 1.613878148946084057e-01 -9.509372784772011089e-01
5.601379667423195263e-02 1.537020377603915688e-01 -9.022982587175308877e-01 -4.172735439957753756e-01 3.549889489907255280e-01 8.365797245783965774e-01
-5.571092564859547042e-02 -1.669397617332255834e-01 -1.020046733037327069e+00 8.536689210401923189e-01 5.167106976618903724e-01 -6.526429477008034719e-02
-3.382158201763352245e-02 3.703557131875106351e-02 -9.477070106069189759e-01 4.988794761730550031e-01 -8.550941968118667136e-01 -1.411849242375640689e-01
-2.109952408981565636e-02 -1.049566998770644355e-01 -9.799832253733621323e-01 -9.541768673841102277e-01 1.227665172278743361e-01 2.729008757713762279e-01
-6.763796511938077738e-03 -1.034922971503774922e-02 -9.887395464841929327e-01 -9.667950373466425162e-01 -5.275073629777084216e-02 2.500494262779798804e-01
-1.969363264757931914e-02 -1.559287199019648296e-01 -9.046072315379273254e-01 5.814821682059162500e-01 4.738933588373610006e-01 -6.612893258690862863e-01
3.233840766741866157e-02 1.276482911367124995e-01 -8.662716884303046649e-01 -1.309596122037003374e-01 1.036916490289731124e-01 -9.859501112597476302e-01
-5.772084741778382017e-03 9.360104916638778416e-02 -9.215686423572480024e-01 6.718081536198604597e-01 -6.937746795689192503e-01 -2.595197462986533199e-01
-6.969658409432614998e-02 -1.425528093898814908e-01 -9.934383489248550525e-01 9.963261465352623025e-01 1.841161479349398555e-02 8.363744478934509452e-02
-6.945442225293974037e-02 -1.252111336306757639e-01 -9.795871956818379411e-01 9.981921539970405322e-01 -5.811016923109527110e-02 -1.535030718525788249e-02
2.453982382390377734e-02 -1.205762671175552719e-01 -8.624149992361892503e-01 3.951032405174570439e-01 4.322595957671009348e-01 -8.105831673553717254e-01
-4.365335483181342208e-02 2.242315338571979066e-02 -1.017231364920976322e+00 9.109456607466341893e-01 -3.591106229195614730e-01 2.030210916954254818e-01
5.700077687011653738e-02 -7.853107393890135235e-02 -8.337528938853175919e-01 1.394129467761190400e-01 3.862668199440723593e-01 -9.117905319104231410e-01
3.575878549041010962e-02 7.384055683924595215e-02 -8.665196000149030242e-01 -7.351368707552616844e-01 -4.687587485332194714e-01 -4.897336183372870688e-01
1.204155581190354402e-01 2.181836274844816403e-01 -8.893537733508375398e-01 -5.872230381656253773e-01 2.957703342245748823e-01 -7.534514004500989515e-01
4.658740002051460494e-02 1.504038063215475951e-01 -9.044971904489650383e-01 -2.499117627888471915e-01 2.308897711140333320e-01 9.403371865531429119e-01
-4.766341608979994537e-02 -1.551515852395889961e-01 -1.054194091251428489e+00 7.060460856485315517e-01 8.192205739507106566e-02 7.034114737851131505e-01
9.374272157407850803e-02 1.904325157958654258e-01 -8.795929450070251177e-01 -6.081337469897388770e-01 3.530693969460052539e-01 -7.109960243998584284e-01
7.162008226462532844e-03 6.098133297849332723e-02 -8.655688731523267787e-01 6.938122577591241402e-01 -4.194958135014988376e-01 -5.853612674561773366e-01
1.834620318336887060e-02 -2.055440643084139804e-02 -9.208934198055109821e-01 -9.733800000350595338e-01 7.715158599233427894e-02 2.158217049108230867e-01
-6.279681201782435010e-03 -4.349546397409256859e-02 -9.565087770052956850e-01 -8.555495717580974269e-01 1.941303685311517591e-01 4.799461743555160087e-01
-2.355541770363085360e-02 8.406149601702403440e-02 -9.487439293622861314e-01 8.045854095216160573e-01 -5.693841287416691044e-01 -1.686535879310710750e-01
2.498121385093888050e-03 1.114855109099835984e-01 -8.986338302890866103e-01 7.125592387912944581e-01 -3.474669277438040549e-01 6.095293802085777202e-01
3.223798448742169059e-02 1.268612424136668637e-01 -9.059641085962557572e-01 -2.395413698834430172e-01 -1.568605411231556446e-01 9.581308380137413261e-01
-5.022822998977519854e-02 -1.755969979829280214e-01 -9.915830799742288981e-01 1.874573807110168078e-01 5.696404866965575353e-01 -8.002308706448872933e-01
-4.170629083185054681e-02 2.502183022282384109e-02 -9.392502774828701551e-01 8.855854002032438332e-01 -4.314419784459324614e-01 -1.720358049404830669e-01
-4.817627112864004968e-02 -2.224319215014135265e-02 -9.625964227777346061e-01 7.340349311378171482e-01 6.600367393061160604e-01 -1.598256006891578540e-01
-6.427921500518758713e-02 -7.118345832970962572e-02 -9.994120172970446525e-01 9.726767589775888734e-01 -2.010363730555101425e-01 1.161219154748095173e-01
-5.103794281491430551e-02 -1.977099060506711248e-01 -1.036360903578567694e+00 8.483184892638150343e-01 3.598431304827161559e-01 3.884181538207983619e-01
-2.013524564727138533e-02 -4.275053774660651090e-02 -8.724320504673471754e-01 7.614520107447987352e-01 4.155126978404133364e-02 -6.468881876429933842e-01
-2.886962145471870869e-02 -1.242024931018826384e-01 -1.012375329457643858e+00 -9.919122238858207874e-01 1.021965293450272511e-01 -7.527290014152417108e-02
-3.710752195106192808e-02 3.931928070126038122e-02 -9.993686144354894108e-01 9.780379515914805477e-01 -2.082763362368376114e-01 -7.920417318567945369e-03
-6.475635524296363688e-02 -9.726146090320324233e-02 -1.002141762026959038e+00 5.537545206663447850e-01 8.118473424824106388e-01 -1.850940932224308944e-01
-6.064449097339375677e-02 -9.646678351316291533e-02 -9.522812524242380006e-01 9.899983764234381312e-01 -5.664177992693557838e-03 -1.409650019211269867e-01
8.045375414775861669e-03 3.528361585877497902e-02 -9.606732902097691040e-01 -8.787563134727083280e-01 3.697976388028816341e-01 3.017234625740405352e-01
-1.383276637952783952e-02 -1.764331074445918968e-01 -1.012508780932884322e+00 -8.098884034951262523e-01 -4.611756645448562564e-01 3.624883174886129322e-01
3.405295393529761405e-02 -6.243243667235059968e-02 -8.931983419733412477e-01 -8.001458485573236246e-01 -5.748971989908539110e-02 5.970440127347440562e-01
-4.658849601385688100e-02 -1.532029095120071016e-01 -9.281926751577964652e-01 6.938141217986526499e-01 3.107809890365527683e-01 -6.496438572373532949e-01
2.019289993495160598e-02 -1.130839432256293409e-01 -8.607827070950117010e-01 4.002913271569827902e-01 3.965869104661285394e-01 -8.261269126773634897e-01
-4.333418172723715184e-02 -1.247242031702511939e-01 -1.056738176101226445e+00 7.308858316420117074e-01 -2.101499061246586697e-01 6.493403715007731725e-01
1.420825121438594185e-01 2.498576852143909455e-01 -9.405525097024687309e-01 1.137101509598382187e-01 1.763464239574778492e-01 9.777381757536626194e-01
3.034243206752994118e-04 -1.059625049730998220e-01 -8.767441070854149476e-01 3.797455698372560057e-02 -6.858829195043408822e-02 -9.969220527349226257e-01
