3.877356562572333715e-02 -2.056123781970331174e-02 -7.837395140086367284e-01 -6.869382369423064905e-01 -5.638997539272430082e-01 4.584025808690332382e-01
-3.476625402679041354e-02 -1.353038826348636758e-01 -8.501723783871479867e-01 7.723328937510830217e-02 3.224294061349851082e-01 -9.434374897531587756e-01
-3.204656074472854443e-02 -7.928819459086265675e-02 -8.121898357664658619e-01 4.989694487272096635e-01 2.095800019583136664e-01 -8.408957795208735764e-01
9.376142200067950905e-02 -3.693590607158681732e-02 -7.433935175430934628e-01 -8.287033514977590887e-01 -3.786124444428058955e-01 4.121933674010596071e-01
1.307770892961069610e-02 -2.861917192957145681e-02 -7.398710424809297193e-01 4.079691672753511522e-01 5.106962908854552063e-01 -7.568027860866363143e-01
-6.787652946446651181e-02 7.594856416545468780e-02 -7.248405248785110278e-01 3.120024829878982331e-01 -9.475207063009184472e-01 6.970625323738997847e-02
-1.179101785736884206e-01 4.702177817599161209e-03 -7.539112990842739004e-01 6.893042264669106967e-01 2.069732632013321638e-01 -6.942778634629266366e-01
-3.181705364966922606e-02 -1.154174191497710396e-02 -8.169159341114036188e-01 3.912476160102745237e-01 -8.884721688514894966e-01 2.398801953947161114e-01
-9.419955172874629190e-02 5.598853478878252493e-02 -7.548532667590109879e-01 4.272718111525876661e-01 -8.133939917615384818e-01 3.947518379445720260e-01
-1.202812364622773411e-01 -4.060003453500610725e-03 -7.599804011352079280e-01 6.674599906577991515e-01 3.791036595424468469e-01 -6.409193211260020284e-01
-6.213503944335937307e-02 -6.197126533343841337e-02 -8.515887217559181543e-01 3.301330366488153811e-01 -4.531300952604790933e-01 8.280611661479247987e-01
6.259301156662462617e-02 -1.029510707484218718e-01 -7.637255346943754297e-01 7.841404127031385007e-01 3.735060023702101994e-01 -4.955976991060149217e-01
-1.190271792523506511e-01 -6.790383238503656937e-02 -8.127894732564662217e-01 9.705594711752428827e-01 2.298402242423215336e-01 7.202627459665146559e-02
6.094258829688915108e-02 -1.773839108698753997e-01 -8.439148268927855190e-01 -7.059883034052979456e-01 4.482749578350887498e-01 5.482974353695797554e-01
-1.393478818339900435e-02 1.102334480668576561e-01 -4.830362501578543966e-01 -3.794897884172231950e-01 9.237212336825374459e-01 5.221669207315202815e-02
-4.832295867858753258e-02 2.250402942594750128e-02 -7.944574282246887886e-01 1.556046889333712741e-02 -7.106423278629679929e-01 7.033813714176125886e-01
7.332300963219475463e-03 -2.486915125366114671e-02 -8.227172438202504656e-01 1.096370203736573706e-01 -4.735309574323177673e-01 8.739268597067024746e-01
-1.012781238790995963e-01 -4.846579395384430222e-02 -7.865632402859801253e-01 2.492256868634969424e-01 5.023278007322672378e-01 -8.279814838623517081e-01
-2.807126728882468336e-02 -1.672233393867520249e-02 -7.495046000893318405e-01 4.079933461954525775e-01 5.345446648121890965e-01 -7.401374404670135743e-01
4.086896313990065477e-02 6.256460318500765838e-02 -6.779840521618385463e-01 -5.094721232681554968e-01 -8.247238053117981194e-01 -2.454970479754589596e-01
1.019623175302127559e-02 1.263953963810118541e-01 -5.989923674954035215e-01 -9.965022620004643228e-01 1.892960227068615428e-02 -8.139356231196402669e-02
6.926388879162010889e-03 -6.551519979207137689e-02 -7.859632478575124814e-01 1.482081527575632995e-01 6.609946834440985075e-01 -7.356088443696329193e-01
3.521505630707284784e-02 5.873922253463315091e-02 -7.124641088761797247e-01 -4.537676810712847897e-01 -7.847380970013069224e-01 4.222333605128284484e-01
2.497394454323186019e-02 7.273228724434957493e-02 -6.869463660859044252e-01 -4.575108194551714691e-01 -8.857964876182984337e-01 7.777166967825217825e-02
-1.597636589222635115e-02 1.316310111066658906e-01 -4.683682160142502715e-01 -6.579865714440230606e-02 -5.042314645459032851e-01 -8.610581669549894901e-01
5.396100061582054935e-02 5.566385654380993225e-02 -6.859955890828866032e-01 -5.719041586942966715e-01 -8.201795560494584691e-01 -1.520293085829619271e-02
6.566561100994020017e-02 -1.137947938707645906e-01 -7.669601839679349720e-01 7.721360766017943966e-01 3.703738748230911981e-01 -5.163613773884694336e-01
3.452176817888343713e-02 -2.120175071609396167e-01 -8.670558177654034138e-01 -7.522890080648786393e-01 4.861105939439523960e-01 4.446996051271223660e-01
4.852420601931716621e-02 -6.387578562125591219e-02 -8.269547815920336165e-01 -6.589379024591405232e-01 -4.084763933199313524e-01 6.316232079357826379e-01
1.065836142971472375e-02 6.371669937841556962e-03 -7.080750635571210205e-01 3.178687033969338493e-01 7.993832750170269952e-01 -5.098488668456606643e-01
4.568885170831921833e-02 -1.047305897042873635e-01 -8.532590504159138778e-01 -6.950824382860046891e-01 -3.687684562194720739e-01 6.171468461265030570e-01
1.040940688515822887e-01 -5.554404320557442681e-02 -6.901350535144784581e-01 8.948510326965943484e-04 5.684938550747833386e-01 -8.226870218885434793e-01
5.543997936440987068e-02 -1.824483779878359468e-02 -7.765576913492545641e-01 -3.461762081824887316e-01 -8.006796928240589306e-02 9.347465716349997455e-01
-3.522940370439954505e-02 -1.175708087947213570e-01 -8.420835804225732524e-01 -7.808104041273299101e-02 4.886419491124807113e-01 -8.689835422466991588e-01
-1.904962631293726991e-02 1.623757734924328837e-03 -8.012264686304543249e-01 -3.113456430146703258e-01 3.687648188979912312e-01 8.758289781223916881e-01
-1.284085035017488129e-02 1.533768931926555168e-01 -5.549208972600965240e-01 7.442783577915186577e-02 -9.940186910835716594e-01 7.992082981134827901e-02
1.441281811918228989e-02 8.636326735391135212e-02 -6.852721290188786840e-01 -9.949051932870623949e-01 -4.631729371952107016e-02 -8.954532189306493861e-02
-5.552165097907330732e-02 -2.870351839100238750e-02 -8.267908183910441799e-01 5.270486698852447915e-01 -7.771737583908957525e-01 3.438322975532756010e-01
1.469289493366699936e-02 8.714108691617468427e-02 -6.899842743005580870e-01 -9.968718130535080268e-01 -4.071143730594264237e-02 -6.774339238550181053e-02
-1.470816785132522155e-02 1.538357384695360486e-01 -5.375834391266832712e-01 9.000573330166490582e-02 -9.959350237782739201e-01 3.520849982377913332e-03
3.423609778317843882e-02 6.277716738107196048e-02 -7.057110950586301668e-01 -4.515925331768606554e-01 -8.043463698026579456e-01 3.861231686446593425e-01
3.448774399854021011e-02 -6.580161967542558221e-02 -7.682109814018767135e-01 5.810701225877870080e-01 5.790274994494936101e-01 -5.719131643152490785e-01
-6.595133237715308794e-02 1.067911124396352107e-02 -7.346166171038742698e-01 2.611944783431349726e-02 7.698237112922604597e-01 -6.377219048904004817e-01
-2.219896606535076700e-02 1.148189435734603830e-01 -5.692072883860386234e-01 3.067648093082576688e-01 9.477929672637289693e-01 -8.708526267678498578e-02
6.260114998844265588e-02 -1.084421737931972884e-01 -7.677118643115936614e-01 7.716469403061291255e-01 3.654556675550904576e-01 -5.205796332628204182e-01
6.528491890890686378e-02 -1.308203679522406959e-01 -8.379947489772582303e-01 -8.267025591139633978e-01 -1.296220238802672231e-01 5.475043467221124560e-01
1.364882922022818759e-02 8.226804180981911463e-02 -7.113938165291061599e-01 -8.324246914459437763e-01 -4.930199191723495522e-01 2.529831859440766495e-01
7.088789401561124137e-02 -1.704570254747126701e-01 -8.057282036683437454e-01 -5.378183805135398066e-01 7.732258156597030530e-01 -3.359661107599697938e-01
8.040292944218374593e-02 -5.463505781397387517e-02 -7.070772267853868698e-01 5.713564904005096201e-01 5.052000147405123487e-01 -6.467802609723015683e-01
3.722068603140462478e-02 -1.805969455593394168e-01 -8.759339925999781729e-01 -5.188869223016799870e-01 -2.624651862729327195e-03 8.548388579532926190e-01
4.018627378557355911e-03 1.312942009997324633e-01 -4.903632962550833474e-01 -9.813684111385814202e-01 1.525429132366598328e-01 -1.168190962155126050e-01
9.777685126885934941e-02 -3.797542802893445063e-02 -7.357716432698517828e-01 -8.500656514716784518e-01 -3.724538351730498076e-01 3.723795494558173047e-01
-7.423010055633955107e-02 -5.150785756980749697e-02 -8.386459091628813978e-01 5.148819984794140714e-01 -6.058241261106176445e-01 6.065258905142890677e-01
-1.143367295135267782e-02 -1.144251435749099079e-02 -7.325487555002115903e-01 4.530366404356232501e-01 5.860815614258495510e-01 -6.717635043521209548e-01
5.391264768469184593e-02 -6.956629973363963326e-02 -7.476909944694944965e-01 7.143555878390325242e-01 5.310959919075222135e-01 -4.556677973073316457e-01
5.705315712031121256e-02 -1.863107460350095779e-01 -8.399837484167174129e-01 -8.393400093384951743e-01 4.216632316120328405e-01 3.430866768473413986e-01
-1.055618042779067206e-01 -8.106620056605982894e-02 -8.322462403222496974e-01 7.818433425197105491e-01 -4.563735468259682571e-01 4.247872096886775584e-01
1.042463700138418631e-01 -9.075441595877790923e-02 -7.504906702851864564e-01 -8.522354237183492609e-01 -9.960739616122230022e-02 5.135885018081957076e-01
-5.218361900646938112e-02 -1.157776534165303878e-01 -8.712325110909215908e-01 7.741915641281994498e-01 -5.498246822323975547e-01 3.135605855983421009e-01
8.429248711444370379e-02 -1.421677695473569647e-01 -7.679573261447948385e-01 1.644605079019821059e-01 6.861048119698334169e-01 -7.086698302682723494e-01
6.639968430136756507e-03 1.397597581128790234e-01 -5.513340518875737839e-01 -9.681874837199162531e-01 -2.457315189646187004e-01 -4.721246610206211725e-02
3.609219636264663494e-02 1.054098859953563755e-02 -6.839939977887253830e-01 3.878298988359442645e-01 3.673765398012620587e-01 -8.453534453543989358e-01
-3.081947223487626480e-02 8.317984175928803958e-02 -7.114141401374869389e-01 -9.092867050092470760e-02 -9.612783960767111724e-01 2.601457708999325158e-01
4.338979864121177143e-02 -2.017016906862533210e-01 -8.626206088033170349e-01 -7.659819817278927800e-01 4.228403034647768566e-01 4.842289555923163791e-01
5.038657246843600973e-02 3.596836268774286069e-05 -7.702886338445926739e-01 -5.938144288834370510e-01 -5.323195400358782248e-01 6.033409743634429168e-01
1.377994531451227390e-02 8.467037722673660671e-02 -6.797730759727350636e-01 -9.932388443839272885e-01 3.648940617107190865e-02 -1.102049057173204311e-01
-1.140390702658529987e-01 -6.464649205959611955e-02 -8.232995038334283144e-01 7.985265223634003817e-01 -1.641877384521157335e-01 5.791353724512029455e-01
-9.544452421822778240e-03 1.151792307388840343e-02 -7.983545342260706112e-01 -5.527863429646819871e-01 -4.107318852608914383e-01 7.250700500377650348e-01
-4.914721776699006867e-02 3.125062848367863438e-02 -7.111124225763846285e-01 4.475340832183116180e-01 2.491539855011607740e-01 -8.588571102732007745e-01
-8.006008782924216999e-03 -1.169512725815425175e-01 -8.838980432546583721e-01 3.058901003108428166e-03 -2.319343502897535103e-01 9.727266318346193819e-01
4.103851528069247384e-02 -1.303399555083128158e-01 -8.082855592742916873e-01 7.679203202862422417e-01 3.661008634518679306e-01 -5.256125373992444061e-01
3.870827506685781821e-02 2.658853353166334282e-02 -7.523862456237021545e-01 -6.000932939241006014e-01 -6.852696461010506779e-01 4.126663915560170870e-01
-1.143097578238940620e-01 -4.589372608514441509e-03 -7.553094777156255102e-01 4.845619968357005591e-01 5.064168273665975439e-01 -7.132612902594309690e-01
1.699142267524727731e-02 -5.606260375914164443e-03 -8.000863064253140866e-01 -9.565505573389543326e-01 -2.302410997284407845e-01 1.788856261703948292e-01
-7.418781325253059021e-03 -8.950991473589886560e-02 -8.083818106736585518e-01 7.047848789164072869e-01 4.574110420945862732e-01 -5.422669204559041889e-01
-2.774732955802622358e-02 1.397876305632831107e-01 -5.926475338561467687e-01 7.501978054649858230e-01 -6.215354237041872398e-01 2.256035676942534096e-01
3.065311855351098014e-02 -1.845738377984575476e-02 -7.961465929167146349e-01 -5.494036406899700520e-01 -8.227414382281287297e-01 -1.457812245075352231e-01
3.436005362004137392e-02 -2.076002206215687984e-01 -8.445731771329262338e-01 -3.860537590498142740e-02 5.523226188879575282e-01 -8.327360623967133835e-01
-3.546481546681921199e-02 1.161594408646396404e-01 -5.009590855275382060e-01 7.705631592100480320e-01 6.010507380851615178e-01 2.120623208293090922e-01
6.528905364850701165e-02 -7.673635326005501245e-02 -7.321898923128062897e-01 7.110574133279302655e-01 3.610634069112962918e-01 -6.033494602143941732e-01
1.159491976708444845e-02 9.293080976069539867e-02 -6.557863210489097705e-01 -9.312261264441373809e-01 2.644205403275320387e-01 -2.507980846831643351e-01
2.793204341659284370e-02 -2.191898843406534791e-01 -8.498940751226798929e-01 -2.278533842535563625e-01 4.678582642426387661e-01 -8.539270928270554784e-01
3.961344081790145466e-02 -4.917510502805850364e-02 -7.394336340658383966e-01 6.174666984827318350e-01 6.870036423544215731e-01 -3.830938157378598330e-01
-5.290591183063746150e-02 8.296879764903614465e-03 -8.072922361586657436e-01 3.038443366289476574e-02 -6.081661918295295788e-01 7.932280058763387931e-01
3.889033879272108668e-02 -1.917510417946038659e-01 -8.730295388237869769e-01 -6.718467451899078347e-01 2.006819240489504663e-01 7.129857756910290556e-01
-7.959562255166467704e-02 1.893222336158758082e-02 -7.287373169584032695e-01 3.259904921464091831e-01 3.204257369051118909e-01 -8.894141589602440057e-01
-2.883684166674612900e-02 1.104882640842520525e-01 -4.976344825565035546e-01 2.196935082902349567e-01 9.514680228336681589e-01 2.155072247979603617e-01
1.819230865216967322e-02 -6.751738360411374540e-02 -7.829410063848865065e-01 3.866117073323017128e-01 6.202103050504111925e-01 -6.825471157824040125e-01
-4.121141295388668080e-02 4.421278644835222732e-02 -7.573722623286277544e-01 -1.647064684708030025e-01 -5.679273723761583126e-01 8.064305791261816569e-01
1.843168947240908517e-02 -1.381222708542546515e-02 -7.272956578265109551e-01 4.165912660874704909e-01 6.020129004949335005e-01 -6.811990785793207159e-01
3.968187525217562600e-02 -9.736499052932066911e-02 -8.552890134369762754e-01 -6.655613185193501868e-01 -3.834124467195119124e-01 6.403304045501364561e-01
-2.357226522622828807e-02 1.240671083709137118e-01 -6.424112070351578607e-01 6.884846792022880635e-01 -6.557708603761603916e-01 3.097634987942138318e-01
-1.111267939271404076e-01 -6.293481563078397178e-02 -8.259532877613274815e-01 6.903133074356340160e-01 -2.760071260308364915e-01 6.687956369156977665e-01
-3.274166298782641565e-02 1.399489226851439727e-01 -5.634626760030121417e-01 9.380923797777540596e-01 -3.295790158443559492e-01 1.065849863628830635e-01
1.105093426797716244e-01 -8.867730558079109371e-02 -7.241313263327739946e-01 -9.799448287892820186e-01 1.950462792481711671e-01 4.080540994266840943e-02
-2.000103079627921915e-02 -1.075816399681193969e-01 -8.807359182397905828e-01 1.358121388303938915e-01 -2.770743061159852694e-01 9.512018144624510008e-01
1.351787028482795069e-02 -2.658250810353600738e-02 -8.222230002350570111e-01 -5.520713786608260065e-01 -3.868627675543361288e-01 7.386165391755958876e-01
1.427977839074338375e-02 -5.618348514801511234e-02 -7.742665481683109752e-01 3.205014303562537803e-01 6.692845213015702344e-01 -6.703260868306734066e-01
-6.163046827763448560e-02 -5.835440225808005872e-03 -7.502034128103948207e-01 1.014404588685342418e-01 6.576843971784526177e-01 -7.464322253309785271e-01
-5.292323254322061493e-02 -1.258584018449835640e-01 -8.435363104457846983e-01 -2.219699799804248086e-01 4.991084115397625420e-01 -8.376276747563587977e-01
6.171689627744680884e-02 4.590920023947514528e-02 -7.017667983799352749e-01 -6.090108176616283453e-01 -7.166868685459714117e-01 3.398025256305260977e-01
-1.370742292262988431e-02 -1.329298063909614414e-01 -8.392948959508615969e-01 7.539567561321602884e-01 -2.347821782828254378e-01 -6.135360940021717946e-01
-1.041338746445314850e-01 -7.862422145166204912e-02 -8.322099231515215356e-01 7.662191721262184840e-01 -4.975901536307052453e-01 4.065860539614994940e-01
3.609456494261469896e-03 9.272029066657994090e-02 -6.419543680213265491e-01 -5.421970411794295730e-01 6.637884825505068198e-01 -5.151768812452356405e-01
-9.271010631499605747e-02 -4.278282448269787180e-02 -8.277885618271995094e-01 3.816416141939705242e-01 -3.607013753590584404e-01 8.510253792511148774e-01
5.764073405347671861e-03 -7.623858031381693101e-02 -8.642665222631451538e-01 -3.169096711395013588e-01 -4.835481032471596330e-01 8.159347352480634807e-01
8.320410357832137491e-03 -2.393924439699155523e-03 -7.203805290045707244e-01 2.482780421682699856e-01 7.293145724070778657e-01 -6.375407973234120673e-01
-8.245481355511162513e-02 -7.385032289829226992e-02 -8.487856569066554169e-01 4.164487988177670852e-01 -3.555718290269501147e-01 8.367431340415456553e-01
-1.354157575291304628e-02 1.116945469752881892e-01 -5.797237522666005560e-01 3.977589427464909427e-02 9.825006638417100868e-01 -1.819624241024805911e-01
8.666301006918981920e-02 -2.792062371813387386e-02 -7.485416405414859753e-01 -7.845076201696157270e-01 -4.209355816080250223e-01 4.553691140515785385e-01
4.873675470639806523e-02 -1.833379799536722365e-01 -8.651696769403884879e-01 -7.693243773190234780e-01 1.167696506653342348e-01 6.280962116954634800e-01
2.360331723692944000e-02 -1.550445648493753437e-01 -8.735415032865910812e-01 4.781770126930324771e-01 -2.268862856134417627e-01 8.484511523549856937e-01
7.683095717697414895e-02 -1.182177713707626837e-01 -8.156071143736016715e-01 -6.546689309172734061e-01 -6.720507055570040453e-03 7.558858549255635939e-01
-4.166657577794374151e-02 -3.061704407746559248e-02 -7.684891436060947711e-01 -3.009326392490893620e-02 9.036276321449668858e-01 -4.272604567362000560e-01
6.328297807141351240e-03 9.254828470750094821e-03 -7.998654858348447361e-01 4.693810628701203247e-01 -4.574412621806996371e-01 7.552674423496914535e-01
9.437434980271003360e-02 -9.603070610762538817e-02 -7.641688097111329903e-01 -9.138742872188106992e-01 -4.054581396126279436e-01 -2.091612254165102491e-02
9.670653552730085201e-03 9.249510653606353439e-02 -6.510324609958809683e-01 -8.365696802623535655e-01 3.794029073494332160e-01 -3.952272813970982290e-01
6.827271416684060901e-02 -1.757159683551424434e-01 -8.137604719928761554e-01 -5.571289769393035218e-01 7.700712193233325564e-01 -3.108015769336456846e-01
1.859650764430534689e-02 1.604787341276966289e-02 -6.879889700289631982e-01 3.579733870697043852e-01 5.256781437034098170e-01 -7.716978316558761319e-01
-9.589839281853383690e-03 -3.997528157938546114e-03 -8.047809751665810918e-01 1.168303910070090795e-01 -8.309576501062218012e-01 5.439301825299779347e-01
6.435788856203839003e-02 -1.031388139577098240e-01 -7.610147129848496839e-01 7.886502755910428375e-01 3.790464764880836501e-01 -4.841017573528738072e-01
-9.699177293006051859e-02 5.646009260838482507e-02 -7.288474068690417029e-01 7.336829059817341347e-01 -5.337504925684167789e-01 -4.204994710498106136e-01
5.843628563393667152e-02 1.604418900659154018e-02 -7.274952822093656568e-01 -5.677064888443403845e-01 -8.197096836223398686e-01 -7.606166642793318888e-02
-2.061971059295800504e-02 -1.788618756203428084e-01 -8.562272259290153453e-01 3.777229784409864566e-01 2.363321108833096040e-01 -8.952499566730564018e-01
7.964347163143446762e-03 7.428978354667110928e-02 -6.611593251119178838e-01 -6.290815950229249331e-01 3.209677518397671681e-01 -7.079802603761902180e-01
5.535316877407735897e-02 -3.006143075717066307e-02 -7.114542605457137014e-01 5.823488371112073292e-01 5.685808220218413478e-01 -5.810212394949013648e-01
9.584365087359139612e-02 -1.137913534165740925e-01 -7.744228357733108359e-01 -9.383447684974922653e-01 -1.250918750326555362e-01 3.222749109598859185e-01
-7.221150571687083575e-02 -5.924125629721731928e-02 -8.460304085725786072e-01 3.459847699461257031e-01 -4.834464416514445140e-01 8.040983005950721463e-01
8.881720123065391104e-02 -1.132653803426194178e-01 -7.926161261201110086e-01 -9.015008595395693769e-01 -1.778275572812503535e-01 3.945548886033488634e-01
7.478650113594080204e-03 1.199212276629849222e-01 -5.896510914000454573e-01 -9.194713702426754454e-01 3.620177825340242794e-01 -1.533477239257396985e-01
7.303732501798738952e-02 3.479841661098072997e-02 -6.727873493798148807e-01 -6.665959523326261404e-01 -5.910630247174561980e-01 -4.541963640823324933e-01
-2.453215966576743901e-02 -1.505106086774462282e-01 -8.857377117656847210e-01 -5.002847604640765500e-01 3.449856075388965104e-01 7.941662855085325212e-01
1.371427718239234816e-02 -3.870611831384150690e-03 -7.195764826771355871e-01 2.997929606469719177e-01 7.234665360331813400e-01 -6.218684362360519247e-01
1.415714938181596334e-02 9.289258571766061123e-02 -6.755360867822226556e-01 -9.999162083573421844e-01 2.098206843281593455e-03 1.277394975405481657e-02
-6.885962555627886394e-02 -1.199498920924590706e-01 -8.344139437793931524e-01 -3.208869465724780573e-02 3.955197908982593380e-01 -9.178967320363391469e-01
-5.107452071418598638e-03 -8.359530623085539847e-02 -8.707025999637377778e-01 -1.185876922068838241e-01 -4.592949079657259737e-01 8.803324069769331572e-01
9.222580551066586474e-02 -1.144508613356076954e-01 -7.846935214293409011e-01 -9.246920817205437348e-01 -1.463269379264702519e-01 3.514725896003705330e-01
-3.495842593381626173e-02 -9.625041201460887708e-02 -8.719054188114803150e-01 5.700922773363519269e-01 -6.192424821763997667e-01 5.399384627802167325e-01
-8.030025558997037904e-02 -9.159241346788814242e-02 -8.219789118880462819e-01 -1.304908418628232536e-01 5.279732763621020064e-01 -8.391760003940766932e-01
-1.209571501092990276e-01 2.599281951152448283e-02 -7.547461578641952995e-01 9.381118223206685869e-01 -2.849153364543181577e-01 -1.968996187790040819e-01
-6.247439623732267688e-03 1.484054073068701018e-01 -4.963672223662394245e-01 -2.521102934616846758e-01 -9.242881173879738954e-01 -2.865865942190217730e-01
1.695884711715834117e-02 -9.546409254470826500e-02 -8.612622946741094188e-01 -1.907490769920296703e-01 -2.922938009941321025e-01 9.371121189735470702e-01
-3.183822594818766505e-02 -3.250657740025119508e-02 -8.404520493888870680e-01 1.027363221652796144e-01 -6.037399628328199430e-01 7.905335574070065929e-01
9.858433014894256441e-02 -9.431387710874872266e-02 -7.191472881279212803e-01 2.224085794399500160e-01 5.072462706063537441e-01 -8.326077376216539649e-01
-8.131840644884928693e-02 3.669253099218036662e-02 -7.743986411394206959e-01 -4.657396666156353726e-01 2.475850340072300038e-01 8.495811991071808844e-01
-1.059497074436734632e-01 -6.091827843324066488e-02 -8.285788826243216665e-01 2.850121963511214607e-01 -2.281357776987975039e-01 9.309791162345557591e-01
2.003685118345073166e-03 -1.318753485281261573e-01 -8.255351416841752998e-01 -7.705926911060214345e-03 3.487400453777267928e-01 -9.371878143896145152e-01
-2.667368563186294644e-02 -8.414698151385023583e-02 -8.652746943501378185e-01 6.131066904831941056e-01 -6.681452833043090012e-01 4.215235064417521271e-01
-3.601069646320192996e-02 -1.216395534425167152e-01 -8.813837325414779489e-01 2.235563194757142491e-01 -2.075996881804525185e-01 9.523260688912444927e-01
-3.630430058564166479e-02 1.375047065154056947e-01 -4.950843696119520687e-01 9.134608149691770818e-01 -4.051449450503495364e-01 -3.803830984673151061e-02
-7.760487638274980553e-03 9.152363058240402249e-02 -6.375292531240657201e-01 -6.249170006704291708e-02 8.128902032094060814e-01 -5.790546649055692274e-01
-3.378462351402842373e-02 8.236164275608659491e-02 -7.148008486470897038e-01 -6.899988170056556291e-02 -9.467381425109652193e-01 3.145248890631638372e-01
1.134035996208420660e-01 -5.020137172557966737e-02 -7.016840110962350163e-01 -9.934094406868357874e-01 -9.943403255071686653e-02 5.701365033894129075e-02
5.155697064207316604e-02 5.727589386962762125e-02 -6.873029794537106607e-01 -5.593140162272293159e-01 -8.284628489952241548e-01 2.858564476242456132e-02
-2.918848011364026315e-02 2.535686798913407147e-02 -7.022743258742173422e-01 3.998654105063530473e-01 6.850235773348445356e-01 -6.089748368988312510e-01
-7.623532965097126746e-02 -3.250957139594502082e-02 -8.221487838106938950e-01 -6.900176085443103791e-01 3.906274962130454886e-01 6.093323059719696344e-01
1.158214637941483438e-02 1.144259288410577752e-01 -6.246698127546543855e-01 -9.628679987183317301e-01 2.300588651751721003e-01 -1.412732656891137195e-01
-2.873012397602298443e-02 1.430848303664528365e-01 -4.851220108208824100e-01 4.321663597350007824e-01 -8.411082429751298717e-01 -3.252217107031569188e-01
1.721869907318544432e-02 4.106689984961696405e-02 -7.629639747838042885e-01 -8.227760165440034523e-01 -4.517889380115324705e-01 3.448570458761043844e-01
-6.625095060623323318e-02 -8.152016476908229003e-02 -8.182740685294903615e-01 -1.305193549885917959e-01 5.138428474549223690e-01 -8.478975327790376770e-01
-1.086680568686912846e-01 2.336878341800866649e-02 -7.817028323712358340e-01 4.488400257044849462e-01 -4.784106455474469999e-01 7.547621383935950723e-01
3.552604007468729980e-02 -5.784717491295551101e-03 -7.044351668373438624e-01 5.277992263690300945e-01 7.056377464774167274e-01 -4.727614064097517277e-01
2.509926843279875960e-02 3.304307670559677307e-02 -6.767841657179468617e-01 3.216851977476508084e-01 4.422864360881377244e-01 -8.371985081224813108e-01
2.805031097045925653e-02 -1.189040077382491484e-01 -8.642608114984776657e-01 4.698340036941489606e-01 3.378458880857713731e-01 8.155465436603007712e-01
-3.522952403954621170e-02 7.098819576689821553e-02 -7.380459280318426574e-01 -1.786884170612819678e-01 -8.227049787836393513e-01 5.396544889952690216e-01
-7.811519433844513194e-02 7.095229583951159769e-02 -7.219325658231809939e-01 5.504166536919958830e-01 -8.025667314571877098e-01 -2.300611851152468690e-01
-1.889338552869836846e-02 -1.520175987416423624e-01 -8.468382544101836773e-01 1.592783542133443808e-01 3.456915414839550893e-01 -9.247311847372379212e-01
-6.970561467521052545e-02 7.483012380992722090e-02 -7.179612801500691033e-01 4.131403279620542990e-01 -8.884975543802227094e-01 -1.997177139659111478e-01
4.074239430498160369e-02 -3.520652168328601561e-02 -7.279989552177695833e-01 5.053204209264944291e-01 4.773158307041743265e-01 -7.189025455191091485e-01
-1.244108342167342266e-03 -1.151352160892759602e-01 -8.829038107210502861e-01 -2.589439268134912098e-01 -1.545625119370467593e-01 9.534455792912983618e-01
-1.241339715757914935e-01 1.328616075519475047e-02 -7.598009869069131117e-01 9.320337475919913128e-01 4.087004571019138555e-02 -3.600593460990494932e-01
-1.021580810652152338e-01 -1.064612985413615227e-03 -7.997129511171994221e-01 4.116612789518269144e-01 -5.552806172004433050e-01 7.226329826220507790e-01
-3.082953801853529838e-02 1.150218207136556314e-01 -5.115844078825211305e-01 5.233175556091194114e-01 8.194058250435116708e-01 2.339077379567810200e-01
-2.863458651563652465e-04 -2.352231511367368355e-01 -8.582487930506736973e-01 4.665308631760059499e-01 3.384682778287843585e-01 -8.171830753312672169e-01
6.479482742278815099e-02 -5.923275238868973280e-02 -7.241326313942000326e-01 6.285610106720634915e-01 3.521003515673992723e-01 -6.934957810174681159e-01
-3.495508175573713155e-02 -7.397234438043238935e-02 -8.631613345979095575e-01 -5.220755692748256793e-01 2.231751344354296340e-01 8.231828225467866522e-01
6.430130296754044995e-03 4.868699270063368140e-02 -7.628251336077387368e-01 -6.904251534280682334e-02 -7.524041187825110111e-01 6.550734104772162336e-01
-3.051348914693038927e-02 1.431096725611572529e-01 -4.878812865608421756e-01 5.220298337959866641e-01 -8.177521796341994387e-01 -2.424174608613220705e-01
-2.906200253810728353e-03 8.128170922530049414e-03 -7.952054294485828567e-01 -2.277044333235281881e-01 -4.889359352840483841e-01 8.420762092784263020e-01
5.283893021576061000e-02 -8.629767041128943994e-02 -8.257645345163903139e-01 -1.120863473745192795e-01 2.553767367697202251e-01 9.603225359477344236e-01
5.153758758850255500e-02 -2.524298059036068909e-02 -7.766957582103151125e-01 -2.725559093007883238e-01 -7.320903136380177249e-03 9.621120936161690063e-01
-1.573848268107300163e-02 1.262434464310547289e-01 -6.495239939403066876e-01 2.880004172572124266e-01 -8.763360896090292007e-01 3.861228013319435992e-01
-3.310390695200110533e-02 1.345658283636597674e-01 -5.740374807401009694e-01 9.807249652816134589e-01 -1.658106552351865381e-01 1.033700589332156583e-01
5.148614032919604684e-03 1.431894441976745980e-01 -5.795750468697139501e-01 -7.638685515022817230e-01 -6.409492144598907259e-01 7.542506552238172068e-02
5.832009764989144057e-02 -9.080090499679781268e-02 -8.244196746569655287e-01 8.310101428031789472e-02 3.189157243294774569e-01 9.441329261290419828e-01
-3.597077750160212334e-02 1.348868181044400594e-01 -5.293012269990596819e-01 9.952811061757822486e-01 -7.516520029251218260e-02 6.136540030422537456e-02
6.699800763108347545e-02 -1.782650946008834947e-01 -8.261995867581859443e-01 -8.610178779569790386e-01 4.812446611150811293e-01 1.644742836637135275e-01
-9.220156810963410499e-02 2.515771585858165779e-02 -7.319373909113401355e-01 3.723442860496298801e-01 2.588349170847971115e-01 -8.912711250477587388e-01
3.926750664772691440e-02 -9.049474944520172204e-02 -8.514614916778341369e-01 -6.376485136800873477e-01 -4.141763418457037882e-01 6.495093000541918293e-01
5.772143971287660436e-02 -3.220813073812768546e-02 -7.743613232710251371e-01 -4.009726336413915182e-01 4.649941349247672939e-02 9.149091493779817341e-01
-2.738597858715076383e-02 1.084271355033407658e-01 -6.511462777812627722e-01 9.964051270802718463e-01 1.653731589668275270e-02 8.308634009920519425e-02
3.834941819975403593e-02 -1.171290495873152648e-01 -8.662182730761210925e-01 -5.537278016197201280e-01 -2.100898228984675042e-01 8.057591377253393583e-01
-3.100026799249508674e-03 1.101004371718181107e-01 -6.801028199862420021e-01 -1.909677170807835278e-01 -8.371941454041874620e-01 5.124815059432938913e-01
8.310620955620245942e-02 -9.218840611649943562e-02 -7.932800547189485796e-01 -8.752942081222112591e-01 -2.816146614023826711e-01 3.931325879533931200e-01
4.035200297317021595e-02 -2.094425212749816689e-01 -8.506429326869432428e-01 -7.162154769896698081e-01 6.844421860155698312e-01 -1.362875068474290463e-01
-1.019644778846999153e-02 1.165547975502153055e-01 -5.264161670965381568e-01 -2.802950930362774762e-01 9.556146863815223602e-01 9.074817899952299094e-02
-3.233685761581805030e-03 -1.778302289090842592e-01 -8.441292435977624242e-01 5.637520704780666359e-01 2.017576475997911178e-01 -8.009228768531283515e-01
-1.562912091195248904e-02 -1.003575458583995383e-01 -8.259890677189019037e-01 3.652456052430117506e-01 5.667321881623458291e-01 -7.385189738601071197e-01
4.499232073499075113e-02 -1.408252067036781241e-01 -8.097065643183903871e-01 7.738541703439621999e-01 3.661920847578626348e-01 -5.167717872542466617e-01
-2.945560346828721490e-02 1.472082744027021217e-01 -5.526378282387454099e-01 7.006833739839778419e-01 -7.097989575722638556e-01 7.230663352526323084e-02
-3.721084603270442132e-02 -7.806284436756758503e-03 -7.467696682448456968e-01 2.646680843701573749e-01 6.289766459151864275e-01 -7.309850778293037754e-01
-1.028922201775291367e-01 -5.925338124543227253e-02 -7.935339029942503064e-01 3.064036586821035080e-01 4.876935264392944780e-01 -8.174789429798337004e-01
-1.657859870940716924e-03 1.190031895589052369e-01 -4.833146536543231897e-01 -7.726252254977796774e-01 6.270702644556457317e-01 -9.916221235950503643e-02
1.043274885885234031e-02 -1.199753588081796940e-01 -8.231567238381694018e-01 2.233069632824916800e-02 4.367351884474887647e-01 -8.993129128246918347e-01
-8.675168931331475597e-02 4.811901841752146136e-02 -7.693961004512346324e-01 1.262288064441490498e-01 -7.253001955567085490e-01 6.767613425344904954e-01
-2.470420660589704026e-02 1.756965803399289025e-02 -7.102739789357971345e-01 4.822444495156941180e-01 7.319635514006382904e-01 -4.813207354065170973e-01
-4.844305533660779768e-03 1.155549261937534045e-01 -4.893857353681380640e-01 -6.184085502280409763e-01 7.856836675788181346e-01 1.649362012263607888e-02
3.554000187200574701e-02 -2.298575335708659753e-02 -8.051848800888811164e-01 -6.188248963906376465e-01 -6.305886883777346297e-01 4.684161116968169614e-01
9.143317101566636462e-02 -1.029467063110313385e-01 -7.808646434525783331e-01 -9.091493427485896062e-01 -2.254711599019167123e-01 3.501574340668663909e-01
8.861315182820027336e-02 -1.442248843176555384e-01 -7.887846233823128106e-01 -9.115730226312958040e-01 3.604410086073108199e-01 1.977799376200422288e-01
8.411605698758860272e-02 -1.284174047771195065e-02 -7.378584400631335027e-01 -7.844545610389580537e-01 -4.738462207777642821e-01 4.001259810607231127e-01
5.520769732308010436e-02 -7.307003376313932208e-02 -8.255234494517554866e-01 -7.127819752766451078e-01 -3.683681746867467632e-01 5.968640913965913564e-01
-1.071958420040057952e-01 4.613607678259194073e-02 -7.374107018309067341e-01 8.417313448410602694e-01 -4.002419071811437745e-01 -3.623461864682182565e-01
-1.079303870427012202e-01 -8.555501601903804654e-02 -8.314380738933278003e-01 8.228222295020906074e-01 -2.759194983686497071e-01 4.968219087934845901e-01
-6.531703738843790130e-02 4.804401914500087967e-02 -7.107265656335780557e-01 3.576387024120534219e-01 3.709246535109934628e-01 -8.570352734600673594e-01
9.511165131896655300e-02 -9.741479969464246491e-02 -7.612181343883464013e-01 -9.167759321711879128e-01 -3.726351314237746348e-01 1.437530835162709741e-01
1.012603182467324836e-01 -4.470684814333878050e-03 -6.859121499272330391e-01 -9.065815808660997455e-01 -3.574257778636474869e-01 -2.244028755450568624e-01
3.906870618179702527e-03 3.498436762362785307e-02 -7.775157716639459204e-01 2.027787946876948855e-01 -7.001556071737903286e-01 6.845895749776697015e-01
6.646991361831602885e-02 -1.543260778314178572e-01 -8.400075578844100610e-01 -8.711433081393393785e-01 -3.093374278555561727e-02 4.900535075288464104e-01
-2.759874739577262981e-03 1.679482393944455336e-03 -7.992769809477270337e-01 -5.302621449172816026e-02 -5.900399355113383759e-01 8.056308677542420860e-01
-5.152004793417133688e-02 -3.774038817734767792e-02 -7.814321988281273113e-01 -3.223915628675210615e-02 8.250860889930852204e-01 -5.640865027210039129e-01
7.106438198544480500e-02 -9.375739589314521782e-02 -7.400472432986622273e-01 8.631213846814164148e-01 4.188468518500959581e-01 -2.821148524996485163e-01
4.217577589683350198e-02 -2.649318258271969595e-02 -7.890317220701565937e-01 -6.093715929538313647e-01 -7.921642423953932921e-01 3.379459677290234249e-02
-1.060461652803235399e-01 1.814890149798886049e-02 -7.821295173214077856e-01 -2.666674141666590669e-01 1.369411369737612849e-01 9.540102804613800336e-01
-3.153777913623243695e-02 6.671381027981296286e-02 -7.428376345208796971e-01 -2.056107658925637183e-01 -7.727760606938947063e-01 6.004509746577976204e-01
-1.070596887491338384e-01 -3.077623419849057074e-02 -8.140803531550957484e-01 4.457216927475827761e-01 -3.982384177736693065e-01 8.017096327370365483e-01
6.936804503076557382e-02 -1.277516958578953643e-01 -8.234632813199671553e-01 -9.122101688108540385e-01 -3.806280299750522955e-01 -1.516407290782528228e-01
-2.060794685816405309e-03 -3.759063135203916800e-02 -7.576470881397756596e-01 -1.894248943982702604e-01 7.843788234033515216e-01 -5.906505487837778734e-01
-4.935564359790634015e-02 -2.414715862536538291e-02 -7.627497255774597917e-01 3.230471986646228366e-01 4.699338476595360525e-01 -8.214637461622052994e-01
-8.182427390994109415e-03 -3.879260498744097063e-02 -7.603048435173335173e-01 5.005969113197810128e-01 6.612311932256645930e-01 -5.587271619336749984e-01
-2.566585028815377562e-02 -8.899738101375672533e-03 -8.139295890505047204e-01 2.957257637569288278e-01 -9.522112217253509980e-01 7.642029750462878135e-02
-2.257337234050295696e-02 1.116314896281412616e-01 -4.675724019213913230e-01 -4.262670817832771297e-02 6.658314973824506211e-01 -7.448834679621526567e-01
-4.841595647845103878e-02 -1.744009980511900260e-01 -8.693311237788960977e-01 6.775850775401939252e-01 5.476132261369349719e-01 4.909156926140653132e-01
1.606811384901510320e-02 -1.778472411237515954e-02 -8.117597287052308319e-01 -9.488414141813804603e-01 -1.012679392739967293e-01 2.990731937326990275e-01
6.117918842231946652e-02 -1.314379778741253391e-01 -7.798269050103070477e-01 6.235829646380957048e-01 2.033059396647951822e-01 -7.548582523296529789e-01
6.272452563505524770e-02 -7.433948136146449615e-02 -8.168420291123724697e-01 -7.572989726872090266e-01 -3.845343325301902038e-01 5.278556744721598637e-01
-7.591262080837971049e-02 -1.824362880339379031e-02 -8.210297765391583180e-01 2.015196256209610681e-01 -4.837212951767473901e-01 8.517062575102508637e-01
6.282415953462677782e-02 4.632082767242612364e-02 -6.984986065630168772e-01 -6.238754570364156704e-01 -7.261160734947574857e-01 2.890239815658199873e-01
-8.191612268218581919e-03 -1.368877652940227174e-01 -8.353765519923597171e-01 4.955001654077718642e-01 4.187359825834042759e-01 -7.610123277390332674e-01
1.255835060612432372e-02 -6.436096718214946721e-02 -8.416650036377348876e-01 -1.599160897217101474e-01 -7.539311599036997436e-01 6.371927890163068264e-01
-5.927800596998935093e-03 -3.694051952632303876e-02 -7.566111571041508332e-01 7.369931908531801579e-02 7.963306369642674243e-01 -6.003548342425873985e-01
2.423885147703147558e-02 7.160689759315838621e-02 -6.946199727046931116e-01 -3.960221458487991897e-01 -8.840478080566137598e-01 2.482457110759601071e-01
-5.575310008434290754e-02 -3.103980160730214141e-02 -7.695494350993679067e-01 1.310165579451200157e-01 6.691607053510012504e-01 -7.314770071289756759e-01
1.079133333900362257e-01 -6.012999206064132546e-02 -6.934114983652572839e-01 -1.562124711486969353e-01 5.730955301246902778e-01 -8.044620421180341818e-01
-3.609198928367143844e-02 1.190631859959990629e-01 -5.056608105541847697e-01 8.966285493436608744e-01 4.052999503003701376e-01 1.782952461183408832e-01
-3.871766042190460336e-03 1.185165193859983868e-01 -5.174279075273211514e-01 -4.942166938036121060e-01 8.665775169682660151e-01 6.923342148804693952e-02
7.048783012351922395e-02 -1.733910804324185206e-01 -8.130926051455665826e-01 -7.327091536699791297e-01 6.561276306643765155e-01 -1.806483556719362393e-01
-3.250781557033444874e-02 5.990497189128733690e-02 -7.512309751367429733e-01 -2.167953680440652675e-01 -6.955031080785999409e-01 6.850366377411107877e-01
8.525661415390234366e-02 -7.753827355648616748e-02 -7.729021307891102976e-01 -8.907354283473554180e-01 -4.336063183840631607e-01 1.362936438146395424e-01
1.460973583384428051e-02 -6.493816847963040928e-02 -7.825668607484456141e-01 3.350697710920500505e-01 6.313140238904871859e-01 -6.994075004884653390e-01
-5.811699012129992875e-02 4.581277623152708867e-02 -7.645788957060000168e-01 -4.754672735068405376e-01 4.759563923765444127e-01 7.398624090869032610e-01
-1.422659764048967920e-02 -5.824580984995044938e-03 -7.294777127728496735e-01 5.357790220273069837e-01 6.022930462056438339e-01 -5.917634037753507492e-01
7.335356507342111199e-02 -1.662710990654475973e-01 -8.186818854247003285e-01 -9.304737571642152094e-01 3.070574408133462385e-01 1.998357207054526630e-01
6.179683239098246461e-02 -7.998418999270738572e-02 -7.455124038932665620e-01 7.945075373076778691e-01 4.316886197396026525e-01 -4.270863012888678201e-01
-1.683063182664846710e-02 1.406659610743386281e-02 -7.063004896565948654e-01 5.711395765151694448e-01 7.006785083011237703e-01 -4.276087138295771584e-01
-3.326296131317557636e-02 -1.324971898852528029e-01 -8.490900973365045346e-01 7.723328937510830217e-02 3.224294061349851082e-01 -9.434374897531587756e-01
-7.269507809637536233e-02 6.347541516647514648e-02 -7.524774203245544468e-01 1.338302984495336190e-01 -8.252116571783852939e-01 5.487396213814087487e-01
8.782047353270634737e-02 -1.063344812683775092e-01 -7.296247249990378547e-01 3.259902739856070930e-01 4.538959649096199200e-01 -8.292820957343490784e-01
-7.205359088858791575e-03 3.538120131481261709e-03 -7.984617786526918559e-01 -5.982846983117031531e-02 -4.432914612844964797e-01 8.943786863235932971e-01
-7.215780357866500086e-03 1.155449848055459527e-01 -5.055337904384991088e-01 -4.292401593604672771e-01 8.972024841040892040e-01 1.038296109481896129e-01
1.422453261346349855e-02 9.002604666509089748e-02 -6.812511749332250677e-01 -9.971789554349684837e-01 4.164259342222256105e-02 -6.245018215102868253e-02
-9.444291944785887169e-03 -5.194680202902290933e-02 -8.545377182479734213e-01 -5.403412379598192539e-01 1.914134183096470043e-01 8.193852877926633971e-01
2.928677445767211354e-02 -2.232890833963878663e-01 -8.591771746620313621e-01 -7.363888570831327307e-01 6.739336923939130974e-01 5.953847008535171487e-02
-3.713563370076534281e-02 -9.070542784411578241e-02 -8.210670618645691254e-01 -2.048756819038289462e-02 6.753545496487584066e-01 -7.372085809446110582e-01
3.516835697614685563e-02 -1.286612520368295848e-02 -7.140741681578358646e-01 5.087237583431734045e-01 6.567893074518531549e-01 -5.566219033725782195e-01
5.451896169652569596e-02 -6.870246218338844912e-02 -7.456796745743462518e-01 7.250838467694755707e-01 5.387182303594719723e-01 -4.289942696963894297e-01
7.712076802753672911e-02 -5.511715824323656227e-02 -7.653242861867607383e-01 -3.984293454565012715e-01 5.764983058355817357e-04 9.171988466678352436e-01
-4.452507440853010860e-03 -1.455523893678389857e-01 -8.365602406543559688e-01 7.098105012964219807e-01 2.918718719450339449e-01 -6.410771112874207311e-01
1.042273589648912840e-03 1.005834284951788865e-01 -6.259464352543943066e-01 -3.852356402530181523e-01 8.524426634545249071e-01 -3.534614646625608980e-01
6.431251900608074556e-02 -1.507746493327342431e-03 -6.756142485475404857e-01 3.935639948291592138e-01 3.929136430942164471e-01 -8.310994230803820937e-01
-1.095295712750477511e-02 8.725491536902875434e-02 -7.139380604154360599e-01 4.730970744843607245e-01 -6.710281038249558128e-01 5.708769061640376341e-01
-4.771975255416376072e-02 -4.190639228811564310e-02 -8.439398743164508998e-01 1.999435905148821691e-01 -5.547367516634822415e-01 8.076445362694317787e-01
-3.309395907058969993e-02 2.265459530463684312e-02 -7.092989402632682294e-01 2.423042039372539924e-01 8.917961733260729718e-01 -3.820840980665209941e-01
6.850704111029595235e-03 -3.487173784959211875e-02 -7.514753040281108021e-01 3.014060428308230066e-01 7.811350392175184787e-01 -5.467928747265365930e-01
6.787626288287226806e-02 3.558974632934930327e-02 -7.099201727642613369e-01 -6.400103933385301591e-01 -6.450742556007094120e-01 4.174516752629586214e-01
6.251021191315631054e-02 -1.138668868069756396e-01 -8.243862964293532380e-01 -8.644297142176591286e-01 -4.076157630399170895e-01 2.942968890405784355e-01
1.393923090192680618e-02 1.038667178588126710e-01 -6.602679785203791063e-01 -9.993859720548636805e-01 -3.470376812476157896e-02 -4.829838289036905881e-03
1.098147459577129975e-01 -2.778909695198867116e-02 -6.940012557153988348e-01 -9.673345576196652473e-01 -2.290381139340335326e-01 -1.086526391778289968e-01
-6.859081307486313006e-02 7.396221109699836760e-02 -7.337131925519982945e-01 2.518778110230090461e-01 -9.272659143146008143e-01 2.770117190022203801e-01
9.039557772558000359e-02 -1.429125078862668874e-01 -7.825447047335154505e-01 -8.811686842256819530e-01 4.498251823276912531e-01 1.455989535808535629e-01
4.353037523737559450e-02 -1.124896821767575744e-01 -8.596006235669598761e-01 -6.924345478098471451e-01 -3.160546974891199623e-01 6.485706015496179866e-01
-9.739224967231817354e-02 1.759744463084042879e-02 -7.364683540474830092e-01 4.306691557474814358e-01 2.326207225711582338e-01 -8.720158701068597695e-01
6.664003112168784618e-03 9.036392143818877676e-02 -7.098088250158404167e-01 -4.006821512262078722e-01 -7.863705483066861790e-01 4.701863188615554856e-01
1.906299053724957310e-02 -1.300645303431960387e-01 -8.263656556913780982e-01 2.166626967224726807e-01 2.568832865031648871e-01 -9.418430086613579499e-01
-1.256165224171877925e-01 1.025118954980598976e-02 -7.715779001187205166e-01 9.450898924289098391e-01 -2.918292970758285532e-01 1.471079759800252573e-01
7.068794363863437069e-02 -6.877263960329702691e-03 -7.534170920874356803e-01 -7.093670722750969881e-01 -5.108658626632199828e-01 4.856072766518447215e-01
5.773070487733537870e-02 -1.184483448182683668e-01 -8.448055321742816703e-01 -7.841332349970634441e-01 -2.337255771849907626e-01 5.748977512067542373e-01
-2.597798965565977641e-02 1.206745234528792399e-01 -6.424432652420551948e-01 8.381640616808252453e-01 -4.804410916997066128e-01 2.581808728645404449e-01
-2.421855831802684558e-02 -1.467380295229124831e-01 -8.868095860147603426e-01 -2.604844327236033319e-01 1.599992975732245082e-01 9.521281873176200561e-01
4.594624471084750306e-02 -9.359677523931630994e-02 -7.804597188547587328e-01 6.888541897999559405e-01 4.123395332376702527e-01 -5.962013204651483989e-01
8.492881539099651073e-03 -1.763196956294658946e-01 -8.881761052737914275e-01 -5.576066674335249385e-01 -2.880897194204476083e-02 8.296052359823442579e-01
3.518467857472599818e-03 -2.389774086265552405e-02 -8.232302772402330104e-01 -7.090594353320118781e-01 -5.295163560248451473e-01 4.656684935324895136e-01
7.290896232505120027e-03 1.262540156540105096e-01 -5.729420694463429609e-01 -9.577902070784997113e-01 2.597905060627908602e-01 -1.230723859529985476e-01
5.938060784440933604e-02 -1.774033497942190396e-01 -8.148283640167710562e-01 2.981215975443244903e-01 5.750213909823020941e-01 -7.618883861763470211e-01
-3.945550634939753998e-02 -1.415750182346376951e-01 -8.840350314993028480e-01 3.294329442839054045e-01 -1.338971577136365831e-01 9.346365530925091480e-01
5.487279042858057843e-02 4.789934735463148574e-02 -6.696142624039155278e-01 -4.167089061617254009e-01 -6.342689389398356026e-01 -6.511962842504812610e-01
-6.356440960877197954e-02 -8.063311474001767787e-02 -8.181500456251119546e-01 -1.305193549885917959e-01 5.138428474549223690e-01 -8.478975327790376770e-01
8.112897448535866252e-02 -1.329291724028129895e-01 -7.620481876059215232e-01 5.835157280403245883e-01 4.586123238546132574e-01 -6.702120049195189333e-01
-4.286047019106494632e-02 1.785123810589094376e-02 -7.211050895599887545e-01 1.885386713789353463e-01 8.155075030300380501e-01 -5.471751839186225208e-01
3.285868549626187046e-02 -6.996052552309402206e-02 -8.363053191062723712e-01 -6.237808220408199711e-01 -3.541996766834289989e-01 6.967352977217626808e-01
4.799598065248741885e-02 -4.707750317272067775e-02 -7.311325710237374098e-01 5.158303098837762057e-01 4.957967586791739434e-01 -6.986448779519052188e-01
-5.691128566719187015e-02 -9.789059931712608409e-02 -8.679528077539816477e-01 1.556644338770086511e-01 -1.790257329407613507e-01 9.714516822625679504e-01
-7.979593705601473186e-02 4.465673154747514667e-02 -7.183513568164594520e-01 3.567582710619003339e-01 3.977925315485100199e-01 -8.452719313174615889e-01
-5.030303509956269431e-02 4.521633998505168034e-02 -7.049458080324498832e-01 4.411295284363122016e-01 4.080093622388946129e-01 -7.993329090353825661e-01
-5.862004198954182121e-02 -6.432630562148634011e-03 -7.503148098644106812e-01 1.045160798450017470e-01 6.571206784264095324e-01 -7.465043891620788408e-01
4.296473175928194194e-02 -2.044843779372220727e-01 -8.601754828022519783e-01 -7.839712780422487537e-01 5.136703601812386832e-01 3.486141079705177837e-01
-3.716724518933786636e-02 -5.926806456943393975e-02 -8.575625053544140286e-01 2.058423017465643434e-01 -4.951397586771075221e-01 8.440767537308748736e-01
-1.915231938299965381e-02 5.733190891286808061e-02 -7.485845066196358255e-01 -3.178224071091458325e-01 -5.499317940697239226e-01 7.723755170968347183e-01
-1.018334426390729575e-02 -7.981959979196528998e-02 -8.020297687084670946e-01 5.545444576511714407e-01 5.800827594324949876e-01 -5.966443133874238525e-01
-1.707450432380694383e-02 -8.436822152765598160e-02 -8.117385948474911128e-01 2.358862813626920463e-01 7.186142461403729476e-01 -6.541798128259419531e-01
4.918267954580168161e-02 -8.568858619863020665e-02 -7.705874151136714589e-01 7.042373706268276745e-01 4.760669729453518850e-01 -5.266972214501058902e-01
6.081385604786873275e-03 -2.122257171844412760e-01 -8.473818989321665329e-01 1.742953048150097939e-01 2.887696896483417652e-01 -9.413996032821786430e-01
