2.291883631196172874e-02 1.323915052973491380e-01 -7.869830302922288245e-01 7.828840613837332318e-01 -6.057558308565486049e-01 -1.419592188433130842e-01
5.320340252937155734e-02 -3.750504574900478255e-02 -9.486746987297643985e-01 -2.242167271273419749e-01 6.987295029999118778e-01 -6.793408135198408804e-01
-3.310470567065586928e-02 -3.060645852268265021e-02 -7.527314030745481110e-01 -5.464927237858874243e-01 2.221903752352432371e-01 -8.074510139952165710e-01
-2.949050061469203968e-02 -1.691107398039217169e-01 -9.265318500507325750e-01 -8.225179214570330632e-01 -4.757604980713744242e-02 -5.667457881332251812e-01
7.889213865007349558e-02 1.780921150907966710e-01 -7.535037410034258754e-01 5.582878620612148346e-01 -8.012026280846860082e-01 -2.153810851149898509e-01
-9.342636252096555086e-03 -1.666400421309109647e-01 -9.569017814865817817e-01 -9.541713606227139044e-01 -1.895220681720302114e-01 -2.315996551016326344e-01
-1.321331454599413736e-02 8.510378727610160010e-02 -8.300670207052753824e-01 7.440673753365470988e-01 -6.327795113352064904e-01 2.143684468249911768e-01
5.241701673158472713e-02 -4.310513635953683309e-02 -9.910627842251514830e-01 5.034270475988814608e-01 1.670192988621328201e-01 8.477415653095435877e-01
-2.889406364784620138e-02 -1.123223514064483064e-01 -9.104031571652957400e-01 -7.629095620602499572e-01 4.348095389553336965e-01 -4.784450490395815714e-01
4.804374931534641929e-02 1.933725383477368290e-02 -9.612070083486680128e-01 3.044601546309873563e-01 -5.857779951585345701e-01 7.511112797915651118e-01
4.243458591984268502e-02 -5.942020914980292168e-02 -9.604129118115832808e-01 -4.698699714212131173e-01 5.068371241326872223e-01 -7.227297832229797603e-01
-9.074817644225581514e-03 -1.459857177286279784e-01 -9.564213214845769251e-01 -7.861283136468278920e-01 2.317479431287078617e-01 -5.729704751018220854e-01
1.639164194505202954e-01 1.936192007113670954e-01 -7.450089901670912118e-01 -3.132016033624757112e-01 -2.377124217450266030e-01 9.194550343542032822e-01
-4.002394007284097201e-03 -1.035802595695845853e-02 -7.990993179362676502e-01 -8.632796234062288798e-01 5.013667281632513406e-01 5.813515031782635900e-02
-2.933550762023579006e-02 -1.819083702219235210e-01 -1.002340116357057997e+00 5.158444375546872296e-01 5.573742555895394579e-02 8.548671567184858988e-01
2.963090891978843733e-02 7.319132773810678450e-02 -9.040429678947152770e-01 4.735840870709643879e-01 -7.310058258529354980e-01 4.912724244675542029e-01
-2.296061884008171461e-02 -2.194913512343143747e-01 -9.522956840748736385e-01 -6.146110588786187767e-01 3.322623206544969010e-01 -7.154404214030620768e-01
-6.623089474971113888e-02 -4.752542978023295561e-02 -8.651390167490254912e-01 6.520137728474244554e-01 -5.564513257266489044e-01 -5.150145261197224267e-01
-5.802871898953269880e-02 -9.131293616193851548e-03 -8.205721479121508288e-01 8.960664277443064485e-01 -4.323531099538068245e-01 -1.006764390651027768e-01
-6.446929271546121554e-02 -8.567087483536642289e-02 -7.906558793932360052e-01 9.551107458251291149e-01 1.269983071923488360e-01 -2.676469562308592121e-01
3.860216826954942365e-02 -3.531802405323627991e-02 -9.802648116428935854e-01 7.635200275872278119e-01 3.630498161839354476e-01 5.340711548492480532e-01
-6.920377821864628909e-02 -1.612053233370790151e-01 -8.578641213875042304e-01 8.864368183979213223e-01 4.043773352577054170e-01 -2.251860069330419156e-01
2.014776407897454769e-02 1.600531286924875875e-03 -8.740720437742454108e-01 -8.534042680887622412e-01 4.426214758411909367e-01 -2.752950859206355072e-01
-1.422141643487763105e-02 -1.183673040724818187e-01 -9.468457851616025600e-01 -8.644370944840998883e-01 3.131105995478735138e-01 -3.933322541194129163e-01
1.054200594861950599e-02 -1.329230751291151646e-01 -9.798268938288294816e-01 -6.332349997833331967e-01 2.608959447144428290e-01 -7.286609232564625893e-01
-2.978144901033736441e-02 -1.898540707993095211e-01 -9.304945258790920937e-01 -9.956415286085522620e-01 3.043345985532075124e-02 -8.815753530617838341e-02
5.418165961879618103e-02 1.113321638579922862e-01 -7.879430300442064050e-01 -8.014373951215297831e-01 5.908182076620671630e-01 9.290827302129531229e-02
-4.058653158815743456e-02 -8.293081768666454856e-02 -7.728202397903402021e-01 -7.306935015985831505e-01 5.255301207701984501e-01 -4.357810217125823171e-01
-6.549363986546333227e-02 -9.967721831848323777e-02 -8.369167153562693251e-01 8.865509100275552612e-01 -8.832503984972182864e-02 -4.541213177828792302e-01
-2.790648703038062228e-02 -8.650612134593328728e-02 -8.158827952119090954e-01 -9.815516204518716092e-01 1.845498592498414914e-01 -4.997765339798157513e-02
-2.999177616160123711e-02 -7.780222766136819790e-02 -8.377485083647642217e-01 -8.982169767719174747e-01 3.805512127954533419e-01 2.199705368421555896e-01
3.271557559189234438e-02 1.014085039403262584e-01 -8.219437339813729926e-01 -3.870173940034200011e-01 -4.341214086413549000e-01 8.134839514692636664e-01
-7.173520894817836391e-02 -8.374578045350795918e-02 -8.187751177550192105e-01 9.789948572844403563e-01 4.578483157037681328e-02 -1.986776751642994054e-01
-7.226419351866998630e-02 -9.542827877634915690e-02 -9.135011592623923926e-01 9.570871336449212619e-01 -2.849756952500152041e-01 -5.265996323697112735e-02
8.591497645661702945e-03 -8.792841535815772852e-03 -8.463495307960707814e-01 -6.847741365476281983e-01 5.339303581526221310e-01 -4.959866475606606873e-01
-1.745504084692630666e-03 -1.075738887371316677e-01 -9.981119473686437260e-01 -1.506673528534098194e-01 -7.669378119813412553e-01 6.237834089949962912e-01
-1.607654895261393518e-02 -1.828563574687474824e-01 -9.492736506838036492e-01 -6.469673936769924083e-01 1.623960301040464071e-01 -7.450239733896119043e-01
1.859949968783578544e-01 1.914837558672355944e-01 -7.163980873478109634e-01 -6.755975096356027221e-01 -6.139040285570421807e-01 -4.082766815477049671e-01
-6.258804352114462344e-02 -2.680159972534311430e-02 -8.040578333387720100e-01 8.850572159350069690e-01 -3.460462884603252021e-01 -3.113289109032565949e-01
1.611616438472174839e-01 1.645320346667129285e-01 -7.136045243477752154e-01 1.024801002287171331e-01 8.171299438041742524e-01 -5.672710851045547065e-01
1.498304327737340694e-02 -3.866137359966794612e-02 -9.742824436142677458e-01 2.662141716843351991e-01 -6.228253368966411019e-01 7.356756177242855799e-01
-1.561647482302061345e-02 -1.352982821220687637e-01 -9.345084130392172783e-01 -9.936875175082277023e-01 -6.918381632524486791e-02 -8.831034541326696075e-02
-3.795263772936351143e-02 -1.305773198347739972e-01 -8.174559202623079557e-01 -9.797333027608471356e-01 1.997657487636515239e-01 1.470717791487461887e-02
1.086328673896560237e-01 1.923894133622146840e-01 -7.405707492817300563e-01 4.120131167453611187e-01 -8.895838426264440768e-01 -1.971947731755172573e-01
4.241293387310474117e-02 -1.000120439019823587e-01 -1.003590222436490764e+00 -3.971531147878456514e-01 1.398162541573476636e-01 9.070395903640150470e-01
1.148377278491407617e-02 1.771500940824858109e-02 -8.054634649253975542e-01 -7.349676872688910567e-01 4.964959873134695834e-02 -6.762820535963035562e-01
-3.159033582841051097e-02 -9.201516017738843589e-02 -8.804157328744174338e-01 -8.735294278653763511e-01 3.169293510170904105e-01 -3.694619400115178309e-01
6.209490178467029498e-02 1.352788184496462598e-01 -7.955886338168701721e-01 -6.044158643795001229e-01 7.728408131587202745e-02 7.929114916947184177e-01
-5.477516184753518022e-03 2.174611203716553254e-02 -7.752807470703125814e-01 -8.670781138749715788e-01 1.800056832385008021e-01 -4.645142607508001009e-01
-2.881145227808248541e-02 -1.669131834949559301e-01 -1.003106302766914038e+00 5.549013962202947736e-01 -1.136452544302161416e-01 8.241172226196094019e-01
-4.272498365483896193e-02 -1.157728865912761168e-01 -7.957494118299941466e-01 -7.549312711502926820e-01 3.445041968329484172e-01 -5.580283453408869665e-01
6.799616074150338293e-03 1.086622945448735000e-01 -8.161567411036108055e-01 6.579616814341691100e-01 -6.914717912991332760e-01 2.982502097264793650e-01
-6.548465154576156621e-04 -4.232236688957308895e-02 -9.700865932402877867e-01 3.884101739873654369e-01 -5.504243326989731733e-01 7.390335518202095777e-01
-1.827237792523499216e-02 3.347506935686877898e-03 -9.227341872764961428e-01 7.376841697162671574e-01 -2.822012057696850484e-01 6.133388502387220331e-01
-4.690428263551927462e-02 -9.240415967524590046e-02 -7.756742668121646700e-01 -3.600942809834377645e-01 6.167041276551606943e-01 -7.000058055017173153e-01
-4.255211129838189915e-02 -1.613076589178458198e-01 -8.611735465545728996e-01 -9.755656341006723187e-01 5.643328750706157193e-02 -2.123369436129723120e-01
4.302252493471830919e-02 5.955044323199890945e-03 -9.685724347416078128e-01 3.337612955715677510e-01 -5.068062654683629376e-01 7.948275327770170096e-01
-7.040836235472009048e-03 -1.340389936364690948e-01 -9.627510499066157523e-01 -8.126119048452721261e-01 -4.153937341754259521e-02 -5.813229503123166220e-01
1.246345136274904647e-01 1.824259487632702292e-01 -7.172268247967759081e-01 3.866970615383637511e-01 -1.898928765607456604e-01 -9.024445013567761187e-01
1.667954940691565024e-01 1.628108986837630834e-01 -7.225262714181993617e-01 -2.093688993339362647e-01 9.600642326687339745e-01 1.855837631418526812e-01
7.579546527074094986e-02 -5.217840724143656128e-03 -9.804914493768357442e-01 -2.042389358937198862e-01 -3.218747420500570056e-01 9.244907287232305704e-01
-3.730195566669633478e-02 -2.110514048362032991e-01 -9.230087589682319793e-01 -1.350395755344182547e-01 9.265686780488889829e-01 -3.510481418526783526e-01
-5.896715783340979872e-02 -1.559151453526063102e-01 -9.515901587120303429e-01 9.963669519902997873e-01 -7.308465427146419724e-02 -4.372105089748251627e-02
-1.223841023427180673e-02 3.675908532811372753e-02 -8.935827608068155348e-01 5.421812532819048069e-01 -7.314791835508984708e-01 4.134944892273340611e-01
1.640509276357622961e-02 -1.446445861488833418e-01 -1.009381305911608573e+00 -2.478433302283025996e-01 4.080193828073826884e-02 9.679405382015360271e-01
3.985757043850984838e-02 -5.068322080854101991e-02 -9.909314442886967278e-01 5.281322997183129225e-02 -6.161958162235116054e-01 7.858202585888089953e-01
-5.885633072342182082e-02 -4.972942721127490001e-02 -7.667146413733358923e-01 8.988453810948389133e-01 8.211165330284664332e-02 -4.305051187574278626e-01
-2.032166786050786274e-03 1.002790179598254602e-02 -7.873053168036067140e-01 -8.732877773032154956e-01 1.926077207244474010e-01 -4.475161716967810399e-01
5.593289466027848156e-02 -4.867925093180550805e-02 -9.603618380223057915e-01 -3.851052854276632020e-01 6.052261818440130003e-01 -6.967030844959677394e-01
-6.489676968515506461e-02 -1.740440956711235831e-01 -8.692159790010013376e-01 7.540117745646812697e-01 5.843722740139942751e-01 -2.999588124752022300e-01
6.996205328945695467e-02 -6.066531941979699805e-02 -9.891697788332695085e-01 -9.200936053082378052e-01 2.497315238407369631e-01 3.017646822792093286e-01
-7.328812338808304849e-02 -9.521926036397423965e-02 -9.092625560841103294e-01 9.780028221103479469e-01 -8.651684944496165069e-03 2.084121596544123434e-01
1.750081259868466188e-02 4.326960722382226093e-02 -9.110126315912294714e-01 2.507745511448322695e-01 -9.418478748691521130e-01 2.236843872570682401e-01
-4.426779346935245246e-02 -1.497112812907919199e-01 -8.218957053020466974e-01 -7.592021962998085627e-01 5.937821170670093407e-01 -2.665235872956978613e-01
-2.042966956389778710e-02 -1.582286905843350577e-01 -1.001779917893074634e+00 2.399576525920227577e-01 -5.932481167923919774e-01 7.684250105799567132e-01
-4.324167313116422662e-02 -2.068380302179002317e-01 -9.805086082066646336e-01 7.141172879978329169e-01 2.705276551194382151e-01 6.456402146692835631e-01
-3.931661864124130074e-02 -1.464122781739953527e-01 -9.157120397695522884e-01 -9.181989451936627411e-01 1.584845721662187235e-01 -3.630335210838466775e-01
1.046177885176017425e-02 -1.655363045537277394e-02 -8.572155504235356993e-01 -7.732074749108219791e-01 4.609638742168529202e-01 -4.355025917362836951e-01
-5.714225248162026899e-02 -6.889495323604709343e-02 -9.180432833732145026e-01 6.550993312440084315e-01 -2.926506636949998685e-01 6.965633174683610873e-01
-2.241604904087785705e-02 5.598089023816842785e-02 -7.911660812620802119e-01 6.732744284102373244e-01 -6.867496243479681572e-01 -2.740009078576069457e-01
2.196853023214605585e-02 1.310622298078737979e-01 -7.973764532094322899e-01 7.295999343998181841e-01 -6.678537488955190726e-01 1.471574184673750674e-01
-1.620291013102740166e-02 -5.838006373750612155e-02 -8.737325699851453686e-01 -7.165605759782602835e-01 5.146136782853620861e-01 -4.708648458690810057e-01
1.229137944300903468e-03 -1.444087104363367402e-01 -1.010027912436462172e+00 9.844945788583486790e-02 -1.024520842643937835e-01 9.898541683863673057e-01
7.730242114307067647e-02 5.606734494238437005e-02 -9.115275082068431400e-01 -8.975852506076174020e-01 1.448595293408534990e-01 -4.163609427537685037e-01
-6.900694580278163293e-02 -6.231037468988600420e-02 -9.113850880456052517e-01 4.147794221070513210e-01 -5.041551603585155972e-01 7.574863729998182471e-01
-3.585312796144817654e-02 -1.969114686778261347e-01 -9.159518954805828672e-01 -7.514859785080667542e-01 -1.020080697829563732e-01 -6.518152942398092176e-01
6.516506768920531101e-02 2.953098295294351999e-02 -9.601398620722397803e-01 5.966791359272054507e-01 -5.326474969836866163e-02 8.007102317247692946e-01
-3.880638567583050147e-02 -3.784000865129619889e-02 -7.523111612724371344e-01 -1.681071000289333095e-01 2.051227922617141763e-01 -9.641911859245653194e-01
-4.273662602151119885e-03 2.018973433623054078e-02 -7.781055919940680354e-01 -8.658390634523267515e-01 1.755592936909284585e-01 -4.685100325486532546e-01
-6.015250256979759458e-02 -1.584078388456448480e-02 -8.126378969934731078e-01 9.002301636814913355e-01 -4.146217769802815756e-01 -1.329452310228127765e-01
-4.274903095470340871e-03 -4.309751553361022836e-02 -8.708926671638645978e-01 -5.725017634934347344e-01 6.416034400344698962e-01 -5.104769892295261124e-01
2.920781072497004999e-02 -1.319007040148526544e-01 -9.961491208723826096e-01 -6.709402361003566906e-01 5.178200418454299570e-01 -5.307556912976012509e-01
-1.231792232382672783e-02 -8.144379573578602871e-02 -9.040015009098436582e-01 -9.220614217513656286e-01 3.399797935877297284e-01 -1.849769565916115910e-01
-3.965433243243498412e-02 -1.617274706662555628e-01 -8.786797179453462725e-01 -9.690636105138368261e-01 6.118878294832744147e-02 2.391059422498518217e-01
1.145361381337115930e-01 1.949614073085206289e-01 -7.402271308054815258e-01 3.873384349543209093e-01 -9.153037629739304570e-01 -1.103990864676898526e-01
-6.945930956865258021e-02 -6.192955940896922862e-02 -8.061039838316750306e-01 9.726181128968579559e-01 -2.961341579372173821e-02 -2.305147545602731218e-01
5.366912548916455417e-03 -7.679135967180878916e-03 -9.526664115940627342e-01 6.738270152170980909e-01 -1.438900276687735680e-01 7.247432742020420982e-01
-2.991619942184875133e-02 -1.856141735505245360e-01 -9.251124846733105311e-01 -9.625040013737445888e-01 -3.043412832015855024e-02 -2.695548388972512366e-01
1.531526940560323791e-02 8.518684180112318094e-02 -8.548780166121341395e-01 5.402312798741614186e-01 -8.234984236641278432e-01 1.732065543454462675e-01
5.332638182190582721e-02 -4.860183089311216620e-02 -9.917590745113425976e-01 2.501838648144107946e-01 -3.216036043548829992e-01 9.132245920103512216e-01
-2.055367223222945294e-02 3.180683997615281478e-02 -7.634216285762516208e-01 4.391655829581454090e-02 -4.750027648352003751e-01 -8.788877683221935078e-01
4.466956589446054171e-02 2.831797827672796058e-02 -9.515996518806718596e-01 1.865833680329339328e-01 -7.237676977191909167e-01 6.643394964261485347e-01
-9.628817428916490451e-03 1.579021759589620613e-02 -9.230131489135433576e-01 6.354767428671863616e-01 -5.321621981292036230e-01 5.594396340600175099e-01
3.633906572995367762e-02 1.422232968970953138e-01 -7.717703571436991261e-01 7.319407390025115534e-01 -5.081774729043020411e-01 -4.538925099856292444e-01
5.786613629437663275e-02 1.215686702949874132e-01 -7.645323992673258573e-01 -2.892717975658658514e-01 7.967982682051312215e-01 -5.305038613604208253e-01
-4.346894167923461005e-02 2.187262588091590243e-02 -7.746157659033657827e-01 8.118697574517012017e-01 -4.659990142735128682e-01 -3.517277578347069444e-01
-7.110221015047678284e-02 -1.050449794457969377e-01 -8.421112776993392446e-01 7.492564988624943467e-01 -1.555968340202319999e-01 -6.437424361926107341e-01
-4.101561603786785942e-02 -1.757619233506130252e-01 -9.714905913547428051e-01 1.161840128073787226e-01 -3.509696316628904689e-01 9.291510064668658808e-01
-1.586818716276061289e-02 -2.092239657847034251e-01 -9.556970236756456849e-01 -6.658858376122076539e-01 1.760005635842059879e-01 -7.249964502571929481e-01
6.084117056177545946e-02 2.284517192685285580e-02 -9.110610003683023983e-01 -4.991846896380180421e-01 7.184557370842165058e-01 -4.843924023782481547e-01
-3.196827312340082966e-02 -1.944046384290254725e-01 -9.200918498733781092e-01 -7.023819862461698760e-01 -8.581796593122761885e-02 -7.066079691882278802e-01
-4.501475303976688880e-02 -1.472223684079781436e-01 -9.816058499983292274e-01 6.362008739075788455e-01 -4.897336823322838151e-01 5.961621997648750559e-01
-6.416705675210256088e-02 -2.376104452243657517e-02 -8.208436528858082948e-01 9.383129449994209725e-01 -3.380841412279298464e-01 -7.258051182436486837e-02
-5.518801636045821829e-02 -4.134368223215514893e-02 -7.606602758486575855e-01 7.163295649417449340e-01 4.590543497779061427e-02 -6.962504186209658164e-01
1.616606278958570425e-02 -7.898022139968292887e-02 -9.537439089304546869e-01 -6.269103044333335095e-01 2.497954725629866202e-01 -7.379604949333936625e-01
1.226068269553581662e-02 6.591033566464803151e-02 -8.920723541955960512e-01 6.739512781380454509e-01 -5.990784385597601736e-01 4.323131956682496058e-01
-3.365014899093312500e-02 -8.383669698458451336e-02 -8.582502225728247947e-01 -9.314808709830890709e-01 3.432459273505188979e-01 -1.205222815493810634e-01
-3.384351014289965764e-02 -1.318313242332079804e-01 -9.185377078738444778e-01 -7.909060086316769267e-01 3.641131289478051203e-01 -4.918224423896785935e-01
-1.872774639085805423e-02 7.610521821854050739e-02 -8.254709629289876949e-01 9.134518845668371245e-01 -3.383497974649720130e-01 -2.261085339758449608e-01
-3.042682161577216909e-02 5.295555391952501238e-03 -9.056887657345050746e-01 7.341230839674830477e-01 -4.310200049522096011e-01 5.246761409832439993e-01
-5.837884474447679883e-02 -4.861584808495001547e-02 -7.753118016010166480e-01 7.436176581920280748e-01 3.204251815593641139e-01 5.868223593623991263e-01
-4.161511631388076053e-03 3.512274103979650536e-03 -7.858340059668329491e-01 -8.597077280976891389e-01 1.241022518485475346e-01 -4.954808304417328557e-01
-4.818577193510605733e-02 5.477130785125557642e-03 -8.614887002567771512e-01 6.234338287916333377e-01 -5.949386407155730083e-01 5.073246247736362680e-01
9.596947279647558005e-02 1.436823941588778464e-01 -7.467203815337812856e-01 -2.785350623243713075e-01 8.962157837200508403e-01 -3.452759592949004586e-01
6.738746073042607698e-02 7.858882794940971750e-02 -8.996404673103642891e-01 -6.369844093865494328e-01 -7.596876310916635955e-01 1.308646834130793579e-01
-3.152853415793296660e-03 -6.403338885353185295e-02 -9.833265699941620142e-01 3.914513291188717048e-01 -4.627210652757383635e-01 7.953961734136985040e-01
1.140887978531751612e-02 6.708497546083636541e-03 -8.299982837826411775e-01 -6.798258439458071400e-01 6.420693626698565915e-01 -3.543779838309590868e-01
-5.842361766723185718e-02 -1.184741198799391382e-01 -9.541423704042677478e-01 9.562312378236420551e-01 2.897735843364197539e-01 4.065820496639082487e-02
-4.296183426406995770e-02 -2.050466775680465648e-01 -9.123436026901692308e-01 -2.171837831737023494e-01 7.300961040644932121e-01 -6.479127126058007446e-01
-5.487841959365249295e-02 -2.996485298923808743e-02 -8.741668508893591927e-01 7.585580719693356677e-01 -5.524793913596309780e-01 -3.454796283039796023e-01
3.240733087150075159e-02 -8.146919569296001695e-02 -1.003113179987392023e+00 1.550915479597435587e-01 -2.780014853008385689e-01 9.479777349294540301e-01
-5.711776654496800859e-02 -3.880997309127064143e-02 -7.850356578956472209e-01 9.996243732612827282e-01 -6.644764913909975527e-03 2.658870965704247455e-02
9.757757331334991277e-03 -1.367858472123077151e-01 -1.009647256461497111e+00 -1.270157376820058200e-02 -1.100829298602459538e-01 9.938412441517986418e-01
6.352137195859160201e-02 1.979012297491769198e-02 -9.181099525610992851e-01 -5.497700377511883785e-01 6.613860021413111578e-01 -5.102170731782605939e-01
1.441650330222891269e-02 -1.555294581393309172e-01 -9.844000749412770146e-01 -8.540856768555825651e-01 -2.467554350651998685e-01 -4.578748866840430809e-01
-5.703034115934540668e-03 -2.322804735023614731e-01 -9.710331795117120857e-01 -6.602535504063306027e-01 2.667224672472400804e-01 -7.020857316890722899e-01
-7.627343774204779769e-02 -1.130825967821825068e-01 -8.511792534702992130e-01 9.346801316734194565e-01 -3.929474607854640394e-02 -3.533114410623886537e-01
8.413568613946821595e-02 2.333863537510277517e-02 -9.382795082185709790e-01 -9.225405317651006465e-01 2.136365169432011824e-01 -3.213695783345751344e-01
-3.709184066627509158e-02 -1.858074245412648096e-01 -9.854146056443501278e-01 7.307823583739017081e-01 4.439291529270352199e-01 -5.185403088198288213e-01
-5.210265804106114368e-02 3.551433707789764839e-03 -8.554880767557113685e-01 8.604581092579648427e-01 -4.755860486088404615e-01 1.828380501450342088e-01
-3.527896230636240471e-02 -1.084636815919504255e-01 -8.271966291935647364e-01 -9.422593637522647114e-01 1.775123963261712734e-01 2.839659144540376823e-01
5.393996675889967118e-02 1.465186612297784408e-01 -7.961605634802810805e-01 -1.504756571775541785e-01 -5.194793506437296315e-01 8.411291701348564409e-01
6.251759384925531515e-02 1.630490812887128715e-01 -7.811952118967886438e-01 2.345791960909461293e-01 -8.013242138740538367e-01 5.503200023808466623e-01
8.702585831375991843e-02 1.423511413922273205e-01 -7.449297827821641516e-01 -1.245025255614236603e-01 8.242400584698637012e-01 -5.523834240293806763e-01
2.457139534454831978e-02 -1.205892981748971637e-01 -1.005017944356387583e+00 -1.374122241870785466e-01 -2.145256130380668036e-01 9.670039513852057844e-01
-5.744711129089558749e-02 -8.104821990732374859e-02 -7.768015759571200718e-01 9.137978581896419872e-01 -9.973576063931283153e-02 -3.937337328928279256e-01
-1.186366917670599389e-02 -4.644215741147940391e-02 -8.426379173830944591e-01 -8.805370205967931740e-01 4.716478782272958692e-01 -4.693436184942350459e-02
-7.138148823655046660e-02 -8.234987085507373961e-02 -8.167104557686571953e-01 9.789948572844403563e-01 4.578483157037681328e-02 -1.986776751642994054e-01
-3.041376749475679583e-02 -8.520321608699393812e-02 -8.306346805343858275e-01 -8.109142598552193659e-01 3.294162807346039945e-01 4.836351694722402783e-01
5.513907653727961183e-02 6.332206908506458898e-02 -9.331236620853327057e-01 1.577595504484892164e-01 -7.685970367957546401e-01 6.199762247627533807e-01
-1.467884543150389971e-02 6.786354070769237690e-02 -8.524285755093333750e-01 2.833314583584534141e-01 -6.557506046376644360e-01 6.997959911444259218e-01
-2.790935992886312347e-02 -9.039060105994176086e-02 -8.862289545841657290e-01 -7.860096368571241054e-01 1.984596997145225139e-01 -5.854934656825412365e-01
4.431803385605836976e-02 -1.376022133240761836e-02 -9.261743893056564314e-01 -6.873966325087770279e-01 3.824194111070216007e-01 -6.174473772105217861e-01
-3.443705293744899615e-02 1.845790552637744525e-02 -8.833069031654435799e-01 1.209757734859632922e-01 -4.883252281006713602e-01 8.642356934482052777e-01
8.314689382241846616e-02 3.505912459512623702e-02 -9.312269443039875583e-01 -9.653270798204366399e-01 1.327217206840519345e-02 -2.607057314558601235e-01
1.161445997997355428e-02 1.049266422628254425e-01 -7.861092602592061329e-01 6.747772037375034948e-01 6.796794931210095592e-02 -7.348850816165091171e-01
-6.795246286613354503e-02 -1.291060338193334711e-01 -8.342424984077499994e-01 7.685080347582637916e-01 -5.398442413413988283e-02 -6.375586894262335047e-01
9.453813258524081109e-02 1.495737837063918774e-01 -7.367205317923259944e-01 3.535087223770885800e-02 6.688106995822575840e-01 -7.425917882365280498e-01
-3.548548653318413237e-02 -1.162772593344794658e-01 -9.869129948517637585e-01 5.145950410467473590e-01 -3.035337475276429497e-01 8.019097254940368291e-01
-1.371644709481684328e-02 -1.342970448607462008e-01 -1.003976127589406797e+00 3.725728214251949333e-01 -2.601421215885530436e-01 8.907949086690361007e-01
3.667387240643710244e-02 -7.474433323932390405e-02 -1.001533743192963177e+00 1.560335778712438060e-01 -3.365838340204385659e-01 9.286360133296576169e-01
4.132185948850706364e-02 9.019490010952949111e-02 -7.942122898713579460e-01 -7.279928058401933244e-01 4.942472299746527575e-01 -4.751275095248699287e-01
1.703727876361811611e-02 5.228013183722377000e-02 -7.969837474339466210e-01 -6.823575900373576308e-01 2.537842072526840798e-01 -6.855521099577595034e-01
2.856636244344650487e-03 -2.195453373051077794e-01 -9.786322037530128526e-01 -9.354968999069874780e-01 3.637419831128579917e-02 -3.514576332385275226e-01
-4.156760446851641422e-02 -2.029428069448905303e-01 -9.112053001095506977e-01 -5.944562921966980440e-01 4.069229118826119262e-01 -6.935671996661388894e-01
-3.527522442261024627e-02 -9.459362464385709379e-02 -8.709433592442297201e-01 -9.081111487973926311e-01 3.648068682352830772e-01 -2.055482676118790819e-01
7.497211882842488850e-02 1.324334791084763874e-01 -7.561615313514618020e-01 -2.999984725313152856e-01 8.336496400007540331e-01 -4.637124046275783451e-01
-5.732173108419556795e-02 -2.010617531098066457e-01 -9.495333874562877918e-01 8.377554793350200368e-01 2.569342553474696644e-01 -4.818200341135601694e-01
-4.585146331295563565e-02 -2.156309521348052927e-01 -9.454059023174906651e-01 5.615321197702228817e-01 8.069858604182655881e-01 -1.829084458174408678e-01
-2.501209107773548143e-02 -7.562121164503154969e-02 -8.770423631815900123e-01 -8.270641713418569463e-01 4.619993735179516170e-01 -3.201896865166457551e-01
-5.595095614446414511e-02 -2.048086888564950026e-01 -9.544761860975081724e-01 8.635080221342005258e-01 4.856908537709637708e-01 1.358612905617834488e-01
1.749952182435274561e-01 1.715964436830643425e-01 -7.326110139836541357e-01 -4.012042774309732551e-01 6.439699629144048920e-01 6.514121695479067053e-01
1.760823029992488950e-02 4.868799693539101192e-02 -7.988818091623672846e-01 -6.823575900373576308e-01 2.537842072526840798e-01 -6.855521099577595034e-01
-8.856984197120137958e-03 -1.975160634796390702e-01 -1.006677669421663923e+00 -1.770914976779266320e-02 2.070069256436051774e-01 9.781791854001417041e-01
-6.809610491960278733e-02 -1.842513800515684363e-01 -9.125186708977751637e-01 9.113828273662076818e-01 4.049414409324101904e-01 -7.351034891469881982e-02
-5.046859609905458843e-02 7.454596901809186753e-04 -8.007560306030434560e-01 3.655002391928872107e-01 4.233615181895487023e-01 8.289599508216198842e-01
-2.411043837766135844e-02 -1.934370475416062052e-01 -9.430256283690845454e-01 -7.768882284491305246e-01 8.232142223667991698e-02 -6.242338215269195301e-01
-7.130726423831253158e-02 -6.033837494984593819e-02 -8.166974160926363524e-01 9.913391288622676045e-01 -3.948135059940025698e-02 -1.252515650259420354e-01
6.005997215593131267e-02 1.340959975339963972e-01 -7.529038714456953718e-01 2.574207838789056568e-01 4.140284624654838042e-01 -8.731065068453202072e-01
7.378808750472551359e-02 1.732480339673735104e-01 -7.518999110324394719e-01 6.052990874039807512e-01 -7.150568209978871437e-01 -3.497238303752026045e-01
3.456038002288185085e-02 -9.081600618830937277e-02 -9.729540109362062594e-01 -6.296605632588871959e-01 2.299087350733086677e-01 -7.420711209941347475e-01
-1.671313332413696534e-02 8.059632538528295476e-02 -8.256120606578255527e-01 8.725139789491999087e-01 -4.877425993521535275e-01 -2.874914460362233345e-02
5.501993866265766225e-02 1.294997101733928180e-01 -7.566406731959640641e-01 1.654081326662078522e-01 5.071590934455678656e-01 -8.458308362689006543e-01
1.309161134764715018e-02 -3.226730930697525174e-02 -9.672421200309897493e-01 1.586106070331531337e-01 -7.637383574212461834e-01 6.257366832303117299e-01
4.784294486798524454e-02 -1.661230910449694800e-02 -9.317522384589969064e-01 -6.762391240392198188e-01 3.711314797885912897e-01 -6.363663031844151163e-01
-2.594606992284208269e-02 -8.204464158531575568e-02 -8.834833185519984644e-01 -8.376925529300373041e-01 4.176751680570722214e-01 -3.518787301813692259e-01
1.577865194948361097e-02 -5.749516135612332823e-02 -9.874152634724570055e-01 3.159249203914772375e-01 -4.914389695281370374e-01 8.115905272394209335e-01
-6.968017185731958940e-02 -1.081958385392244593e-01 -8.397664885735312001e-01 7.297607351169911327e-01 -1.577313628696662418e-01 -6.652594130478624024e-01
-2.850396163147536979e-02 -7.588781993306656370e-02 -8.353084212280839083e-01 -8.140962522676199464e-01 4.252227730360280678e-01 3.955159735527331022e-01
3.954669145805324998e-02 6.113144088448424496e-02 -8.268624208791496288e-01 -9.853056225179356309e-01 1.397565562089480018e-01 -9.818826422316793978e-02
-5.087279282819535953e-02 -1.286181473756312643e-01 -9.739387644233604702e-01 6.217897518556528835e-01 7.828526928844589117e-01 2.278520859761173217e-02
-5.655848148689634342e-02 -1.638909568857937482e-01 -9.653417741028612609e-01 4.042316899050636403e-01 -3.509144884246670482e-01 8.446631060311268202e-01
4.005790816887041042e-03 -2.295370518615024447e-01 -9.934224719415599703e-01 -9.067637189343226156e-01 1.525589447514391905e-01 3.930716555549689240e-01
-5.916908586041045442e-02 -1.671681773837417895e-01 -9.506716851473849816e-01 9.260914964242067393e-01 1.644988319933402346e-02 -3.769402361031545245e-01
4.282709290986193469e-03 -3.437609405082305697e-02 -8.792412374598657099e-01 -8.842091067435488005e-01 4.650570989068841254e-01 4.354480804973262509e-02
4.677318704289276652e-02 1.492506581878395855e-01 -7.628576520578941311e-01 7.307683389340058344e-01 -4.846368638248285121e-01 -4.807335488955067349e-01
-4.043457214652365628e-02 -1.500502227447005621e-01 -8.846301441899966367e-01 -9.655969389704327499e-01 7.191715911596094357e-02 2.499009277206068469e-01
-4.941400717984061747e-02 4.508563274434330449e-03 -7.671944657830590542e-01 7.905253569056011065e-01 -4.164627658093905116e-01 -4.490305388096277328e-01
1.784507903131627273e-03 -1.479207987686756431e-02 -9.429903359341793578e-01 7.134061939842168965e-01 7.931033070620634173e-02 6.962481409872676164e-01
4.868939984384693109e-02 3.491132166054077804e-04 -9.740459889491245304e-01 3.200233938945387102e-01 -4.576093420003636836e-01 8.295653786617512848e-01
-3.971343303590610559e-03 -7.891415577666473224e-02 -9.239108257033132876e-01 -8.714753232585843445e-01 -1.190241480716437844e-01 -4.757772726046984313e-01
-3.467256349122286446e-02 -9.855565948436298407e-03 -7.515350300585735832e-01 8.011753706690240284e-02 -1.249478692777441502e-01 -9.889232580019973184e-01
-5.550534254178302040e-02 -1.721658571387215397e-01 -9.689709196334329588e-01 6.385941870716947966e-01 -1.879408907850956822e-01 7.462410373392406315e-01
1.866197209617817196e-02 5.905062883752740938e-02 -7.957068459575958874e-01 -6.220337941736154841e-01 3.411196582880183792e-01 -7.047775093144229563e-01
7.849820546896049689e-03 2.000806484805982624e-02 -9.368088315391978060e-01 5.280885640299127770e-01 -5.535192837809276289e-01 6.440022290516344006e-01
2.128388044288485187e-02 9.375033514688031408e-03 -8.495405237691223688e-01 -9.119331580282473704e-01 3.942047728932908113e-01 1.139320513147053654e-01
-5.869117826711348768e-02 -4.040111659415904222e-02 -9.019856314409360198e-01 9.959353464435564129e-01 -6.765235062302568658e-02 -5.946381386635477689e-02
7.661433460960097308e-02 2.349265243386944313e-02 -9.241641471184265377e-01 -5.852879286518345436e-01 6.374542606764209696e-01 -5.010889203723450924e-01
-6.993239932978366491e-02 -5.844012540409319889e-02 -8.093340862081884746e-01 9.799458686863961043e-01 -5.589031826968763467e-02 -1.912651739553694052e-01
3.022416249945537176e-02 3.941972005409158375e-02 -9.303782814420235026e-01 1.500474287742330493e-01 -8.948531340619492180e-01 4.203851062748879541e-01
-7.794440017518626529e-02 -7.938186814497538712e-02 -8.736674612892399994e-01 9.879993912490709906e-01 -1.279040280106358285e-01 -8.658962126098053436e-02
-1.010383121769437183e-02 -6.090924140253323876e-02 -9.777544385979216601e-01 4.440499882377225704e-01 -4.750178352303018880e-01 7.597220966637711070e-01
-5.192301684953210678e-02 -9.573178825389223878e-03 -8.802680123149976277e-01 9.051547242370509005e-01 1.578705792564690513e-01 -3.946793703711601320e-01
-4.218148720195195878e-02 -1.553883585403162404e-01 -9.070841392566701966e-01 -9.905943720614222014e-01 6.035155075010686238e-02 -1.228026073106504718e-01
3.260580692924058138e-02 6.545583865064522056e-02 -9.171653967750799108e-01 4.955871450332152706e-01 -6.700027807874758823e-01 5.527111862581364221e-01
4.602502433635043827e-02 1.115802788481829039e-01 -7.726377963884094591e-01 -2.422921529707566524e-01 7.560334604780590828e-01 -6.080361167285760482e-01
-1.752663376970136494e-02 -4.603956522682015051e-02 -8.158984296682751935e-01 -9.395317872636891332e-01 3.196473375987785026e-01 -1.229048424070860041e-01
5.637828238925891161e-02 2.697350079006391801e-02 -8.997440368819065171e-01 -4.778161018817094763e-01 7.512702448484556150e-01 -4.552853961944192118e-01
-7.751872884279899234e-02 -1.064929089676749652e-01 -9.185213272852177369e-01 9.799398897268634112e-01 -1.617360473721106695e-01 -1.164442506204109579e-01
1.698463824786005105e-01 1.761792262756963490e-01 -7.032532847155998912e-01 2.405263852326177954e-01 2.808886249922998846e-01 -9.291117469695803210e-01
-7.249144435869864234e-02 -6.793630598718305991e-02 -9.111468967722616830e-01 8.589798028810982089e-01 -3.640715915942683845e-01 3.600077421894785079e-01
-7.164183320759041906e-02 -1.112269402838850507e-01 -9.422557882310628186e-01 6.330036513128732834e-01 -3.505534013505531288e-01 6.902308963137830933e-01
2.261951160902106461e-02 -7.316421477184334443e-02 -9.978474721434629213e-01 2.456494883745456159e-01 -4.015987086556284114e-01 8.822555219818437600e-01
-7.936912508354052390e-03 -1.776831410646467768e-01 -9.574529513154151905e-01 -8.836736937170078798e-01 -8.276270792959601261e-03 -4.680302408758448829e-01
-2.558457400998690248e-02 -2.070755671125661113e-01 -9.894093703385461458e-01 7.143380322880985567e-01 4.659257714553566299e-01 -5.221439946226503759e-01
7.767554304960682873e-03 -2.446407834969848566e-02 -9.542200629339150364e-01 2.478864822402937484e-01 -8.309383095814142361e-01 4.980901701424296224e-01
9.728691064815922843e-03 1.155705076723279913e-02 -8.052126811039501675e-01 -8.547370195023462625e-01 4.088107346681363330e-01 -3.198412273493589919e-01
-7.977734894890159412e-02 -8.592307886927397220e-02 -8.860608829306857448e-01 9.899137619503408647e-01 -1.346429460308031512e-01 -4.406836717499200418e-02
8.548308674410125263e-02 2.267647487753914406e-02 -9.633273620391104020e-01 -8.153327827410760120e-01 -3.607280130652628092e-01 4.528882356362118888e-01
-6.848234956521348504e-02 -8.877093843149953811e-02 -9.295919838491261133e-01 3.189176719001647897e-01 -6.052380776822792185e-01 7.293684856595040733e-01
-2.968743864354344425e-02 -7.361553300296769242e-02 -8.502120232922567578e-01 -9.037625127641437661e-01 4.279861077329564223e-01 6.419665866318025743e-03
4.867548405098628961e-02 7.659418032359470441e-02 -9.121517896555589866e-01 1.946065450120171847e-01 -8.354508020573406801e-01 5.139554941629014273e-01
-2.390274681032307849e-02 -6.195484718141508473e-02 -8.017424103553336678e-01 -9.600110597379565291e-01 2.656520505643052976e-01 -8.836149167926843351e-02
-6.547289757486865480e-02 -1.820981019753481478e-01 -8.950496250156168010e-01 7.965522655107680761e-01 4.201630325958329304e-01 -4.347039387324848070e-01
2.975664304815545894e-03 -7.230785486027334341e-02 -9.904656418532130635e-01 3.569446107599749674e-01 -4.090660648648323239e-01 8.397949150985677402e-01
3.009181942487821476e-02 7.488409686523547770e-02 -9.019684687732039130e-01 4.735840870709643879e-01 -7.310058258529354980e-01 4.912724244675542029e-01
8.628540467859376756e-03 8.274812040506404620e-02 -7.925037737991098563e-01 6.467179494490002956e-01 -2.425069055448184855e-03 -7.627253849850264000e-01
-6.025418453526495272e-02 -1.065971030422016436e-01 -9.595917571070983199e-01 8.447321100825149198e-01 -2.560386911770817786e-01 4.699700531053744856e-01
-3.554853701259984289e-02 4.047031802338234285e-02 -8.113016823056102833e-01 8.392120971857924827e-01 -5.313030579907317419e-01 1.159315164513985280e-01
1.475557146063712945e-02 7.306839082216579073e-02 -8.852539455687928882e-01 6.453172828824254026e-01 -6.441136921086143552e-01 4.107105502071417558e-01
1.479965693783251712e-01 2.038941468312207295e-01 -7.316806016292994874e-01 1.864818549347106169e-01 -9.689203473521937893e-01 -1.625357753450416554e-01
1.414358276495541501e-02 5.009812856993406394e-02 -7.947169504759180603e-01 -6.993134446269257953e-01 2.510499817140383061e-01 -6.692791740711828696e-01
7.297241496972783903e-02 -1.386109623342873624e-02 -9.838884104638028205e-01 -1.791349123350512995e-01 -2.964650296346384439e-01 9.380933692263506707e-01
2.965982476566086240e-02 9.293683813004631478e-02 -8.428539098070690905e-01 1.285355362244212096e-01 -9.858414462603578565e-01 1.076812832519485896e-01
-4.108769470844947369e-02 -1.304014367509201411e-01 -8.406243320968957988e-01 -9.874543127797144049e-01 1.169300807076160131e-01 1.061194440168828773e-01
-1.794573412487671105e-02 -2.102581952219295114e-01 -1.002402892737771056e+00 2.731362414611549494e-01 2.363721093690922259e-01 9.324831470396016675e-01
-1.904782086938449845e-02 1.741681308806447906e-02 -9.097875595064368603e-01 6.811435207006246717e-01 -5.255540055125188514e-01 5.097415928657428319e-01
8.999000181752482563e-02 1.778953012142403811e-01 -7.688728459518857639e-01 8.435550741130937169e-02 -7.772846168288696234e-01 6.234683414661706946e-01
-1.237931564213837730e-02 -2.778667107986959595e-02 -7.929396163829744992e-01 -9.224937314184499249e-01 3.856647726745192073e-01 1.637066313795791650e-02
-5.821604362494537527e-02 -8.565848918944612284e-03 -8.515596171908816903e-01 9.140506286570909689e-01 -3.892720116329172475e-01 1.139243135192775092e-01
2.776692533435979812e-02 -1.315187796493147432e-01 -9.941575224671894695e-01 -6.290739019855898784e-01 4.962480251239075324e-01 -5.983342906780841908e-01
-5.843879682074191312e-02 -1.863916601721490318e-01 -9.663191471018605094e-01 8.726122723551839044e-01 7.078351259349581481e-02 4.832571949594220984e-01
1.905118956588178758e-01 1.771091177855707299e-01 -7.234324436439603101e-01 -8.218020866481847708e-01 4.731770543325711786e-01 3.174032224692125426e-01
6.202441219151147433e-02 -3.834837828394216386e-02 -9.920855074663679218e-01 -5.981932349031119506e-02 -1.365103712601270225e-01 9.888309092436298187e-01
1.564674885813251703e-01 1.808363526817566846e-01 -7.058964043545763456e-01 2.750053262110284114e-01 1.440447304119712169e-01 -9.505909668180674288e-01
-1.915291005438205657e-02 -6.854896270054262886e-02 -8.797808185941558001e-01 -6.701847081535911022e-01 5.442050273089228396e-01 -5.046715220901418775e-01
-1.910297986565876252e-02 -1.568366601327772156e-02 -9.225423430515443668e-01 5.741470755753685928e-01 -5.881725816486155223e-01 5.695683890500370383e-01
-2.576587788174030183e-02 5.379205730183720530e-02 -8.288944134395118679e-01 8.977269469712365613e-01 -3.728843278714150111e-01 -2.346137393879257071e-01
6.861384292679471864e-02 -4.432198228801868117e-03 -9.476337891894788257e-01 -7.366775223518614579e-01 3.675817845852367705e-01 -5.676177055929944038e-01
-6.554446889039755239e-03 -1.755776866506983391e-01 -9.610883337362198242e-01 -9.393825464055741703e-01 -1.240482151748255463e-01 -3.196442895165174103e-01
2.000981276695059860e-02 -1.122372329151350573e-01 -1.003517589556782941e+00 4.262559504250334474e-01 1.857273789214293758e-01 8.853311275710502581e-01
4.009206373616481384e-02 1.101093182441023333e-01 -8.144787259323889028e-01 -5.606952674735848907e-01 -2.447925434750451712e-01 7.910103840606285130e-01
-1.387978156649285555e-03 -6.183728533107722691e-02 -9.828655106820702869e-01 3.595026367740380979e-01 -4.775761197600820185e-01 8.016725665678087198e-01
4.501075484112235237e-02 -7.692369628253363512e-02 -9.746971034448934645e-01 -5.688791714208827344e-01 4.371744064582052669e-01 -6.966024882681699504e-01
-2.316679588148991623e-03 -1.760607842083550256e-01 -9.712201077796791537e-01 -9.402621279117416853e-01 3.630976410651155090e-02 -3.385095742300551769e-01
6.422470558763855586e-02 1.632636269825569475e-01 -7.517116655695962324e-01 6.899828070040435746e-01 -5.597841092058342127e-01 -4.588741408267103528e-01
4.575186818199793171e-02 7.575203597939430579e-03 -9.106321947079204504e-01 -6.880715829555676954e-01 5.084306490234585807e-01 -5.177410277953680140e-01
6.496517139700899723e-02 -6.902402303184014543e-02 -9.901933543040752905e-01 -7.904033777135744954e-01 6.125708907873275155e-01 4.405026559796402195e-03
-4.640793489264322114e-02 -1.356528191236311132e-01 -9.645872087184671484e-01 9.498579156481257169e-01 1.126573471392084136e-01 2.916817824550485549e-01
-5.196516331723119442e-02 -1.172624157243060405e-01 -9.748925888965501718e-01 6.557031883638926306e-01 -2.761642397441355090e-01 7.026995385340517597e-01
-5.318536608092236731e-03 -2.753460806742586212e-02 -8.409133440148690575e-01 -8.701471163932915642e-01 3.673311977898007785e-01 -3.284992952241290731e-01
-2.180125527749013359e-02 -2.039670868295325248e-02 -9.339202072753102213e-01 3.638464876598543341e-01 -9.020606685481047382e-01 2.321686535175104260e-01
1.187881665785794037e-02 1.012430920585338234e-01 -7.863602438782778536e-01 5.941557681682555492e-01 1.657352893702734309e-01 -7.870900437750066869e-01
-2.902893467279085357e-02 -1.846806284286890976e-01 -9.328630808709948985e-01 -9.517072431370202645e-01 4.263244897619584972e-02 -3.040325601885833784e-01
-5.793016698748516130e-02 -4.223513249569094477e-03 -7.931506314354337395e-01 8.526946259968599673e-01 1.025774103156701410e-03 5.224086739168526394e-01
4.205820999216190736e-02 -2.495135468727101291e-03 -9.147358756717264283e-01 -7.490399049918814445e-01 4.109767205605328599e-01 -5.196511867465165579e-01
-7.924074221889049197e-02 -1.060318044760554107e-01 -8.663070431917713199e-01 9.890838067259740685e-01 -1.904557332225830651e-02 -1.461180666765145575e-01
2.622859410328428091e-04 6.807198267818245774e-02 -8.665016288298192926e-01 6.950801184759800577e-01 -6.420717961088567849e-01 3.234307306688158912e-01
4.271968326611615824e-02 -8.985985589823781983e-02 -9.797678890329837298e-01 -6.592424295236199994e-01 3.082974252713291952e-01 -6.858222194467484822e-01
-4.735651111172399508e-02 1.965179109548833083e-02 -7.838952057400545570e-01 8.742242725090118016e-01 -4.631993146139589124e-01 -1.455277165946325668e-01
7.400142299427700521e-02 1.286182463167749590e-01 -7.691398542750348399e-01 -6.117179592800382482e-01 7.860216930370782507e-01 8.928066066842563209e-02
-7.953828961943472386e-03 -1.290976422199861806e-01 -1.004725233009065244e+00 3.304071178845547907e-01 -2.505528365563957638e-01 9.099749516029359553e-01
5.455450444842138702e-02 1.617095367040037868e-01 -7.710606345818320495e-01 6.274489001712916236e-01 -7.786025693668177095e-01 -9.269123433550281385e-03
-6.611943320666564816e-02 -1.649343090004279366e-01 -9.435248168065443197e-01 -1.515432990023968945e-02 2.560860083961722933e-01 9.665352050437635567e-01
3.764612949778115003e-02 5.622174276728832132e-02 -9.311105917279450805e-01 5.098208127684579205e-01 -5.709958994859397619e-01 6.434643903421163325e-01
-5.928935423022239221e-02 -3.701018768465594300e-02 -7.661639346201204459e-01 8.656255815564092293e-01 1.955286599313365778e-02 -5.003099419225877087e-01
-6.767171542799794992e-02 -9.061021904208667321e-02 -8.046665227827031197e-01 9.607551554656760251e-01 1.061443842853238007e-01 -2.562867552777830515e-01
1.035764456341475709e-01 1.524003431165381062e-01 -7.339940398420612411e-01 -4.114277522038085194e-02 7.529839789886840773e-01 -6.567513985013919697e-01
1.682207618599229904e-01 1.718225540166013199e-01 -7.367345448524165175e-01 -3.499337413205991787e-01 6.666112781347717231e-01 6.581609077945101971e-01
-8.067705484125314852e-02 -9.576971266231525115e-02 -8.826454979068386608e-01 9.938604048208581343e-01 -7.166751352472483516e-02 -8.429272349677452425e-02
9.179357600745652324e-02 1.534812040693570301e-01 -7.765816936752670818e-01 -6.102192536806353429e-01 2.722836274733941297e-01 7.439718332352229790e-01
8.100619335799273679e-03 8.770042541515694901e-02 -8.379130169515439652e-01 -2.665553188557934217e-02 -6.547012930812000642e-01 7.554175662888051868e-01
-5.656199833147389916e-02 -3.377943691456622433e-02 -8.615193534906456785e-01 8.827839191770591176e-01 -8.442809673242324120e-02 4.621303371609918331e-01
3.538004350620919947e-02 1.448107054129203763e-01 -7.903607821435494341e-01 6.224460076402222874e-01 -7.680535313386449570e-01 1.505149181011149195e-01
-1.086012664064100498e-02 -7.517695948490300817e-02 -9.034119366237982618e-01 -9.757310812293646940e-01 1.466000289414075286e-01 1.626569661507103470e-01
-8.408197451558409655e-03 -1.378142981867659378e-01 -1.006850651459330059e+00 3.239850173832767855e-01 -2.404069205977590329e-01 9.150072245834239837e-01
-1.084187861696908790e-02 5.126778601938034724e-02 -8.690270779798519030e-01 5.389716156285707660e-01 -3.826770316473022127e-01 7.503784958248321812e-01
8.481771692998178735e-02 1.405813853053335949e-01 -7.469776244328791837e-01 -1.978667150305308542e-01 8.304466147612734606e-01 -5.207755592523211075e-01
7.808873528950664722e-02 1.335430310289057454e-01 -7.748144164795086608e-01 -6.763272102860035107e-01 6.410796799541841340e-01 3.627648667892095502e-01
3.514010009657803774e-02 8.774242894042939833e-02 -8.814216997886610283e-01 2.948876128320127021e-01 -8.973877481269457723e-01 3.282324257441452953e-01
7.086484215176289125e-02 7.081072190774280808e-03 -9.756917601688239738e-01 2.756000643498667316e-02 -4.398600295118954562e-01 8.976433592931536420e-01
4.178528183302335219e-02 8.748098215485110296e-02 -8.169007585766088209e-01 -9.794172660396447405e-01 2.347855297093588006e-02 2.004758751915519943e-01
1.180361659018493992e-01 1.555206916531975125e-01 -7.501413366894460477e-01 -4.914712805614395719e-01 7.738546031681787785e-01 3.995059868621738675e-01
8.996208638494443410e-02 1.709618116844835167e-01 -7.324928789689304498e-01 5.051042861912847792e-01 -2.279461007178576748e-01 -8.324122988271598356e-01
5.669991104199043064e-02 5.820875577885356589e-02 -8.735540197647383431e-01 -8.373203097636464642e-01 2.719761795954149242e-01 -4.742611691779057281e-01
-6.407954296321591303e-02 -1.154937812225936972e-01 -8.270489006000538712e-01 9.317995283528209827e-01 2.090368255549483745e-01 2.967376695388878050e-01
-7.163083909892720147e-02 -1.271536699133456183e-01 -8.398565244289054599e-01 8.729295780414020323e-01 -3.467428298837671452e-03 -4.878339150996499063e-01
-3.224220992303656469e-02 -9.494465935793237887e-02 -8.034784136991668380e-01 -9.204610025503806581e-01 2.764070491394758911e-01 -2.763162788725191388e-01
-7.417300106423545258e-02 -1.672590579060501403e-01 -9.066945305039050274e-01 9.594397354236613440e-01 2.777557468878061875e-01 -4.824043077099977872e-02
-4.812381155492794632e-02 6.142255432047664249e-03 -8.222913914540217473e-01 6.173073661869239448e-01 -6.702862478162794346e-01 -4.118834321015305000e-01
-1.947994111847256918e-02 -1.285025790957025349e-01 -9.259097232766229091e-01 -4.187630831068324122e-01 4.218638765814750613e-01 -8.041569186809937042e-01
2.027893364805826576e-02 3.369217512345927534e-02 -8.095441127520485169e-01 -6.692492701577675840e-01 4.220807238612126477e-01 -6.115171926757987375e-01
