1.430007176796361038e-03 -1.257341592541546538e-01 -8.818548401878304466e-01 8.753945067486949005e-01 -4.084175567709132926e-01 -2.586108212652494798e-01
-6.899248870681448653e-02 -5.134097784267552950e-02 -9.079807506826215180e-01 3.856463440173827917e-01 -6.668816951747997823e-01 6.376093647264065023e-01
-2.062068330336085803e-02 8.911544280652350380e-02 -6.732534496794225776e-01 -1.067228207611208568e-01 7.745831850785480643e-01 -6.234028624592299339e-01
-5.319999741761692602e-02 -1.928389825017974221e-02 -8.954269655014506224e-01 -1.143818735953629206e-01 -4.419731024744092962e-01 8.897058860555883131e-01
4.154125953264373172e-02 -7.535294355569105429e-02 -8.901877234374085957e-01 -7.362855382812143468e-01 -3.938000658263393627e-01 5.502773067037318722e-01
-2.895359731403655216e-03 -4.326558874281067994e-03 -7.518280954267112515e-01 6.516788081125181042e-01 6.487865268136758790e-01 -3.929259137319595641e-01
-4.179994027437491239e-02 -5.189605084877189217e-02 -9.132517989981921991e-01 -7.663370783145824483e-02 -4.453302413867258891e-01 8.920808544803788820e-01
-5.859515665277986729e-02 1.116243330745961132e-01 -6.224782679509576200e-01 3.258104147681427643e-01 9.443974790835348854e-01 -4.428289883550086403e-02
7.233851047459097239e-02 -4.787567171890012158e-02 -7.467721036491844488e-01 -9.746996158366822982e-01 -2.208070560172970265e-01 3.471171129169192682e-02
5.640502801480582612e-02 -1.896298925389434120e-01 -8.840561863236073847e-01 -9.206127162091841676e-01 2.975226328060582293e-01 2.528883344919243825e-01
4.417681427547542200e-02 -1.561341671897537864e-01 -8.992483443580547853e-01 -1.283275919840636807e-05 -3.351946376033727026e-01 9.421489026461071781e-01
7.344671638929635427e-02 -1.331595982200894646e-01 -8.207548427089982335e-01 -9.026045810262361968e-01 1.501044202753030188e-01 4.034521450237532059e-01
-3.175147075097973365e-02 -1.972856857903694180e-02 -8.192060222112629297e-01 3.544356360580722676e-01 8.846600708889483800e-01 -3.029058250791337725e-01
3.245426965606772185e-02 7.489523326058045681e-03 -8.230201190157138136e-01 -1.688314888240586079e-02 -5.568869401809618536e-01 8.304166996994341021e-01
7.119022869225813399e-02 -1.158429815572283306e-01 -7.647104074189087219e-01 -8.772521611364728633e-01 -1.745984775492430419e-01 -4.471510006909008572e-01
-1.142118490496633020e-02 8.744745454389288297e-02 -6.788915020117926025e-01 -4.775758686649144158e-01 5.689964209342763812e-01 -6.694507917934939822e-01
5.276214380167666695e-02 -1.869313591950996500e-01 -8.287199193860426139e-01 -1.857677069899860423e-01 8.812713243521633766e-01 -4.345701461378436714e-01
-4.026545781862453550e-03 1.110279650938779394e-02 -7.163941203899425458e-01 7.620242650014881214e-01 4.248437763207742468e-01 -4.886990743498966228e-01
1.781909139936676753e-02 -1.559547014553068923e-03 -8.355540714383796752e-01 -3.136941107636296855e-01 -8.349401919321506327e-01 4.521845649383879340e-01
4.204464314712965528e-02 -1.155508417274299787e-01 -7.752892053814077755e-01 9.817875477521385008e-01 1.791566310264158801e-01 -6.321481343883529613e-02
-7.858450525408806897e-02 7.805598834310976952e-02 -7.977672775738826605e-01 7.092196459836920264e-01 -6.938840121022000762e-01 -1.246293364329621456e-01
4.798761499577224032e-02 1.565181641297131408e-03 -7.351429232093155131e-01 -6.399736344016545564e-01 -6.597235529700884449e-01 -3.939525110051464996e-01
-7.151823541708289197e-03 -1.686644641108789311e-01 -9.048239413771842488e-01 7.706417217189728275e-01 1.392435550814968837e-01 -6.218702188674766207e-01
-1.243326072385922410e-02 7.018547203538734458e-02 -6.906345129494005919e-01 -1.727303893419457892e-01 4.626501861775842994e-01 -8.695510438310255497e-01
2.837113686735272255e-02 -4.246357098482728132e-02 -7.268236151004218160e-01 8.844747381863271585e-01 4.126479788725590514e-01 -2.177753040237112858e-01
7.310550192984477391e-02 -1.334343200795142792e-01 -7.751804134539265201e-01 -9.874846984932120764e-01 1.033339671104067797e-01 -1.191472260818328410e-01
-3.089336389521648435e-02 -4.016889414850662726e-02 -9.049174146046664591e-01 -1.516082659622606243e-01 -5.525770403885824633e-01 8.195569218347872331e-01
7.499116312325292133e-02 -1.312328761950327105e-01 -7.944739715132732583e-01 -9.980926826033978960e-01 4.327804139485152274e-02 -4.402281302436047289e-02
-3.412628247369389745e-02 1.145768516645448154e-01 -6.216801055171182755e-01 -6.590252230086171004e-01 5.718981357592621828e-01 -4.884856986171887683e-01
4.099619382932608025e-02 1.625302122504847582e-02 -6.777560195025477130e-01 -5.126120131698689297e-01 -4.139000037364044537e-01 -7.522736941173326919e-01
8.380092999633940304e-03 -1.401909222893063800e-01 -9.300823529269811596e-01 -7.084487725146245696e-01 4.545429112595579801e-01 5.398991373823515127e-01
1.151747934767206405e-03 -7.053284069562349747e-03 -7.489808538285406270e-01 6.886342103953729810e-01 6.307562460233736568e-01 -3.576723114467241227e-01
3.246691763360750813e-03 8.676710397199471902e-02 -6.990187181219092993e-01 -8.792370416267564215e-01 2.416884879313290768e-01 -4.105227148805495885e-01
-4.610863122437459938e-02 -9.991570538656793787e-02 -8.993920185096051512e-01 4.565632884890410970e-01 3.920218584399634554e-01 -7.986669056054280791e-01
3.325077207333763246e-02 -7.988721487242476937e-02 -9.013431158505781360e-01 -5.856966436903310314e-01 -4.178106665211426263e-01 6.945456705725260305e-01
7.426868950742224196e-02 -1.332036952121513074e-01 -7.860249764437484687e-01 -9.928309443548359869e-01 7.943482400774692920e-02 -8.931307108336843104e-02
4.949070065751786686e-03 -8.501844560699163555e-02 -9.163552193252573197e-01 1.299431233395269281e-01 -7.380305588295043018e-01 6.621372055175409610e-01
-5.540450154142974315e-02 -6.964731941555180050e-02 -8.900605538117294380e-01 3.648567018051262489e-01 5.441702397938430469e-01 -7.554854977235477831e-01
-9.483849736423384524e-02 5.423026061687614974e-02 -8.343935219242047951e-01 8.443193910160348148e-01 -5.013811523490462330e-01 1.890547699040006357e-01
-8.056521232648053421e-02 1.454861159181395358e-01 -5.405032773651884392e-01 -2.950435051429818878e-01 -8.368168713365100597e-01 -4.611798498628471576e-01
4.587483447316305363e-02 -9.670231832565438779e-02 -8.847661934345329993e-01 -6.374679722499255741e-01 -2.384028030660189368e-01 7.326654678950231814e-01
7.739739649613896350e-03 -2.389203538788372758e-02 -8.800495629570538325e-01 -3.842976499122705558e-01 -6.110584511661727447e-01 6.920425460405623674e-01
5.565472209459971370e-02 -1.152018758113095148e-01 -7.222151622711123764e-01 6.660361002920482942e-01 4.394633309266874899e-01 -6.027170927380283150e-01
-4.932907907229769351e-02 5.512490827663141246e-02 -8.342311152568024912e-01 -7.233614588490956399e-01 3.516811592890901061e-01 5.941957270569939720e-01
-6.834124000658252374e-02 -3.371724434575507773e-02 -9.036262110977559825e-01 -2.050509589981520941e-01 -2.901412137974316297e-01 9.347578190473140314e-01
9.406107016834409223e-03 -1.284811040054772979e-01 -8.627206362426906860e-01 4.761831182533453055e-01 3.407687756459009676e-01 -8.106332582834943068e-01
1.191712827270199719e-02 -7.525590387913665136e-02 -9.056204439444590637e-01 2.085157829353112835e-01 -7.957737201380776781e-01 5.685642924106988350e-01
2.677413163449934158e-03 -1.094118550780642379e-01 -9.279894514087422275e-01 -2.636341648491268286e-01 -2.554820746691228162e-01 9.301752182503382205e-01
-1.097499275299354538e-01 1.421065811602353346e-01 -5.531806991508321225e-01 7.277307890911483002e-01 -6.122568950633306972e-01 3.091106485648528746e-01
-3.274351203896224555e-02 9.067713099639651553e-02 -6.741954795265664435e-01 3.725815649740316093e-01 8.043886571219517334e-01 -4.627546496093199457e-01
-2.385356934621752495e-02 8.804813381248814685e-02 -7.557194296051157334e-01 -4.013158442428724215e-01 -9.027220648162719296e-01 1.550434353769204743e-01
7.052550692132070198e-02 -7.593341167720744911e-02 -6.956193466842119921e-01 -9.146903311096933331e-01 1.415397502257232654e-01 -3.785605595944709911e-01
3.338010873040234139e-02 4.322904193918200577e-02 -6.975458067340120083e-01 -6.800502095483895726e-01 -6.702717659077858103e-01 -2.970984219413660976e-01
-3.757826423806584493e-02 3.159866952160914066e-02 -7.484617864225352468e-01 7.622186199898817183e-01 5.694440344797876419e-01 -3.078250589801008186e-01
-3.903574257299531614e-02 -1.326078007245236681e-02 -8.823173879604627734e-01 -7.840615261190662100e-01 5.443972800529719436e-01 2.981260215592843599e-01
-1.648953018118990213e-02 1.082711657364179708e-01 -6.520533030703279387e-01 -7.306727417581850847e-01 4.541821267364086201e-01 -5.097410521085873336e-01
-1.062591978657379949e-01 1.457050254629513875e-01 -5.404284236205409986e-01 3.379006003361170185e-01 -9.200520277070273201e-01 -1.983114989219723623e-01
3.278141875276587708e-02 3.575054423305707579e-02 -7.818675016777810738e-01 -9.667305289358191223e-01 -2.415482275042199478e-01 -8.418157882245329293e-02
-4.256218182918212328e-02 -6.323730337337726826e-02 -8.797384635468861180e-01 3.655787429242842723e-01 5.304617326978142700e-01 -7.648284336144496320e-01
-7.293396667879389894e-02 4.874727343474954955e-02 -8.537506411723320143e-01 -3.914248114788944355e-02 -5.723217392224878575e-01 8.190944347161283057e-01
1.321986701396582302e-02 -1.414496001795827185e-02 -7.263369831249582020e-01 8.192463511982895907e-01 5.587442862086803297e-01 -1.289970491036171729e-01
4.487074219595736852e-04 2.603993608930397011e-02 -7.017816448153919584e-01 7.408127852691438475e-01 3.526043443508023456e-01 -5.717224794659678810e-01
5.182068462346434146e-02 -1.221162771142194625e-01 -8.852340208800347776e-01 1.287935464325619117e-01 2.150889650466226155e-01 9.680645430509766669e-01
-1.745688234141240872e-02 7.736109595976781161e-02 -7.784492858924982883e-01 -5.683985166790995747e-01 -7.560976433578000533e-01 3.244063500392375676e-01
-6.196546319554525895e-02 8.759895966387859501e-02 -7.820541193956360715e-01 4.081886194387120970e-01 -9.110108727435062281e-01 -5.866208915333240292e-02
-3.938235526706504799e-03 -1.430198541304390780e-01 -8.928333193511918120e-01 6.160851760113533748e-01 2.977823548240697837e-01 -7.292219998426346939e-01
-5.550516917429151875e-02 8.934671464222923576e-02 -7.745215472272134472e-01 2.564492117676011040e-01 -9.615464004418434740e-01 -9.829710871185604049e-02
2.168636399178710400e-02 -4.395072267006708971e-02 -7.484286099970545170e-01 8.574384599649992333e-01 3.425559803394424008e-01 -3.839982912807478055e-01
3.513452022548481379e-02 -1.114292640652509159e-01 -9.139966334725129204e-01 -6.744880919157001387e-01 -8.834735036495172666e-02 7.329805997073935986e-01
-9.815684754282867630e-02 4.265724343136769597e-02 -8.416154671847997371e-01 9.802427566684611682e-01 -1.835743904654125180e-01 7.365175601618803580e-02
-6.467688761129186670e-02 2.347241619259079343e-02 -8.697736639418920390e-01 -7.424399477979073958e-02 -6.380284218263407858e-01 7.664251836813085195e-01
-1.026341523579064746e-01 1.189729401500295991e-01 -5.680771698530835412e-01 5.324338092422603586e-01 6.700091479706786757e-01 5.173026004297500702e-01
-6.511893183750286406e-04 -2.282556431763410332e-01 -9.039527554621789029e-01 8.363416829063429203e-01 2.170887271748230818e-01 -5.033935577329144984e-01
3.584985110769173255e-02 -7.304288276965797966e-02 -7.373034307103226714e-01 9.271202835093915740e-01 1.914429438069649714e-01 -3.221763169011475081e-01
5.952262032582263974e-03 -6.339375657436241429e-02 -9.061504289035846593e-01 -7.663903099925623019e-01 3.414948803853929404e-01 5.440837614008254830e-01
2.493287114113415526e-02 4.573424502543139286e-02 -7.855012775446132967e-01 -5.075967668672327626e-01 -7.141680596660328062e-01 4.819849632704178433e-01
-1.066124750742417082e-01 1.461575943020195778e-01 -5.436633869489930770e-01 3.854734100559290555e-01 -9.189454915425930848e-01 -8.336326357212714422e-02
2.211114718234913346e-02 8.607271090332550140e-03 -8.228415283638150779e-01 -6.708362796074063272e-01 -4.204209019277933557e-01 6.109213952586000085e-01
6.377523219263164789e-02 -9.641580337293598202e-02 -8.366934537084440571e-01 -4.606922897418821439e-01 2.744425009246140856e-01 8.440639358831918404e-01
5.445725336782358122e-02 -3.684693284701588689e-02 -7.866750732386048606e-01 -6.584052298998620545e-01 5.786184166395771933e-02 7.504362468056595681e-01
-2.701237165608261562e-02 1.263015333405828888e-01 -6.847332123115247304e-01 -1.051898111108251488e-01 -9.199630045881760365e-01 3.776283541096523422e-01
-7.323819188726707341e-02 1.385155038111507142e-01 -6.232269025086708547e-01 7.766279802897391171e-01 -3.960724451982949867e-01 4.898730431302832922e-01
-3.552887302898973670e-02 1.377215927528499806e-01 -6.111577796378657723e-01 -8.388124066791938782e-01 -4.392140882495159104e-01 -3.216904274053011825e-01
6.701070532095816656e-02 -1.021019842783239956e-01 -8.336389444906375790e-01 -2.693130386507914809e-01 2.893537184196129375e-01 9.185558844454815297e-01
-9.513723267280443929e-02 1.394977136528167683e-01 -5.841229173352259219e-01 8.271745048772177755e-01 -3.115422780828158711e-01 4.676791073461575854e-01
5.650957016298194246e-02 -1.890960683425949862e-01 -8.407251402289476205e-01 -7.204785128146771189e-01 6.735224317743929712e-01 -1.651612741203561663e-01
-7.980300731958718530e-02 4.651903266216776689e-02 -8.018007045144116551e-01 7.690614443922325627e-01 1.623781408203217036e-01 -6.182053333101137360e-01
6.218509927483153316e-02 -9.722829801647742132e-02 -8.660011992238348943e-01 -9.293155344461720979e-01 -2.495152668056259682e-01 2.722402781881156364e-01
5.734559866722298976e-02 -4.509205417180152387e-02 -7.826903065034191975e-01 -7.385263064704465918e-01 1.409093420507956385e-01 6.593356140645914021e-01
-4.033102679482407360e-02 1.117967460243827066e-01 -6.929758739582733140e-01 8.384834119010586839e-01 -2.227900675194676716e-01 4.973028793214759324e-01
6.205856616488300559e-02 -1.228607814454142078e-01 -8.824617949096744685e-01 -8.799149246171148464e-01 -7.154888497305057771e-02 4.697131917406303647e-01
-6.142028710783987121e-03 1.076112188433184930e-01 -7.086182043924766916e-01 -5.704364381913957782e-01 -7.672113855054976117e-01 2.932387422122951781e-01
7.483268886966304434e-02 -1.094012021562644349e-01 -7.952789337449714946e-01 -9.969457224818131236e-01 -6.376454512671125840e-02 -4.509223004020703612e-02
3.712585473265055808e-02 -2.129693061794541431e-01 -8.772471712477983852e-01 -4.192284856478038502e-01 8.362028523186548767e-01 -3.535707377535578511e-01
-7.781360313898116887e-02 1.155214586154436895e-01 -5.725585896608391678e-01 -7.843525339580623146e-02 9.949077089335293111e-01 6.329740697194088939e-02
3.006514782813999882e-03 -1.718343783299143002e-01 -8.864811188792727226e-01 8.847773907450490194e-01 6.105520154475592431e-02 -4.619970034434335848e-01
9.857321107310595357e-04 -9.365562439631258673e-02 -8.672788199716822133e-01 7.628009198165588423e-01 4.629459619558564110e-01 -4.514596250339318884e-01
3.817091369710327170e-02 -1.474793074927118752e-01 -8.312512737472053104e-01 9.802933933133954891e-01 1.702352660473026857e-01 -1.002238355877099613e-01
-7.663215749220263218e-02 1.499071320888317738e-01 -6.010955110026267034e-01 4.280162137273797462e-01 -8.570742069660264306e-01 2.867506312809706137e-01
-3.238590779258972152e-02 1.341356264377078751e-03 -7.953821759716268591e-01 6.850210294212182305e-01 5.474794243857620257e-01 -4.806375652452987701e-01
-8.055527389007531569e-02 -3.284664192658619253e-02 -8.706060636719591406e-01 7.286668792332465783e-01 4.003432742494539842e-01 -5.556706235457364862e-01
-8.857197542517705746e-02 1.158360500223672429e-01 -5.298877445079559489e-01 -4.970654809547578323e-01 7.940095083168092760e-01 -3.499640100720558533e-01
1.830638183387109028e-02 -1.189490916076052923e-01 -8.557750196282641886e-01 5.049404772013830200e-01 4.189860344867383790e-01 -7.546428409444543295e-01
-5.379105314754759753e-02 6.751872435248339188e-02 -8.308260159434961434e-01 -3.404795963583230334e-01 -7.346640578484834316e-01 5.868069244387578154e-01
-3.185724379725825978e-02 2.296661958546891355e-02 -7.545856280190481602e-01 7.888229419630559125e-01 5.952243309871909638e-01 -1.531873429288476418e-01
-8.946004659059586528e-02 1.132542544631289783e-01 -5.370604462770373067e-01 -3.783580840414268454e-01 9.109949285880322156e-01 -1.641139857763099508e-01
5.335273520251201940e-02 -3.081072011994622287e-02 -8.188463657909278437e-01 -8.807467197800320502e-01 -4.640644001571248567e-01 9.449575706623690452e-02
7.439093473636115839e-02 -1.218462944522407110e-01 -7.817088829651650528e-01 -9.957387851521538602e-01 -1.127304496501994229e-03 -9.221171795539143123e-02
6.646947818146449471e-02 -1.612425085427152127e-01 -7.943483216883843179e-01 -8.052148063544146694e-01 5.683444172691523022e-01 -1.691559605411829259e-01
6.871611483649933683e-02 -3.262980248699692137e-02 -7.366512250586829680e-01 -9.620305325829485721e-01 -2.721677848080714113e-01 -2.054145298744702516e-02
6.859369393629503875e-02 -8.414154165057177726e-02 -8.340925929839242414e-01 -9.622163137495592933e-01 -1.870151038050500147e-01 1.979017849919397776e-01
-8.600597467649045980e-02 7.048172856768167294e-02 -8.108665420382582534e-01 8.071684994804124713e-01 -5.901849788564730304e-01 -1.267691518958057040e-02
-7.414183900554804918e-02 -5.716011077601636237e-02 -9.096138625609203610e-01 4.436764210447569079e-01 -4.652718986416471414e-01 7.659460122902347345e-01
-6.059248703556674442e-02 6.228683658149732766e-02 -7.689557315480739508e-01 7.654840694995777017e-01 2.747126930636223929e-01 -5.818651696158636533e-01
7.025264086212640313e-02 -1.173645375936783058e-01 -7.618870034923108658e-01 -9.443480544229631013e-01 -1.420976120207029514e-01 -2.966732558987714152e-01
6.291027363294822428e-02 -2.863102299997603850e-02 -6.817629813588008680e-01 -7.719938736490588038e-01 -1.296387580092933089e-01 -6.222694363940181050e-01
2.616304271035225365e-02 3.304121150394086215e-02 -8.012275993598882984e-01 -2.715422995259132999e-01 -7.286024726255240225e-01 6.288109544625885006e-01
6.721739155460873527e-02 -1.657231287004118647e-01 -8.508771709285465334e-01 -9.814217874197513902e-01 1.785790106374182118e-01 7.014850060821746502e-02
2.261968420093744478e-02 2.312978794455910168e-03 -8.271202899953858934e-01 -5.240796301759803599e-01 -5.604307447838249301e-01 6.412939431615233277e-01
-3.627085034932606145e-02 -2.427785724005975670e-02 -8.357660585609877346e-01 3.951468251256922692e-01 8.089727152550547640e-01 -4.352265301724491664e-01
4.080893672075587564e-02 -1.080580072401460534e-01 -7.525966227836621281e-01 9.676013607919671244e-01 1.998732807386075228e-01 1.542669058493079115e-01
5.137012677134920186e-02 -3.581232889672136127e-02 -8.018665765074279861e-01 -7.182490897569490107e-01 -6.230354764188498207e-01 -3.097499639820016082e-01
-7.158194266256588667e-02 4.305128912223012833e-02 -8.535736197671807135e-01 -6.186226068464371064e-01 1.965107112286105240e-01 7.607165113700004033e-01
-1.306673337304786048e-02 7.232824538892010380e-02 -7.816519113728681578e-01 -6.076158214543031511e-01 -7.011938501531095325e-01 3.730016059293455033e-01
-6.911885840233540634e-02 -4.193082088174232558e-03 -8.878876788111436102e-01 -4.500332494401992206e-02 -4.937562795019770912e-01 8.684350506493554445e-01
6.828433726675002535e-02 -1.406240473214825093e-01 -8.319772299026995110e-01 -8.135723996753653209e-01 -1.508426001062227739e-01 -5.615571747201363317e-01
-3.348456585639317945e-03 -3.599546990221082210e-02 -7.934483885894813016e-01 2.605120113877775756e-01 8.071354640434529326e-01 -5.297790431925880617e-01
-3.957493169586855097e-02 -1.160649786157912956e-02 -8.166084219504227137e-01 7.411204077174301519e-01 3.791136528902093183e-01 -5.540878806263427325e-01
-7.803001050344681062e-03 -3.569421652064205114e-02 -7.985522176673693906e-01 8.232880967207886203e-01 5.221836008717061217e-01 -2.225331363606773971e-01
6.688192304603137774e-03 -2.462449903387927633e-03 -8.510928867058596969e-01 1.993393686261754616e-02 -9.953636345240914896e-01 9.409502233459740572e-02
-1.152946465416949257e-01 1.136863440641511236e-01 -5.253164510314584090e-01 4.303763332309667455e-01 6.569164621454467445e-01 -6.190613649364474780e-01
-2.478875403214330503e-02 -1.576666626035373442e-01 -9.278940496941069371e-01 4.968744225051553998e-01 3.690692329923561110e-01 7.854321800885180060e-01
4.031222651307539429e-02 -2.109190574429426271e-02 -8.324450253926860555e-01 -9.814296094931991288e-01 1.289878791327688234e-01 -1.419790429847199997e-01
4.134710398517590230e-02 -1.422563480889398879e-01 -7.965300799124146458e-01 9.173758627229844365e-01 4.820128520309465564e-02 -3.950926000294484597e-01
7.111443067726057332e-02 -8.717880422234081106e-02 -8.232343156556122254e-01 -9.745981982403184585e-01 -1.920148754100496347e-01 1.152763618786946387e-01
-3.616397531829804862e-02 5.115907658657831451e-04 -8.796814458800108483e-01 -2.986711090310649186e-01 -5.182366261338171576e-01 8.013902719421991394e-01
4.573801457390056641e-02 2.989694816892914803e-02 -7.040143866524021243e-01 -8.277199034563359481e-01 -5.555305859236188137e-01 -7.915509791286035046e-02
3.693788169620431348e-03 -1.309002126392331267e-01 -8.764114760378020064e-01 8.545401417103638542e-01 2.880528260611019409e-01 -4.321882872126960318e-01
4.020972576787434222e-02 -6.545831509920101154e-02 -8.657256735212094378e-01 -5.795894898478473056e-01 -6.938637419883991742e-01 4.273512967240982729e-01
-7.039488229173661814e-03 -3.443786067552247893e-02 -7.940805848540944956e-01 4.973358397972950651e-01 7.556778811808481100e-01 -4.261549041688285078e-01
1.577213148077266647e-02 6.369254729193958575e-02 -7.141710820258192483e-01 -6.448472565998012440e-01 -7.634549978452879193e-01 -3.617294459622379110e-02
-4.369588887127933557e-02 -1.676240653510804174e-02 -8.261533862805435779e-01 5.770618593644259997e-01 6.185255089538894691e-01 -5.333158587930830752e-01
5.998589991004062844e-02 -8.425981354962673586e-02 -6.915275612751439205e-01 3.369994348823986963e-01 5.941293315687563581e-01 -7.303709456561142677e-01
-1.089400896728026091e-01 1.241556048003864265e-01 -5.645430258727003325e-01 7.936756238869027147e-01 1.785200895152627143e-01 5.815578919481688702e-01
-7.577172964394725263e-02 1.159068016732513473e-01 -5.615894955690552415e-01 -2.752879096396239067e-01 9.597456063810425597e-01 -5.572196908340199678e-02
5.490942678409908850e-02 -1.852053929142460087e-01 -8.269400022893074187e-01 -4.204547014595637067e-01 8.126831353251154910e-01 -4.034401635666546304e-01
-1.173164483263167655e-02 6.595346435086542336e-02 -7.903311465283731074e-01 -6.375275570831849814e-01 -6.235237863744081954e-01 4.525225980930319136e-01
7.100670345027108865e-02 -9.570101715247732177e-02 -7.744900623450454713e-01 -9.314866512202560900e-01 -2.075301911139114663e-01 -2.987705446905638551e-01
1.616856977796662584e-02 -6.653221704668384195e-02 -8.117071453208846155e-01 7.333331494769360637e-01 5.328633841570185048e-01 -4.222311046132999346e-01
-3.135145557286931478e-02 5.841486395191138048e-02 -8.146379215871941692e-01 -6.348848789082200961e-01 5.757681855481264765e-01 5.151817029401499770e-01
-1.938827273936986895e-02 -2.249874785031840112e-03 -7.698992583728840877e-01 8.557064850390421196e-01 4.565432373031189095e-01 -2.435871177523874775e-01
6.138165634662754583e-02 -1.789777205824809592e-01 -8.300178208879116504e-01 -8.341445032982197638e-01 5.210461277536648783e-01 -1.808697884398546007e-01
3.805495887131531835e-02 -9.246301905987706904e-02 -7.599904449514284233e-01 9.734563684935446659e-01 2.288394708411906620e-01 -3.898105242764443763e-03
-2.745818356597926752e-02 1.767708375785818214e-02 -7.480493967251248266e-01 8.364220676946962918e-01 5.435252448306089335e-01 -7.055801092119555473e-02
-1.131096235375933338e-02 -1.206235317592125184e-01 -8.988872032358579123e-01 5.474823944214478599e-01 2.948694167404101174e-01 -7.831443384649655615e-01
-4.555135243006361301e-02 7.905223235278441285e-02 -8.080502722116731373e-01 -2.996858618958783693e-01 -8.334379312501735138e-01 4.642947328294342868e-01
4.821073915485699773e-02 -1.242883974432250627e-01 -7.374517780249850718e-01 7.436359636679824581e-01 3.628407357058308635e-01 -5.615622441475588422e-01
1.877958902382097228e-02 5.182617958965980015e-03 -8.280691104299949812e-01 -5.369885256149777852e-01 -4.163620599707512637e-01 7.336797382882839225e-01
-8.451030855648690443e-02 1.138189610209521807e-01 -5.526028036955791256e-01 -2.269314546646183095e-01 9.738918150762593262e-01 6.070206855588463658e-03
5.173714320041516122e-03 8.397007994338691328e-02 -7.044360107910363489e-01 -8.355908780001419789e-01 2.794520318791929303e-01 -4.729634726715607473e-01
2.925215680611860727e-02 -4.812771665547348199e-02 -8.853092533047808299e-01 -7.875556305191915296e-01 3.150381806430552212e-01 5.296291849724976686e-01
2.817927490034918478e-02 -2.237570511752649260e-01 -8.910523557080336499e-01 -5.243223300853268043e-01 8.307633099307210056e-01 -1.868647025172134046e-01
-1.787515843610374550e-02 -7.913205865600068944e-02 -8.709192130952712052e-01 4.484452722526822699e-01 6.608528797837427415e-01 -6.018058732479701911e-01
1.557340976438116933e-02 -2.093067161546086768e-02 -7.359077497338550877e-01 8.285188643913015127e-01 5.159225928659665339e-01 -2.176703230075388573e-01
3.419828930659708083e-02 -7.976572743752512185e-02 -7.620343747484297214e-01 9.366768784545144166e-01 3.493893831603429589e-01 -2.373782432198997053e-02
6.543277808755466884e-02 -7.198624800274257274e-02 -7.687574178309535267e-01 -7.472023828961072978e-01 9.571453866487103501e-02 6.576680972059917307e-01
5.608950354918838810e-03 -1.402080240326565308e-01 -8.768045853961032865e-01 9.623565274582270845e-01 1.134769969717612792e-01 -2.469673768270078673e-01
-2.813331482394358304e-02 9.735876476887506126e-02 -6.591013725630110454e-01 8.246270262738330213e-04 9.200588989378494231e-01 -3.917792011778316597e-01
2.676926952392606404e-02 -1.690274470188064815e-02 -6.877830274717086079e-01 7.903489960857107421e-01 2.874407341998881926e-01 -5.410418548586958254e-01
-3.214106064240050773e-03 8.732625408474084527e-02 -7.447894270674521033e-01 2.052231122258111121e-02 -7.650707705484952603e-01 6.436191038140612886e-01
-6.653718958247631723e-03 -2.921015744245387957e-02 -8.908796256117318402e-01 -2.961948654437410178e-01 -5.867881475336020891e-01 7.536234282444035371e-01
-3.851922048178856028e-02 2.991380894702476423e-02 -7.567186682220417016e-01 5.703620710269272642e-01 8.078695562420010745e-01 -1.484381623142347617e-01
2.343389230702522166e-03 -3.549398159700017930e-02 -7.838437276122491859e-01 6.698198298792378269e-01 6.863294913390590724e-01 -2.833605915063303615e-01
5.280925276265086704e-02 1.827200264565219043e-02 -7.132874800726853870e-01 -8.802194952437965014e-01 -4.730312452392997913e-01 3.814552686899688738e-02
6.568500263307056053e-02 -1.254999405187892381e-01 -8.342520062047821261e-01 -9.716227782815867187e-01 -1.886604764579102866e-01 -1.426758611224922257e-01
-1.219457710696779601e-03 9.746795420795870135e-02 -6.842153567565447680e-01 -8.790515511226874024e-01 2.058386127848380320e-01 -4.299986464578822720e-01
6.887904106483386246e-02 -5.331707026859192761e-02 -6.878730628747693476e-01 -8.477734328632587912e-01 9.525002775894766266e-03 -5.302730248215203890e-01
-4.786506880029047645e-02 8.824273318945767552e-02 -7.883247675264980492e-01 -1.002838578248967244e-01 -9.607102846033265253e-01 2.588028147396229661e-01
6.559609043842012932e-02 -1.603978970507067281e-01 -7.878398822441864402e-01 -7.366585938969169023e-01 6.478553929974633085e-01 -1.939523286839301419e-01
6.470933472075023063e-02 -1.196008383205614672e-01 -8.738301364532781168e-01 -9.556413860151153905e-01 -1.411223354688365683e-01 2.585227799767941259e-01
-8.399996365448565705e-02 4.042488090831564823e-02 -8.088630961055982560e-01 8.060194611714025514e-01 1.229418097676908683e-01 -5.789800856886241354e-01
1.106082005906492208e-02 8.612074735014874083e-02 -7.333069608908580062e-01 -7.244097411247560903e-01 -6.675899438837723521e-01 1.719133322020884869e-01
2.507125847229000823e-02 -1.308114692162384851e-01 -8.560752509827821433e-01 6.545436120705870886e-01 1.978152764391162000e-01 -7.296860806572268432e-01
-9.498397651075307646e-02 4.007042078613862190e-02 -8.531630180086434700e-01 6.992718348327986444e-01 -5.098932916344797173e-01 5.010266780878307458e-01
6.503205353375234032e-02 -2.361501994646539315e-02 -7.557069918791660124e-01 -9.415596763686289172e-01 -3.261367085375339592e-01 8.426282205638478684e-02
6.940190447882287061e-02 -1.287947759583181750e-01 -8.551351892360427032e-01 -9.859999460251379633e-01 -3.918763514383854368e-02 1.620754012497212793e-01
-4.024514533568859798e-02 1.233464768006743290e-01 -6.832640401949994224e-01 5.168012680829702221e-01 -6.674210769628622364e-01 5.361581439590066278e-01
9.934113130764496077e-03 -1.366030696353096041e-01 -9.305204721500333065e-01 -6.074261087894449185e-01 2.174155733035178784e-01 7.640444953312705012e-01
3.646617323840241343e-02 -1.018669017444030211e-01 -7.995745475759405974e-01 9.504926478908021226e-01 2.354394970715819324e-01 -2.028101810171573094e-01
3.274580933685817402e-02 -1.731621627227968585e-01 -9.210315380227115378e-01 -8.545864346143958734e-01 1.053689899499354737e-01 5.085070321342523014e-01
3.301311652517142231e-02 -2.401465102166887300e-02 -8.487120664704037587e-01 -9.366385827800810526e-01 -3.443099516027886553e-01 6.448893296532871855e-02
-4.019382670519983103e-02 1.207638773050000169e-01 -6.060520381179955729e-01 -7.277401461348407263e-01 4.818234163382407731e-01 -4.880988375030071991e-01
4.508930404281835669e-02 -1.864379366017324680e-01 -8.336129009437740489e-01 7.160749241220495387e-01 4.870902305035811897e-01 -4.999798099839324883e-01
-3.479743642837459898e-03 -1.279396372842563356e-01 -9.339164712649928868e-01 -1.474865635862624980e-01 -2.092973363267053299e-01 9.666655774196479811e-01
2.656146787392352562e-02 3.332453047651846162e-02 -6.811991928391250006e-01 -2.177740517778070095e-01 -5.156657193940794581e-01 -8.286515119240800420e-01
-4.007625420201586797e-02 -6.302005429357089572e-02 -8.783995428488128310e-01 3.655787429242842723e-01 5.304617326978142700e-01 -7.648284336144496320e-01
5.073130040133116969e-02 -1.484921433511549593e-01 -7.722535041098189668e-01 9.005815062534653359e-01 3.056380636253928640e-01 -3.090927444272343894e-01
-4.295686939400962523e-02 2.759562311273976859e-02 -7.719756478586260462e-01 5.787293188001700894e-01 7.467518632597626160e-01 -3.277713078949464620e-01
5.441716825823145198e-02 -7.576215219680987323e-02 -8.529130084006611989e-01 -9.248034545521846006e-01 -1.946279752007426256e-01 3.268922172790355574e-01
2.683074619732785451e-02 -5.721305173709374803e-02 -7.494287219327160354e-01 8.617988139120278390e-01 3.579717784541337489e-01 -3.593869922106343595e-01
-1.631549215962424873e-02 -8.135070884212132480e-02 -9.222380332284154658e-01 -3.251440215240337661e-01 -2.114759711761104721e-01 9.217154001546785658e-01
-7.066341060609040992e-02 6.247134709455377799e-02 -7.822896037441725570e-01 7.653909615448385440e-01 3.010041157756280783e-01 -5.688349481805771157e-01
-5.059181079863202257e-02 5.594093877320156089e-02 -7.577063205227959619e-01 8.213667779222756371e-01 2.906843787830578063e-01 -4.907740906538228809e-01
-4.926344104725573908e-02 7.807558762966168575e-03 -8.074712504636276655e-01 5.578360501417002348e-01 6.131935077187082861e-01 -5.592965789757100570e-01
4.462617957381141004e-02 -2.087783624546838690e-01 -8.842085049376376960e-01 -7.262393666291642180e-01 6.864686727285581602e-01 3.656697581647109369e-02
4.753659032052471277e-03 -4.858993291439132889e-02 -9.005053818172868985e-01 -2.940354710523441772e-01 -5.303554945825420530e-01 7.951516780647157612e-01
-1.762396763859250216e-03 6.025342503780474479e-02 -7.825776072148913354e-01 -7.324491983294248998e-01 -4.580139874443893699e-01 5.037274651752406962e-01
-2.477463164779422915e-04 -7.503038605049686116e-02 -8.412578524929209545e-01 8.694450498008419181e-01 4.304844941338552555e-01 -2.423807040321694084e-01
-3.029231236871099409e-03 -7.779119024082706280e-02 -8.533855337850572154e-01 6.457769503442372105e-01 6.413742493589787985e-01 -4.142598250655054049e-01
3.670605192785822424e-02 -9.496856186680377454e-02 -7.884916007364087820e-01 9.474465859048553096e-01 2.935967728275502009e-01 -1.270665252632705300e-01
5.147412058922550514e-03 -2.074587328609707182e-01 -8.890737735195867186e-01 6.241892382531840644e-01 2.389265736579795907e-01 -7.438426495227119517e-01
3.890399995586791421e-02 -1.910321568338502543e-02 -8.267674340954559442e-01 -9.016980239143708165e-01 2.825492918838244383e-01 -3.272714031577885208e-01
3.530880626096081359e-02 -9.846365684288138631e-02 -8.004307246224211525e-01 9.282437345681743279e-01 2.831549707351075917e-01 -2.412194680844164385e-01
1.581750428687531476e-02 -3.721503440066698670e-02 -8.871548114383843719e-01 -4.043063644182505190e-01 -5.959356740322622192e-01 6.938278144515469537e-01
-7.392470272970406639e-03 1.032542128221977662e-02 -8.570628565213542771e-01 -6.145983854078899133e-01 -4.100497812971558576e-01 6.738901998932536053e-01
5.572210418284359590e-02 -3.548898416572085490e-02 -8.174726283804333304e-01 -9.082331970533813470e-01 -3.962490084148431735e-01 1.345332044532016880e-01
4.256140277803044727e-03 -5.981314369302741935e-02 -8.166623103052437216e-01 1.158943247964304701e-01 7.078611141893768055e-01 -6.967791246145033091e-01
3.732310186552063869e-02 -1.173751380788941590e-01 -8.925279978502799194e-01 -8.250251636167502678e-01 2.965471929927219197e-01 4.810335141414696092e-01
5.984583526064424230e-02 -1.324815250364120255e-02 -7.322156835194469915e-01 -7.764937735430785803e-01 -5.706654057287908755e-01 -2.672048172343167161e-01
6.133390556008722072e-02 -5.462998275994115221e-02 -7.903996787471582186e-01 -6.607442041093669616e-01 -5.602123248571972969e-01 -4.995790706324407249e-01
-4.034236184031506772e-02 -2.266991100103782006e-02 -8.358539283456976055e-01 1.698797766807991216e-01 9.268045580539414630e-01 -3.349241296850980487e-01
3.496388662359843635e-02 2.116032240308839130e-02 -8.095726410602566148e-01 -5.632231001307886897e-01 -6.261573895707210902e-01 5.391722015878080976e-01
-1.868647530141197277e-02 -2.512894336156658998e-02 -8.906234864048531152e-01 -1.594226577215296092e-01 -6.721844109014212254e-01 7.230162750216023726e-01
-1.004604670594247684e-01 1.460278443157040640e-01 -5.655998312538798034e-01 6.822715447976326342e-01 -6.601094634547454154e-01 3.142626853715531632e-01
-3.350759433506768359e-02 -4.422283436117977612e-02 -8.599748467572201349e-01 4.564337515341422291e-01 6.067173685314071196e-01 -6.508166140955481405e-01
-5.087200773974297902e-02 -2.307616969375665336e-02 -8.410366230706853852e-01 1.797486702371181300e-01 8.503641391515575076e-01 -4.945414506318136505e-01
1.695036342769088919e-02 -1.886826952954246128e-01 -9.289091900743291497e-01 -2.518171709323336893e-01 1.994736164062665129e-01 9.469943974393096875e-01
-9.203513754075584585e-02 2.455442927150955704e-02 -8.274353506359385380e-01 7.785839017688431785e-01 4.138219703885883116e-01 -4.717610462194929410e-01
6.952447993205143617e-02 -9.776048870123107970e-02 -7.599871674719248515e-01 -8.022661214792152773e-01 1.275802966951405104e-01 5.831743634813493227e-01
3.703346229850461996e-02 -8.902081944085538101e-02 -7.660716205117514832e-01 9.591667359580264840e-01 2.790817991165674972e-01 -4.596218046922133371e-02
2.571807363906140897e-02 -2.810835563237048737e-02 -8.718443641143712730e-01 -5.261347195661936205e-01 -5.921977639010926886e-01 6.103147264301823638e-01
-7.847514615214087885e-02 1.226099942316359465e-01 -5.350784520490404761e-01 -7.474907292203517573e-01 5.047617919056841540e-01 -4.318253618788384096e-01
1.632215886231508373e-02 -1.328015046682977096e-01 -9.247789835237960610e-01 -7.528584591668348036e-01 6.302344564089673584e-01 1.897595067864401297e-01
2.973378970858242369e-03 4.789352362617235737e-02 -7.960750391789886971e-01 -4.354878326983451786e-01 -8.849611582107483887e-01 1.649063250151099891e-01
-1.876730155998146063e-02 -1.065566981041089351e-01 -8.954737100866849708e-01 3.498630113943880793e-01 5.277588177297549699e-01 -7.739938653287515846e-01
-7.668086378434910144e-02 2.401409457406030942e-02 -8.657336360130341024e-01 3.665371458847530017e-01 -8.355240807328490060e-01 4.093287568717681180e-01
-3.658214659851596190e-02 3.379409680876751393e-02 -8.530159317613805747e-01 -3.068288347866514609e-01 -6.867469333910591889e-01 6.589648819333562280e-01
5.648446030457220796e-02 -4.266970181716022575e-02 -8.298145888697060490e-01 -9.015691443401293581e-01 -3.885996517075130385e-01 1.901667391175602406e-01
2.479872948752957079e-02 -1.680675558876665310e-01 -8.601672777054598651e-01 9.523555467960731491e-01 1.732891454154463773e-01 -2.509776575074696425e-01
-4.085842310268814753e-02 -1.083983023278944635e-01 -9.288242603782730367e-01 -1.033662409206746319e-01 3.563935024777420413e-01 9.286006093200546152e-01
4.373320767372815970e-02 -1.198685032096739045e-01 -7.638202281889832079e-01 9.667630699944668171e-01 2.517820657423853747e-01 -4.444049803243008828e-02
-3.005268845676776698e-02 4.266083545599317489e-02 -8.390404394890604856e-01 -3.590312686425810584e-01 -7.646114564413809545e-01 5.352250637026343405e-01
7.131280228695655032e-02 -8.176102040561492035e-02 -8.009297588072007423e-01 -9.807275124650348674e-01 -1.953803084641665133e-01 -2.852342752943614040e-04
4.384371862011959137e-02 -6.416307738613510891e-02 -8.624162642049088001e-01 -1.484542013238440705e-01 -7.276677112087440724e-01 6.696723468783278843e-01
2.022491203710570506e-02 -2.103566367591511721e-01 -8.802543954774240120e-01 5.197806322891690423e-01 2.853547621128230127e-01 -8.052333537780248518e-01
2.347249804869675979e-02 5.670990356888171158e-02 -7.213040377170623074e-01 -6.988012249645126905e-01 -7.135450852799292143e-01 5.030168248632631289e-02
-2.605100342378242548e-02 5.573677045526655160e-02 -8.065376256149104917e-01 -7.117877701296467796e-01 2.521179096283631682e-01 6.555873167919658018e-01
-7.296769701219907311e-02 1.264406289565197516e-01 -5.409060334767186173e-01 -8.003212543997630934e-01 4.278454844371283872e-01 -4.200406304189494011e-01
-2.008024499570448124e-02 -1.688355770475603035e-01 -9.221921895866870278e-01 7.029747884285890702e-01 7.098212296363997087e-01 -4.450021113713855531e-02
-7.591748979280632526e-02 1.476439254062255624e-01 -6.074268256481878403e-01 5.799127769686679423e-01 -7.193054970643772972e-01 3.824928404577754293e-01
-5.325227099717829565e-02 -4.413944993119685994e-02 -9.074495299302142159e-01 1.611759414500452958e-01 -6.666246802351208922e-01 7.277594737268038294e-01
7.411596248354145045e-02 -1.182351555456284120e-01 -8.229398816327866406e-01 -9.763655059168250272e-01 4.178524835906199941e-02 2.120480885916056768e-01
-4.983140171574489130e-02 2.406939660028237227e-02 -8.667219632005573882e-01 -1.835879988393594731e-01 -6.228363002462381504e-01 7.605066664913184837e-01
-3.182475420007889943e-04 -8.469159639989987109e-02 -9.139830790858314291e-01 1.228538617878447148e-01 -6.872083642125123015e-01 7.159969223398772176e-01
4.068354066799124980e-02 2.122233630152093806e-02 -7.642699147178133590e-01 -8.013559337604361232e-01 -5.959818435656838442e-01 5.132552549159277722e-02
-6.479092498902230823e-02 -7.220797208372671527e-02 -8.969567732714694985e-01 4.389885993854344415e-01 5.633932586673078280e-01 -6.999121699883826819e-01
-3.601725945750365587e-02 -2.392938031358967169e-02 -8.864065785641738193e-01 2.558790370118332325e-01 -8.180475077347773016e-01 5.150962953728325244e-01
-7.619781391738966736e-03 7.919839020040871091e-02 -7.540400593167689847e-01 -1.083089181038762172e-01 -8.405285974960111650e-01 5.308303448848383788e-01
7.082674375997249916e-02 -1.555797340432982789e-01 -8.086416939618626953e-01 -9.637258519239443322e-01 2.616838308266964952e-01 -5.247909123958197780e-02
6.366290559448815889e-02 -8.809897394723358033e-02 -8.396983684314235363e-01 -2.810297215547339356e-01 3.811623505790890931e-01 8.807596483172310808e-01
2.970846852343278499e-02 -1.072716845495891719e-01 -8.132028115372598176e-01 6.962494460929162798e-01 9.549849095689350031e-02 -7.114188267401021504e-01
-2.012872508213797186e-03 -1.188086941333484775e-01 -8.898044223415760845e-01 7.228313452582144638e-01 2.617591849446644914e-01 -6.395287135143385981e-01
6.044371815012672573e-03 1.904889103408122925e-02 -6.986359925367167101e-01 7.629398956262437581e-01 3.690878853697340256e-01 -5.307512115248672613e-01
-2.729622110027080887e-03 -2.263663086952519832e-01 -9.074748149631246541e-01 9.285327208197887705e-01 1.728229437068502516e-01 -3.285714785179912889e-01
3.689078613383072608e-02 -1.376201028852120922e-01 -8.208090592279938535e-01 9.841231261613034853e-01 1.755263845645293197e-01 2.630895049612996459e-02
6.491992503836073458e-02 -1.261048989692305743e-02 -6.935896212427292706e-01 -8.979590550829861240e-01 -3.269223477251375631e-01 -2.946036557009347745e-01
-9.738261705646228741e-03 7.806726751767129394e-03 -7.404561896786389097e-01 5.879953479399004923e-01 7.365943555697502809e-01 -3.342008769345465313e-01
7.578792817756203892e-02 -8.612096901612208144e-02 -7.245545566934399329e-01 -9.993056421281635293e-01 -6.089202663887842426e-03 -3.675806335672222175e-02
9.179156916760912790e-03 -2.396254848627601686e-01 -9.051390129356696734e-01 -3.753746363680582343e-01 8.026699095267546546e-01 -4.634812819433594133e-01
-2.181116593197678089e-02 1.299941897382928535e-01 -6.694408373310110072e-01 -4.168251523031979433e-01 -8.884865523271767707e-01 1.919594716110225308e-01
-1.458567455778645534e-03 -1.106667072201283263e-04 -7.409347992817094664e-01 7.023705635177428519e-01 6.534418100532434215e-01 -2.822930965824516636e-01
-1.048417252827992946e-01 1.378312530316432583e-01 -5.683483382734734191e-01 8.056341615941435830e-01 -3.807242001853165525e-01 4.538751822536147840e-01
6.470135199064107334e-02 -1.350629896979573252e-01 -7.424794515261597949e-01 -6.639941090581411576e-01 7.006941113191698101e-01 -2.610356019755239454e-01
-9.200542213379923895e-02 1.321287152269444154e-01 -5.918308335787587637e-01 8.636248828749976125e-01 8.571299092563575833e-03 5.040620939041262627e-01
-4.530047290149080003e-02 7.938386889282383896e-02 -7.415762006673526363e-01 8.828079483900783675e-01 -1.007792687842839069e-01 -4.587958862529237236e-01
-8.839304578015239056e-02 1.304048669766578183e-01 -5.221894021511811479e-01 -3.776145434850700644e-01 -2.496877537462434959e-01 -8.916632111833017182e-01
4.236730830735039449e-02 -1.157037842901791902e-01 -7.707113549319163370e-01 9.817875477521385008e-01 1.791566310264158801e-01 -6.321481343883529613e-02
6.849146013151511531e-03 -7.561197479888206834e-03 -7.346739139358265946e-01 7.747878296497415773e-01 5.896614282256007478e-01 -2.280421432314375940e-01
-6.573494616895869495e-03 -4.922416232155220339e-02 -8.229488986559890806e-01 9.376016587232104404e-01 3.313554769147058487e-01 -1.053882226727080318e-01
4.286055482383731990e-02 -1.157755972281097612e-01 -7.580289777185381661e-01 9.736519693293173017e-01 2.270878400349679860e-01 2.080758345879806306e-02
7.372255252725350150e-02 -1.076138656694556606e-01 -8.241647650167126526e-01 -9.865504683816123110e-01 -5.368144301631712356e-02 1.543906603771972585e-01
3.736499991216684496e-02 -9.863603275153358385e-02 -7.908245429121324443e-01 9.619880654376605778e-01 2.396005867728930594e-01 -1.310363337917861692e-01
-1.021847985282187538e-01 1.276091518039639550e-01 -5.750204544500073789e-01 7.995770384496084793e-01 2.249150850861207085e-01 5.568570409762779727e-01
-7.076539673580004020e-02 -1.805647689844897333e-02 -8.499567532075714693e-01 5.553460931752367546e-01 4.972938085053217883e-01 -6.665505118273283847e-01
2.846308442137532660e-02 5.114202443476158905e-02 -7.244283731453198261e-01 -7.453473934099356102e-01 -6.583517089948924816e-01 1.050251893619770227e-01
-2.122575117509287700e-03 4.054385313807900432e-02 -8.188208745903169383e-01 -4.484640552865468144e-01 -7.725728000082824343e-01 4.494566272771017279e-01
7.078760672058206915e-02 -6.040179479745279301e-02 -6.922360122472599464e-01 -9.600564824787241047e-01 3.158979023677608439e-02 -2.780173296817584072e-01
5.625811114180902933e-02 -9.090851869875784738e-03 -6.799831039156515322e-01 -7.077496154582337828e-01 -2.676148867692735855e-01 -6.538140058137260624e-01
4.439673370088176307e-02 -1.086189747915078246e-01 -8.875361596353684712e-01 -5.227557839752191571e-01 6.640693879021190849e-02 8.498920571466516138e-01
1.745018372564512490e-02 7.511300491253682099e-02 -7.422296473081548829e-01 -8.559115986182861402e-01 -5.131698015410446345e-01 6.381293079788000200e-02
2.853384693359040450e-02 -1.594448510244121930e-01 -8.518446398498259464e-01 4.694761138455823546e-01 -1.606859353925822187e-01 -8.682005578755755959e-01
6.561973312216022591e-02 -1.092352333211125542e-01 -8.629499878602440166e-01 -9.669620304435750935e-01 -1.853932964033589981e-01 1.749678751346500916e-01
-5.955042191151227460e-02 8.656213986052792297e-02 -7.706662742953980239e-01 5.826760392392635879e-01 -7.413589579988083544e-01 -3.329797721954975143e-01
-9.301559565691583376e-02 5.264493520108927405e-02 -8.203789591296032357e-01 9.148055507340374648e-01 5.669655417766899380e-02 -3.998953676783127964e-01
4.883460991833940557e-02 -3.250355867727103276e-02 -8.014474021734327991e-01 -8.431670919442073586e-01 -5.094497835362470362e-01 -1.718434552644345636e-01
1.035913402944003796e-02 -1.903709217740927051e-01 -9.297985710854876906e-01 -8.159861784723466960e-02 2.301202243094442046e-01 9.697351947460667310e-01
2.023143517542290784e-02 6.919383172650492297e-02 -7.433919493105701770e-01 -9.246917988300713542e-01 -3.704512077083316757e-01 -8.781218528111776889e-02
7.254752496178643040e-02 -5.474060539629289901e-02 -7.587327237347675224e-01 -9.727923730172467476e-01 -1.844604585244485617e-01 1.401760972506500558e-01
-9.035591729716162257e-02 5.805421631225488738e-02 -8.372064032398123246e-01 6.299655585487151654e-01 -6.542524740574561237e-01 4.184460481736000381e-01
3.841896886744938094e-02 -2.149666092207930812e-01 -8.868995634501257719e-01 -6.738271151435143436e-01 7.357272297838866049e-01 -6.828222500693285901e-02
4.596910575887647524e-03 -2.264495209353969973e-01 -8.968961056876164628e-01 6.317761329120049618e-01 3.117461183730500518e-01 -7.096994262094965533e-01
6.621413010094050200e-02 -1.240234916231475193e-01 -7.288328665557644026e-01 -5.761199216031653858e-01 6.358439589181371643e-01 -5.136032474968131867e-01
1.441064052787507238e-02 -2.547611570101994405e-02 -7.469259604350527715e-01 8.430044057294264759e-01 4.253330899668599230e-01 -3.292952087413655304e-01
7.271024386538323982e-03 -6.807728995200747202e-03 -7.303540148491434181e-01 7.933856229013779293e-01 5.893378141574141527e-01 -1.523817383335472897e-01
7.510501041899610153e-02 -1.290330262722990673e-01 -7.948925035318139543e-01 -9.980926826033978960e-01 4.327804139485152274e-02 -4.402281302436047289e-02
-1.477672929011990786e-02 -1.135723292165464471e-01 -9.324012512121279128e-01 -8.004963036578771618e-02 -2.426247106319268931e-01 9.668119292132645315e-01
-6.987468544262129266e-02 -4.164311581366531012e-02 -9.035262711736373742e-01 -4.703997594960578899e-01 3.834566278040965615e-02 8.816199160704015769e-01
4.140464748308736453e-02 -1.255895414377709018e-01 -7.924465387911788783e-01 9.660112571627781364e-01 1.076833903662536840e-01 -2.350032733261769591e-01
7.475726920196006098e-02 -1.045992398134623497e-01 -8.126793398433094229e-01 -9.947958733949076038e-01 -9.615036692732287227e-02 3.370871128067694233e-02
-1.404036673937106815e-02 -3.093369756737701648e-02 -8.175257035551000140e-01 7.584354895019418397e-01 5.838689648980494029e-01 -2.896077348636085791e-01
-3.324267666226409651e-03 3.523459287517245633e-04 -7.439739878386610883e-01 6.614013526323331282e-01 6.734318862294814689e-01 -3.302086391140044985e-01
3.509877023970463250e-02 -2.969485993133767071e-02 -8.634375059993552037e-01 -7.422274329638129942e-01 -4.890250625872870072e-01 4.582062045820077811e-01
