1.229930174040726326e-01 -5.805164521780138004e-02 -8.870536207508771254e-01 -9.610890842682570101e-01 -7.115694334471145410e-02 2.669165815648039120e-01
3.569674259911188169e-02 -1.288521533419367815e-01 -9.811769892157377049e-01 5.698624282770498040e-01 4.139494508645722437e-01 -7.098610180641723444e-01
-3.340069477563871458e-02 1.392882597796486592e-02 -8.619246322443679942e-01 5.514017174198322657e-02 8.474517169205987299e-01 -5.280010880183809707e-01
4.344277956482202330e-02 -9.351826477203227517e-02 -1.007332835310718711e+00 -6.641858470986330421e-01 -5.062709072046824854e-01 5.500426611018631728e-01
4.627696015864363188e-02 -8.997592344298901978e-02 -9.931109448373662829e-01 -7.941488509357812475e-01 -5.619849094091600161e-01 2.313018896458834128e-01
-6.171035003167309185e-02 2.709041841959100583e-02 -9.250343175366750881e-01 2.182849919873439404e-01 -8.045364307953464245e-01 5.523339513339463602e-01
-1.047330137044302362e-01 4.566066058001421943e-03 -9.191184439071405921e-01 7.386652829708456602e-01 -6.643183203034058737e-01 1.142574682148257276e-01
1.005916773483591098e-01 -5.668164749118227014e-02 -9.259993370447490157e-01 -7.818331189976275297e-01 -2.903986117915815512e-01 5.517296623419514212e-01
6.894596239211653321e-03 -8.247314882997998364e-02 -9.565657619871623663e-01 3.221125368804444999e-01 7.468407073756191394e-01 -5.817838699990994789e-01
-2.465497923726582899e-02 3.653288776116812853e-02 -9.217499576192383914e-01 4.128677465279884801e-02 -8.068648789637926644e-01 5.892914977610937965e-01
-1.834176953546853839e-02 9.990244708469267487e-02 -7.828848610619069115e-01 9.316810166681195327e-01 3.225317999290693849e-01 -1.671637556851773010e-01
5.450540665209607262e-03 -5.082818831651411684e-02 -9.921113657223572524e-01 4.594738654772205222e-01 -5.161756450531234108e-01 7.228045865912952062e-01
-4.590419218986471761e-02 3.664290879196813178e-02 -9.155750219891607422e-01 2.420249264068921047e-01 -9.062525117670380270e-01 3.465982110653096360e-01
-1.192744019345913647e-01 -1.440724181575746971e-02 -9.250949409828217451e-01 7.692356279090254434e-01 -6.083384210082406485e-01 1.954505417761944475e-01
-1.130196194902497731e-01 -6.615952548844761250e-02 -9.301851455441977334e-01 1.399689646040885027e-01 5.401863723689444008e-01 -8.298236993811031192e-01
-4.017212776348834651e-04 6.361460189511600194e-02 -8.953510362777616916e-01 -5.175131623846028484e-02 -7.747925866722099597e-01 6.300938413485509537e-01
6.548026501982080749e-02 5.383524492279994494e-02 -8.429711309368109751e-01 -5.434037174561501260e-01 -8.392750139750332350e-01 -1.816179429585050575e-02
-4.530949973594628616e-02 -1.054693088913385007e-01 -9.833802577866990191e-01 -3.418551430921976664e-01 6.020795473856346280e-01 -7.215506079003206619e-01
9.937838803258107478e-02 -8.941541103254570244e-02 -9.368998017715287618e-01 -8.849654908638566742e-01 -4.221971238937133886e-01 1.964323510931176020e-01
1.488261479766193190e-02 7.895217607913002436e-03 -8.587253545058474158e-01 1.485374889594864578e-01 8.468941107489899034e-01 -5.105947312226087886e-01
-2.270508231872706353e-02 6.755011249888275005e-02 -8.769177304024668995e-01 -3.238941475219524191e-02 -8.668170356165746382e-01 4.975732635269948245e-01
3.031703665840752848e-02 1.066911626134065261e-01 -6.472886488763214263e-01 -7.048855391929778058e-01 6.753528185368827819e-01 2.168754184570332033e-01
-2.298490546576593269e-03 -1.096336054788226572e-01 -9.744684253424076292e-01 -3.929025526237105437e-01 4.883849529170287140e-01 -7.791711762546174036e-01
3.540053861080967850e-03 9.682884982631204812e-03 -9.541630620058247914e-01 -5.974472960134530330e-01 -3.983230759522953246e-01 6.959852409714702981e-01
-1.356679641658985018e-02 -1.440196937832470825e-01 -1.043925210605113785e+00 3.004834944030146393e-01 -3.408191758183364839e-01 8.908153338295561330e-01
3.706410152674997210e-02 9.556015403450697498e-03 -9.312983148610584072e-01 -3.998154860245380360e-01 -6.217872746742840739e-01 6.734449956663786097e-01
-1.977031410710840265e-02 1.053878321598998441e-01 -7.959576844371267779e-01 9.861434062066219974e-01 -1.622471423926622747e-01 3.459836962367882074e-02
8.930056214504553114e-02 -1.212582943235684246e-01 -9.694530451966022477e-01 -8.456140211540261742e-01 -1.104268093422842469e-02 5.336806033813698003e-01
-6.119397381538466130e-02 6.915097064169414831e-02 -8.707363878140989000e-01 1.964113478624941178e-01 -9.302061937063041963e-01 3.100629284859255375e-01
-8.775419016581147147e-02 -4.017390106056935393e-04 -8.722344966189607973e-01 7.394849285248858428e-02 5.030426036418279567e-01 -8.610921897950859494e-01
-4.764492317891668577e-02 -5.734258510245998771e-04 -9.542979562902247359e-01 -3.130799812468101906e-01 8.279450809408307743e-02 9.461109843839441425e-01
1.124461575053905121e-01 -1.360244952276692086e-02 -8.779057181571287005e-01 -7.760089696362206801e-01 -3.079587543907609803e-01 5.504284555128141632e-01
-7.224289641359660230e-02 5.797429419410078666e-02 -8.878761366750579365e-01 2.356481885322245229e-01 -8.314287871647230155e-01 5.031859528199082998e-01
8.744631159447133206e-02 -1.425546436573298659e-01 -9.570540374146448981e-01 -6.773434051087898755e-01 7.076633306688654423e-01 -2.010435822956749552e-01
7.452871101125305153e-02 -1.374175889059421340e-01 -9.868941055847736399e-01 -9.470839297932114320e-01 -3.059653818637300682e-01 9.704233626840144677e-02
1.571655700472841116e-02 6.557405264324413230e-02 -8.770327009819128827e-01 -8.441540925716215504e-01 -4.479315394320589894e-01 2.945525487525239572e-01
-6.243431166079510194e-03 -1.633909832408000362e-01 -1.000807556095116846e+00 4.526022003386416803e-01 2.531214060149589162e-01 -8.550326321641943395e-01
-1.105682088986046918e-01 2.997707574919323409e-02 -9.021938814428602793e-01 5.612966412858310106e-01 -6.396802177225364705e-01 5.251240801331561459e-01
-1.315035696863341499e-02 -5.195212680958633672e-02 -9.296337567618988551e-01 5.639742343589855267e-01 5.493748489011677227e-01 -6.165389998807982996e-01
-3.581466712557639792e-02 4.222424113266217555e-02 -8.397604822806015168e-01 3.202538544337349413e-01 4.913255529445109127e-01 -8.099609063060428937e-01
4.626393742008246684e-02 -1.691798494569936306e-01 -1.028850037458600930e+00 -8.410372126578463670e-01 -1.217041760762351127e-01 5.271095715791217495e-01
1.224501172367011836e-01 -4.608775952712681340e-02 -8.666367049987507842e-01 -7.390162486658062857e-01 2.955112649635264765e-01 -6.054156229298809366e-01
-2.276586322746778149e-02 7.525674037985563558e-02 -8.614002493993403453e-01 7.665550537594316427e-02 -9.222524895338314321e-01 3.789119674069542643e-01
8.784157598745478968e-02 -7.423485781193073230e-02 -9.460373641468217132e-01 -7.902861401604873715e-01 -4.587503079315601862e-01 4.061969616367621660e-01
5.170155192692200280e-02 -1.840842620644352334e-01 -1.006722385085306870e+00 -8.035121711177624082e-01 5.651602691725297056e-01 1.869814456422176363e-01
9.010505283059978485e-03 6.537966318425011969e-02 -8.888938654705317299e-01 -5.712461987591820334e-01 -6.374209734971560959e-01 5.170805381651127908e-01
2.266023603626357227e-02 -3.738598930055755942e-02 -9.048130518063839389e-01 2.867098238524566356e-01 8.389863047716001887e-01 -4.624926564954178754e-01
7.531884159453727801e-02 2.980146345165500185e-02 -8.272556585337426105e-01 -1.541845644578444807e-01 1.035452785076125259e-01 -9.826013919091127757e-01
-7.694166216781153644e-02 3.937668730340356665e-02 -8.515317462990231734e-01 1.859689727226793432e-01 4.073138648735262213e-01 -8.941537656724720673e-01
-2.017664746988481750e-02 -9.126479259193169546e-02 -9.730145250570649829e-01 2.322967041165493463e-01 6.479944819134351164e-01 -7.253560454468738206e-01
1.717346341305971136e-02 1.009131164464392161e-01 -7.635789647930352197e-01 -6.090416296467414670e-01 7.828425395207976312e-01 -1.273807350970690699e-01
6.808734373192065238e-03 8.942197453958049269e-02 -8.554858324892542498e-01 -4.130254077563799142e-01 -7.864278246537756978e-01 4.592834518660628418e-01
-1.136276610611698240e-01 7.262901738981520500e-03 -8.764107794844612220e-01 3.956467697304625331e-01 3.604573740662190828e-01 -8.447094856121458717e-01
-4.440794021340047082e-02 -1.143042113846457451e-02 -9.564190287506864063e-01 2.713097259031060915e-01 -7.969953183153073439e-01 5.396197691095676596e-01
-9.693624221092878024e-02 -1.218481752869757517e-01 -9.785445759216728767e-01 3.644067051846224814e-01 7.049370407952911810e-01 -6.084994015866125316e-01
-1.313980554030822201e-01 -1.486669290100063601e-02 -9.032791126540582471e-01 9.538739390973107746e-01 5.662453857746930358e-02 -2.948188765019440494e-01
-9.730144281436976794e-02 -9.905948257363653142e-02 -9.939604576552893977e-01 6.760044654091850180e-01 -2.126428770138288071e-01 7.055501184197501274e-01
-8.583384937504150158e-03 1.275981971431036366e-01 -6.730286212348479680e-01 9.526877236345741018e-01 -2.689042558570253760e-01 -1.416919278503630808e-01
6.216221784320343641e-02 -1.462844972734460847e-01 -9.678262706084783673e-01 6.000128223834235719e-01 6.070811790918561046e-01 -5.209962139669728209e-01
6.608626732838970841e-02 -8.689751204071477497e-02 -9.851586140995574059e-01 -6.491010077043964932e-01 -3.331802731660824524e-01 6.838558235257718998e-01
2.819159670937819440e-02 -8.761929109699984064e-02 -9.513722206188472974e-01 4.070046529106934041e-02 1.664159504413523505e-01 -9.852153082264768491e-01
-1.362832048600146062e-02 7.189533183528024063e-02 -8.765932455519498401e-01 6.035457283831668907e-01 -6.379746928091993841e-01 4.782476817355630905e-01
6.447892397762987338e-02 -3.793527898787817099e-02 -8.846982574183395176e-01 4.050780301141501671e-01 5.707762100825095608e-01 -7.142312703338370428e-01
-3.996523199592372927e-02 -1.707515023422210010e-01 -1.009391260392603629e+00 -3.653849053683360659e-01 5.348983505243758430e-01 -7.618251935551056953e-01
-1.472527140726191675e-02 5.279086845831815894e-02 -8.211251830316071976e-01 5.905134765130130026e-01 3.858297591923310899e-01 -7.088224255609463231e-01
1.698395868340793827e-02 9.728922983809283609e-02 -7.790502968472482470e-01 -7.190652984483762999e-01 6.739391346991188136e-01 -1.695616091229098787e-01
5.067669454916773342e-02 -6.893568125911483935e-02 -9.887367803911201181e-01 -5.635415020697668309e-01 -4.373177038940040950e-01 7.008382133601357422e-01
4.109593858931201438e-02 -7.687135123205196541e-02 -9.907490474735025643e-01 -3.180833227641897132e-01 -1.075185877905152909e-01 9.419462580523506601e-01
6.263049954225212435e-03 -6.703196912912393057e-03 -9.595349977749181303e-01 -9.315726538763260400e-01 -1.154252810769999527e-01 3.447454061160416527e-01
-4.122141979080815727e-03 -2.316419362758916911e-01 -1.024358154487560624e+00 4.631918025290217567e-01 4.223162676685135453e-01 -7.791677124550605571e-01
-6.837761651513361849e-02 -5.902727297915426330e-02 -9.954324123115113609e-01 4.586193105448752583e-01 -4.996101874075856153e-01 7.348863780435044291e-01
5.614684951626262594e-04 -1.554001346119354421e-01 -1.043860307821058875e+00 -7.225971115903568887e-01 -2.634580218713368227e-01 6.390956775263900713e-01
-4.146609307713373938e-02 2.410912849635547459e-02 -8.517827421809912591e-01 2.887706790594469219e-01 3.771113344375546794e-01 -8.799991683827164124e-01
-8.181774986159091878e-02 -9.659585580221580203e-02 -9.650670097845432949e-01 -3.339043119170122531e-01 5.362612457627362605e-01 -7.751979016846117787e-01
-7.523950715528920918e-02 -2.754640204615660393e-02 -9.039665476435641001e-01 -1.215229331439508370e-01 6.596468423584648244e-01 -7.416860657222821285e-01
1.027814537870400252e-01 -1.158881622792957145e-01 -9.416818201110764841e-01 -9.557381548479343403e-01 8.590852206368015942e-02 2.813970596944817548e-01
4.121672348861243201e-02 -1.817324235645724206e-01 -1.032950881385465092e+00 -6.581559135259341664e-01 2.130390754971596134e-01 7.221115881926826185e-01
7.296632639505874762e-02 -1.330979525677993269e-01 -9.486323058578886025e-01 3.242850718275439026e-01 3.898163639225488697e-01 -8.619062562761726776e-01
5.768695432383629668e-04 1.396411710586315247e-01 -7.309363346894428570e-01 2.979150346993947873e-01 -9.432107761578816252e-01 1.469696017539177391e-01
-7.651563130678435201e-03 1.293089881948048525e-01 -6.700702135194634979e-01 9.137008214749162693e-01 -3.777222504896270427e-01 -1.499223476374172692e-01
1.752705369968466861e-02 2.622408671816313375e-02 -8.367566843277443045e-01 4.858085954063917980e-03 5.491223053655669428e-01 -8.357278819991996732e-01
-9.318142558286406085e-02 4.015332205612422850e-02 -8.558739248593215665e-01 4.049184576753576681e-01 1.820334277746168128e-01 -8.960495933855631145e-01
1.082224530715696909e-01 -1.034649028953365385e-01 -9.086447936174636419e-01 -4.243117696385392823e-01 6.312297973683071994e-01 -6.492368327972287689e-01
-1.053999156920094327e-01 3.178555324428516266e-02 -9.049191862866425851e-01 4.632603597823386488e-01 -6.591974358510606091e-01 5.923247248104075435e-01
1.109080870084688530e-01 -8.111333089598840584e-02 -8.911247535649464702e-01 1.048144192252855288e-02 5.247333222389891638e-01 -8.512021381007321974e-01
4.611983491054563039e-02 -1.114499135124797785e-01 -1.015443179554419872e+00 -6.201536881039505511e-01 -3.062835496535040725e-01 7.222186582626602958e-01
1.737653723860639945e-02 -6.533696761433450961e-02 -1.005945586770678801e+00 -4.656709474883424238e-01 -6.242130582177612963e-01 6.273026594999731032e-01
-5.847764523490654037e-02 6.747088738910879402e-02 -8.761165314763535994e-01 1.155200958120859434e-01 -8.959596930962535621e-01 4.288488496083831536e-01
-7.176425267553812604e-02 9.345351799396824782e-03 -9.415650347284114652e-01 3.150884430677493575e-01 -6.791657588007357083e-01 6.629126225361549052e-01
-8.252643993384199683e-02 -1.034613859325687196e-01 -1.006944294066136836e+00 5.672176201546189622e-01 -2.213901827297529989e-01 7.932531489865117802e-01
4.954558408575267248e-02 -1.347395825621845455e-01 -1.020586546815712481e+00 -6.820274018357420642e-01 -2.248409492860001246e-01 6.959060070651477137e-01
4.283170734244548528e-02 -7.870967179422819898e-03 -9.388925688794587110e-01 -1.796545050580297120e-01 -9.241184111875101748e-02 9.793795538162909375e-01
-7.809356806441687671e-02 5.631546120530005889e-02 -8.489227740020284241e-01 5.071551598894652457e-01 -3.742564780442249051e-01 -7.763541282426619228e-01
1.020683622916215005e-01 -2.217436467622320787e-02 -8.976451315728434244e-01 -7.411318207165713545e-01 -5.093767541995859460e-01 4.373316208581705666e-01
-6.993397582539029322e-02 4.904975087091300451e-02 -9.009382834836527909e-01 1.164886869310986783e-01 -7.523414095044504979e-01 6.483924655345134624e-01
-1.775233674326748279e-02 1.148309595816484618e-01 -7.594071417233007049e-01 9.864263428884960661e-01 -1.583977720734116024e-01 -4.328066378657850072e-02
5.468416492648858762e-02 1.021592467454851896e-02 -9.184218502952303798e-01 -4.774005782377210849e-01 -6.353460214979080867e-01 6.069795061326775931e-01
-1.334855735876418550e-02 -1.057333357277177865e-02 -8.830767924322499018e-01 3.272746920620628885e-01 6.458327429339786319e-01 -6.897763000350589646e-01
1.113679680558462004e-01 4.192803303002093406e-04 -8.608087257920178370e-01 -8.855003762462846373e-01 -4.572270799702402022e-01 8.265882293848499096e-02
-3.881479275779592397e-02 7.322006510058282069e-02 -8.674338077805673342e-01 4.992665654285988880e-02 -9.220823710393551975e-01 3.837595992087917685e-01
-1.227368604193303653e-01 -4.456959176381071475e-02 -9.191083823272994113e-01 3.117036228034488210e-01 5.660071394458549010e-01 -7.632016572489381812e-01
4.077649032394981693e-02 -8.470317002944018070e-02 -9.996940450023459324e-01 -7.598421329234843480e-01 -6.315313555325409167e-01 1.542986714574083040e-01
6.718559521592841477e-02 -5.484237385268443676e-02 -9.596957579948676154e-01 -6.811043114081309913e-01 -4.955514073675461040e-01 5.390043781244266974e-01
-1.298773258206137593e-01 -3.264650555777754565e-02 -9.254318088770577821e-01 8.897369418408942465e-01 -1.772604394843503295e-01 4.206505805504470175e-01
5.025973300007239436e-02 -7.235805089306347748e-02 -9.291179560313480579e-01 5.222650309005051339e-01 6.022535768292539560e-01 -6.037630882182715153e-01
-4.103486384117519849e-03 1.396252327412220995e-01 -7.042189044170994450e-01 5.464978055957023795e-01 -8.372731795360937035e-01 -1.771359107019217574e-02
-9.689232550246220863e-03 1.089112459963672702e-01 -7.195597640766211445e-01 6.516223726231654689e-01 7.471782034479678147e-01 -1.308167259536180960e-01
1.139131374611721155e-02 1.430046553468209969e-01 -6.739715907632972680e-01 1.324706069108969597e-01 -9.855845462662456979e-01 -1.052361176869300863e-01
8.376539439464965320e-02 -4.509246988349172036e-02 -8.780220183532402300e-01 4.322188344397865367e-01 5.598890191915359971e-01 -7.069025147389504937e-01
2.425859588173653186e-02 -1.869088918663062981e-01 -1.043573030197472162e+00 -3.904945248163842475e-01 8.138242373321893930e-02 9.170010508149557538e-01
-5.737627729499144430e-02 -3.185513469306558432e-02 -9.099394711362845944e-01 -8.826619410795694945e-04 6.047802432432819453e-01 -7.963919124969154328e-01
5.142814981656020773e-02 -1.785666788209772926e-01 -1.015580192050008712e+00 -9.056271666111348484e-01 2.818458157637496742e-01 3.168633321044806994e-01
-1.214251852400155679e-01 -3.987996251649066765e-02 -9.419136341336310503e-01 7.087772073490323788e-01 -2.969432682944688762e-01 6.398902763420506457e-01
6.445123483842842005e-02 -1.342580098772236386e-01 -1.004703348298555454e+00 -7.370603899271679360e-01 -1.661867996659598112e-01 6.550755141334448917e-01
4.540999032752112557e-02 -2.279541999801106694e-02 -8.822112285639343021e-01 3.830618947320560963e-01 5.972405943179616150e-01 -7.046752850093546128e-01
6.427246224091141824e-02 4.441893626447514926e-02 -8.263560728913015296e-01 -3.231385343578308533e-01 -3.746780953585956420e-01 -8.690211806806138473e-01
9.174800013617923078e-02 -1.072613914364911880e-01 -9.621048002962873102e-01 -8.222297989154755404e-01 -2.243853488894304582e-01 5.230577147688245665e-01
9.509999831801337067e-02 -6.271687572445097669e-02 -8.841440629249124328e-01 2.985118749264210058e-01 4.993899160637850776e-01 -8.133267315548643461e-01
4.606529801133459751e-02 -1.071814226879446753e-02 -9.385960479511031851e-01 -1.359622722982498089e-01 -9.489228867381829802e-02 9.861590713783153772e-01
2.044076752484956516e-02 1.048686532638022362e-01 -7.615444514575616664e-01 -8.702713142260181112e-01 4.909328892608357808e-01 -4.015890782039290702e-02
5.288406384192516352e-02 -1.369286796766530367e-01 -9.699199735974181058e-01 6.611556587495446280e-01 4.790383973922796579e-01 -5.774040255551496914e-01
6.596483479118855908e-02 -1.442183776581582554e-02 -8.568059712903431935e-01 5.770213612100281164e-01 7.925358858321921440e-01 -1.973150231875638316e-01
-5.782568604214015362e-02 -1.536610599122589238e-01 -1.029542201021806491e+00 6.642568825807818600e-01 1.743904279054733220e-01 7.268774123598884529e-01
1.390804282204006689e-02 -1.338774254169832201e-01 -1.032340718340419627e+00 5.037077247986446737e-01 -2.296332033780324189e-01 8.327947645635844776e-01
1.795597702730847289e-02 5.657820751120833797e-02 -8.194626367577805270e-01 -2.236937296604118719e-01 4.495102315359663092e-01 -8.648130821484468767e-01
8.856028183046832369e-02 -3.059076382351422554e-02 -9.233570658386442975e-01 -6.622174525932664757e-01 -4.531654939999913423e-01 5.967487582966793935e-01
8.342067127137509086e-02 4.840431714050707525e-03 -8.860333695701644308e-01 -7.246415807119456209e-01 -6.743231826321549605e-01 1.420662692835083230e-01
-7.106662300032744184e-02 -4.830418335079405580e-03 -9.540748950132330597e-01 2.916668926713986698e-01 -5.728160289203021449e-01 7.660366967263292359e-01
-8.073809576606667815e-02 4.375556403972633707e-02 -8.505222753498111743e-01 2.297596373021523197e-01 3.251219263979766017e-01 -9.173364933556562573e-01
4.118364513612697564e-02 -4.922285179871807581e-02 -9.818098326807275233e-01 -5.373820567803970771e-01 -5.522633329232042865e-01 6.373584047920166640e-01
9.713515964262550706e-03 5.071024382572610761e-02 -9.055850177731123996e-01 -6.209033962907031245e-01 -6.061299370512210904e-01 4.970769275323013714e-01
-2.157226000113203826e-02 -4.313677260592257978e-02 -9.279790508547974826e-01 3.461431061040251556e-01 6.400228792677328249e-01 -6.859706000336303067e-01
2.072820233036980903e-02 1.386062891423656129e-01 -7.187814096923751395e-01 -6.032472794637098179e-01 -7.880989133826855619e-01 1.224451817943975757e-01
9.608362959169595161e-04 6.140447347697877006e-02 -8.979468958662153444e-01 -9.985741082473094388e-02 -7.718459288756128744e-01 6.279190708853515934e-01
8.113211924307399403e-02 -9.764202775832395154e-02 -9.730815040048340636e-01 -7.813393335193057343e-01 -2.748325990701167010e-01 5.603355141198631539e-01
1.001643443481118334e-01 1.905004747954590349e-02 -8.564519461062383154e-01 -8.020670216127114838e-01 -5.933690513134000089e-01 6.783554956473809849e-02
9.446187633586299037e-02 -3.916006617368980591e-02 -8.638668842357837274e-01 4.147488340137014395e-01 7.395985357388544790e-01 -5.300730238535229510e-01
-1.203729287491986100e-01 9.062668135075450243e-03 -8.799272097136472404e-01 6.062080531296047958e-01 2.636992952316874472e-01 -7.503162519998654023e-01
-9.742527357262920074e-02 -2.387859978688356907e-02 -8.966224176011663438e-01 -6.928312728804324194e-02 6.968612630481291204e-01 -7.138516851112386430e-01
-1.159253236337511594e-01 -1.805706457591793601e-02 -8.898598893992912817e-01 3.610596417863308760e-01 5.884160431840336214e-01 -7.234656143845206167e-01
1.001385505205517196e-01 -5.660166356247342545e-02 -8.782338887829063134e-01 3.124325394238756104e-01 5.935817082197419881e-01 -7.416513088885379190e-01
-7.234459649492068489e-02 -1.026197762885478204e-01 -1.012945898946921996e+00 3.625093323268018253e-01 -2.159529572548316567e-01 9.066153011221845803e-01
1.076324588018437306e-01 -4.801573463491548566e-02 -9.112164770693214066e-01 -7.760528282077207018e-01 -3.463230331454510424e-01 5.270696012328281999e-01
5.210718901552833376e-02 -1.121744094550917829e-02 -8.658993395359413370e-01 4.390963929144959810e-01 7.118725516924386820e-01 -5.481166188653420202e-01
-9.877819055119396729e-02 4.652777418952246807e-02 -8.885592252434735272e-01 5.169968493849439461e-01 -7.905130147843927313e-01 3.283343283644459265e-01
-9.203093191610191293e-02 -8.042506776863966866e-03 -9.459601661870822298e-01 4.781880632785528995e-01 -5.353656101723096583e-01 6.962182413458709584e-01
-2.225748751463112879e-02 8.708703576158441373e-02 -8.167587598796935966e-01 9.751773110580636006e-01 -2.164190733105788300e-01 -4.681876445352661786e-02
-8.459940111128064211e-02 9.766936256100117609e-04 -8.712225679349493435e-01 -4.834251446043130035e-02 6.380455437955523390e-01 -7.684795933128484302e-01
2.970597348893144578e-03 3.279855156775382530e-03 -9.583164471911460591e-01 -5.974472960134530330e-01 -3.983230759522953246e-01 6.959852409714702981e-01
-7.574857748294168761e-03 1.138444862706202293e-01 -6.724154841732615795e-01 9.380941806871440081e-01 3.436179366053213613e-01 -4.365800962042631905e-02
-5.978292692985111290e-02 2.242022998992713664e-02 -8.573160089192662925e-01 1.906039088415453220e-01 4.125699739363729579e-01 -8.907615654822924611e-01
4.114683056002953893e-02 5.151820562172144263e-02 -8.772328444971747574e-01 -3.253069849922879397e-01 -7.591757590393916066e-01 5.637619465715925093e-01
-6.694511607312124413e-03 -2.166972270453079441e-01 -1.018689113570597771e+00 4.601130343644822540e-01 3.511255876623754490e-01 -8.154795014570630496e-01
-3.582335169947589021e-02 -1.329421505940353056e-02 -9.724610945514503557e-01 2.394439679666313658e-01 -7.581942994513461986e-01 6.064717557181680263e-01
1.148977163581452327e-01 -8.591902702626136312e-02 -9.155896106971288528e-01 -9.451939726568111544e-01 3.301438444032517988e-02 3.248359654860616397e-01
-8.952654044473806749e-02 -1.255796883468262293e-01 -1.002304447239726448e+00 7.902148427442640122e-01 1.662300630005788815e-01 5.898542773104914483e-01
4.027107754091757003e-02 3.436928878414551719e-02 -8.298136388475200187e-01 1.466980948820454933e-01 4.910180055155082823e-01 -8.587089071493033687e-01
-1.020853960961310564e-01 3.519185576925879660e-02 -9.035443029971297335e-01 4.202473728686763610e-01 -6.882367356545000536e-01 5.913732673131358863e-01
-2.732896136040368056e-03 -1.012620320118091388e-01 -1.028384170818372745e+00 -8.735340310456711777e-01 7.416103764280825017e-02 4.810804892124003196e-01
4.122951882051138078e-02 -1.128145011319292845e-01 -9.624869387444584534e-01 6.989373506282875459e-01 5.372181790865447892e-01 -4.721050814761977299e-01
-8.383976053585977251e-02 -5.388582158593949872e-02 -9.795644587979281948e-01 6.237373879405428978e-01 -5.637335749312879507e-01 5.414389415070722800e-01
-1.489794928809283665e-02 5.890515332388581576e-02 -8.173341813209969997e-01 6.042845817594376667e-01 4.412114191139936969e-01 -6.634550684795745834e-01
1.049487895395255638e-01 -1.226876099451147326e-02 -8.816383390997217795e-01 -2.692996651190598389e-01 -1.181484813611137635e-01 9.557816836071011402e-01
2.612093810826387336e-02 -9.783455505272653507e-02 -9.615496496313938879e-01 4.546328795474273154e-01 6.903959136253743356e-01 -5.627276670680045889e-01
-5.605937259763615205e-02 6.316456943875230386e-03 -9.496487567134453966e-01 1.799838953281402698e-01 -6.321695443957999760e-01 7.536361619249143384e-01
7.691633721250200340e-02 -1.178401925055523082e-02 -9.203276098882190448e-01 -6.050526245402539915e-01 -5.227176090893408400e-01 6.005644200956909984e-01
-6.174961313554097608e-02 -8.973753299056275168e-02 -9.682317649477556465e-01 -2.123075202920460258e-01 4.466545793357801220e-01 -8.691520025782715209e-01
2.234958591178230064e-02 -8.307465207332611137e-03 -9.425799673251629152e-01 -5.228002418180024424e-01 -7.343137862755824141e-01 4.329701726916723170e-01
-4.213555304720135314e-02 -1.430321762525202205e-02 -9.708432522067891313e-01 3.735509352055983445e-01 -7.786801646720254988e-01 5.041000892217440965e-01
7.618036712381298647e-02 -2.329909867165787934e-02 -9.299290529157827612e-01 -5.899431851453547093e-01 -4.590594220481711285e-01 6.642525764566914459e-01
1.135100022248738613e-02 1.431067015719419966e-01 -7.153423935305487369e-01 -5.535233317083884663e-02 -9.916678960657536734e-01 1.163224102444002372e-01
9.156395471406647557e-02 -8.986696229088925181e-02 -9.527513007948040791e-01 -8.076370307903146806e-01 -3.276009089629102755e-01 4.903060992307551325e-01
-1.707521612209170203e-02 1.033899706803696472e-01 -8.169763743742024520e-01 8.435440625832247852e-01 -4.777652499768703653e-01 2.453034455427138549e-01
-3.419315595212493036e-02 -1.156719817562546285e-02 -9.708213737875269755e-01 2.328086360313275371e-01 -7.763876951229645718e-01 5.856810444694994233e-01
3.391834322589061534e-02 6.955425529321357901e-04 -9.393140158270321116e-01 -2.513960475075042722e-01 -2.873636996975874047e-01 9.242413815631279617e-01
6.007505227283906762e-02 -3.215420170305616915e-02 -8.823104485415462772e-01 3.811451848428176192e-01 6.122822388187348919e-01 -6.927039830246772834e-01
7.379411017977940968e-02 3.925331884067506660e-02 -8.689638534216975740e-01 -5.116425584141602867e-01 -7.231336058338257988e-01 4.640039660748402350e-01
6.551254116603738575e-02 1.403313340879393765e-02 -9.033335308320893375e-01 -5.121919490606371417e-01 -7.486430992813459806e-01 4.209428906821998106e-01
2.240576575597193892e-02 1.233209288994269182e-01 -6.181611139895775153e-01 -1.549564592315217371e-01 -6.516011405407784451e-01 -7.425661245898487195e-01
3.976546760270086543e-03 9.845030311997300665e-02 -8.398214839765005824e-01 -2.122360453562699423e-01 -8.809265011512564802e-01 4.229945160648500568e-01
3.419596190396752278e-02 -1.641241960281359102e-01 -1.038715244334267762e+00 -4.557984659371639991e-01 -9.613886407745857177e-02 8.848757411429154507e-01
-7.784717791684637794e-04 1.094705242469550532e-01 -8.205549757457073490e-01 -2.037426563769592636e-02 -8.721686047220360560e-01 4.887809470887153340e-01
1.848093009100481784e-02 1.159489184222653319e-01 -6.124143692880060774e-01 -7.350625409824559919e-02 -4.428380722817647497e-01 -8.935833885800557042e-01
-5.963833337218492261e-04 1.404428458978918548e-01 -6.845640110589408245e-01 3.859551383081755715e-01 -9.195847039008629986e-01 -7.350240516527004053e-02
-6.558137824507141722e-02 -3.176865621828029590e-02 -9.091532464193919916e-01 -9.730437609422280809e-02 6.552970995655992281e-01 -7.490778128431164751e-01
3.893772030245694175e-03 7.980220090913590913e-02 -7.933012576442149966e-01 -2.758334555508068497e-01 7.478912117095155576e-01 -6.038001658219163126e-01
-7.867830019682351371e-04 9.970174129252765138e-02 -6.347034329486642701e-01 7.997738015862383421e-01 5.969990383594675487e-01 6.288095494000796315e-02
-7.956292443490380062e-02 4.308120793126406223e-02 -9.054852492055174285e-01 1.430644994846043683e-01 -6.847836758644676447e-01 7.145655087231455038e-01
2.409241898309867277e-02 1.134056769543970999e-01 -7.105888030772780084e-01 -7.674103068384333648e-01 6.411562551342996352e-01 -2.783169103813177181e-04
-6.430962585451292790e-02 2.460532372344754679e-02 -8.571685571201818066e-01 1.522542893300884437e-01 4.582416720670423049e-01 -8.756901286195882816e-01
5.775301410534975505e-02 -1.463274236387484932e-02 -9.369365071902874265e-01 -3.911451827553460436e-01 -3.683251819093577573e-01 8.434109356527965673e-01
3.087821889152405491e-02 -1.432770379141771744e-01 -1.031541929895796406e+00 -7.812592522973461628e-01 -5.112727574379913875e-01 3.580979589463534896e-01
6.312471468395676466e-02 -5.475747315428579343e-02 -8.968245384735253900e-01 3.869873563188756527e-01 4.182977198626333104e-01 -8.217468001805966482e-01
-4.248488025126815476e-03 -6.124347798061600956e-02 -9.362230981229213711e-01 -1.479021103561487804e-01 7.300072535268193885e-01 -6.672438651276064725e-01
2.171074707977777365e-02 -1.595451475261466245e-01 -1.041704504530474251e+00 -5.465137203057739840e-02 -2.449143081431389424e-01 9.680032072270954302e-01
-8.472435290469523816e-02 4.951626889607366189e-02 -8.950296820339620485e-01 2.847366328377128886e-01 -8.060112247974273725e-01 5.189132445995114917e-01
-7.822398678051932508e-02 1.716413572873225213e-02 -8.629031459987341890e-01 1.617747950619615460e-01 3.822551896332063159e-01 -9.097856262225413326e-01
1.994060115760217314e-02 -1.030714450433346252e-01 -1.029119688474832817e+00 -7.473329973004653320e-03 -1.958204755366724226e-01 9.806112841996600382e-01
4.577601635325453250e-02 6.178998789636388350e-02 -8.557416377869094815e-01 -3.473111981696938022e-01 -8.699992636834982251e-01 3.499660166589078081e-01
2.582260592271825791e-02 1.393685770904090904e-01 -6.767904107005031644e-01 -5.978405156206896276e-01 -8.002959301933774139e-01 4.596892426742951038e-02
-4.589567613155575571e-02 -3.647569029804303281e-02 -9.207000337901278808e-01 -2.572198716181492428e-01 9.079407825445510172e-01 -3.308798468283180583e-01
-1.130921845035984391e-01 -2.621540486358914235e-02 -9.420515668813849164e-01 5.854117863721061132e-01 -4.175691216256229854e-01 6.949309814948715358e-01
-3.680942178703496860e-03 5.506479691684574435e-02 -9.050918940747668673e-01 2.424248100016979657e-01 -7.504067896106818569e-01 6.149145156863925488e-01
-1.036873633748918028e-01 4.468370104563575834e-02 -8.828013377922927507e-01 6.841441765183139401e-01 -7.127733242316142137e-01 1.545992690794235624e-01
-2.284004171760278812e-02 8.251947163827760834e-02 -8.341503259385045776e-01 5.606764937469915777e-01 -8.194823258482308859e-01 1.187037782968755478e-01
4.422167810962401163e-02 -1.238370043456765712e-01 -9.692501941663278497e-01 6.713581052779962199e-01 4.704757438252809010e-01 -5.726524853256010905e-01
2.825179100196273732e-02 1.339355446782606041e-01 -6.363692931812701126e-01 -2.708675972298123513e-01 -9.020521960760510272e-01 -3.360544305991545744e-01
-3.945255404579646463e-02 -1.635301477795849945e-01 -1.005674751136355960e+00 -1.213257851772061441e-01 3.517780843741823427e-01 -9.281876066858280039e-01
-1.055396180680547198e-02 -5.875325138746390063e-02 -9.347721008650864416e-01 3.816692727362801518e-01 6.847760089629862934e-01 -6.208142909096754369e-01
9.743249919407706572e-02 -1.289394601932399576e-01 -9.448783822019894973e-01 -7.695963737030611096e-01 6.295108126972058793e-01 -1.069465206558941478e-01
-9.983651266147805514e-02 -1.033762954412129897e-01 -9.923858139369587938e-01 7.366247710510992475e-01 -8.381495324172205663e-02 6.710879229184529837e-01
-1.002159507576937114e-01 -1.099859832115788055e-01 -9.686244911561719961e-01 -8.946400065546097902e-02 6.233540490631226394e-01 -7.768049446954684578e-01
-8.389780920124673136e-02 -2.371858433840353525e-03 -9.465121707669352791e-01 4.071359694499397941e-01 -5.768606728484655388e-01 7.081469243743654385e-01
-7.802414336154243901e-02 -2.316565031074191081e-02 -8.994014899812837749e-01 -1.249241504799719765e-01 6.793165629151667329e-01 -7.231341258549353057e-01
-7.363391808754050916e-02 -6.637779068589037823e-02 -9.464430923937822149e-01 -4.064035284363989864e-01 6.077641686067056792e-01 -6.822454744681307748e-01
-2.178108462130715073e-02 8.288319105335016646e-02 -8.369462205909288244e-01 6.931503519110604472e-01 -7.084220759184095551e-01 1.329689888546354559e-01
-4.528443843169198575e-03 -1.990132114859319290e-01 -1.047626643018124915e+00 -4.989653129050670294e-02 1.734118928782617808e-01 9.835845929931770204e-01
1.180547011685874059e-01 -4.296811794523358596e-02 -8.899005269853846878e-01 -8.515457230479906992e-01 -3.773475147172563049e-01 3.639762831495816364e-01
-7.864707542419753505e-02 5.947596665045518788e-02 -8.814792463841825132e-01 3.467935325953055425e-01 -8.475446731593878624e-01 4.017490171104531882e-01
-3.079664938857144124e-02 -1.855539750324561865e-01 -1.040630846402003096e+00 5.678300472371022867e-01 3.894129192936955919e-01 7.252079810246657710e-01
1.829855829785726612e-02 8.898780921587770565e-02 -8.198506218623674568e-01 -9.936128789134505146e-01 2.066839780909651009e-02 1.109336026158422306e-01
2.740592937866898754e-02 1.289374886418105104e-01 -7.139896898465704078e-01 -9.822149719474491114e-01 -1.492719822152340781e-01 1.138930384519021288e-01
4.968587417648395038e-03 -1.294973600293835257e-02 -8.851490059057524062e-01 -6.592916842998843008e-02 6.879673725350013980e-01 -7.227407827689100728e-01
-1.966984272425929478e-02 1.003229850594494210e-01 -7.904914310699425739e-01 9.844765705898333996e-01 1.409395425662793855e-01 -1.046036677219723543e-01
3.350068594572395975e-02 -8.446084926245217561e-02 -1.010004187114975194e+00 -5.752608514735980672e-01 -4.972729644164386453e-01 6.494571206957069354e-01
-2.973608970559035725e-02 6.255897277439477489e-02 -8.274725740277970587e-01 5.356916200925756488e-01 3.761075913691233619e-01 -7.560274914823587045e-01
-9.034905796971068326e-02 -1.890677570453367165e-02 -8.927822489557190044e-01 -1.250322297903959934e-01 7.096220351234867607e-01 -6.933999630666580760e-01
8.627032026644096407e-03 -8.947162550377329993e-02 -9.634238830904403583e-01 2.617035943138820153e-01 6.766998435329075745e-01 -6.881777026943937114e-01
2.629230132457876026e-02 -2.164543826012695071e-01 -1.025637326726881238e+00 -7.751295704039057322e-01 6.161116563204160901e-01 1.399306114885888463e-01
7.197921248976235642e-02 -4.437248198593754522e-02 -8.850411649248051127e-01 4.578641131662457564e-01 5.248064383212767137e-01 -7.175922631766756821e-01
3.268366451183521079e-03 1.183821574257567111e-03 -9.592699019640349434e-01 -6.248611296923520797e-01 -4.065181500173981055e-01 6.665519952006966342e-01
5.991814403979581899e-02 3.927754547050397310e-02 -8.805872052756221757e-01 -3.580781330033389609e-01 -6.449723851767199534e-01 6.751227096049250420e-01
5.667606998463677742e-02 3.340581818215380971e-02 -8.833544782754161329e-01 8.434831590643922239e-02 2.002855132186798781e-01 9.760999307440185735e-01
-6.055552026416650968e-02 7.168990232629182668e-02 -8.553148471244963469e-01 3.379524541782064628e-01 -9.406214410943051218e-01 -3.192872168753707607e-02
9.579900916486257245e-02 -6.422453568790252587e-02 -9.317580582254176846e-01 -6.617554742333342510e-02 8.411368587116553608e-02 9.942563476148338353e-01
2.072424312469043142e-02 4.566809905453311780e-02 -8.251990783719231892e-01 -3.687372944739103486e-02 4.853117025218826597e-01 -8.735633231036843416e-01
6.537837641610440287e-02 -5.527254186107133718e-03 -8.457082662381998350e-01 3.280697338101736249e-01 5.410553857563017432e-01 -7.743573589124219669e-01
-3.956543292401954598e-02 -8.025949697814427006e-03 -8.891467657326369567e-01 1.498320315693170944e-02 6.850102312671658700e-01 -7.283793562989425707e-01
5.247712734829394765e-02 -1.711717566771338850e-01 -9.882627635765169893e-01 7.860209215096181090e-02 2.614811121545609907e-01 -9.620027749938694361e-01
1.108126711475425491e-01 -2.989664430213498716e-02 -8.877805345428420036e-01 -8.403168357285781820e-01 -5.415091090868328072e-01 2.520913261289041418e-02
8.503926785406526467e-02 3.387282157561472690e-02 -8.360167900516082273e-01 -7.204100218347984086e-01 -5.375669502989132154e-01 -4.382136172990418466e-01
1.266900997045333072e-02 -2.206522402486920872e-02 -9.726931143222551368e-01 4.656494150470175675e-01 -6.816355275166020578e-01 5.643966955019616982e-01
-4.030289865893907364e-02 -6.584974094797031718e-02 -1.007500342749696687e+00 -5.008583000749586844e-01 2.896156730317243078e-01 8.156370057693581588e-01
-8.018008838899257085e-02 -3.759317772289619275e-02 -9.603966052991891322e-01 2.798871956685377027e-01 -4.357421170587864601e-01 8.554484000347002404e-01
-2.919490624642501891e-02 -1.731351636734559385e-01 -1.012432930223503780e+00 1.146100147386884816e-01 3.505339845391359233e-01 -9.295108768619733119e-01
-1.516899999542058522e-02 1.222372683011027916e-01 -7.277670893742873570e-01 9.952551026653616573e-01 -7.271893000556860220e-02 -6.464702496948981914e-02
3.876429396840401498e-02 -1.998026423240828742e-01 -1.021444255500209009e+00 -7.780526626814510127e-01 6.270084434019820296e-01 3.865832377286400334e-02
-5.433319343912542537e-02 -1.734928229759143958e-01 -1.014506485998572405e+00 6.818682509470872510e-01 6.043324082714640610e-01 -4.121140966567055086e-01
2.021114638058987834e-02 1.001059595464766500e-01 -7.960733208844426034e-01 -9.795293605629988853e-01 2.008549924490114769e-01 -1.339790294598355164e-02
5.910488019338538783e-03 1.432362166279587956e-01 -7.035460433636057109e-01 1.876105229999657231e-01 -9.813356797283061539e-01 4.222055603450422523e-02
-8.812995050536679559e-03 -6.496706987127839200e-03 -9.623927363272037905e-01 4.430825582551345954e-01 -6.544745718725009098e-01 6.126507009237742718e-01
-3.353834438028464870e-02 -5.346103262621152569e-02 -9.416807561035047680e-01 8.518642850875354777e-02 6.831822822347566326e-01 -7.252621882039849144e-01
1.229321494520019403e-01 -3.742615791209488729e-02 -8.652222164082074007e-01 -9.229450456572914074e-01 -8.001648455917942382e-02 -3.765233125524244939e-01
-6.637167803545275524e-02 -6.590467663679078214e-02 -1.000911110504789647e+00 4.635852282827991888e-01 -4.604670462780808271e-01 7.570064962798699337e-01
2.484156114856186578e-02 -4.244339176631450883e-02 -9.881256476230467767e-01 -4.275065528935276249e-01 -5.519215632162157714e-01 7.159753733823965849e-01
-3.520285498388517689e-03 1.051215754836223315e-01 -6.295590520762324171e-01 9.559977527902802086e-01 2.921704945513806662e-01 -2.654616306617706145e-02
9.036598404580212240e-02 3.150775843431860568e-02 -8.510326987253603592e-01 -7.520717283640145912e-01 -6.581175928018059285e-01 3.562793062080055195e-02
-7.650447187988241617e-03 7.304461242746158878e-02 -8.809049781330863249e-01 3.073241237991771735e-01 -7.603580814552390876e-01 5.721953083491475578e-01
-8.660608957555980883e-03 7.611931145014980138e-02 -8.759709134941731090e-01 4.202759346359651871e-01 -7.329872038239231280e-01 5.348811997034973453e-01
-2.569296707232784915e-02 7.410621590511720647e-02 -8.644397543347577262e-01 -9.538703593181262208e-02 -9.039186412499953249e-01 4.169321328188863029e-01
3.004200647681003547e-02 4.576512141773123044e-02 -8.252409864536423001e-01 1.527947532139214103e-02 4.192680278078038114e-01 -9.077339139263540524e-01
1.023325466056170842e-02 1.056867766450771476e-02 -9.399121299643102834e-01 -6.873492995344484546e-01 -3.201122807328344866e-01 6.519808802054901653e-01
4.814439614844661514e-02 -5.976143954587421342e-02 -9.844125573284834285e-01 -5.667835468796174059e-01 -4.944906235154815088e-01 6.589654271976872479e-01
-7.819357471060152387e-02 -9.051704565987414575e-02 -1.005249063777053697e+00 5.310598814941235313e-01 -3.023520223188153611e-01 7.915545823676154447e-01
5.503243205700454610e-02 4.867223945543799890e-02 -8.721408410876493322e-01 -3.863278882587325436e-01 -7.567259205887134632e-01 5.273676553057766725e-01
3.113255998484943873e-02 5.424696485898407305e-02 -8.789723575530462574e-01 -2.960776088158527664e-01 -7.624641745076661259e-01 5.753142029797546630e-01
1.360489637949382873e-02 1.199915914310018816e-01 -6.148260381569279343e-01 8.211029118479805378e-02 -5.772898183642288794e-01 -8.124003727808989384e-01
-2.158137740260211018e-02 1.695052994335001506e-02 -8.529986144879686538e-01 3.323254492655952630e-01 7.895644777505421708e-01 -5.158950777483091166e-01
2.404186227556802044e-02 -1.715757137857309711e-01 -1.043550004839912004e+00 -2.434035638827942161e-01 -9.597711162778840843e-02 9.651648041307462345e-01
4.893670871380697424e-02 -7.145751595884074214e-02 -9.912841669292178359e-01 -4.393318176830909305e-01 -3.152969125087606295e-01 8.411750180157007151e-01
-9.873859889369138165e-02 -4.775674851575079267e-03 -9.386528305994161769e-01 5.003161586334909927e-01 -5.412889608317300594e-01 6.757884301258293425e-01
-2.598694444908546466e-02 1.274817949208892180e-02 -8.618799123434091047e-01 1.823013279276225196e-01 8.259641127936260263e-01 -5.334318233972019652e-01
-3.195118596324346416e-02 8.226656403571156254e-03 -8.702121445773669528e-01 7.719753795784872752e-02 8.062846872862127201e-01 -5.864687060543134489e-01
3.100103781268402636e-02 6.758382490223897344e-03 -9.370288759583431659e-01 -3.713371009059712735e-01 -5.552813602521106118e-01 7.441581609088986360e-01
1.882232501232526667e-02 -9.003802563254025004e-02 -9.576722271580100365e-01 5.138011077442314889e-01 7.694811568128782087e-01 -3.793509865424306571e-01
1.590086148648831368e-02 1.027730203626519151e-01 -7.468207053247098992e-01 -4.877525598684177566e-01 8.616601991466227295e-01 -1.401397215225137216e-01
-7.659603139348998557e-02 -4.798943808612490119e-02 -9.813837745515945343e-01 5.564168228059659382e-01 -5.759810307861137346e-01 5.988707468837329850e-01
5.573773084764308688e-02 -1.105326094610973031e-01 -9.496730086898625967e-01 4.439836543588756568e-01 2.460360308166949506e-01 -8.615943280930443704e-01
1.010861969152808959e-01 -4.389502356449117432e-02 -8.633510180654917487e-01 4.808982581051096106e-01 7.967206542591813712e-01 -3.660233113181365350e-01
3.321530306780885039e-02 1.060361375551876206e-01 -6.242416081229441582e-01 -8.754328029225598717e-01 4.403569794098289858e-01 -1.992564635142407004e-01
-9.140986803173371811e-02 -1.297534088173291911e-01 -9.970192651097483649e-01 8.134215561371622716e-01 3.317791199761181975e-01 4.777739921335925066e-01
-1.278584253806137883e-02 7.406646837217696622e-02 -8.039173374690095075e-01 5.798788157800457421e-01 5.193514638155715124e-01 -6.277058355967027881e-01
2.265235994436140630e-03 1.399391063331194562e-01 -6.692325912394171405e-01 4.047658998688860033e-01 -9.042548181951285402e-01 -1.359698130991797704e-01
-4.815569489484104737e-02 6.586778834860169962e-02 -8.807273767918245566e-01 5.691256979304237795e-02 -8.488015860483651975e-01 5.256394457433076761e-01
-5.190314440684261343e-03 -2.333018401758776561e-01 -1.026294678824217099e+00 6.478020227039258394e-01 4.650719654012359094e-01 -6.033743501165209633e-01
2.278322891627926599e-03 -9.126032272281223157e-02 -1.020585953863255124e+00 -3.958819734131118206e-01 -2.677967829738566174e-01 8.783862169657453700e-01
3.705071421842656698e-02 -2.960064793548396189e-02 -9.673391222969642822e-01 -5.038761825429508567e-01 -6.061796463148492187e-01 6.153495178023195011e-01
1.840616403285157479e-02 1.387722543914861051e-01 -6.464443483043641470e-01 -5.793730839244210125e-03 -9.635679013217934852e-01 -2.674010699778091582e-01
-3.484358240871025109e-02 -1.161970840331861821e-01 -1.036325353012558459e+00 2.883211226512894521e-01 -2.479390966736621238e-01 9.248768212977058756e-01
4.371325857493867095e-02 2.928606370735367323e-02 -8.928266251293809352e-01 -4.476966786277124521e-01 -8.834461248392729837e-01 -1.381688403808421783e-01
-9.050327860918139233e-02 -1.320658506512157326e-01 -9.967026072071005771e-01 8.323661710757792598e-01 4.098105886690255328e-01 3.731244278567048545e-01
1.344339034490628706e-02 9.429573145160827230e-02 -6.297596060199103229e-01 -1.265988595245927106e-01 9.800757834280986458e-01 1.530496243212358387e-01
-4.154858557499139377e-02 -8.252842898528521542e-02 -9.641438612069209713e-01 3.190040695932544468e-01 2.917307707366394998e-01 -9.017369688486484014e-01
-9.318895622999925910e-02 -1.240848110928471637e-01 -9.975412233583434984e-01 7.926856063076220815e-01 2.703419724133577229e-01 5.464107864092481170e-01
7.459365578775678345e-03 -2.121504324825662993e-02 -8.923708624495656494e-01 5.022472504444979585e-02 6.244968735222028444e-01 -7.794107594556308749e-01
-2.255904154594190122e-02 -3.506463143961423279e-02 -9.184802057340358816e-01 2.136872629376040389e-01 8.076447047285836289e-01 -5.495887413167359625e-01
1.064290153609813265e-02 -9.241400229028719215e-02 -1.023785972228575147e+00 5.813637593040067442e-01 -1.384868963179395340e-01 8.017715129113385242e-01
-2.853181971850723281e-02 -1.193657311628009143e-01 -1.039032464710559767e+00 2.329318558419437302e-01 -2.242956794261483366e-01 9.462738497521689940e-01
-1.799948372454341500e-02 -1.427731929282437806e-01 -1.040172071858081138e+00 7.700437629990994903e-01 -4.155480646966487890e-01 4.840995858220256132e-01
-5.360096619501198562e-03 -2.308145773711983151e-01 -1.035684654466579424e+00 7.907377092105826177e-01 3.576680557704148833e-01 4.967971790517852759e-01
-7.363998846564315248e-02 -7.107378821964151216e-02 -9.993304148492762051e-01 5.058227107805579603e-01 -4.329139089250767514e-01 7.461427026499813930e-01
3.279609495287914150e-02 -1.693561855295639129e-01 -9.938083050986836753e-01 6.605871623883364796e-01 4.856879092450299695e-01 -5.724786945388596893e-01
1.838664611414487712e-02 -7.003040278153331404e-03 -8.781585575044170699e-01 1.606548074628245948e-01 7.226298869893633681e-01 -6.723065366845861757e-01
1.366414185229448139e-03 6.199695155236847888e-02 -8.095400956109128909e-01 -2.847380918424814999e-01 6.159645279930452411e-01 -7.345147509126058738e-01
-2.917170127315632869e-02 -2.549727535001474962e-02 -9.867363425549061651e-01 1.805531624216107911e-01 -6.699038104222653223e-01 7.201593159303605329e-01
-1.110293185441669633e-01 -4.583583968903356953e-02 -9.163894774644141261e-01 1.671177659324088183e-01 5.932017914524557733e-01 -7.875171661159886538e-01
6.050400695721501465e-02 -1.737103279576440451e-01 -1.004614119206856948e+00 -7.898645338886486345e-01 5.011758744352142747e-01 3.534639458119684385e-01
-6.807844574697190232e-02 5.206422467505014695e-02 -8.447995702801419649e-01 2.536281418959491218e-01 2.197247821587879901e-01 -9.420158097100502781e-01
-6.473113605996100306e-02 -4.380413379392323475e-02 -9.232137191884616234e-01 -4.657270146220492402e-01 8.489169862841317027e-01 -2.498765660271108358e-01
-8.826954532469584447e-02 -4.616220121475990597e-03 -8.764227330723796117e-01 -2.667302164779689622e-01 8.074635139613907109e-01 -5.261726572511522537e-01
-8.213610859925626895e-02 -1.206060661063659972e-01 -9.777440234043924816e-01 -1.043704051575728570e-01 3.946670404819012656e-01 -9.128771799560448930e-01
1.183747136336148371e-02 7.773536846398196309e-02 -8.671667811165491013e-01 -7.172595181194103553e-01 -5.904597248318275149e-01 3.699947256632634685e-01
