-8.581531336381981179e-02 -1.559833155474511790e-01 -9.884668329474903814e-01 5.226492396705156862e-01 3.739312405243384596e-01 7.661678664834236097e-01
1.088907199047753904e-01 -6.311171472651487535e-02 -1.004111326538573712e+00 -7.517200356800172178e-01 9.664982794312809017e-03 6.594115377098120900e-01
-3.979991865076131646e-02 -1.278754175335535537e-01 -1.041178047645332061e+00 1.349039555105645272e-01 -3.807312382450265820e-01 9.147921332259105753e-01
7.429292165439865814e-02 1.221868395977453448e-01 -7.184330759671497812e-01 5.067504375011928630e-01 7.827988744030661694e-01 -3.611508221306471977e-01
8.555085283476467073e-02 1.586558478010180739e-01 -7.282047609048201142e-01 1.305530983398586198e-01 -9.897039089405743617e-01 -5.866908164962478245e-02
-4.607950506698717252e-02 5.779391580017947949e-02 -8.661111470863670503e-01 5.207977594100475782e-01 -8.340384544137272593e-01 1.820701797457099369e-01
6.761536882519589287e-02 -4.142929562115321707e-02 -9.637921287158592865e-01 1.453318091217139507e-01 6.940911864899879102e-01 -7.050645999440977585e-01
-1.634015024717152056e-02 -3.187963662063703595e-03 -8.878792516456910366e-01 -3.872796304964279401e-01 7.479652414664003102e-01 -5.390384822632420248e-01
-6.075309311677951768e-02 2.730281386123165413e-02 -8.939890814793794993e-01 2.153028197969455160e-01 9.592222373970515914e-02 9.718248930647506167e-01
8.518407262297632287e-02 5.474547923865477790e-03 -9.794580583133327689e-01 -2.401696174075921564e-01 -6.300366667262125020e-01 7.384932995327812000e-01
-4.240669144608671948e-02 -1.368821129805717074e-01 -1.048384106835748009e+00 8.060089537459095288e-01 -5.539160286159822144e-01 2.086302943575606417e-01
-1.044421982319083120e-01 -1.427592085863626029e-02 -8.571666347279845999e-01 9.334953582656874138e-01 -2.261495655597283438e-01 -2.782854471465621149e-01
-4.878600821953042038e-02 -6.963002113086086409e-02 -9.427294062165902933e-01 -5.933883921198218614e-01 6.139267279764074603e-01 -5.205614169083554454e-01
8.088054463340615952e-02 7.037304590507039402e-03 -9.793705060111328464e-01 -1.978410064664837542e-01 -6.314711187821142602e-01 7.497353948590086414e-01
-1.160948235044655802e-02 -1.054585321801034328e-02 -9.859672359571876044e-01 -1.779159933959698348e-01 -9.831351295390617917e-01 4.232276408905247256e-02
2.690197786797050850e-02 3.790757304732718380e-02 -8.660330399233978627e-01 -7.148448068923877186e-01 3.973000990181157488e-01 -5.754559352193532318e-01
-8.981344741753055291e-03 -3.261186880503134933e-02 -1.011218303006999886e+00 8.931982882895965481e-02 -6.574484594149095917e-01 7.481868024704306785e-01
8.084976026547416317e-02 1.378893664169549282e-01 -7.670078042178269939e-01 -8.089112937284769211e-01 -7.701737907560174401e-02 5.828643428782094293e-01
5.469669062796076592e-02 -4.045622273412426140e-02 -9.650930431698815370e-01 1.566800002081809168e-02 7.450979376730447745e-01 -6.667710079560472680e-01
5.652954698083302587e-02 -6.056505843456224530e-02 -9.839389874763262434e-01 9.649846554750254879e-02 6.128687874507552369e-01 -7.842702949338437035e-01
-2.421324801485005493e-02 6.985225927248356337e-02 -8.658665429177480055e-01 3.960726575291137475e-01 -8.970991264788407138e-01 1.958050235022743280e-01
-6.559066969622609489e-02 -1.512218843810809177e-01 -9.788447355407290384e-01 -8.877732741440992337e-01 3.243347290966473451e-01 -3.265969951136569183e-01
1.729263523811056663e-02 1.273173362262194908e-01 -8.147033308355347003e-01 6.056367063071768087e-01 -7.948975009772313305e-01 3.663526871127453788e-02
-2.604925909603833176e-02 -6.281190796273616872e-02 -1.026768169398363462e+00 7.411901718480659595e-02 -6.857107974565870290e-01 7.240905147445378942e-01
6.069847282609277389e-02 -1.761488283203109864e-02 -9.997271626762224139e-01 7.503136695173648341e-02 -3.671276402636850511e-01 9.271394661688026062e-01
2.807440693418490618e-02 1.357882045085864187e-01 -7.987907268767034941e-01 5.784069236921997037e-01 -8.150311295046983595e-01 3.420070998124524753e-02
9.221514286684921735e-02 4.557953588137547002e-02 -9.043839753813113225e-01 -5.291482898373633947e-01 2.970930524605647216e-01 -7.948193540307493254e-01
-3.061445136565028521e-02 -2.936223647305502560e-02 -9.038826063274925104e-01 -5.319213843006109776e-01 5.602636115568309094e-01 -6.349522237846073613e-01
-3.907044397375606520e-02 -1.320429363807741341e-01 -1.046290132676445550e+00 5.798045161757904298e-01 -7.165381662305313482e-01 3.878141041235412811e-01
-8.226004243429269058e-02 -5.479861036830555726e-02 -8.699284137078844292e-01 -5.244446645450097089e-01 6.519663152594639133e-01 -5.476291789133130861e-01
-5.136625641241392842e-02 -4.425718864091888333e-02 -8.969686989239208375e-01 -6.409749279309695513e-01 5.564441908012434101e-01 -5.286974600728073792e-01
-6.698250206205261237e-02 -1.594571305909020520e-01 -9.839838828343735466e-01 -8.479261812460467951e-01 3.596494943270104883e-01 -3.894527344721331885e-01
3.869650625087309170e-02 -1.196739156587746378e-01 -1.058032877021130025e+00 -2.995180119944000352e-01 -2.683834985015520758e-01 9.155649939916825630e-01
-4.295033195821826300e-02 -4.145561519753555857e-02 -9.037500720877689186e-01 -5.964823506390536378e-01 5.690503333007184139e-01 -5.660304970109387712e-01
6.046608530643199364e-02 2.169388892536524248e-03 -9.871032957705759836e-01 -7.801649863638487892e-02 -6.051026240384156374e-01 7.923157453454667820e-01
8.272929947663237860e-03 -1.447528978701900781e-01 -1.026049899723182612e+00 -1.740668139017318983e-01 4.553595361886157433e-01 -8.731256708516754728e-01
-7.138890261012575955e-02 -1.689107729052992946e-01 -1.025898063637573632e+00 8.676140598337818144e-01 2.514620626292989325e-01 4.289669850197812551e-01
-1.049569103432233287e-02 -1.290134672206797589e-02 -9.021808374753689241e-01 -2.497075173246162683e-01 6.877784959727007985e-01 -6.816207862654323213e-01
-8.797640376215432045e-02 -1.238344822133125300e-01 -9.255500400726685006e-01 -8.196334915553291633e-01 4.666473886046331732e-01 -3.323268785838671691e-01
-1.144875278431192224e-02 3.416682027621011780e-02 -9.445508404907663191e-01 -3.547414455686010437e-01 -5.758073324742652987e-01 7.366168764458020934e-01
-9.083379485523122507e-03 3.759116276856257211e-02 -8.513513783274532232e-01 -1.729901039101316984e-01 4.554014866644476855e-01 -8.733177599779891054e-01
-1.161001975681267770e-02 -1.718256821223638764e-01 -1.072988428036167230e+00 5.022257396748509573e-01 -5.953016856283895736e-02 8.626850325807958741e-01
4.713240430138651571e-02 -1.969124966730386242e-02 -9.428675503642534039e-01 -3.207334857667665240e-01 5.383553004530504671e-01 -7.792968635776774677e-01
-4.189085193189331230e-02 -1.207839634155018910e-01 -9.962643729825627625e-01 -5.948849056375800082e-01 4.506618698583113591e-01 -6.655943419984712284e-01
-2.756911679487017430e-02 4.273233451473288508e-02 -9.305175496982533989e-01 7.288071607873498614e-01 -6.029088134423742362e-01 3.245629138681591086e-01
2.908816723145941571e-02 3.158085295810676013e-02 -8.731031578787350478e-01 -6.242313264832549669e-01 4.938510241253250554e-01 -6.053481783298960694e-01
3.101468432924542676e-02 8.944937341009073783e-02 -8.189825382646376273e-01 -5.315985863088137364e-01 7.817035572229978913e-01 -3.261019651265261166e-01
-9.038776137027991486e-03 -2.331212129506959885e-01 -1.062378170857949833e+00 6.861091838325230619e-01 4.865791075929848386e-01 5.408280317390029568e-01
8.258753459664973373e-03 -9.349399626720794609e-03 -9.091336182783769093e-01 -8.010985174623171945e-01 4.969737482224112490e-01 -3.335539819840933062e-01
-8.911052523148181581e-02 -1.307512729849311106e-02 -8.420658620292393870e-01 1.199079440531910790e-01 2.315422138672627306e-01 -9.654067993081379973e-01
2.414353295456704400e-03 -7.036175202391346806e-02 -1.029910243157148964e+00 8.112985878629752623e-02 -3.793140219882141784e-01 9.217043011380818829e-01
-1.031173579842973725e-01 -1.213152464253453022e-01 -9.596163334297863612e-01 9.625767344758491273e-01 -4.606512612761767822e-02 2.670655994332798433e-01
-8.061267879981581785e-02 -1.556889343617575694e-01 -1.012310459056730894e+00 9.027511393226187453e-01 1.924967288223533857e-01 3.846886921192345099e-01
7.508577228165820572e-02 -7.187615214195862412e-02 -1.026849722261546471e+00 -3.410405286282244819e-01 -4.437100822307093462e-01 8.287416489834442679e-01
7.896426955528396130e-02 -3.377583905281063953e-04 -9.859423460609132439e-01 -1.947648069471312471e-01 -6.121583385098113839e-01 7.663738242970944414e-01
-1.197024941245835791e-02 6.544241089550689033e-03 -8.764885037030137882e-01 -4.379808999463621344e-01 7.855644260215759456e-01 -4.371055523000896836e-01
-8.351974463901580548e-02 -1.424824461430895806e-01 -9.952621366698459759e-01 8.656879306744351688e-01 8.675022210730630456e-02 4.930099447769254462e-01
2.852426888024122906e-02 6.828417993137612940e-02 -9.139874034450728990e-01 2.403233425303871185e-01 -8.188859063935592930e-01 5.212202637513443371e-01
-5.688024550269704660e-02 4.853175234008960670e-02 -8.727872699749529284e-01 5.782138449928810875e-01 -7.819229011543756824e-01 2.329491921189523751e-01
-2.769243168329525132e-04 1.068080637784013798e-01 -8.444636423900117039e-01 6.762958719879128555e-01 -7.083593952080383671e-01 2.021159586787018847e-01
-1.020939781760861302e-02 -7.092430529652030136e-02 -9.655466888827197725e-01 -6.084777224377273530e-01 5.848119805629014012e-01 -5.364231619599330037e-01
9.305667679130105729e-02 5.260238841934516268e-02 -9.045704144004726999e-01 -7.664364669816062792e-01 -2.124959519203489799e-01 -6.061523014047031088e-01
1.169714999751046702e-01 1.174463708746762425e-01 -7.013217140798740923e-01 -4.228075900495157913e-01 7.896065388899390358e-01 4.446968130521868345e-01
6.257325238431998837e-02 -1.448621381859371664e-02 -9.982582888234585727e-01 -3.017065943701389627e-02 -5.076022592830994329e-01 8.610631089994673637e-01
1.083938263287657043e-02 7.624784574254693525e-02 -8.939501943706423814e-01 -4.823702949244534910e-01 -6.628273827820508890e-01 5.726942982157168238e-01
-5.861969203552808150e-02 -1.456181498545091879e-01 -1.041054927754463844e+00 -2.798006007197744727e-01 2.860610607638199854e-01 9.164500495670953040e-01
-6.143725031770800454e-02 2.425811472264338686e-02 -8.931001109120408898e-01 8.222003650313033929e-02 2.716566201100838462e-01 9.588756678254951593e-01
5.173687220653927499e-02 1.205369795522386323e-01 -8.133313105481801975e-01 -8.608101258962651547e-01 2.077169734238560467e-02 5.085021767347436272e-01
-5.328348177142634007e-03 3.639022592036791209e-02 -8.526348368354793594e-01 -1.445917524957547329e-01 5.210360454525421181e-01 -8.411983502417149650e-01
-4.506175001830818594e-02 -1.969985103797796400e-01 -1.024037459286723406e+00 -1.626929330599823642e-01 8.728436351717220321e-01 -4.600815124220425378e-01
1.540224622810036637e-02 -2.114076201204686534e-01 -1.063551352818217888e+00 -7.342031843990903806e-01 3.776456948824392090e-01 5.642068886100159997e-01
-1.090497775600205305e-01 -2.614867569659562116e-02 -8.664358030779710784e-01 9.785476748441543915e-01 -1.410458438432647399e-01 -1.501682988904131932e-01
9.117672441468092828e-04 -1.304197307054929811e-01 -1.018370944571778791e+00 -6.205066522334483636e-01 -5.545150328400514500e-02 -7.822382151989137888e-01
-2.289240326959329080e-02 -1.004046187346575997e-01 -1.053852791449629400e+00 3.302899552429660601e-01 -3.796340507654283880e-01 8.641681161469864092e-01
3.439529090976529979e-02 1.074898854318148828e-01 -7.795778315181073337e-01 2.542133069104846599e-01 8.440082962541397560e-01 -4.722558527364379422e-01
-5.442104681316721482e-02 -1.237923353683341721e-01 -1.045435202670520702e+00 3.195780344253378868e-01 2.126283260010403131e-02 9.473213667297163409e-01
1.267986110643015973e-01 -8.775348487309571691e-03 -9.645136472888047319e-01 -9.861929766120394181e-01 3.867828849774213734e-02 -1.610198834926009348e-01
6.911155589318762615e-02 2.281520129796039270e-02 -9.045869896278379008e-01 -3.989265813181975817e-01 3.969567263197730234e-01 -8.266093032063358548e-01
-2.422031610086306658e-02 5.667308630441052208e-02 -9.119809179545755873e-01 8.205223254868717619e-01 -5.138277984273759147e-01 2.504478128091592315e-01
-7.356849453977526085e-03 -1.035093044949041835e-01 -1.000360580806670896e+00 -6.505525449308202646e-01 4.482659155147438734e-01 -6.130571386679724011e-01
-1.711878614969396945e-02 -3.019861912559076295e-02 -1.007860464161496106e+00 2.020120867048002811e-01 -6.564830241325355642e-01 7.267882469130696466e-01
-7.397901116636519669e-02 -8.998600027240008514e-02 -1.001204444798988513e+00 -6.821435651916340180e-03 1.169055213613580529e-01 9.931196136875334313e-01
9.220269756022350660e-02 1.172354102591118413e-01 -7.021884635394091134e-01 4.672123112868422079e-01 8.544040688318974563e-01 -2.273902885910149552e-01
-7.759271726988645201e-02 -1.782254562992167599e-02 -9.394754097337829624e-01 7.198360764031237480e-01 -4.773122682690198459e-01 5.039930770044755981e-01
-2.426076689291424907e-02 -1.066338903405978367e-01 -1.052084500418956070e+00 7.873198910925292004e-01 4.458322049150025834e-01 4.258650421796500996e-01
1.074879092461726998e-01 -4.324539713899738791e-02 -1.000705260299336263e+00 -5.208500162723483928e-01 -3.159054644416230961e-01 7.930441337561340287e-01
1.255475228987413261e-01 1.251684993157333170e-01 -6.737562598125019786e-01 -4.985422171777139644e-01 2.427123480190345253e-02 -8.665255708014160119e-01
1.566719666116508231e-02 5.109029822643428032e-02 -8.463152322694085239e-01 -1.769508751651867051e-01 4.908344192676581952e-01 -8.530943445132287417e-01
8.833366595429348322e-02 1.505187734900080010e-01 -7.011547536058131413e-01 4.717468053113483273e-01 -7.332797233975307805e-01 -4.896486484537432293e-01
-1.065518684606029665e-01 -2.872938104478025070e-02 -8.571612308883552744e-01 8.968942579203088572e-01 -4.780854906934599302e-02 -4.396533097173978555e-01
3.570782442532680068e-02 -4.725925725396000476e-02 -9.706664359298897704e-01 -1.171095805528222511e-01 7.048932606430408088e-01 -6.995790428841937025e-01
4.427647381749880151e-02 -9.354586837888416440e-02 -1.004345575199290241e+00 -1.516490604312628609e-01 2.955771066459239593e-01 -9.432055642844454635e-01
-1.718893793655965757e-02 -9.947351181556166044e-03 -8.956158778082655703e-01 -4.247154146336897806e-01 7.000992239054946165e-01 -5.740016491783426211e-01
-7.719721451965372294e-02 8.674846896289842638e-03 -8.371833413381506439e-01 2.085380019839191690e-01 3.967048832594157609e-03 -9.780062189230263048e-01
-4.833235640856450160e-02 -1.112156719573462876e-01 -1.045523148970300742e+00 -1.974536647759127239e-02 -1.455703048700069946e-01 9.891508514087823389e-01
8.931523527679448293e-02 -1.998788692899671621e-02 -9.541230197948493696e-01 -1.542788854511347452e-01 5.733359158026162250e-01 -8.046638758852862061e-01
-1.072467769262318293e-01 -2.564287831510875942e-02 -8.766981047930157978e-01 5.753640670786981381e-01 6.440368412503287565e-02 8.153578084410441074e-01
-3.383852472369765219e-02 -1.609236210193176753e-01 -1.012491888530118400e+00 -8.053690493915626192e-01 3.550753525847971659e-01 -4.746600765483787177e-01
8.206144963354417357e-03 9.494097797650262460e-02 -8.152230592119299457e-01 6.306259162285032804e-01 4.752046710268686414e-01 -6.135890109961278371e-01
-2.787552210927521021e-02 4.125355025918991253e-02 -9.325765085165627077e-01 7.288071607873498614e-01 -6.029088134423742362e-01 3.245629138681591086e-01
-5.146530488999974395e-02 -1.528525624012944950e-01 -1.039992740090047718e+00 5.315539274305461914e-01 -9.122433705459394304e-02 8.420977036912707936e-01
9.475483109534584003e-02 -8.935393972019646525e-02 -1.020274736653717262e+00 -8.331197145774871249e-01 1.355674593698523445e-01 5.362210413088335237e-01
1.130850673319963584e-01 3.093784166193384519e-02 -9.286897322207902095e-01 -9.141283564369486747e-01 -1.756011396804715574e-01 -3.654224783737342608e-01
-9.606479585947953759e-02 -2.605429172122883733e-02 -9.122822843087927680e-01 8.570791749668495996e-01 -4.198343804096437704e-01 2.985873086120621744e-01
-8.083524252626519968e-02 -1.314153332152747100e-01 -1.001962077553522512e+00 9.826835302538324823e-01 -1.671496982832514633e-01 7.996285219827407864e-02
1.093320204446173866e-01 1.578742479808721288e-01 -7.099529366993294621e-01 -9.955076596811629486e-02 -9.925212342056587422e-01 -7.064874129124602831e-02
-8.619636663883625816e-02 -1.289496444960272770e-01 -9.353378019485960593e-01 -7.707805341148548095e-01 4.471869574150117432e-01 -4.537854045113433044e-01
1.945919483085696913e-02 7.386634887387234782e-02 -8.305087562962764069e-01 -1.128138483270567372e-01 6.297683583561061171e-01 -7.685472337072685178e-01
-7.684555688785588146e-02 -1.396961811255499099e-02 -9.366819500726515368e-01 7.148224058997478814e-01 -5.041742847278978257e-01 4.846000605064023636e-01
1.009749388524122243e-01 1.174596834405527285e-01 -7.140539692281028250e-01 -2.507788955523674312e-01 8.986263579262306900e-01 3.599730745288776679e-01
6.202130916323424920e-02 7.342322399641244834e-02 -9.091507284544437795e-01 -1.112477406011954939e-01 -9.381307786572521401e-01 3.279246595592756885e-01
1.168158985753110779e-01 -5.983142369430482187e-03 -9.756620760957867011e-01 -4.595642728801004329e-01 -5.010585704006397245e-01 7.333082490469147174e-01
-8.782153658025992904e-02 -6.222047651494258536e-02 -8.735634868760152605e-01 -5.162259117294678568e-01 6.290435164922485445e-01 -5.812186012320544881e-01
-8.199901030273021307e-02 -1.379799331209367319e-01 -9.486012078000295444e-01 -6.886300452031433039e-01 3.909870234023140045e-01 -6.106699668188333430e-01
-3.473551380850498083e-02 -8.362739783977829466e-02 -9.653450174826222474e-01 -3.152024003623900561e-01 3.623548423303446508e-01 -8.771239450873168364e-01
-1.818087533759561725e-02 -7.949405404132157960e-02 -9.692039205471824070e-01 -2.924354929833375416e-01 6.429171698175959460e-01 -7.079117142676228935e-01
4.234769084495923486e-02 -8.120950646364429037e-02 -1.042098471104212498e+00 -1.920569444494730216e-01 -3.862498315876183308e-01 9.021780299293862271e-01
-6.448623220538123035e-02 -1.322389899787362877e-01 -9.651848393043386265e-01 -6.322094919934214685e-01 2.339948481664276270e-01 -7.386186900322724291e-01
6.765735978066692025e-02 1.219424142223608648e-01 -7.267798472783894015e-01 4.361705992789307595e-01 7.980051677306223556e-01 -4.158641131425984683e-01
1.197173678601450020e-01 1.606622434244599218e-02 -9.414254083047269850e-01 -9.005114844813036923e-01 3.503467129685675086e-02 -4.334185484314206915e-01
-6.148041885326271938e-02 -9.577231449641267214e-02 -9.519639090391406322e-01 -7.758416463110113792e-01 3.988436139707538519e-01 -4.888696262237690604e-01
-2.769970268723627796e-02 2.219288419554307432e-02 -9.597210295292306625e-01 1.810300103060350219e-01 -6.865084295198997655e-01 7.042260372683742942e-01
1.127856854184685481e-01 1.160056043944174692e-01 -7.020539300458444876e-01 -2.716815326902256578e-01 8.886796980269697777e-01 3.693745241753738640e-01
-3.754595627006110381e-02 -2.063028098157496382e-01 -1.049123068291128336e+00 7.178673002582821594e-01 5.921700991331688702e-01 3.660616244739374192e-01
7.494305011243398984e-02 5.476879763099824772e-02 -8.905590042142069729e-01 -4.537989143935429182e-01 3.046287702897408356e-01 -8.374173735999282941e-01
5.749213355950452686e-03 -4.339586912384218315e-02 -1.021555769040185302e+00 4.866416374362256964e-02 -6.319846502339122596e-01 7.734514858967261874e-01
1.166947460076699777e-01 1.354711684732753940e-01 -6.739487584199367332e-01 -4.931860607141005937e-02 -4.796732470071182752e-01 -8.760600728265277581e-01
-1.012317198286228357e-03 -4.022004446377637488e-02 -9.383843832629948922e-01 -7.357040755443349234e-01 6.139412501697910640e-01 -2.860343590679438330e-01
-5.150388956189580481e-02 1.217656761447783766e-02 -9.394469433658698687e-01 5.928861350099399186e-01 -6.307752908641971468e-01 5.006081934488914031e-01
-2.143802845619065950e-02 -7.289425732556444049e-02 -1.036462529335423710e+00 1.528106262485417477e-01 -6.146978384963940334e-01 7.738187642163956159e-01
1.921530386434491464e-02 8.461524881768908712e-02 -8.200941220286422917e-01 1.292093251831833225e-02 7.556201985740520488e-01 -6.548825581810582275e-01
-9.292465877719822964e-02 1.394000098343474913e-03 -8.454950437092624282e-01 7.554457895895462238e-01 -2.986388732188642314e-01 -5.831950637599686571e-01
9.514219799602943728e-03 9.823760145653028658e-03 -9.760475095318535965e-01 2.393784680220646666e-01 -5.410228932009002456e-01 8.062209238663660127e-01
3.990088493674634473e-02 1.392089869723542594e-01 -8.041585091941768626e-01 1.077178113817092858e-01 -9.275137137062455794e-01 3.579318147328948152e-01
1.192793855566429834e-01 1.355887010738629772e-01 -6.745521736964980031e-01 -1.867246580277629742e-01 -5.108792458950118798e-01 -8.391282966258251097e-01
-2.011898126422804003e-04 7.768759849015191565e-02 -8.324137649587485255e-01 6.111401385595832680e-01 2.636148601781899137e-01 -7.463343329464394715e-01
-4.085660996127035011e-02 5.501433031062576834e-02 -8.432471322047910833e-01 3.455931319299899718e-01 -6.050424351413777879e-01 -7.172789128651504420e-01
3.566912458494617827e-02 -1.508832768037375871e-01 -1.037108688070757623e+00 -4.010748894109589235e-01 4.220269349265675513e-02 -9.150726013524566049e-01
-5.856886609517432396e-02 -1.145411059975921658e-01 -1.040501795997170520e+00 6.991209176778588885e-01 -2.408492848841838896e-01 6.732173233332945372e-01
1.719881244935093575e-02 6.102363613810651150e-02 -8.402048872745674357e-01 -1.622593625070286871e-01 5.598565774689961971e-01 -8.125469290714933956e-01
3.682312221243422279e-02 3.750988852805804685e-02 -8.763142262529471926e-01 -5.775128503008456482e-01 4.630806095966235048e-01 -6.723356726762402813e-01
-6.172591919999621118e-02 -3.710883120705150192e-03 -8.475290947645833795e-01 -4.223789981831050366e-01 3.811750241448146892e-01 -8.223755728753355809e-01
-9.056009881945532858e-02 -1.011982606285787289e-01 -9.016845857068350734e-01 -4.616199568949299059e-01 5.080842716128041170e-01 -7.271570589191922451e-01
-9.457249461240592459e-02 -8.871703586300581923e-02 -9.697904567162570766e-01 9.162549669834604282e-01 -2.290745005096256892e-01 3.286361341885629117e-01
-4.557604384884646892e-02 -6.394187383193446206e-02 -9.395151688440344095e-01 -5.807998643731737687e-01 6.416591390943375828e-01 -5.009441752938308401e-01
-9.596672934047394132e-02 -2.262253514318008155e-02 -9.078895692875836865e-01 8.673399804326472617e-01 -4.110249521652843963e-01 2.806774786843800884e-01
5.729721005743041579e-02 4.629133604092054710e-02 -9.456315687179396301e-01 4.809255239686303085e-01 2.388429847483506396e-01 8.436021983328383378e-01
4.896372803497253678e-02 6.662263898341268253e-02 -9.230395658999633879e-01 6.674639200131636529e-02 -8.310817335041945642e-01 5.521304840257142965e-01
-2.237876010164614564e-03 2.444790516531911498e-02 -8.611615633589078111e-01 -1.797517618060045230e-01 5.546248895629184439e-01 -8.124534054362488877e-01
-6.592810297890888682e-02 -3.240402702990334560e-02 -9.742924907020915626e-01 7.085542556598724007e-01 -5.742224728435374459e-01 4.101456064225692533e-01
-4.916739768685502582e-02 -1.188174972363516546e-01 -9.862760844416966766e-01 -7.622762726007632494e-01 4.399718929676758594e-01 -4.747205679432131009e-01
-7.455473107073158634e-02 -8.436449321907389665e-02 -1.002301949556168470e+00 -7.499780677398198980e-02 1.962763972472737206e-01 9.776762781528059998e-01
-5.895693521327517034e-02 -4.194944705740917545e-02 -9.949879847011621203e-01 6.121315451534929952e-01 -5.558378539078637770e-01 5.624404427058008471e-01
-4.550113331904297870e-02 -1.244961852824533616e-01 -9.954158248638323991e-01 -6.673631622511065897e-01 4.069331258913103100e-01 -6.237241703850590069e-01
-4.294252718942827285e-02 4.114882836208420130e-02 -8.999685263512418043e-01 4.867649785330858681e-01 -3.056400313586271622e-01 8.183178031210012193e-01
-6.822767844607073584e-02 3.960021142542326927e-02 -8.712039753032525535e-01 6.620406098274013162e-01 -7.117827132673132384e-01 2.346648674880500718e-01
8.198706276195741327e-02 -8.033753914680787089e-02 -1.027937427467892295e+00 -4.151293317482994683e-01 -3.655538913091294084e-01 8.330894252545543166e-01
-3.374462136765844084e-02 -1.276506259706688406e-01 -1.043936154923154058e+00 1.412579375385231428e-01 -7.590706821303760954e-01 6.354981468206559736e-01
-1.029896266402994531e-01 -7.405196524050736140e-02 -9.342238262878342914e-01 6.613415009505920761e-01 -3.648808696035212712e-02 7.491969291383886453e-01
1.436361045771271903e-02 -2.087022865402735072e-02 -9.274879910334991040e-01 -4.641449008684024879e-01 5.692690937268781726e-01 -6.786031313847877833e-01
3.740731199359522557e-02 -1.228412072654872095e-01 -1.059347754718123369e+00 -2.266816133959776991e-01 -2.903558535562197340e-01 9.296821631363245686e-01
8.662329050151311438e-02 3.327180321284048392e-02 -9.074485709110550191e-01 -3.930043864133282439e-01 4.443888594024428262e-01 -8.050255237561596555e-01
-1.602612502252962964e-02 -2.293695758781183133e-02 -1.001151414236803205e+00 1.616851345579311261e-01 -6.900871328340838495e-01 7.054343813281409581e-01
3.397368165482232000e-02 -5.626372722182877012e-02 -9.791997095563839126e-01 -1.080411289388787249e-01 6.775359831043372694e-01 -7.275108975516807464e-01
2.957856596051985226e-02 1.067258273122334983e-01 -8.502283781407297125e-01 -7.259088674177586187e-01 -3.299225762988554078e-01 6.034959899225450508e-01
1.175236960883729344e-02 -1.007046107076745300e-01 -1.055420189271909504e+00 -9.821556634798520036e-02 -4.191963963837342932e-01 9.025674954183956489e-01
-6.979368964912939510e-02 -6.578896775319779955e-02 -8.936143066216799546e-01 -6.916073435199198149e-01 4.637606934480109633e-01 -5.537195152800193920e-01
5.846320584742003418e-02 7.338253053782982371e-02 -8.831485680552711992e-01 -5.188121386484114694e-01 -7.333111144984756358e-01 -4.394186775093485986e-01
1.258432860718712021e-01 1.352249568525291934e-01 -7.108723607522438037e-01 -7.725713783224165132e-01 1.892638007688707824e-01 6.060632632947838827e-01
7.854928293862060984e-02 -4.922308102565078891e-02 -9.690322753141279444e-01 4.485631408135930254e-02 5.529905426552734760e-01 -8.319791889349521519e-01
-1.868593388443231737e-02 -1.509929820511460019e-01 -1.062647329149980724e+00 9.006614095580459667e-01 -2.899008320978071693e-02 4.335534573825974847e-01
-2.546440001760217828e-02 -9.798325239821625843e-02 -9.861554141392174788e-01 -2.184464933842161505e-01 6.366329430980171011e-01 -7.395807091119243060e-01
8.321946334254852473e-02 1.759346343284498917e-02 -9.135784187687505664e-01 -3.623062140427911193e-01 4.262140414525646404e-01 -8.289003547680811046e-01
-7.205532902907722803e-02 -9.926080813531795721e-02 -1.011965288510893624e+00 9.229185997796962582e-01 -3.746426306641837956e-01 -8.868008496671962726e-02
-9.181358590123021857e-02 -1.476481895263019872e-01 -9.881847858353250968e-01 9.112438510529390356e-01 1.954909982995011175e-01 3.625160872321031569e-01
-9.698446997539968140e-02 -1.674373913658357485e-02 -8.826451951227530790e-01 5.036305285658899678e-01 -1.277594154208886446e-01 8.544201674046294492e-01
-5.492958549511346711e-02 -1.969746777387561612e-02 -9.729016991505206047e-01 5.720199632113259769e-01 -7.169367045703336494e-01 3.984908070803430680e-01
-7.908131971810999916e-02 -6.059519931586842406e-02 -8.794057390598145618e-01 -5.626030137770664519e-01 6.006826519410709553e-01 -5.680301053166145753e-01
2.018509567636374291e-02 -7.754229165031274740e-03 -9.208777741286696683e-01 -4.859465097396244992e-01 5.905035559409543833e-01 -6.443303035656209321e-01
7.581575200585564944e-02 -6.453777563727144950e-02 -9.840823255245682022e-01 1.416766303950510730e-01 6.205758493812911780e-01 -7.712414327333516617e-01
2.562267547818061070e-02 6.993712840779950368e-02 -8.380711676034731106e-01 -6.678960271014074968e-01 5.211307125084950753e-01 -5.313545684969162020e-01
-4.846834058403619999e-02 2.781889885167605769e-02 -9.099735491007686639e-01 4.952340852504035773e-01 -8.173236101590073410e-01 -2.944916248093363276e-01
9.292440166694759807e-02 -5.082572411634957849e-02 -9.719983651860036877e-01 -2.687157448096402779e-01 4.202819541716448226e-01 -8.666919449776048223e-01
7.361027187758352464e-02 -7.356628546230029042e-02 -9.917843329105572314e-01 7.883298576534818192e-02 6.279312211190383186e-01 -7.742659374525484584e-01
1.021441937519998178e-01 -8.391355961925425766e-02 -1.009516682390969811e+00 -8.571379495268031112e-01 2.646520065884237494e-01 4.418980096014330505e-01
6.719593067478591558e-03 1.125731739093500522e-01 -8.124484603496671120e-01 9.014584670453561488e-01 -2.599653288885319102e-01 -3.461078733113618910e-01
-6.094568187057723685e-02 -3.330100148868057192e-02 -8.707533315906934579e-01 -6.782499200815454987e-01 5.810564528364655645e-01 -4.498337965587749232e-01
9.183095864362293692e-02 1.238511763776896195e-02 -9.687742918231085909e-01 -5.211028287316007424e-01 -7.877606719110122890e-01 3.284584687266174918e-01
5.450640439317643027e-02 1.096550843166664152e-01 -7.871658261012740576e-01 -5.847336111820310434e-01 8.088056496762849878e-01 6.261010306447412077e-02
7.571070533841223194e-02 -1.108423586822886858e-01 -1.037123467973498636e+00 -6.558707388082053447e-01 1.141991028967726668e-01 7.461850567203495155e-01
-8.920187099377517581e-02 -1.472286682158383264e-01 -9.906462952685589629e-01 2.389531556447356264e-01 2.941424569601223116e-01 9.254088849913238990e-01
1.475421390446884917e-02 1.270667873152890115e-03 -9.037136521896386165e-01 -6.516889429274725920e-01 6.462480851463636711e-01 -3.970704397342257885e-01
-1.030102531514526659e-01 -1.095938408779956463e-01 -9.566822486142296800e-01 9.585296203364520595e-01 -1.110924936041207678e-01 2.624488994118195362e-01
-1.200356285800380186e-03 -6.308874098634646710e-02 -1.027776072953824782e+00 3.602004274254616001e-01 1.302195132339594441e-01 9.237415929011886240e-01
9.594062222879901070e-02 1.582117486733228551e-01 -7.137589302612014075e-01 1.016438398971644119e-01 -9.772038033187312456e-01 -1.863900656965551406e-01
-7.342716077498813443e-02 -7.429910318300618488e-02 -1.003245001277879300e+00 6.485485804128325871e-01 -1.320172775703751522e-01 7.496373638416152785e-01
-1.056330130889179680e-01 -2.335857183313902463e-02 -8.780150250559172198e-01 4.634409789177135197e-01 1.025188451353609420e-01 8.801774511153437341e-01
6.013546136826213029e-02 1.170907542089082293e-01 -7.436725409725623015e-01 2.849902716165463312e-01 8.816895587314337313e-01 -3.760373214295319455e-01
2.588378498738505042e-03 4.808853731619110866e-02 -9.267018406332370173e-01 -1.811955420951675555e-01 -6.245547302040739268e-01 7.596706947780429431e-01
5.050383251459394235e-02 4.435691279298969655e-03 -9.231612769532384632e-01 -1.871398610566167298e-01 7.287496098434674829e-01 -6.587128953927531283e-01
1.129346099973375095e-01 1.262916917324414384e-02 -9.337682838489466119e-01 -6.661803946166520163e-01 3.149749002976802159e-01 -6.760136788637254313e-01
-2.358953527151600935e-02 -6.195731701131577257e-02 -1.025274589560515759e+00 -2.281188960551544243e-01 -8.304769308918433790e-01 5.082025546168006391e-01
-3.557448673565920955e-02 6.004518872590890177e-02 -8.787630701408143397e-01 4.515749030559961796e-01 -8.258186437988185302e-01 3.377923540938245206e-01
4.515045933160590635e-02 1.328668142544425224e-01 -7.469731832169840269e-01 8.331564341938431095e-01 6.619238710044895871e-04 -5.530369951623392843e-01
-4.726090937304076867e-02 -4.277890853996750564e-02 -9.002809551155973589e-01 -6.285122047814311053e-01 5.557866682248344681e-01 -5.441264447390165016e-01
-4.377765082066537201e-03 -5.294578555151679966e-02 -9.502005587927236929e-01 -8.433416852858363066e-01 4.530694319411571747e-01 -2.889686690625171139e-01
2.170232530135452961e-02 -5.002956398863291076e-02 -9.700291347429286226e-01 -2.307731982475915433e-01 6.926706035402112605e-01 -6.833382514990781198e-01
-7.564074285848483570e-02 -7.666711300043155264e-02 -1.001671467384499525e+00 7.635421917408929948e-01 -2.234953863056350631e-01 6.058491014531656171e-01
4.991862332912826161e-02 5.457677437784690111e-02 -9.383476799767748178e-01 1.911295302055242562e-01 -6.799757963168425734e-01 7.078858800023429820e-01
1.072884635917286111e-01 -8.831427266556514041e-03 -9.456491623576467331e-01 8.597908370723353344e-02 8.786617623778530950e-01 -4.696393344896803712e-01
6.608492798219500752e-02 -4.583395133031028558e-03 -9.362888118662887615e-01 -1.713913360409921871e-01 6.866799948499749950e-01 -7.064669805468064556e-01
1.451318951144164350e-02 1.729879817936813211e-02 -8.716955379467028475e-01 -3.379983854302500146e-01 7.698394868323007456e-01 -5.413910379386823735e-01
9.371428794720607081e-02 3.105705139959395039e-02 -9.601237229837370490e-01 -1.314652518781745383e-01 -5.616229064154043549e-01 8.168822427609271353e-01
-1.203163912346827229e-02 -1.728221037539887373e-01 -1.024343837136468371e+00 -1.511197486582860072e-01 3.238435743826499902e-01 -9.339636828573824046e-01
-2.488417177262282690e-02 5.366131674117177036e-02 -9.159850356716415787e-01 8.205223254868717619e-01 -5.138277984273759147e-01 2.504478128091592315e-01
-2.259385445548261345e-02 -1.791813602770616631e-01 -1.063908861207737200e+00 -7.910625033038283238e-01 -2.923211984402221408e-01 5.373717826692736566e-01
9.571703568287215358e-02 -5.994609861993957511e-02 -9.777828875333033354e-01 -3.024772847776254769e-01 4.936476436985954286e-01 -8.153646399399350209e-01
8.504931696115290707e-02 4.363271256481277699e-02 -9.508479945170925651e-01 -1.432025860175143717e-01 -7.210379559756693313e-01 6.779360481640765990e-01
4.538674665544029790e-02 -7.466428593472307362e-02 -9.951090226886172285e-01 1.323506657456898807e-02 5.615758114291455882e-01 -8.273194310727043366e-01
-2.950910232697177837e-02 -1.061602209413738257e-01 -1.042612611537691913e+00 7.856974580334089575e-01 3.909631147167015319e-01 4.794031157291893108e-01
-5.727965793884114143e-02 2.696808040241013490e-02 -8.365344149179249067e-01 -1.903855298320066280e-01 7.076047442680849509e-02 -9.791559146987158790e-01
9.269662927432821206e-03 1.189107189724856184e-01 -8.140356849626825264e-01 8.311028384522097801e-01 -5.213176729948986177e-01 -1.936387247940451195e-01
-1.090835395534337227e-01 -1.075470526155333367e-01 -9.143629720149399898e-01 9.711792892783902564e-01 1.897820455473441803e-01 -1.441997339268911993e-01
1.025982293915806975e-01 -6.300599568289196040e-02 -9.832049031871201716e-01 -4.714179403888175690e-01 4.659933409747017974e-01 -7.487425002274150643e-01
1.390025899638022179e-02 7.862639318283426437e-02 -8.886191788212101095e-01 -4.823702949244534910e-01 -6.628273827820508890e-01 5.726942982157168238e-01
1.830577394029790986e-02 -3.268696741881924051e-02 -9.457665045340903909e-01 -2.684711725538119764e-01 8.381200169865097305e-01 -4.748453081100350581e-01
3.886311413925336994e-02 1.403976071379278989e-01 -7.632974035597526186e-01 7.567531213052008932e-01 -5.767664684445140688e-01 -3.076770291602530794e-01
8.702251399816449129e-02 -3.825330743317560678e-02 -1.006785191015476588e+00 -2.299406917581687249e-01 -3.902368485743648585e-01 8.915393879624854412e-01
3.736467200139515638e-02 7.191748092807674630e-02 -9.112462975786697061e-01 1.607607042714483681e-01 -8.646788586444591473e-01 4.759059438328791525e-01
4.662177331495604565e-02 -1.022479883258963773e-01 -1.006563148126949692e+00 -1.365373781268923170e-01 3.687651295729240108e-01 -9.194399510491690908e-01
1.144313903329878118e-01 1.512041013927794830e-01 -6.901463742921943867e-01 -4.443129860751117433e-02 -8.861148068305795267e-01 -4.613311270873178827e-01
-3.402663015282016840e-02 -8.613223420364217453e-02 -9.667273549038076785e-01 -4.107905946252340956e-01 3.904122736193244014e-01 -8.239110048875646353e-01
-9.915480269627015286e-02 -9.734240829047582921e-02 -9.375018977987871205e-01 9.557054666146302946e-01 -2.906276796281364594e-01 -4.650390216827809953e-02
7.359601008705528302e-02 -5.818294431296801988e-02 -9.791774222303565312e-01 1.887617506527220212e-01 6.433177030274688235e-01 -7.419645102442440354e-01
-1.108101000164442157e-01 -3.799481498405873903e-02 -8.714458856993306801e-01 9.981653912779371307e-01 -5.919380254216535797e-02 -1.272577681563401460e-02
9.698599797384359344e-02 -1.135913388156527606e-02 -9.480999762254067598e-01 -1.315895257308875022e-01 7.026378166897765398e-01 -6.992741202671125533e-01
4.591062259978954951e-02 1.044985121864489414e-01 -7.918872198131957640e-01 -3.849930896495488142e-01 9.130086444622326214e-01 -1.348908301528729814e-01
-4.557979967432513463e-02 -1.431348548005162702e-01 -1.047218199657220294e+00 9.401492653459454507e-01 -3.360608735347792586e-01 5.641319126339242040e-02
1.155153841103982032e-01 1.144683136466324441e-01 -6.959102809926316358e-01 -2.268883267669873083e-01 9.274249204275798464e-01 2.973292857200144357e-01
-4.227689674327894664e-02 4.748729282748807845e-02 -8.395931002549322786e-01 2.300275107428039270e-02 -2.484763273715044074e-01 -9.683648011875398698e-01
-8.798623653609727313e-02 -1.939899009986655737e-02 -9.231569469679722362e-01 7.913477374576322054e-01 -4.947550885257108733e-01 3.591464336431622884e-01
4.248135782349250593e-03 -1.831278043059542116e-01 -1.034930688497014417e+00 -7.151017344817487409e-01 1.155969096728709511e-01 -6.893960137796538712e-01
-3.078275694940303328e-02 -1.994804144476889085e-01 -1.030503468402562683e+00 -1.972624429862980533e-01 4.439275991931310172e-01 -8.740799821879575715e-01
8.583533973385851917e-03 -3.216983095812010751e-02 -1.012388302491355363e+00 3.847758060618661907e-02 -6.500367903942668724e-01 7.589279589820198124e-01
9.100432230446468818e-02 1.184270284764617348e-01 -7.247820552934520766e-01 -2.376918504463286230e-01 9.400626607431417092e-01 2.445092597590629024e-01
-1.080448341405999407e-01 -9.683876427702062251e-02 -8.972306417227569053e-01 7.646461554910322089e-01 4.317084645933131903e-01 -4.784809907313646860e-01
4.698053283838696248e-02 1.476055126121257055e-01 -7.633712763127192824e-01 5.611736464887160380e-01 -8.164915514284633025e-01 -1.357412425628204966e-01
2.763256959855196412e-02 1.858850486095292576e-02 -9.723774338998426581e-01 1.085905853323265446e-01 -6.758546928658821784e-01 7.289914395302228289e-01
1.886217590572290478e-02 1.661087514237186841e-02 -8.801654843683380802e-01 -6.924513368999625218e-01 6.708742267635984247e-01 -2.654033117536370168e-01
3.191399536193859077e-02 -3.161579035596372156e-02 -9.503825893685441395e-01 -1.978437967532200581e-01 8.345208530872946229e-01 -5.142302770634227249e-01
-5.505842258033303432e-02 -1.332963835947442548e-02 -8.545864224102144302e-01 -4.674545637885975102e-01 3.367450504876217110e-01 -8.173671156618067535e-01
1.048600828034057936e-01 1.273555193513944139e-01 -6.753401450636947745e-01 6.755698872266397981e-01 9.766341036807428544e-02 -7.307990050265956716e-01
8.049408690419881940e-03 -2.445484882821489028e-04 -9.772133340064429463e-01 4.623530947209710251e-01 3.781185151248381837e-01 8.020324209916506186e-01
-4.281216008274660312e-02 -5.018374744126209014e-02 -9.122692818435600426e-01 -6.471632937420433995e-01 6.595403002208513055e-01 -3.823431228851107422e-01
-6.670293001332013028e-02 -1.453790924930740414e-01 -1.036396965105898182e+00 7.342568820403717611e-01 -2.243251648851335434e-02 6.785010047010570089e-01
-8.413777712717186372e-03 4.193522805058572632e-03 -8.828251910521621726e-01 -2.477077013844778131e-01 7.856401748361909743e-01 -5.669306927289946563e-01
8.368989651852162814e-03 -8.390110879266622634e-02 -1.044523109910479475e+00 -1.806246068573380548e-01 -6.985890017495666182e-01 6.923497367892734733e-01
2.970259602195574923e-03 -1.515612771953159799e-01 -1.027021947932482249e+00 -4.340505747989533702e-01 2.814920131902918787e-01 -8.557817157586241619e-01
1.239828084014604065e-01 1.152721541263613952e-01 -6.871869686856059145e-01 -4.620217203921702098e-01 8.736566937072600680e-01 1.525120042041214208e-01
1.842843309166816712e-02 -4.975982040193011047e-02 -1.026423198185607344e+00 -6.526568497389292900e-02 -6.035948412829302834e-01 7.946154151169750879e-01
-2.261942787880435318e-02 -2.187411050255019251e-01 -1.057273169133089441e+00 6.950493254083720540e-01 5.840245955389162802e-01 4.193109908587803192e-01
-1.097170770073864210e-01 -9.490302455267819737e-02 -9.207570920309747775e-01 9.807061134009620318e-01 -7.748278173221179177e-02 1.794768443922990508e-01
1.820732246334021837e-02 -1.907048024582927714e-01 -1.070145998509998142e+00 -5.069264247061189277e-01 2.371909800381822031e-01 8.287134842170712501e-01
8.361896452444028682e-02 2.070796946524099125e-02 -9.123285642040519505e-01 -3.928980337264624811e-01 3.740581636142684130e-01 -8.400664410196377885e-01
-1.070086827408609498e-01 -4.655718880997365694e-02 -9.006606806109705987e-01 9.318105131457269374e-01 -2.759605396074255590e-01 2.357433947551353659e-01
7.858348594898532935e-02 -3.276146357438886048e-02 -1.006113155791863223e+00 -5.634536631722368571e-02 -2.970070274384100095e-01 9.532114274109271257e-01
6.408578550055997469e-02 1.191162670979876020e-01 -7.358425344671963853e-01 3.721992351718755310e-01 8.326142651200880707e-01 -4.101477963563945339e-01
4.823476872460198683e-02 1.408772719397874684e-01 -7.996890141351910009e-01 -1.970663765283057478e-01 -8.532878574295361673e-01 4.827677242787836720e-01
5.993428082175588506e-02 3.420402755237107045e-02 -8.940994847927716815e-01 -4.131315697119029573e-01 4.661997241199751230e-01 -7.822915846011881946e-01
1.110042547059816587e-01 1.127173855676327358e-01 -6.918506575899567856e-01 -1.045844133498692735e-01 9.815138447871072369e-01 1.602893414282263174e-01
-1.000306053591954944e-02 -6.765212862901326396e-02 -1.030272334096191011e+00 -2.515442030363176928e-01 -8.570712424298965182e-01 4.496158352621683618e-01
1.127703762980128421e-02 2.105710873295712007e-02 -8.661178685716924841e-01 -8.406431746533125915e-02 7.174695511415093430e-01 -6.914988313178044299e-01
2.903052270828010428e-02 8.450906123330406000e-03 -9.814458011632195555e-01 1.390132710941081595e-01 -5.971049703377108164e-01 7.900259266996985108e-01
3.642379829794928359e-02 1.718592663158068079e-02 -8.981665296437599810e-01 -2.954527880303049470e-01 8.476948867092308770e-01 -4.405916806887572035e-01
-4.030474370666912304e-02 -2.539497000067727356e-02 -8.898602220650391192e-01 -6.337334874209564761e-01 5.822491507427659529e-01 -5.092816444567780376e-01
1.019427291507652711e-01 -3.871907441691289226e-02 -9.694691221255653524e-01 -3.315685633131591481e-01 4.231925298183413231e-01 -8.431905896820716118e-01
1.705477417638344428e-02 1.148456776088620582e-02 -9.767556047262956342e-01 1.608962505051816649e-01 -6.018687282351017354e-01 7.822189147201920045e-01
1.933404021868414396e-02 4.694071986507226263e-02 -8.501667480806486266e-01 -5.262190329379058396e-01 4.493675564661489541e-01 -7.219157350893089520e-01
-4.400000060733243179e-02 -1.724463877684314361e-01 -1.059376726207629238e+00 6.392211729041973323e-01 1.302644069264469011e-02 7.689126113895280445e-01
-5.828763017307769106e-02 -1.555036267358196889e-01 -9.961628974404375114e-01 -7.843446630764341343e-01 2.792694242111436465e-01 -5.539061637175479724e-01
8.253044904671401338e-02 -1.277066305157851557e-02 -9.472389552204141250e-01 -1.247146154053886125e-01 6.431960890046264367e-01 -7.554767076445432217e-01
1.582639379966886001e-02 -1.995860450228957306e-01 -1.049775851964572126e+00 -6.934673410597603782e-01 2.034488128505422266e-01 -6.911668593279128858e-01
-1.554455903562575528e-02 -1.600031537674184157e-01 -1.019617782062438138e+00 -1.135751276994608761e-01 3.135335848406583525e-01 -9.427605112354975336e-01
-1.078532615556307417e-03 4.380340188332954021e-02 -9.321078179839089595e-01 8.833788714310560064e-02 -8.140399832464539909e-01 5.740516730845794946e-01
9.050969508570133604e-02 -9.858337664206355544e-02 -1.015177880401705757e+00 -5.477187109507627438e-01 6.651529806872495953e-01 -5.075191877725432343e-01
2.321238851766106379e-02 9.311576135144526700e-02 -8.086465987922494270e-01 8.225319265494419885e-02 8.471453026586797108e-01 -5.249564253168089722e-01
-3.544697949940704088e-03 -1.399806508169993968e-01 -1.019004546316117032e+00 -6.293943688167348283e-01 3.009524305682557133e-01 -7.164428539924473371e-01
-6.168978803398214583e-02 -2.275731439498923300e-02 -8.550004761909193451e-01 -5.221952868225097077e-01 4.174813199992404300e-01 -7.436541063371119309e-01
-9.714078412034744814e-02 -1.313039572445953707e-01 -9.784245347738685927e-01 9.272501803878618887e-01 1.210618752538740635e-02 3.742466341789560946e-01
-9.836760172162015148e-02 -2.863917712126864273e-02 -9.091093250562095607e-01 8.683584838656284166e-01 -4.006289114648795002e-01 2.923183517965519673e-01
-9.091937890848597603e-02 -1.176991934870371126e-01 -9.912678103874876800e-01 8.990075412109158615e-01 -6.207171329731961396e-02 4.335118721029893041e-01
2.360608496814910542e-02 -3.802539316647107065e-02 -9.569705063749439633e-01 -2.239655115712641531e-01 7.785397143904149164e-01 -5.862724304822062305e-01
7.357464250700784802e-02 -4.926132519345155503e-02 -1.009620289816632654e+00 -4.553036974386182600e-01 -7.058166806180922181e-01 5.426982185892831323e-01
7.652896916763519963e-02 -6.985053060613828635e-02 -1.025139780400265543e+00 -3.372020896751641295e-01 -4.675915453467867633e-01 8.171002982736613740e-01
1.498681922489445047e-02 -6.245099446139827648e-02 -1.035029924020647307e+00 9.483797521612374881e-02 -4.705076899339953878e-01 8.772846015802860942e-01
2.462143387506383549e-02 -4.291670553012463113e-02 -9.634570644868603040e-01 -2.105659758076308119e-01 7.505558300445571707e-01 -6.263608511220238872e-01
1.161867898217161660e-01 -3.899717399699458020e-02 -9.775910817496281657e-01 -5.618273609300935556e-01 4.361234420790183752e-01 -7.029554465109970618e-01
8.057430091130811378e-02 1.403365420518458417e-02 -9.147305774835267078e-01 -2.938458622122169239e-01 5.626690418819894068e-01 -7.726953853675866402e-01
6.574166983136971176e-02 -4.452636570419836459e-02 -1.009877005453845067e+00 -4.271899233213495850e-01 -7.465606031834298717e-01 5.100549334994149975e-01
1.102381328683393891e-01 -2.080121209765753432e-02 -9.887670424207529729e-01 -4.661079339304648461e-01 -4.397404149807490614e-01 7.677055173434877977e-01
8.442868621612485084e-04 -1.297670075063411532e-01 -1.061475276086867758e+00 5.590634061231420926e-01 4.055180087610293915e-01 7.231896379957889476e-01
1.109495003955266873e-01 -6.188003328697636723e-02 -9.897404871209521948e-01 -7.096712332753667418e-01 4.906813452913734719e-01 -5.055675603165888932e-01
5.780501890757518135e-02 1.228546303657380018e-01 -7.360949440303583557e-01 5.839523017978880404e-01 5.917833200582310882e-01 -5.556907515208487913e-01
-1.000257260708436041e-01 -1.200279816041012193e-01 -9.130883520694109690e-01 2.309815648404610344e-01 6.209716351670511170e-01 -7.490271991201726820e-01
5.545094872622655102e-02 1.345385538174029005e-01 -8.018301876128233197e-01 -6.631177576114913874e-01 -4.654586804951720835e-01 5.861937020234870843e-01
-2.600717974514792086e-02 -6.454091891284141624e-02 -1.028438673413699211e+00 8.739719479258493962e-02 -7.178179420294215074e-01 6.907236295675954763e-01
-6.264105386568991074e-02 -4.038033959325715294e-02 -9.888042894160841145e-01 6.921155403414210872e-01 -5.327962147857419062e-01 4.869335399496408923e-01
-3.745722622376747302e-02 -7.980621546077835970e-02 -1.028154099081420414e+00 4.946708617209673586e-01 -4.878705708857409840e-01 7.192239182812657505e-01
-7.732581840164305664e-02 3.265338340861494854e-02 -8.582753439649440930e-01 7.389280042101034063e-01 -6.724302370025697639e-01 -4.269638109654281394e-02
-2.371615745392299454e-02 6.589311430166079619e-02 -8.803349977508234669e-01 6.770061499157450369e-01 -7.182299593068215415e-01 1.606499253979942476e-01
-9.359413219880143020e-02 -1.506605373315516860e-01 -9.555559174558371227e-01 4.846076704924648926e-01 7.941715864491580845e-01 -3.666700110135735491e-01
5.104968178306744375e-02 3.894413034389697381e-02 -8.861144788943108308e-01 -4.520261551680513912e-01 4.807175775495770575e-01 -7.513873606062687616e-01
