-6.899436002119282985e-02 -9.328967293394302418e-02 -7.646117267215497559e-01 -9.023939365273827562e-01 3.538279929130189183e-01 -2.459490490930151818e-01
-3.840279070004035122e-02 -4.158189477012466662e-02 -7.519118067715735432e-01 -6.165111832298100225e-01 5.050644112799886898e-01 -6.040065408677109948e-01
5.413878840550585825e-02 -7.665879453587043368e-02 -8.809916731121798517e-01 -2.071148781174409759e-01 -4.497205941043435073e-01 8.688238109656261088e-01
-7.931377587029339593e-02 -7.700362470667269921e-02 -7.300708087563192450e-01 -5.184560192549662050e-01 4.573403029324284441e-01 -7.225255728429055280e-01
-3.875376618462215983e-02 -1.856365775579360278e-01 -8.997343079217816619e-01 4.398030685874291246e-01 3.264620691247034634e-02 8.975006885987940608e-01
-5.129082002232404625e-02 8.927479603453950321e-03 -7.904660332505476505e-01 6.096469556594942274e-01 -5.806676056469075586e-01 5.395884739386099804e-01
-7.503099930915638205e-02 -1.499807578979500955e-01 -7.932172732104935120e-01 -7.436974084800296314e-01 2.525840158361405408e-01 -6.189632295735961742e-01
1.684740138893483369e-02 -5.048389169035369384e-02 -8.701714270990172917e-01 -1.338888197676759827e-03 -5.520404066563401324e-01 8.338162847996535287e-01
-1.432087380751736506e-02 5.714678508103596122e-02 -7.773443991284969545e-01 1.732901485614330439e-01 -6.886372380834464568e-01 7.040946518305325474e-01
4.663262481652011293e-03 -9.713847751267122577e-02 -8.424126450852581494e-01 -2.598447760653724292e-01 6.292095277473164217e-01 -7.325135237956603707e-01
3.039422974119086393e-02 -1.525842837772483640e-01 -8.770779603781359013e-01 -3.471930390377553355e-01 1.651074858291794456e-01 -9.231449029090151859e-01
-8.827075934779443633e-02 1.351984169078367277e-02 -7.240432570514213628e-01 8.060647313717083096e-01 -5.203833177683052647e-01 2.818880122089380547e-01
-7.869167080038956541e-02 -5.330415223417794834e-02 -7.902919455142520810e-01 8.465992755871528663e-01 -5.099164072325523822e-01 -1.524956530867480342e-01
-9.456560587484008629e-02 -1.366237554374213070e-01 -7.634376079823874672e-01 4.667248539222314530e-01 7.288163475228660593e-01 -5.009936549645122028e-01
-2.154871682156090165e-02 -7.160246465058833776e-02 -8.705356302237327037e-01 -1.058055742057367465e-01 -8.189043874815984392e-01 5.640928865270171677e-01
-9.155724545397000980e-02 -1.391543009874136594e-01 -8.266193140095140501e-01 9.387407246530810045e-01 8.063524141381265067e-03 3.445298701944863873e-01
-6.830869767591797592e-02 -1.020541264413960258e-01 -8.625749455887656847e-01 8.375246654844720195e-01 -2.673646640997749402e-01 4.765171257110680236e-01
-9.836116422845438134e-03 -4.445351270118712977e-02 -8.631492606097072029e-01 1.547061968583528790e-01 -5.760266059230375602e-01 8.026576741814720473e-01
-5.427798295984075788e-02 5.383950930117797906e-02 -7.047543698650354793e-01 5.791084728328681486e-01 -7.949339930258023657e-01 -1.808682488034777103e-01
-2.860963769689617298e-02 4.437017348742979678e-02 -7.792090922756979010e-01 8.309184794848101241e-01 -5.025431698438436179e-01 2.387987497746856813e-01
-2.094837041664548288e-02 -2.234215927165666415e-01 -8.993980527441076678e-01 4.115053925244573363e-01 3.495055557597052664e-01 8.417298725935726811e-01
6.923146839803205610e-02 -7.436595181121223586e-02 -8.399950350521980802e-01 1.369944733423842861e-02 5.716266053929166535e-01 -8.203995058200042045e-01
-6.857269899232926007e-03 -9.879833096532451842e-02 -8.936715326295414652e-01 4.443943466950280724e-02 -4.867811861890287140e-01 8.723928091282373565e-01
-9.941663967785681344e-03 -1.215938259351452694e-01 -8.476908920854155927e-01 -8.682139734798589581e-01 1.769357706914052586e-01 -4.635711696214004363e-01
8.702644273575541045e-02 6.443684388769893578e-02 -7.688011537605689005e-01 -6.162504098736326652e-01 -7.874995751993688620e-01 -8.935960574738714690e-03
2.306562451884726708e-02 1.362778591696647557e-01 -6.837655583637418655e-01 4.700064068339485090e-01 -8.414564554206279690e-01 2.665427004552801682e-01
-9.134889866312209672e-02 -7.931517025237556917e-02 -7.859522102534033383e-01 8.626557957205368554e-01 -3.769101032726805411e-01 -3.372888260241427849e-01
-8.095031315842207351e-03 6.545385451148019729e-02 -6.962118344614255383e-01 -8.446194304578889811e-02 3.016068262687930934e-01 -9.496838961070132035e-01
6.100190022626008485e-02 7.818148645470376912e-02 -7.604561355807328837e-01 -2.524234225791917030e-01 -9.594254851872731082e-01 1.256389832280257191e-01
-4.915756315766348084e-02 -1.975812742657417076e-01 -8.438859389550865675e-01 -3.798160587792658305e-01 4.697816167623011796e-01 -7.968971038004740715e-01
3.505758899940562140e-02 7.661768688913375702e-02 -7.640058582986779534e-01 1.950390377481558135e-01 -8.660245508104867929e-01 4.603924968413017904e-01
-5.312630744784800629e-02 -6.708105786243599711e-02 -7.691319802646038317e-01 -7.456843676639344221e-01 6.045381994121726832e-01 -2.801577935255884499e-01
-2.070468421117313551e-02 -2.291608783260534465e-01 -8.951836347165974539e-01 6.894628905010612430e-01 5.478371707296083581e-01 4.738305150461496473e-01
6.085768385897531718e-02 2.928466859369706701e-02 -8.129056288656970608e-01 -2.454336803845171833e-01 -9.125149978995935607e-01 3.272287993762392211e-01
1.165820543549411920e-01 7.762919145452191159e-03 -8.226412930547211122e-01 -6.253406010090839517e-01 -4.792875501997236332e-01 6.158186234218199218e-01
5.855719519402303834e-03 -2.087306482520434325e-01 -8.768040121237365980e-01 -7.637581942815357960e-01 1.103009207878219988e-01 -6.360087480067916355e-01
-3.555512808874301562e-03 -4.513881187253647453e-02 -8.647278305138985655e-01 1.227138798057577224e-01 -5.774528317022648016e-01 8.071490140377139966e-01
-8.281324147484483977e-02 2.376345719691906958e-03 -6.866397003174774527e-01 4.479367282883903734e-01 -1.291522369709383333e-01 -8.846877342518633114e-01
6.575758302902993957e-02 1.383267259759509982e-01 -6.596821609809805365e-01 -8.018831005611238849e-01 -4.676850384920232945e-02 5.956477147460450539e-01
7.416310798335350174e-02 6.373366996057042155e-02 -7.870431507355839518e-01 -1.489707621121754422e-01 -8.188994642620451847e-01 5.542665238556744312e-01
7.240019217511835248e-02 1.703522931464805379e-01 -6.133779596572037640e-01 3.440899403148209856e-01 -9.385361419073842137e-01 -2.742304337131786646e-02
2.094066734880552574e-02 -6.249342225698514136e-02 -8.267663406742195020e-01 -2.894942573818025111e-01 6.090848616059690857e-01 -7.383824932278638675e-01
5.282216843732405465e-02 1.302368303992165049e-02 -8.315962019605476208e-01 -7.707053769078975151e-03 -6.317651962927867126e-01 7.751214989118396792e-01
-5.250028996741516046e-02 2.435653068151072409e-02 -7.632942905794057875e-01 6.598384641430433684e-01 -7.420869269975803872e-01 1.179838718496609429e-01
6.901605710815550410e-02 -1.284184188807647176e-01 -8.847818970077685474e-01 -7.128779696906438756e-01 2.928014051440153143e-01 6.372380540076334476e-01
1.051240902121945986e-01 -2.807633295848848895e-02 -8.203639036900999271e-01 -4.218614072923175251e-01 5.057762203833868764e-01 -7.524781511326698036e-01
4.574927043316137469e-03 -1.083203254197486615e-01 -8.517547722475248273e-01 -3.704391632412276092e-01 5.871401489755294634e-01 -7.197508400815745278e-01
-7.734975236186035497e-02 -1.735110140068916729e-01 -8.105834438228344263e-01 3.716121920537930889e-01 8.809238122613365363e-01 -2.930488281975003328e-01
4.982707832432826944e-02 1.166424419398151002e-01 -6.769132771279705585e-01 -8.511039842124966670e-01 4.421430531539468078e-01 2.830751289063033194e-01
-9.150239490758171890e-02 -1.528031979170716703e-01 -8.220475258177402100e-01 9.237526124119959103e-01 2.476108512817449814e-01 2.921814117796384114e-01
-4.559764355841618849e-02 -8.189484258645728099e-02 -7.966570430871591224e-01 -5.859509732523222603e-01 5.477448643674407425e-01 -5.971909414113295567e-01
3.738446460084311057e-02 -3.881732881475211810e-02 -8.103079416443547123e-01 -1.717588399454908765e-01 7.233323854399106301e-01 -6.687968010348043224e-01
-8.999249219413606171e-02 -3.659010825817001627e-07 -6.910954956612540556e-01 7.195406540810651563e-01 -2.508263289228142567e-01 -6.475703821544784855e-01
-3.716866427990347249e-02 -7.978091900773953693e-02 -8.745627804725133458e-01 7.358310308440839664e-01 -3.366794868690904941e-01 5.875369070692484375e-01
-3.119973517069391487e-03 5.898463411845826510e-02 -7.745791206134862161e-01 -1.707993745164502475e-01 -6.096641686892951828e-01 7.740395177774712643e-01
1.764472651153600399e-02 -2.148493316346299919e-01 -8.932700250415105403e-01 -9.327055169606238705e-01 2.234869870104187473e-01 -2.830441401411097901e-01
4.472868681998549978e-02 -2.959029249076410018e-02 -8.465547775888446758e-01 8.095513255617420301e-02 -5.026845028650093194e-01 8.606709923612917423e-01
-9.663901433714562617e-02 -1.146845877327388845e-02 -6.950828158181494576e-01 8.151588814422179308e-01 -2.003817201670286818e-01 -5.434732415020767649e-01
-6.616536450224313679e-03 1.138152316464686141e-02 -8.198646492318986123e-01 3.211852425060103822e-01 -5.415157784837558719e-01 7.769174355422120426e-01
2.451231556526951155e-02 -8.201261334920671719e-02 -8.873237941532023942e-01 1.060929405676215714e-01 -2.656301894500467387e-01 9.582196462265044623e-01
4.449945909963735902e-02 -8.882426214322124147e-02 -8.481338079808781183e-01 -8.664449610745139640e-02 3.951063519962420001e-01 -9.145401587172142799e-01
-9.795419557900207023e-04 -1.786276824939876662e-02 -8.409117391415237286e-01 -3.394396130499079400e-01 -9.125075749818686299e-01 2.282776263527326321e-01
-1.458132414613425194e-02 -1.949199399282217637e-01 -9.074886637599650641e-01 8.799434824518637122e-01 2.414080689066548935e-01 4.091718611503559755e-01
4.517043766571498392e-02 6.916911621479519823e-02 -7.793828903473525305e-01 1.625256426613101435e-01 -8.017416303287028256e-01 5.751484796775538921e-01
-2.859474461239511905e-02 -1.767713256646279152e-01 -8.976535514596258869e-01 -7.284943711751276085e-01 -3.312283339843480334e-01 5.996530179463025467e-01
8.053991782642854966e-03 -7.337255999632026626e-02 -8.287719393802803758e-01 -4.615878493416495365e-01 4.257935377265449350e-01 -7.782265226593502172e-01
8.336455447919470518e-02 1.650968743592010068e-01 -6.269020326171687030e-01 -4.215093567425358123e-01 -7.226773371595534012e-01 5.477840163189051648e-01
6.364351609910037788e-02 1.309304825315193432e-01 -6.103369595298161476e-01 2.260327596794632632e-01 8.549800094049045951e-01 -4.668172823168345031e-01
4.501839867260225975e-02 8.168969281945427652e-02 -7.314871938666256401e-01 -5.899791766539538296e-01 -7.439769779931407756e-01 -3.137241261537218051e-01
-1.270318918799459356e-03 -2.063742755021103215e-01 -8.708299398630621191e-01 -3.447528378769760815e-01 1.991558266273553146e-01 -9.173235184470887038e-01
-2.392844872360160025e-02 -1.073460927818268712e-01 -8.312233987359685106e-01 1.108698528294582986e-01 5.416859672306718609e-01 -8.332371743020986488e-01
-7.424970927817141353e-02 -9.448653566628212319e-02 -7.450808627451180888e-01 -6.607522829763586847e-01 3.989738178094401344e-01 -6.357879467590508149e-01
4.398430203052158816e-02 1.432107721399612787e-01 -6.773069578503567723e-01 -1.906828833633076870e-01 -7.869203576994928673e-01 5.868529531580779501e-01
3.275010331044135581e-02 -1.606206663774644439e-01 -9.064069373892725823e-01 -4.066197385041933621e-01 1.488458985608182572e-01 9.013907514171665136e-01
-1.580776188750653358e-02 -1.707619352292804871e-01 -8.584765361391749616e-01 -1.718779292509786949e-01 2.326493397338595392e-01 -9.572524547671815709e-01
-9.958886901862322449e-02 -3.565345903416254625e-02 -7.213580363496402414e-01 8.550284725613013226e-01 -4.696188988756869187e-02 5.164502802861818953e-01
7.895500763787346998e-02 -5.810836979292798715e-02 -8.265803687831304591e-01 2.855498209563951395e-01 6.716744007902779590e-01 -6.836042708137448631e-01
1.278957713421408765e-02 4.683734265482315112e-02 -7.062080968190541652e-01 -1.412118900783033149e-01 4.263202115952103299e-01 -8.934821091023191775e-01
-4.190302763323660445e-02 1.279783658511230923e-02 -7.933630396418296371e-01 1.585339660730283040e-01 -6.409654430733600083e-01 7.510194953441138299e-01
8.738191066253719885e-02 -7.776491764078378999e-02 -8.424544305181540516e-01 -1.129493905379060602e-02 6.571965272710231787e-01 -7.536346255943117134e-01
1.064489406329637705e-01 1.454616250974896940e-01 -5.515932417516793418e-01 7.062725714803305133e-01 2.192300690564499832e-01 -6.731398306414985155e-01
-7.404185769304424958e-02 2.723792654426804641e-02 -7.327530617290202164e-01 7.133460562801535731e-01 -5.952194699228542385e-01 3.699340300841599261e-01
-1.706469337915984472e-02 4.126414749451916275e-02 -7.012146037128219600e-01 -3.746930072693792080e-01 3.424373842386612687e-01 -8.615925882801062086e-01
1.094877939514126708e-01 -6.671847267040471874e-02 -8.495211042077177588e-01 -9.435395893753294461e-01 3.291480275496274088e-01 3.734460123798407499e-02
-9.996239697814897351e-02 -1.262183151245218626e-01 -7.639350637928193910e-01 9.968564325531666936e-01 7.326701819104307345e-02 -3.015289244446284558e-02
8.246721562153713769e-02 -7.163101521082974356e-03 -8.428521295502968691e-01 -1.485546416710356032e-01 -5.374234703647471356e-01 8.301250098262925592e-01
-2.916287248954352318e-02 -4.296979073411193173e-02 -7.645022884520675799e-01 -5.680165660186295984e-01 7.949166827862130802e-01 -2.132244079756508703e-01
2.223718249536929537e-02 -1.967682276021270604e-01 -9.038661550571095438e-01 -7.741566826744884500e-01 3.920715582959373169e-01 4.969520337475506477e-01
1.295832498566079349e-01 1.727164337073738565e-01 -5.683437081722537698e-01 -2.950893444981508296e-01 -9.352237510097707318e-01 -1.956497235133896895e-01
1.112825756481246667e-02 -1.888410905431848474e-01 -9.128191627744709491e-01 -2.200583922086269129e-01 1.942035690501208722e-01 9.559598724772653267e-01
3.733151406785108206e-02 -8.282630645125316216e-02 -8.870403229337558981e-01 -1.051581778213618590e-01 -3.709847043823901735e-01 9.226657611245806523e-01
-9.395581645217851441e-02 -8.737181055001684571e-02 -8.043401620151525711e-01 9.399069113910405449e-01 -2.468247589293874056e-01 2.359078979152760824e-01
-1.001457991665395814e-01 -8.881350435945950528e-02 -7.721365944328868469e-01 1.945755062090562537e-01 2.469930897786383750e-01 9.492811943702935684e-01
-8.763843245004580840e-02 -1.313495511330026178e-01 -7.605649461795063182e-01 -7.821794915089312905e-01 4.832295612368685545e-01 -3.932994205559589007e-01
3.661880930082474315e-03 -9.247548546394356375e-03 -7.543603230847925056e-01 -3.829709937369868422e-01 6.426502528228363875e-01 -6.635765747092412514e-01
-1.064010880485568578e-01 -1.010050243900262879e-01 -7.494675989174102160e-01 9.560750514039404457e-01 1.857440036161932817e-01 -2.267590377550141034e-01
4.165276481217187327e-02 -6.250766678298017021e-02 -8.321756156366274526e-01 -1.214436898309454865e-01 5.946151285965515232e-01 -7.947856812023926798e-01
1.681623284353843395e-02 -5.436993550784617601e-02 -8.727317648940693395e-01 -5.431969473388869804e-03 -5.441440606660008505e-01 8.389742159027033797e-01
-8.267749324522873089e-02 -1.212362742010855005e-01 -7.591732930868937412e-01 -8.513393300311419276e-01 4.316386220915826022e-01 -2.981768687557876940e-01
1.003874187082401948e-01 1.591369685369636855e-01 -5.571344094427355120e-01 6.816141666295163493e-01 -2.049692187036306346e-01 -7.024170749874844022e-01
-2.122465287950759186e-02 -1.824576395754949065e-01 -8.947097052699622965e-01 1.681840197685803562e-01 -2.193349355124543099e-01 9.610443910445705118e-01
-7.530540939232013842e-02 -7.300623796539844335e-02 -8.397822036934334822e-01 8.375570793470917819e-01 -3.411510345465778582e-01 4.267482987234614278e-01
-5.366105308045684280e-02 -2.027024655159156141e-01 -8.645411750878052581e-01 7.768557169018520669e-01 6.251454794502511181e-01 -7.542098275562909848e-02
9.978146832440717984e-02 1.352560811142303199e-01 -5.887201805453364800e-01 -2.535559093779283790e-01 9.487468568519441536e-01 1.886499468144322011e-01
7.771428131859687595e-03 -2.256584706645152205e-01 -9.021949100935513499e-01 -5.620144100793487141e-01 3.618092870108023384e-01 7.437969095767313910e-01
3.803296247693672277e-02 -1.065132530441976061e-01 -8.890404326597289852e-01 2.038005435163216528e-01 5.940642854697911722e-03 9.789944061254514107e-01
-1.374720981977591711e-02 -7.054907332453062840e-02 -8.708286940438666468e-01 3.239421880604482773e-01 -1.860603532183687514e-01 9.276006704152736093e-01
4.886966661091763503e-02 1.214993416808802240e-01 -6.836255568628277768e-01 -8.606050949544796769e-01 1.877807710573074218e-01 4.733891132667861212e-01
-2.857146365712041544e-02 -5.279940738559728286e-02 -8.627972694519032704e-01 3.992512977452872258e-01 -2.768753024676740004e-01 8.740357361871069486e-01
2.177273119919852923e-02 6.035940685675824507e-02 -7.802294219260279551e-01 3.342763602407068380e-01 -6.384288014582331083e-01 6.933022287955152851e-01
3.960511023834319827e-02 1.129397699782188763e-01 -6.987317109342101595e-01 -8.779158834724024585e-01 7.895323433928871232e-03 4.787497941667909207e-01
6.031410348172458816e-03 -1.267067035517905060e-01 -8.634965339165696641e-01 -3.284929325262658240e-01 3.219460490506821926e-01 -8.879432047045294762e-01
-3.772462170546948129e-02 -4.394428614910747891e-03 -7.091924456784752806e-01 -6.276781419845127719e-01 5.499853515154675687e-01 -5.509412520344408870e-01
-7.436195000654498288e-02 -3.765249748974362071e-02 -6.985295612616646554e-01 -3.741354468824516499e-01 4.367845083360080150e-01 -8.180720999176906982e-01
6.247696266497734796e-02 1.154659510931825908e-02 -8.324263603250249277e-01 -6.344081080248348270e-02 -6.114494874156352067e-01 7.887361966233581434e-01
-1.327593006205625946e-02 8.287163829029471629e-02 -7.173890317787904314e-01 9.193807885113953748e-01 -2.319089613672670191e-01 -3.177376265942076783e-01
-2.111069937680550707e-02 -1.921054353875628895e-01 -8.625732379961560392e-01 -2.395257886706402273e-01 2.336915963689244480e-01 -9.423458146287123638e-01
-6.084365440382751011e-02 -4.000763240781796820e-02 -8.317645221266785072e-01 6.974769591889292686e-01 -5.270806699157580821e-01 4.855016568475540306e-01
4.325649405976601108e-02 7.996492400463256489e-02 -7.590205274359596022e-01 7.230550179059093419e-02 -9.385271375283579243e-01 3.375481099541779439e-01
2.247297590865178496e-02 -1.470482377690377762e-01 -8.735430926363380033e-01 -3.503974509579508845e-01 4.548925298271239842e-02 -9.354957799077692204e-01
-1.026272867708082348e-01 -1.325299804090603918e-02 -7.099996298257459371e-01 9.635683814107436351e-01 -2.458031415630403949e-01 -1.054361889638432970e-01
4.577350866034788496e-02 -6.423451928744632056e-02 -8.338461932983247671e-01 -5.073829533024123289e-02 5.816307165996538187e-01 -8.118690380195284773e-01
-2.693617829222810442e-02 -1.960923298406505588e-02 -7.449324026217903905e-01 -6.041243425727084171e-01 5.417805323529203410e-01 -5.843865445700124894e-01
-3.924382527428265516e-02 -5.487702311126747834e-02 -7.745748089456051533e-01 -6.331307370232767129e-01 6.776784707800631580e-01 -3.740285551633157346e-01
1.630472019610537671e-02 9.588357704753498745e-02 -7.320912953603718742e-01 -5.765440537414401323e-01 -4.621730981600539745e-01 6.737900128619633833e-01
-3.619521160094407025e-02 -1.131792068223886824e-02 -7.247348770740570378e-01 -6.481096171600403411e-01 5.991061832224690020e-01 -4.701337100966820892e-01
-4.198855155253712612e-02 -5.327305027298800261e-02 -7.631306955748285992e-01 -6.530109148076764791e-01 7.571152252006989603e-01 -1.879576844229399746e-02
5.684706510992072054e-02 -6.752138671633838019e-02 -8.362139225100140294e-01 3.786965372817778508e-02 5.530957798492315280e-01 -8.322565395594548887e-01
1.251236845491327659e-02 -2.220031909375178580e-01 -8.871145610118597036e-01 -7.543383273022393753e-01 1.799469400615116843e-01 -6.313420520806122260e-01
1.024083328422805833e-01 2.941346979666036726e-02 -7.794493683000264239e-01 -5.677988271750694649e-01 2.944483994365185153e-01 -7.687032144643914933e-01
-5.262631114040949160e-02 -2.036846334232584876e-01 -8.722877030084024153e-01 7.634147222491388662e-01 6.324328000012249262e-01 1.312505822306350156e-01
1.938146538665859800e-02 -7.055051560084520113e-02 -8.824258426806428357e-01 1.799915225656047862e-02 -4.548610578553605732e-01 8.903805077407903612e-01
4.597371858565081279e-03 -1.999817161307559377e-01 -8.741029966800100137e-01 -7.791807549999917315e-01 1.233931913227750629e-02 -6.266778217242049420e-01
-7.364255437553128818e-04 3.882885970494476952e-02 -7.941566367374300883e-01 3.298205779334211774e-01 -7.747566924204170036e-01 5.394167720060615290e-01
6.939246266050175249e-02 1.690347665119203702e-01 -6.132926150157441691e-01 4.454320740833017656e-01 -8.868065670693088265e-01 -1.231437370741809423e-01
-5.760919537212323693e-02 -1.908637451853797788e-03 -7.941589877747934345e-01 6.547518258828498583e-01 -5.135527137641504591e-01 5.545842196533820045e-01
1.925633218892742202e-03 2.810378087497318253e-02 -8.085662684211410989e-01 2.186149881351097946e-01 -6.861915854644727863e-01 6.937929049798929881e-01
-5.546940919789856983e-02 -1.867197407939245324e-01 -8.790832158724902756e-01 9.984434394986502204e-01 -1.286266480318813688e-02 -5.427015732671297554e-02
6.987263855399199197e-02 5.102092964034891237e-02 -8.034627705834677114e-01 3.006571677583494070e-02 -7.202327032543709429e-01 6.930807354397151565e-01
3.131062064453595667e-02 5.601718970896382016e-02 -7.168078022708531671e-01 -7.749627233427840434e-01 3.430294777034410547e-01 -5.308140492259414422e-01
5.819796626281231212e-03 1.206730329460587586e-01 -6.855604443477287813e-01 8.355411540512900359e-01 -5.420800151830783564e-01 -8.955577606024031634e-02
1.077897780408707401e-01 -1.462914167491646475e-02 -8.402192912768621236e-01 -3.974954349890156280e-01 -4.416757528388030596e-01 8.043133148948671263e-01
-5.178979931060561336e-03 -6.558027751062553423e-02 -8.119298502470920775e-01 -7.380595416788759966e-01 5.142950351208368520e-01 -4.367707977724981094e-01
6.217569954350712913e-02 -1.221360475470310014e-01 -8.905535349538584722e-01 -3.853034525409718691e-01 3.166218159535185706e-01 8.667709473224767258e-01
4.634580997813746855e-02 -3.701690489917369709e-02 -8.546227767182353885e-01 -3.181582884232158626e-01 -7.839016157860886347e-01 5.331731053565710310e-01
-1.727741034391681516e-02 -2.250130456933774614e-01 -9.000625293785741166e-01 1.465965359031704551e-01 2.322202783504956070e-01 9.615524936185276816e-01
-6.205490602225566948e-02 -1.292454476473473557e-01 -8.796160203887039009e-01 7.188066123229123194e-01 -1.046456281317786480e-01 6.872891288197160442e-01
-5.563772893419430959e-02 -1.998399077661468792e-01 -8.632479944979226660e-01 8.274909009194919562e-01 5.614770231778080101e-01 -1.536664841345086567e-03
3.062307389926738344e-02 1.122057038526231079e-02 -7.607668054063223551e-01 -4.156408039031572743e-01 7.249062639345764669e-01 -5.493210633492505712e-01
-8.030022916906037755e-02 -2.552810787581061627e-02 -7.843165770770891276e-01 7.581111758934726552e-01 -3.907520347602996269e-01 5.220922258721168996e-01
-1.571542164246126499e-02 -1.611141987796692876e-01 -8.558838997002711224e-01 -1.414119869162006882e-01 2.877539281608120225e-01 -9.472065913962141037e-01
-5.450370270791662919e-02 4.924656003538108867e-02 -6.951463194190924400e-01 4.809826859106027808e-01 -6.688877062883052949e-01 -5.667846965388112501e-01
3.871884920446001799e-02 5.638675895411324884e-02 -7.255976345826156138e-01 -6.752631361246372865e-01 3.164344916082392767e-01 -6.662498851870480854e-01
5.071105517298391853e-03 1.198755660230283043e-01 -6.903113086382535180e-01 7.892607982475299266e-01 -6.140581293022240317e-01 7.866081993186656589e-05
6.099076367130428639e-02 1.639664235555666483e-01 -6.128094370101297983e-01 5.545620385479859138e-01 -8.079497434220217489e-01 -1.991937687423758485e-01
7.696634217244636977e-02 2.303611972153883983e-02 -8.169623688657914329e-01 5.303740358211760098e-02 -5.724988705425040347e-01 8.181882894840434295e-01
2.584360172906739750e-02 -8.244323414883350520e-02 -8.416236163779566848e-01 -3.926092900898341953e-01 3.057902672622163087e-01 -8.673812643715902437e-01
-5.154932956950211004e-02 -1.037635585347078671e-01 -8.053524115174331977e-01 -3.997005868521197880e-01 1.399173804893878714e-01 -9.059042816473819038e-01
4.279186959573346577e-02 1.482355736582685046e-01 -6.234230804745736210e-01 8.237492139680301362e-01 -2.900548257360947568e-01 -4.871400522993936666e-01
-7.828690649355782294e-02 -1.150898107936057929e-01 -7.631991264014846843e-01 -8.645833953415876794e-01 3.988476188200530959e-01 -3.056405232641530856e-01
6.698623211638281283e-02 7.394787093895850705e-02 -7.707635433546220494e-01 -2.197258907635367131e-01 -9.094736955206645934e-01 3.529562721983498519e-01
-3.687500394907999163e-02 -8.161005928854761504e-02 -8.759787228330565556e-01 7.358310308440839664e-01 -3.366794868690904941e-01 5.875369070692484375e-01
7.381037863964376444e-02 -1.234218919045028950e-01 -8.807808998654208521e-01 -7.825336944277271334e-01 3.390614204921031383e-01 5.221861451811697918e-01
-8.367738849641356835e-02 -6.306350470303777322e-02 -7.853956398666724903e-01 9.072953614030114800e-01 -4.202405423343016366e-01 -1.459499075541289236e-02
4.691813502768674843e-02 -4.333447108788596180e-02 -8.615892170190966315e-01 -2.215274545306140097e-01 -6.477239110713887138e-01 7.289576955596055452e-01
-3.153560155671784881e-02 -3.769091777138804805e-02 -7.549242216425139373e-01 -5.482596004001583090e-01 4.300031329788958634e-01 -7.172926294040617989e-01
1.017455762957901744e-01 -1.028686393177117263e-02 -8.398592028544147325e-01 -2.560903768588205787e-01 -5.027586239446597549e-01 8.256218776955823735e-01
-7.609144836023115643e-02 -2.175274466241563197e-03 -7.651138658733546150e-01 7.625324153203459909e-01 -5.489076025712800178e-01 3.424102209706488820e-01
-7.630980248323079862e-02 -1.618227672944860529e-01 -8.581626256226807525e-01 9.035515412795211976e-01 1.393420550044013329e-01 4.051893433427782298e-01
1.697046038060958870e-02 -7.869380046384766292e-02 -8.357988863200958018e-01 -4.217866995492235427e-01 3.222829399700250508e-01 -8.474843282843939063e-01
-2.977790565797671860e-02 -4.863367783694080848e-02 -8.596563120954962001e-01 5.646164015339505404e-01 -4.584357354006651786e-01 6.863271782659521314e-01
7.443823631540752439e-02 2.724706525107342681e-02 -7.638808369146976585e-01 -4.494714187773075631e-01 3.152956307014494475e-01 -8.358014770044914776e-01
1.467529567092827267e-02 -6.921134372529390288e-02 -8.815566567954731259e-01 4.538744101475919446e-02 -4.636009935772560930e-01 8.848808388434641348e-01
4.047612626650078788e-02 -4.709225867072374533e-02 -8.659416738683729520e-01 -1.257599048096207095e-01 -5.665763753831272176e-01 8.143559769535634318e-01
6.212333592302399926e-02 -4.803252614405624510e-02 -8.216631923203089327e-01 6.431079154177837820e-02 6.487893598506692117e-01 -7.582456650953099953e-01
6.126147640637854414e-02 -1.131163741466770407e-02 -7.954566208565079233e-01 -2.865574124233842279e-01 5.682670605040733847e-01 -7.713348153242366445e-01
4.297440479834218480e-02 -1.295085722148078544e-01 -8.998175189209935976e-01 -3.170594452282493592e-01 -2.171201315764563489e-01 9.232183688899270324e-01
-6.922469230690590780e-02 1.605960987492578707e-02 -7.381077376089087982e-01 1.459069316091636259e-01 3.248132781622641851e-01 9.344557248141202033e-01
4.178578440979265063e-02 1.220495687803023060e-01 -6.943057623139899937e-01 -8.015854236702593116e-01 -1.089227096247715187e-01 5.878746906334452182e-01
9.975740714016438637e-02 4.346058441544545237e-02 -7.727603782703861279e-01 -7.255613722722279446e-01 6.980103971241251315e-02 -6.846082894046110479e-01
8.391570117678918972e-02 -4.377959310042646782e-03 -8.406529911755883377e-01 -1.668511656949890620e-01 -5.611574061587276674e-01 8.107176166948835139e-01
-6.663757280242744996e-02 -8.765521945139363724e-02 -7.641290413628594180e-01 -8.915656347747424881e-01 4.116360886522595908e-01 -1.888556311254165898e-01
-5.744126433306676743e-02 -1.285799847856712308e-01 -8.063475758445810548e-01 -8.508009936933795814e-01 2.700360242567743096e-01 -4.507973100340688100e-01
-5.423756236609263148e-02 -4.580458186005390009e-02 -7.359494202092000670e-01 -7.180298048005623324e-01 4.965194761957247849e-01 -4.877515855190934779e-01
3.641315610109555762e-02 6.289122659317358810e-03 -8.355971650501853309e-01 1.238904368465371664e-01 -5.790214167408912482e-01 8.058445002687213421e-01
6.246276565155645111e-02 1.438500264129877193e-02 -7.711879292594409074e-01 -1.422146300630750815e-01 8.089126676453309850e-01 -5.704693638741146211e-01
-8.758522269751105316e-02 -1.879072645206566680e-02 -7.627226659847685664e-01 8.319543457065118330e-01 -4.489624283319033071e-01 3.260133503499056951e-01
-5.904525743660041237e-02 -1.853272017212344580e-01 -8.703985357700675385e-01 5.887604237287311637e-01 2.603196794930323632e-01 7.652416794186068794e-01
4.936885994382547022e-02 1.594888287109139935e-01 -6.326237335200015632e-01 5.785811211396658660e-01 -8.083444827797457988e-01 -1.087340030547591790e-01
-3.200835347905816447e-02 -6.747969387975895350e-02 -7.955129901605798581e-01 -4.676816088953284489e-01 6.046249207328415753e-01 -6.447500429855604898e-01
-9.170325240739415906e-02 -4.529708398029622107e-02 -7.785209240822069665e-01 8.589712201259310786e-01 -2.447400618161851282e-01 4.497452002385118330e-01
-7.533499978535015094e-03 6.254206444559501366e-02 -6.971461604294689751e-01 -1.213175991638976575e-01 3.843322665177944519e-01 -9.151889144031426504e-01
-5.657330086476672305e-04 9.911523926791863948e-02 -6.896057230854775177e-01 8.603900674328319731e-01 7.382648272024458502e-02 -5.042604310394422917e-01
-6.192559959360503102e-02 -8.746075994789027919e-02 -8.619444379677202450e-01 6.563992467947149523e-01 -4.283033960804415452e-01 6.210444667761652049e-01
1.019983406793928127e-01 1.461839680370113359e-01 -5.559855178955459554e-01 6.897081678979088970e-01 2.739142546956034874e-01 -6.702787660439961659e-01
5.773180782209687972e-02 1.362421682017242730e-01 -6.704435590887773966e-01 -7.639631796745334213e-01 -1.830942464478001463e-01 6.187380358595135910e-01
-3.502137963841232132e-02 4.750676869588588147e-02 -6.918695750852893456e-01 -3.285503113521236473e-01 7.516215229714127977e-02 -9.414910216101287643e-01
2.045420744828431447e-02 7.190052457065145876e-03 -7.565274533631616283e-01 -5.501040843900654176e-01 6.662289100900584682e-01 -5.035122001477030373e-01
-6.238013797377941344e-02 -1.676938147349473218e-01 -8.267593145909647445e-01 -8.375204654992036701e-01 2.472651093276869994e-01 -4.872570528778051302e-01
4.975897317144210158e-02 -2.348978354486634668e-02 -7.990613011001935773e-01 -3.613251898547314989e-01 5.178711834997171692e-01 -7.754054065307028898e-01
-4.860306646734187386e-02 2.754193126085988791e-02 -7.639980479190625617e-01 6.253730017983195610e-01 -7.737107503408111597e-01 1.013917325466825725e-01
-5.082718720776122773e-02 -8.651340541770241588e-02 -8.708542647044066332e-01 2.072286549460593541e-01 -4.999895570905997233e-01 8.408725987743880248e-01
-6.082168442267326530e-02 -1.946591757841002746e-01 -8.589979794912441236e-01 6.148023943636862221e-01 6.972917544021279834e-01 3.685135345241479232e-01
-5.806225353573153669e-02 -1.819529092894879574e-01 -8.720886881959056813e-01 5.599671957016524315e-01 2.001337786914234307e-01 8.039796081771724001e-01
-6.368282623043330926e-02 4.441863391028544328e-02 -6.991550122261485090e-01 6.246876719887705098e-01 -7.094764787801164374e-01 -3.262030633256175483e-01
2.309565547180525424e-02 -1.234417178410924243e-01 -8.654101318558387046e-01 -5.842804566820286594e-02 4.782021188460295336e-01 -8.763041121725734239e-01
9.236274978103335698e-02 4.086975193613437418e-02 -7.680138985164548515e-01 -5.049939072760820657e-01 3.363188947246708582e-01 -7.949029844359696284e-01
-3.559251968856269599e-02 -2.947008228053733803e-02 -7.443847337273101772e-01 -6.518379477144379264e-01 5.105506021681091022e-01 -5.607542889227070670e-01
7.627004504016009212e-02 -4.972159954836296442e-02 -8.575731433713518204e-01 2.984025344464857343e-01 -7.379968909255689609e-03 9.544115797153829295e-01
1.638139350256662824e-02 -1.669542515373529865e-02 -7.763045718499547165e-01 -5.209847825403436383e-01 4.630312883210140895e-01 -7.170612821768951317e-01
4.996815414917380599e-02 -1.354045218884958324e-01 -8.728857298208636539e-01 -3.074002196692775506e-03 6.587251708200826394e-01 -7.523773653151375473e-01
1.788440709323743660e-02 -2.111407182019577888e-01 -9.008684062072660481e-01 -8.133547530691626060e-01 3.200873113347291743e-01 4.857964170126263248e-01
-8.984514939855130222e-02 -1.595099224305281949e-01 -8.199655113084861613e-01 8.971226932849911684e-01 3.502718514388558635e-01 2.692220334272059090e-01
-3.238111460348529203e-02 -4.917671708812072079e-02 -7.755711826891475980e-01 -5.548138634300772143e-01 7.105657170089147989e-01 -4.327562116912921364e-01
3.506156155593566359e-02 -1.734664902576002199e-01 -8.815560175607329851e-01 -3.133199058712620722e-01 6.254416285068551407e-01 -7.146001720651322664e-01
3.290589538231673654e-03 -3.859010501933990422e-02 -7.895538999163166372e-01 -6.260245195175372368e-01 6.492383794241316508e-01 -4.319523441834337563e-01
-1.030643363017715169e-01 -5.147025297095191021e-02 -7.500275597942499539e-01 9.513443227665507873e-01 -1.948431573375727643e-01 2.387050975127651686e-01
7.320705416834194512e-02 -3.163640246367194903e-02 -8.574876915444222814e-01 -1.601032347747228524e-01 -4.066995470377915423e-01 8.994233889853685548e-01
9.432891369944750720e-03 7.410537861730884246e-02 -7.560448354273686666e-01 -2.357600414113847076e-01 -7.275304999935385819e-01 6.442954093060525578e-01
4.258086472192087329e-02 -5.303459045122019960e-02 -8.246837468060266296e-01 -1.365076584327939990e-01 6.315194215692613300e-01 -7.632488973919459019e-01
1.505844205881582548e-02 -1.464654606928548763e-01 -8.691665510592333499e-01 -6.158123383374645154e-01 -3.303006476652257106e-01 -7.153157667095537686e-01
-8.035746994488110473e-02 -8.094709445759508404e-02 -8.353303164743660636e-01 8.732202631503482859e-01 -2.779918962621629186e-01 4.002585135087115553e-01
8.750510429499172571e-02 3.888970950793601417e-02 -7.658824745412790014e-01 -4.649835316257203144e-01 3.677461518999328161e-01 -8.053279351169090328e-01
3.516116737175548762e-02 1.493058090903058299e-01 -6.539402404229748278e-01 6.102181914151192377e-01 -7.912906804981929554e-01 3.863700069580225382e-02
9.462284332476497695e-02 1.545217671596221254e-01 -6.220684620779608487e-01 -7.552216406827081396e-01 -6.338808038714244079e-03 6.554388552391192668e-01
9.640754907968081266e-02 -5.389738932983633747e-03 -8.383375330024935845e-01 -2.252944297942607033e-01 -5.282842561353701116e-01 8.186318859067107656e-01
3.586023256602118708e-02 -4.148158444586843435e-02 -8.126975180486405437e-01 -1.694617568004626318e-01 6.953709410112834943e-01 -6.983852571318948099e-01
-4.942282741771042431e-02 -1.619250433921715082e-01 -8.889537924642986200e-01 8.992720717788297291e-01 -1.202276064689173779e-01 4.205413933982791175e-01
4.422667428291174319e-02 4.356085296534122075e-02 -7.370406057233921393e-01 -5.904570461884307564e-01 4.152003230194672989e-01 -6.920759845356313500e-01
-7.066913131517277291e-03 1.664966806036527122e-02 -7.174443236921602685e-01 -4.796580043875133259e-01 5.974082074307871526e-01 -6.426753710243778839e-01
6.336444139047671398e-02 1.310979132832381377e-01 -6.620970275670609029e-01 -8.469087516970245089e-01 2.256350511161639982e-01 4.814918379441063823e-01
4.104007571671351717e-02 -5.207836410825562867e-02 -8.693239095881228895e-01 -1.252678684473551574e-01 -5.671719114107545145e-01 8.140171890330861748e-01
9.779828606049065232e-02 -6.711109002680369640e-03 -8.007718924793185700e-01 -2.073739992602668392e-01 6.888697821504619068e-01 -6.945894094144957620e-01
-4.659172647843802528e-02 2.850454788763420039e-02 -7.606805790084691932e-01 4.656100906201311451e-01 -8.439220612070130745e-01 -2.664635024179098921e-01
-3.289060476227767538e-02 -2.448307821338599390e-03 -7.151210536858483291e-01 -6.410225111111009788e-01 6.904475817839567098e-01 -3.352197444326702747e-01
-3.723281825245900595e-02 -2.109535073318929976e-01 -8.915429809381729687e-01 6.936124950416717727e-01 5.111345173709548328e-01 5.075856694923801538e-01
1.167934064577412084e-01 1.594332940155759326e-01 -5.453596786811080177e-01 2.042178514280755253e-01 -5.766104609236747391e-01 -7.910849799556857187e-01
-7.770655129978086030e-03 -3.147790635277627341e-02 -8.538027966992834950e-01 1.525939098868740462e-01 -6.098422951063356967e-01 7.776936889064186564e-01
2.190543880792515663e-02 -4.324334634415558098e-02 -8.098029549978656982e-01 -2.924485376020609095e-01 6.925414266367901917e-01 -6.594393264329138082e-01
1.807186617696859843e-02 -8.975943227439162064e-02 -8.826173411751040421e-01 2.918959696702167483e-01 -1.532756771457013112e-01 9.440886132592695157e-01
-4.685393925727007573e-03 7.413603371199378733e-02 -7.615461687967182147e-01 -5.077192870488296539e-02 -7.114663851050516685e-01 7.008835810041039727e-01
1.048812548290073421e-01 -6.064072992102936127e-02 -8.363596781031041871e-01 -5.402941060482927549e-01 4.025907016416908624e-01 -7.389201620751240096e-01
-6.093114377285422691e-03 6.922726563566183877e-02 -6.953219159701270469e-01 -6.349385059056021283e-03 2.716806505131831861e-01 -9.623665151313742783e-01
6.394852756576473174e-02 8.912984778526266555e-03 -7.783428423718794509e-01 -1.732604265987353620e-01 7.224918749907903726e-01 -6.693177983193904224e-01
-9.029419173894150108e-02 -7.104689561670919640e-02 -7.774887908732778241e-01 6.755235945355319016e-01 -9.632736962108613687e-02 7.310190907819554829e-01
-1.861996091496581629e-02 9.100932014229245928e-05 -7.322331188587581918e-01 -5.657591556927610288e-01 6.586712301702472017e-01 -4.960532111536296584e-01
2.147952258818827329e-02 -1.672765524295026229e-01 -9.078631142552879840e-01 -4.496408427431323185e-01 -2.375293717381385117e-01 8.610475655263947203e-01
8.477657032807603410e-03 -1.853085756623814861e-01 -8.763251368300585264e-01 -6.331127808560864656e-01 1.473225132584046748e-01 -7.599107077834211799e-01
1.158230545697760613e-02 -2.182855940099784897e-01 -8.850045520007152611e-01 -7.294067490509338336e-01 1.713678027718762986e-01 -6.622679749256241699e-01
5.332879774004993523e-02 -1.095835668742815155e-01 -8.560913755822503468e-01 -2.819962466616482977e-01 1.757636976438502474e-01 -9.431782649421603937e-01
3.559401623444427565e-02 9.461703419452430208e-02 -6.895055762083630579e-01 -8.250750726952011949e-01 5.085594120018248621e-01 -2.462081413791315510e-01
-2.951695606496386112e-02 -1.179417519070272147e-01 -8.883616866630196229e-01 7.928172928496088900e-01 5.034574407150937958e-01 3.434695700454779566e-01
-2.557557354064758995e-02 -4.027058554371211463e-02 -7.639954400762027920e-01 -5.627291067750639364e-01 8.000934341441078290e-01 -2.078134957783700498e-01
-1.045617145394548697e-01 -8.164843707354221825e-02 -7.249458521100710096e-01 6.445512208136937593e-01 4.316093938234646377e-01 -6.310840315765549047e-01
1.148751563572188161e-01 1.761869537168287425e-01 -5.836741593882296408e-01 -1.645214804096003514e-01 -9.809931668638184332e-01 1.028838619528348181e-01
1.011503292896498984e-01 1.749342750875381158e-01 -5.797166232781812978e-01 2.299033403567405653e-01 -9.473608155613205684e-01 -2.228271510202513295e-01
-1.193880124956324222e-02 -6.696554837846910302e-02 -8.715129173759017522e-01 4.268053270484288841e-01 1.819267345445061690e-01 8.858554487392716892e-01
5.686201348922152558e-03 8.255824988014767371e-03 -8.265947568633656983e-01 2.972775957986091844e-01 -5.121330359333564619e-01 8.058199454852692512e-01
1.293674084740025106e-02 -2.849337415535823856e-02 -7.840760771792364414e-01 -3.211393724511922843e-01 8.171253404499049244e-01 -4.787229694262449264e-01
3.782490385761032997e-02 3.748644104900078489e-02 -7.981295399825254488e-01 -2.841569407556043120e-02 -9.501810310194976905e-01 3.104006388861471621e-01
3.854810994370120713e-03 4.942504637782374130e-03 -8.279038216321011889e-01 3.425499452394428213e-01 -3.699663437298011948e-01 8.635881191422549730e-01
-1.295960011565091413e-02 -2.334401631793371068e-01 -8.984669131159264133e-01 2.156545836902170055e-01 3.128525719121731941e-01 9.249953344646326681e-01
-2.655645332614439691e-02 1.156828835734877853e-02 -7.092745581687849299e-01 -4.060811724346096718e-01 2.682852244984261225e-01 -8.735680395424056943e-01
1.078085544651577188e-01 -6.673517274292332935e-02 -8.544152738975001604e-01 -7.883608556687282665e-01 1.033211301070042637e-01 6.064749832620323078e-01
1.636543758530922604e-03 1.059927908327019108e-01 -6.849127417273903617e-01 8.790311222159702398e-01 1.105248941579813418e-02 -4.766362645177618096e-01
9.242727981947627958e-02 5.666744130771515786e-02 -7.863486706896425371e-01 -5.393799459575604471e-01 -7.726541891253341232e-01 3.347757128674231919e-01
1.532605645941318047e-02 5.102339726911361145e-02 -7.046266047450018277e-01 -1.025218836401409345e-01 3.894795408265709913e-01 -9.153113954564320309e-01
-7.725703052292068329e-02 -4.772343649431742135e-02 -7.860191465449872794e-01 7.907608620291475265e-01 -1.981066782361942391e-01 5.791813214539471844e-01
-7.831433967363807258e-02 -1.034876836575241710e-01 -7.469934682936476555e-01 -6.973596230276177810e-01 4.495653973179967178e-01 -5.581939713980171858e-01
3.501767744750029256e-03 -2.439434432785475282e-01 -8.859285408162111963e-01 -5.236703620519681524e-01 3.285224412020445461e-01 -7.860294889729072532e-01
-2.925543725817358540e-02 -1.361699234780923695e-01 -8.454294587464938893e-01 2.073063551874849281e-02 2.977216986172127045e-01 -9.544275933372160514e-01
-4.642352047341351262e-02 -5.093704608951717290e-03 -8.033980492297799758e-01 1.580908546557051597e-01 1.963000868726355250e-02 9.872294284679559162e-01
-5.587203730550930475e-02 -1.896237806855334829e-01 -8.391776899034280035e-01 -2.473728487594567260e-01 2.643216034714137574e-01 -9.321699220823055354e-01
2.764198921800795766e-02 1.392457180214872192e-01 -6.470149242799250189e-01 8.532948879110213714e-01 -3.837824604546521967e-01 -3.529856332944600328e-01
5.471903366075377834e-02 1.626638959388641281e-01 -6.302272844268790308e-01 5.218002631859783857e-01 -8.508387566025035209e-01 -6.162706874539172069e-02
-8.505058078227989427e-02 -1.344756733564990980e-01 -7.698086005153084166e-01 -7.854898381993269396e-01 4.169683126399909567e-01 -4.573217033333907833e-01
-7.984325982096522611e-02 -1.729188257075268131e-01 -8.375108592633638827e-01 8.947248537616506736e-01 4.206207622629880016e-01 1.501519577444646592e-01
1.221143495738180734e-01 1.723252210219958780e-01 -5.628238818122343057e-01 -4.215005010536767432e-02 -9.191597368802960633e-01 -3.916232262957084487e-01
-9.447179161201124664e-02 -9.151860556864156726e-02 -7.803578706969521717e-01 9.083700649598104304e-01 -3.492470417294313845e-01 -2.299789749697797314e-01
5.405826216649455701e-02 -3.978540872202277617e-02 -8.138454958032578235e-01 5.963383256476372657e-02 7.595770931855394537e-01 -6.476777327664151596e-01
4.946849288687241164e-02 -1.172150313222190821e-01 -8.581298687681649939e-01 1.043387252084214400e-01 6.162171067702669758e-01 -7.806342983404990221e-01
-5.296163225372706868e-02 -5.483683789133073083e-02 -8.500671072291252628e-01 1.985591284339313298e-02 -4.498608775095043755e-01 8.928778940098889283e-01
-1.004012402739537929e-01 -1.207106030197425961e-01 -7.670514728036067487e-01 9.849229676020926361e-01 1.278223625296298627e-01 1.165683984930354633e-01
7.695498428240925282e-02 3.957877782784309517e-02 -7.597819923951159016e-01 -4.351253863234778030e-01 4.064936866535959203e-01 -8.033858231806261241e-01
2.296453454587116597e-02 -1.728265814144326340e-01 -8.794071091501436399e-01 -2.089262950729993129e-01 4.315754006896307393e-01 -8.775491306739782171e-01
-5.811258766239947582e-02 -1.781669299952624852e-01 -8.356643318681300503e-01 -6.527742672712867344e-01 1.497854773746346291e-01 -7.425968399852557189e-01
3.809757204882973508e-02 1.143183805940463926e-01 -7.009731385885458188e-01 -8.154120241933657809e-01 -1.209958917831067682e-01 5.660947137824983155e-01
-6.554724734690932364e-02 -1.514507339581418477e-01 -8.034639809447158276e-01 -8.347422191415591053e-01 2.231213492475861149e-01 -5.034106585011501878e-01
-8.626532648541612724e-02 -9.215592132397831815e-02 -8.291274105712637121e-01 8.990817079340349682e-01 -2.338004171377948137e-01 3.701208551333085017e-01
-6.820160890641117912e-02 -1.592305171905038785e-01 -8.031947925784929110e-01 -8.071782502288027406e-01 2.907832928264779682e-01 -5.137201076175227366e-01
-9.781469445752359604e-02 -1.218317861875859304e-01 -7.502359501991265889e-01 4.522964077950695216e-01 5.761368812115894578e-01 -6.808041227867667189e-01
-4.205996427120434200e-02 1.150634481742353506e-02 -7.000542935805583733e-01 -5.173697913157080386e-01 3.399615591224343092e-01 -7.853372761769201738e-01
-7.677409292211227754e-02 -1.390583525750162253e-01 -7.862173012958629803e-01 -8.175926229622063612e-01 2.708683482141500121e-01 -5.081069186829847428e-01
-3.472473868961239302e-02 3.830561756515814265e-02 -7.602256768927065922e-01 8.669935703082805034e-01 -4.235392620714080181e-01 2.625578841476824410e-01
-1.229353409700639386e-03 3.041533985456704170e-02 -8.048341246551529160e-01 2.555691287186584448e-01 -7.296422067097979580e-01 6.342764938365932359e-01
5.814420251502692288e-02 -8.650996615971050241e-02 -8.477698487355287416e-01 -9.756135225218631052e-03 4.962594777494255260e-01 -8.681194322035042932e-01
-4.973740685604081252e-03 -1.428306592193235858e-01 -8.574747988820602407e-01 -5.435887977514457514e-01 3.467061700129940305e-01 -7.643991435330489415e-01
2.746475287319663158e-02 1.263889974013454320e-01 -7.018327918788221931e-01 -8.187147148881590564e-02 -7.514606335175575413e-01 6.546785306008185978e-01
5.871819924399088869e-02 -4.651784373338285761e-02 -8.598373458534371849e-01 -3.784883559419770505e-01 -7.197815262862188312e-01 5.819459758718331654e-01
6.925167271115299783e-02 1.576559592483536554e-01 -6.460352755020409843e-01 -4.329762969162733177e-01 -6.611398990143633192e-01 6.127198056534068904e-01
5.706864555083978469e-02 1.223924083628652321e-01 -6.663184751061411726e-01 -7.657891149519203688e-01 5.980444762230729960e-01 2.364526081062008622e-01
1.419744117668755023e-01 1.582874964893581649e-01 -5.676814247920691781e-01 -9.400828994257309779e-01 -1.526185945383513043e-01 3.048798235509346255e-01
-2.685331226730873835e-02 -6.578149131464290644e-02 -7.971392209232687209e-01 -2.724396128555043872e-01 6.406252303639609069e-01 -7.178969087329074572e-01
8.477109125221797548e-02 -7.205147360167474258e-02 -8.376652166682150291e-01 2.368523359501425660e-02 6.496930292861429201e-01 -7.598275971603983825e-01
-6.481223995721319131e-03 6.841235243433947677e-02 -7.672400015093285841e-01 -8.140079918629708478e-02 -6.799013195909255902e-01 7.287716415382462509e-01
8.583015213487435457e-02 1.362752423784747424e-01 -6.174331521266800404e-01 -5.517802702629495126e-01 8.078082576403304849e-01 2.073266799923244030e-01
8.772350827246440386e-02 -3.816280907049636462e-02 -8.571457006867738704e-01 -2.095904801082194013e-01 -3.894271348368951169e-01 8.968937157215077782e-01
-9.111622359424113859e-02 -1.492630838153115036e-01 -8.253186755138808284e-01 8.805388515757937018e-01 1.849321263307750762e-01 4.364074237640331866e-01
-9.589782653663248002e-02 -1.191369315841350890e-01 -8.137850546617515501e-01 9.447688038226387253e-01 -6.288458731722811057e-02 3.216480001515357734e-01
6.998388101444880105e-02 1.328884362365630734e-01 -6.508967362954368729e-01 -7.909629559679007826e-01 5.172863742808919696e-01 3.267910789324727228e-01
-6.170415298328598558e-02 -7.427904390456829820e-02 -8.488330828497563374e-01 4.378409710793852994e-01 -7.346365398436303928e-02 8.960459673406977466e-01
-7.162072882750043779e-02 -1.007224969949036542e-01 -8.441552362253066377e-01 8.007680176914642178e-01 -1.590303296355992935e-01 5.774772169518684883e-01
