7.458410097285434436e-03 1.579382352615536084e-02 -8.349069183179615994e-01 -2.644707546615392493e-02 7.150309059200762873e-02 -9.970896951804681940e-01
-5.726790048850925047e-02 4.727467691581888065e-03 -8.956819411595606795e-01 -1.396786489424541311e-01 -1.571474728088217698e-01 9.776474552820210162e-01
1.888194936571362115e-02 -7.228053935534561880e-02 -9.135465492004080090e-01 -2.530524539586660460e-01 -1.911697963135300105e-01 9.483768051375681685e-01
-6.561349347345760141e-02 4.599183810442341452e-02 -8.887558824046237760e-01 7.230901398908580469e-02 -4.153152601157393264e-01 9.067991184440588048e-01
5.559719850073249064e-02 -1.064536234931223180e-01 -8.732347360313459372e-01 -5.097066734413652211e-01 2.241883944578900167e-01 -8.306254696550853245e-01
3.380771052440037505e-02 -1.368015245830324633e-01 -9.296126924153984561e-01 1.352467340437073506e-01 -3.597448207454017055e-01 9.231966122540580244e-01
1.224734820805081087e-02 -1.422885755334614422e-01 -8.781805537960858388e-01 -7.472852758029185916e-01 3.122334396163042869e-01 -5.865790618096827780e-01
-7.257588700821690324e-04 -2.464667318726967149e-01 -9.875491391805815145e-01 -2.921250221464020136e-01 8.773124059883581349e-01 -3.807701586717144315e-01
3.639464723194806711e-02 -1.708689477664411815e-01 -9.586329783522514747e-01 3.785557283223834335e-01 -4.874708129636191045e-01 7.868085962055180183e-01
-1.292006970623111317e-01 -4.422344734397853222e-02 -9.068902642325918917e-01 9.376903162524884427e-01 2.623870249593473480e-01 -2.277935906457659032e-01
-4.989749682760971639e-02 -1.192699220377844635e-02 -8.496309896582395771e-01 2.251334674979717787e-01 6.944042212044035378e-02 -9.718502711776514369e-01
-2.103292080541028369e-02 2.336646607554309918e-01 -8.888607387678223448e-01 -9.204948505418310001e-01 -3.831233601223151264e-01 7.684868934834779286e-02
5.015406429806056748e-02 -1.286650723504433325e-01 -8.872946377314729904e-01 -7.699611949163904789e-01 -4.858932524011882331e-02 -6.362380339115495387e-01
-9.941311903403373361e-04 1.678421054635124698e-01 -8.530056306090796348e-01 -7.668169473393720015e-01 -3.830434226350555305e-01 -5.150432075555884115e-01
-4.051884563703075232e-02 5.791157299411552745e-02 -8.429965206615523954e-01 1.000377319705432894e-01 -1.422659974167923835e-01 -9.847602947728929523e-01
3.661456156119394234e-02 3.267826136232914597e-02 -8.510995563586197799e-01 -1.634126706249658390e-01 6.794023917503301258e-01 -7.153381642014827735e-01
-4.422994668186933792e-02 -4.720938128135356016e-02 -9.054237985232799213e-01 -1.961304084693049343e-01 -7.761188816864701689e-02 9.775015384584112565e-01
1.966393521619501372e-02 7.419736892909910286e-02 -8.454146007834524301e-01 -8.237081573896682940e-01 -1.515174817553022746e-01 -5.463948427394322849e-01
-8.234050933299917607e-02 -1.204979028562169346e-01 -9.395517800738417691e-01 -1.904829554316794793e-01 -4.260929725356427666e-01 8.843986784509307864e-01
1.128603453408139404e-02 7.240434677092993931e-02 -8.346140325809748850e-01 -5.530252218827743649e-01 -5.540972599271012933e-02 -8.313199541854633390e-01
9.331245531439018304e-02 3.199980053277304975e-02 -8.706766274496158253e-01 -5.344764497131185843e-01 -1.501128901785946101e-02 -8.450500493486066134e-01
3.020898685239985573e-02 -1.106815073646723047e-01 -8.708218710384080241e-01 3.932138260493320270e-01 6.795085319495725029e-01 -6.193957071302500506e-01
8.019350298689253975e-02 -1.243185395762652773e-01 -9.019542076670384878e-01 -6.867174478174504770e-01 3.429511875788344710e-01 -6.409396459896631315e-01
-7.607708315033630264e-02 -3.275664080096123143e-02 -8.620408814185730462e-01 3.817242234720806815e-01 2.118530585195701477e-01 -8.996693274812366248e-01
-4.990126060355638826e-02 4.447030950519127723e-02 -8.913919416660129880e-01 1.512392025863030232e-01 -4.971490633340301390e-01 8.543825328429625054e-01
-5.160650286440699591e-02 4.320594098279893769e-02 -8.918257990221968301e-01 1.512392025863030232e-01 -4.971490633340301390e-01 8.543825328429625054e-01
1.004237896302063171e-01 -1.000909884140703671e-01 -9.154305845522456853e-01 -8.392157775195209224e-01 1.314317939015373637e-01 -5.276765697983279990e-01
9.758458820084725538e-02 -6.584244439660201509e-02 -9.041383658558361791e-01 4.033254359451811100e-01 8.536076611391625324e-01 -3.296703710741356597e-01
6.420202695387103309e-02 3.974128342317730100e-02 -9.120052396093977221e-01 1.510112707491138573e-01 -5.291422507609404580e-01 8.349874697062130702e-01
1.162405119453676916e-01 -8.978884918100081547e-02 -9.535274886596931676e-01 -9.227999037064016363e-01 3.835588011378493478e-01 -3.637284411688862518e-02
-1.907708382882518025e-02 6.954106800916519393e-02 -8.438616028039146455e-01 3.041012827165593402e-01 -1.511475329850524851e-01 -9.405726091709645242e-01
-1.572273200716777300e-02 9.369188599194580580e-02 -8.386324188877669616e-01 7.941364508326956839e-01 1.088246638301876845e-01 -5.979167918708223617e-01
1.159961581976674816e-01 -8.834748420610120945e-02 -9.479340884405378365e-01 -7.704588334919268977e-01 6.017115083349132698e-01 -2.105622155838576537e-01
-1.036689361453339321e-02 2.101253696067331006e-02 -8.435906525030544278e-01 5.440406537598037051e-01 1.974577722399333268e-01 -8.154938351935272500e-01
-5.379485782292409146e-02 -1.302932434333535783e-01 -8.887163763094333424e-01 3.905205747795305049e-01 4.338152227333429423e-01 -8.119716948260482514e-01
-7.169370342135902852e-02 -1.444860031533959088e-01 -9.092906482788595257e-01 5.446954973581407122e-01 5.035528996797777879e-01 -6.706275362538102192e-01
-2.823924736414485173e-02 -2.129382692450955405e-01 -9.737566606307065387e-01 4.681223411066040563e-01 -3.714983731436287684e-01 8.017795410887643692e-01
-9.414333530389146221e-02 -3.405042016439469629e-03 -9.046683301847692205e-01 -2.502409770343920203e-01 -6.034408341918484631e-02 9.663012185696400191e-01
-1.914362037998702457e-02 8.582331522051613037e-02 -8.457807644679206094e-01 7.942997419208902565e-01 -4.999801274966261810e-02 -6.054652085012746099e-01
1.568051863712553728e-02 -1.005924202284068092e-01 -9.209129051268134525e-01 -1.789917380281116910e-01 -2.059468723781166521e-01 9.620539711863089760e-01
-3.462337549457197849e-02 -8.557660702602447322e-02 -9.106157360023133807e-01 -1.312252853438486688e-01 -2.543413482542469239e-01 9.581703413561899474e-01
3.050903773569729749e-02 -2.153379043761797229e-01 -9.819527670889380833e-01 -3.619406486719816129e-01 -3.519673019540989212e-01 8.632021693636187099e-01
-1.193932034155107957e-01 -1.081807184970387699e-02 -8.799000479861829316e-01 6.325058252905878531e-01 2.823719756750970866e-01 -7.212506140911182362e-01
-4.672948618790862679e-02 2.700537973239086065e-01 -9.363064742901674453e-01 -8.939687219785072969e-01 -6.945198018603995771e-02 4.427147462784045695e-01
1.160011203859606351e-03 -7.934077614831336334e-02 -9.108872956578091262e-01 3.690085466624707378e-01 -2.461436810926231900e-01 8.962399124945419349e-01
-1.746358481759104422e-02 -1.957201081690050637e-01 -9.214627246522913984e-01 6.485485914475250802e-01 -3.894998844907529567e-02 -7.601760473280173569e-01
-2.393517848307686463e-02 1.057603266902671507e-01 -8.515408114088546254e-01 9.291898789139036996e-01 2.166994312982311044e-01 -2.994119660250541548e-01
9.029108574389660413e-02 -3.182418417741879335e-02 -9.374155474972418745e-01 3.688322296972299519e-01 -2.911966743319929218e-01 8.827045276844097677e-01
9.882329631216338339e-02 -1.363962091344139427e-01 -9.617596880337730969e-01 -7.714842886074336770e-01 3.638734307184450789e-01 5.219273118443517046e-01
-8.202121865077691143e-02 2.631088685263021087e-01 -9.113144377785189487e-01 9.128844942491091130e-01 3.125650680874198506e-01 -2.625737579634624397e-01
-9.424542972895570692e-02 -1.753712636406561109e-02 -8.690394396411916800e-01 5.619401280233536911e-01 -5.052847541352132297e-05 -8.271779070816448476e-01
7.862908451492504891e-03 9.081700367951149599e-02 -8.350769498036761940e-01 -4.443080958048243323e-01 -1.685179770374609365e-01 -8.798818144600403235e-01
-3.926365884436173320e-02 6.090500037092807378e-02 -8.859350582990961342e-01 2.466843244272532154e-01 -3.521455088892313512e-01 9.028512527825467426e-01
6.952064428994841373e-03 -2.038896355661647675e-01 -9.379270484118780171e-01 -2.196317396173433356e-02 6.833277484336448548e-01 -7.297813420539965845e-01
-4.956401038796928726e-02 8.357938728234168280e-02 -8.667381083520041551e-01 4.371869837262549741e-01 -8.378565782100165782e-01 3.269004368466671417e-01
4.824272474639824254e-02 5.452408721259419805e-02 -9.002720597356033139e-01 1.028254995791637594e-01 -4.857954896174901949e-01 8.680032597309750297e-01
9.988808088646472516e-02 -1.314093922199394138e-01 -9.343729048139293170e-01 -8.198095027089385978e-01 3.966335889023294148e-01 -4.130304775952743923e-01
-8.412704537388994430e-02 -1.432025090034331205e-01 -9.204321983097483173e-01 6.715606763443889848e-01 5.350092570163816896e-01 -5.126122832069535118e-01
-5.452461860901775675e-03 1.867178249041382201e-02 -8.404213705931385947e-01 6.507865494482625301e-01 2.266665579951946397e-01 -7.246372461748258331e-01
8.795572920431678210e-02 -7.647350336568028983e-02 -9.445121934148911214e-01 6.785872590134456317e-01 -1.360886086639829795e-01 7.218027587204970397e-01
-6.669204979893395002e-02 4.767828544267070645e-02 -8.467400800877512568e-01 3.383249281779721063e-01 -1.228512667511317963e-01 -9.329757816958661465e-01
-5.488969723624489983e-02 -7.377446573947581479e-03 -8.507718928600641606e-01 2.696618145516626042e-01 -2.623849144761270652e-02 -9.625975521157625892e-01
-1.499793901740486754e-02 1.383317644239560329e-01 -8.371189373533246547e-01 6.655538035703283117e-02 -7.066568199479025814e-02 -9.952772190368579519e-01
-2.763778150394766500e-02 2.153677348615330445e-01 -9.007441212213012083e-01 -4.124443460224702096e-01 3.055688358418613970e-01 8.582058890478125868e-01
-5.629194201798341790e-02 -3.162960626055633800e-02 -8.546037148177267895e-01 2.671524094549480033e-01 2.186436660274811428e-01 -9.385225289935662518e-01
-1.168291556057129109e-02 -8.310332608125793608e-02 -9.089429517283809101e-01 8.791610684819103905e-02 -2.820792200289283791e-01 9.553544220782823615e-01
-7.252636391662543869e-02 -1.222779587371463327e-02 -9.011214893763257461e-01 -1.621993330551235180e-01 -2.110162710531196806e-01 9.639312785190186084e-01
7.908207077072471058e-02 6.627776196576447287e-02 -8.693062533003393932e-01 -5.984113661427835629e-01 -4.580763150556022012e-01 -6.573202617112972046e-01
1.001618279091090295e-02 9.306731904730224103e-02 -8.367763242728840645e-01 -5.331510273123161170e-01 -1.870292546145995993e-01 -8.250878983442485604e-01
5.484651481641240195e-02 7.077588781272514673e-02 -8.568397475560372012e-01 -3.782814641660513511e-01 -3.241287833044261268e-01 -8.670891913188520927e-01
3.124676767930936391e-02 -1.792956859829559213e-01 -9.134036012493492729e-01 1.632669926354747281e-01 7.915860198762436628e-01 -5.888424766032552826e-01
4.096430215398422919e-02 4.255022619158214080e-03 -9.068819829672412069e-01 3.105108634565622583e-01 -1.889838399831191840e-01 9.315943923729332887e-01
1.902862285372849613e-02 -4.415443649943683047e-02 -9.073856334046428440e-01 -1.839524966734718825e-01 -1.628225592893032814e-01 9.693556071711132427e-01
1.228646063783791625e-01 1.460331729906739172e-02 -9.066762723748369446e-01 -9.605507236950775463e-01 -1.297522533738656447e-01 -2.459810154326284581e-01
9.429258275341444173e-02 -8.586543499176799155e-02 -9.055195867842613655e-01 -8.457464518641045759e-01 -7.895545256869770934e-02 -5.277110721492869194e-01
-4.343848019916214664e-02 -3.178282568334101638e-02 -9.056698172281500980e-01 4.800557864965222278e-03 -2.573132624301973648e-01 9.663161178525967454e-01
-3.112402344071661664e-02 1.371639001734752950e-01 -8.533005996799316595e-01 9.682140900400663108e-01 2.497966835542316799e-01 -1.277077653055508702e-02
-1.398941357620715753e-02 3.139447712858420975e-02 -8.420624992767539174e-01 2.368118565032565903e-01 2.604981985495350427e-01 -9.359812141127236140e-01
-1.870690525425387080e-02 2.088733813263041472e-01 -8.931236231869361664e-01 -7.029948001376151723e-01 8.335568358965635138e-02 7.062932400871294591e-01
1.384995406549415636e-02 -2.361730825448497273e-01 -9.971342358529970973e-01 -6.284551364626160819e-01 3.715215345695262184e-02 7.769580805598624851e-01
-7.566688865562542013e-03 6.241895188417106305e-02 -8.985017466470303082e-01 4.239018640293357731e-01 -1.681398801338493676e-01 8.899641511774671887e-01
-5.770072996822331324e-02 2.601067408041491391e-01 -8.852931859302305417e-01 1.140305550976828675e-01 -5.762447591670386560e-01 -8.092830222095580561e-01
-6.236947541739835954e-02 -1.871333384335390482e-01 -9.483623694896100575e-01 8.190239536691356070e-01 5.736665443904359618e-01 -1.031790498664058621e-02
-4.579468703647065347e-02 2.094412072864912100e-01 -8.950763079258146071e-01 4.745338183234951157e-01 5.561665391059154029e-01 6.822729923177911493e-01
2.769187779770214408e-02 -8.705329148191591482e-02 -8.622197119943909582e-01 6.333849914450865315e-01 1.669431349124205211e-01 -7.556146122976454826e-01
1.158099868374931757e-01 2.931613686342441141e-02 -8.942072779879780553e-01 -8.878097011940065952e-01 -2.194079366491812066e-01 -4.045418294826354511e-01
6.129590385894387317e-02 -1.835958290479217103e-01 -9.269419235420941483e-01 -6.576352597217889340e-01 5.462856033385686816e-01 -5.187368357420467646e-01
8.042704514555826245e-03 3.642855916425226381e-02 -8.998982069734450251e-01 -1.203277781593358187e-01 -8.755591887201770451e-03 9.926956056183298127e-01
-7.880997902639395869e-02 6.385824508909954123e-02 -8.772522733079218815e-01 3.120268666133413915e-01 -7.106662921412332246e-01 6.305494871345878050e-01
-6.077754556133714570e-02 2.830362821373793025e-01 -9.090724129146086074e-01 -1.185124655729598853e-01 -8.210754654885999981e-01 -5.583814784504378403e-01
3.881626052039794522e-02 7.239164238556299036e-02 -8.904444214598096208e-01 5.867878233847814012e-02 -4.696205096062583406e-01 8.809162147789265651e-01
1.057681973265126307e-01 4.654497468975391655e-02 -8.872626117220991926e-01 -8.091490846749257448e-01 -4.144576661013887331e-01 -4.165364351164483336e-01
1.016991707792616190e-01 -1.362351025148879624e-01 -9.531968560096409915e-01 -8.764541071822702367e-01 4.768806288506932112e-01 6.643089514899741532e-02
-7.352075553107116634e-02 2.833462142266079953e-01 -9.097884032210150629e-01 2.569799167616121371e-01 -8.013952133729520533e-01 -5.401176116033576946e-01
-7.249737095783111152e-02 2.479077127604541742e-01 -9.150704218498902920e-01 6.834744617728157889e-01 6.787736814546904140e-01 2.685683329598003710e-01
5.718622964343694076e-02 -1.258469903933968903e-01 -9.398558444865344752e-01 6.878488360916086286e-01 -1.429922191477873139e-01 7.116299627971059971e-01
5.095193637421290000e-02 -9.944336888990411294e-02 -8.688235073199050973e-01 -4.672170329467916217e-01 2.069009757410346650e-01 -8.595930609083606289e-01
-1.718051130991256684e-02 -1.597191228836591093e-01 -8.887538242512352804e-01 3.059495919557708166e-01 3.900784717710918947e-01 -8.684662532550283531e-01
-2.978627025132102313e-02 -3.527470592395719889e-02 -9.037275331397637279e-01 -5.245312057113356990e-02 8.388332625373207119e-02 9.950940949070898878e-01
-9.514921192740419253e-02 -5.816805261555298666e-03 -9.050794309718328545e-01 -2.502409770343920203e-01 -6.034408341918484631e-02 9.663012185696400191e-01
2.549993068108943189e-02 -1.076678735568525891e-01 -8.723360867871113866e-01 6.219523636307533465e-01 2.476007333981756764e-01 -7.428789498934564861e-01
1.259430258101599809e-01 3.037559338002476274e-03 -9.252313591976522034e-01 -8.969448593260985758e-01 -3.220356573490048557e-01 3.029570179485527315e-01
-3.835685574283831389e-02 6.271558834612442346e-02 -8.854014644332133255e-01 2.384833074709224177e-01 -3.868004305812682841e-01 8.907924219254871323e-01
-2.501623869180833945e-02 -1.573657891197679515e-01 -8.906090624459794824e-01 3.427522742725609417e-01 3.557761747173597833e-01 -8.694505115211964563e-01
3.919938320656544961e-02 -1.925241002264842516e-01 -9.716606446836469901e-01 3.035765997921066606e-01 -4.731897318077373793e-01 8.270022525787851242e-01
1.162103204862516004e-01 -8.611080364436297929e-02 -9.442042381706197141e-01 -6.617556075645596447e-01 5.985525953290199430e-01 -4.514579786444744558e-01
-1.796596481768316170e-02 2.267140091245831990e-01 -8.843969486238734135e-01 -9.378709052581744032e-01 -3.295512034505983512e-01 1.086009639665992954e-01
-5.896859394846960811e-02 2.378660139023031639e-01 -8.767202204254148645e-01 6.581403976959252500e-01 -1.499807709367073638e-01 -7.378055199508067874e-01
-4.004740926445322924e-02 -9.552749143428602985e-02 -8.701154312105564559e-01 3.668119566723737623e-01 2.416101778850575921e-01 -8.983727012685410740e-01
1.169838142988611496e-01 -6.561311480101515714e-02 -9.247223346231929764e-01 -8.426024632036447359e-01 2.457735093695909423e-01 -4.791831289760795087e-01
3.007890764823405519e-02 -1.357230923570621195e-01 -8.758359450326678175e-01 -1.808165914826967147e-01 3.687433694682765717e-01 -9.117750203409620280e-01
6.746473191902301048e-02 1.934364401330120747e-02 -8.700353284774849927e-01 -3.794768195882804451e-01 3.358621161561170521e-02 -9.245914285696548163e-01
3.945876312977002198e-02 -6.690194345245063789e-02 -8.577519203889258925e-01 -3.227958043807372945e-01 5.471985576778653354e-02 -9.448854989145220040e-01
6.438260691398323132e-02 -2.023909462404854809e-02 -9.211543680341556239e-01 4.001978151963350161e-01 -2.090485584640159600e-01 8.922670053947959756e-01
-6.498666389955741474e-02 -5.106729525999190861e-02 -9.123466214864753843e-01 -4.798177325528802939e-01 2.176032294561093192e-02 8.770983022860752154e-01
-5.524442248446606585e-02 -1.580687564670323619e-01 -9.114768515475135668e-01 7.825816896138729772e-01 -1.566626823775438271e-01 -6.025136538132297437e-01
-9.863628931504413166e-02 -7.698605209348609313e-02 -8.917469765341953236e-01 5.604612565445670214e-01 3.904025777334546587e-01 -7.303896269879242009e-01
1.731576184563868651e-02 -1.268062407366565558e-01 -8.778923251085863910e-01 -7.119304251421784135e-01 2.421524782705169743e-01 -6.591792222334711404e-01
-1.984728050008555469e-02 8.218567379329166922e-02 -8.461296685910051352e-01 5.842566856034205891e-01 -1.230710442413805172e-01 -8.021830485600167648e-01
-9.129295269259607437e-02 -1.362866986865956809e-01 -9.424060052479558136e-01 6.886995504930699674e-01 1.789636942464124247e-01 7.026129270745876676e-01
-6.396869028606877450e-02 -4.976564780184569020e-03 -8.983862298536265945e-01 -1.350596073347719583e-01 -1.967687030447228258e-01 9.711029708371171631e-01
3.650310863590081750e-03 1.974023194448264532e-02 -8.349291490406439697e-01 1.877012622706119571e-01 1.175808463342555704e-01 -9.751630534004757100e-01
8.130665931634648014e-02 -1.321874869133572994e-01 -9.080697358091445182e-01 -6.822834516806510763e-01 3.999016575992688227e-01 -6.120195714289647926e-01
-4.500144251554379950e-03 1.042293203157781539e-01 -8.347430463623736197e-01 -6.654106711488273762e-02 -1.454965987326642674e-01 -9.871185471585665061e-01
4.690821083199900321e-02 -1.218916173592057006e-01 -8.825079349621024472e-01 -4.485297852673432173e-01 4.677117708732212997e-01 -7.616211204494439668e-01
1.419291168087053433e-03 1.041529882983248112e-01 -8.354800968790034865e-01 -2.185258306211928792e-01 -1.659864520458673165e-01 -9.616106067887058018e-01
-1.000534230966976853e-03 7.874192435164699411e-02 -8.932011161446870018e-01 -2.399181906531317465e-01 -4.221849193251794863e-01 8.741848521268940075e-01
-9.539194522514376356e-03 1.780688129388595942e-01 -8.816297410272916357e-01 -5.132099625234998186e-01 1.348147696884757218e-01 8.476087023152081290e-01
2.822600034214212822e-02 -9.287153335788243813e-02 -9.197793556710747165e-01 1.800128026547742621e-01 -2.852246193873426150e-01 9.414044334799569480e-01
5.826439606153462070e-02 6.338320653068342525e-02 -8.559112219438564928e-01 -3.529088552589459971e-01 -1.877312990187514075e-01 -9.166309504094614091e-01
4.571307772271326897e-02 4.718476783027360927e-02 -9.046725940835883550e-01 4.764731925197956963e-02 -6.345766700560024898e-01 7.713897735831966029e-01
-1.826883238937859061e-02 1.777985690081579917e-01 -8.851383828679939558e-01 -2.203955360933889940e-01 2.711652570213096136e-01 9.369606240684156262e-01
-2.259990026125868398e-02 1.790622567981062785e-01 -8.859104695192270285e-01 -4.028090884031879614e-03 3.467901456861812171e-01 9.379340964794845581e-01
-5.702077812259041117e-02 2.894114438953498403e-01 -9.430549371930355695e-01 -5.470173147369931099e-01 -8.063475732122151740e-01 2.248903033763368087e-01
4.313282300322149321e-02 8.400852852813378568e-02 -8.583186875320298892e-01 -3.891202661296452314e-01 -5.281543282066030187e-01 -7.547439460398644995e-01
-6.636850915541542273e-02 7.272499473239982248e-02 -8.726900875781028466e-01 2.918328551932915516e-01 -7.565666674528682689e-01 5.851841268600782575e-01
-3.703769242150644486e-02 -1.852537785704395645e-01 -9.633308505103059804e-01 -3.570117359515883604e-01 -2.562366070788377193e-01 8.982680121130656170e-01
-1.961532862260843835e-02 -4.359537867215639712e-02 -8.556201929453387534e-01 -1.855071820435262586e-01 8.864594059796060410e-01 -4.240009516033590997e-01
-3.367069939510798637e-02 2.557097231734701825e-01 -9.108153723347267583e-01 -9.207345253744223523e-01 -3.018628274250566568e-01 2.472382802126071866e-01
1.127161230471629833e-01 -1.082622296851220856e-01 -9.495930093606210765e-01 -9.759319599344925544e-01 2.130575776290836720e-01 -4.651105452735853490e-02
-4.180193050006194427e-02 -1.171525643942788741e-01 -9.291937136284772469e-01 -2.553433338953506326e-01 -4.608040488795385192e-01 8.499761234125530196e-01
1.030473485331993844e-02 2.930853492023013582e-02 -8.999091717499241305e-01 -1.177272224331583766e-01 -7.613853504962650454e-02 9.901228330761141505e-01
6.617931313642325120e-02 -1.224537098914800920e-01 -8.876340478266575573e-01 -5.637808321827921798e-01 4.419609964774203759e-01 -6.977260571714115622e-01
-4.460340442144292562e-04 1.725241813795144186e-01 -8.583428408752503680e-01 -8.767440965724908608e-01 -3.627712360651935697e-01 -3.157797007551597646e-01
-5.639364448130719520e-02 -2.269134557222180978e-02 -9.024526614936528857e-01 -2.746813351375975917e-02 -3.407002474356075616e-01 9.397706332071599222e-01
-5.004133526627548706e-02 -1.981482102097013309e-01 -9.376269147820626149e-01 6.533177354693339156e-01 6.790173654152439342e-01 -3.348303361192984662e-01
1.070963239657098526e-01 3.560976233541136848e-02 -9.176887013588944653e-01 -2.524401645928013860e-01 -5.833246665652471741e-01 7.720144407178549661e-01
1.754583193335445407e-02 -1.738202828449450232e-01 -9.121183169894628850e-01 -3.308980839997547208e-03 4.406613411274576397e-01 -8.976673287368494014e-01
-4.651497029740036919e-03 -4.432266010912221110e-02 -8.582208416767205250e-01 3.358399368836160193e-01 1.335405800340715154e-01 -9.324046601546844837e-01
1.663139754604784368e-03 -2.286648422977919093e-01 -9.981138475690822798e-01 -1.748103897200536938e-02 -5.174672782791909231e-01 8.555244176449819937e-01
-5.320615189973404435e-02 -1.465882206349450878e-01 -9.418810060328624001e-01 -4.488177940983529290e-01 -2.292370813872138813e-01 8.637204109072336156e-01
-2.117949433144803925e-03 -5.112991695527218522e-02 -9.061953080722315867e-01 3.410720457327042210e-01 -6.591258704972165205e-02 9.377235149489007160e-01
6.674612845212514467e-02 1.044215932187008908e-02 -8.636831255139408858e-01 -4.857039309989829023e-01 -4.007134483850588458e-01 -7.768657694193318308e-01
7.262061152630770733e-02 -5.955108218688285465e-02 -9.278175610592768185e-01 6.321102714886190910e-01 -3.628551406424759124e-02 7.740284013830999177e-01
-7.301832449669094782e-02 -4.099202433300248860e-02 -8.629731300301893837e-01 3.663909480498571125e-01 2.735438692719716069e-01 -8.893432547508557384e-01
-4.847502073069471368e-02 1.984374941062854447e-01 -8.834907867603752907e-01 7.810121879092872810e-01 4.675039688687022688e-01 4.140772891975115777e-01
8.035089536413370787e-03 8.535600710606405794e-02 -8.868736613284270431e-01 -3.095555918673949525e-01 -4.796959628153250055e-01 8.210159065464599504e-01
6.496410562753993090e-02 7.044994531096331059e-02 -8.616091087717071551e-01 -4.462997034035678379e-01 -4.208084666028024667e-01 -7.897700989384730530e-01
4.518566825002164750e-02 -2.123087973621504698e-01 -9.495346010409858595e-01 -9.389807574936736012e-01 1.548558265736433015e-01 -3.071397239576807991e-01
-2.865157048719637473e-02 -1.265021791663167305e-01 -8.791010208511013113e-01 -3.668982177856761617e-01 9.122176785049019854e-01 -1.823310308445105221e-01
9.170787106811717493e-02 6.524783257046999629e-02 -8.959385462952821344e-01 -5.077732489021091755e-01 -8.065054604794682502e-01 3.028452903979149125e-01
-7.564248522717695322e-02 -1.120332123293675403e-01 -8.950068825410160134e-01 5.532533410180634492e-01 2.907260653491295366e-01 -7.806337781437362455e-01
1.035017232452386804e-01 2.742375738939890201e-02 -8.781284524700545546e-01 -6.558222267933866423e-01 1.879082363199727559e-02 -7.546814637918402013e-01
-1.030004243735465307e-02 2.042786577417185501e-01 -8.685604278602148121e-01 -8.879317605988645834e-01 -3.856811600188320144e-01 -2.506536082451809588e-01
9.520699464700213555e-02 -8.485988066086593007e-02 -9.071637756878576653e-01 -8.600835077225081893e-01 -1.389554350483943324e-01 -4.908642855354799495e-01
-5.735258969069026436e-02 2.198332247371490022e-01 -8.932510420234872628e-01 7.405087945972522734e-01 5.653006925599094457e-01 3.634306703009681505e-01
7.042798505623619476e-02 -1.726228381941268819e-01 -9.674727927367406943e-01 1.541253231896418108e-01 -2.559833238237844144e-01 9.543154209567276114e-01
5.488383519983722897e-02 -1.534264494631544795e-01 -9.478727848190278138e-01 5.283843000713407401e-01 -3.939778227800749821e-01 7.520581803262240683e-01
-6.932093633093570906e-02 2.869743916153884022e-01 -9.515115175579216267e-01 2.187955142084828941e-01 -6.767480001161774172e-01 7.029513975382650770e-01
7.315690249732309525e-02 -1.745791946079112145e-01 -9.672651113197036077e-01 -2.859155348157840226e-01 7.777236493118530603e-02 9.550935902852740744e-01
-2.804585561220920495e-02 2.452563913402395213e-01 -9.025379842999093905e-01 -9.094633990206981711e-01 -2.225407294665455449e-01 3.512149620534640859e-01
-5.804739258685660125e-02 -1.496555867095167303e-01 -9.450010823927418313e-01 -4.034370255802238181e-01 -1.694994876823767704e-01 8.991710015711102955e-01
-6.246712433658614672e-02 -1.159092711379385021e-02 -8.530623988830099425e-01 2.834217750819816306e-01 7.455241332800290055e-02 -9.560931100454335141e-01
-3.563376297576291429e-02 1.736503320119517635e-01 -8.486998787644577380e-01 6.990810429584524144e-01 4.585960609237978679e-03 -7.150277367636955761e-01
3.035335338316945061e-02 -1.977206697669092184e-01 -9.214692451072585833e-01 -7.452960949384990208e-01 3.863594297183192694e-01 -5.433784334486960743e-01
7.585433566551640083e-02 -1.499619608523233838e-01 -9.256037469694193831e-01 -7.267830747635745103e-01 4.341243202178414196e-01 -5.322804118437963750e-01
-8.066369160800110349e-02 -2.391428948956335343e-02 -8.621186673641636489e-01 4.128975076416031009e-01 1.859307022109848440e-01 -8.915971187474096560e-01
-6.302432974079628936e-02 2.615422318895087028e-01 -9.436418978681604397e-01 6.034611655017423082e-02 7.366289469895660469e-01 6.735993918304525874e-01
-1.307657417172992109e-01 -3.336323333171147681e-02 -9.074965337479533600e-01 8.790270100302221001e-01 7.776815891223498936e-03 4.767085448908188750e-01
5.369629695155439530e-02 -2.005592495234316264e-01 -9.721816553701009278e-01 -6.351938931791804022e-01 6.511897694431610928e-01 4.153078403310473399e-01
9.391792747467597735e-02 3.668038883561213631e-02 -8.713744364460805913e-01 -5.811868076662367599e-01 -8.153991984966348083e-02 -8.096747100321457502e-01
-1.202164161726548136e-01 -5.799435423606875625e-03 -8.793397004412958351e-01 7.337375745923163661e-01 1.458459699823957956e-01 -6.635948497926119627e-01
1.253440702168170592e-02 8.682983607385488800e-02 -8.375169854422843674e-01 -6.727732261157191029e-01 -1.554736910501168246e-01 -7.233284991019642840e-01
1.007562882355601680e-01 -4.994484555470699721e-02 -8.950530574022111940e-01 -7.031096797957357980e-01 2.430113399609551694e-01 -6.682681099887370912e-01
1.422283625311671768e-02 3.247035462033519976e-02 -8.358787543253476393e-01 -4.809917166853191484e-01 3.381585629479826050e-02 -8.760727460337750516e-01
8.717927329308801376e-02 -1.576489117539640050e-01 -9.551423426866421096e-01 -5.833569138321800240e-01 7.893857386592982861e-01 -1.912194202624524775e-01
-4.223366568299088269e-02 -1.493938489186237006e-01 -9.375136243632343769e-01 -3.676161992248038746e-01 -3.298381863558912941e-01 8.695200405332620397e-01
-9.542305405118846296e-04 -2.318294029841074244e-01 -9.645116798009052417e-01 -8.941488075588872597e-01 3.456530719878407876e-01 -2.846433975457510757e-01
6.693980513822997414e-02 -1.922437563588636489e-01 -9.550204959944736949e-01 -7.971507863535307603e-01 6.004469632646998178e-01 -6.335667385641072236e-02
7.473697445756888325e-02 2.167075573153248377e-02 -8.711512495770243891e-01 -8.998087834769663562e-02 6.649613256860535948e-01 -7.414377093685099451e-01
-1.853835685322261298e-02 2.265465054827721925e-01 -8.889420961969268786e-01 -9.340617188990756325e-01 -2.781025387405253180e-01 2.240260771280405405e-01
-3.031045577801760177e-02 5.778193681893254580e-03 -8.457637706162229874e-01 2.680644858178609091e-01 -1.739806437459238131e-01 -9.475611679701525514e-01
-6.682775161871572223e-02 -1.448302307935788943e-02 -8.548825675829793136e-01 3.658046036641903198e-01 6.459674959388156390e-02 -9.284472262223578687e-01
-9.446589036175685739e-02 5.361367571968732315e-02 -8.706857341391381899e-01 7.663489635469564742e-01 -5.965180558885202489e-01 -2.384857963684334503e-01
9.799982898606701687e-02 -1.209025568914784826e-01 -9.231433915481211949e-01 -7.873834012407554539e-01 3.540103490284124965e-01 -5.046821298910050269e-01
-1.828544396982942702e-02 -1.110438945180844406e-01 -8.677446979748294487e-01 2.189609110895854305e-01 2.937883612084578600e-01 -9.304539312793874695e-01
4.408525757759458596e-02 -6.068866378466499650e-02 -9.128900090847609228e-01 2.642241005641502438e-01 -1.511043716262912839e-01 9.525508351560506570e-01
1.097317506734932502e-01 -4.395276623497723634e-02 -9.035754788782969227e-01 -7.752506744623113288e-01 2.207302518845599693e-01 -5.918315196478722839e-01
-1.565807132099594073e-02 1.712543582155932054e-01 -8.826869074733367793e-01 -2.110217669933915074e-01 2.437697020459805852e-01 9.465971404031394698e-01
3.930888731889272542e-02 -1.525925543216478109e-01 -9.389250769963064513e-01 2.718902249438983065e-01 -5.052122370520750749e-01 8.190459700851925318e-01
5.238089523638252837e-02 8.251559722206966430e-02 -8.843596636609464268e-01 -3.117668234255439180e-02 -7.319634701652224518e-01 6.806302173881181306e-01
4.031497474196858027e-02 2.143277939822792535e-02 -8.563191858022590752e-01 -4.671333501828021650e-01 -4.748380702327422154e-01 -7.458654303590136481e-01
-2.016017409333663302e-02 -2.295755322813987365e-02 -9.036806136283872526e-01 2.476509520634122968e-02 -2.603832539160313431e-01 9.651876766409319686e-01
-8.084888543030839189e-03 -1.750872982764033192e-01 -8.941167058449680516e-01 1.994029975526265264e-01 5.340890091508002646e-01 -8.215761528132031755e-01
-6.644842567230491159e-02 6.288939364441825663e-02 -8.806056942290699796e-01 1.271944345846205138e-01 -4.965370182466746773e-01 8.586457740659999560e-01
9.603238087384807775e-02 -1.258780543142248298e-01 -9.237256124199747509e-01 -7.579319460437814460e-01 3.859784231035509605e-01 -5.258895531048152217e-01
1.775981014804154517e-02 -2.482733134148579907e-02 -8.403453066155284201e-01 -5.091902184975249934e-01 1.364122982623516278e-01 -8.497746797058771673e-01
-2.894901303192331035e-02 5.427055099547168499e-02 -8.418478218618142828e-01 4.166862356162508857e-02 -9.158867387499151913e-02 -9.949247411881465553e-01
-6.067637049296068646e-02 -6.078030757310136367e-02 -8.687332511014554948e-01 -2.187052060127463171e-01 8.883690104825986422e-01 -4.036936141148273482e-01
-3.997411844619871979e-02 2.321202252895429585e-01 -9.132603085181454361e-01 -1.691617054493160244e-01 5.605673043622390050e-01 8.106470345899822183e-01
1.862679928073693965e-03 9.008076241461887568e-02 -8.331626392157929217e-01 -1.348057445124035414e-01 -1.584650078739811285e-01 -9.781187313030845765e-01
7.096731641906699195e-02 -6.530594302970275933e-02 -9.269300610942079466e-01 6.195920956463530915e-01 -1.306559679013120645e-01 7.739732896323565647e-01
-4.632636823361720169e-02 -1.423486392213460794e-01 -9.003911004924600725e-01 1.574417618797704643e-01 6.299631524980352504e-01 -7.604988613475570647e-01
5.566568848308196295e-03 1.380622429725984757e-01 -8.444978116677723801e-01 -7.349043324349259221e-01 -2.707201460020701722e-01 -6.217927506146992966e-01
-1.615513411447360185e-03 -2.264378724112152963e-01 -9.450879735533277426e-01 -6.200275619309820740e-01 6.692947239383768565e-01 -4.094024852808958448e-01
-7.827075640675637547e-02 -1.185056567736027106e-01 -9.376252388603454335e-01 -2.245687346409808716e-01 -4.373859589162837902e-01 8.707826401373833791e-01
-3.845064051474662847e-02 3.641193703918474325e-03 -8.941686807010901239e-01 -1.146489881451808780e-02 -1.525119598310108737e-01 9.882351229356690636e-01
-3.059288480073777544e-02 -1.396483681998425541e-01 -9.290041585162228666e-01 -3.427394133661483822e-01 -3.462394963954404381e-01 8.732971462573667631e-01
-1.154298008931894659e-01 -9.111088010708673357e-02 -9.289572377464324626e-01 9.023369151652771425e-01 2.347929525634555314e-01 3.614697234299797945e-01
-4.286617418898305831e-02 -1.513658589537713040e-01 -9.385054720049402777e-01 -3.740202326662804833e-01 -3.179465630333856985e-01 8.712168780570764826e-01
3.471746315985772824e-02 -2.040945057068094814e-01 -9.288324485496034510e-01 -4.936265878016816711e-01 1.943894143407253750e-01 -8.476706597538565813e-01
-7.405238852917206405e-02 -4.396507538424940242e-02 -9.128813954407138942e-01 -2.351920888703383228e-01 -4.024028381326517634e-01 8.847353486752937979e-01
1.026229618174076680e-01 -1.117758229405031722e-02 -9.345719607176489196e-01 2.158956135959703426e-01 -1.598775738729379947e-01 9.632384156596551783e-01
3.710934648031807143e-02 5.762290066206748190e-03 -8.483523810762434447e-01 -3.088739641745116282e-01 -2.032877329453017592e-02 -9.508857004032935656e-01
6.221429016739526974e-02 2.693312486459123120e-02 -9.129411962037361494e-01 4.473468116679416018e-01 3.240652127145545597e-02 8.937732640158855268e-01
7.129817649746644781e-02 -1.612420811419753852e-01 -9.182231480702054416e-01 -7.446498747004580698e-01 3.849278860053523821e-01 -5.452770733159818528e-01
-3.653603601463262240e-02 2.152160237063411863e-01 -8.580357002297976932e-01 4.826827997494296391e-02 -4.066258717189861205e-01 -9.123187894574107393e-01
-5.813601974679055012e-02 -1.858603329671975335e-01 -9.329987866074042069e-01 6.954746464092963487e-01 5.719577234466288740e-01 -4.349475586684143913e-01
-5.729457204275731352e-02 -8.356425760063777852e-02 -8.758615696940047490e-01 5.073614233738157342e-01 8.675668535966436778e-02 -8.573550394192011037e-01
-2.561642976157180174e-02 -1.169106833417402486e-01 -8.718393668739107261e-01 2.555213839255360830e-01 3.658106780451697015e-01 -8.949253433582670114e-01
-1.417860266819469250e-02 -6.283458437303343636e-02 -8.575497108018074188e-01 2.688784481081059052e-01 -6.759521599804585446e-01 -6.861436129271548667e-01
-4.125284625992747811e-02 -1.662107879380648467e-01 -9.033860366907632278e-01 4.520562416820587126e-01 4.674934693622587178e-01 -7.596676973913866204e-01
2.053790461634832226e-02 -6.792269337121935313e-02 -9.122548347050642992e-01 -2.098237760165872767e-01 -1.831133506925985144e-01 9.604392140142292700e-01
-5.992083881081364249e-02 2.275091868017554420e-01 -8.782453343298494142e-01 9.057768867101215760e-01 1.798087622119549367e-01 -3.837147906108446804e-01
6.293334917838731835e-02 8.319907775072088452e-02 -8.801769168968990309e-01 -3.474513145239458978e-01 -9.292090121185042628e-01 1.258896176550529655e-01
7.579151401535594301e-02 -5.606427707658698939e-02 -8.889625891274891556e-01 -5.052394091113789898e-01 4.391148909338026818e-01 -7.429072970707578660e-01
6.568358275179542183e-02 7.698784677544241728e-02 -8.898840313833006332e-01 -1.207011212379231410e-02 -7.248822958475904521e-01 6.887669922114776355e-01
-5.017952330083787216e-02 4.200609786907016224e-02 -8.929469631100193094e-01 2.250128065633740793e-01 -6.127922732044042142e-01 7.575320896064089427e-01
-3.627167383740772817e-03 -2.389050294841027766e-01 -9.659265810306527644e-01 -5.992387260978839780e-01 7.047409434195095468e-01 -3.798067295517090214e-01
2.854241015178398538e-02 9.766370307065648515e-02 -8.715254267123767606e-01 -3.570778671940278426e-01 -8.067644302126381062e-01 4.707722919882195156e-01
6.649190973220442391e-02 -1.305118037809612497e-01 -9.510899533823874430e-01 7.530456133454759282e-01 -1.316960943036233067e-01 6.446537388135642477e-01
2.044316357377417431e-02 -5.321188576915672486e-02 -9.089957165504117809e-01 -1.885924213143868600e-01 -2.548215043769130328e-01 9.484191581415170047e-01
-2.841558995981822988e-02 2.458630104335879918e-01 -8.858082623478444884e-01 -7.528343358367097782e-01 -5.769978376060294067e-01 -3.167237884707526097e-01
-4.615592378076804198e-02 -1.707210012863441262e-01 -9.094153414376916489e-01 4.728927330917983007e-01 5.078036577047446709e-01 -7.200749323581899786e-01
8.386167851762120484e-02 -2.428272651627725112e-02 -9.320148908138499166e-01 4.203828673688938533e-01 -2.781503465432868527e-01 8.636611775115033973e-01
5.535082395904072916e-02 -1.031976921142478826e-01 -9.293609298653608963e-01 1.093031411261760344e-01 -6.638543690079471427e-01 7.398311970233558688e-01
1.861092923102989488e-02 -2.164470964962123822e-01 -9.336662108812898708e-01 1.224329563222707334e-01 6.778365341194371174e-01 -7.249467595755828553e-01
1.116157880050822927e-02 -5.958488630406995334e-02 -9.129051176559030978e-01 -2.283871167714330297e-01 -1.598790191608276956e-01 9.603530726378728399e-01
8.248860353369548426e-02 -7.894785289998301758e-02 -8.900460689841760420e-01 -7.615293012385592197e-01 -3.884251597599366890e-02 -6.469655186389505763e-01
-5.305680944081654637e-02 -2.700634446722961421e-02 -8.527611190907379290e-01 2.379307454866612936e-01 2.054261408188358118e-01 -9.493097813782609418e-01
-3.577455100519939118e-02 2.559655633474582914e-01 -9.163817086375137810e-01 -9.170943607789773244e-01 -1.841013382202063009e-01 3.536165022915760958e-01
8.090953466589580201e-02 -7.429524286521958787e-02 -9.373115085293364235e-01 6.796509856074200995e-01 -1.607584885562780841e-01 7.157033226973057438e-01
6.735722915058241222e-02 -1.741107943416144235e-02 -8.624135569110020771e-01 -4.526675042203340826e-01 6.979296251128809525e-02 -8.889437963149480204e-01
8.638761720145882173e-02 1.360868783084078631e-02 -9.258712960004821246e-01 4.584742779517889111e-01 -4.397668322673948388e-02 8.876189428966468897e-01
6.433561978420528071e-02 -9.134510103589739416e-03 -9.186672975655590934e-01 3.912768960227409054e-01 -1.679206791516243968e-01 9.048232071250530417e-01
3.860550315977092500e-02 -1.564019784151355064e-01 -8.879286490530235998e-01 -3.420771150993318632e-01 4.316024824040091135e-01 -8.346870937710823002e-01
-6.226177717545387791e-02 7.717402022566750841e-02 -8.670963468432970611e-01 4.556790546464554725e-01 -8.870913042659881453e-01 7.365878801732053671e-02
-2.807928896733548341e-02 1.492319086096577374e-01 -8.708658489251874801e-01 6.500221481905189558e-01 2.886803856313215899e-01 7.029472539341301562e-01
-1.036982127042999358e-01 -2.206484140298434898e-02 -9.090490105544342114e-01 -8.403191390295373930e-02 -2.270147835635819289e-01 9.702592053103060721e-01
-9.810788278403913612e-03 2.768324167346399717e-02 -8.411024352910916324e-01 5.633470785607148645e-01 2.514052283348224837e-01 -7.870422353616248756e-01
3.305531953900098241e-02 -1.339508698088485439e-01 -8.761598922624987962e-01 -2.990684735696506613e-01 3.259403975820960309e-01 -8.968393977411699414e-01
1.097546273831060820e-01 -3.578748035126482624e-02 -9.005906326606157863e-01 -7.702650982437487803e-01 2.188562383203387363e-01 -5.989938441885852560e-01
-1.052010969433525289e-01 3.030347401963895057e-02 -8.667368325678025398e-01 7.511316021507219443e-01 -2.711609131147921237e-01 -6.018912488558391116e-01
-5.638178959162738584e-03 1.285650388078839468e-01 -8.368616705706120040e-01 -1.693165303634327767e-01 -8.969507244742816465e-02 -9.814717043931215912e-01
6.832484816264980387e-02 -1.903273886070142307e-01 -9.542851502414405607e-01 -7.971507863535307603e-01 6.004469632646998178e-01 -6.335667385641072236e-02
8.430447911084429369e-02 -6.239145257044297066e-03 -9.274333056395159813e-01 4.015431699554397604e-01 -1.964181400066917493e-01 8.945294835490043006e-01
1.107315274409900324e-01 3.614970786113474305e-02 -9.161207217836319083e-01 -3.463300379322810096e-01 -5.754453379368661414e-01 7.408901186225599345e-01
8.336651280568746492e-02 -1.311355219666709149e-01 -9.098843393773390353e-01 -7.231061871274698793e-01 3.949148302139836586e-01 -5.667095543706959226e-01
9.503664767629171894e-02 -1.339332249908900541e-01 -9.284314367064040452e-01 -7.634151886647032592e-01 4.111974061770582445e-01 -4.981103721759815861e-01
3.766527049096214663e-02 -2.080254937086050693e-01 -9.775974075071920399e-01 -5.772054251272976111e-02 -3.015100623568820470e-01 9.517142540014755792e-01
-1.136731270009407324e-01 -9.449678644698498997e-02 -9.311875458780595194e-01 9.172165824322440209e-01 2.783993114947730385e-01 2.849694093592344268e-01
5.765284581086754789e-02 -1.994307811863232915e-01 -9.468907268215348561e-01 -3.943176894308109137e-01 9.003918529079001365e-01 -1.838697120763086168e-01
-1.098830714191193891e-03 -2.528673768085444862e-01 -1.006740141528881249e+00 -3.443431572359476056e-01 7.304979429568134730e-01 5.897461703145208123e-01
-5.442826050346624700e-02 2.881032890024169957e-01 -9.241000640501187968e-01 -4.748940654320470411e-01 -8.506956474078182229e-01 -2.253720082415195114e-01
1.073310906025082695e-01 -3.977440226368999382e-02 -8.989308442106677122e-01 -7.702650982437487803e-01 2.188562383203387363e-01 -5.989938441885852560e-01
-3.921308997060692081e-02 -1.585545833972868135e-01 -9.405312533963579025e-01 -2.737073344852273826e-01 -4.415227642026015031e-01 8.544834367849887258e-01
-7.853304533284470590e-02 -1.578229135994634325e-01 -9.485600910263208840e-01 7.193196823105614257e-01 5.005252632929094725e-01 4.817194779601468579e-01
-7.745081876614004490e-02 3.059218092225894983e-02 -8.495706247915923992e-01 3.226797171491910809e-01 -3.437485969194627872e-03 -9.465019724389008848e-01
-3.879044931884383096e-02 -1.881102464320286993e-01 -9.645133542034901586e-01 -3.543145250454468043e-01 -1.518808855750852504e-01 9.227098210915214427e-01
9.980948686112153800e-02 5.818840466197154615e-02 -8.909019959066312166e-01 -7.510635617171123046e-01 -6.265507063043458391e-01 -2.081771810029392766e-01
-4.049732242176707839e-03 5.631732438789372602e-02 -8.332101088198573535e-01 3.979923265861111115e-01 6.358752302470606355e-02 -9.151823506242658945e-01
-7.278664096497776403e-02 -3.233943378569334448e-02 -8.605545695051454169e-01 3.757645428743764948e-01 2.172872401577384815e-01 -9.008813815275817927e-01
1.241347379720640770e-01 -3.684407105827735424e-02 -9.231274383529268768e-01 -9.073682063287148436e-01 2.087314095314637685e-01 -3.648481010212589748e-01
4.520217366320665453e-02 -1.241910388430105261e-01 -9.299271611271930915e-01 4.946690921725425683e-01 -1.988784098552636437e-01 8.460200159231661132e-01
9.576182204400324714e-04 -2.506443858287474846e-01 -9.954103335056386781e-01 7.994198797419499458e-02 8.656730614298472348e-01 -4.941856222851990776e-01
-6.599359036585361604e-02 4.890294995763316138e-02 -8.873922798349906937e-01 7.230901398908580469e-02 -4.153152601157393264e-01 9.067991184440588048e-01
-2.441927677178282879e-02 -8.632253979098890306e-02 -9.097620946935127684e-01 -5.158776570891033392e-02 -2.752755830793228164e-01 9.599802371869440298e-01
-5.523820572370573279e-02 2.787985140623417957e-01 -9.504130297962378737e-01 -8.018787614109234019e-01 -6.010379333046219491e-02 5.944560421304275755e-01
-6.543533901264655950e-02 -1.195831822710188702e-01 -8.908977667506855491e-01 5.172811763663285323e-01 3.112538815140564741e-01 -7.972083829335344651e-01
2.660992355833352585e-02 4.724063347805804169e-02 -8.456204367679134304e-01 -3.352761607170072211e-01 -6.347210451888388172e-02 -9.399793550939337106e-01
-3.245273796432362329e-02 -1.301115799468868517e-01 -8.870760907549279928e-01 -2.699516919518878399e-01 8.839532442320454653e-01 -3.817757797765005678e-01
-2.581350292425872196e-03 2.353269457240690296e-02 -8.369904273119779248e-01 4.860761804265535946e-01 1.593199676642922946e-01 -8.592712579420899166e-01
-5.994180471636047225e-02 2.468860479895894355e-01 -9.265323654173396317e-01 3.219728322038343804e-01 7.666853721843986946e-01 5.554521000060325120e-01
-4.238530188877292354e-02 -1.133650455578980587e-01 -8.764704065231286867e-01 3.761519951930903383e-01 2.817353919075433755e-01 -8.826861534310824764e-01
4.018249930871783948e-02 2.195801296908901981e-02 -9.040439478769344284e-01 3.273577160549990261e-01 -6.524551043570242514e-02 9.426451872827016354e-01
5.965858195839743305e-02 8.306216829446733119e-02 -8.694327866658844162e-01 -4.642200785949373576e-01 -7.643440018402246627e-01 -4.475242624486194254e-01
-1.038634321743748395e-01 -4.620334831101550327e-02 -9.181077748254723447e-01 4.842078555083632885e-02 -4.247890806622665050e-01 9.039964958321168309e-01
1.530159064906722695e-03 -1.182055490263326791e-01 -8.734646869430147120e-01 8.037549201799658316e-02 5.043121840871701567e-01 -8.597726451010715421e-01
8.133229630285536416e-02 -4.611639260987895200e-02 -8.768076232964041594e-01 -5.140708613370806868e-01 3.374634493042247274e-01 -7.885743908521547496e-01
-8.808473915074876981e-02 -1.004587295770445476e-01 -8.999447023688542657e-01 5.743953973273348002e-01 2.305150947161460628e-01 -7.854506468500613847e-01
-7.653834815890195320e-02 -1.597720639810213672e-01 -9.354050747181105185e-01 3.748834190873178707e-01 8.807504427598608077e-01 -2.893805101794371670e-01
6.406781364670710577e-02 5.526827074781057864e-02 -8.568301448274885379e-01 -3.948523523516463407e-01 -1.404665624188802531e-01 -9.079431505797013191e-01
2.139166949378899438e-02 -1.055693577436474795e-01 -8.744751037823514928e-01 3.464868517725938624e-01 3.226394062407828001e-01 -8.808238615576395869e-01
6.840123884856044723e-02 -3.997534176080097534e-02 -9.272641335058923184e-01 5.436706871575065492e-01 -1.950294755313547804e-02 8.390719986761709936e-01
1.210824255739945676e-01 2.302836794839838164e-02 -9.062195552881588956e-01 -9.537803496184300567e-01 -2.373965813194587882e-01 -1.842441528504467074e-01
4.243107949910282679e-03 -1.487597637956595241e-02 -8.411616977060606404e-01 6.474908448818502693e-01 2.417706939201231531e-01 -7.227050140656076094e-01
-4.807505634679243994e-02 -6.836359445329827367e-02 -8.727216220219566889e-01 4.968667535905376687e-01 -4.074532575540154022e-01 -7.662279504723257251e-01
-9.189540171052884912e-03 1.936426532763741715e-01 -8.814730152954237674e-01 -8.528127592895686782e-01 -9.577362549143855763e-02 5.133593383324570603e-01
-5.496003747333722683e-02 -1.134646724777792631e-01 -8.823445034169570267e-01 4.606897458869889106e-01 2.843599313969650266e-01 -8.407760626055518216e-01
-9.880404386162756902e-03 -1.529999649245761262e-01 -9.345767835956758640e-01 3.657656882435868506e-01 -7.047695172623817950e-01 6.078777745907842922e-01
-4.013983892335292597e-02 -1.445709303429587034e-01 -8.987368716691287451e-01 6.464479153270189515e-01 -1.209895630765681906e-01 -7.533038021913154303e-01
7.537183365890007258e-02 -1.784440865554879074e-01 -9.620512937264860120e-01 -8.402223904851205960e-01 4.649644040719526639e-01 2.789882389519020567e-01
