2.425872308379244807e-02 -1.076395679224490115e-01 -9.631177889001608650e-01 3.548657061107666766e-01 6.534374654258133797e-01 -6.686477468775290367e-01
-5.457163627170073111e-02 -1.054729008349111902e-01 -1.011764206550237022e+00 4.888557094624925714e-01 -3.386054312562440383e-01 8.039691892415382624e-01
-3.642865673131374937e-02 4.745814653070533351e-02 -8.809714645828604640e-01 -9.079655770842146034e-02 8.666354076593831002e-02 9.920914352065598463e-01
-1.631617283243281744e-02 1.085567053042926361e-01 -7.515696101725970468e-01 9.789164583882619119e-01 1.516320614457101201e-01 -1.368586330426639075e-01
-1.484013044342185825e-02 -2.302927216383887643e-02 -8.816935184978518247e-01 3.100649074038471786e-01 6.659523200778848517e-01 -6.785036923845929602e-01
1.946550413580074934e-03 -3.308929433891171640e-02 -8.933480310213340880e-01 -1.662025839706080532e-01 8.259439938887090937e-01 -5.386958511448377562e-01
7.681834354294468648e-02 -4.428351609355191121e-02 -8.733246009782127395e-01 4.237687207966131520e-01 5.407013220000671527e-01 -7.266788504296668449e-01
-6.153024208855070037e-02 -1.488588429065771379e-01 -1.014694007851036694e+00 6.915331980035510639e-01 1.024628859189910118e-01 7.150406932952371175e-01
7.094791691926305433e-02 -1.590943097941662776e-01 -9.819387412699013273e-01 -9.042218250623306197e-01 2.571660992620274921e-01 3.409523258042115312e-01
-2.392020096875228929e-02 -1.364112222886088299e-01 -1.021610505501638011e+00 5.241374535188582373e-02 -1.788104655360936990e-01 9.824864460708622182e-01
-6.423998249647200343e-02 -2.441935810983256183e-02 -9.432000333054978425e-01 5.331710863240218812e-01 -6.688649326493589786e-01 5.180234498360386519e-01
5.940477523690238654e-02 -5.055893311613349379e-03 -9.188571940362297852e-01 -4.307207609768818335e-01 -5.802830512731576018e-01 6.911954907756632238e-01
-1.900910472791867908e-02 1.992443013530151644e-02 -9.250526104237564162e-01 -4.472338318575185268e-01 -6.207813990463557641e-01 6.439039945831135370e-01
-9.527881157636882911e-03 6.437492675467404446e-02 -7.951681869160227567e-01 5.135772753748677477e-01 5.297373649731699219e-01 -6.749938565422726189e-01
-1.004113493739526713e-01 3.303926104291060595e-02 -8.888174263035114597e-01 4.337209694635094093e-01 -6.799328320632415101e-01 5.912507628156548067e-01
-5.617328517705013485e-02 -3.712921529547700411e-02 -9.727912137075231946e-01 3.968444645260051917e-01 -5.849483922759158849e-01 7.073541187756593462e-01
2.382527724282378773e-02 1.406743361406529724e-01 -6.769917852099097688e-01 -4.212763612050006712e-01 -9.060278881765660985e-01 4.049312702404724712e-02
-5.091891940522134952e-02 -1.361194350602925283e-02 -9.414767897519514817e-01 3.535353109832322094e-01 -6.628455512092114033e-01 6.600367861946379033e-01
-1.148183652217460299e-01 -9.820023265488324674e-03 -9.075824137567024552e-01 7.937440656168637254e-01 -5.890425100356221355e-01 1.516551340012797788e-01
-3.768374101797762610e-02 -1.600168426782991038e-01 -1.024373203194031356e+00 3.868195015004660120e-01 -1.238337230557809143e-01 9.138029778311488327e-01
1.007255553360885264e-01 9.427000030445545006e-03 -8.678154542080989131e-01 -6.339526434005778865e-01 -5.225395262406081764e-01 5.701372549146921376e-01
-4.754330037319996760e-02 -3.531951423223718411e-03 -8.687359608927127663e-01 -9.222248285144463154e-02 7.332193144047548516e-01 -6.737094704993661365e-01
-3.968872136974222614e-02 5.216690893809761143e-02 -8.811685643615816410e-01 -1.480999772993504271e-01 -2.088188956821086517e-01 9.666752637416748950e-01
-8.577092632574014053e-02 5.549970028118056398e-02 -8.633416824461850325e-01 4.135697513577339390e-01 -8.491917354069201673e-01 3.283800500616406715e-01
-1.170818153005293849e-01 -9.530714271776850183e-03 -8.989474757086368673e-01 4.537837140723004481e-01 -4.123255375946529022e-01 7.899797414427973674e-01
-1.104689805951079851e-02 3.028048041481015348e-02 -8.182783744495726319e-01 5.056622273155850777e-01 5.241731509793948751e-01 -6.852358861432860104e-01
-1.147953654537584370e-02 6.368696845262467043e-02 -8.758569307803800719e-01 4.990363732651742490e-01 -6.792965050551967865e-01 5.380696575520097502e-01
-2.219347135723513664e-02 -1.092768283114749217e-01 -1.025712406398959109e+00 1.146189252387834479e-01 -2.349512065097491553e-01 9.652255863458654161e-01
-5.143340002376878273e-02 -1.126985305237504509e-02 -8.760235386229223709e-01 -8.617968107499905661e-02 6.954680837269124893e-01 -7.133703155353661174e-01
1.404489050139478418e-02 1.024481166041556063e-01 -7.104847133684946137e-01 -2.660682053374930356e-01 9.594542196142309409e-01 -9.303392162503423823e-02
6.788000546942131452e-02 6.400146484784527412e-03 -9.010202719804334404e-01 -5.040007403759829696e-01 -6.419804594069393744e-01 5.777926474438005444e-01
6.576913087068679553e-02 2.304805931958492718e-02 -8.714821092445131923e-01 -1.684491088647604717e-01 -3.853182249120331027e-01 9.072787682257907882e-01
1.105499656790999985e-01 1.681191691891739063e-03 -8.608071484101108561e-01 -7.966649080392345095e-01 -4.746230418151846098e-01 3.742432263607982090e-01
-3.498471523493412033e-02 -5.572559911876567851e-02 -9.929529998598463081e-01 -3.677005456750587209e-01 2.717790270675709552e-01 8.893438419174378717e-01
9.909853135840403227e-02 -1.168766651962961922e-01 -9.165602353885079490e-01 1.544034647654767556e-01 8.500292704149131628e-01 -5.035968720179927471e-01
2.170464638412166261e-02 1.392885022742555434e-01 -6.447177478707704079e-01 4.452832857688886203e-02 -9.857678905723950002e-01 -1.621076613568873670e-01
-4.024408726048650173e-03 1.159695711083199993e-01 -6.601907486600652186e-01 9.753560171693183012e-01 1.760344509945724611e-01 -1.330132017306700776e-01
3.032429828712112502e-02 1.370405128812714757e-01 -6.694121489917519430e-01 -6.762135460628787564e-01 -7.307525563992527395e-01 9.346625828085836085e-02
1.672779185460932655e-02 4.683890428707841030e-02 -8.825855976333344399e-01 -7.705923079801149100e-01 -4.237573131244741775e-01 4.760433115331064169e-01
1.028040276589911872e-01 -9.901508117727472746e-02 -8.959733386469532768e-01 -1.403485029286698216e-01 5.896259657304319113e-01 -7.953889100698705583e-01
-8.024682646661443486e-02 -1.029429361689076193e-02 -8.683732085968574044e-01 -1.930845190893785424e-01 7.144949063173903214e-01 -6.724696255850721727e-01
-1.406720428649229672e-02 -1.818122965929203916e-01 -9.989490635050671807e-01 4.231759367417889939e-01 3.026660966867643632e-01 -8.539996255731659991e-01
-1.462587116831298197e-02 -3.893681196812932670e-03 -8.629397024795185667e-01 3.609927230265191911e-01 6.942477240431954577e-01 -6.226590974062309325e-01
-3.954067793812736376e-02 -1.655828358671156686e-01 -9.940091919901415940e-01 -2.054537508258908740e-01 4.370623128063516050e-01 -8.756513524205485899e-01
7.730670063772647482e-02 -8.325408561340080782e-02 -9.010946077212991234e-01 6.798758535918580925e-01 5.249574390753226627e-01 -5.120434657938924827e-01
-1.189033474085792186e-01 -9.033321407524488866e-02 -9.424733683391119943e-01 9.046329525669046800e-01 2.170502435471197145e-01 3.667811512417458175e-01
1.604643819230953602e-02 -2.213709223979311858e-01 -1.008462040486190592e+00 -2.712934833245246868e-01 4.794072047870389097e-01 -8.346068403169987215e-01
-7.155780643114957595e-02 -1.327729124091431567e-01 -1.006482331153706333e+00 7.606339573817266775e-01 1.745352890632843185e-02 6.489463438578952914e-01
-9.624727550846623458e-02 -5.185829818978893863e-02 -9.019669481106563635e-01 -6.020452080089017111e-02 5.943807052189294948e-01 -8.019270496364263590e-01
2.145354058420464310e-02 3.204616975130290812e-02 -9.023307339702143492e-01 -1.715042817215488569e-01 -8.140829543133738522e-01 5.548470283308590822e-01
5.235855319328133750e-02 -1.712091779148109394e-01 -9.790919519498115786e-01 4.154314286766502134e-02 2.727085238011366375e-01 -9.611993697079089793e-01
3.073129981471229774e-02 4.459056179402276499e-02 -8.730682625291659171e-01 -2.204231051824933896e-01 -6.013358119748772428e-03 9.753858181385616222e-01
-4.272870762791144278e-02 6.291902991095944288e-03 -8.576310471241239686e-01 -6.719169174474748374e-02 8.203705112451062931e-01 -5.678710248286331641e-01
-4.724268497633130059e-02 -4.015650281285380180e-02 -9.801637441346949808e-01 3.692030751329134497e-01 -5.966214764740846999e-01 7.125530879325999711e-01
-5.180422648497079452e-03 -2.339336685219389478e-01 -1.020799121937262965e+00 8.687998601894352246e-01 4.798100283460444704e-01 1.223484353532394570e-01
7.528903246870560784e-02 -7.831058145565286677e-02 -8.987054249746067036e-01 6.798758535918580925e-01 5.249574390753226627e-01 -5.120434657938924827e-01
4.931734002364580177e-02 -7.565486682775436622e-02 -9.234945063712963753e-01 4.910497451185645845e-01 5.956806359257026395e-01 -6.356372611813623230e-01
2.002110195125525460e-02 1.380276643745217136e-01 -7.124937943126323781e-01 -4.660573911950083303e-01 -8.650777719362704454e-01 1.855558045825606295e-01
-1.274244511574074423e-01 -3.268442033674098801e-02 -8.912123962095925833e-01 4.973666757922082793e-01 6.361522890983324352e-01 -5.898615556945207006e-01
4.994974277112823602e-02 -1.045876620309946770e-01 -9.408364073129871219e-01 2.703945363552891501e-01 1.671589675168817235e-01 -9.481269294181546847e-01
-4.314679644025874033e-02 -1.114433833401172608e-01 -9.758272979665689739e-01 -3.041780680046110019e-01 5.283556899079303593e-01 -7.926638429289539767e-01
3.173760341180056205e-02 -7.804597566446670742e-03 -9.263033077605800081e-01 -4.479543049280512029e-02 -5.004343870162472618e-02 9.977419624581703728e-01
1.202341591437868368e-01 -4.083307066114150868e-02 -8.530958479530038607e-01 -4.961564467131886480e-01 3.680630368309314449e-01 -7.863576675430432594e-01
-2.708452136036288566e-02 6.301705350915416670e-02 -8.685402527250051241e-01 -2.622175069012629839e-02 -8.325994482346900094e-01 5.532545332756295675e-01
-1.070863711048232036e-03 1.320327937201190016e-01 -7.399431704846916036e-01 3.581660450252177053e-01 -9.095980520086983656e-01 2.105907594672068173e-01
2.294938835824401890e-02 -1.347050284812524590e-02 -9.397400440838157287e-01 -4.935066238090611290e-01 -8.431441694148370525e-01 2.134458288145876792e-01
-3.167417458798085783e-02 -1.711549112188373023e-01 -1.032755531973925001e+00 4.782938055636771213e-01 1.306797779102778223e-01 8.684226109474211253e-01
-8.206966176470266786e-03 -5.794167522942909182e-02 -9.198603559638346416e-01 1.433442895192177102e-01 7.442911507044064345e-01 -6.522906542679738351e-01
-3.010805072713725310e-03 1.047245727219266037e-01 -7.047666582931787493e-01 5.516859529206356028e-01 8.234176602524162503e-01 -1.327628190966393673e-01
-1.017383423341068627e-01 3.681599205517910312e-02 -8.829590284709090131e-01 4.852740199395044751e-01 -7.423214286159797171e-01 4.620259973089010375e-01
-2.081905430421660680e-02 8.372301524471080503e-02 -8.169242140551640219e-01 8.581844053586326071e-01 -4.945147909645251638e-01 1.377484951517161660e-01
-8.497217322375518259e-03 9.537153346459090186e-02 -8.298711877992268615e-01 3.418903420031885187e-01 -8.465865662994844776e-01 4.079242329234574749e-01
-4.158759380618630083e-03 1.541351575317024235e-02 -9.375495756493876787e-01 4.331052344327648851e-01 -6.025744668585268915e-01 6.703162446167493238e-01
-2.947731811448669678e-02 1.722055961798730356e-02 -9.291184871899994535e-01 3.058329239267283672e-02 -7.009520120383291308e-01 7.125524114378131157e-01
6.748434176476882790e-03 1.160532140581926192e-01 -7.912333056056148894e-01 -1.136146934533773245e-01 -8.802468444128526137e-01 4.607137878691179300e-01
2.143986009415550439e-02 1.388812311735126981e-01 -7.042619478201309624e-01 -5.202311784996639377e-01 -8.429060766467427745e-01 1.373639940772194423e-01
-1.137638207281634894e-01 7.896121782976478877e-04 -8.612851292093745004e-01 3.961965838253040939e-01 3.648709059009474509e-01 -8.425541460299039720e-01
1.304653266360071041e-02 3.487951049447594876e-02 -9.017581411913363487e-01 -6.180296725258381807e-01 -5.838324915019561523e-01 5.264778682378052910e-01
1.390684093819142229e-02 1.307776455599683751e-01 -6.202737540586007459e-01 2.940113361198257724e-01 -8.723096389061727463e-01 -3.906830276636259480e-01
5.987983214855412822e-02 -5.752706767186669540e-02 -8.940316655293151227e-01 6.039477126514483096e-01 6.970676905305955851e-01 -3.864502493225044355e-01
-2.881661359561892011e-02 2.892401109387797778e-02 -9.164880853842360953e-01 8.308601043403328335e-02 -7.661953355515326303e-01 6.372137966563733436e-01
-6.880931370996890006e-02 1.030533120664431021e-02 -9.261192519860846906e-01 3.077029339244102268e-01 -6.935556111686250746e-01 6.513827743123278280e-01
-6.397026365507234823e-03 5.601810410218995701e-02 -7.996642332196687297e-01 3.228247819447251366e-01 5.216558703453517687e-01 -7.897210349842369581e-01
1.126277204275400040e-01 -5.788321629156421844e-02 -9.024713725136234155e-01 -7.616984684721334053e-01 -3.027388443262109541e-01 5.728565573188777460e-01
-5.372331168067723262e-02 4.679222281496881602e-02 -8.270787877731503590e-01 1.955470653739163622e-01 3.894326232448903635e-01 -9.000575410362676720e-01
-6.020546836337703836e-03 4.334036941339782650e-02 -9.058377436749125433e-01 2.894845626658969495e-01 -7.573653306003773622e-01 5.853173873914183645e-01
1.027475011747285838e-01 -5.111845741346729421e-02 -9.118973068849758334e-01 -7.574993780837903090e-01 -3.103676368265158581e-01 5.743401624589691279e-01
-8.932377544955249354e-03 6.511211203127524605e-02 -8.762898742868934221e-01 4.565071803804827688e-01 -6.980399153693032099e-01 5.516715243804755087e-01
3.401224753357527664e-02 1.357481012029637668e-01 -6.527551502649354687e-01 -7.022306258361066256e-01 -7.067676423517197382e-01 8.574175098761253888e-02
-1.568810192459616643e-02 9.330731660212208955e-02 -7.735194530168053584e-01 8.373828239698603015e-01 4.626072199014512054e-01 -2.911778944482434350e-01
-7.197794920286053333e-02 -8.678316206319769410e-02 -9.943968743116169406e-01 5.131504129192483443e-01 -3.192191880545553473e-01 7.967281617330941312e-01
9.167255393828993570e-02 -1.069355672104291971e-01 -9.103440334786176980e-01 5.285295682076162072e-01 6.293561606567413813e-01 -5.697080994453884717e-01
2.852026347897327826e-02 2.280894715483219870e-02 -8.260294916586885527e-01 3.290052351032329153e-02 5.306257274486024800e-01 -8.469674686328799718e-01
8.910123878566235389e-02 3.074842732038533116e-02 -8.537283210453107118e-01 -6.058812136473896715e-01 -7.241643146028986511e-01 3.293842746775875741e-01
1.051714639632061465e-01 -3.655740213640653463e-02 -8.464100884800533908e-01 -2.436662249815009854e-02 5.709171000114582339e-01 -8.206460458824739179e-01
6.143917650649322049e-02 -1.190290361457187890e-01 -9.401232007533811830e-01 3.731956447880776517e-01 2.634070600679866425e-01 -8.895739044157888742e-01
3.265914235573064844e-02 -8.754250662906702674e-02 -1.001170197301434417e+00 -5.298433773969987159e-01 -4.957844663106626415e-01 6.880870282119793124e-01
3.225773889261696753e-02 3.526805845725981825e-02 -8.786118614485132206e-01 -4.661363436101335078e-01 -8.555698600820438315e-01 2.252046262512561181e-01
7.234765219974001460e-02 -1.396844038313764802e-01 -9.435018783533172249e-01 1.963868775192669502e-01 4.546597785234976485e-01 -8.687443122871061352e-01
7.370767319205706603e-02 -1.440910617019522943e-01 -9.825499803388429987e-01 -8.897844214795027629e-01 9.203357832323667831e-02 4.470050377271013731e-01
-3.543741123803650916e-02 -4.757088949453538995e-02 -9.220084677072610813e-01 8.623792849836078162e-03 7.272911541744560004e-01 -6.862748773315767714e-01
7.489187387611068170e-02 -7.090063940428460547e-03 -9.082307202391048939e-01 -5.708891483986214821e-01 -5.580777752179038043e-01 6.021916447847245335e-01
1.230498172523580933e-04 -7.371905987237428737e-02 -9.372532086469818058e-01 -6.234410144199254572e-02 6.157873909139377488e-01 -7.854419788926459978e-01
-4.526614443716091979e-02 3.728229128571471096e-02 -8.903064983171958824e-01 3.434072333571662750e-01 -9.233467433930389046e-01 -1.717622296765115020e-01
-1.024392815360766415e-02 -1.134366568340308967e-01 -9.677940331010890240e-01 6.469244959946703899e-01 3.899816026379673284e-01 -6.552885212530160652e-01
-2.168395374531702571e-02 -6.818224458604592308e-02 -1.004857936750286562e+00 7.286387454263516805e-02 -5.996896912692579740e-01 7.969084828084198602e-01
2.747472441666144738e-02 -1.029502115382573552e-01 -1.014231965450594686e+00 -4.428254328313277477e-01 -3.910392818821858407e-01 8.068419399503300449e-01
3.764068409095070594e-02 3.290603410644547117e-02 -8.820959309614476718e-01 -4.163462150125084582e-01 -8.973404523017813883e-01 -1.464101837564326103e-01
4.087438074138795979e-02 6.733690709029976906e-02 -8.268946574104927283e-01 -4.060325888117727877e-01 -9.133635446483674425e-01 3.007610563520129662e-02
7.854764665106034327e-02 -1.475085081135459608e-01 -9.490817031524638736e-01 -2.162045482358135318e-01 8.014298423289324402e-01 -5.576430768392721671e-01
7.954710237313247778e-02 -3.950776254235792428e-02 -8.680616834484841116e-01 4.385390659247729306e-01 6.056260689067007874e-01 -6.640034279417871277e-01
2.547095688508865460e-02 9.991196026486613702e-02 -6.408831679203640386e-01 -3.562583302024573406e-01 8.961737115980411561e-01 2.644856911100254004e-01
-5.725506093463111901e-02 3.154849108922640893e-02 -9.037245628368103523e-01 2.578031527971982872e-01 -8.637501021328543027e-01 4.329818650628551313e-01
-4.047137628623066058e-02 -5.084476349500220097e-04 -9.359397081776880123e-01 -3.498681793729100931e-01 3.895314682778434068e-01 8.519727063020228197e-01
1.244642955093658299e-02 -1.665561273274663023e-01 -1.030989077349834693e+00 6.461434108998658221e-01 -1.223080823515025756e-01 7.533521258629229944e-01
4.400711192074207093e-03 5.268507127706241466e-02 -8.935379518030843737e-01 -3.174072878465992176e-01 -7.385520184070543115e-01 5.948054553622825757e-01
-6.302552266283930997e-03 -4.590584687253925628e-02 -9.764374046509098903e-01 -6.296012871826039969e-01 -3.402513988271338996e-01 6.984491425824695954e-01
3.078954708762754802e-02 -1.973489427007642585e-02 -8.747654616864735111e-01 2.155358709129751582e-01 5.875984241438687583e-01 -7.799181882052934611e-01
9.289570709246275371e-02 -9.474043114782031150e-02 -9.455338760870600767e-01 -7.972165181905115361e-01 -2.996017555278870370e-01 5.241036264030292102e-01
8.171990770294679240e-02 -3.995510707140010470e-02 -9.240124762666872549e-01 -1.672894841838498681e-01 -6.375028725730325085e-02 9.838445656485138580e-01
-5.462405970245201581e-02 -1.023140942628914841e-02 -9.388337290113526468e-01 -1.260428083607459671e-01 -7.230451488115371972e-02 9.893863085712969463e-01
-1.094223576131418268e-01 -1.003767179223310074e-01 -9.644353664631788448e-01 8.625922890979299540e-01 -2.840263236333814140e-02 5.051018048508901792e-01
-2.654553425572410419e-02 1.799581231122380359e-02 -8.374706562031161150e-01 5.941242621771457288e-02 8.741471880103851566e-01 -4.820133372682351980e-01
-7.015484291368996594e-02 -3.177219909638667739e-02 -9.514170009192055577e-01 6.774019036406134786e-01 -7.319757723565514240e-01 7.306250493312811678e-02
-7.461744177357799990e-02 -9.361685378291355331e-02 -9.511655564969285770e-01 -3.586580194112730102e-01 5.076985700428823245e-01 -7.833304456539369465e-01
5.873581949196001600e-02 -1.362292778551533745e-01 -9.537028042880173473e-01 6.668914564452268490e-01 5.496909995903273005e-01 -5.030860664834109208e-01
9.151264341619026743e-02 -1.324652729902122683e-01 -9.525252739844054517e-01 -8.738165826406991687e-01 3.562162383458026826e-01 3.309902890431931088e-01
6.377753957069036417e-02 -1.397731178311132361e-01 -9.509694202865317525e-01 6.846513076732845260e-01 5.839495712221127732e-01 -4.361828574930154412e-01
-1.388732178785177969e-02 -1.912268211070739798e-01 -1.002361115818255044e+00 4.462516608195784551e-01 3.147613944608869119e-01 -8.377259216311777612e-01
8.462295070187411672e-02 1.853449389556640139e-02 -8.715141373189647656e-01 -1.705969668290899244e-01 -7.705246504166234078e-02 9.823235681483560855e-01
-5.823094895238553614e-02 -1.100090049077847576e-01 -9.649694973519558072e-01 -5.505766553014845854e-01 5.763545296485935721e-01 -6.038880714094115865e-01
6.071614713441718381e-02 -6.497783330875955832e-02 -9.657083878579050262e-01 -6.254111851518364684e-01 -4.875005296229056317e-01 6.092651993215778550e-01
-8.031111554516540130e-02 1.156384121848002579e-02 -9.186920484894656180e-01 3.603275979550665808e-01 -6.805904284581383301e-01 6.379347073510732713e-01
1.536099180949797652e-02 -9.973381382979155940e-02 -1.017120595953896922e+00 1.185097879417614103e-01 -1.355804602877681286e-01 9.836530734716156799e-01
-3.406577757396937961e-04 1.054553013277749057e-01 -6.885159029767122796e-01 4.426315479420694921e-01 8.917842178556156796e-01 -9.379883554743743967e-02
1.009725043412580264e-01 -8.423563730307316588e-02 -9.212165636201230523e-01 -6.876087403694406408e-01 -3.433592898901189350e-01 6.397645021519282604e-01
-3.624614788535640564e-02 -1.309949174007633832e-01 -9.880489902281438530e-01 -5.301305137369498321e-02 3.757066229303340776e-01 -9.252211356591103497e-01
2.973890069156953989e-02 -1.164674518431987604e-01 -9.672084475437880968e-01 4.843422890655674773e-01 4.998566640506322822e-01 -7.180221879767364479e-01
-3.961284025862814306e-02 -1.153586285829427821e-01 -1.022183238903814573e+00 3.570158435041998479e-01 -2.571501143496448538e-01 8.980052929559765307e-01
4.422742236130332988e-02 -9.388848454446607761e-02 -9.954138348322997265e-01 -6.436286516578052508e-01 -5.221404022845594906e-01 5.595637220793303612e-01
-5.090422574178208454e-02 2.186631248508168202e-02 -9.198047657526373655e-01 1.945228427758689538e-01 -7.473088819767124136e-01 6.353662711830952992e-01
1.560474537604647494e-03 9.199176663858603387e-02 -7.522140520175950584e-01 -4.673811070339625728e-02 9.420690210678055454e-01 -3.321468177662158516e-01
-1.056342580706871037e-01 -7.743737619488240409e-02 -9.580378944736804847e-01 8.010977011306555928e-01 -4.726517692847946872e-01 3.672094473663936598e-01
4.748571295115474461e-02 -1.426848427764562111e-01 -9.703968106526995596e-01 4.925076420441244496e-01 4.165967389940861687e-01 -7.641226207799569625e-01
2.045096696429394081e-02 -5.546034716901746681e-02 -9.198131951037022969e-01 2.510692867303154774e-01 7.047153139823691959e-01 -6.635815997294242097e-01
4.689623226835260006e-02 -1.509372282897327722e-01 -9.746594744084828843e-01 3.814610811997958262e-01 3.198942951974315108e-01 -8.672687492525149588e-01
3.310291550524299686e-02 -1.297220938215642716e-01 -1.015586104343708218e+00 1.853867889755751175e-01 3.151757247309239229e-01 9.307502355700280061e-01
4.415460990783005163e-02 -7.396897580954628348e-02 -9.795336624666538539e-01 2.057074189718247070e-01 3.212515650558812053e-01 9.243818960414018626e-01
2.783627103341225831e-02 -1.800717339797724414e-01 -1.031024937471683334e+00 -4.701787442085010316e-01 6.320499527426295949e-02 8.803051045330235747e-01
-1.180015348555650129e-01 -9.154736592588445798e-02 -9.341156398364215407e-01 7.318524957225547301e-01 4.775710635912290281e-01 -4.861252963228823165e-01
9.760429298581248247e-02 -7.528249514610750592e-02 -8.822491243753795009e-01 1.843850402728701432e-01 4.535067914590202864e-01 -8.719711847441503627e-01
1.457178668544016620e-02 1.418414450323220999e-01 -6.726814340059734665e-01 1.753366976003923883e-01 -9.822222816472440110e-01 -6.705543908044120371e-02
-4.422924618670835695e-02 -8.491330547099915083e-02 -1.006189346055900380e+00 5.440222381324041345e-01 -5.591917431322539489e-01 6.255752543300616697e-01
-2.904023725551511254e-02 2.284309276901089550e-02 -8.330987824308779821e-01 2.838771981500798902e-01 3.528999419717662733e-01 -8.915578317343101356e-01
-6.836946262821250002e-03 -5.623542710157330288e-02 -9.868192307497974936e-01 -7.650996787788441056e-01 -5.754443793246575289e-01 2.889398688934592396e-01
-2.867586615098868200e-03 1.204722089038853666e-01 -7.806932053395637672e-01 2.769419574528244610e-01 -8.938989654095407245e-01 3.524880024085229602e-01
1.056719358403607548e-02 -2.168170670419048152e-01 -1.029864291107377872e+00 2.740830333134894881e-01 1.487252917964818344e-01 9.501364525318077847e-01
2.406221214538701789e-02 1.242597107350242314e-01 -7.448159257449451509e-01 -8.464087271173131866e-01 -4.910874537417059260e-01 2.059742203217131695e-01
3.626259422082531159e-02 1.301185020711068119e-01 -6.618060101554615882e-01 -9.415847325838029303e-01 -2.919728709820321733e-01 1.678393099830839952e-01
-7.184433291684451384e-02 1.262005023905981085e-02 -9.221302712084322728e-01 3.259780858341177479e-01 -6.940608419438558663e-01 6.418861544200114011e-01
2.625182625275524276e-02 -2.026162566873570547e-01 -1.026415971814846451e+00 -6.365606817418285601e-01 3.239863150914305545e-01 6.998738215520384776e-01
4.683366896826355458e-02 2.049004272590136330e-02 -8.252903207010940934e-01 1.786830034087685815e-01 5.182031791219477990e-01 -8.363837931480551102e-01
-3.033769827970436705e-02 -5.366400619858337738e-03 -8.708293327036769060e-01 9.629242576275441612e-02 7.063257012662474965e-01 -7.013071883785795269e-01
-8.682190540002494850e-02 -1.401079246509011611e-01 -9.815260593369768971e-01 7.770832873491315684e-01 6.194813757475435834e-01 1.112851725280494808e-01
1.086356944148152148e-02 -1.584909673044994083e-01 -1.027550899387886352e+00 8.365256315879159299e-01 -1.208392060899695780e-01 5.344368568577437806e-01
-6.992138902296179959e-02 -3.090846140123033187e-02 -9.468666207936572432e-01 6.603214195704147915e-01 -7.361611297569736756e-01 1.484668780955826772e-01
-8.532777155531015567e-02 -9.223618329231256241e-02 -9.870375487212316168e-01 5.630971223786043200e-01 -3.012533929277651512e-01 7.695245441299743971e-01
-1.110395072089222050e-02 -1.930822313374531418e-01 -1.001530848436555488e+00 4.879884478138758475e-01 3.027879241301407731e-01 -8.186493436149352432e-01
-2.436313310226497983e-02 -1.955039617348749703e-01 -1.009158415350061233e+00 4.377501352729135653e-01 3.809966004099863968e-01 -8.143809977796505617e-01
9.886374435649859793e-03 2.272072002208712360e-02 -9.172085024747682613e-01 -8.425842071970037761e-01 -3.075702840241851255e-01 4.420999594746406469e-01
-2.715628611785918245e-03 2.216825982008315335e-02 -8.227844451366194134e-01 -1.801436654886021671e-01 6.836537814679940483e-01 -7.072239863500412449e-01
-3.030958947356438005e-02 -1.804596205860919123e-01 -1.031418635836691688e+00 4.728747180545717077e-01 3.056770041492314349e-01 8.264085370802749519e-01
-4.410017100789206251e-02 -1.709887873054110885e-01 -9.959239906631456307e-01 -1.100945118318842064e-01 4.772931339527791139e-01 -8.718202009279399922e-01
-8.632610342009355842e-02 -3.432723713981477437e-02 -8.903815726548177656e-01 -1.783480565121115802e-01 6.132734900941270162e-01 -7.694722848070105758e-01
7.268213337440679322e-02 -5.898548420027006911e-02 -8.847226219859140040e-01 4.777925986231522648e-01 4.611255753015718328e-01 -7.477148096057278925e-01
7.557260008117995531e-02 -4.098254507944813774e-02 -8.716096217776853061e-01 4.201284281730157111e-01 5.343954560409651666e-01 -7.334259338226595260e-01
3.514155266564002872e-02 1.108499866525329974e-01 -6.540583142082229129e-01 -7.709991060310735778e-01 5.972820317308293880e-01 2.209401572163331995e-01
8.096654362044455183e-03 -2.205388286583390145e-01 -1.028447924198495622e+00 4.206561699714743696e-01 1.092878215714720991e-01 9.006134346772161070e-01
-1.421648048719793833e-02 1.179555744087125158e-01 -7.533616380179488647e-01 8.716054909655153171e-01 -4.886150743250651241e-01 3.948641869142203303e-02
2.705757276373042808e-02 -4.226167720431515951e-02 -9.744249175751843461e-01 -4.594965840186959194e-01 -5.870321013332069349e-01 6.665254693404216724e-01
4.002540716776568919e-02 -2.136631779994884947e-02 -9.317969392770812931e-01 -4.975728365771155404e-01 -7.472394387780844083e-01 4.405161670531702600e-01
2.948891669021266176e-02 1.309446539466890269e-01 -7.029722036451574452e-01 -8.767189164402758861e-01 -4.545076243692959816e-01 1.574381178303641271e-01
-1.320659422134014549e-01 -2.493274819907415410e-02 -8.911073365168454830e-01 9.371715470429528017e-01 1.671363869697875260e-01 -3.062269086213751379e-01
-4.335280196784706969e-02 -1.723466190233815393e-02 -9.607483492283083182e-01 2.891412047432045385e-01 -7.136741207794671249e-01 6.380177215793483292e-01
5.626724650874430356e-02 -1.697055483137527854e-01 -9.785795241334052097e-01 -1.350219986838562813e-01 4.522012297545352499e-01 -8.816366074976146328e-01
6.629259878390374172e-02 -1.101104609826625697e-01 -9.335599050823127909e-01 5.331223935410935866e-01 4.040679324224792923e-01 -7.433099081088844207e-01
-3.229846516586211934e-03 1.278803964081895173e-01 -6.604645449773539623e-01 9.150821619298550313e-01 -3.587218930062679445e-01 -1.842369137707813576e-01
8.345267602143683836e-04 -1.623797484384549850e-01 -9.866102634663063142e-01 -3.120442751293550990e-02 2.866911656885015036e-01 -9.575147305497488937e-01
-1.057122208872170871e-01 -9.927296481982711418e-02 -9.406917764258547754e-01 -3.214003974524398677e-01 6.885194017730464910e-01 -6.501098506402591681e-01
7.901437052605936318e-02 -5.683511335152942323e-02 -9.311357479791492198e-01 -7.766193712661265680e-01 -6.109465251512896655e-01 1.536447056678842960e-01
-1.037517030901121684e-01 -9.600641184040041576e-02 -9.718436242391735869e-01 7.222550837800117973e-01 -2.311097178416624265e-01 6.518710702838986792e-01
-1.274504133611674764e-02 1.216035547214682072e-01 -7.407004814857124364e-01 8.716054909655153171e-01 -4.886150743250651241e-01 3.948641869142203303e-02
1.606561546533287477e-02 -3.411302276196972322e-02 -9.736513538937558998e-01 -3.026852272333165894e-01 -6.172876924288198675e-01 7.261801140148484990e-01
-8.544993972034965746e-02 -9.111432573056394910e-03 -9.348276132185054932e-01 4.184019156344862544e-01 -5.265526032631928643e-01 7.400555337203733597e-01
-8.096826652668845381e-02 -2.574351570925577370e-02 -8.840637345660543600e-01 -1.898412972745672778e-01 6.909658293228646553e-01 -6.975145192447792519e-01
-1.238825225139912958e-02 7.474533951961198630e-02 -7.891186138214325574e-01 6.275817118558907337e-01 5.000404104270522732e-01 -5.967418058792050006e-01
7.754703793821401958e-02 -1.385429065619985245e-01 -9.417014655095785614e-01 1.546724455079360183e-01 4.913922645899214681e-01 -8.570939720367792836e-01
-5.166345216748595426e-02 6.572083013036936205e-02 -8.234232082287781251e-01 4.354595006697254966e-01 -3.240939368110687946e-01 -8.398441185117487828e-01
-1.945163676862855665e-03 -2.069098237834030019e-01 -1.001496824854356316e+00 3.587893191251750880e-01 3.580800491655319329e-01 -8.620028438881763844e-01
7.043635102633342970e-02 -1.172599904498699275e-01 -9.344299260661491635e-01 4.724865695986122938e-01 3.924384783410930222e-01 -7.891441454298849800e-01
1.131425086611484963e-02 -1.118655445524663339e-01 -1.010824359786525850e+00 4.822655191407511643e-01 1.633075573918480738e-01 8.606686997600239142e-01
5.549105584213354092e-02 3.413082501335592406e-02 -8.157480347099330675e-01 1.219302358954841292e-01 4.016229187836863335e-01 -9.076519424769300404e-01
-5.073556353636118205e-02 4.344734492394528719e-02 -8.279869778243037493e-01 2.032067420484051645e-01 4.590166574494666807e-01 -8.648761345822834068e-01
1.101528061346856158e-01 -5.937966885115624621e-02 -8.698185052701434827e-01 1.606217125822141378e-01 5.857905594789097892e-01 -7.943866098270682130e-01
-6.021746178412303030e-02 -5.288652678578095213e-03 -8.684137048319122698e-01 -1.409659993650030918e-01 7.131717826480746814e-01 -6.866692038074763138e-01
-1.895096196133153055e-02 4.592725007188485677e-03 -8.550185945991809477e-01 3.580590348175791138e-01 7.482142838292169529e-01 -5.585419528195135763e-01
-6.954064824312176929e-03 -1.620573826659494621e-01 -1.037003291182681197e+00 -1.900168405317262665e-01 -1.603582417852900399e-01 9.685963218007133113e-01
1.757871341430587708e-02 1.411118521703151607e-01 -6.999157237544509913e-01 -2.981093634989269159e-01 -9.490387030116499423e-01 1.022562838178175532e-01
-9.106288683740115450e-03 1.051016129527878873e-01 -8.098686391011090668e-01 3.630945363375175372e-01 -8.274477509699231792e-01 4.283603355781896438e-01
1.258826621378977273e-01 -4.180538190551660871e-02 -8.607841347927708275e-01 -9.916453595657307440e-01 3.314843753640102191e-04 -1.289936857751623756e-01
-6.868130231438168178e-03 1.171466030045711787e-01 -6.772924746413555575e-01 9.613542834646688906e-01 2.254884039344018654e-01 -1.579649371070976360e-01
-8.966229211690848744e-02 -3.848978671383905537e-02 -8.929438444681895293e-01 -1.603779164310757122e-01 6.233589267123744726e-01 -7.653120751753650364e-01
-1.794266395335025396e-02 8.996717018292332835e-02 -7.843736880310966386e-01 9.260510510058301836e-01 2.613590352491752533e-01 -2.722515484338289826e-01
-1.039982577297920846e-01 5.017851228739920490e-03 -9.012529538179380184e-01 7.343930131875647804e-01 -6.364667407296772383e-01 2.357477256013965350e-01
-2.621901910224174598e-02 4.724937176272895473e-02 -8.824815251356183943e-01 2.915204237714608126e-01 -6.528979542380609624e-01 6.990994949761178967e-01
4.627919989434050446e-02 -1.044422043457565036e-01 -9.415280245084532984e-01 1.581039185367070776e-01 9.997202680140403197e-02 -9.823485861956323673e-01
-1.234201899643699515e-02 1.221973140990735007e-01 -7.246681772446854630e-01 9.557602706622203570e-01 -2.924634411986097304e-01 -3.142356736506511650e-02
1.046865503513639828e-01 -6.819069950083911369e-02 -9.180485269392647529e-01 -7.252673516997992786e-01 -2.541792318563290687e-01 6.398282477753590713e-01
4.462028922455954331e-03 6.557698683670201700e-02 -8.775192345033370200e-01 -3.287381622907307732e-01 -7.388953910889279886e-01 5.881877435659924602e-01
1.371019535986322917e-02 -9.219821488052395986e-02 -1.014566790012420894e+00 -1.719243013179214963e-01 -4.601117079737664373e-01 8.710563993231483781e-01
-3.699855526347001211e-02 -2.598925400583299364e-02 -8.887622879388037411e-01 7.074621004774384048e-02 6.195471123451760098e-01 -7.817648939090541260e-01
5.940659507033981684e-02 3.351591111413774332e-02 -8.718155935251598043e-01 8.685063417986059464e-02 8.197125020088480429e-02 9.928432310707768771e-01
-3.340387759920762645e-02 7.719596146444614171e-02 -8.198937170755894455e-01 4.275185034255146732e-01 -8.400408593834404192e-01 -3.340049158248111771e-01
6.339957752941643987e-02 -1.468903833705462181e-01 -9.600580692598743582e-01 5.708400771656030326e-01 6.236605322772719173e-01 -5.340310354101139856e-01
-3.549034909831369489e-02 -7.167133097630307148e-02 -1.000296256054854505e+00 6.786910097724135893e-01 -6.629661166344998913e-01 3.159975339281504425e-01
-6.295400401091505449e-02 2.322068899466687292e-02 -9.136732974648132943e-01 2.444707635292580616e-01 -7.777803181180336090e-01 5.790438865298831450e-01
-8.237819898176948485e-02 5.512057681086369315e-02 -8.679207906712061993e-01 3.757836443201759691e-01 -8.448379430651424826e-01 3.808352696624969225e-01
-9.109191983906149686e-04 -8.718152627470673877e-02 -1.007476056621144700e+00 -3.075385927979623069e-01 -3.550742053665928433e-01 8.828036716185155841e-01
5.254978551544520898e-02 -1.315921892427427131e-01 -9.569117733021217376e-01 6.631244423303677138e-01 5.243030733047476799e-01 -5.342024534829798998e-01
1.061619502899914004e-02 3.765934324119551285e-02 -9.036605323395435763e-01 -8.238438258700770955e-01 -4.005370195675506673e-01 4.010628959797923887e-01
6.244409299287990989e-02 -1.094086985062115158e-01 -9.358280411474062532e-01 5.214259478714601270e-01 3.763152177886502359e-01 -7.658340797764423558e-01
8.324341398622477073e-02 -1.800648277630936128e-02 -8.378852787070133479e-01 2.134415469977465063e-01 4.826043281295380738e-01 -8.494326156240094017e-01
-6.072322502825722688e-03 1.132325944317386646e-01 -6.801774316047304314e-01 9.284808130038910701e-01 3.391440219452436788e-01 -1.513430284566741335e-01
2.767479697359762070e-02 -2.060285752887713318e-01 -1.022736101091647143e+00 -7.141547908870387040e-01 4.091815494629856831e-01 5.679378436344599823e-01
-6.052186685653977369e-03 -9.443844233334289240e-02 -1.017207042390868121e+00 -8.573272871946794327e-01 -7.729901618424361853e-02 5.089349513723340213e-01
-1.916570436964008459e-02 -6.127521020336534896e-02 -9.997000309970446308e-01 1.186807069950403248e-01 -6.571150632155103866e-01 7.443887986008612678e-01
3.171664976383230944e-02 1.176837762838625207e-01 -6.889458091996213396e-01 -9.303146267870693320e-01 3.456778777770084798e-01 1.225622290986090185e-01
4.079580695589028749e-02 1.250886047795425060e-01 -6.435339887462541153e-01 -9.743935659943040450e-01 -1.172498575381259733e-01 1.918584099178167746e-01
-1.184625713563905169e-01 -8.853031378668038687e-02 -9.437370714324635479e-01 8.072624647428837674e-01 1.657269819166434510e-01 5.664467146008037579e-01
4.092808717641209515e-02 -1.644329307645892302e-01 -9.779815867206145263e-01 -4.301645247345704803e-02 7.181054512492872355e-02 -9.964902560614726790e-01
9.427550381419608216e-02 -1.255798910374548161e-01 -9.509399774368386682e-01 -8.733016246261041671e-01 1.397892548846602911e-01 4.666939432263915721e-01
-4.616316989172929153e-02 9.068614170721531545e-03 -8.529610179538382742e-01 -1.003858536419792169e-01 8.521223077264480361e-01 -5.136246227192809988e-01
6.435281986975362190e-02 -1.191948337195664065e-01 -9.387860251114534815e-01 4.232561042616401759e-01 3.113465284862634297e-01 -8.508334792453879913e-01
-3.452938040711087814e-02 -2.848218903776646854e-03 -8.685495370516238545e-01 1.971869512495056861e-02 7.397876731870175471e-01 -6.725513896075956399e-01
-4.041546582415690009e-02 6.980162354863010676e-02 -8.570797883370829817e-01 3.376902165323419913e-02 -8.948782840894615731e-01 4.450309088610414632e-01
-5.154746949939843781e-02 -9.726523387930027797e-02 -1.009645358868109355e+00 5.399224227212999772e-01 -4.369970887121267245e-01 7.193867679488465949e-01
1.438878888308127435e-02 6.534828744775725284e-02 -8.655194473197556082e-01 -7.742930138078059077e-01 -5.112891264931049840e-01 3.728991256336526838e-01
5.352709682066837671e-02 3.519847671497030456e-02 -8.714269224379221912e-01 1.131332961978917528e-01 1.919077523592328249e-01 9.748703872186433861e-01
1.441052066129624130e-02 -1.488635740915756900e-01 -9.828518869888769327e-01 2.239511665730138101e-01 3.903018858608416908e-01 -8.930343290624704888e-01
-5.118963070961556755e-03 7.555304563898122827e-02 -7.824905599117456534e-01 3.152944524429699413e-01 6.604621069920334486e-01 -6.814537500713689910e-01
3.890500596453089904e-02 -5.129515438770054087e-02 -9.737275541240031362e-01 -4.946834445880011200e-01 -5.559238911498147750e-01 6.680096682679070863e-01
6.298796963963133877e-02 -1.710667554947732372e-01 -9.846065601254150312e-01 -7.925939071885378384e-01 6.097101244983773594e-01 -6.961492065693414798e-03
9.386355450414775661e-03 9.448296190671889860e-02 -6.031480058806163447e-01 6.803626761661281108e-01 6.633511414769739378e-01 -3.115636242908667586e-01
-6.012301961764108388e-02 -1.946638633674438110e-02 -8.825615750438318141e-01 -1.173459845410898400e-01 6.806290393843239528e-01 -7.231694342675545339e-01
-3.826789701320867931e-02 -1.422859605401415872e-01 -9.909900603430263910e-01 8.875855501780460788e-02 1.751910889017393169e-01 -9.805253700341334255e-01
-2.427193628676967488e-02 4.055758751010370838e-02 -9.003965810335358144e-01 5.720009872441003847e-03 -8.744846858767256759e-01 4.850193971937038495e-01
1.106832983265503834e-01 9.454154257519869564e-04 -8.377772491465986793e-01 -8.803682819263447534e-01 -3.501538573974394275e-01 -3.199124322806938814e-01
-3.801593997619214915e-03 -1.299299233890278404e-01 -9.728003807229783639e-01 -9.638901846716943153e-03 5.002839842967355954e-01 -8.658077307505247511e-01
3.575161145935493862e-02 9.837591986762014851e-02 -6.120835245497896482e-01 -6.612707250338304421e-01 7.497859452634413335e-01 2.328227863933953617e-02
-8.572379956055924122e-02 2.024628274182776327e-02 -8.992288588603557509e-01 5.356894689230087270e-01 -8.366182409668219133e-01 1.144845481563589035e-01
6.589396869846875920e-03 -1.550537001270287374e-01 -1.020584448254615806e+00 4.599578068393106456e-01 -1.623113573622590733e-01 8.729798618518025410e-01
4.414738118575835431e-03 -3.156502495704919392e-02 -8.910586519498012725e-01 6.414715539159611402e-02 8.285975404048606663e-01 -5.561575842242751921e-01
1.046805971198918744e-01 -1.084704012997910749e-01 -9.292316251098685642e-01 -9.336105386010957741e-01 -4.902574796919956235e-02 3.549194813602553622e-01
5.337194346866731137e-02 -7.795746249969237596e-02 -9.221908754343389747e-01 5.397628658528413892e-01 5.577266754868782650e-01 -6.305529352058256709e-01
1.091236081864890434e-01 -5.232630828691234824e-03 -8.339462031377044005e-01 -6.350849031857515037e-01 5.846604238676678111e-02 -7.702265170929740723e-01
3.074131122479953175e-03 -2.313921795665254549e-02 -9.596853266083723577e-01 -8.850237780531082787e-01 -3.140954317216013703e-01 3.436232996352600599e-01
4.059852139632596363e-02 -1.867452978979153577e-01 -1.019387496601151577e+00 -7.187344503930056527e-01 3.185070883620995108e-01 6.180404715561610418e-01
5.960691912329008080e-02 -1.254975950129325613e-01 -9.425914623846587403e-01 3.952910796547245420e-01 3.548958287133375245e-01 -8.472271909631298170e-01
1.810136703494086979e-02 -1.093587648968488840e-01 -9.669326132587943157e-01 1.714315305503756881e-01 6.387892295906366646e-01 -7.500396992774160942e-01
-8.470834990820129418e-02 1.516410944281009789e-02 -8.479472557537487409e-01 1.462318664463405082e-01 3.873664437384817250e-01 -9.102546234439138351e-01
4.317782442247750097e-02 1.125049462057174238e-01 -6.248539624742466270e-01 -9.544130531232595249e-01 2.760916520549696607e-01 1.134421601235445637e-01
3.372850521632633769e-02 1.159991815563956447e-01 -6.725045360027384067e-01 -8.990330987777054306e-01 4.037156825641750602e-01 1.695674938008430166e-01
1.108361333617262356e-01 -4.073097362590084175e-03 -8.358387985733226611e-01 -8.207812386942600069e-01 -1.069226657985102857e-01 -5.611467737999177308e-01
2.420468253030894773e-02 4.889434303480684474e-02 -8.741173530041471684e-01 -4.341285184380551110e-01 -4.372743522547765105e-01 7.876062279711512071e-01
1.096206248327151120e-02 -9.268226507736945785e-02 -1.014146324913193897e+00 3.874401535349435988e-01 -2.536773917477205820e-01 8.863057645896775805e-01
-9.419535851663878023e-02 -1.153295685464436615e-01 -9.848890102491920651e-01 7.561667940914109654e-01 3.056323336655238435e-02 6.536647981035076382e-01
-8.700014606408271178e-02 -8.578403485948524546e-03 -8.638442156219846568e-01 -2.876480773045930750e-01 7.898229579885021057e-01 -5.416994357180595632e-01
4.604152255180207938e-03 4.570803181933631026e-02 -8.075143446504987610e-01 -3.025742677675903325e-01 5.279514744836125706e-01 -7.935465034107868076e-01
-9.608792658608426851e-02 -4.440399520014936402e-02 -8.963478728542935148e-01 -7.650064168464303094e-02 6.018789551521815939e-01 -7.949146967862377178e-01
7.354993830020287171e-02 4.396500131576144832e-02 -8.190044718588288530e-01 -5.415164131173682005e-01 -5.687491423560625536e-01 -6.190996586929626844e-01
-1.245802795062576629e-01 -7.421690882049382376e-02 -9.276879775888959845e-01 9.482796393730221762e-01 3.106010955911681082e-01 -6.551858490640005694e-02
-7.061430769428110599e-02 -4.199499566102313231e-03 -9.383704400839029125e-01 2.981269964944078810e-01 -5.728996589108986681e-01 7.634829891890189124e-01
-6.749429768995423261e-03 -2.040374840627760256e-01 -1.034685054559054906e+00 2.338727164446234574e-01 2.626577418947476650e-01 9.361166931133986235e-01
6.859274294892246659e-02 -4.504097485142708607e-02 -9.315185681168577370e-01 -7.142278008355616992e-01 -6.890997799606671803e-01 1.225566879927700165e-01
4.240416799450267421e-02 -1.886723145385696965e-01 -1.015638580476631025e+00 -7.997961873569441327e-01 4.053124424270309611e-01 4.427729471220333002e-01
7.220746074633020706e-02 5.010327518758898868e-02 -8.367708839244522023e-01 -5.856178462930132778e-01 -7.972728770549605271e-01 1.463136959263841852e-01
9.193235499537111277e-02 1.721735011645160462e-02 -8.220718619297741059e-01 -4.150011564692100974e-01 5.823369109975648494e-02 -9.079553278383889481e-01
-6.939950450508171331e-02 4.086800812236444924e-02 -8.888016503812213864e-01 -3.446079385157892472e-01 2.806472714214996445e-01 8.958138633419140406e-01
8.081295674168703647e-02 -4.185743867781974159e-02 -8.692452608199024988e-01 4.201284281730157111e-01 5.343954560409651666e-01 -7.334259338226595260e-01
-6.874699176888908209e-04 -1.812688556014244445e-01 -9.929919515605543090e-01 3.136637742665509543e-01 2.531059231832380463e-01 -9.151789051122317664e-01
-9.481907452844742790e-02 5.125144483731346873e-02 -8.524520936237139912e-01 6.532564381824392807e-01 -7.549625634536345498e-01 -5.733719348476883776e-02
8.841055378210660454e-02 -6.738402271055067561e-02 -9.245348401986379638e-01 -7.216092186524654117e-01 -5.086576484697918898e-01 4.696248845716763376e-01
-1.886814518161025050e-02 8.681679774834327734e-02 -8.209953374664232806e-01 8.942341481409563642e-01 -4.072000955456248072e-01 1.858315648275407905e-01
6.669469946821107720e-02 1.085232313824029474e-02 -8.967904010937598480e-01 -5.160594171545657138e-01 -6.752308338355471617e-01 5.270161278403556748e-01
1.942928806035305184e-02 -1.778582124715483992e-01 -9.926141166389139681e-01 3.864381588726496439e-03 3.541276080271935078e-01 -9.351891272827520529e-01
4.744165987415235874e-02 -1.235901410323445027e-01 -1.007553836243230805e+00 -6.408859946087211990e-01 -2.644045780487913055e-01 7.206631397686654728e-01
-6.456648596579944721e-02 -8.970867206251442738e-02 -9.529621502677726452e-01 -2.712746450419268318e-01 4.615100811289816196e-01 -8.446410551078472606e-01
3.117807509637332553e-02 -8.835783215073490099e-03 -8.644015132938834833e-01 2.355466987701940185e-01 7.097960269708168957e-01 -6.638579311832517593e-01
7.064010281438629470e-04 -1.136842098506650051e-01 -1.009734171603292818e+00 -2.366523833040218849e-01 -1.991713704125420148e-01 9.509607850403277718e-01
1.071051745812137690e-01 9.386959333128747085e-03 -8.568553652818953204e-01 -8.049093132132246753e-01 -5.390138812911360322e-01 2.481633197676083868e-01
1.805411512439642624e-02 -9.714036481963639336e-02 -9.555287747890596206e-01 3.324216765783626903e-01 6.683364711958674764e-01 -6.654488637080130387e-01
3.501838797276659448e-02 3.525662701879106464e-02 -8.177032094035020515e-01 5.443001910622548983e-02 5.041417882451389998e-01 -8.619039565781617673e-01
3.544057116099576330e-03 -2.250388206270257652e-01 -1.027016433422840880e+00 -3.336259052287284255e-01 1.018452135686503252e-01 9.371879789207006040e-01
-1.545031176247309637e-02 8.510111712101206538e-02 -8.386365540870933666e-01 7.736483911921353540e-01 -5.834041291260545492e-01 2.471998966919099205e-01
1.305503047055653863e-02 -5.825377004883278836e-02 -9.247091602406090072e-01 1.226586356298469127e-01 7.221477431584081286e-01 -6.807771266403144228e-01
1.593132358511884644e-02 7.613404605105875134e-02 -8.431829047204871808e-01 -8.823498964592468852e-01 -4.007147780202957588e-01 2.467515489201667078e-01
1.199113579813029934e-01 -8.083957569779649799e-02 -8.895671881994009489e-01 -9.540763289637690381e-01 2.951794986124585130e-01 -5.106292304515759606e-02
1.018657459270003590e-01 -6.300415983729722169e-02 -9.191607970571147312e-01 -7.029550498935088765e-01 -2.699125518413189040e-01 6.580284280999735280e-01
5.537952485857948470e-02 -2.141762967560677244e-02 -8.653787814014849422e-01 3.717163532846501917e-01 6.453698015955438017e-01 -6.673265856305216071e-01
1.270859163880470356e-02 1.404936896241309741e-01 -7.099303669503770342e-01 -4.084238263307361783e-02 -9.877614989422136560e-01 1.505294688367861122e-01
-4.211676910088247086e-03 -1.590847088399883480e-01 -9.868107217221386840e-01 3.090151900573643307e-01 3.033949641052804402e-01 -9.013662452462741781e-01
3.730835359474749674e-02 5.790717491829654173e-02 -8.099778996771185291e-01 -2.647053680360332839e-01 6.364751558963389899e-02 -9.622266167032461626e-01
