1.183005987917566150e-02 -1.123739176558505720e-01 -8.205697156542188786e-01 2.388413294783972851e-01 3.102467467405894408e-01 -9.201639937912546863e-01
3.837775821014074301e-02 3.288325040363062474e-02 -8.471364414095110540e-01 -5.375944492599495916e-01 3.083911790097637606e-01 7.847847404440656538e-01
-2.933739800834143669e-03 -2.702159691004882985e-02 -8.843986230915148461e-01 -6.334246075139454701e-01 1.261008892501199186e-01 7.634604327181160333e-01
-5.540184368595327258e-02 6.010242790012376712e-02 -8.758973945892700730e-01 8.625949321229020583e-01 -2.063399147288329516e-01 -4.619023951719494758e-01
-6.619617635508491527e-02 -1.205351487536139993e-01 -9.280713482564104666e-01 9.717264107031147180e-01 -1.968582212871808346e-01 -1.303634283596777355e-01
-6.406825104496577513e-04 1.296206383807464446e-01 -8.289429241773567103e-01 9.060529187134476192e-01 -2.200101263489183945e-01 3.614742768092574221e-01
-7.489588814751561852e-02 4.117085184096517386e-02 -9.486346183248142161e-01 8.742484525133421558e-01 -4.130257534626137206e-01 2.551457823571982586e-01
5.109025093528502676e-02 3.913621973656668251e-02 -7.816547897767859299e-01 5.806026541137056934e-02 -3.139392550298424900e-01 -9.476661594315104464e-01
-6.956977725215775232e-02 -1.012344676246987735e-01 -9.827345264567572958e-01 7.646930653300025860e-01 2.173545867161542078e-01 6.066312714241278714e-01
-6.297782488651793020e-02 -1.501790964798783712e-01 -9.013681966518813926e-01 9.362075921520582877e-01 1.629162369293276069e-01 -3.114059153928072088e-01
8.681458865145774695e-02 -3.457097836489810266e-03 -8.120469196230065689e-01 -7.706404009894096685e-01 -4.356134844087275471e-01 4.651389733877058785e-01
-1.066868420128437404e-02 8.214893765275384230e-02 -8.106282651814303852e-01 6.942990311739031251e-01 -2.069896402099682953e-01 -6.892779875759326158e-01
-2.467247378131193908e-02 -1.405364338747677466e-01 -9.226240294141887510e-01 -6.093367596142200693e-01 -5.154587202477434182e-01 6.025039594088994477e-01
1.000844817423078570e-01 -4.022226877664589889e-02 -7.884780969091060854e-01 -7.393354253805272114e-01 1.156129018087525828e-01 -6.633376106574651043e-01
-6.662764115110754448e-02 1.272025527380640873e-03 -8.866816298498362281e-01 9.257721628543307268e-01 -8.494696072214702465e-02 -3.684154127450211536e-01
-6.891223421463718579e-02 -1.398398413598762047e-01 -9.190863325912628223e-01 9.745791435274424597e-01 1.399263886169523075e-01 -1.749745660658547086e-01
3.903265217307998886e-02 1.458024331705712051e-01 -8.100277645995458409e-01 -5.637066703117592503e-01 6.256127136883057882e-02 -8.236023780749694989e-01
-5.842136618282902684e-03 -2.052872310732332672e-01 -8.871625090909508460e-01 5.728305724583944158e-01 7.727273545737932681e-01 -2.734183072699691852e-01
-3.814200516883554937e-02 -7.779569545563030930e-02 -9.291150247884278901e-01 -9.311821670995549249e-01 -6.417946732824306166e-02 3.588603734730813066e-01
-3.019364960118860186e-02 -2.182555640218851734e-01 -9.215980546511362004e-01 8.295797196813901042e-01 5.047203180111278220e-01 -2.388616530129781812e-01
-2.981561399042648511e-02 -7.548045554192488182e-02 -8.373942355394791148e-01 9.213545535157441346e-01 -1.116007643934100874e-01 -3.723587733659708965e-01
3.486767296453533588e-02 2.086274094609846808e-01 -8.547942813369192594e-01 7.662432821622789936e-01 -1.196269513066395701e-01 6.313165806964496918e-01
-4.747956910741414627e-02 -1.531918206379518088e-01 -9.802370555470729663e-01 -6.741825676458433891e-01 -1.657645825846136289e-01 7.197221468337670069e-01
7.982118663179556262e-03 -2.029517544143447094e-01 -8.787986022095028993e-01 9.046545490151987334e-02 6.925615853915682019e-01 -7.156636443954509375e-01
-3.043260369659686257e-02 9.585469322546773252e-02 -8.824925110937387185e-01 2.454039462310666220e-01 -9.692783363374209982e-01 1.662557912319431730e-02
4.353624731559957439e-02 -1.198050044676893106e-01 -8.573858001827869835e-01 -3.091853976901851042e-01 -3.526472383284838252e-01 8.832011747922754452e-01
-5.519350658000713589e-02 -8.126671990157471881e-02 -9.822285326076323209e-01 -8.737209734468416311e-01 -1.123992046377286086e-01 4.732632241743586210e-01
4.353631181216151974e-02 1.902281739672029640e-02 -8.408818540803908448e-01 -5.383836907069073918e-01 1.250745896999896911e-01 8.333662751708807992e-01
-5.249697621582600365e-02 -1.082147422600093084e-01 -8.769872589428843179e-01 9.002628208767949891e-01 1.893461807361979388e-01 -3.920138737182277122e-01
-2.982077019195621820e-02 -1.107330648664659779e-02 -9.201544744196714642e-01 -8.308256714357538097e-01 -1.242202817501307927e-01 5.424924195647776726e-01
2.156662024706952271e-02 -1.670838554737899273e-01 -8.471659331685542638e-01 2.700871625291164091e-01 6.587664565544179007e-01 -7.021963260767651871e-01
7.276699635739712624e-02 3.050509932759920204e-02 -8.076542974762987992e-01 -7.253315973795658733e-01 -3.274581730039166083e-01 6.055288752617371539e-01
5.125254209721580995e-02 4.680254728843081385e-02 -8.255812217375130269e-01 -7.855939063318534421e-01 -2.697286550603809063e-01 5.568560558830055740e-01
5.110016239323775245e-02 -2.130445934691881787e-02 -8.380931167586614938e-01 -5.093862016310086727e-01 -1.410004346003987385e-01 8.489078719333633671e-01
-4.503482084931623164e-02 -2.076574763099506837e-01 -9.709236344118150619e-01 7.433856423792326584e-01 4.302963181677393889e-01 5.120770110790986429e-01
3.714877691624803328e-04 -1.314264725776676523e-01 -8.307707170087842430e-01 2.361892100109558579e-01 3.760005999414693934e-01 -8.960123916096560670e-01
3.939855931575116446e-03 2.716803897413780713e-02 -8.056441726697697314e-01 6.911941502300027462e-01 1.854299315029194484e-01 -6.984743282259174846e-01
1.481369239621093759e-03 -9.662703948907186424e-02 -8.857447924296439901e-01 -8.424239581645370789e-01 1.310339128100997466e-02 5.386558974404076494e-01
4.810000691006600937e-03 -1.081732868840943745e-01 -8.814970006012777803e-01 -6.039151233569192145e-01 -7.078602021160670249e-03 7.970172000491727582e-01
-3.875621573326334945e-02 -6.475858667754551268e-02 -9.294795595485634276e-01 -9.303760544285112344e-01 3.114509048781488598e-02 3.652812350566911337e-01
-5.333918764710523196e-03 -2.099046401470381629e-01 -9.692581094220343862e-01 -5.770770677474815757e-01 -5.036492320297605296e-01 6.428992992341810986e-01
-3.669748608032542825e-02 -5.465778075041527462e-02 -8.451044654850196070e-01 9.255637196581170123e-01 -9.142303870942404542e-02 3.673875730693205721e-01
-3.684096961173920215e-02 -7.659211314800368209e-02 -9.258726014010423278e-01 -9.055492066750934210e-01 -6.911584464160654140e-02 4.185733320573419847e-01
-1.103282693853764249e-02 -1.143167480112114165e-01 -8.280811726663419581e-01 3.496122773669337880e-01 2.583511496740235613e-01 -9.005697857336856238e-01
1.197260248036594206e-02 -6.231655757942401730e-02 -8.063773939943348346e-01 5.660827829806148737e-01 3.504064934872084813e-01 -7.461672547994322446e-01
-5.445742726503909753e-02 -5.645316236442191049e-02 -8.629677391436112455e-01 8.877968477994151453e-01 -8.284345005725690658e-02 -4.527181461130451723e-01
-3.848781449424479740e-03 -6.785330551970569779e-02 -8.864170141327550878e-01 -5.824609003009893760e-02 -1.909994817023702163e-01 9.798604956755995188e-01
-3.459744267704838866e-02 -1.637641428203799321e-01 -8.906644620718875416e-01 8.071818822853311648e-01 5.869284805565702090e-01 -6.302672149069304952e-02
-6.237142093511319901e-02 2.670355146580305136e-02 -8.913003360454194723e-01 7.721249759687399683e-01 -5.173387980542152320e-01 -3.690306078269016132e-01
-6.204265096794043394e-02 -4.467523342971409933e-02 -8.935383052998561171e-01 6.690449287274066181e-01 -7.080740858796197301e-01 -2.258538736658731449e-01
4.277477762346227480e-02 -6.204513021579236703e-02 -8.473085346427802200e-01 -1.245564085094718471e-01 2.299255057013591674e-01 9.652046223092779487e-01
-3.246867159153952326e-02 -1.794341006920111697e-02 -8.213029946620389321e-01 5.154310101831471869e-01 1.172195099098274629e-01 -8.488759981517207676e-01
2.394877339859525014e-02 -1.095741768973317737e-01 -8.179606209452017218e-01 1.013826032379765985e-01 2.337727442799426292e-01 -9.669911435956979329e-01
9.365995409044258757e-02 2.579181140900450586e-01 -8.593342291409872269e-01 -7.170586075192575404e-01 -1.225419840568521546e-01 -6.861562617406863351e-01
3.657394832908918841e-02 -9.424014337383182505e-02 -8.515620156936338780e-01 -4.035742958199503572e-01 -2.180000115058806087e-01 8.885965241530415781e-01
5.354430287358226404e-02 -6.629756378645469683e-02 -8.453507429992958011e-01 -1.283301653090547501e-01 5.449021583310795919e-02 9.902333992802968554e-01
-1.447547797697089703e-02 -2.329781527654359585e-01 -9.310121348575977063e-01 2.077667125910205304e-01 9.053971698750008512e-01 -3.702552604912710543e-01
9.533532004450721853e-02 -2.748414183518362378e-02 -8.154325046671129229e-01 -7.402282582266005440e-01 -1.845520544937197527e-01 6.465312559381487523e-01
-7.308851735677329708e-02 -4.347334830404013528e-02 -9.457761383447409465e-01 7.741091395045147650e-01 5.777404517473009316e-01 -2.587875780450148433e-01
-4.007877872149732956e-02 -4.281549698895235206e-02 -9.368883376428761567e-01 -9.467463823718210714e-01 9.028466163940528089e-02 3.090630475138162470e-01
-2.144575679505886234e-02 -9.680056971762203422e-02 -8.284233111443365383e-01 4.756977554940849395e-01 1.942256445073644866e-01 -8.578974556633144344e-01
6.942360256223892301e-02 2.697531847664709215e-01 -8.944886739980332235e-01 7.836965484295450590e-01 -5.955662663997908501e-02 6.182820781834809098e-01
-1.240601013037850864e-02 -1.985771041493125666e-01 -8.868256451806122431e-01 7.602779218731725575e-01 5.273644737281836248e-01 3.792943360526309093e-01
-4.484229941652120377e-04 8.962001353875910167e-03 -8.082246002660729012e-01 3.998153288537778516e-01 -3.410380518014696216e-01 -8.507883109428594492e-01
2.186657093948720862e-02 -1.587027946241145737e-01 -8.830455946198867423e-01 -2.930990827444606706e-01 -3.613453409159394503e-01 8.851680474874243920e-01
8.199525174368051117e-02 -6.007211584395227844e-02 -7.939180705650848990e-01 -4.120716414849567855e-01 -1.320060014467097087e-01 -9.015383396539188299e-01
4.159434548205976495e-02 -4.515995659720506428e-02 -7.906485377342024057e-01 2.514389696364183746e-01 1.764026005428583621e-01 -9.516620025355079227e-01
-5.478618966532759760e-02 -7.072160275681987907e-02 -8.620894421451300582e-01 8.784629967402716177e-01 -3.248925547804643738e-02 -4.767045328466927301e-01
-2.529210788537489610e-02 -1.645667569533889874e-01 -9.513815427825200732e-01 -9.323676066720985034e-01 -1.387341073684816850e-01 3.338315345817611246e-01
4.560684857426384325e-02 -1.868780571433884541e-01 -8.673541268212016098e-01 6.520286884138302985e-02 9.729642746067815873e-01 -2.215606152585629374e-01
-4.779956919366007417e-02 -5.820695147352020205e-02 -9.634406910737741692e-01 -9.552186956665045248e-01 7.622645567729534333e-02 2.859139221934790531e-01
3.460910782730894364e-02 -2.879616990229942955e-02 -7.906343241137246958e-01 3.077061042383343326e-01 3.172009664500428233e-02 -9.509525692080015302e-01
-7.225807171763559689e-02 -6.873424665013176671e-02 -9.097667750815040533e-01 9.731702105207264974e-01 -8.183374458332751122e-02 -2.150418089640142305e-01
-4.110154643151615883e-02 -1.094130901743912976e-01 -8.626569977135400968e-01 9.157658742603690116e-02 1.583553890676036302e-01 -9.831262886265677015e-01
-2.093127494078761419e-02 -2.045789272333597419e-01 -9.757287773878206005e-01 -4.682696272885997768e-01 -5.261950927688046065e-01 7.098184841950969659e-01
-2.455830387960358796e-02 7.551357223205733271e-02 -8.410612742026545297e-01 6.737316492980487403e-01 -3.343405637297152122e-01 -6.590159726281505925e-01
2.930326394014430569e-02 5.385849808520097939e-03 -7.974800540295376994e-01 6.837040926660392648e-01 7.045172922568566642e-01 -1.902737464359563480e-01
6.434449648235095187e-02 2.668754024925071855e-01 -8.877888594980893888e-01 8.335327334094155827e-01 -9.091208329167740909e-02 5.449386896216812382e-01
2.272593122272516947e-02 -2.153923898195385100e-01 -9.201914022728787668e-01 -6.783115098673307974e-01 3.369931303755687169e-01 6.529388376112855719e-01
7.139630060077817308e-02 2.233384631510804130e-01 -8.335845808813723279e-01 -6.202092062859766441e-01 -9.576599596829359073e-02 -7.785688244813812053e-01
5.876764749159733153e-02 -1.331672519279684386e-01 -8.263464512754183922e-01 -2.187190768687830578e-01 2.321020434299176094e-01 -9.477819405587573076e-01
-7.498775930059496664e-02 -1.073265824697716281e-01 -9.278179847301853966e-01 9.647522389626703720e-01 2.260953028813066645e-01 -1.346626578956637288e-01
5.524767445460899290e-02 -6.159234095238266815e-02 -7.918859566160256769e-01 1.250084806457414655e-01 2.929569774381623470e-01 -9.479182924371378771e-01
5.067548499755654239e-03 -1.624981348493978461e-01 -8.536443149694348254e-01 -1.804621497996267698e-01 2.119535353469814976e-01 -9.604733787792417710e-01
-4.054483998584603593e-02 1.963715731941364021e-02 -8.459511540453689138e-01 7.795361668755012019e-01 -2.656003597769850400e-01 -5.672563912547716747e-01
6.890383204629907388e-02 -1.396663104692589252e-01 -8.561138901108320542e-01 -3.848793901379751747e-01 -2.823773250390538836e-01 8.787097935899024215e-01
4.106332118105591317e-02 -1.049303714104230234e-01 -8.202199720709717479e-01 -3.066252276737621574e-01 -3.130486573508377973e-02 -9.513153920416306253e-01
8.856747411413221083e-03 6.156782356442491028e-02 -8.059463283352192864e-01 5.541412038302954285e-02 -2.078131812785569132e-02 -9.982471698327242127e-01
-7.356033846978887736e-02 -1.160195561707909467e-01 -9.669621969672227424e-01 9.724923276387743565e-01 1.273893136890714983e-01 1.950144493147773772e-01
-6.278304270167651968e-02 -1.043002875235230775e-01 -8.940512977284126306e-01 2.457814398963376612e-01 9.516869916309478317e-01 -1.840743158697587256e-01
-3.084435067226587793e-02 -9.194710451011438301e-02 -9.264523777208064637e-01 -6.549586673648980506e-01 -5.580505755361455655e-01 5.095181048671122426e-01
4.482429221784408127e-03 -1.612243726236089469e-01 -8.954712287775203894e-01 -6.803173164929879890e-01 -4.068694086776852292e-01 6.096110507217289420e-01
-9.464568821675569191e-03 7.399438930233594169e-02 -8.858474658993030770e-01 -7.228557333164753462e-01 -2.579934609414940017e-01 6.410296115804093864e-01
2.929876038062305139e-03 -2.354754375597727378e-01 -9.752569786962598242e-01 -9.045446338994929114e-01 -2.029203940933739791e-01 3.749964252424572431e-01
-3.851660692909285311e-02 -1.152787854082456542e-01 -9.471220738013191864e-01 -9.785095521644263661e-01 9.240379475426371836e-02 1.843382625446639556e-01
-6.943701320563525070e-02 5.906403671732221583e-02 -9.118186714513475399e-01 9.020365300880378578e-01 -4.018613001752526226e-01 -1.575994727408313034e-01
8.142501971146404519e-03 3.339347171899826466e-02 -8.729647947059995250e-01 -5.475982198793395428e-01 1.138472825937311417e-01 8.289601835015971698e-01
-8.084784830893441965e-02 -7.709959674108695683e-03 -9.553130102576455895e-01 9.992392308879601837e-01 -6.854071405780128023e-03 -3.839246227584700022e-02
-9.472975573056516968e-03 -2.411974989054651020e-01 -9.869406436833283447e-01 4.227495748018962329e-01 6.898493953977992421e-02 9.036171064790157192e-01
2.010653724296328215e-02 1.604876560331116309e-01 -8.111372800370074687e-01 3.796672839640853891e-01 -3.209827721250531063e-01 -8.676536252942476102e-01
-3.321501987672794603e-04 2.838593686994359336e-02 -8.788446236611932028e-01 -6.669482629304779309e-01 1.078931705842908345e-01 7.372510280191457710e-01
9.793375045242559696e-02 2.512103874339482457e-01 -8.648727208939803734e-01 -8.392067159513015850e-01 1.450210139129033682e-01 -5.241192549657994748e-01
-7.029652686220332070e-02 -4.943040706526298511e-02 -9.867392620217891874e-01 6.972356051407743172e-01 1.888179141077704071e-01 6.915275166151879649e-01
8.617924322094749900e-02 2.281617585261263292e-01 -8.559671346176905837e-01 -8.881637297959321664e-01 4.008044141378490632e-01 -2.247687938362301630e-01
4.582309677791492758e-02 7.306526743856046890e-02 -8.146935842652751614e-01 -8.602131771676181371e-01 -4.615740075506480911e-01 2.167549892870433148e-01
7.888096779942424530e-02 2.850654012397265125e-01 -8.956491268658993699e-01 4.161432015758735337e-01 -8.700835859498130542e-01 2.641578869594778389e-01
-4.595223693592243031e-02 -6.159835628577441102e-02 -9.562445859137881365e-01 -9.713896212991087742e-01 1.997499588030974757e-02 2.366499591632234001e-01
-9.173297726857166864e-03 2.924486418504921095e-02 -8.880545938807176132e-01 -7.439638735462357211e-01 1.157555160370259545e-01 6.581173264434557746e-01
7.604207395259707757e-03 -6.692714707582542166e-02 -8.747165872777200590e-01 -9.205618667467240224e-01 7.036369660348437693e-02 3.842067147930648408e-01
-4.710983387437910064e-02 -5.109710493069073017e-02 -9.632784205942397371e-01 -9.662395340500852248e-01 1.166641104038154408e-01 2.297186282876521324e-01
-7.421581514695818615e-02 -1.024532373858861450e-01 -9.183247492833713777e-01 9.751003509941373881e-01 1.255193843091194361e-01 -1.828228367949955024e-01
-3.940082868669855798e-02 -6.874899263282030493e-02 -9.312082320982407735e-01 -9.462860760303862806e-01 -2.455994951715761727e-03 3.233212495333565584e-01
9.532713341738581481e-02 2.399247460770073392e-01 -8.695532758136922391e-01 -8.205718789168585658e-01 5.662887799739726447e-01 -7.732275995103779498e-02
7.401707158432087319e-02 -7.040144192348890551e-02 -8.373172575340904755e-01 -5.047323477913233658e-01 -2.943755355492987946e-01 8.115345347938816012e-01
-2.954173815637104253e-02 6.969461546418523334e-02 -8.437020746885630640e-01 7.189702841482115137e-01 -2.569705382938892169e-01 -6.457924379866869513e-01
5.609491435333380759e-03 -1.389929307980090206e-02 -8.020583759354849018e-01 4.012253457666178913e-01 -4.164014450883053720e-02 -9.150324148792443602e-01
-7.678312901352624120e-02 3.356469157493347649e-02 -9.520192777848131005e-01 9.737937411572192836e-01 -1.878306862341726224e-01 1.282395531488866036e-01
-6.139784863608534898e-02 7.257165245935197351e-02 -9.168652877020013747e-01 7.327128837709918630e-01 -6.731153765665062183e-01 1.002373173310579929e-01
-4.165943129584490090e-02 -1.549526414374432781e-01 -8.857541798246080234e-01 4.793433861700613363e-01 7.582456204221550422e-01 -4.419202385562817081e-01
-1.690662810599881036e-02 6.845401259580821685e-02 -8.145200228902698125e-01 8.357977912514545915e-01 -2.078672449333395233e-01 -5.081665677934875669e-01
-2.919973608563266460e-02 -1.529666743660745842e-01 -9.486000021686290529e-01 -4.280006741130744086e-01 -8.242481792371432192e-01 3.707160125797214767e-01
-6.414784283912573770e-02 -1.354087885900239763e-01 -8.986996224089802698e-01 9.505627130946681103e-01 6.917100277026108635e-02 -3.027307398495567292e-01
6.178129952659808938e-02 5.321808124605736240e-02 -7.934275087027474749e-01 -5.862126949394855790e-01 -7.034775738481666707e-01 -4.018382502755094010e-01
9.677867845464228902e-02 -6.028720913565489316e-03 -7.960054072986417761e-01 -8.905592615720678840e-01 -3.262148563376738308e-01 3.169985317518111967e-01
-4.833169101787423982e-02 -4.127665048376717716e-02 -8.696987910779465647e-01 8.355082781259037805e-01 -4.022684463825271783e-01 -3.743073793395947368e-01
-7.899769662897996106e-03 -2.344744357433293513e-01 -9.322796559126301785e-01 3.757652112401296124e-02 9.366766915900875956e-01 -3.481734919434052444e-01
-1.979773604782546215e-02 6.413326777138850243e-02 -8.186547025403643207e-01 9.166168270500270054e-01 -2.531483043945291223e-01 -3.094018880855702869e-01
-7.489500921188410598e-02 -1.868713413996585596e-02 -9.105085474927695488e-01 9.582293173447088419e-01 4.089170029183835514e-02 -2.830626153845390847e-01
9.516417980891118955e-02 -1.710919791869666348e-02 -7.820729448507879322e-01 -6.701207603755890974e-01 -3.117703977679278995e-02 -7.415970325617534664e-01
-3.888177830860146955e-02 -2.131556462846845024e-01 -9.749206149134139743e-01 6.980121665690098842e-01 3.688971707806571465e-01 6.137539349867042748e-01
-4.938992153415116236e-03 -2.269165617705241333e-01 -9.807724708791732970e-01 -5.842744320315836903e-01 -4.351135025343444984e-01 6.850544708170768216e-01
-7.219248222126763148e-02 -3.200098441274561167e-02 -9.850046508303968995e-01 6.208016211609245216e-01 -5.966899836758554621e-02 7.816936470240607449e-01
-1.661215312772641381e-02 8.922245657592021290e-03 -8.957933110933856691e-01 -8.116396007356134756e-01 -6.136329614681519662e-02 5.809265912348411387e-01
-9.797923235922080532e-03 3.324575131434448494e-02 -8.897895202164850526e-01 -7.664936133074021773e-01 1.780371386698570979e-01 6.170820998969362980e-01
-7.776194677078111794e-02 -8.999192622349803938e-02 -9.522319402288594858e-01 9.998733520542696374e-01 1.440663354134617824e-02 6.762304471363453709e-03
1.960581415462080146e-02 -1.934277506268006486e-01 -8.682857352069632828e-01 2.215381985025370593e-02 6.723974107641791376e-01 -7.398587231787365770e-01
7.522894416390753236e-02 -1.280688930866547004e-01 -8.273266320163377152e-01 4.245903863382446963e-01 7.676893452017289343e-01 -4.799750754913019724e-01
-4.414824394825915543e-02 -8.513517765715943042e-02 -9.525248041094808160e-01 -9.487807946459937414e-01 -1.621427455599899481e-01 2.711544463459616972e-01
-7.575972452419890701e-02 -9.125353119459195250e-02 -9.221005305437121047e-01 9.883805000313860001e-01 1.791189961328810715e-03 -1.519894035656094711e-01
1.531681014761510431e-02 -5.208215771466299937e-02 -8.628908367742311736e-01 -7.245939903971719831e-01 6.175576295827138462e-02 6.864035072912614277e-01
1.702822884285884204e-03 2.616371997549788581e-02 -8.768818394941670924e-01 -6.229546130267322734e-01 8.019919650326917671e-02 7.781360028869915846e-01
-3.129612787504729154e-02 -9.093737220986437830e-02 -8.338806761258569233e-01 7.024145276309654573e-01 1.306381145787887665e-01 -6.996767213451273726e-01
2.137967799406587099e-03 -4.149926691772944098e-02 -8.063544243006556256e-01 4.924277701572581933e-01 1.780085267400250693e-01 -8.519553131390144030e-01
9.548859768377475354e-02 -5.868498365599546240e-02 -8.165630486068757854e-01 -6.690469990785133936e-01 -8.054536426833236451e-02 7.388427148716547599e-01
5.366602812350455137e-02 -1.373437515392725017e-01 -8.265730691209062231e-01 -1.535268528870779303e-01 3.629828871923010958e-01 -9.190608951794928538e-01
-3.656028465885114570e-02 -3.462516300928739077e-02 -8.356512924719327051e-01 9.234065598983243195e-01 -7.722176447685502598e-02 3.759748984012408202e-01
6.183610523654609753e-02 -1.721235039360157759e-01 -8.737593197029243086e-01 -8.266263562484921223e-01 -8.225762868646588344e-02 5.567068794960418066e-01
6.988263468971571413e-02 2.802593310146893613e-01 -8.801215223742727689e-01 4.726041757880645178e-01 -8.506660219586253957e-01 -2.302446787936082429e-01
-2.806620378953388062e-02 -1.759719077364633177e-01 -9.644386022021611549e-01 -8.655793320841183025e-01 -1.490326475027899666e-01 4.780812586235950734e-01
4.324758172246244425e-02 1.558804888773676900e-01 -8.124242611204960385e-01 -6.193947987710010095e-01 4.666953071323026725e-02 -7.836912900871348953e-01
9.677990485635286355e-02 -8.656900678567987228e-02 -8.066471459000159605e-01 -6.064798242860334199e-01 4.411519110968109558e-01 -6.614886348756215950e-01
-7.093448801143482918e-02 3.694094312698847915e-02 -9.151450125063523844e-01 5.677457117496707006e-01 7.141760852748570976e-01 -4.094109500383932843e-01
2.077426767273735445e-02 1.831546389603049829e-01 -8.221684095204686571e-01 7.155004544807710420e-01 -4.290791652489931995e-01 -5.513167597552582899e-01
7.719055524923738865e-02 -7.451746153106740544e-02 -8.367591606593204334e-01 -5.427275922917571549e-01 -2.852700298046526028e-01 7.899796014204700789e-01
-3.847055735769584761e-02 -1.940143717191066680e-02 -8.408798254586447030e-01 4.160235499438111884e-01 2.294488812120996923e-01 -8.799304613449090429e-01
-1.844018057621984660e-03 -2.639143405221666683e-02 -8.066085174385303480e-01 5.084369517940716676e-01 6.749359789937192655e-02 -8.584500453101221451e-01
-1.826798715066345682e-02 -1.795140836240750881e-01 -9.529391753378156915e-01 -6.211539167945734352e-01 -5.447611756549255446e-01 5.633853682425763454e-01
2.078841077566535855e-02 -1.913433150149932704e-01 -8.661886919801630169e-01 1.687529681525939268e-02 7.156933281033565075e-01 -6.982107736677645171e-01
9.113971603705926794e-02 2.872306559697199169e-01 -8.970823055803027746e-01 -5.917843318563599520e-02 -9.919060171523309544e-01 1.123404031624118671e-01
-7.613328582715435389e-02 -1.095348273545724976e-01 -9.481512116616206409e-01 9.925473843767160798e-01 1.218581799419038159e-01 5.232095048959545377e-04
-7.273453725313103191e-02 -7.389880523291336711e-02 -9.099808363090029495e-01 9.742121664889887844e-01 -7.674806016560963007e-02 -2.121800884287839695e-01
-8.293719357080030219e-03 -6.624944754406374148e-02 -8.877473804478895891e-01 -5.256588763233579487e-01 -6.597583981183220703e-02 8.481332055187957852e-01
5.374126821121378433e-02 2.376808597802492970e-02 -8.356017768601929907e-01 -7.020531369531098909e-01 -1.801800653184970624e-01 6.889532182638526958e-01
-4.224643599584630704e-02 -3.366056268047652039e-02 -9.554143508495052117e-01 -9.435283635079720899e-01 3.149034037621562532e-01 1.029080830400426610e-01
-6.547323208429316199e-02 -1.352049197405695014e-01 -9.731249003233375383e-01 8.779021993036599802e-01 -1.595341760553547206e-01 4.514826410042094285e-01
-7.496464931835966627e-02 -8.592348829803568566e-02 -9.178853260687800386e-01 9.801977027266698395e-01 -1.661610084610850441e-02 -1.973230061650959877e-01
-1.816376783373313195e-02 -3.849759253500446149e-02 -8.970050317518590832e-01 -7.379058421276785129e-01 1.382535340393500900e-01 6.605913475663087731e-01
-7.688554639512638900e-02 3.356963694451081670e-02 -9.350698428782888705e-01 9.881530960846236500e-01 1.411762625286639705e-01 -6.018904881131031948e-02
4.962601483353475118e-02 -1.467702805331558107e-02 -8.378804105819575021e-01 -5.112604834643416085e-01 -1.376378785165434104e-01 8.483327958090931542e-01
-5.596253733784713885e-02 2.828350913042442655e-02 -8.804133323878629014e-01 7.246809560394700256e-01 -5.763316802921008009e-01 -3.777291440243966125e-01
2.592642217926452095e-02 -5.382338043971100772e-02 -8.549777675585770176e-01 -4.926542940670762816e-01 8.497757446229524392e-02 8.660661397236216752e-01
2.933833680285629492e-02 -4.989811494370058331e-02 -8.538289488886594558e-01 -2.672084014545240138e-01 2.815127154308956769e-01 9.216020080505692436e-01
6.036452155563749866e-02 -1.559674625597825548e-01 -8.678791759366757397e-01 -4.766571080903771462e-01 -4.269853199426941748e-01 7.684279653034197244e-01
6.292764110669048228e-02 -1.437071958945998207e-01 -8.311372583014045023e-01 -2.038217495890480013e-01 4.354149850831781632e-01 -8.768526017293184482e-01
9.002481898386992254e-02 -7.316860496343326366e-03 -7.793173335932807033e-01 -4.982180058816222390e-01 -9.265732998243718377e-02 -8.620866765098886830e-01
8.961096313573916824e-03 9.286021486500908861e-02 -8.582068408858631869e-01 -4.558872926042578655e-01 -4.254780431619941128e-01 7.817513743057955544e-01
1.385747833030833050e-02 -1.518377590864694593e-01 -8.834531917850901861e-01 -4.285629690629390032e-01 -3.405291872038098133e-01 8.368832978440131631e-01
9.577966008589714267e-03 -5.258002793515327566e-02 -8.712182152796495993e-01 -9.097245637993510714e-01 8.445319001459246355e-02 4.065327498694779051e-01
-5.479876203994126990e-03 -1.108902096179802399e-01 -8.989670996238923184e-01 -4.709796428622536890e-01 -4.224844827769076994e-01 7.743933353419776289e-01
1.742661614354844637e-02 7.277374686828083639e-02 -8.626041263197140596e-01 -4.779125739296929964e-01 -3.305329362758084866e-01 8.138473749523235101e-01
-9.695555549771981210e-03 -9.617466479136240962e-03 -8.111030833868332346e-01 6.519045959940215074e-01 -6.321371367753703119e-02 -7.556615804213986376e-01
2.166523762908823848e-03 -7.268353327040033562e-02 -8.839314095318032694e-01 -7.359960777260844411e-01 1.852966959008017084e-02 6.767321663085787975e-01
-3.827885104169829328e-02 -1.648746149798494542e-01 -8.704223845962637540e-01 7.682761116332382789e-01 3.735813460872360880e-01 -5.197968777795425321e-01
-8.007711355362287509e-02 -4.001038719853897141e-03 -9.417162712212032716e-01 9.964184580821564552e-01 -6.059532721861855126e-02 -5.897849364341378048e-02
-8.079832820949015004e-02 -1.656578962810020816e-02 -9.522861406434169895e-01 9.995754732902296658e-01 2.551590368198975237e-02 -1.406456028124399363e-02
1.700270666238160033e-02 -5.099089816681009329e-02 -8.613566182345819833e-01 -6.869944277011965639e-01 7.097208009053476707e-02 7.231885094186216723e-01
-5.704054134353418737e-02 -3.388931091177025106e-03 -8.665798332446350560e-01 8.831922574299718720e-01 -5.393057616836483686e-02 -4.659001281067632894e-01
2.981881826015967893e-02 -2.071065791735982597e-01 -8.887016211518757869e-01 -3.168718991322729828e-01 8.102108074942501181e-01 -4.931030794467033962e-01
8.527296372790084400e-02 -1.289120841492946701e-01 -8.475241745657210446e-01 -3.881104052293710138e-01 -1.583532836592949355e-01 9.079066862332342280e-01
-3.963714652822999257e-02 -1.155592066188158989e-01 -9.530215397876150574e-01 -9.781198887065344350e-01 1.039735535460516447e-01 1.801970684548528934e-01
8.947790632918654896e-02 -2.611084442467719730e-02 -7.791851285970162744e-01 -4.311739303173947047e-01 1.057318617624441043e-01 -8.960523507155693235e-01
-7.779784517436973135e-02 -1.484062439776089384e-02 -9.220908556245461796e-01 9.786872143721813133e-01 -1.196923612835695469e-02 -2.050074969627293520e-01
1.043080269646962620e-02 -6.203592052403521934e-02 -8.139177167018165626e-01 6.791329643628792878e-01 7.269100342358523204e-01 1.018833590088198682e-01
7.095498822261264715e-03 -2.107365977028836379e-01 -9.399510526065212312e-01 -8.644206432854432132e-01 -3.382054364752051234e-01 3.720134865842856242e-01
-1.770622670307328561e-02 -8.358183156716376960e-02 -8.239099053789248339e-01 4.833136998614643298e-01 1.339017478530422078e-01 -8.651463399033265667e-01
-6.907853954025081067e-02 -1.098410326426779854e-01 -9.803621510666301608e-01 7.614466034123978933e-01 2.123237280004655614e-01 6.124685336241421085e-01
-5.507752022609045672e-02 7.966504509542390866e-02 -9.125990082332171571e-01 6.467656197650549776e-01 -7.517224937281106190e-01 1.288701886128641450e-01
3.163456448747680588e-02 -1.450767684053972661e-01 -8.313361691860732261e-01 8.650589213345186157e-02 4.935587306847334932e-01 -8.653996244458802556e-01
-3.726287443629369700e-02 6.282176486573767815e-02 -8.502059190161215252e-01 7.637749516432956742e-01 -1.783570436422225181e-01 -6.203519873632126203e-01
2.862001051778690838e-02 1.095285697205680142e-01 -8.445980155037309256e-01 -4.827512861611963357e-01 -1.885944092215922629e-01 8.552095325240879342e-01
4.008388194493471557e-03 -1.228911412117230095e-01 -8.830198365677025540e-01 -6.147174232857365306e-01 -1.051663347422781974e-01 7.817048877586858513e-01
-2.123612022464525101e-02 -1.590907744677693136e-01 -8.548302660697545408e-01 4.163510378319007499e-01 4.378644728822480015e-01 -7.968227636581740603e-01
-3.589407258657534294e-02 -1.468454693616790541e-01 -9.497464133794555341e-01 -8.674119493172064432e-01 -3.806844344882188702e-01 3.204307593226801143e-01
-7.335245265942060000e-02 -1.121153658451476583e-02 -9.045334739189826445e-01 9.605581545140268185e-01 -6.116946818770031651e-03 -2.780118967926071827e-01
7.623178921034559630e-02 -5.817788679604754369e-03 -7.742406401869859067e-01 -1.422254675318081751e-01 -8.180092775668305546e-03 -9.898004861928184628e-01
-5.266561526232620832e-02 -1.801337447937726433e-01 -9.166990631675394630e-01 9.287979068377679726e-01 7.164416779733567830e-02 -3.635953265299323167e-01
-2.464595125365903749e-02 -8.255276624967600174e-02 -9.080026478022121816e-01 -7.172185750030029006e-01 -3.942036108032588859e-01 5.746312112131872762e-01
-4.216299937783957869e-02 -1.394475839009585438e-01 -8.721510208116141083e-01 8.095459710158791067e-01 2.237899731348851617e-01 -5.427277114136008773e-01
-8.033915923238363344e-02 -3.310874525013186159e-02 -9.536909846454293405e-01 9.993252680217172834e-01 3.589709679893868938e-02 -7.772202694893702232e-03
6.835044025576952897e-02 2.309327296480145897e-01 -8.767701871983757389e-01 7.708446218107879722e-02 5.765275460138649111e-01 8.134334480321573357e-01
-3.366643695272588527e-02 -1.787936115115350000e-01 -9.751835481111655879e-01 -8.627849543985016689e-01 7.233332129161569590e-02 5.003698762860324667e-01
-7.841311168980827362e-02 1.273842902250799623e-02 -9.522272308343266989e-01 9.358244759887404118e-01 -3.523000634779197004e-01 -1.082660675618870444e-02
-4.206680009872943576e-03 -7.424697797289137036e-02 -8.877328678348964663e-01 -8.943589460096416921e-02 -2.853139310541185636e-01 9.542521582387807344e-01
7.283050048945430288e-02 2.077434100402052730e-01 -8.369858406221750702e-01 -8.716090689898834398e-01 2.370125318038793505e-01 -4.290951999527651828e-01
3.358242175776220140e-02 1.556969526565389061e-01 -8.449568867525338867e-01 -1.784672129913846272e-01 2.630272016207358954e-01 9.481382520996883834e-01
9.724916287378949920e-02 -7.148935519096460967e-02 -7.981965426117068052e-01 -2.598945262992479743e-01 3.226547544235684462e-01 -9.101366626213648336e-01
6.732277406744142934e-02 2.477559648079791788e-01 -8.868707260001609249e-01 4.430552877536996226e-01 3.763080759709175327e-01 8.136917376700787408e-01
9.488298038760156761e-02 -6.661000890893105375e-02 -8.178737393307918824e-01 -7.335025510066549570e-01 -1.277074961316768675e-01 6.675813082303211354e-01
-5.282503860095566842e-03 1.081836398337508443e-01 -8.293958265525632756e-01 9.062836487841210431e-01 -1.839434934191193638e-01 3.805453181623840719e-01
-6.906941337581101736e-02 -1.353635883386748728e-01 -9.173494360997367369e-01 9.800679497110689198e-01 5.630858519285372038e-02 -1.905155037857043376e-01
5.232237066636567790e-02 -2.846023998967249849e-02 -8.385867232814531169e-01 -5.219516180868948307e-01 -1.645903228853714539e-01 8.369447616115184285e-01
8.711543589380117691e-02 1.032432847201166307e-02 -8.009233236572866899e-01 -7.621801485916540608e-01 -3.391218580908105795e-01 5.514324858564649823e-01
-5.815988962232134657e-02 -3.120150572329268100e-03 -9.696101602161134592e-01 -7.821200698371943982e-01 -2.408303516042809844e-01 5.747076979682979037e-01
-3.076143453878179331e-03 1.203506941044280715e-01 -8.192017597740975932e-01 9.109776370727139527e-01 -2.377386069595359142e-01 -3.370461385542842803e-01
4.257641019385580150e-02 -1.949032156980582686e-01 -8.896190623211975845e-01 -7.657730709830653515e-01 2.503816646792642597e-01 5.923686569608533903e-01
-6.956054193231310523e-02 -8.604668506191509580e-02 -8.968924772362931730e-01 9.510356547891385404e-01 1.582659124013527027e-02 -3.086757235830377977e-01
1.094881117103409102e-01 2.743407340609438916e-01 -8.807423870607019589e-01 -7.560601147814894896e-01 -3.105445598809898344e-01 -5.761381597888852735e-01
5.966111877434523113e-03 1.457191087786460504e-01 -8.164188915314962713e-01 8.034690722010398023e-01 -3.026723709257940209e-01 -5.126664470145854136e-01
8.068158645066877965e-02 -1.488434640112579199e-01 -8.464320686972041097e-01 -7.695850329195862427e-01 5.977561397145110256e-01 -2.245583989517316859e-01
8.511779885845137394e-02 -1.412879435720724997e-01 -8.474283534070105040e-01 -7.940676915333394481e-01 3.338654264944569960e-01 5.079275324833134597e-01
-1.680163216414211000e-02 -2.395926475655439092e-01 -9.612436156930881381e-01 8.345757215885998281e-01 5.344889785346798039e-01 1.334349907626277143e-01
5.385552529134406130e-02 -6.461042259201391080e-02 -7.930275832121190804e-01 1.174161232610625022e-01 3.163652791034169409e-01 -9.413429046719158366e-01
9.958034701064996663e-02 -6.622500962327619589e-02 -8.126378679519218329e-01 -7.362195099063977288e-01 -9.542775898861306783e-02 6.699808773745669077e-01
2.303372605316913319e-02 -6.006011268294844663e-02 -8.563531467566835031e-01 -5.335563813998206451e-01 2.229178750501845802e-02 8.454706760600040338e-01
5.976304920017333489e-02 -1.702137271621184944e-01 -8.761550561061803855e-01 -7.596183385096306750e-01 -2.089357044575467504e-01 6.158943506825637071e-01
1.237136336674451824e-02 -8.012882045185179547e-02 -8.165281121786530649e-01 -2.440883015843186288e-01 -2.776020502080938646e-01 -9.291705993787932050e-01
2.563814845657233846e-02 -9.760833652041694952e-02 -8.165426242064637297e-01 -9.390297320206858478e-02 7.352615438075847144e-03 -9.955542027785483361e-01
5.763281130565447302e-02 2.681485551421293120e-02 -8.278928558764491186e-01 -7.433203646359169969e-01 -3.667589377715252952e-01 5.594307080257837628e-01
1.904278645714501880e-02 -1.831339141235455593e-03 -8.003237165549994536e-01 -8.360814644902637982e-02 -5.964648451997948131e-01 -7.982727392866069138e-01
8.266408862584195827e-02 -6.382539756177335599e-02 -8.292943916424129203e-01 -6.198300223928254749e-01 -2.368572107829781392e-01 7.481372902352999565e-01
-3.804975745390560410e-02 -8.602516654725560208e-02 -9.325191087849820093e-01 -9.118768013404360273e-01 -2.420530869580029831e-01 3.314981180508214109e-01
2.955330756258107636e-02 -1.974528859948868342e-01 -8.743037033205682818e-01 -2.381268878124823962e-01 7.863567968933939945e-01 -5.700338352065630332e-01
1.364486915452505465e-02 -5.947528686237561757e-02 -8.644596760237479582e-01 -7.694315168310692510e-01 -4.041445725746525136e-02 6.374494588213440727e-01
-3.671500262796176944e-02 -1.473540631334143147e-01 -9.525729156220734684e-01 -8.674119493172064432e-01 -3.806844344882188702e-01 3.204307593226801143e-01
7.902746286950030133e-03 -1.108070527777874764e-01 -8.210608129713207193e-01 2.388413294783972851e-01 3.102467467405894408e-01 -9.201639937912546863e-01
3.603085819495779191e-02 -9.120721459477715287e-02 -8.511218462590396383e-01 -3.844208873157904383e-01 -1.992223664340014022e-01 9.014050311085336498e-01
-1.144140570344611210e-02 -1.902728468280678598e-01 -9.567089525482814771e-01 -4.402755553641203301e-01 -5.771830611851657133e-01 6.877624220831906054e-01
-7.959036039220557246e-02 -3.125203245156479848e-02 -9.348032235676895230e-01 9.794001156214937609e-01 1.111206093937615186e-01 -1.686049337610370513e-01
-4.332162482444274626e-02 -2.176295356375554657e-01 -9.590289570103274208e-01 8.083370191850192121e-01 5.745917935758149131e-01 1.282011473053414341e-01
4.955587187319034082e-02 1.661552496360937103e-01 -8.422420338945558749e-01 -5.767999819235363201e-01 4.650224171592633460e-01 6.716069776233447586e-01
4.334991725427725373e-02 -4.265555252743583742e-02 -8.477134959710090900e-01 -6.673527677963341231e-01 -2.719829208840667811e-01 6.933004933374443679e-01
-4.963644064995676591e-02 -1.168305840131415863e-01 -9.855770546759996531e-01 -7.331720571715847345e-01 -1.439516480178084853e-02 6.798908102137547482e-01
-2.970324160187579401e-02 2.393354429849446283e-02 -8.326712992574074601e-01 9.903644502553468065e-01 -1.384851923068880775e-01 3.273868485748208565e-04
8.073656201057209658e-02 2.839849782305967074e-01 -8.998978365368420773e-01 4.861524127679991980e-01 -7.346899650254972158e-01 4.731664473001934157e-01
-5.964034868142446821e-02 -1.487403291817027823e-02 -9.769323085703579546e-01 -6.930282635797968549e-01 -3.125520710581321526e-01 6.496329954342250357e-01
5.508308197422577546e-02 -4.542308093949651987e-03 -8.333368895892704353e-01 -4.649031013187847061e-01 -8.763781853547876477e-02 8.810134613878032317e-01
-2.098951207464246765e-02 -2.580962360018145343e-02 -8.218348356847128278e-01 1.323991917073270574e-01 2.837477693695568681e-01 -9.497145136371492047e-01
4.686794586950326913e-02 -3.275197365477806877e-02 -7.881093229144203738e-01 1.340684320927668927e-01 -8.338395132890998734e-04 -9.909717252413677846e-01
-6.156714142800631326e-03 -2.322504017956875388e-01 -9.847605105438067552e-01 -4.241836877851088983e-01 -4.025530198260750536e-01 8.111838664852334402e-01
1.366580702772674481e-02 -1.960039172064111934e-01 -9.197715558988536211e-01 -5.013224636218357455e-01 -4.460451294935742217e-01 7.414307317094389616e-01
-4.406021598861588340e-02 -1.097229700027892441e-01 -9.750840177671377118e-01 -9.077727808426762079e-01 -1.610466382419240561e-01 3.873145474573982394e-01
1.533196382188971307e-02 -1.638074185925994519e-01 -8.524167190734575072e-01 4.518561477170250362e-01 7.003285188707508713e-01 -5.525993009646597010e-01
1.242657874320749443e-02 -6.438220628728474892e-02 -8.108038275600949474e-01 6.617306098702245842e-01 7.341557751249035979e-01 1.520785909046128981e-01
5.593131485736515390e-02 3.788661665926986583e-02 -8.238225264531479075e-01 -7.442719180025062498e-01 -2.908229745832270896e-01 6.012331573752681679e-01
-2.107409861071067939e-02 -1.590674128080966088e-01 -9.384394149525421280e-01 -8.381991928385710278e-01 -3.129965140395719603e-01 4.466041819372539301e-01
-5.213476559925672715e-02 -5.818864159376769402e-02 -8.584448353417334365e-01 8.637649004495726590e-01 -6.455917171849677449e-02 -4.997422436600305606e-01
-7.518985817155382501e-02 -7.928060386439433199e-03 -9.113662965598956500e-01 9.662141987093509909e-01 -2.511901802206637641e-02 -2.565134638689626767e-01
6.323613302153746618e-02 -1.382807118968912563e-01 -8.579592025431734825e-01 -3.406331205914397420e-01 -3.560349417379393144e-01 8.701771069258257274e-01
2.263962636884795168e-02 6.006800059872081932e-02 -7.977185677758541482e-01 4.424454454484057497e-01 -2.938088495821510882e-01 -8.473006477686504390e-01
4.663114455770745598e-02 -9.867856742208179488e-02 -8.491171605682117374e-01 -2.830368815152171647e-01 -2.363781015649933093e-01 9.295243497631843210e-01
-1.558532102515595985e-02 -1.319618499087429064e-01 -8.456570159905846262e-01 3.860910698716538136e-01 4.692775891743002914e-01 -7.941739293530847288e-01
8.616794995174402449e-02 2.296014720824886002e-01 -8.536716387279207341e-01 -8.897207429492351993e-01 3.723932257693901571e-01 -2.640459902496700151e-01
-1.633139975335971134e-02 1.205044758123897247e-02 -8.131415254242446711e-01 1.142411526170716424e-01 1.295660177583814188e-01 -9.849678198250730876e-01
3.075562872570259884e-02 2.106088538098214447e-01 -8.479126222422967984e-01 8.867201055346793925e-01 -2.724881332372934839e-01 3.734670958537337215e-01
5.725698742178172984e-02 -1.750370161453119744e-01 -8.802089377102083612e-01 -6.930398493335235832e-01 -4.745039292021242805e-02 7.193359628487124846e-01
7.100341201611719277e-02 -1.469382508523593145e-01 -8.355456709179152064e-01 -3.682322548798654949e-01 4.942699657459327933e-01 -7.874656865080562618e-01
7.197767608601203515e-02 -1.076308972620432652e-01 -8.114716279297000678e-01 -4.971100327783713191e-02 4.590429264942822996e-01 -8.870222138079043583e-01
4.451739059758989814e-02 1.874852701010543687e-01 -8.156938545082068615e-01 -1.380031626449451931e-01 -1.977506520145355107e-01 -9.704894676027241429e-01
8.374911477648024072e-02 -1.274150309981514073e-01 -8.257118500449930343e-01 -4.734698324386377166e-01 5.773898625406320706e-01 -6.651670951015526967e-01
-5.295248367049237154e-02 -1.891715941504803489e-01 -9.700538757661171241e-01 8.286557719085576590e-01 2.957112621613740971e-02 5.589768869791857941e-01
-6.155247364330744542e-02 4.764310959068527446e-02 -8.841431391447351906e-01 8.897345535376551817e-01 1.955994586597929914e-03 -4.564740938173013074e-01
3.994329032632047694e-02 2.388113716645512766e-02 -7.820772998919937047e-01 3.686042621283751597e-01 -7.940046968143535389e-02 -9.261892157411267812e-01
3.628548909043003735e-03 1.475306709488208579e-01 -8.264694951960068758e-01 9.481667634715821302e-01 -3.046860998437217471e-01 9.025613114822921002e-02
5.869482105685712436e-02 -1.398257107363419516e-01 -8.603813842865122297e-01 -3.721834557187531090e-01 -3.903966354305248299e-01 8.420629087745005181e-01
-5.297063779941987849e-02 3.240568398518071935e-03 -8.605171694324720288e-01 8.589878464271991643e-01 -9.680428470131720309e-02 -5.027611860056704352e-01
-6.141914629361086564e-02 1.456762121779085241e-02 -9.693516442810614642e-01 -7.773428827077522030e-01 5.285954642617631677e-03 6.290549271622613015e-01
1.882925555535237827e-02 -1.074288084854047309e-01 -8.673108308105108577e-01 -8.064952515428708280e-01 -3.641078966752406276e-01 4.658227654564915943e-01
9.367481167602974279e-02 -1.086036694467321928e-01 -8.196062226606836143e-01 -6.213222924824306492e-01 4.815730083004507445e-01 -6.180987352687523639e-01
6.478430861924276696e-02 2.575083427913987255e-01 -8.882659022398400328e-01 7.174733457604393072e-01 1.196558346176100907e-01 6.862320885569865858e-01
-2.644392129016529328e-02 5.225630681804740302e-02 -8.341898789740634923e-01 8.404066031022590089e-01 -1.913831975367196181e-01 -5.070396564005056339e-01
-5.296279578072853739e-02 8.099421603547923842e-02 -9.135388499855847666e-01 5.692489385409618130e-01 -7.972778879833583021e-01 2.007576033498706947e-01
1.058742178653472310e-01 2.558212589785259228e-01 -8.775791867816490344e-01 -8.693168133012565413e-01 2.868040182299668728e-01 -4.025316549526174459e-01
-2.451696311251637395e-02 -8.436417117377992270e-02 -9.091451424492110744e-01 -6.832726845257953707e-01 -4.714631370678394329e-01 5.575490552113459009e-01
1.819400910867313703e-02 -8.710240211682325484e-02 -8.162485802882804009e-01 -1.541558085250271104e-01 -1.142915376008835637e-01 -9.814139957891476751e-01
-2.310956152346686429e-02 -3.591817710524505824e-02 -8.258903847272137666e-01 -1.161159037838264130e-01 4.096363587228477599e-01 -9.048287962375819449e-01
-1.703485443749175885e-03 -5.456796995404537831e-02 -8.223422428468623036e-01 4.792436948771309213e-01 7.257709028914891003e-02 -8.746759667932325621e-01
-2.495759427373562492e-03 -1.376370342222458382e-02 -8.062456254903064279e-01 4.724030028583157681e-01 8.221470708946377118e-03 -8.813443199509644055e-01
9.638874476121937762e-02 2.832890465312040140e-01 -9.062607544608481946e-01 -1.642082776495237262e-01 -8.090160939084176661e-01 5.643833815311569690e-01
3.109699608832370427e-02 1.336839272491742725e-01 -8.062447412095739008e-01 -4.255063585879949040e-01 7.312687195446580801e-02 -9.019960085273879269e-01
-2.823040714893936681e-02 -7.570501695525003183e-02 -9.105575605296634123e-01 -8.463857780365287020e-01 -9.030425462020071070e-02 5.248583202493696254e-01
3.177259893580281370e-03 4.710211506109689139e-02 -8.805202668675294886e-01 -6.905634368283748437e-01 2.051043572363523138e-01 6.935808117000108464e-01
9.375129729212429430e-03 -2.299635527478327834e-01 -9.395691463715559744e-01 -9.218513734916712332e-01 3.875353077820846703e-01 -2.535826051563299776e-03
-4.399915900891082643e-02 -7.976739022170423188e-02 -9.495264339083744343e-01 -9.621712462708398306e-01 -9.656877799204473256e-02 2.547566760003394659e-01
2.713854532986570076e-02 -2.021966220895504152e-01 -8.798388998484729662e-01 -2.381268878124823962e-01 7.863567968933939945e-01 -5.700338352065630332e-01
-3.410333497314067819e-02 -4.537128736809508539e-02 -8.297675046518950825e-01 4.101205437462193681e-01 3.724648554042069848e-01 -8.325089015055805453e-01
3.082611552967249799e-02 -1.083763492848366788e-01 -8.583854379695996517e-01 -4.422187504306931971e-01 -2.678923962296399508e-01 8.559650932192607309e-01
-2.137302462732707659e-02 4.980853715136585730e-02 -9.137188158276609018e-01 -7.766169466407517596e-01 -2.583101968578814245e-01 5.745798120275702470e-01
3.178316125607252157e-02 -1.804786022620288588e-01 -8.632797362876948322e-01 2.472897424527484012e-01 7.642149862316561792e-01 -5.956704106270538368e-01
2.198895973531801717e-02 -1.490081952541761623e-01 -8.346930611350433793e-01 1.103004383551300233e-01 5.002623626569767668e-01 -8.588197609554205636e-01
6.930188743119468364e-02 3.220263016058426409e-02 -8.108869800572960918e-01 -7.253315973795658733e-01 -3.274581730039166083e-01 6.055288752617371539e-01
5.047335933751560810e-02 -1.506470285386861119e-01 -8.336170130951773283e-01 -6.249685760636653105e-03 5.102294386789641978e-01 -8.600156169124153482e-01
-3.570030643439113527e-02 -1.026394406527790732e-03 -9.276329448480346018e-01 -8.834972477530815826e-01 -8.992967508296299817e-02 4.597230326535777234e-01
