-2.836721570093437075e-02 8.894582260672503904e-02 -8.798004357194293412e-01 6.423257023664362686e-01 -6.074781748249743485e-01 -4.673199751677451497e-01
9.134059994784239633e-02 -3.564761840919866004e-02 -8.344109515918772813e-01 -5.402741443845185954e-01 -2.035172876898892497e-03 8.414866053484972852e-01
4.059140252607573024e-02 -1.691460963936391726e-01 -9.024624938438339239e-01 -1.511816184980348532e-01 -2.945370811147826062e-01 9.436058637358599732e-01
4.870772756417852956e-02 -2.310890415277457380e-02 -8.089653240490075614e-01 4.116304640533869907e-01 1.530258868452170073e-01 -8.984116200375127370e-01
1.297769626332037629e-02 -1.170122498631532143e-01 -8.974655056954078391e-01 -4.780195022502493063e-01 -1.892228211884849909e-02 8.781453767502500618e-01
6.009837864412172215e-02 -2.462363609719211283e-02 -7.957645403727372502e-01 2.878114831028067977e-01 2.669621703091222265e-01 -9.197259101591115371e-01
-2.901666891803439396e-02 -2.773780461624591673e-02 -8.449740790510429367e-01 7.228448710452468895e-02 3.090872951804480295e-01 -9.482826566388685707e-01
-2.244873069414258376e-02 -1.007231515319844360e-02 -9.349874109020644974e-01 -8.204146588116609795e-01 -2.074909984468800983e-01 5.327919604972118917e-01
1.066473248267859643e-02 -6.343567618388082363e-02 -8.261853105016161436e-01 5.132862037865876248e-01 3.094757128546564706e-01 -8.004761434018229371e-01
4.478855371857529827e-02 -1.653737740394364266e-03 -8.578615560401590123e-01 -5.859291470315409756e-01 -5.328583756775390895e-02 8.086084677849928459e-01
-3.377869817956243720e-02 -2.174053986912874992e-01 -9.688950703186614000e-01 -4.109895109249181444e-01 5.883453086332911530e-01 -6.963744823863766698e-01
4.969100552345737110e-02 -1.455093002653502082e-02 -7.972369146413159635e-01 4.207930015291090342e-01 1.674567722818242343e-01 -8.915668675321423153e-01
-1.049205978026361563e-02 -1.565693818237288981e-01 -9.488560775089053267e-01 -4.844397223782407336e-01 -4.585304910521499355e-01 7.450288210247758558e-01
6.212896765672196869e-02 -4.343117181535995075e-02 -8.530105608243910842e-01 -5.242169371165752434e-01 -1.593559432981747903e-01 8.365418615799602442e-01
-1.624303661588623673e-02 2.088291001150473572e-02 -8.337336382071383056e-01 1.641990168068861722e-01 1.497538832576023604e-01 -9.749935678397682048e-01
7.435592420425425619e-02 1.972312539494475436e-01 -8.608567072340342907e-01 -8.738336385734609690e-01 4.852942373785653074e-01 -3.007116999091537582e-02
7.436765083583748992e-02 2.761559774801813916e-01 -8.944954812251262322e-01 6.004972316860447412e-01 -7.726196189551653992e-01 -2.060630950533641204e-01
3.252452917196429344e-02 -1.337627821211137547e-01 -8.894207360923593875e-01 -6.661215127056705487e-01 -5.596574680183210582e-01 4.930168849056096314e-01
-3.454866013245610351e-02 -1.126816715984812894e-01 -9.577436508097060264e-01 -9.651244144583519535e-01 8.525790167869171099e-02 2.475196049159936740e-01
-2.221528951351937897e-02 -1.805629879750807187e-01 -8.916176236985139392e-01 4.147082318193732187e-01 5.874162850759852006e-01 -6.949526534151646562e-01
1.750864420305755370e-02 -2.037764594869917734e-01 -9.422148303041901762e-01 -4.343001723463109642e-01 -2.980516143586797728e-01 8.500285850947303379e-01
-1.457676821987170107e-02 -4.834393835913464166e-02 -8.484212766306845621e-01 2.924175163527278909e-01 1.339302244661992880e-01 -9.468657196796889108e-01
-2.099025623051711809e-02 -1.464766596111942432e-01 -8.714396617686527291e-01 1.568861390941768963e-01 2.385165122383659797e-01 -9.583822894595703801e-01
7.821241795361632068e-03 -1.064269835631942301e-01 -8.999892804519507017e-01 -5.321018035437684590e-01 -6.298214131465823540e-02 8.443346022406575946e-01
1.391103225815653981e-02 -1.366131789322898860e-01 -8.986662002524855586e-01 -3.748449922021027114e-01 -2.138059128472556969e-01 9.020965931941863358e-01
-7.216151505091050744e-02 -1.009169900816273280e-01 -9.954756813774691127e-01 9.478793974064900762e-01 1.387608104934300313e-01 2.868276232225817624e-01
-3.292169469793890940e-02 1.060648069346202885e-02 -8.462673081261817831e-01 9.449199707852525831e-01 -1.823697303916772816e-01 -2.717858168633235927e-01
1.282168457747081235e-02 -4.662731822469568660e-02 -8.867445872393755479e-01 -7.869427713398630120e-01 1.515758852728339989e-01 5.981185715555844551e-01
-7.164259762340952076e-02 -9.784208977437561239e-02 -9.307653753528858376e-01 9.710954304709209506e-01 7.299254424572614031e-02 -2.272570205802942889e-01
-7.071347395095359256e-02 -1.192022885131230336e-01 -9.914741029675565587e-01 9.334482889282352813e-01 2.251542174727765300e-01 2.792487605185942634e-01
8.539837873606242677e-03 1.534980083338604306e-01 -8.504388634471179431e-01 8.886346676212403262e-01 -2.920263601671339582e-01 3.536227261775218844e-01
-2.565860212942930318e-02 -7.842916462687543611e-02 -9.312991844999201074e-01 -8.256105997580767131e-01 -2.183023658328221983e-01 5.202991587912683125e-01
8.631236026805126638e-02 1.233448749989214319e-02 -8.113543320511519275e-01 -8.975606854361058984e-01 -3.750258741773658810e-01 2.318197783990187388e-01
-1.989733280578652452e-02 -1.956915953081884985e-01 -9.196372333393243448e-01 3.038807332236523884e-01 4.997683200491818134e-01 -8.111030306013373714e-01
-8.360315097783184435e-03 -2.481982770360686708e-01 -1.003569000885802476e+00 5.417201784407700282e-01 8.182057219689113925e-01 -1.925581595451944517e-01
-2.520450905820849352e-02 -9.615411653780828183e-02 -9.414024083813193888e-01 -8.690603500565245998e-01 3.231865924328035100e-01 3.745457708095284444e-01
3.714828802827901955e-02 4.335153201139233664e-02 -8.699391359829051762e-01 -8.545263734393168109e-01 -1.341136539273229122e-01 5.017949829630734548e-01
-1.245852291654603490e-02 -1.360955239451909771e-01 -8.610633444828891259e-01 7.408060671278148268e-01 6.717013648976011275e-01 -4.862849094827374936e-03
4.028928132045372229e-03 -5.999996058356960038e-02 -8.380603998960172163e-01 7.463691296732430924e-01 5.136385857443688252e-01 -4.232121518875968658e-01
4.934524813132228765e-02 2.850123018582305032e-02 -7.981340711727259452e-01 1.903316913910390595e-01 -1.795966653832787030e-01 -9.651522600271074115e-01
-1.515809401092683278e-04 1.038081666501111250e-01 -8.701162859015656448e-01 3.551952352853041672e-01 -9.346209415827567701e-01 1.788967259561549325e-02
4.897597274354279807e-03 9.695305562887528150e-02 -8.249594422203244681e-01 3.734898927054343676e-01 -1.599874044576329590e-01 -9.137337306140083104e-01
8.911932187545518191e-02 5.488630227244978461e-03 -8.112846436647229709e-01 -9.162557438807662491e-01 -3.541108633082569179e-01 1.872989810238817054e-01
2.155758668698753641e-02 -1.740893311108892005e-01 -9.106363583224523772e-01 -4.051576178192553557e-01 -4.623367085947427957e-01 7.887281360575429945e-01
4.470979346401678794e-02 3.725837209295756319e-02 -8.587311253042545500e-01 -8.397105626123906319e-01 -4.452547772934682957e-01 3.108606670753410461e-01
-4.118770821614117089e-02 -5.811202018929594731e-02 -9.713527369234679076e-01 -9.822916544977431386e-01 5.868122857656586644e-02 1.779315006310888403e-01
-5.326109474433978613e-02 -7.673685964307308538e-02 -8.807628341189975840e-01 8.185565172619800878e-01 1.580556674320830052e-02 -5.742085092611075581e-01
-4.980565872811328586e-03 -3.181255454270780908e-02 -8.288608558516930014e-01 5.604469021051349253e-01 1.146590472157318213e-01 -8.202149552479142125e-01
-2.329253680235281610e-03 -7.193748827056095640e-02 -9.086847999521235897e-01 -4.911672770454134640e-01 -9.406523061114291373e-02 8.659713842557769103e-01
-4.335335457369769024e-02 -6.755814164238743702e-02 -9.800894709471437150e-01 -9.713557596479720502e-01 -2.953669529634250432e-03 2.376115822829784063e-01
1.945286573466544974e-02 -1.133647427214027337e-01 -8.877559393762590734e-01 -8.103393296944844115e-01 -3.862596023001682033e-01 4.406287443882994648e-01
-5.507059556131974065e-02 -1.872418700463821528e-01 -9.898550461041366599e-01 9.013103225417007369e-01 -5.794809752558585658e-02 4.292804683105679309e-01
-3.095820818913259595e-02 -2.080733554947810093e-01 -9.606058417428413598e-01 3.650609024495148902e-01 6.733859496059851901e-01 -6.428700493692260931e-01
1.596567116166151823e-02 -1.966174696568302460e-01 -9.398340213962839140e-01 -3.116748052617619447e-01 -3.456819159803146690e-01 8.850778659130628112e-01
5.251529592503072913e-02 1.574790759253054118e-01 -8.535737632471410707e-01 -8.196705158566626181e-01 4.322224938246915227e-01 3.759307931883695275e-01
2.829922924148738778e-02 1.766927983071383823e-01 -8.344207712532808463e-01 4.033755930642108911e-01 -3.480702021150120506e-01 -8.462477564636204930e-01
3.028892243572868861e-02 -8.998772504612738421e-02 -8.729154106609999797e-01 -5.625288007968440862e-01 -1.431861785307351753e-01 8.142843892350071222e-01
-3.673015479401746386e-02 9.057727944868808334e-02 -8.970064419238656939e-01 6.590183670908771330e-01 -7.041743750645147459e-01 -2.642597989467447839e-01
3.316492703305383427e-03 6.341684402368404083e-02 -8.262369569181776674e-01 -1.458739957208024240e-01 1.303111143791563509e-01 -9.806833285223675034e-01
-4.829482805388266714e-02 3.171119003667362962e-02 -8.963785542826733233e-01 5.704941274587523869e-01 -7.493977612189297588e-01 -3.360646455894054085e-01
6.672013971851654957e-02 1.832363468147880647e-01 -8.524910988953372515e-01 -8.928044672298679485e-01 4.488774998380287151e-01 3.753895887677157622e-02
-7.577044532689684864e-02 -8.556623259350400190e-02 -9.680971631177708314e-01 9.991594999358410778e-01 -4.066441847355180272e-02 -5.167084106888594937e-03
1.353811790485038614e-02 -1.433023485534452987e-03 -8.215461037565010560e-01 1.782564832848052352e-02 -5.271232035870190291e-01 -8.496018917715681962e-01
-4.974305573441130390e-02 -7.828065404700665364e-02 -8.777780737506097886e-01 3.339937155288479342e-01 1.656655379862495558e-01 -9.279025420328158580e-01
-4.431922235934866033e-02 1.253117380753858076e-02 -9.749523808042114270e-01 -8.935530563406576254e-01 -1.822331594545472180e-02 4.485876126914579154e-01
2.186600408989940875e-02 -1.444079535148193039e-01 -8.522640327819965833e-01 1.527395195774168268e-01 4.441312710721360135e-01 -8.828465626682299172e-01
6.940160145130069846e-02 -8.729751715063360784e-02 -8.620194407808875470e-01 -3.519010303895809266e-01 -2.341860867760099940e-01 9.062684710235100471e-01
-7.604471620283213829e-02 -2.073021099451610380e-02 -9.512396580349217201e-01 9.907580266972124683e-01 -1.459594319270405248e-02 -1.348535908953145956e-01
6.097743274343552650e-02 1.844215742785910994e-01 -8.676036150354424770e-01 -5.640170056098122719e-01 5.288117874744032720e-01 6.342262299929477543e-01
-7.130632348571956658e-02 3.985331921156128054e-02 -9.455467065095819468e-01 9.535228160648564488e-01 2.166274461816393437e-01 -2.094439992087783198e-01
2.509440800761553181e-02 4.597653064562238351e-02 -8.115217393630580478e-01 4.989676212797610200e-01 -1.923806866830558016e-01 -8.449976238462288958e-01
4.852846375644646881e-02 -8.354304226276963730e-02 -8.646346465466053788e-01 -2.188769861911211978e-01 -7.918023132560188249e-02 9.725345011273975881e-01
7.802319545311457716e-02 -1.126708926020755092e-01 -8.330840669813769361e-01 -1.923805030961392437e-01 4.918500980072819107e-01 -8.491603047238510671e-01
1.060525847456601778e-02 1.601698665293835866e-01 -8.498726523727947457e-01 9.050990717571620880e-01 -3.250222613257041093e-01 2.741463112045263717e-01
1.143486128438626764e-01 2.525900040376823918e-01 -9.105017750298318724e-01 -5.978602116908098285e-01 7.557772658506440866e-01 2.671402098156407945e-01
-1.419176137387324031e-02 -4.189894893772443119e-02 -8.381608399636052420e-01 7.188910197897712129e-01 3.170026866253233266e-01 -6.186315529763655174e-01
2.454275592189900795e-02 -2.084707246658072111e-01 -9.103977089923206423e-01 -2.803632407347147470e-01 8.439433579585671197e-01 -4.573358304379249173e-01
4.056448654937382797e-02 -1.914389939274715458e-01 -8.966753950220620606e-01 -3.439937117108367581e-01 7.420252431042535513e-01 -5.753841020565957365e-01
1.155757435236197004e-03 1.025725525204230076e-01 -8.754386825668536432e-01 -2.008760962854148208e-02 -8.801920506606675243e-01 4.741924102019984821e-01
-5.328609727247259065e-02 7.239851630701925334e-02 -9.081208844953034820e-01 8.590365654444022114e-01 -3.859376326680109548e-01 -3.363158083113201857e-01
-3.539598226746618753e-02 -1.550649553233164613e-01 -8.836399159598053998e-01 6.081219001653325185e-01 3.793755223828450540e-01 -6.973248651497010453e-01
6.361226340550718561e-02 -1.152657783651143131e-01 -8.333137136505289755e-01 9.486536468325534877e-02 4.835550767862721866e-01 -8.701580605256356016e-01
-1.933271401782399659e-02 3.910347176712569706e-02 -8.331684727869070883e-01 4.880283232056142895e-01 4.548059633694848808e-02 -8.716420544615502974e-01
5.782973098588198302e-02 -1.763760097132889282e-01 -8.938708891004569779e-01 -9.060840088931099157e-01 2.537301051546483888e-01 3.385746632079870144e-01
-1.128602688298612974e-02 -1.010881654736909274e-01 -8.453351675649019015e-01 3.946893071130880282e-01 2.402949686194818524e-01 -8.868363315216357678e-01
7.418084916306837140e-02 2.678993587952818722e-01 -8.793569626316296572e-01 2.824191374666101262e-01 -7.583349068288639527e-01 -5.875096593907833675e-01
2.138472730435700062e-02 -1.853988710372355964e-01 -8.860034618035592668e-01 -4.607293674816158591e-01 7.969252603359537612e-02 -8.839556274125838220e-01
-1.895522117579264212e-02 4.313965653965990549e-02 -8.329372390469859111e-01 5.871578403297247339e-01 -2.668837674195087897e-02 -8.090323856844133799e-01
-1.185238869432390409e-02 -1.885839597299174830e-01 -8.932186209965677914e-01 3.320405376705161671e-01 6.223360003254220230e-01 -7.088349483782743210e-01
-3.695785555795037813e-02 -1.360007313492038183e-01 -8.765529979905076763e-01 6.546471745148170207e-01 2.738745350236060916e-01 -7.045777572173067549e-01
6.131699637635384253e-02 2.405549245231496658e-01 -8.574574503113158164e-01 1.738688836133335802e-01 -5.596499227855447067e-01 -8.102848728917423360e-01
1.102371136340189219e-02 -1.128319087753656830e-01 -8.984488438469913074e-01 -5.321018035437684590e-01 -6.298214131465823540e-02 8.443346022406575946e-01
-1.628467184634098744e-02 -2.119066753929354507e-01 -9.242533083225761281e-01 8.387875590137189308e-02 1.865394396384199294e-01 -9.788602513984425713e-01
3.690741857473456983e-02 3.542285749559373476e-02 -8.032780750402508385e-01 3.858894437307981429e-01 -1.918189915820971703e-01 -9.023828520564664002e-01
2.631119729367539101e-02 8.991423785953781347e-03 -8.077013415117982875e-01 6.239109111396557994e-01 1.055316828516589811e-01 -7.743372901232260519e-01
-6.980546657575088798e-02 -1.431105474372702246e-01 -9.626293439216629944e-01 9.855200681994118472e-01 1.683083415026051799e-01 -2.055474049625866453e-02
-5.078975813045371462e-02 -2.104433812797844305e-02 -1.000132799593517197e+00 -7.615746875228988078e-01 -2.801615804643100560e-01 5.843915503805120482e-01
-5.709995391538961670e-03 -2.084853338776329612e-01 -9.159838894465393011e-01 7.065616280099820123e-01 7.072733654576126572e-01 2.313119837245384766e-02
-4.722317582231797678e-03 -1.369069101432176250e-01 -8.557468082465284898e-01 3.032580686984222007e-01 4.298411192840340123e-01 -8.504535001644427661e-01
-3.668581168531387382e-02 2.418427585457393406e-02 -9.605167456292307282e-01 -8.974629177897917032e-01 1.527172197333616088e-01 4.138088471615190556e-01
2.996431434279338279e-02 -2.633482230398918184e-02 -8.743497045784388577e-01 -7.176464400528586030e-01 -1.950947663039587499e-01 6.685219661613690523e-01
-2.640541570846759167e-02 -2.515280709258541428e-02 -9.383837888386373782e-01 -8.761746041474681723e-01 2.136742551404774704e-01 4.320432567893978115e-01
-3.218298931697256837e-02 -3.801665822846449216e-02 -8.491970529151756653e-01 -3.600715096732059334e-02 4.246694783124290162e-01 -9.046321458300419227e-01
-1.999085475039061310e-02 -2.276783623630599107e-01 -9.466941231503923637e-01 3.529977268951211555e-01 8.560286874509177579e-01 -3.776340703219669415e-01
-9.290429501527502909e-03 3.395588816054447012e-02 -9.136626345233849200e-01 -7.893033968662981348e-01 1.925904473289712926e-01 5.830172101172912402e-01
-3.160026689352656709e-02 -2.029011491382373689e-01 -9.556850617953748239e-01 5.881873646535867861e-01 5.790182300573618601e-01 -5.646003128967503892e-01
6.429885444066008038e-02 -1.667196833526115793e-02 -8.472878728682701199e-01 -4.725961976309739354e-01 -1.140571504022469262e-01 8.738671526192436367e-01
-7.152572111635573104e-02 8.977583878844317550e-03 -9.967227445757552706e-01 9.077612189240236162e-01 -1.280753833429076616e-01 3.994574640673747012e-01
8.269985326614105736e-02 -5.199210305904836821e-02 -8.414801420469857351e-01 -6.273313601792422922e-01 -1.140156233815597664e-01 7.703608259514342915e-01
-5.481430087732576395e-02 2.595713341858341128e-02 -8.997495293969871577e-01 7.935039587848178311e-01 -4.683010317202744299e-01 -3.886458684748217429e-01
-5.681978603293645624e-02 -8.553171812408923158e-02 -1.012630541985303223e+00 -4.006684170742871309e-01 -3.680304821145465033e-02 9.154836728208376462e-01
-1.123325734013467733e-02 9.694428140824361273e-02 -8.938848666552207112e-01 -4.323335865460393168e-01 -8.008763138450680774e-01 4.143486453051035134e-01
1.455066513140993757e-02 -7.051286390984953800e-02 -8.273264182296622415e-01 6.746683915219058303e-01 6.531080227141363714e-01 -3.439076506093975971e-01
4.806173249325890184e-02 -1.292097463379954236e-01 -8.437642679664117962e-01 -2.000420876400966497e-01 1.405080229712452611e-01 -9.696600737646693391e-01
6.707857096238470374e-02 -1.408746760032533393e-02 -7.923413856902810082e-01 3.606360641264351463e-02 6.611702560716808952e-02 -9.971599446514963772e-01
-3.968437041446385566e-02 -1.687211705820226004e-01 -8.957451313904392087e-01 7.306509898787620916e-01 4.227711328150930425e-01 -5.361097837639487995e-01
1.008367148359105570e-01 -5.883310508552223872e-02 -8.172742669822574690e-01 -9.910959041647651180e-01 4.612130972309200216e-02 -1.249068994781837028e-01
4.179783065030901086e-03 -1.692882777496798608e-01 -9.243078178388586252e-01 -8.605399147034630269e-01 -4.972000436436161963e-01 -1.107392062593124671e-01
-3.663262931322335686e-02 -1.223882941641178494e-02 -8.569088289421602500e-01 9.749652981069339974e-01 -1.274292264123589591e-01 1.822209091822472038e-01
6.308582836114132869e-03 8.601103124632794583e-02 -8.864012534087210016e-01 -6.151262747562160627e-01 -3.622909573536674532e-01 7.002606145745332578e-01
-1.782603290295492124e-02 -1.347123059411442503e-01 -9.369715102772507853e-01 -4.648268559195629646e-01 -4.489288344689253973e-01 7.631506375534948816e-01
5.639898581639543607e-02 -1.437821631389350208e-01 -8.495152382327393337e-01 -1.557818575438630615e-01 4.307282181459508030e-01 -8.889348766658881074e-01
1.346129746879594531e-02 -2.216333251155541972e-01 -9.372667490983727090e-01 -4.872422543777785164e-01 7.961067201248698266e-01 -3.588998129295726258e-01
-6.207154369566067476e-02 -1.209214926579437605e-01 -9.123286650176645196e-01 9.540871242232256133e-01 -5.087960085985041014e-02 -2.951762619314048930e-01
4.328067946617775857e-02 -1.847709579375038935e-01 -9.060750988325207977e-01 -3.809682587359579653e-01 -2.389687411324104560e-01 8.931725066286372305e-01
1.140212039439914872e-02 1.946234485766564284e-02 -8.916542796297766138e-01 -4.726083238987280888e-01 -9.105224627550785946e-03 8.812255483507708265e-01
3.490388593067324241e-02 2.867062310227705066e-02 -8.690962213775658141e-01 -7.771107619866238769e-01 1.996500779981972840e-01 5.968573614858766474e-01
-7.239519144101884407e-02 3.408867117578823214e-02 -9.733979015780803712e-01 9.990156812714769963e-01 3.175615626805310815e-02 3.097119811640524495e-02
2.417457888812324721e-02 -1.439922711714322900e-01 -8.516555146591007208e-01 1.527395195774168268e-01 4.441312710721360135e-01 -8.828465626682299172e-01
-6.628762421290917972e-02 -1.223787389408499127e-01 -9.954005470680064027e-01 6.124843413215026455e-01 7.891060204400851541e-01 4.663282257355831628e-02
2.045682904946419939e-02 1.064792641491533742e-01 -8.687208076069893314e-01 -2.762231284095235662e-01 -2.807141225874292823e-01 9.191846194925291647e-01
4.967440972562409997e-03 -8.184744429328892623e-03 -8.985917583422702304e-01 -5.733788786797676673e-01 -1.658100108942736350e-01 8.023364018734118197e-01
-7.204965746339044019e-02 2.980517410747203152e-02 -9.777154446589072512e-01 9.844298383335993163e-01 1.745600256107383008e-01 -2.065649673254820601e-02
1.723296995420678726e-02 -1.891183569284983490e-01 -9.341331595550042000e-01 -7.197320205909263358e-01 -5.708235830704344593e-01 3.951534582244388139e-01
3.584669205626573457e-02 -1.455655550232412276e-01 -8.953988177281549943e-01 -3.998738255541030573e-01 -4.307496329777459887e-01 8.090461527788535001e-01
6.733845108200249563e-03 -2.086540217426007260e-01 -9.584231202514582604e-01 -8.683136856264120906e-01 -3.219241154218040468e-01 3.773542198833413353e-01
8.176935792978171080e-02 -1.849213159997181721e-02 -7.945182033203024297e-01 -3.460746696645375375e-01 5.694045383121240644e-02 -9.364774998546826490e-01
-6.969685955211425699e-02 -1.148389242551786371e-01 -9.968023467203351862e-01 9.160799499793297329e-01 1.167400453778500158e-01 3.836264941985190191e-01
-7.612937831786194265e-02 -3.202856324207597333e-02 -9.593403173315564469e-01 9.510764585697317752e-01 2.594507268018856894e-01 -1.677465061228713694e-01
-5.896569756660796635e-02 -2.931660647370725251e-02 -9.122481679289879963e-01 5.573017784982887690e-01 7.870312938863275321e-01 -2.645684601880155529e-01
5.900348757389203141e-02 2.696248867432199728e-02 -7.969163311237371650e-01 -5.021229529010983600e-02 -2.670769658431522142e-01 -9.623661567811466755e-01
2.345026892584512607e-02 -5.650620834882287558e-02 -8.176177395999282282e-01 3.984272214746049645e-01 2.211469206180643465e-01 -8.901403196626773706e-01
8.591610131138827100e-02 -1.400218570445510048e-02 -8.341886225278173361e-01 -7.487029541236558394e-01 -3.245474795804028090e-01 5.780249302448110527e-01
8.008554400982513533e-02 2.114858130713728190e-01 -8.757077788660315720e-01 -6.345225628106105908e-01 6.442571604562904453e-01 4.269822343904394746e-01
2.655840540041406669e-02 -1.785480750792498295e-01 -9.106811408173400846e-01 -4.051576178192553557e-01 -4.623367085947427957e-01 7.887281360575429945e-01
-4.322311004673031615e-02 -1.527866411290326465e-01 -9.007283420854733658e-01 9.676801046078336022e-01 -2.030500459585699718e-02 2.513621330561429112e-01
3.031401532873602769e-02 5.928898717359451292e-04 -8.112584317289841529e-01 6.332903609117553900e-01 7.494116264775152469e-01 1.931981699617877635e-01
3.734425345725522066e-02 2.556529479094076657e-02 -8.016653374287715517e-01 4.081270829161507407e-01 -8.325833949131516976e-02 -9.091206372619106135e-01
6.114611902753498002e-02 2.395649399257967094e-03 -7.928670829931508957e-01 1.576952775820187613e-01 -5.716967359661743325e-02 -9.858315413138223349e-01
9.535348432349530223e-02 -1.786769727797664353e-02 -8.168109074895282262e-01 -8.906373639626388172e-01 -2.896436393071746274e-01 3.505305238100914211e-01
2.687477930826084882e-02 9.361775280032291757e-02 -8.701295092675850329e-01 -4.883821053155801839e-01 -2.442404708032573368e-01 8.377526553997455272e-01
-3.702325557564241365e-02 -3.389287116591187254e-02 -8.664377936312863682e-01 9.784264497719614706e-01 -1.965690730379454632e-02 -2.056581833574471219e-01
-6.344250550678741385e-02 -1.244783268293793155e-01 -9.989341574532449863e-01 8.033205806151210160e-01 5.532182927310831388e-01 2.205120526136619685e-01
2.370530930721304053e-02 -2.108470527491362601e-01 -9.144009872274874162e-01 -3.538105731005705135e-01 8.581999325409880308e-01 -3.719018071331324782e-01
2.258248659291304389e-02 -1.726109645229197687e-01 -9.093269759631338323e-01 -3.910098780261311302e-01 -4.398126075943050162e-01 8.085024090793346829e-01
-6.578402910114744540e-02 -1.605510834717076285e-01 -9.820414878829802907e-01 9.700556801644212301e-01 1.806246901174167196e-01 1.623782580911894147e-01
2.877718238535841369e-02 1.424467973308187613e-02 -8.057362002424734992e-01 5.093252680695210532e-01 -1.326015834278598815e-02 -8.604719283664254981e-01
1.216416125419299624e-02 -1.635805123270513486e-02 -8.187254704159063756e-01 4.106632978460337258e-01 -4.956118358597669943e-02 -9.104390945493152643e-01
3.816378978997461702e-02 1.347368307798461617e-01 -8.291391840079418429e-01 -6.595166057386395719e-01 1.978003747384107780e-01 -7.251984959363387828e-01
-5.881222496583029397e-02 -4.031875589415596234e-02 -9.181535703009287008e-01 8.655332415669615420e-01 -4.416432621855489460e-01 -2.362275104823620964e-01
-7.389877295226326970e-02 -1.039912672462810911e-01 -9.861132215137110579e-01 9.824514251439445678e-01 1.356580812286239668e-01 1.280081334525267622e-01
9.242341942336725416e-03 5.552513269069583174e-02 -8.249405774081368659e-01 5.728882385744559214e-01 -2.472281610506926186e-01 -7.814584457836195597e-01
-4.121668694198513810e-02 -7.776239887240393722e-02 -8.762023400056938582e-01 9.944164660142695844e-01 5.717984700554509109e-02 -8.869248680758405612e-02
1.355943361886577207e-02 -2.076020678774758987e-01 -9.471497023937996973e-01 -6.990631058580383250e-01 -2.690901422543083843e-01 6.624962410230483822e-01
-3.666215979700689770e-02 -8.979061856250435125e-02 -9.611324290428776562e-01 -8.888571029311848060e-01 -3.820729730229449062e-01 2.528898848396053944e-01
2.103415237504653937e-03 -2.066455528957613641e-01 -9.705488964341152380e-01 -9.400844373084564776e-01 -2.694603508822826510e-01 2.088836279674392560e-01
1.226565185988582607e-01 2.750222850760845050e-01 -9.092633216852440414e-01 -7.655285899819398443e-01 -6.397222972589080570e-01 6.871215547520206912e-02
2.320584311635257371e-02 1.504923000146247414e-01 -8.631788793492335410e-01 2.038453205065939300e-01 8.090137050533396934e-02 9.756546794629352704e-01
-3.458872013593759787e-02 7.346044298733073186e-02 -8.750504086319573771e-01 7.545165831093956221e-01 -3.343592060546375366e-01 -5.647199723220659440e-01
-7.236233201860688136e-02 8.093254884816460798e-03 -9.402816786455413522e-01 9.774791515172159828e-01 -1.395107993855365935e-01 -1.583390198403156479e-01
-7.016414338799469019e-02 2.266686531835404930e-02 -9.730473073569317899e-01 9.659330554763320142e-01 -2.586427981685500699e-01 -8.788361263612272378e-03
4.639714354142421282e-02 4.097765666674946933e-02 -8.533011751664356659e-01 -8.301847555823285152e-01 -2.678675303837028676e-01 4.889174345069373095e-01
-5.263674346716043506e-02 -5.899175504978821510e-02 -8.805894361088287825e-01 8.576704685606491019e-01 -9.817289488601359249e-02 -5.047409732413806749e-01
7.201991104122891507e-02 -1.253828528100410789e-01 -8.681902695389664970e-01 -2.932494241237079691e-01 -2.075860276791199888e-01 9.332270979582180104e-01
-3.632576953962807220e-02 -7.759845208516577726e-03 -8.554627690305494081e-01 9.734732825306232629e-01 -1.265447609584259281e-01 1.906205436804443987e-01
7.402379120309252047e-02 -1.293576702169115800e-01 -8.683848091395798274e-01 -3.223151628007415170e-01 -2.015291922712880435e-01 9.249318464034059772e-01
4.462377249394224726e-02 7.360261272066405402e-02 -8.328415720310710091e-01 -9.103926123168741835e-01 -3.776757618453069343e-01 1.689565339175268521e-01
1.178735084256904708e-01 2.552637224919935277e-01 -9.053346552447444351e-01 -7.842500771610945165e-01 6.075110995048841334e-01 -1.260241264646726755e-01
8.208324899042241177e-03 -1.142599781282205296e-01 -9.001623268068973394e-01 -5.132937288486718597e-01 -3.687426094271019361e-02 8.574204550887242204e-01
7.159348672537653446e-02 3.119205017051697188e-03 -8.415676363027143614e-01 -7.287348290412656304e-01 -3.436881879883307844e-01 5.923039577611269868e-01
1.672424192701391088e-02 -6.853016462687275268e-02 -8.812377732100512562e-01 -7.035495827061611918e-01 -4.905141194047801106e-02 7.089512985111401377e-01
-6.080212426860114733e-02 -7.791317944207713786e-02 -8.964376553378455847e-01 9.272303236665991877e-01 -2.250181562499957433e-02 -3.738149210059865113e-01
1.473639748819818114e-03 1.178516799399661891e-01 -8.554158013714960873e-01 7.572912394505080247e-01 -1.900783670946706860e-01 6.248041237172951012e-01
1.630476353851147836e-02 -1.847382426571962943e-01 -9.241945294532419863e-01 -7.023366454389389224e-01 -6.269319176285512718e-01 3.371640656003622727e-01
-6.613878022051972172e-02 -2.025805854362374911e-02 -9.127538206889489469e-01 9.393264614144715141e-01 1.475448010455524261e-01 -3.096713266852386126e-01
-4.073732554445050336e-02 4.160287873897958871e-02 -8.894224386979756591e-01 7.498366479837877963e-01 5.224948565669426115e-01 -4.058868391578214219e-01
-4.269700262193141388e-02 4.232333027302710021e-02 -8.916986425544813910e-01 6.286307110432705070e-01 6.872098552835487206e-01 -3.640962014830637083e-01
-4.608765057113982377e-02 -9.569407862232595652e-02 -1.000497805130874385e+00 -8.993864958005630683e-01 -2.333734208177919711e-01 3.696495335143618610e-01
4.570257749664273506e-02 2.068792347380723207e-01 -8.780910060729018030e-01 4.613374050112184488e-01 1.051258252725077308e-01 8.809746645609560778e-01
-1.561700056443941081e-02 2.530834441233142246e-02 -9.202735065094733713e-01 -8.188878453769113941e-01 1.196247987583799327e-01 5.613489148613158841e-01
-5.913981663102435560e-02 -9.194592615441894712e-02 -8.933274577162909624e-01 9.028745382658726060e-01 6.907261237282927291e-02 -4.243189158771737413e-01
-6.782225881671775924e-02 -1.505726960848464448e-02 -9.161901476808212985e-01 9.533081228931085116e-01 2.869536150689706161e-02 -3.006329972807482709e-01
6.003210941389661853e-02 -1.319204593154970073e-01 -8.472672567947786559e-01 -3.145225408419659030e-01 1.120912042264668312e-01 -9.426086851060595517e-01
-3.781194984914904023e-02 -1.630352791312042211e-03 -9.629932082534079507e-01 -9.230656326174809800e-01 -1.105886640723350994e-01 3.684019343857813933e-01
-2.816671117846600639e-02 -2.032748785364999616e-02 -9.468277051504584430e-01 -8.623542629799207937e-01 3.655703438831194307e-01 3.502905205590572391e-01
7.597445314263555696e-03 1.025234679282174266e-01 -8.741513530180717861e-01 -2.806250672313533312e-01 -5.607658766820318164e-01 7.789680373355705179e-01
1.001986575140972474e-01 -4.422332331324588944e-02 -8.136851610896234099e-01 -9.820343835486544659e-01 -4.834745280405849943e-02 -1.824033808227616682e-01
-4.925845610735210545e-03 -1.253708822539695289e-01 -9.242700813091910828e-01 -9.823056124385741716e-01 9.185847125076892009e-03 1.870596268152811270e-01
-9.502792249803224470e-03 4.671014395661293728e-02 -9.218227406958782177e-01 -7.576951738231832989e-01 4.554349141506720544e-01 4.674152998540226922e-01
3.055481273678752399e-02 4.599592623581125889e-02 -8.087323379138423585e-01 4.147529714199225670e-01 -2.411785619534080882e-01 -8.773898072991452857e-01
-3.311662422605778783e-02 3.408033621733599916e-02 -8.745379469409108042e-01 8.631782547591579924e-01 -2.933291375025564029e-01 -4.109517217422752888e-01
1.375432265219436690e-03 -5.331096786536144300e-02 -9.043742807300928499e-01 -2.387184083286554848e-01 -1.998004579373979239e-01 9.503122110827786351e-01
5.232131064163794004e-02 -1.874063158303560656e-02 -8.548520953941708411e-01 -5.476562908139832597e-01 -1.337132223564067857e-01 8.259499750583784161e-01
-2.913692073884603315e-02 -2.061076573582593108e-01 -1.004326632716654677e+00 1.578922982524918681e-02 -2.329002164844435618e-01 9.723724540437295172e-01
4.237268503475749570e-02 1.304074643697627212e-01 -8.380353492809268223e-01 -9.166502900182177394e-01 2.981157844667531864e-01 -2.662315249201143152e-01
-3.945975419214260704e-02 4.025103549959715282e-02 -9.739957728173377349e-01 -7.682920595370135164e-01 -2.366694295971544793e-01 5.947393482413380061e-01
4.121772067697969388e-02 1.246828418844046632e-01 -8.447143406786685738e-01 -9.570477846095163388e-01 2.734288349709724231e-01 9.641685630860097334e-02
6.795314032281524197e-02 -1.118302125223349236e-01 -8.661732446962285836e-01 -1.998978677594235032e-01 -2.054375570236351423e-01 9.580377093984331349e-01
3.209172643495885463e-02 4.492400306647750807e-02 -8.785352794840828317e-01 -8.761777089969086108e-01 1.490539164563799424e-01 4.583618136864618386e-01
-2.813092647160594928e-02 -1.886635700688382433e-01 -9.958443063055293365e-01 -6.864405864497893361e-01 -4.055738819381223825e-01 6.035802743331755149e-01
-3.003420590432329118e-02 -1.182051420617835497e-01 -9.451765696898650759e-01 -8.713548485692046430e-01 1.185805086979867078e-02 4.905100554570797633e-01
-8.074156654749695301e-04 -1.768580239214530003e-01 -8.796706300014669466e-01 2.206176731788581646e-01 5.367060679240497345e-01 -8.144166249129815016e-01
1.091982724608396571e-02 1.729169107024169580e-02 -8.249698599097295970e-01 6.170671465903783126e-01 7.541522128918137780e-01 -2.246832801727550177e-01
5.109992123452307411e-02 1.555441252065309921e-01 -8.373880047018656958e-01 -8.549992549329260560e-01 2.912665816524310225e-01 -4.291154302476766769e-01
1.810363891586927454e-02 -1.919972234318833085e-02 -8.886238591583418556e-01 -8.481389184120969871e-01 -1.574310826489345267e-03 5.297715513503720164e-01
2.246464653292351305e-03 -2.869888202970156607e-02 -9.019332675664637478e-01 -4.676402589851735292e-01 5.179367034827848243e-02 8.824001381958944679e-01
-3.773183734268116540e-02 2.234489671684832847e-03 -9.617404213400118085e-01 -9.184895384533715568e-01 -7.779058669698402095e-02 3.877184447160741398e-01
1.714704508152128243e-02 -2.073582377955358047e-01 -9.058759766494735022e-01 -1.288120269672720641e-01 7.999419166423111793e-01 -5.860890646541772053e-01
-5.835301808985538657e-02 -1.488090473769675959e-01 -1.003854890951256351e+00 7.820485866978219569e-01 1.287191962640978626e-01 6.097797770974894283e-01
-1.888503404726473572e-02 -1.933869630477559054e-01 -9.170020337862813120e-01 5.942967667535622445e-01 6.306426060866016092e-01 -4.991004472193563135e-01
1.923751906924645386e-02 -8.043069569565854116e-02 -8.388763838084254409e-01 1.314648104964470932e-01 1.404785627748759147e-01 -9.813168586149115802e-01
-6.453626926601391256e-02 -1.289699585087873170e-02 -9.072627529243562083e-01 9.161720181816883635e-01 2.564852095446670116e-02 -3.999637314479153050e-01
-1.848038075946029438e-02 -2.641840129554378844e-02 -8.401273446546690948e-01 9.143466459986678840e-01 -3.866498225975260189e-02 -4.030821629616466728e-01
3.541810943721218630e-02 9.886988492567912179e-02 -8.583893765871499770e-01 -9.511243797659512111e-01 -1.884967302500565461e-02 3.082322242103909815e-01
5.851400671828520944e-02 -1.681851972905755097e-02 -7.943996794812511197e-01 2.514894094457717499e-01 1.571387003023010376e-01 -9.550185892452150993e-01
2.540420491024222740e-04 -1.073976942569725007e-01 -8.427050417622793388e-01 3.147467399877382777e-01 2.885985624109159708e-01 -9.042374463831078790e-01
5.416465308584976490e-02 2.421116492048397961e-01 -8.638719886984618235e-01 6.384846831640645926e-01 -6.468162090207254522e-01 -4.170924371322751734e-01
6.769616601592189260e-03 -6.854754954608832662e-02 -8.396265479834139622e-01 3.452474101602332479e-01 1.934517748449020857e-01 -9.183575755592202627e-01
7.256468247464853416e-02 -6.093189392142589478e-02 -8.103117453225801015e-01 -3.018379704511268136e-01 -8.108275392616945106e-04 -9.533588947257198853e-01
-2.414648594292571893e-03 -2.139020889087488164e-01 -9.248854886854033230e-01 2.883623140140857966e-01 7.159316604171576115e-01 -6.358372696443433947e-01
-7.017760091752710261e-02 4.606866250025869886e-02 -9.391005729605947927e-01 9.766144488157343373e-01 -9.084989628833413378e-02 -1.948602440436174865e-01
4.334244997174496739e-02 -7.923817631935614614e-03 -8.594108906676626303e-01 -5.701447755919119009e-01 -8.082608353429208969e-02 8.175586089607007612e-01
1.164205218717926857e-02 1.899128592222464398e-02 -8.195450021556176523e-01 7.434943524822084093e-01 5.393705258246196399e-01 -3.953423626412109759e-01
5.503050121894536434e-02 1.997850045687259851e-02 -7.956924817720391063e-01 1.696454026690150663e-01 -1.446303233802441468e-01 -9.748346049008487224e-01
7.918123362598648851e-02 -5.510078677374532358e-02 -8.117218876348710754e-01 2.630715417531865330e-01 4.711213755401399972e-01 -8.419251827975973157e-01
3.446385327202831222e-02 6.080967720689160055e-02 -8.741795455216431199e-01 -9.493816750364008072e-01 -3.217206761901624662e-02 3.124730279083224871e-01
-9.987994341740425927e-03 3.851155408021046667e-02 -8.299268877825907165e-01 1.719115892483525643e-01 1.384478957297583246e-01 -9.753351145376177866e-01
-3.163384870086823758e-02 -1.794814086206285297e-01 -8.969973892347949951e-01 5.569737780421016859e-01 6.031152245132871403e-01 -5.709923261601638211e-01
4.455767869445185353e-02 -1.915169992547075331e-02 -8.601689569191550699e-01 -5.851286028910716031e-01 -1.309480820811408930e-01 8.002981431179341243e-01
5.464807147591457109e-02 1.913846892620481577e-01 -8.741295665374595458e-01 -1.783664215430607325e-01 4.295836666818253491e-01 8.852362921763441417e-01
-6.423309519025791059e-02 9.742468029120661399e-03 -9.101934396086336365e-01 9.248723953395395769e-01 -1.175099103474266798e-01 -3.616662457419017596e-01
-5.100542490387734856e-02 4.087671723413652258e-02 -9.070630855751136146e-01 7.829428026185724088e-01 3.828153924102293826e-01 -4.903600138281843934e-01
-7.076732412479973255e-02 4.955756835205672034e-02 -9.529970724500232970e-01 9.666937203270657974e-01 -2.558936219079885888e-01 4.658899765803032299e-03
-2.096868902871714194e-02 -1.269602998232886859e-01 -8.618930264767383775e-01 7.001009644114456476e-01 7.054681280486200246e-01 1.103329503717707522e-01
-5.516136756623395143e-02 -6.658423474327258840e-02 -1.012688304462773026e+00 -6.924728448186021623e-01 1.905154532041647975e-01 6.958341909386485113e-01
7.502893675236127491e-02 2.643603689571121795e-01 -8.747212851447978554e-01 2.022424718368251995e-01 -7.010939622775509417e-01 -6.837874221154517373e-01
9.284187870131462017e-02 2.309995835087509664e-01 -8.708576502757955362e-01 -8.582843546819709513e-01 3.077446411118294201e-01 -4.106594725257213807e-01
5.499350982068020033e-02 2.474847353613121859e-01 -8.730008316088476716e-01 7.994150020214398911e-01 -5.801783348128567441e-01 -1.559767750559104826e-01
-2.915163225273686293e-02 3.203803198588345974e-02 -8.566782259345318007e-01 9.897813648480668913e-01 -1.422948647680153111e-01 -9.220697378719364817e-03
-5.186686170224206333e-02 -3.951576815223419026e-02 -1.009078380437031131e+00 -5.574903872507692704e-01 -2.718304340569671074e-01 7.844186912888985175e-01
7.001764520811061543e-02 -2.177528408851253650e-02 -8.448523084489459878e-01 -4.885173710648687551e-01 -1.221690790203068533e-01 8.639591971263452796e-01
2.234720213169808564e-03 -2.011254943863581279e-01 -9.635418141646902024e-01 -9.127074573413832548e-01 -3.154164335198088032e-01 2.597644524931592147e-01
2.248594665774237764e-02 6.219176938926971633e-03 -8.813714594117075807e-01 -8.627081314946208890e-01 7.221550366784509900e-02 5.005193311781865884e-01
1.853846995837326803e-02 -1.955025843825352327e-01 -9.382580997767755449e-01 -5.051039740989676785e-01 -4.430020898215919489e-01 7.406882770525879955e-01
-4.125924388551581445e-02 -4.158283432895305831e-02 -9.806538180833035412e-01 -9.775106662043566708e-01 1.491252776249993861e-01 1.491125381380826731e-01
8.216446064488250323e-02 -1.364865211394654387e-01 -8.540813952016019783e-01 -5.280478900131779785e-01 6.784093454179970228e-01 -5.108093439847740669e-01
-1.236657405749701233e-02 -2.227820363636412448e-01 -1.006900890090877798e+00 -4.465986873025233339e-01 -4.074320745736635385e-01 7.965856621282256800e-01
2.397758231336020313e-02 -1.946771621062301505e-01 -8.910680422465501183e-01 -1.900736113607260358e-01 7.211742030013887916e-01 -6.661679902168846645e-01
7.616184000609338423e-02 -7.650105558898993852e-02 -8.537662853481622349e-01 -6.222040455944012338e-01 -2.491796085451473408e-01 7.421399115606485131e-01
-3.922093098619364865e-02 1.002920681118321319e-02 -8.634049593549268931e-01 7.230058059276041060e-01 -1.363527172442237922e-01 -6.772521990330430119e-01
-3.888253510035308974e-02 -1.597371840078341265e-01 -1.002471126273628999e+00 -6.828189403884442621e-01 -5.294357002911052046e-01 5.034442709020223727e-01
-3.320912923752618318e-02 4.197550236808176433e-02 -8.699641714131622905e-01 7.342502341736097948e-01 6.461096534931576318e-01 -2.083720453394625194e-01
4.297258934960852123e-02 7.655394652547296841e-03 -8.590122976675551580e-01 -5.560688929542711989e-01 5.734419996799768049e-02 8.291556120648534423e-01
-9.643765490247540803e-03 -1.119090499157528035e-01 -8.477005768278650377e-01 3.421405591788396761e-01 2.768902493309967072e-01 -8.979262929607360055e-01
3.460103307581673311e-04 -2.459571412545822899e-01 -9.990325674280092771e-01 -7.320574125566828849e-01 6.463843329737881671e-01 -2.151260997806762887e-01
-4.002589542080798451e-02 -3.745814958570157366e-02 -9.766936110522967951e-01 -9.775106662043566708e-01 1.491252776249993861e-01 1.491125381380826731e-01
-3.615879889589376783e-02 -6.205304977534849969e-02 -9.506894453424413749e-01 -9.335504973496132619e-01 4.302288697033921500e-02 3.558546052744390176e-01
3.715041896773371016e-02 2.132350720829149504e-01 -8.512811824291288687e-01 7.425655746631688592e-01 -5.291263104001249218e-01 -4.106357448731279280e-01
9.909417453952823474e-02 -6.657263985765390912e-02 -8.249418364570973994e-01 -9.250552914002518889e-01 1.030774280492827155e-01 3.655786532049428716e-01
-3.706624194681133744e-02 -9.209254948198035418e-02 -9.660208870314567209e-01 -8.092350371571781498e-01 -5.133786348135698230e-01 2.856239344910989075e-01
1.370394078172137292e-02 -1.505295496939303979e-01 -9.032050091941092873e-01 -4.141657815678598809e-01 -3.571017041477334009e-01 8.372246283244827447e-01
-4.748714817248526898e-02 -2.852180640590702004e-02 -8.901260920321671932e-01 6.320567191542468821e-01 6.898319758746653818e-01 -3.530384523431182586e-01
-5.921156871578148878e-02 3.251590487592230516e-02 -9.921985581886650918e-01 -2.147937855300181553e-01 -5.081969613946825115e-01 8.340260656159951269e-01
6.053270186458225080e-03 3.870065094472915912e-02 -8.235912591961241924e-01 6.207592773448561418e-01 -1.041398133518391389e-01 -7.770539356218048033e-01
3.874817550436061853e-02 1.829545787159054249e-01 -8.335381094878883124e-01 1.621256480191614613e-01 -2.847506945445180682e-01 -9.447922079540991280e-01
-4.692832022493893113e-02 -4.452311392461016232e-02 -8.843358451872042059e-01 7.718141719287830993e-01 -5.037844036553663640e-01 -3.879486546483871257e-01
-8.026632767383086453e-03 -2.249521940104645124e-01 -9.336510865627030142e-01 1.090452627184971407e-01 8.643774081989128444e-01 -4.908776088537589177e-01
2.604951238752445646e-03 -6.632679801909543982e-02 -9.046990467680048331e-01 -7.356752406513785703e-01 1.388385155617877405e-02 6.771921285414518321e-01
6.984443391056718853e-02 1.917329785255987018e-01 -8.642440002329566662e-01 -7.611914736284380867e-01 5.690553639753348492e-01 3.110683738445070845e-01
6.165080583829599808e-02 -1.063533005125438108e-02 -7.928916710895708153e-01 1.588103308667444813e-01 4.022305153576860581e-02 -9.864894246443528525e-01
2.460676220993238822e-02 9.109378128872541724e-02 -8.301438314608484692e-01 -3.892629119092916867e-01 6.583740159356807342e-02 -9.187708212406978658e-01
4.037097640710643302e-03 9.238904066525344128e-02 -8.246346595527829226e-01 2.682307019118073121e-01 -1.065444246528925304e-01 -9.574448162308275556e-01
-3.525259918689267746e-02 -3.377882677424285524e-02 -8.479741319681273204e-01 2.721987667042569670e-01 2.618342473933714665e-01 -9.259323184210757063e-01
-1.220151020830240532e-02 -3.425369355171650754e-02 -8.344168507161765502e-01 6.276283835329183880e-01 1.099774258784579906e-01 -7.707058959038811663e-01
8.380667148832942129e-03 1.379774682666392582e-01 -8.321097123933302031e-01 6.473758747249521717e-01 -2.277964831829266124e-01 -7.273329630049730765e-01
4.061809921160822873e-02 2.202402472141706535e-01 -8.543483411682831763e-01 7.471187442151568936e-01 -5.677949943922228071e-01 -3.455755002680347965e-01
9.524860666879286786e-02 -2.014863708524461047e-02 -8.192157067883336641e-01 -9.068741292353602601e-01 -2.776958613322093039e-01 3.169610738285839613e-01
-3.361335709234399699e-02 9.582888342777144686e-03 -8.565209649269641679e-01 9.598617369847027847e-01 -1.551038207625680121e-01 -2.336840830214207687e-01
9.790936556130505619e-02 2.748042499936171335e-01 -8.846288888756342894e-01 -1.537062768131776946e-01 -7.241229668804723962e-01 -6.723245565234496901e-01
-3.284869992951047757e-02 -2.619216218752953851e-02 -9.540483616634345410e-01 -9.056190658838088048e-01 3.221780147001743200e-01 2.757814974786959028e-01
-9.236121821620238773e-03 -1.769136672374951869e-02 -8.306979586171037155e-01 5.666432183900463881e-01 3.126003348457001563e-02 -8.233700707210054315e-01
2.096837120180574873e-02 -4.829198737708217948e-02 -8.169095109118391651e-01 3.843886127010427978e-01 1.544735600302026834e-01 -9.101556535435918471e-01
3.327356254149169829e-02 9.147509843208916080e-02 -8.647589307524958802e-01 -8.742015991519161977e-01 -1.666300269426964076e-01 4.560767459115939171e-01
-7.668843991180718245e-02 -1.643220949499666142e-02 -9.829709434195089690e-01 9.992028070346921087e-01 4.747258307791488337e-03 3.963854125154869096e-02
5.538645311939342786e-02 5.121998458807494603e-02 -8.336623417382683643e-01 -8.001587937112164539e-01 -3.667055517310669477e-01 4.746292691946257802e-01
-2.471424544522391603e-02 5.844421959263219890e-03 -8.375838983188990117e-01 3.806695954993499220e-01 6.174626023360012261e-02 -9.226473098695545660e-01
-7.713985956852081882e-02 -2.230900385588186624e-02 -9.689178853085902432e-01 9.995132134887021458e-01 2.517854751030974749e-03 3.109656683527338081e-02
-1.260232790391282130e-02 3.983553603801890525e-02 -8.302715979131662927e-01 2.175909460209348723e-01 1.240809143113824897e-01 -9.681209154405073791e-01
6.241579980689292151e-02 2.600860474983045512e-01 -8.818802149186540928e-01 8.061370501784771436e-01 -5.793511550470507032e-01 -1.203964097271653239e-01
4.292934488306167362e-02 1.303808269844615730e-01 -8.412330059258887882e-01 -9.443387463909023172e-01 3.222180482424256698e-01 -6.633145145178599711e-02
1.595462402842319147e-02 -1.581339125188780670e-01 -8.617164669248120745e-01 1.919285795046729581e-01 5.505455329487943805e-01 -8.124426358331069409e-01
-4.936467252273749051e-02 -5.828490252736382576e-02 -1.003194561926983530e+00 -9.340836406000766479e-01 1.233542173535797787e-01 3.350693800161278491e-01
3.160286711693141484e-03 6.273381993194830641e-02 -9.005963639302477786e-01 -6.960551498208025212e-01 -2.922583282364686896e-01 6.558142252073865253e-01
-6.048870340053845440e-02 6.574399661295673991e-02 -9.215739700339058427e-01 8.828178383943297014e-01 -3.811111924497945780e-01 -2.745667918781489192e-01
-4.559424784389568691e-02 3.539511106608079355e-02 -9.823932406949119622e-01 -6.517974272823208182e-01 -2.661273214693780642e-01 7.101664329969995526e-01
-4.032124659214296469e-02 -9.676765925395731938e-02 -9.835883948472018412e-01 -8.833442409004840234e-01 -3.806308292615630529e-01 2.735381580028682369e-01
-6.517693980123927255e-02 -1.314731559826823326e-01 -9.225625748513361923e-01 9.594425632417561411e-01 4.400097219791715419e-02 -2.784490658733237423e-01
-3.445454527282949125e-02 3.273467003060537284e-02 -8.757110427629281046e-01 7.625776163626127868e-01 -4.942461055135820014e-01 -4.173681423005030089e-01
-4.345503052370368324e-02 -1.083844924395149095e-01 -1.003893150534316048e+00 -8.043307951761998753e-01 -3.040125114824129837e-01 5.105177418987293381e-01
-6.577116494378877631e-02 -1.393480667002886253e-01 -9.944448822854721204e-01 8.884884597641107273e-01 1.113856178163238897e-01 4.451758091020601160e-01
1.803315201621176478e-02 -6.999527118533244163e-02 -8.801597386181954086e-01 -6.501214559945572846e-01 -6.271080708949096361e-02 7.572380386177792744e-01
-6.911613807241881458e-02 -1.559259541345404173e-03 -9.216638138873646247e-01 9.605384929595189858e-01 -6.939764437058064395e-02 -2.693506459967571764e-01
